# .PCD v0.7 - Point Cloud Data file format
VERSION 0.7
FIELDS x y z
SIZE 4 4 4
TYPE F F F
COUNT 1 1 1
WIDTH 483
HEIGHT 1
VIEWPOINT 0 0 0 1 0 0 0
POINTS 483
DATA ascii
-0.41360608 -0.14214624 1.126
-0.40616468 -0.14282964 1.1260002
-0.4127681 -0.13603593 1.125182
-0.4049738 -0.1349922 1.1239598
-0.39894018 -0.13382617 1.126
-0.4105351 -0.12896906 1.123
-0.40462813 -0.12798457 1.123
-0.39710459 -0.12809943 1.1240001
-0.41302574 -0.16361405 1.138
-0.42000926 -0.15064465 1.138
-0.41303259 -0.15439977 1.1373848
-0.40577373 -0.15391198 1.1372501
-0.41407666 -0.14702085 1.1316
-0.40306967 -0.14577484 1.1339999
-0.3972629 -0.14226441 1.138
-0.40120649 -0.1396793 1.13
-0.39427748 -0.13518563 1.1338334
-0.38462329 -0.13281882 1.1361179
-0.37711042 -0.13168935 1.138
-0.39367244 -0.12923469 1.1340001
-0.38299665 -0.12625207 1.1362501
-0.37552595 -0.12435373 1.1380002
-0.37611279 -0.11871995 1.138
-0.42003992 -0.16015911 1.149
-0.41237861 -0.16258782 1.1434001
-0.40645182 -0.16218157 1.1455002
-0.39519343 -0.16150217 1.149
-0.42003992 -0.15814453 1.149
-0.4178465 -0.15431437 1.1430001
-0.40127188 -0.15646484 1.1426001
-0.39464888 -0.1547503 1.1439569
-0.38570592 -0.15395483 1.1450001
-0.39271814 -0.14579317 1.1422002
-0.38696313 -0.14462882 1.1470002
-0.37773374 -0.14001331 1.149
-0.3845551 -0.13820064 1.1423334
-0.37399903 -0.1352089 1.1424286
-0.36711809 -0.13376233 1.1460668
-0.38644025 -0.12570143 1.1409999
-0.37176952 -0.12703514 1.141
-0.36514738 -0.12519965 1.143759
-0.35894924 -0.12421472 1.1482
-0.38110539 -0.11903292 1.141
-0.37325177 -0.11773589 1.143
-0.36409876 -0.11647815 1.1454003
-0.35801166 -0.11606201 1.1467779
-0.40321001 -0.16278419 1.1562001
-0.39926469 -0.16071667 1.153
-0.4249931 -0.15518841 1.1570001
-0.40128627 -0.15869507 1.153
-0.39117831 -0.1506087 1.153
-0.38421115 -0.15145673 1.1543332
-0.38368687 -0.14578351 1.1547998
-0.37509134 -0.14427567 1.156238
-0.36656922 -0.1417996 1.1570001
-0.36309233 -0.13511713 1.1544999
-0.35594878 -0.12440958 1.1557367
-0.37096238 -0.11422002 1.153
-0.36470342 -0.11279939 1.154
-0.35460189 -0.11430979 1.1549046
-0.3491739 -0.11385555 1.1570001
-0.35500616 -0.10853045 1.1570001
-0.34892035 -0.10853045 1.1570001
-0.42793167 -0.16238935 1.1650001
-0.42646238 -0.15877835 1.161
-0.3826966 -0.15368931 1.1610001
-0.37658256 -0.15337634 1.1641428
-0.36748961 -0.15115808 1.1676668
-0.37283844 -0.14770956 1.1620001
-0.36589718 -0.14550619 1.1645294
-0.3612524 -0.13728127 1.1634001
-0.35662457 -0.13350834 1.1660666
-0.35217193 -0.12598233 1.1631819
-0.34872222 -0.12318131 1.1676668
-0.3747437 -0.1144386 1.169
-0.36539379 -0.11094129 1.161
-0.34510082 -0.11539105 1.1656402
-0.33921653 -0.11375539 1.169
-0.36256742 -0.10825781 1.1650001
-0.35387033 -0.10538463 1.1626
-0.34494048 -0.10723782 1.1650001
-0.33921656 -0.10760645 1.169
-0.26132995 -0.011273056 1.169
-0.26474601 -0.0064905477 1.169
-0.41133201 -0.16761778 1.1730001
-0.37534046 -0.15527783 1.1730001
-0.36619022 -0.15245059 1.1750001
-0.36246449 -0.14622414 1.1746001
-0.35567477 -0.14373966 1.1755883
-0.34772897 -0.14259982 1.177
-0.35309643 -0.13592029 1.1732858
-0.34697506 -0.13480192 1.1767778
-0.35066053 -0.12854125 1.1730001
-0.3440271 -0.12500079 1.1737621
-0.33711579 -0.123673 1.177
-0.36917046 -0.11003131 1.1730001
-0.34037724 -0.11551574 1.1730001
-0.33447936 -0.11424085 1.1739602
-0.3266944 -0.11422856 1.1765001
-0.35683051 -0.10386133 1.1730001
-0.34336051 -0.1036933 1.1750001
-0.33440545 -0.10427846 1.1736959
-0.32476333 -0.10435825 1.1766667
-0.31883752 -0.10008816 1.177
-0.3314876 -0.096159436 1.1758573
-0.3251718 -0.095158458 1.1768095
-0.31746176 -0.09481433 1.177
-0.32193303 -0.089769788 1.177
-0.31883752 -0.089769788 1.177
-0.27137303 -0.053655505 1.177
-0.26565102 -0.054312132 1.177
-0.258991 -0.051591836 1.177
-0.27229023 -0.044827569 1.177
-0.26500347 -0.044337977 1.1762002
-0.25787899 -0.04479406 1.1761112
-0.27324912 -0.034801036 1.177
-0.26459658 -0.035007931 1.1744001
-0.25857827 -0.035288814 1.177
-0.26453257 -0.0257328 1.1741202
-0.25830311 -0.025795916 1.177
-0.26470333 -0.015792387 1.1736958
-0.258991 -0.017541224 1.177
-0.36547619 -0.15116012 1.1810001
-0.32458013 -0.15064245 1.1810001
-0.35098138 -0.14494807 1.1810001
-0.34470484 -0.14294428 1.1863334
-0.32494178 -0.14489338 1.188
-0.31992108 -0.14805409 1.1810001
-0.34246877 -0.13584134 1.1828182
-0.33518973 -0.13511993 1.1880907
-0.32537991 -0.13435429 1.1889998
-0.33341488 -0.12647538 1.1825
-0.32561955 -0.12485393 1.1863333
-0.32195759 -0.11610102 1.18375
-0.3173798 -0.11301162 1.187
-0.32100466 -0.10907925 1.1850001
-0.31581184 -0.10505109 1.1864283
-0.30957994 -0.10527802 1.189
-0.32716849 -0.090074867 1.1810001
-0.31414938 -0.094422966 1.1861999
-0.30710429 -0.094203003 1.1889999
-0.32535887 -0.087410152 1.1842
-0.31512544 -0.088153511 1.1876668
-0.30610541 -0.087210514 1.189
-0.27536613 -0.083940379 1.1889999
-0.28247866 -0.073411696 1.189
-0.27512455 -0.075034112 1.1887499
-0.26788568 -0.074215792 1.189
-0.28340518 -0.066479191 1.1889998
-0.27449083 -0.065506645 1.1859999
-0.26681036 -0.065162174 1.1864117
-0.2821579 -0.055725984 1.189
-0.27562964 -0.055352334 1.1831819
-0.26263207 -0.057634111 1.1810001
-0.25987118 -0.054873195 1.1810001
-0.27778864 -0.04423923 1.1835456
-0.25780049 -0.040378388 1.1810001
-0.25780049 -0.033648659 1.1810001
-0.25755957 -0.024657303 1.1818001
-0.33258456 -0.15165018 1.1930001
-0.34325233 -0.14495666 1.1930001
-0.33552295 -0.1446778 1.1930002
-0.32377717 -0.14311971 1.1941429
-0.33572212 -0.13909982 1.1930001
-0.32123283 -0.13587944 1.1935714
-0.31795174 -0.13520551 1.1955456
-0.32160297 -0.12654947 1.1930001
-0.31746399 -0.1242959 1.1945385
-0.31335658 -0.11566908 1.1936154
-0.3065809 -0.1138088 1.1960769
-0.30504543 -0.10520597 1.1946367
-0.29539764 -0.10353785 1.1970001
-0.28437927 -0.10178889 1.197
-0.27598432 -0.10178889 1.197
-0.30232641 -0.095944397 1.1932857
-0.29489279 -0.095289841 1.195609
-0.28507528 -0.095573716 1.1945655
-0.27507871 -0.09506806 1.1938337
-0.2696881 -0.093393929 1.197
-0.30376354 -0.083699077 1.1934446
-0.29512897 -0.08519575 1.1957276
-0.28519887 -0.084454745 1.1931742
-0.27256092 -0.085798055 1.1934999
-0.2696881 -0.082900226 1.197
-0.28664702 -0.076187119 1.193
-0.26545456 -0.074628256 1.1941429
-0.26460344 -0.066935256 1.1930001
-0.32246429 -0.14590189 1.2060001
-0.31876126 -0.1424934 1.204
-0.31541744 -0.13313431 1.2042222
-0.31394613 -0.1251722 1.2025332
-0.30719212 -0.12378167 1.2049092
-0.30345967 -0.1157781 1.2037144
-0.29512659 -0.11327786 1.2060002
-0.28440297 -0.11218703 1.2060002
-0.2770021 -0.11206956 1.2060001
-0.3003197 -0.10853659 1.202
-0.29459932 -0.1073323 1.202
-0.28523284 -0.10582913 1.2031428
-0.27483675 -0.10498291 1.2038822
-0.2708146 -0.095189057 1.202
-0.26960129 -0.095153391 1.2060001
-0.2708146 -0.088515282 1.202
-0.26826409 -0.08504349 1.2042223
-0.26704317 -0.078109249 1.204
-0.30118936 -0.23094732 1.2140001
-0.29457828 -0.23347738 1.2105715
-0.28958929 -0.23301508 1.21
-0.29492027 -0.22480682 1.2153502
-0.2886965 -0.22538924 1.2116001
-0.29190007 -0.21536267 1.2181667
-0.28917831 -0.2144765 1.2172
-0.29174328 -0.15068059 1.2190001
-0.28853729 -0.15068059 1.2190001
-0.3214123 -0.14532503 1.21
-0.31952834 -0.14213133 1.2190001
-0.29174328 -0.14854327 1.2190001
-0.31374645 -0.13594376 1.2150769
-0.30543497 -0.13345848 1.216625
-0.29445562 -0.13375679 1.2166667
-0.28668565 -0.13419542 1.2170768
-0.30320188 -0.12600276 1.2109231
-0.29507655 -0.12525004 1.2107499
-0.28521034 -0.12556289 1.2119091
-0.27770528 -0.12392499 1.2165
-0.30125773 -0.11880587 1.21
-0.29531744 -0.1181694 1.21
-0.28534621 -0.11734733 1.21
-0.27446857 -0.11557042 1.2117896
-0.27078068 -0.10603897 1.2112857
-0.26873502 -0.1040149 1.2148334
-0.26560202 -0.094177283 1.2135236
-0.25968358 -0.090835817 1.2190001
-0.26358029 -0.084773831 1.2132351
-0.25873363 -0.084898844 1.219
-0.36465213 -0.23126905 1.2270001
-0.36228567 -0.22589068 1.2270001
-0.35570443 -0.22369356 1.22675
-0.34959278 -0.22266369 1.2270001
-0.30127791 -0.22193781 1.223
-0.3614251 -0.21836101 1.2270001
-0.35591623 -0.21732497 1.2265557
-0.34959275 -0.21728534 1.2270001
-0.30094123 -0.21710563 1.2260001
-0.29695192 -0.21595289 1.2244545
-0.2936579 -0.20975564 1.2270001
-0.2936579 -0.1613505 1.2270001
-0.28720388 -0.16027483 1.2270001
-0.30311343 -0.15276508 1.2250001
-0.2948027 -0.15481026 1.2245998
-0.2868008 -0.15436663 1.2262002
-0.30525553 -0.14457968 1.2240907
-0.29493433 -0.14456333 1.2229997
-0.28531742 -0.144214 1.224263
-0.27921659 -0.14175525 1.2250001
-0.30427995 -0.13788021 1.223
-0.2980614 -0.13830908 1.223
-0.2822535 -0.13586949 1.2242
-0.27803069 -0.13372084 1.2258574
-0.2748664 -0.12531003 1.2238001
-0.27155304 -0.11699555 1.2243334
-0.26860237 -0.11382046 1.2261113
-0.26482514 -0.10550313 1.2252221
-0.25521442 -0.10396583 1.2269998
-0.24632841 -0.10277538 1.2270001
-0.2618759 -0.097298816 1.223
-0.25500497 -0.094595879 1.2237056
-0.24563448 -0.094312847 1.2246841
-0.23772305 -0.094658948 1.2270001
-0.24593331 -0.086438462 1.2244117
-0.2391573 -0.088563502 1.2270001
-0.35571977 -0.23030032 1.2333335
-0.36613807 -0.22357102 1.2320001
-0.35317743 -0.22789125 1.2320001
-0.3479788 -0.2232116 1.2340001
-0.33048579 -0.22212979 1.2360001
-0.30565509 -0.22141093 1.2320001
-0.3632471 -0.21584484 1.2337143
-0.35469449 -0.21331321 1.2332308
-0.34550396 -0.2154755 1.2351305
-0.33521405 -0.21385533 1.2360001
-0.3280513 -0.21761759 1.2350001
-0.30360869 -0.2143009 1.2337143
-0.29917479 -0.2106104 1.2320001
-0.352157 -0.20912708 1.2360001
-0.34421089 -0.2084047 1.2360001
-0.33512965 -0.20649554 1.2360001
-0.32572201 -0.2047669 1.2352002
-0.30178899 -0.20395768 1.2353334
-0.29616714 -0.20500781 1.2327061
-0.32290089 -0.19829148 1.2360001
-0.30014613 -0.19287369 1.2360001
-0.30298007 -0.18395516 1.2360001
-0.29725662 -0.18167688 1.2360001
-0.30312592 -0.1752658 1.2360001
-0.29599631 -0.17482567 1.2341177
-0.30287254 -0.16389166 1.2353334
-0.29509458 -0.16656822 1.2320002
-0.28837425 -0.16632821 1.2320001
-0.30475736 -0.15724173 1.2336
-0.28549409 -0.15516765 1.2320001
-0.2843591 -0.14812745 1.2333335
-0.27531716 -0.13333136 1.2340001
-0.27227062 -0.12586728 1.233143
-0.2661218 -0.12349281 1.2356668
-0.25525576 -0.12182309 1.2360001
-0.24705169 -0.12027516 1.2360001
-0.26433697 -0.11575913 1.2328423
-0.25517797 -0.11510691 1.2322224
-0.24657382 -0.11475262 1.2325336
-0.23946676 -0.11594092 1.2360001
-0.25273246 -0.10908539 1.2320001
-0.24393968 -0.10541678 1.2327275
-0.23661533 -0.10377328 1.2348573
-0.23318203 -0.095026389 1.2333335
-0.23727231 -0.088028558 1.2336
-0.35035545 -0.23029594 1.245
-0.3432503 -0.22484265 1.2420001
-0.33657888 -0.22320744 1.2435
-0.32254845 -0.22120842 1.243
-0.31581423 -0.22132707 1.2436666
-0.33486894 -0.21693592 1.2410001
-0.32398951 -0.21563037 1.2409999
-0.31476897 -0.21565774 1.2423999
-0.30788797 -0.2154128 1.2410001
-0.34501049 -0.20526107 1.2432222
-0.33586338 -0.20238738 1.2421429
-0.3209433 -0.20779717 1.2410001
-0.31441557 -0.20562129 1.2409997
-0.30680004 -0.20562129 1.2410001
-0.29234686 -0.20197567 1.242
-0.33398366 -0.19864388 1.245
-0.32491806 -0.19603784 1.2423334
-0.31445667 -0.1947664 1.2411597
-0.30530408 -0.19542183 1.2409999
-0.29513016 -0.19516948 1.2422632
-0.31373876 -0.18599735 1.2438573
-0.30462414 -0.1882142 1.2410001
-0.29426268 -0.18530867 1.2428463
-0.30782309 -0.17517026 1.2436666
-0.29156882 -0.1784227 1.2410001
-0.28892449 -0.17553759 1.2436666
-0.27742556 -0.14034469 1.2410001
-0.25321639 -0.14079705 1.245
-0.24848677 -0.14152469 1.245
-0.27278623 -0.1369397 1.243
-0.2647267 -0.13374932 1.2434616
-0.25488889 -0.13489334 1.2428665
-0.24746841 -0.13448967 1.2435454
-0.26316139 -0.12801465 1.2410001
-0.25403476 -0.12710804 1.2410001
-0.24480978 -0.12587443 1.2426366
-0.2374227 -0.12416808 1.2446001
-0.24097945 -0.11423405 1.2410001
-0.23411448 -0.11554787 1.2421112
-0.22511619 -0.11393896 1.2447649
-0.21774428 -0.11078218 1.245
-0.24152341 -0.10988227 1.2410001
-0.23260228 -0.10814156 1.2410001
-0.22579412 -0.10507527 1.2426363
-0.21524543 -0.10460686 1.2450002
-0.20773931 -0.10296011 1.245
-0.2261693 -0.096556827 1.2431334
-0.21501565 -0.099321947 1.245
-0.34345317 -0.22860397 1.2516667
-0.29469413 -0.21081115 1.2590001
-0.29169759 -0.20454794 1.2566667
-0.28696808 -0.20418882 1.2589999
-0.29137996 -0.19520929 1.2552
-0.28630093 -0.19555779 1.2585001
-0.29113597 -0.18572912 1.2551
-0.28807178 -0.18763298 1.2590001
-0.29027924 -0.1799069 1.2590001
-0.25861666 -0.1413625 1.25
-0.24609217 -0.14259115 1.256
-0.238644 -0.14076769 1.2545
-0.25752082 -0.13917083 1.25
-0.2442067 -0.13691828 1.2516667
-0.23617873 -0.13449274 1.2546821
-0.22589539 -0.13207889 1.2589999
-0.21964094 -0.13134308 1.2590001
-0.23366556 -0.12576142 1.2513636
-0.22537908 -0.12533905 1.2541002
-0.21551684 -0.12504539 1.2585555
-0.20529255 -0.12030584 1.2590001
-0.22245418 -0.11834999 1.25
-0.21430926 -0.11576457 1.2530477
-0.20533481 -0.11444017 1.2572942
-0.21149583 -0.1084875 1.25
-0.20472252 -0.10516566 1.2530527
-0.19977392 -0.10706116 1.2590001
-0.2084531 -0.098182812 1.2528
-0.29173714 -0.2126127 1.2653333
-0.28550157 -0.21218422 1.2672001
-0.27790332 -0.21120653 1.268
-0.29143205 -0.20943215 1.2640001
-0.28315818 -0.20618172 1.2640001
-0.27648991 -0.20461668 1.2658461
-0.28260896 -0.19468854 1.2650908
-0.2782391 -0.19715445 1.2670001
-0.28736147 -0.18706243 1.2656
-0.2352903 -0.14150803 1.266
-0.23233302 -0.13777459 1.2640001
-0.2246516 -0.13677241 1.2652308
-0.21508142 -0.13414052 1.2661538
-0.20564847 -0.13117038 1.268
-0.2123871 -0.12890974 1.2640001
-0.20543586 -0.12517571 1.265
-0.19638503 -0.12190693 1.268
-0.20056731 -0.1152431 1.2640001
-0.19403104 -0.1149879 1.2667272
-0.18613347 -0.1147432 1.268
-0.19595496 -0.10681334 1.2661538
-0.29314157 -0.21566935 1.2746667
-0.28457654 -0.21623334 1.2780001
-0.27382785 -0.21427387 1.2770001
-0.26777083 -0.21399258 1.2780001
-0.27187732 -0.20494545 1.2754999
-0.26777083 -0.20839068 1.2780001
-0.27731073 -0.19791715 1.2755001
-0.21623334 -0.14004751 1.2780001
-0.20727031 -0.14004751 1.2780001
-0.21352737 -0.13838358 1.2729999
-0.20420051 -0.13539065 1.2763332
-0.19565119 -0.13257423 1.2766362
-0.18859731 -0.13183138 1.2780001
-0.2019954 -0.12833962 1.273
-0.19471768 -0.1262504 1.2744285
-0.18519895 -0.12537639 1.276889
-0.17591465 -0.12354662 1.2765
-0.1836998 -0.11446197 1.2738332
-0.17633536 -0.11643992 1.2757778
-0.285124 -0.22088099 1.2855
-0.27411363 -0.22266708 1.2837143
-0.26601797 -0.22219393 1.2865715
-0.25857458 -0.2201836 1.2880001
-0.28400272 -0.21932885 1.2830001
-0.2748172 -0.21932884 1.2830001
-0.26477593 -0.21461336 1.2832944
-0.2578693 -0.21463105 1.2845
-0.27106795 -0.20133263 1.2830001
-0.26519072 -0.20533521 1.2851877
-0.25857458 -0.20776299 1.2880001
-0.20468076 -0.14284293 1.2858572
-0.19500524 -0.14208613 1.2874446
-0.18480366 -0.14114334 1.2880001
-0.17727602 -0.14114334 1.2880001
-0.15582225 -0.14114334 1.2880001
-0.20358217 -0.13834588 1.2830001
-0.19374049 -0.13750231 1.2830001
-0.18457082 -0.1354464 1.2853334
-0.17514591 -0.13535671 1.2872107
-0.16598457 -0.13361569 1.2880001
-0.15662877 -0.13469107 1.2880001
-0.1810869 -0.12934779 1.2830001
-0.17385866 -0.12828603 1.2836251
-0.16560446 -0.12500699 1.2865419
-0.15582226 -0.12433158 1.2880001
-0.14791821 -0.12081869 1.2880001
-0.17324321 -0.112761 1.2844286
-0.16625316 -0.11647455 1.286077
-0.15494402 -0.11755671 1.2880001
-0.26345357 -0.22484541 1.2953334
-0.25810733 -0.22172216 1.2970001
-0.25614935 -0.21440287 1.294
-0.25711229 -0.20727555 1.2920001
-0.16373327 -0.15349995 1.2970001
-0.18439844 -0.14392774 1.2927142
-0.1737712 -0.14428717 1.2936666
-0.16522576 -0.14428154 1.2943077
-0.15894902 -0.14309187 1.2920001
-0.17103066 -0.13705105 1.2920001
-0.16468778 -0.13705106 1.2919999
-0.15479594 -0.13440819 1.2919999
-0.15177554 -0.12685718 1.2920001
-0.14837758 -0.12572452 1.2920001
-0.15580939 -0.11399201 1.2931111
-0.14837758 -0.11779594 1.2920001
-0.26205146 -0.22772117 1.3053335
-0.1735892 -0.15382411 1.307
-0.16692139 -0.15546992 1.306375
-0.17463724 -0.14906944 1.302
-0.16436449 -0.14952601 1.302
