# .PCD v0.7 - Point Cloud Data file format
VERSION 0.7
FIELDS x y z
SIZE 4 4 4
TYPE F F F
COUNT 1 1 1
WIDTH 456
HEIGHT 1
VIEWPOINT 0 0 0 1 0 0 0
POINTS 456
DATA ascii
-0.2852796 -0.1036483 1.126
-0.27869877 -0.082589597 1.126
-0.28231823 -0.079957262 1.126
-0.27580318 -0.076403603 1.1260002
-0.2663832 -0.073470429 1.126
-0.25961432 -0.074034497 1.126
-0.29124621 -0.10203522 1.13
-0.28367457 -0.10169935 1.1325715
-0.27868006 -0.10263487 1.1366667
-0.2915206 -0.095347144 1.133
-0.28431752 -0.094483137 1.1315998
-0.27727708 -0.093272381 1.1329091
-0.26836696 -0.090785846 1.138
-0.28341758 -0.085938364 1.1314546
-0.27434951 -0.084685728 1.1323076
-0.26679835 -0.083581515 1.1358668
-0.27420732 -0.075486258 1.13
-0.26404467 -0.077429824 1.1323334
-0.2566537 -0.076192603 1.1328572
-0.27397215 -0.10497354 1.1452224
-0.26770508 -0.10265504 1.1480001
-0.27246317 -0.095892839 1.1428825
-0.26492944 -0.095308475 1.1456668
-0.25723362 -0.093477815 1.1465386
-0.26192957 -0.086166695 1.1409999
-0.25521436 -0.085298926 1.143667
-0.24818094 -0.082824588 1.146143
-0.25206971 -0.078021578 1.141
-0.24716212 -0.078493513 1.143
-0.27136165 -0.11036795 1.155
-0.26879039 -0.11055906 1.1570001
-0.27190429 -0.10714445 1.153
-0.26501018 -0.10366396 1.1544285
-0.25842202 -0.10083639 1.156
-0.25421196 -0.09588857 1.1562001
-0.24687459 -0.091500983 1.1565001
-0.25168836 -0.089960903 1.153
-0.24400596 -0.085173339 1.1553634
-0.23745966 -0.083736375 1.1570001
-0.24346665 -0.078451678 1.1562001
-0.26145709 -0.11132351 1.1650001
-0.25693491 -0.11157834 1.1676668
-0.26431289 -0.10772182 1.1614001
-0.25479853 -0.10489602 1.1636087
-0.24588288 -0.10251906 1.1681111
-0.25161386 -0.098303705 1.1619999
-0.24416851 -0.096030295 1.1633157
-0.23625739 -0.093463302 1.1635
-0.22862992 -0.091902897 1.1674001
-0.23333293 -0.084732682 1.161
-0.22536486 -0.084587 1.1655928
-0.23435074 -0.077608012 1.1610001
-0.22610749 -0.078096345 1.1655713
-0.21958308 -0.078641385 1.1650001
-0.25354058 -0.11480013 1.1740668
-0.24621145 -0.11280138 1.1756668
-0.25194085 -0.10797465 1.1730001
-0.24441312 -0.10672021 1.1748463
-0.235393 -0.10371963 1.17575
-0.2255595 -0.1005009 1.177
-0.23384222 -0.097897016 1.1730002
-0.22491354 -0.095165722 1.1746472
-0.21978121 -0.094928972 1.177
-0.22109096 -0.087408043 1.1730001
-0.21770486 -0.08587639 1.1761429
-0.22520427 -0.077124752 1.1730001
-0.21909332 -0.078763522 1.177
-0.24078439 -0.12195573 1.189
-0.24357277 -0.1176396 1.1840001
-0.23547122 -0.11430218 1.1857617
-0.22808236 -0.11195953 1.1880001
-0.23295225 -0.1075278 1.1810001
-0.22516946 -0.10567548 1.1847893
-0.21674919 -0.10339344 1.1878573
-0.20951369 -0.1011086 1.189
-0.21482828 -0.094925664 1.1853477
-0.20669317 -0.093996041 1.1889999
-0.21316899 -0.084900655 1.1843847
-0.20553672 -0.085804157 1.1887776
-0.19909012 -0.086515605 1.189
-0.21531948 -0.078689471 1.1832858
-0.21721959 -0.22351581 1.197
-0.21266618 -0.21580729 1.1950001
-0.2451423 -0.12309584 1.1950001
-0.23642346 -0.12199235 1.1938889
-0.23218167 -0.11818255 1.1930001
-0.22483113 -0.1152449 1.1943334
-0.21540958 -0.11260111 1.1966668
-0.20777526 -0.11018385 1.197
-0.22172302 -0.10981565 1.1930001
-0.21345119 -0.10677314 1.193
-0.20608307 -0.1045357 1.1951541
-0.20261309 -0.097331211 1.1938001
-0.19734316 -0.094182432 1.1955717
-0.2112644 -0.080531478 1.1930001
-0.20464058 -0.081228726 1.193
-0.19687615 -0.084940434 1.1945558
-0.21197274 -0.078702748 1.197
-0.20462716 -0.078702748 1.197
-0.22449154 -0.23224477 1.2060001
-0.22148542 -0.22570661 1.2045002
-0.21766639 -0.22118126 1.2033334
-0.22096734 -0.21885282 1.2060001
-0.21743613 -0.21743438 1.204
-0.28651747 -0.19982214 1.2060001
-0.22149597 -0.13162887 1.2060001
-0.21744315 -0.13145266 1.2060002
-0.23352955 -0.12428722 1.204
-0.22447254 -0.12400553 1.2041175
-0.21486512 -0.12410412 1.2038823
-0.20828022 -0.1215849 1.2060001
-0.22234195 -0.11907413 1.202
-0.21391134 -0.11759197 1.2029999
-0.20612474 -0.11448675 1.2050002
-0.19982214 -0.1110123 1.2060001
-0.20236148 -0.10592914 1.2031429
-0.19731225 -0.10367489 1.2046669
-0.19364633 -0.095594652 1.2026668
-0.19265141 -0.085010365 1.2037778
-0.19770761 -0.079294503 1.2060001
-0.23316461 -0.23245099 1.2132223
-0.22753446 -0.23177752 1.21
-0.233522 -0.22641897 1.2154167
-0.22692804 -0.22408761 1.2124168
-0.22299324 -0.21601048 1.216
-0.21686402 -0.21280733 1.2162
-0.28423566 -0.20330076 1.2116001
-0.27498132 -0.20311666 1.2146249
-0.26823282 -0.20197611 1.2190001
-0.22121193 -0.20838805 1.2190001
-0.2169373 -0.20838805 1.2190001
-0.28426945 -0.19552517 1.2105
-0.27489707 -0.19526935 1.211136
-0.26689237 -0.19424123 1.2165625
-0.27430648 -0.1875678 1.2124667
-0.26819688 -0.1873121 1.2140001
-0.23314512 -0.13094155 1.2143334
-0.22606896 -0.13231529 1.2106668
-0.21389683 -0.13302375 1.2138889
-0.23282219 -0.12863563 1.2126667
-0.22700407 -0.12835276 1.21
-0.21179974 -0.1276456 1.21
-0.20607546 -0.12452956 1.2154667
-0.1998388 -0.12075821 1.2190001
-0.20239803 -0.11689149 1.2105715
-0.19739224 -0.11483577 1.215909
-0.19358817 -0.10576873 1.2138001
-0.18512596 -0.10280678 1.2180909
-0.1917498 -0.09516976 1.2106668
-0.18548128 -0.094552472 1.2118001
-0.17643066 -0.094028965 1.2166317
-0.16991641 -0.092973135 1.2190001
-0.15425625 -0.09658011 1.2182858
-0.14695357 -0.094845496 1.2156668
-0.19199876 -0.081679031 1.21
-0.18512329 -0.084363125 1.2115215
-0.17686366 -0.086342022 1.215923
-0.16991641 -0.087629847 1.2190001
-0.14854327 -0.087629847 1.2190001
-0.13678804 -0.080149248 1.2190001
-0.15174925 -0.071599998 1.2190001
-0.14720744 -0.074538805 1.219
-0.1372738 -0.075291723 1.219
-0.1282388 -0.072668657 1.2190001
-0.14854327 -0.069462679 1.2190001
-0.13732238 -0.067325369 1.2190001
-0.12717015 -0.062516414 1.2190001
-0.12451005 -0.053836197 1.2173333
-0.11652881 -0.050913472 1.215
-0.12318555 -0.045115016 1.2186153
-0.11580341 -0.044857275 1.2182857
-0.12256669 -0.035594486 1.219
-0.11571757 -0.035128914 1.2184443
-0.12075821 -0.028853729 1.2190001
-0.11473486 -0.026716417 1.219
-0.23679863 -0.22337203 1.2250001
-0.2315596 -0.21682458 1.2252858
-0.22686894 -0.21375306 1.2238889
-0.28397685 -0.20975564 1.2270001
-0.27492264 -0.20834158 1.2250001
-0.26536396 -0.20309605 1.2246668
-0.25751537 -0.20201083 1.2270001
-0.23126905 -0.20975564 1.2270001
-0.22532898 -0.20526458 1.2258887
-0.21740675 -0.20434456 1.2246667
-0.26196525 -0.19549111 1.223
-0.25445971 -0.19458349 1.2251664
-0.24704555 -0.19350107 1.2270001
-0.22122945 -0.19828182 1.2270001
-0.21710739 -0.1977611 1.2260001
-0.28305113 -0.18870074 1.223
-0.27447379 -0.18548426 1.223
-0.26418349 -0.18900758 1.2250001
-0.25512138 -0.18815358 1.2264287
-0.21190698 -0.18178824 1.2270001
-0.20851079 -0.18271574 1.2260001
-0.20581152 -0.17605133 1.2270001
-0.1968476 -0.1613505 1.2270001
-0.19770814 -0.15339054 1.2270001
-0.19792327 -0.14951813 1.2270001
-0.21418546 -0.13717993 1.2256668
-0.20551886 -0.13313191 1.2263335
-0.19828182 -0.13087319 1.2270001
-0.20290691 -0.12705135 1.223
-0.19720586 -0.1241959 1.2247779
-0.17468882 -0.12327178 1.2270001
-0.16888019 -0.12262638 1.2270001
-0.1928881 -0.11570622 1.2252859
-0.18544775 -0.11477017 1.2266362
-0.1753342 -0.11509668 1.2269998
-0.16632549 -0.11442439 1.227
-0.18507358 -0.10737482 1.2234445
-0.1751835 -0.10489643 1.2266362
-0.16506453 -0.10504124 1.2268094
-0.15565437 -0.1027872 1.2245002
-0.1490307 -0.10185552 1.223
-0.17304716 -0.097566858 1.223
-0.1649957 -0.095014587 1.2238889
-0.1557298 -0.094843432 1.223222
-0.16471626 -0.08476121 1.2252607
-0.15520117 -0.084973067 1.2255453
-0.14576218 -0.083917893 1.2262942
-0.15596311 -0.075477198 1.2241111
-0.14357761 -0.075415462 1.2245002
-0.13348433 -0.073979266 1.223
-0.12973176 -0.073979273 1.223
-0.145052 -0.065166101 1.2256085
-0.13408406 -0.06554231 1.2235998
-0.12844132 -0.065477937 1.2243334
-0.13492213 -0.054918282 1.2237617
-0.12973176 -0.053250778 1.223
-0.12881278 -0.044571362 1.2230002
-0.11150499 -0.041814368 1.223
-0.11198276 -0.034700513 1.2243334
-0.28189391 -0.2106104 1.2320001
-0.27973381 -0.2106104 1.2320001
-0.23619084 -0.21520834 1.2336001
-0.26461306 -0.20715423 1.2320001
-0.25432757 -0.20454606 1.2345002
-0.24678282 -0.20276833 1.2346668
-0.23434635 -0.20448123 1.2341334
-0.22789125 -0.20196997 1.2320001
-0.21493061 -0.20305002 1.2320001
-0.24417594 -0.19595979 1.2340001
-0.23524179 -0.19624116 1.2356924
-0.22501552 -0.195804 1.2340001
-0.21635632 -0.19501273 1.2348573
-0.26461306 -0.18684922 1.2320001
-0.25490162 -0.18626712 1.234286
-0.24773195 -0.18877439 1.2340001
-0.22331281 -0.18551861 1.2349092
-0.21595304 -0.18494609 1.2337145
-0.20845029 -0.18684922 1.2320001
-0.22212979 -0.1787874 1.2360001
-0.21439008 -0.17631067 1.2360001
-0.20579098 -0.17173868 1.2349092
-0.20303446 -0.1642819 1.2355556
-0.196521 -0.16338846 1.2324446
-0.20539249 -0.15448564 1.2341055
-0.19432485 -0.1550763 1.2322226
-0.18817024 -0.15297432 1.2325716
-0.2134714 -0.14312854 1.2345001
-0.20537846 -0.14484636 1.2330002
-0.19548966 -0.14472717 1.2320002
-0.18644522 -0.14458613 1.2334287
-0.21133043 -0.13860685 1.2320001
-0.20413007 -0.1377068 1.2320002
-0.19499874 -0.13549761 1.2320002
-0.1847125 -0.13502477 1.2321602
-0.17667507 -0.132847 1.2345001
-0.19313318 -0.12558074 1.2320002
-0.18468912 -0.12528618 1.2320002
-0.17424862 -0.12780632 1.2320002
-0.16619 -0.12473419 1.2336668
-0.16227803 -0.11637574 1.2320002
-0.1578977 -0.11366961 1.2348573
-0.1549826 -0.10720386 1.2324446
-0.14580719 -0.078843892 1.2320001
-0.12744629 -0.065883256 1.2320001
-0.27851349 -0.21432483 1.2410001
-0.26303944 -0.21064985 1.245
-0.25539929 -0.21064985 1.245
-0.24432887 -0.21252091 1.245
-0.26219434 -0.20997307 1.2410001
-0.25349081 -0.20888512 1.2410001
-0.24280916 -0.20621471 1.2410001
-0.23825958 -0.2034454 1.2410001
-0.21249086 -0.20268533 1.243
-0.24152341 -0.19039008 1.2410001
-0.2339078 -0.19163345 1.2410001
-0.22901207 -0.19256596 1.2410001
-0.21102463 -0.19466865 1.244
-0.20888512 -0.19039008 1.2410001
-0.24436492 -0.18715408 1.243
-0.23433866 -0.18433733 1.2426842
-0.22802578 -0.18423277 1.2418889
-0.23029594 -0.17790635 1.245
-0.22348776 -0.17512061 1.2435454
-0.21650071 -0.17205048 1.2410001
-0.22156435 -0.1680833 1.245
-0.21571903 -0.16532731 1.2431178
-0.20828071 -0.16621357 1.2410001
-0.21316338 -0.15617129 1.2432859
-0.20997307 -0.15992767 1.2410001
-0.18352987 -0.15227671 1.2436666
-0.18134932 -0.14718795 1.2436666
-0.17771347 -0.14137156 1.2436666
-0.17322095 -0.13618176 1.2427143
-0.16753948 -0.13337928 1.2436668
-0.16197905 -0.12797073 1.2434
-0.15800427 -0.12204602 1.243
-0.15343617 -0.11610135 1.2435
-0.14734574 -0.11205554 1.245
-0.15122412 -0.10988227 1.2410001
-0.14658479 -0.10732967 1.2438571
-0.24217917 -0.2202625 1.25
-0.25423333 -0.21368749 1.25
-0.24675244 -0.21595193 1.2546667
-0.1824621 -0.15309259 1.2563335
-0.17810841 -0.15164186 1.2580001
-0.16224733 -0.1512101 1.2590001
-0.15783243 -0.1512101 1.2590001
-0.18081249 -0.14793751 1.25
-0.17527162 -0.14519691 1.2553333
-0.16397001 -0.14473251 1.2581112
-0.1567287 -0.14431183 1.2589999
-0.17204583 -0.13917083 1.25
-0.16422801 -0.13643359 1.2516668
-0.15686829 -0.13405868 1.2563572
-0.15433966 -0.12576739 1.2538824
-0.14507324 -0.12510192 1.2575884
-0.13678747 -0.12281632 1.2583333
-0.15085973 -0.11871528 1.25
-0.14428045 -0.11603203 1.2515626
-0.13778482 -0.11417587 1.2555455
-0.13710663 -0.10629338 1.2552
-0.21417086 -0.22195214 1.268
-0.21284127 -0.21441062 1.2679999
-0.20787169 -0.21676461 1.268
-0.21325882 -0.2082618 1.2670001
-0.16287413 -0.1628724 1.266
-0.15643941 -0.16309926 1.2656
-0.16506603 -0.15560319 1.2648
-0.15434326 -0.15564978 1.2644706
-0.14583801 -0.1532992 1.2671427
-0.13895166 -0.15006781 1.268
-0.16584663 -0.1495944 1.2640001
-0.15365748 -0.14534666 1.2640001
-0.14552523 -0.14462084 1.2645454
-0.1356822 -0.14361979 1.2671429
-0.15254934 -0.13592775 1.2640001
-0.14516196 -0.13518901 1.2640001
-0.13464217 -0.13550793 1.2646667
-0.12499531 -0.13433111 1.2673999
-0.11894263 -0.1333936 1.268
-0.14146829 -0.12890975 1.2640001
-0.1346719 -0.12580703 1.2640001
-0.12571256 -0.12480784 1.2659999
-0.11894263 -0.1256123 1.268
-0.12766071 -0.11719481 1.2662858
-0.20951106 -0.2408817 1.2780001
-0.21340257 -0.23430756 1.2774444
-0.20594665 -0.23505241 1.27675
-0.22143671 -0.22457202 1.2770001
-0.21445049 -0.22683193 1.2734544
-0.20533311 -0.22531091 1.2741766
-0.21836334 -0.21761936 1.273
-0.20655879 -0.21572399 1.2749999
-0.15357991 -0.16520555 1.275
-0.14620502 -0.16232798 1.2770001
-0.13668635 -0.16021433 1.2780001
-0.14308527 -0.15744381 1.2737142
-0.1356485 -0.15414816 1.2760001
-0.12660293 -0.1512513 1.2780001
-0.13214508 -0.14703672 1.2738333
-0.12514532 -0.14526123 1.2745624
-0.11739356 -0.144071 1.2775455
-0.12164363 -0.13949959 1.273
-0.11616581 -0.13588619 1.2752726
-0.11870295 -0.12586109 1.275
-0.21398242 -0.24283949 1.286
-0.204805 -0.24306779 1.2836251
-0.19872981 -0.24163738 1.2880001
-0.21764171 -0.2362003 1.2830001
-0.20133261 -0.23507555 1.2830001
-0.19797473 -0.23477089 1.2875001
-0.20211725 -0.22808763 1.2880001
-0.1991062 -0.22846401 1.2880001
-0.14385328 -0.17275944 1.2880001
-0.13493916 -0.17363146 1.2872858
-0.12601276 -0.17230776 1.2880001
-0.14359479 -0.16639 1.2830002
-0.13472164 -0.16584009 1.2830003
-0.12531489 -0.16482119 1.2856193
-0.11601982 -0.16287941 1.2880001
-0.13159731 -0.1563421 1.2830001
-0.12459879 -0.15559228 1.2830003
-0.11489078 -0.15544692 1.2848752
-0.10852354 -0.15444218 1.2880001
-0.11341362 -0.14621922 1.2830001
-0.10907556 -0.14520827 1.2880001
-0.19594902 -0.23559189 1.2920001
-0.13303329 -0.18078883 1.2970001
-0.13554084 -0.177449 1.2919999
-0.12392154 -0.17666882 1.293875
-0.11656791 -0.17360593 1.296
-0.10801848 -0.17169254 1.2970001
-0.11352371 -0.16735297 1.2938181
-0.10565454 -0.1648978 1.2959286
-0.095738485 -0.16623476 1.2970001
-0.10421332 -0.15547304 1.2945
-0.12030935 -0.19249496 1.307
-0.11408927 -0.19233127 1.307
-0.10590497 -0.19233127 1.307
-0.099684887 -0.19134915 1.307
-0.12509374 -0.18501692 1.3043333
-0.11515916 -0.18491966 1.3033158
-0.10505995 -0.18500042 1.3026251
-0.095967457 -0.18468635 1.3063334
-0.11345714 -0.17714839 1.302
-0.10454063 -0.1753087 1.302
-0.094825156 -0.17499699 1.30325
-0.088226855 -0.1753079 1.307
-0.10158638 -0.16398402 1.302
-0.095173031 -0.16459557 1.3031539
-0.088226855 -0.16843309 1.307
-0.10407624 -0.20270951 1.317
-0.098138452 -0.20320432 1.317
-0.11504158 -0.19733429 1.3141429
-0.1042234 -0.19750981 1.3136669
-0.094773255 -0.19513772 1.3146924
-0.085646592 -0.19476563 1.3166668
-0.078510761 -0.19281319 1.317
-0.092705056 -0.18886065 1.312
-0.085766122 -0.18536858 1.3145
-0.078895621 -0.1874252 1.317
-0.086263999 -0.17482838 1.312
-0.08802259 -0.16719787 1.3153334
-0.10245077 -0.22003631 1.3280001
-0.098958135 -0.22003631 1.3280001
-0.10377083 -0.213872 1.3266667
-0.095626168 -0.21481775 1.3258182
-0.087544985 -0.21340486 1.3244001
-0.1043058 -0.20745264 1.322
-0.094420597 -0.20554373 1.3220003
-0.085496299 -0.20523323 1.3226318
-0.078808829 -0.20165788 1.322
-0.082285687 -0.1912273 1.322
-0.074882619 -0.19466557 1.3228573
-0.067709059 -0.19229275 1.324
-0.081578396 -0.18198338 1.3256
-0.074442804 -0.18545377 1.3242501
-0.066968575 -0.18593068 1.3246667
-0.092319138 -0.21852757 1.3330001
-0.089981943 -0.21852757 1.3330001
-0.073621586 -0.19983003 1.3330001
