# .PCD v0.7 - Point Cloud Data file format
VERSION 0.7
FIELDS x y z
SIZE 4 4 4
TYPE F F F
COUNT 1 1 1
WIDTH 491
HEIGHT 1
VIEWPOINT 0 0 0 1 0 0 0
POINTS 491
DATA ascii
-0.43122095 -0.10382977 1.067
-0.42872652 -0.10320617 1.067
-0.43174189 -0.093334675 1.0685
-0.42935014 -0.090734124 1.067
-0.4181253 -0.08231549 1.067
-0.41586185 -0.075405821 1.0684999
-0.40315881 -0.070155248 1.067
-0.39848182 -0.070155248 1.067
-0.41157746 -0.067349039 1.067
-0.40532055 -0.06599547 1.0667144
-0.39941722 -0.066413634 1.067
-0.43280858 -0.10187042 1.0700001
-0.42718038 -0.10112 1.0700001
-0.42599359 -0.094593517 1.0746295
-0.41826731 -0.091584489 1.077
-0.43055731 -0.089113168 1.0700001
-0.42402038 -0.086328045 1.0709473
-0.41475812 -0.085387945 1.0728214
-0.40779844 -0.08236897 1.0764287
-0.42211497 -0.0787948 1.0700001
-0.4063834 -0.075453155 1.0722332
-0.40429235 -0.068476431 1.0700001
-0.4107157 -0.10005835 1.087
-0.40880984 -0.10005835 1.087
-0.42277282 -0.097782694 1.0808001
-0.41456419 -0.095798217 1.0826334
-0.40621874 -0.092147067 1.0856363
-0.4137516 -0.089946002 1.08
-0.4041951 -0.085416138 1.080857
-0.39585015 -0.083859384 1.0847272
-0.38812196 -0.081560388 1.0860001
-0.40130791 -0.07533823 1.08
-0.39482653 -0.0754169 1.0812799
-0.38676319 -0.075786844 1.0832666
-0.40475175 -0.102815 1.0960588
-0.39586112 -0.10338311 1.097
-0.40452212 -0.096059844 1.0933479
-0.39535215 -0.094869971 1.0956154
-0.38803005 -0.092923015 1.0965
-0.39230403 -0.08730565 1.0921819
-0.38530332 -0.084805183 1.0943913
-0.37923169 -0.084309332 1.097
-0.38325763 -0.075118676 1.0938572
-0.37652484 -0.074473597 1.096125
-0.39220601 -0.10411783 1.107
-0.38756731 -0.10393409 1.108
-0.39108923 -0.097629286 1.1026
-0.38510519 -0.095091239 1.1051903
-0.37727103 -0.091889396 1.1079999
-0.3841536 -0.089764528 1.1010001
-0.37470078 -0.084615849 1.104857
-0.36757657 -0.081668772 1.1071428
-0.37226334 -0.074709818 1.1019999
-0.36582735 -0.074942648 1.105769
-0.35842693 -0.076736383 1.108
-0.37677115 -0.068592153 1.102
-0.38311005 -0.11071978 1.1176667
-0.39189106 -0.10625901 1.1120001
-0.38445535 -0.10482559 1.114
-0.37667602 -0.1029552 1.117125
-0.38262993 -0.097972766 1.1120001
-0.37412214 -0.095774844 1.1131428
-0.36794186 -0.093294054 1.1162502
-0.37141913 -0.088711649 1.1120001
-0.36401162 -0.085788466 1.1147143
-0.3553637 -0.08394517 1.1177223
-0.36247888 -0.073469706 1.1137501
-0.35472226 -0.075764328 1.1137778
-0.34696293 -0.073066264 1.1158462
-0.37403861 -0.069339074 1.1140001
-0.36440298 -0.069363967 1.1144001
-0.35432279 -0.069004193 1.1165
-0.34530848 -0.069650292 1.1190001
-0.38100022 -0.11124812 1.123
-0.37609527 -0.11154531 1.126
-0.38100022 -0.10927913 1.123
-0.3739908 -0.10634558 1.1245
-0.36659423 -0.10262731 1.125625
-0.36452466 -0.096330531 1.1243634
-0.3554323 -0.094296396 1.1247368
-0.3484557 -0.091802776 1.126
-0.35361242 -0.087714359 1.1242001
-0.34725237 -0.085001037 1.1251177
-0.34402463 -0.076415829 1.1244346
-0.33858445 -0.07304737 1.126
-0.34413692 -0.06882675 1.1248
-0.38139382 -0.11293221 1.13
-0.3750625 -0.11283373 1.1323333
-0.36621535 -0.1115756 1.1354545
-0.35815516 -0.11073878 1.138
-0.3714875 -0.10797903 1.13
-0.36433244 -0.10625671 1.1327368
-0.35657784 -0.10295351 1.1342666
-0.35170588 -0.097469561 1.1328572
-0.34658128 -0.0934273 1.1345334
-0.34316766 -0.086415075 1.133
-0.33519945 -0.083120994 1.1343335
-0.3417685 -0.072316229 1.13
-0.33426106 -0.07453116 1.1326667
-0.32822576 -0.0741584 1.138
-0.35689625 -0.068595663 1.1340001
-0.33712167 -0.067993023 1.1334286
-0.35255146 -0.12288938 1.149
-0.3480469 -0.12226841 1.1463333
-0.36172929 -0.11557272 1.143
-0.35471606 -0.11564513 1.1446804
-0.34549847 -0.11488267 1.1451907
-0.35289761 -0.10662949 1.1409999
-0.34468046 -0.10529664 1.1423795
-0.3371391 -0.10429126 1.1470001
-0.34265029 -0.096804552 1.1409999
-0.33490747 -0.095263198 1.1438003
-0.32794717 -0.092808321 1.1482002
-0.33428469 -0.089076638 1.1416668
-0.32457796 -0.085376978 1.144704
-0.31828874 -0.084427878 1.1484287
-0.32310534 -0.075242549 1.1430002
-0.31664875 -0.075646691 1.1461431
-0.33344731 -0.067030802 1.146143
-0.32504731 -0.068503611 1.1458001
-0.31725603 -0.068600394 1.1474001
-0.27096102 -0.06345927 1.149
-0.26577201 -0.063423038 1.1483334
-0.25901029 -0.061828669 1.1436667
-0.26562923 -0.05556336 1.1479475
-0.25811571 -0.055490877 1.1450002
-0.2630026 -0.046228148 1.1486365
-0.25588736 -0.044413727 1.1476668
-0.2614637 -0.034679558 1.149
-0.25453022 -0.035019029 1.1468335
-0.24800746 -0.034925744 1.1465001
-0.26139176 -0.027700474 1.149
-0.25484434 -0.026189536 1.149
-0.24563487 -0.026189538 1.149
-0.24577877 -0.01410206 1.149
-0.23872773 -0.019138509 1.149
-0.24253304 -0.0052602924 1.149
-0.23772043 -0.0040291604 1.149
-0.34756795 -0.20793219 1.1570001
-0.41214526 -0.18460321 1.1570001
-0.41282144 -0.17953169 1.1570001
-0.40403083 -0.17682688 1.1570001
-0.36109197 -0.1227307 1.1570001
-0.35722384 -0.12447411 1.1543334
-0.34587744 -0.1207021 1.1570001
-0.34232554 -0.11518997 1.1545999
-0.33872381 -0.11110786 1.1556667
-0.33336389 -0.10486232 1.1551818
-0.32680854 -0.10183605 1.1569999
-0.46150801 -0.090272993 1.1570001
-0.33053049 -0.098047279 1.153
-0.32487571 -0.095573515 1.1556665
-0.31605691 -0.092707321 1.1569999
-0.46150801 -0.088244386 1.1570001
-0.32042253 -0.089960903 1.153
-0.31445029 -0.085136227 1.155476
-0.3093625 -0.081144273 1.1570001
-0.29191652 -0.081752852 1.1570001
-0.28684497 -0.083984323 1.1569999
-0.31338906 -0.075092629 1.1552856
-0.30567414 -0.073490888 1.1569999
-0.29438207 -0.074044153 1.1569998
-0.28603718 -0.074169941 1.1563333
-0.31368864 -0.067188479 1.1545384
-0.30540627 -0.06707909 1.1565788
-0.29506567 -0.066702522 1.1569998
-0.28552637 -0.066031143 1.1569998
-0.27637342 -0.064628735 1.1560767
-0.28096202 -0.053758077 1.1570001
-0.27513909 -0.055124022 1.1555882
-0.26786113 -0.05155063 1.153
-0.25639519 -0.052191913 1.156
-0.27387315 -0.046122164 1.1563331
-0.26804492 -0.045118287 1.153
-0.25472075 -0.049529035 1.153
-0.2662935 -0.035709396 1.1536152
-0.25573155 -0.02122673 1.153
-0.24615285 -0.021825364 1.1541427
-0.24553569 -0.015249842 1.153
-0.23931929 -0.01355239 1.1537999
-0.36132255 -0.22188258 1.161
-0.35725132 -0.22188258 1.1610001
-0.36215863 -0.21647194 1.1655715
-0.35545555 -0.21489973 1.1635265
-0.34910882 -0.2137401 1.161
-0.36176264 -0.20803913 1.169
-0.35459965 -0.20533511 1.1661428
-0.34741381 -0.20274158 1.1621429
-0.41393203 -0.19317487 1.1658573
-0.40503106 -0.19453882 1.1688097
-0.39737529 -0.19394781 1.169
-0.35356405 -0.19984055 1.169
-0.34843993 -0.19984055 1.169
-0.4222272 -0.18549302 1.169
-0.41441813 -0.18441762 1.1614705
-0.40494928 -0.18514766 1.1654289
-0.39507604 -0.18481895 1.1683602
-0.38738319 -0.18446821 1.169
-0.41281357 -0.17750104 1.1636667
-0.40430307 -0.1754919 1.1643846
-0.39496139 -0.17576124 1.165
-0.38478172 -0.17697912 1.1689999
-0.37733999 -0.17770436 1.169
-0.34669626 -0.12252065 1.1666
-0.31564558 -0.12195398 1.169
-0.3414678 -0.11780459 1.1627144
-0.33556819 -0.11475645 1.1656002
-0.3266921 -0.11285837 1.1681999
-0.31503066 -0.11484852 1.169
-0.30554596 -0.11329304 1.1674615
-0.29822358 -0.11170574 1.169
-0.46014568 -0.1096561 1.169
-0.33288655 -0.10858437 1.163
-0.32432163 -0.10611008 1.1625553
-0.3156285 -0.10521372 1.1651603
-0.30508289 -0.10509644 1.1638801
-0.29597136 -0.1044515 1.1658002
-0.32061014 -0.09770976 1.161
-0.31335822 -0.095801376 1.161
-0.30470341 -0.094773442 1.1624399
-0.29461217 -0.095041923 1.1637694
-0.28750786 -0.093117997 1.164
-0.4634507 -0.087982267 1.1670001
-0.31043205 -0.086513847 1.161
-0.30432513 -0.084478244 1.1609998
-0.29522476 -0.085555933 1.161
-0.28702241 -0.087531656 1.161
-0.31043205 -0.076335751 1.161
-0.30432516 -0.077353552 1.1610001
-0.2947287 -0.076044954 1.1610001
-0.2837145 -0.062340859 1.1610001
-0.27887994 -0.060050789 1.161
-0.27989775 -0.058015171 1.161
-0.36390835 -0.21397731 1.1746
-0.41273469 -0.20120814 1.177
-0.40824699 -0.20052435 1.1730001
-0.36258936 -0.20395298 1.1750001
-0.35888717 -0.20326656 1.1730001
-0.42415586 -0.19423015 1.1743335
-0.41647366 -0.19743936 1.1730001
-0.3935076 -0.19229771 1.1730002
-0.38647613 -0.19110669 1.1747143
-0.35433677 -0.19816338 1.1764287
-0.34979263 -0.19914448 1.177
-0.42470029 -0.18612772 1.1730001
-0.3834441 -0.18562138 1.1744288
-0.37546995 -0.18385695 1.1751335
-0.36836568 -0.18057142 1.177
-0.39453593 -0.17652999 1.1730001
-0.38424301 -0.17514639 1.1735002
-0.37448072 -0.17586109 1.173889
-0.36868757 -0.17661555 1.1754001
-0.33383358 -0.14452592 1.177
-0.32564074 -0.14471658 1.1766001
-0.33456078 -0.13497406 1.177
-0.32528472 -0.13485116 1.1742002
-0.31679216 -0.13415252 1.1744001
-0.34354869 -0.12509665 1.1754001
-0.33461779 -0.12458462 1.1744401
-0.3249523 -0.12442794 1.1730002
-0.31482762 -0.12583016 1.1736002
-0.30739269 -0.12278726 1.1753335
-0.33112225 -0.11825795 1.1730001
-0.32485875 -0.11620129 1.1730002
-0.31599113 -0.11767033 1.1730002
-0.30358547 -0.11706451 1.1747779
-0.29591599 -0.1118425 1.1752223
-0.29221115 -0.10597935 1.1736668
-0.28765309 -0.10306902 1.177
-0.28699934 -0.096885987 1.1743335
-0.27550039 -0.081515096 1.177
-0.27240488 -0.079451419 1.177
-0.26930937 -0.07738775 1.177
-0.3731637 -0.20221719 1.189
-0.36463636 -0.20049804 1.1850001
-0.38427687 -0.1952119 1.1850002
-0.37443161 -0.19461462 1.186565
-0.36382091 -0.19436316 1.1871176
-0.35452461 -0.19361262 1.1841999
-0.34918949 -0.19075127 1.189
-0.37276015 -0.18776387 1.1833334
-0.3652716 -0.1847461 1.1880474
-0.35449356 -0.18534133 1.1861428
-0.34692574 -0.18348435 1.1875001
-0.38384983 -0.17244734 1.1850001
-0.37423429 -0.17235704 1.1858002
-0.36569652 -0.17625037 1.186684
-0.35472897 -0.17579991 1.1865999
-0.34496427 -0.17508163 1.1854211
-0.33939126 -0.17298825 1.1863333
-0.35338047 -0.16621196 1.18775
-0.3443175 -0.16490048 1.1829998
-0.3372584 -0.16465336 1.1842002
-0.35142469 -0.15591897 1.1883334
-0.34449476 -0.15460368 1.1835998
-0.33509973 -0.15459818 1.1820909
-0.32820383 -0.15219547 1.1810001
-0.34407544 -0.14542715 1.1863335
-0.33855727 -0.14701876 1.1810001
-0.3195897 -0.1426924 1.1823335
-0.31360519 -0.13634688 1.1832223
-0.30888093 -0.13138749 1.1863333
-0.30418417 -0.12554578 1.1847501
-0.29776657 -0.12334553 1.189
-0.30075628 -0.11926612 1.1830001
-0.29451731 -0.11679253 1.1866841
-0.28639543 -0.11268697 1.1871819
-0.27830923 -0.11153216 1.189
-0.29093146 -0.10871105 1.1810001
-0.28387308 -0.10591131 1.1843998
-0.27551705 -0.10456768 1.1876665
-0.26895487 -0.10270834 1.1882001
-0.28368452 -0.094343908 1.18425
-0.27485228 -0.094384409 1.1830798
-0.26700246 -0.094766684 1.18625
-0.27432984 -0.085340664 1.1823335
-0.26854005 -0.08473324 1.1867778
-0.3809213 -0.2025284 1.197
-0.37337318 -0.20254886 1.1930001
-0.36918977 -0.20185162 1.1930001
-0.39010704 -0.19766816 1.1930001
-0.38278598 -0.1997599 1.1930001
-0.37128147 -0.19871403 1.1930001
-0.36918977 -0.19766818 1.1930001
-0.35143584 -0.19696404 1.1938
-0.34833169 -0.19328615 1.1950001
-0.35036421 -0.18930127 1.1930001
-0.34561393 -0.18529513 1.1941429
-0.3419973 -0.17884263 1.1930001
-0.29067549 -0.15110928 1.197
-0.28728804 -0.15098216 1.1960001
-0.32005784 -0.14376369 1.197
-0.3179591 -0.14166495 1.197
-0.29157495 -0.14436333 1.1969999
-0.28717762 -0.14446329 1.197
-0.3116658 -0.13646398 1.1943334
-0.30426323 -0.13345408 1.1948668
-0.29441035 -0.1345681 1.1964004
-0.28411239 -0.13524403 1.1958803
-0.27619419 -0.13368973 1.1970001
-0.30120862 -0.12864119 1.1930001
-0.29437032 -0.12606676 1.193
-0.28504622 -0.12477468 1.1946554
-0.27621728 -0.12499614 1.1967144
-0.26863873 -0.12172692 1.197
-0.28410852 -0.1165049 1.1936666
-0.27520233 -0.11495423 1.1947502
-0.26536852 -0.11434782 1.1953532
-0.258145 -0.11333196 1.197
-0.2740162 -0.10876978 1.1930001
-0.26449263 -0.10575981 1.1933639
-0.258145 -0.10388763 1.197
-0.26291633 -0.095480122 1.194846
-0.35305297 -0.20280071 1.2036002
-0.34889579 -0.20193666 1.2060001
-0.35089985 -0.19915938 1.202
-0.34586272 -0.19534276 1.2044444
-0.34461558 -0.18655449 1.2037778
-0.34360951 -0.17761967 1.2060001
-0.29554361 -0.15199295 1.204
-0.28651747 -0.15224543 1.2060001
-0.30169082 -0.14116496 1.2046667
-0.29714108 -0.14488098 1.2030908
-0.28315324 -0.14592361 1.2041539
-0.27684605 -0.14260226 1.2049092
-0.2961047 -0.13698792 1.202
-0.27307254 -0.13569431 1.2036
-0.26769823 -0.13258041 1.2060002
-0.27313286 -0.12539664 1.2019999
-0.26491389 -0.1248459 1.2050588
-0.25578639 -0.12454523 1.2060001
-0.2750296 -0.11907413 1.202
-0.26268563 -0.11726769 1.202
-0.25417167 -0.11521601 1.2047825
-0.24845611 -0.11735586 1.2060001
-0.26027706 -0.10432158 1.202
-0.25623855 -0.10569796 1.2036667
-0.34389371 -0.21180776 1.2190001
-0.33577195 -0.21095283 1.2190001
-0.35326743 -0.20707862 1.2113334
-0.34443837 -0.20523122 1.2117618
-0.33554673 -0.20507392 1.2180476
-0.34135109 -0.19482723 1.211125
-0.33741713 -0.19705033 1.2160833
-0.30019698 -0.15168963 1.21
-0.28320542 -0.15225378 1.2145001
-0.2737253 -0.15108402 1.2165002
-0.26538309 -0.15139304 1.2190001
-0.25540894 -0.15068059 1.2190001
-0.28110316 -0.1495681 1.21
-0.27343303 -0.14565143 1.21
-0.26511687 -0.14480916 1.2145503
-0.25571427 -0.14411597 1.219
-0.24151641 -0.14213133 1.2190001
-0.23474824 -0.14213133 1.2190001
-0.2704955 -0.13896044 1.21
-0.26394877 -0.13602468 1.2110001
-0.25507438 -0.13501118 1.2132963
-0.24481946 -0.1354762 1.2182691
-0.23522319 -0.13619436 1.219
-0.22976118 -0.13999403 1.2190001
-0.26200935 -0.12623124 1.21
-0.25267461 -0.12580693 1.21
-0.24483155 -0.12503272 1.2129585
-0.23888597 -0.12691152 1.2165
-0.24611241 -0.11520886 1.2122355
-0.34242162 -0.22302224 1.2270001
-0.33517879 -0.22352421 1.2270001
-0.32700366 -0.22158802 1.2270001
-0.34485719 -0.21630698 1.2245002
-0.33526543 -0.21646979 1.2229998
-0.32708067 -0.21457694 1.2255715
-0.33103153 -0.20280455 1.2240001
-0.3272438 -0.20770562 1.2247778
-0.26282203 -0.16099195 1.2270001
-0.25557917 -0.16199592 1.2270001
-0.2474041 -0.16027483 1.2270001
-0.27513996 -0.15483524 1.2252858
-0.26445198 -0.15475577 1.2237499
-0.25488186 -0.15522045 1.2238889
-0.24560089 -0.15415943 1.2246469
-0.2379187 -0.15375018 1.2264287
-0.26053569 -0.1490307 1.223
-0.25453156 -0.14860183 1.223
-0.24588278 -0.14617158 1.2229998
-0.23503652 -0.14660913 1.2248824
-0.22743452 -0.14219271 1.2256669
-0.23195586 -0.13352998 1.2241429
-0.2274345 -0.13717759 1.2256669
-0.23602882 -0.12724133 1.2237999
-0.33420184 -0.22780259 1.2348573
-0.32425249 -0.22365247 1.2324446
-0.32365596 -0.21673071 1.2320002
-0.21277051 -0.19548965 1.2320001
-0.20845029 -0.19224949 1.2320001
-0.23729964 -0.17011891 1.2360001
-0.26558354 -0.16389547 1.2340002
-0.25412112 -0.16656978 1.2346668
-0.24555381 -0.16395475 1.2347693
-0.23651268 -0.16393523 1.2356668
-0.22429691 -0.16145045 1.2360001
-0.24193195 -0.15876783 1.2320001
-0.23389229 -0.15548012 1.2337502
-0.225161 -0.15480144 1.2348001
-0.21953556 -0.15464821 1.2336
-0.23005135 -0.14796731 1.2320001
-0.22515674 -0.14599727 1.2336001
-0.22591436 -0.13673633 1.233
-0.32634354 -0.23029594 1.245
-0.32311916 -0.22683617 1.2410001
-0.31979483 -0.22374725 1.245
-0.20997307 -0.19691774 1.2410001
-0.23204227 -0.18096241 1.245
-0.22440214 -0.18183559 1.245
-0.21719855 -0.18008925 1.245
-0.20846695 -0.18445505 1.245
-0.25440046 -0.17190176 1.2436666
-0.24506558 -0.17312866 1.2433333
-0.2344237 -0.17508684 1.2428463
-0.22531612 -0.17416696 1.2428948
-0.21739699 -0.17433435 1.245
-0.24369931 -0.16863121 1.2410001
-0.23173192 -0.16754326 1.2410001
-0.22536469 -0.16576022 1.241222
-0.21491598 -0.16513368 1.2431052
-0.20846695 -0.16153459 1.245
-0.21393271 -0.15579198 1.2417059
-0.20846695 -0.15716881 1.245
-0.22120842 -0.14383645 1.243
-0.21783301 -0.14714088 1.2432858
-0.22332776 -0.1918962 1.2580001
-0.21621519 -0.1933327 1.2568462
-0.20752452 -0.19105417 1.2525001
-0.23874702 -0.18153575 1.2550001
-0.22271217 -0.18666111 1.2514286
-0.21493937 -0.18451905 1.2513334
-0.20561418 -0.18395074 1.2502942
-0.24571322 -0.17825153 1.25125
-0.23998749 -0.17862083 1.25
-0.21209064 -0.17512496 1.2515385
-0.2049544 -0.17519033 1.2553337
-0.19756646 -0.17107712 1.2590001
-0.21149583 -0.16875833 1.25
-0.20456798 -0.1647269 1.2508335
-0.19682109 -0.16511576 1.2577502
-0.20519225 -0.15719254 1.2539166
-0.22125196 -0.20204479 1.2640001
-0.22272944 -0.19687362 1.2640001
-0.20099044 -0.17656301 1.2666668
-0.19811088 -0.17591542 1.266
-0.1956007 -0.16232477 1.2653333
