# .PCD v0.7 - Point Cloud Data file format
VERSION 0.7
FIELDS x y z
SIZE 4 4 4
TYPE F F F
COUNT 1 1 1
WIDTH 487
HEIGHT 1
VIEWPOINT 0 0 0 1 0 0 0
POINTS 487
DATA ascii
-0.3871097 -0.053817689 1.077
-0.40309221 -0.08195255 1.087
-0.4000791 -0.071272999 1.0840001
-0.3951014 -0.07203979 1.086
-0.39324519 -0.063211463 1.087
-0.38593936 -0.060987946 1.087
-0.39211458 -0.057441831 1.0830001
-0.38434362 -0.055303823 1.0829582
-0.37833485 -0.052919399 1.0843333
-0.40583763 -0.082061261 1.0926667
-0.39450476 -0.08282835 1.0943334
-0.38756648 -0.086141147 1.097
-0.40368426 -0.076998219 1.0933332
-0.39439103 -0.075494342 1.0928333
-0.3868514 -0.073754013 1.0959412
-0.37891114 -0.07020434 1.097
-0.40183464 -0.066769123 1.0920001
-0.395495 -0.065603629 1.0905715
-0.38453522 -0.06499625 1.0929583
-0.37901798 -0.064434126 1.097
-0.38127109 -0.058289565 1.09
-0.37703767 -0.056786817 1.0948334
-0.38173923 -0.090335242 1.108
-0.39187527 -0.083008058 1.1010001
-0.3853181 -0.083940193 1.1063634
-0.37979653 -0.080621772 1.108
-0.38382977 -0.075995274 1.1024998
-0.37617767 -0.073845573 1.1056815
-0.36425501 -0.070908308 1.108
-0.35842693 -0.070908308 1.108
-0.37426662 -0.064623617 1.1037855
-0.36469489 -0.064950675 1.1070768
-0.37291092 -0.057699133 1.1042999
-0.36576062 -0.057513319 1.105091
-0.38180208 -0.091777362 1.1176667
-0.37898913 -0.091886066 1.1190001
-0.38178638 -0.086303554 1.1144445
-0.37750006 -0.084392071 1.1155716
-0.37326866 -0.076912194 1.1148463
-0.36490864 -0.074514873 1.116238
-0.35548913 -0.072622672 1.1177778
-0.36247623 -0.069370195 1.1145
-0.35418594 -0.065192819 1.1139393
-0.34825146 -0.063764349 1.1190001
-0.36118096 -0.059546269 1.1135001
-0.35426745 -0.059697788 1.1163334
-0.37359291 -0.085207626 1.1247647
-0.36517337 -0.083847545 1.1252002
-0.37115523 -0.079744227 1.123
-0.36397895 -0.079493366 1.1234286
-0.35474426 -0.076494433 1.1245883
-0.3484557 -0.07206025 1.126
-0.3481237 -0.064775482 1.1234616
-0.35240421 -0.058240473 1.126
-0.3484557 -0.058240473 1.126
-0.38209867 -0.090785846 1.138
-0.37301934 -0.091516398 1.1346667
-0.36400202 -0.09286572 1.1361178
-0.35551238 -0.093645014 1.1370591
-0.37545004 -0.088166364 1.13
-0.36305001 -0.087291889 1.1315
-0.35445157 -0.08444801 1.1332594
-0.34817868 -0.080809377 1.138
-0.35117456 -0.0777843 1.1326667
-0.34571722 -0.074557126 1.1350372
-0.34360027 -0.064767912 1.1323998
-0.33704394 -0.064978883 1.1368001
-0.35017398 -0.058861151 1.138
-0.34457907 -0.058757707 1.136
-0.36352706 -0.10114601 1.1423334
-0.35676536 -0.1016948 1.1409999
-0.37476447 -0.094189063 1.1430001
-0.3660121 -0.097820438 1.1415
-0.35197225 -0.097267792 1.1438571
-0.34762329 -0.092539057 1.1455716
-0.34474346 -0.085185558 1.1431669
-0.33739942 -0.083282232 1.1480001
-0.34109434 -0.079021856 1.141
-0.33516154 -0.074808531 1.1436156
-0.3274534 -0.073134661 1.1472857
-0.33293879 -0.064783521 1.1427779
-0.32695225 -0.066671699 1.1475457
-0.34028256 -0.059223216 1.1450001
-0.3370482 -0.059361145 1.1476668
-0.35236564 -0.10024245 1.155
-0.34892035 -0.10041603 1.1570001
-0.38410273 -0.094004087 1.153
-0.37601638 -0.097036481 1.153
-0.35074645 -0.098047279 1.153
-0.3458479 -0.094903693 1.1563846
-0.33911541 -0.0909492 1.1570001
-0.34266007 -0.088950105 1.153
-0.33432966 -0.085122779 1.1548461
-0.32774696 -0.082407795 1.1564286
-0.33214778 -0.079044297 1.153
-0.32471591 -0.075450972 1.1552498
-0.31805655 -0.074333951 1.1570002
-0.33053049 -0.061658595 1.153
-0.32404715 -0.065939195 1.1548666
-0.31725156 -0.068183728 1.1570001
-0.33331889 -0.059774935 1.1556667
-0.40173075 -0.18139373 1.169
-0.39865628 -0.18241856 1.169
-0.40173072 -0.17831926 1.169
-0.39742646 -0.17442493 1.169
-0.34280339 -0.11221816 1.169
-0.33474201 -0.11358169 1.1687143
-0.32896829 -0.11170574 1.169
-0.35282418 -0.10411783 1.1627142
-0.34438407 -0.10524982 1.1636671
-0.33494619 -0.10523088 1.166231
-0.32725465 -0.10375294 1.1675454
-0.34274751 -0.096946411 1.1610001
-0.33489165 -0.095239989 1.1633078
-0.3252463 -0.094885796 1.1666926
-0.31782183 -0.092876948 1.1678572
-0.33282387 -0.088549472 1.161
-0.32441634 -0.085145004 1.1621428
-0.31526801 -0.084380239 1.1650002
-0.30847183 -0.080961041 1.169
-0.32162794 -0.076335751 1.161
-0.31330746 -0.075163946 1.1623333
-0.30570683 -0.073184632 1.1671054
-0.33078825 -0.060050789 1.161
-0.32442293 -0.061376311 1.1630001
-0.31454727 -0.063441664 1.1639091
-0.30477521 -0.065210126 1.1653336
-0.29707032 -0.0660735 1.1684999
-0.35254419 -0.21290231 1.177
-0.34669712 -0.21152651 1.177
-0.34153792 -0.20843101 1.177
-0.3979637 -0.18304273 1.1730001
-0.40482113 -0.17500271 1.1738001
-0.39561608 -0.1749143 1.1736668
-0.40104869 -0.16967446 1.1730001
-0.39535302 -0.16855338 1.1738001
-0.38973707 -0.16967446 1.1730001
-0.33009392 -0.11517296 1.1730001
-0.32765925 -0.11182813 1.1746
-0.32394645 -0.10518027 1.1743335
-0.31883752 -0.10215183 1.177
-0.32186729 -0.099748008 1.1730001
-0.31642953 -0.095319092 1.1742002
-0.31179509 -0.088291742 1.1738001
-0.30546498 -0.084707513 1.1757274
-0.29613712 -0.082031019 1.177
-0.30392912 -0.077671014 1.1743335
-0.29569066 -0.075213134 1.1752402
-0.28925821 -0.074292243 1.177
-0.2641502 -0.07738775 1.177
-0.30376834 -0.060754228 1.1746
-0.29467759 -0.065025367 1.1747144
-0.28817725 -0.067659006 1.177
-0.25218087 -0.064799339 1.177
-0.24570863 -0.061771106 1.1743335
-0.25218087 -0.054687344 1.177
-0.24489303 -0.054722246 1.1737275
-0.23774989 -0.052856155 1.1730002
-0.25142419 -0.046088707 1.177
-0.24406886 -0.044852637 1.1762002
-0.2364777 -0.045025092 1.1750002
-0.22487162 -0.02469529 1.177
-0.21874937 -0.02166857 1.177
-0.22494037 -0.015592199 1.177
-0.21728525 -0.014829804 1.1767501
-0.22287673 -0.0082546938 1.177
-0.21565385 -0.0075980695 1.177
-0.35121772 -0.21238776 1.1818001
-0.34748909 -0.21197359 1.1818001
-0.35296145 -0.20823638 1.1876668
-0.34506848 -0.20415141 1.1847777
-0.35231656 -0.19492069 1.189
-0.34429544 -0.1947449 1.1879333
-0.33598602 -0.19402984 1.1848093
-0.40130731 -0.18658184 1.189
-0.39462191 -0.18441273 1.1865237
-0.3855772 -0.18279146 1.189
-0.3752484 -0.18199545 1.189
-0.34189299 -0.18866655 1.189
-0.41208065 -0.17169955 1.187
-0.40964615 -0.17198884 1.189
-0.39290574 -0.17632024 1.1825385
-0.3848922 -0.17489348 1.1842726
-0.37499321 -0.17488383 1.1868331
-0.3679519 -0.17198884 1.189
-0.40456972 -0.16952308 1.1863333
-0.39353326 -0.16806264 1.1844286
-0.38454011 -0.16637136 1.1857059
-0.37516236 -0.16656721 1.1857617
-0.36823186 -0.1690187 1.1876668
-0.32444358 -0.11330465 1.1872858
-0.31791878 -0.11153216 1.189
-0.29498693 -0.11153217 1.189
-0.32135123 -0.10750261 1.1854445
-0.31638798 -0.10375572 1.1880771
-0.30853757 -0.10319331 1.189
-0.2937361 -0.1047221 1.1889999
-0.28638747 -0.10371448 1.189
-0.31356525 -0.096540488 1.1840771
-0.30541831 -0.094052747 1.1853999
-0.29915637 -0.090685032 1.189
-0.28285766 -0.095043972 1.189
-0.27574614 -0.09379255 1.1873999
-0.26858059 -0.092074841 1.189
-0.30257359 -0.088078693 1.1820002
-0.29541874 -0.085429125 1.1874001
-0.28567666 -0.084701739 1.1881577
-0.27529523 -0.085185699 1.1849999
-0.26690227 -0.085052192 1.1872858
-0.29093146 -0.077650748 1.1810001
-0.28499168 -0.075598434 1.1855216
-0.27501684 -0.075947426 1.1853477
-0.26703575 -0.075550258 1.1835456
-0.29278511 -0.061954908 1.1818001
-0.28429613 -0.065033898 1.1862305
-0.27499846 -0.065623932 1.1881998
-0.26578742 -0.065269053 1.1853808
-0.25780049 -0.065054081 1.181
-0.27518216 -0.059414331 1.189
-0.26621032 -0.055364683 1.1868947
-0.25801077 -0.054885469 1.1812857
-0.25641182 -0.043894198 1.1841431
-0.24796472 -0.040896062 1.1810001
-0.23413575 -0.041625883 1.1870002
-0.24529675 -0.034296952 1.1856
-0.23514946 -0.034186807 1.1816399
-0.22812067 -0.032440756 1.1810001
-0.23526525 -0.024872785 1.1822
-0.2246695 -0.025883581 1.1810001
-0.23442681 -0.015556273 1.1831998
-0.22570485 -0.014494807 1.1810001
-0.21641129 -0.0028798499 1.1836667
-0.3549546 -0.20330451 1.1937273
-0.35192019 -0.19649225 1.1943334
-0.3482725 -0.19139299 1.1930001
-0.40056565 -0.18930127 1.1930001
-0.37177804 -0.18327156 1.1946
-0.34470969 -0.18593313 1.195154
-0.33801317 -0.1858848 1.1948462
-0.37085456 -0.17914245 1.1950001
-0.36699563 -0.17396258 1.1954
-0.35573643 -0.17104732 1.197
-0.34944022 -0.17104732 1.197
-0.33684778 -0.17524479 1.197
-0.38628018 -0.16243353 1.1954
-0.37448618 -0.16298801 1.1943334
-0.36699563 -0.16704515 1.1954
-0.35573643 -0.16894858 1.197
-0.32530469 -0.1605536 1.197
-0.32425004 -0.15482225 1.1963849
-0.31689659 -0.15165018 1.1930001
-0.32131708 -0.14418344 1.197
-0.31555918 -0.14489135 1.1964289
-0.32155696 -0.13626821 1.1969999
-0.31440261 -0.13569261 1.1967781
-0.30466709 -0.13292021 1.197
-0.29907045 -0.13117126 1.197
-0.32328668 -0.12277628 1.1970003
-0.31406143 -0.12412548 1.1970003
-0.30524591 -0.12482522 1.1965203
-0.29732704 -0.12319786 1.1965556
-0.33258456 -0.11818255 1.1930001
-0.32466584 -0.11758491 1.193
-0.31469613 -0.1152518 1.1934212
-0.30478311 -0.11529279 1.1938423
-0.2943956 -0.11632465 1.1938571
-0.2873058 -0.11288025 1.1949999
-0.31366393 -0.10734361 1.193
-0.30394781 -0.10603064 1.1930002
-0.29632792 -0.10667806 1.193
-0.28478196 -0.10582933 1.1937501
-0.27645212 -0.10207257 1.1954
-0.30190149 -0.097069889 1.1934444
-0.29508194 -0.095221765 1.1936003
-0.28837302 -0.095553875 1.193
-0.27338868 -0.098938666 1.1930001
-0.26507953 -0.094057091 1.195154
-0.25919437 -0.09129519 1.197
-0.29388759 -0.088898383 1.1930001
-0.26263645 -0.087446868 1.1935713
-0.25707811 -0.087204956 1.1936666
-0.3560105 -0.19182625 1.2036002
-0.37271762 -0.18731104 1.2044001
-0.36544028 -0.18319055 1.2055556
-0.35522154 -0.18469991 1.2053684
-0.3460061 -0.18149669 1.2028888
-0.33635303 -0.18190014 1.2040001
-0.36410269 -0.17625381 1.202857
-0.35557225 -0.17534934 1.204
-0.34516263 -0.1748677 1.2033331
-0.33575621 -0.17403691 1.2041334
-0.36521456 -0.16658083 1.2032309
-0.35500693 -0.16625173 1.2038946
-0.34511924 -0.16560367 1.2044997
-0.33540702 -0.16523015 1.2045262
-0.3291223 -0.16262926 1.202
-0.34501919 -0.15964626 1.2060001
-0.33557841 -0.15594693 1.2052943
-0.3277173 -0.15189102 1.202
-0.33277258 -0.14563757 1.2060002
-0.32624447 -0.14523832 1.2022666
-0.31348899 -0.14355417 1.204
-0.33092237 -0.13638653 1.2060001
-0.32570678 -0.13428867 1.2029999
-0.31507224 -0.13382667 1.202
-0.30725974 -0.13527212 1.2035999
-0.32548004 -0.12755719 1.2025
-0.31788227 -0.1271529 1.202
-0.29603279 -0.12369942 1.2060001
-0.29074651 -0.11947038 1.2060001
-0.28506011 -0.11305318 1.2052
-0.2818203 -0.10766344 1.204
-0.27509817 -0.10420313 1.2033334
-0.26859838 -0.10103349 1.2046667
-0.26288134 -0.096648403 1.2026668
-0.25845596 -0.093888082 1.2033334
-0.25691417 -0.0898671 1.2060001
-0.37112761 -0.19196589 1.2165
-0.36348778 -0.19427559 1.2128572
-0.33866927 -0.19306983 1.2167501
-0.37126833 -0.18881646 1.21
-0.36444911 -0.18896802 1.21
-0.33607286 -0.1856101 1.2149091
-0.33387774 -0.17505641 1.2138751
-0.34793144 -0.16017577 1.21
-0.33235222 -0.16991641 1.2190001
-0.33838457 -0.15168963 1.21
-0.31292617 -0.14426427 1.21
-0.30074096 -0.13117519 1.2165
-0.30019698 -0.12835276 1.21
-0.29515666 -0.12535666 1.214375
-0.28770602 -0.1211687 1.2177501
-0.28464752 -0.11659606 1.2133076
-0.27564681 -0.11462989 1.216
-0.2675204 -0.11220895 1.2190001
-0.28110316 -0.10925896 1.21
-0.27355507 -0.10781001 1.2104001
-0.26549411 -0.10511476 1.2158097
-0.25968358 -0.10259104 1.2190001
-0.26137817 -0.098814353 1.2120001
-0.25680211 -0.09437272 1.2163333
-0.25352323 -0.079557501 1.21
-0.34098738 -0.19899894 1.2270001
-0.33576781 -0.19405332 1.226077
-0.33355638 -0.18557246 1.2250001
-0.33283663 -0.1766229 1.2252858
-0.33344281 -0.16832964 1.223
-0.28263226 -0.14413978 1.2270001
-0.27582112 -0.14257737 1.2242309
-0.26927605 -0.14162989 1.2270001
-0.28557679 -0.13466069 1.2265294
-0.27532029 -0.13503614 1.2229998
-0.26552653 -0.13477249 1.2257367
-0.25816077 -0.13015607 1.2270001
-0.28465936 -0.12544312 1.2229998
-0.27554604 -0.1254431 1.2229997
-0.26543409 -0.12546869 1.2249998
-0.25583017 -0.12388133 1.2270001
-0.24417709 -0.12370205 1.2270001
-0.27232948 -0.11740188 1.223
-0.26431313 -0.11532269 1.2239522
-0.25480026 -0.1150389 1.2263597
-0.24668698 -0.11420029 1.2270001
-0.26053569 -0.10721633 1.223
-0.25517488 -0.10507201 1.2229998
-0.24596322 -0.10483198 1.2251999
-0.24695484 -0.096875109 1.2251334
-0.34130505 -0.20291092 1.2333335
-0.3340688 -0.20307538 1.2356924
-0.32759631 -0.20118098 1.2360001
-0.33346644 -0.19629969 1.2320002
-0.32856572 -0.19512147 1.2342223
-0.33126476 -0.18393168 1.233143
-0.32941628 -0.18684922 1.2320001
-0.27973381 -0.15012741 1.2320001
-0.28729421 -0.14364709 1.2320001
-0.27535048 -0.14740741 1.2333335
-0.26514739 -0.14285678 1.2345002
-0.26151374 -0.13724215 1.2326669
-0.2548877 -0.13448322 1.2348889
-0.243801 -0.13265871 1.2360001
-0.26029286 -0.12852634 1.2320001
-0.25381255 -0.12636623 1.2320002
-0.24507447 -0.12513033 1.2326002
-0.23884758 -0.12399022 1.2360001
-0.24307714 -0.11613759 1.2323335
-0.23874439 -0.11485737 1.2360001
-0.24147259 -0.10559741 1.2333335
-0.33070934 -0.22156435 1.245
-0.32459721 -0.22200093 1.245
-0.31761193 -0.22243753 1.245
-0.33471441 -0.21471977 1.2443333
-0.32516065 -0.21540523 1.2423333
-0.31553271 -0.21531838 1.2425556
-0.34307036 -0.20729513 1.2423334
-0.33508655 -0.20888512 1.2410001
-0.32414368 -0.20650348 1.2412221
-0.31856677 -0.20764987 1.2438571
-0.32428786 -0.19516921 1.2424546
-0.25212494 -0.16044314 1.245
-0.27482536 -0.15158969 1.244
-0.26428682 -0.15233526 1.245
-0.25508747 -0.15451814 1.245
-0.24739534 -0.15425827 1.245
-0.23684464 -0.15171155 1.245
-0.2708979 -0.14904824 1.2410001
-0.26428577 -0.14783826 1.2424546
-0.25457862 -0.14502627 1.2418419
-0.24581805 -0.14479946 1.2443047
-0.23606503 -0.14344771 1.245
-0.22520252 -0.14589049 1.245
-0.24505924 -0.13735284 1.2410001
-0.23439439 -0.13518885 1.2436001
-0.22811306 -0.1331569 1.245
-0.23274572 -0.12551326 1.2425554
-0.22811306 -0.12606247 1.245
-0.23318732 -0.11559596 1.2420001
-0.33533001 -0.22370458 1.2533
-0.32668194 -0.22650523 1.253
-0.3188875 -0.22464584 1.25
-0.3386125 -0.21807083 1.25
-0.31372282 -0.21170513 1.25125
-0.32077381 -0.20300239 1.2516667
-0.31732923 -0.20862256 1.2525001
-0.25428662 -0.16388477 1.2546
-0.24494283 -0.16366638 1.2555385
-0.23554684 -0.16512062 1.25775
-0.22647394 -0.16248904 1.2584286
-0.26517478 -0.1569753 1.2521429
-0.25861666 -0.15889584 1.25
-0.24364029 -0.15597361 1.25
-0.23537421 -0.15502454 1.2509091
-0.22519334 -0.1545801 1.2520418
-0.21687095 -0.15490772 1.2586923
-0.24217917 -0.14793751 1.25
-0.2334125 -0.14668512 1.25
-0.22459839 -0.14446643 1.2511765
-0.21583591 -0.14508323 1.2565296
-0.22416864 -0.13516067 1.2506818
-0.21748118 -0.13589735 1.2542
-0.2423206 -0.17350928 1.266
-0.23432168 -0.17435606 1.2667692
-0.22469564 -0.17202339 1.2675998
-0.21631996 -0.17141077 1.268
-0.24599968 -0.16898626 1.2640001
-0.2338105 -0.16880159 1.2640001
-0.22430904 -0.16612212 1.2652308
-0.21517304 -0.16384548 1.2659999
-0.20676008 -0.16118394 1.268
-0.21206883 -0.15506165 1.2652
-0.20639934 -0.15612163 1.2674999
-0.21145122 -0.1448721 1.2657778
-0.20943215 -0.1495944 1.2640001
-0.24200207 -0.18038118 1.2780001
-0.23505296 -0.18244332 1.2767501
-0.22463618 -0.18234184 1.278
-0.21687356 -0.18230185 1.278
-0.2354753 -0.17922907 1.273
-0.22530733 -0.17769147 1.2729999
-0.21512763 -0.17504269 1.275
-0.20839067 -0.17253852 1.2780001
-0.21148136 -0.16684149 1.273
-0.20524807 -0.16558847 1.2756666
-0.20680439 -0.15378663 1.2751428
-0.22264116 -0.19330087 1.2872858
-0.21459363 -0.19462635 1.285273
-0.20608266 -0.19383962 1.2865715
-0.1991062 -0.19157855 1.2880001
-0.23313139 -0.18582702 1.2846667
-0.22524047 -0.18697597 1.2837144
-0.21327241 -0.18523987 1.2830001
-0.20495321 -0.18468499 1.2845628
-0.19678846 -0.18480684 1.2872308
-0.21033074 -0.1777126 1.2830001
-0.20434707 -0.17566103 1.2850002
-0.19664977 -0.17525548 1.2880001
-0.20211725 -0.16598456 1.2880001
-0.19816524 -0.16767828 1.2880001
-0.22233044 -0.20384052 1.2948571
-0.21637493 -0.20389383 1.2945
-0.20807771 -0.20125549 1.2970001
-0.22621463 -0.19632816 1.2945
-0.2038776 -0.19708169 1.2920001
-0.1940541 -0.181573 1.2945001
-0.19187148 -0.17374901 1.2920001
-0.2152465 -0.2068644 1.3036667
-0.209682 -0.20509879 1.307
