# .PCD v0.7 - Point Cloud Data file format
VERSION 0.7
FIELDS x y z
SIZE 4 4 4
TYPE F F F
COUNT 1 1 1
WIDTH 482
HEIGHT 1
VIEWPOINT 0 0 0 1 0 0 0
POINTS 482
DATA ascii
-0.38238883 -0.05759437 1.077
-0.41180474 -0.09406846 1.087
-0.40556359 -0.093850568 1.0836841
-0.4107157 -0.088623106 1.087
-0.40385944 -0.084696323 1.0844089
-0.39600971 -0.08186806 1.085875
-0.40162435 -0.078050219 1.0813333
-0.39435437 -0.075330086 1.0825925
-0.38647646 -0.073654346 1.0850714
-0.39140099 -0.067170195 1.0830001
-0.38468122 -0.065723091 1.0840768
-0.37710008 -0.06468641 1.0850713
-0.38430753 -0.059780948 1.0824001
-0.37682641 -0.059648398 1.08
-0.40170529 -0.091817684 1.0910001
-0.39406821 -0.092172734 1.0941818
-0.38948986 -0.093285225 1.097
-0.40086022 -0.087434351 1.09
-0.39393267 -0.08597324 1.0926667
-0.38721594 -0.084613927 1.0967858
-0.39034283 -0.079603083 1.0940001
-0.38401833 -0.076615453 1.09375
-0.37780097 -0.074767217 1.0962001
-0.37709314 -0.06890972 1.09175
-0.36256215 -0.068280935 1.097
-0.38271058 -0.10004871 1.108
-0.38600507 -0.094869629 1.1057664
-0.38386482 -0.086015426 1.1040665
-0.37630162 -0.082794666 1.1064705
-0.36814037 -0.080621772 1.108
-0.37343603 -0.075234041 1.1029999
-0.36616981 -0.073935702 1.1052998
-0.35842693 -0.074793696 1.108
-0.37374929 -0.068747759 1.1045001
-0.3667798 -0.068529911 1.1010001
-0.38116765 -0.1004099 1.1120001
-0.37875199 -0.10152151 1.1135001
-0.38178295 -0.093860865 1.112375
-0.37534231 -0.094927073 1.1154827
-0.36917925 -0.091886066 1.1190001
-0.37421516 -0.086777903 1.1122001
-0.36512032 -0.084525421 1.1155356
-0.35473576 -0.082822606 1.1186365
-0.36415204 -0.075240955 1.1120002
-0.35545155 -0.075431131 1.1129615
-0.3474856 -0.073405348 1.1144669
-0.36313462 -0.069307953 1.1135001
-0.3554866 -0.068687417 1.114
-0.34802261 -0.06921459 1.1120001
-0.37386286 -0.10328328 1.1233751
-0.36819825 -0.10266117 1.126
-0.37115523 -0.09746518 1.123
-0.36528149 -0.095148437 1.1249564
-0.35425261 -0.093744434 1.1256002
-0.3484557 -0.092789903 1.126
-0.36288545 -0.0888016 1.123
-0.35484073 -0.087620206 1.123
-0.34866485 -0.085397214 1.1243638
-0.34785548 -0.077447064 1.123
-0.3708142 -0.11034954 1.1340001
-0.37126306 -0.10744601 1.1313334
-0.3644262 -0.1048482 1.1324346
-0.35686117 -0.10226867 1.1357144
-0.36455306 -0.0980727 1.13
-0.35383886 -0.097086012 1.1330001
-0.34823549 -0.092182204 1.1356
-0.34496719 -0.084310412 1.1348698
-0.33605745 -0.081522107 1.1375
-0.34391943 -0.075601205 1.1331112
-0.33634734 -0.075643189 1.1368001
-0.35584089 -0.11126425 1.1434001
-0.36109987 -0.10903016 1.141
-0.35308492 -0.10656054 1.1431333
-0.34667629 -0.10410518 1.1477695
-0.34392563 -0.095904849 1.1435002
-0.33601126 -0.094493367 1.1473532
-0.3414906 -0.089128651 1.1423334
-0.33410183 -0.08703471 1.1427501
-0.32639557 -0.084365658 1.1456002
-0.34509546 -0.071019642 1.141
-0.33242527 -0.072353341 1.1409999
-0.32530928 -0.075541236 1.1442311
-0.34389529 -0.069382027 1.1470001
-0.33552152 -0.069357827 1.1466
-0.35307574 -0.11229749 1.154
-0.3459684 -0.11186899 1.1565557
-0.33979163 -0.11461627 1.1570001
-0.34343243 -0.10616491 1.1533333
-0.33647138 -0.10356705 1.1556665
-0.33222401 -0.095897906 1.1545
-0.32599708 -0.093518756 1.1569998
-0.31849122 -0.090272993 1.1570001
-0.32277834 -0.08621069 1.1542
-0.31591544 -0.084153771 1.1565293
-0.3093625 -0.080129966 1.1570001
-0.32205716 -0.075051054 1.1547143
-0.31605774 -0.077241354 1.1549999
-0.33861688 -0.069744967 1.153
-0.39127755 -0.19410154 1.169
-0.38772485 -0.19232517 1.169
-0.3430447 -0.12351466 1.1620001
-0.33648795 -0.12295145 1.1610001
-0.35219926 -0.11590743 1.1618
-0.34562445 -0.11619747 1.1617274
-0.33484319 -0.11524697 1.1617692
-0.32602191 -0.11382163 1.165
-0.33265421 -0.10602187 1.1610001
-0.32478613 -0.10510376 1.1622307
-0.31764907 -0.10361031 1.1663333
-0.33078825 -0.098727569 1.161
-0.32301587 -0.096506901 1.1610001
-0.31445333 -0.094912656 1.1631538
-0.30945894 -0.09089718 1.1650001
-0.3120153 -0.08628767 1.1610001
-0.30581251 -0.083769292 1.1659526
-0.29822358 -0.081985861 1.169
-0.32162794 -0.072264507 1.161
-0.31454304 -0.073309816 1.1635002
-0.30537951 -0.076695174 1.1665
-0.29760817 -0.07803753 1.1682001
-0.23775901 -0.060464576 1.169
-0.35469383 -0.22468242 1.177
-0.34910473 -0.22322066 1.177
-0.34198943 -0.21116708 1.1750001
-0.34115103 -0.2071619 1.1756667
-0.33838147 -0.20652908 1.1750001
-0.41170284 -0.19088978 1.177
-0.40401769 -0.19313531 1.1744119
-0.39590704 -0.19267167 1.1730002
-0.38730782 -0.19159725 1.1750001
-0.41170284 -0.18676245 1.177
-0.40439725 -0.18506213 1.1743335
-0.3953326 -0.18463078 1.1736668
-0.38608655 -0.18441646 1.1757828
-0.37868404 -0.18057142 1.177
-0.39302722 -0.17864712 1.1756667
-0.38564461 -0.17798096 1.1765556
-0.37765223 -0.1774759 1.177
-0.33340481 -0.12292502 1.1750001
-0.32772458 -0.12113926 1.1743335
-0.32292849 -0.1166565 1.1750001
-0.31695884 -0.11149395 1.1754001
-0.31344497 -0.1053519 1.1743335
-0.30550301 -0.10246932 1.177
-0.3112503 -0.098487943 1.1743335
-0.30514774 -0.094731495 1.1750871
-0.29525271 -0.093012705 1.177
-0.30358589 -0.087865092 1.1730002
-0.29538199 -0.085799254 1.1754348
-0.28994611 -0.081515096 1.177
-0.26486453 -0.086753651 1.177
-0.29484636 -0.075717531 1.1746002
-0.28943017 -0.07738775 1.177
-0.25142419 -0.073948294 1.177
-0.25324219 -0.064121284 1.177
-0.24490702 -0.064271264 1.1746473
-0.23960088 -0.063756458 1.1730001
-0.25257069 -0.05675102 1.177
-0.24446845 -0.05453153 1.1757274
-0.23600553 -0.054012313 1.1755884
-0.22931759 -0.051416501 1.1730001
-0.24417008 -0.044556584 1.177
-0.23340146 -0.043956243 1.177
-0.23376836 -0.03531174 1.177
-0.22597224 -0.031986937 1.177
-0.23190528 -0.028117549 1.177
-0.22582482 -0.025501106 1.177
-0.22390856 -0.019604897 1.177
-0.21689208 -0.013413876 1.177
-0.35583264 -0.22210239 1.1825
-0.36169776 -0.21993725 1.189
-0.35459328 -0.21558788 1.187476
-0.34601176 -0.21224539 1.1810001
-0.35196909 -0.20881879 1.189
-0.3448973 -0.20386903 1.1849999
-0.33786702 -0.20258218 1.1810001
-0.41463685 -0.19371685 1.1842
-0.3834056 -0.19253862 1.1846001
-0.37356478 -0.1929322 1.1887333
-0.36679372 -0.19445743 1.189
-0.34085062 -0.19700541 1.189
-0.33668119 -0.19387834 1.189
-0.40635997 -0.18112415 1.1840001
-0.3837046 -0.18660036 1.1815716
-0.37491381 -0.18503845 1.1846666
-0.36722326 -0.18422054 1.1883334
-0.39545676 -0.17694961 1.1850001
-0.38457 -0.17526504 1.1845555
-0.37469822 -0.17648411 1.1860526
-0.36753693 -0.1766533 1.1876668
-0.33261493 -0.12646647 1.1856668
-0.32435778 -0.12347688 1.1864288
-0.3149406 -0.12284918 1.189
-0.30630398 -0.12701862 1.189
-0.32099998 -0.11946774 1.1850001
-0.31440622 -0.11610214 1.1855998
-0.30565625 -0.11406323 1.1885293
-0.29531622 -0.11424489 1.1887499
-0.28593385 -0.11284237 1.1868182
-0.31163836 -0.10871105 1.1810001
-0.30328473 -0.10609992 1.1831175
-0.29492816 -0.10477723 1.1855713
-0.28484878 -0.10529606 1.1858569
-0.2758837 -0.10372655 1.1887333
-0.26997039 -0.10215095 1.189
-0.30128491 -0.098357618 1.1810001
-0.29376698 -0.095736384 1.1849999
-0.28522116 -0.094908483 1.1884283
-0.27496839 -0.094398521 1.1843332
-0.26821938 -0.094833128 1.1843334
-0.29093146 -0.085933499 1.1810001
-0.28558594 -0.085159749 1.1846
-0.27474082 -0.085012816 1.1825999
-0.26409882 -0.081999198 1.187
-0.25829595 -0.081512287 1.189
-0.28483555 -0.075679943 1.1839999
-0.27492705 -0.075954117 1.1841664
-0.26579678 -0.07548032 1.1845789
-0.25653598 -0.074234672 1.1815333
-0.24796472 -0.071956359 1.1810001
-0.26599485 -0.065456495 1.1852
-0.25780049 -0.0663561 1.181
-0.24951774 -0.068332657 1.1810001
-0.25643411 -0.053930715 1.1813077
-0.24951774 -0.050731823 1.1810001
-0.24537636 -0.044679046 1.181
-0.23833604 -0.046176311 1.1810001
-0.22881086 -0.042449076 1.1810001
-0.23864664 -0.031577975 1.1810001
-0.22828977 -0.035871975 1.1826001
-0.22331174 -0.024259295 1.1826001
-0.21662988 -0.015546516 1.1823335
-0.36082286 -0.21335612 1.1930001
-0.35768527 -0.21021853 1.1930001
-0.36082286 -0.2081268 1.1930001
-0.3550843 -0.20458776 1.1943333
-0.33990559 -0.20185162 1.1930001
-0.3809213 -0.19623218 1.197
-0.37734672 -0.19626506 1.194
-0.36460373 -0.19519386 1.1958001
-0.35407329 -0.1951897 1.1962503
-0.34542292 -0.19553427 1.1934212
-0.33761925 -0.19445045 1.1937999
-0.36299521 -0.18516015 1.1932666
-0.35573643 -0.18573843 1.1970004
-0.34550908 -0.18719292 1.1964667
-0.33682698 -0.18584259 1.1960002
-0.36378536 -0.17730781 1.1950002
-0.35835987 -0.17891759 1.197
-0.33432928 -0.17482504 1.197
-0.3284528 -0.17314605 1.197
-0.32320595 -0.1605536 1.197
-0.32253817 -0.15521136 1.1970001
-0.31615743 -0.15111391 1.1958572
-0.3225064 -0.1441135 1.1970001
-0.31473398 -0.14427254 1.1950001
-0.30903947 -0.14323901 1.197
-0.32446232 -0.13520826 1.1947393
-0.3145335 -0.1346838 1.1933481
-0.30488345 -0.13467211 1.1940438
-0.29749641 -0.13169594 1.197
-0.32436705 -0.12804356 1.193
-0.31445625 -0.12602653 1.193
-0.3039279 -0.12372562 1.1930002
-0.2946353 -0.12462997 1.1937276
-0.2876887 -0.12183716 1.1955001
-0.30330038 -0.11818255 1.1930001
-0.29284173 -0.11818255 1.1930001
-0.28413031 -0.11620758 1.1941999
-0.27601865 -0.1124752 1.1958572
-0.26800913 -0.11144309 1.197
-0.2740162 -0.10824686 1.193
-0.26611006 -0.10534547 1.195353
-0.26426101 -0.095636614 1.1962001
-0.26190418 -0.088001549 1.1950001
-0.25919437 -0.087097712 1.197
-0.37153658 -0.20265904 1.204
-0.36490667 -0.20358479 1.2053334
-0.35932988 -0.20232064 1.202
-0.34149498 -0.20193666 1.2060001
-0.36268523 -0.19663909 1.2031429
-0.35932988 -0.19915938 1.202
-0.3367373 -0.1955931 1.2060001
-0.35248047 -0.18071869 1.202
-0.34580675 -0.18247496 1.2019999
-0.33398718 -0.18376671 1.2041539
-0.35540512 -0.17652467 1.2035385
-0.3447772 -0.17468859 1.2043635
-0.33471113 -0.17453951 1.2029999
-0.32982481 -0.17597681 1.202
-0.3419179 -0.1647211 1.2060001
-0.3347269 -0.16525607 1.2021998
-0.32782727 -0.16473219 1.2038182
-0.33538139 -0.15585428 1.2045883
-0.32731268 -0.15461716 1.2023076
-0.31717801 -0.15541722 1.2060001
-0.3283805 -0.14653265 1.2025
-0.31541708 -0.14874405 1.2033334
-0.30548206 -0.14368662 1.2044616
-0.3003197 -0.13698792 1.202
-0.29515979 -0.1344603 1.2047693
-0.28863198 -0.13004299 1.2060001
-0.29188967 -0.12961166 1.202
-0.28573373 -0.1249299 1.2036
-0.28181854 -0.11874537 1.2040001
-0.27476206 -0.11628 1.2036
-0.26789352 -0.11511394 1.2046667
-0.26277891 -0.1039046 1.2038182
-0.25867626 -0.1039639 1.2060002
-0.26449206 -0.095567316 1.2019999
-0.25749233 -0.095601372 1.205
-0.2590287 -0.08880984 1.2060001
-0.3663888 -0.20600088 1.21
-0.34204677 -0.20420425 1.217
-0.33512285 -0.19453086 1.217
-0.33158764 -0.18546534 1.2128572
-0.330989 -0.17986219 1.2140001
-0.32989842 -0.17361213 1.21
-0.32673192 -0.16709091 1.2140001
-0.3214123 -0.15805423 1.21
-0.31504771 -0.15168963 1.21
-0.29601789 -0.15068059 1.2190001
-0.2810567 -0.15068059 1.2190001
-0.31292617 -0.1495681 1.21
-0.30201277 -0.14501283 1.2124287
-0.29623196 -0.14472337 1.2160625
-0.28410998 -0.14335264 1.219
-0.27598059 -0.14346714 1.219
-0.29329288 -0.13813406 1.214375
-0.28542617 -0.1354447 1.2148749
-0.27556247 -0.13503252 1.2174
-0.26395822 -0.13144477 1.2190001
-0.25968358 -0.13144477 1.2190001
-0.28242913 -0.12596604 1.21
-0.2749607 -0.12556617 1.2123333
-0.26536945 -0.12460304 1.2165
-0.25596887 -0.12531456 1.2187618
-0.2736778 -0.11986663 1.21
-0.26446787 -0.11610641 1.2150716
-0.25626385 -0.11477373 1.219
-0.24685968 -0.11220895 1.2190001
-0.26200935 -0.10925896 1.21
-0.25526795 -0.10485663 1.2158124
-0.24757212 -0.10650945 1.2190001
-0.34421435 -0.21334122 1.2270001
-0.33710849 -0.21392016 1.2262002
-0.34390977 -0.20870671 1.2240001
-0.33501801 -0.20509361 1.224857
-0.32807934 -0.20437729 1.2270001
-0.33246484 -0.19604178 1.2253333
-0.32807934 -0.1968476 1.2270001
-0.28266215 -0.16314328 1.2270001
-0.27752286 -0.16350184 1.2270001
-0.29372749 -0.1540103 1.2245386
-0.28531292 -0.15499204 1.2234998
-0.27643937 -0.15463381 1.2244736
-0.26999316 -0.15166947 1.2270001
-0.29208788 -0.14688636 1.2230002
-0.28583875 -0.14688636 1.2229999
-0.27439135 -0.14655647 1.2229998
-0.2655873 -0.1444167 1.2251816
-0.25739247 -0.14244945 1.2270001
-0.27125731 -0.13723691 1.223
-0.26507664 -0.1356602 1.2229998
-0.25463316 -0.13542743 1.2244736
-0.24744104 -0.13163112 1.2264287
-0.25303054 -0.12383486 1.223
-0.24631211 -0.12466139 1.2247999
-0.25434098 -0.11424495 1.223
-0.24560042 -0.11488902 1.2238331
-0.23987441 -0.11724803 1.2270001
-0.34240496 -0.22212979 1.2360001
-0.33566126 -0.22349466 1.2355556
-0.34532803 -0.2170832 1.2337145
-0.33282068 -0.21642366 1.2329233
-0.32745814 -0.21296898 1.2344002
-0.32664874 -0.20482869 1.2333335
-0.29053435 -0.16092795 1.2320001
-0.28837425 -0.162008 1.2320001
-0.27425089 -0.16300739 1.2337145
-0.27213347 -0.15714285 1.2328001
-0.26496881 -0.15364695 1.2342224
-0.25510094 -0.15309155 1.2360001
-0.24741286 -0.15278196 1.2360001
-0.26029286 -0.14796731 1.2320001
-0.2536718 -0.14577214 1.2341335
-0.24515559 -0.14497881 1.2357647
-0.23693842 -0.14501645 1.2360001
-0.24442723 -0.1360092 1.2328423
-0.23657724 -0.13580619 1.2360001
-0.24128392 -0.12593421 1.2320001
-0.23767836 -0.12587492 1.2342223
-0.23869179 -0.11772581 1.2320001
-0.34162384 -0.23029594 1.245
-0.33460951 -0.23268397 1.2444286
-0.32552493 -0.23166025 1.245
-0.31870341 -0.23029594 1.245
-0.34423947 -0.22607498 1.2434
-0.33443379 -0.22868566 1.2410001
-0.32565922 -0.22480592 1.2424001
-0.31843054 -0.22538443 1.245
-0.32333714 -0.21680933 1.2427777
-0.31979483 -0.21829 1.245
-0.27133447 -0.16563565 1.243
-0.2641986 -0.16492216 1.2427499
-0.25553358 -0.16472843 1.243
-0.24615292 -0.16367422 1.2439091
-0.23902754 -0.16044314 1.245
-0.26437023 -0.15992767 1.2410001
-0.25403476 -0.15802376 1.2410001
-0.244105 -0.15596679 1.241222
-0.2350352 -0.15436321 1.2435884
-0.22483872 -0.15334873 1.245
-0.21938145 -0.15826026 1.245
-0.23137292 -0.14644848 1.2420001
-0.22614601 -0.1445584 1.2426002
-0.23173192 -0.13272908 1.2410001
-0.22750187 -0.13562985 1.2426667
-0.331117 -0.2417154 1.2590001
-0.32371882 -0.24113944 1.256
-0.335114 -0.23757729 1.2521429
-0.3239845 -0.23628837 1.2504545
-0.31780642 -0.23479368 1.2515
-0.31780642 -0.22344905 1.2515
-0.25403646 -0.17381771 1.2560002
-0.24448568 -0.17501359 1.2566001
-0.23494756 -0.1748894 1.2576669
-0.22510444 -0.17390411 1.2568827
-0.21663079 -0.17348523 1.2589999
-0.25401416 -0.16941583 1.25
-0.24424765 -0.1681679 1.2505
-0.23568866 -0.16477947 1.2530558
-0.2251431 -0.16473946 1.2527502
-0.21466783 -0.16495378 1.2563813
-0.23225969 -0.15837716 1.2516667
-0.22393841 -0.1556171 1.2507693
-0.21690306 -0.15586963 1.2559286
-0.22244787 -0.14610103 1.2561668
-0.21964094 -0.14900266 1.2590001
-0.24122009 -0.19008587 1.268
-0.23492093 -0.19045641 1.268
-0.22533989 -0.19135629 1.268
-0.2144074 -0.1904092 1.2672001
-0.20676008 -0.19008587 1.268
-0.24445559 -0.18354617 1.2648
-0.2346465 -0.18468958 1.2645334
-0.22482289 -0.18386392 1.2646316
-0.21489823 -0.18437579 1.2647059
-0.2063511 -0.18416399 1.2654999
-0.21358214 -0.17568399 1.2647274
-0.20669317 -0.17559066 1.2670767
-0.21040562 -0.16375011 1.2672001
-0.20839185 -0.16767478 1.2666668
-0.2145896 -0.15525503 1.2650001
-0.22407599 -0.2016684 1.278
-0.21559313 -0.20150837 1.278
-0.20876414 -0.20129494 1.2780001
-0.23414776 -0.1956856 1.2754999
-0.22448978 -0.19612418 1.2739999
-0.21566917 -0.19571516 1.2756922
-0.20547017 -0.19445492 1.2764615
-0.20127171 -0.18561926 1.2754999
-0.19083543 -0.18860343 1.273
-0.20393096 -0.17518756 1.2751428
-0.22313051 -0.21074058 1.2855
-0.21478847 -0.21225448 1.2861251
-0.20889214 -0.21115042 1.2880001
-0.2329205 -0.20360827 1.286
-0.22524045 -0.2059463 1.2837143
-0.2146253 -0.20664969 1.2830001
-0.20527095 -0.20492825 1.2849233
-0.20283929 -0.19788857 1.284
-0.19750491 -0.19275397 1.2841113
-0.20133263 -0.1810869 1.2830001
-0.19484772 -0.18470995 1.2847502
-0.18820149 -0.18481842 1.2855
-0.19669734 -0.17908266 1.2880001
-0.21482658 -0.2155817 1.2920001
-0.20807771 -0.21262586 1.2970001
-0.19141841 -0.18009187 1.2920001
-0.188398 -0.18160208 1.2920001
-0.22029406 -0.22029406 1.302
