# .PCD v0.7 - Point Cloud Data file format
VERSION 0.7
FIELDS x y z
SIZE 4 4 4
TYPE F F F
COUNT 1 1 1
WIDTH 500
HEIGHT 1
VIEWPOINT 0 0 0 1 0 0 0
POINTS 500
DATA ascii
-0.37831587 -0.10958771 1.087
-0.36545122 -0.092911318 1.087
-0.35925713 -0.091481917 1.087
-0.36222181 -0.084599599 1.087
-0.35576043 -0.08416117 1.0868
-0.34877482 -0.082905486 1.087
-0.36116299 -0.079093739 1.087
-0.35608065 -0.079093739 1.087
-0.34686893 -0.079093739 1.087
-0.38222665 -0.1118013 1.09
-0.37394944 -0.11151625 1.0925715
-0.36448556 -0.11136524 1.097
-0.35871536 -0.1144427 1.097
-0.38221821 -0.10589301 1.0931667
-0.3748298 -0.10548092 1.0917143
-0.36573568 -0.10391629 1.0941482
-0.35631108 -0.1014597 1.097
-0.37390286 -0.096584469 1.0908
-0.36524084 -0.095093936 1.0901668
-0.35520807 -0.09486939 1.0945863
-0.34614909 -0.093669899 1.097
-0.37116137 -0.089193821 1.0940001
-0.36617491 -0.086730137 1.0905715
-0.35408083 -0.086221486 1.0912501
-0.34509054 -0.085579507 1.0937084
-0.33853069 -0.086154707 1.0960001
-0.36157066 -0.077684939 1.0940001
-0.35444069 -0.078153081 1.0905001
-0.34750366 -0.078501992 1.092
-0.36441067 -0.11310506 1.101
-0.35800621 -0.11306232 1.1049999
-0.36152476 -0.10692382 1.101
-0.35480848 -0.10564864 1.1036665
-0.34626719 -0.10289662 1.1072856
-0.35133645 -0.099416628 1.1010001
-0.34294412 -0.095738679 1.103125
-0.33835244 -0.090982802 1.108
-0.34071913 -0.089764528 1.1010001
-0.33576849 -0.086972021 1.1053749
-0.35391462 -0.11417483 1.1152225
-0.34778428 -0.11230889 1.1161112
-0.35289693 -0.10820872 1.1120001
-0.34351018 -0.10588886 1.1141177
-0.33518779 -0.10405731 1.1168
-0.34071124 -0.096997902 1.1120001
-0.33403113 -0.094924189 1.1146896
-0.32691491 -0.093684539 1.1190001
-0.33317155 -0.08841639 1.1131999
-0.32720929 -0.088171192 1.1174999
-0.35273325 -0.12207466 1.126
-0.3484557 -0.1224037 1.126
-0.35441881 -0.1191241 1.123
-0.34509832 -0.11465798 1.1247145
-0.33737049 -0.11147101 1.1252501
-0.33227962 -0.10831855 1.1247143
-0.32732326 -0.10267939 1.1250001
-0.32456958 -0.095932364 1.1246499
-0.31785476 -0.093777031 1.126
-0.32261735 -0.088597164 1.1253999
-0.3188419 -0.089828528 1.126
-0.34393215 -0.12273531 1.1345333
-0.3364864 -0.12246858 1.1376002
-0.34488192 -0.1181684 1.13
-0.33515385 -0.1158221 1.1328571
-0.32554942 -0.11216749 1.1351429
-0.31824929 -0.11073878 1.138
-0.32450444 -0.10648467 1.132
-0.3156974 -0.10313763 1.1348335
-0.32294646 -0.094110161 1.13
-0.31396347 -0.094341286 1.1306955
-0.30800039 -0.094710156 1.1348001
-0.32416362 -0.085848458 1.1308
-0.31613472 -0.086911514 1.1315385
-0.30917755 -0.088478461 1.1340001
-0.3252188 -0.13149561 1.145
-0.33157027 -0.12624575 1.141889
-0.32495025 -0.12507232 1.1447039
-0.31826887 -0.12408984 1.1476667
-0.32403761 -0.11763626 1.142
-0.31450006 -0.11517902 1.1432403
-0.30595392 -0.11379691 1.1471541
-0.29815784 -0.11180919 1.149
-0.31210297 -0.1087065 1.1418002
-0.30415541 -0.10532445 1.1433706
-0.29522306 -0.10465033 1.1460528
-0.28909224 -0.10173629 1.149
-0.30291691 -0.095121577 1.1434002
-0.29439336 -0.095449597 1.1461202
-0.31729636 -0.085619651 1.149
-0.30823073 -0.089648813 1.149
-0.32143334 -0.13039277 1.153
-0.31950554 -0.13084513 1.1570001
-0.314668 -0.1240194 1.1551331
-0.30515298 -0.12252619 1.1564285
-0.29921949 -0.1227307 1.1570001
-0.30304366 -0.11672799 1.1538
-0.2955212 -0.11337366 1.1561428
-0.28806216 -0.11157337 1.1570001
-0.2913976 -0.10589845 1.1535714
-0.28616449 -0.10400434 1.1559998
-0.30429101 -0.090272993 1.1570001
-0.29171839 -0.09413033 1.1545999
-0.28491598 -0.095434159 1.1561577
-0.27893341 -0.095344514 1.1570001
-0.30323899 -0.089960903 1.153
-0.29818502 -0.089960903 1.153
-0.31462076 -0.2418583 1.169
-0.31307608 -0.23557435 1.1683334
-0.30843413 -0.23285669 1.165
-0.31154627 -0.1404008 1.169
-0.30414388 -0.14237013 1.165
-0.29822358 -0.1404008 1.169
-0.32338917 -0.13363937 1.1636667
-0.31447735 -0.13417955 1.1631179
-0.30446219 -0.13533807 1.1621665
-0.29631349 -0.13394561 1.1663334
-0.31373993 -0.12824406 1.1610001
-0.30385539 -0.12722625 1.1610001
-0.29402545 -0.12521638 1.1626295
-0.28772727 -0.12236206 1.1680001
-0.29305094 -0.11689156 1.1610001
-0.28548229 -0.11509032 1.1650001
-0.27900809 -0.11262836 1.1658001
-0.28351659 -0.10551297 1.1610001
-0.27612713 -0.10467993 1.1636155
-0.2668933 -0.10233593 1.169
-0.29312927 -0.09058509 1.161
-0.28537446 -0.091179468 1.1633999
-0.27499664 -0.094617449 1.1627392
-0.26673013 -0.095695183 1.1662
-0.28086209 -0.088854551 1.1650001
-0.27064893 -0.088854551 1.1650001
-0.21008877 -0.085060336 1.169
-0.20803913 -0.085060336 1.169
-0.32294792 -0.2425278 1.1761112
-0.31775397 -0.24268588 1.1730001
-0.32382751 -0.23841561 1.1758573
-0.31511462 -0.2332443 1.1746668
-0.30850571 -0.23094936 1.1743335
-0.30679941 -0.22597224 1.177
-0.37360439 -0.21250035 1.1758573
-0.36863396 -0.21197478 1.1756667
-0.37418383 -0.20475397 1.1736668
-0.36504173 -0.20445821 1.1742311
-0.35804731 -0.20120814 1.177
-0.3735249 -0.19914448 1.177
-0.36323035 -0.19792806 1.1752223
-0.31605849 -0.1417269 1.1743335
-0.29820079 -0.14136162 1.177
-0.32344791 -0.13700108 1.1750001
-0.31981063 -0.13882455 1.1730001
-0.29370591 -0.13565737 1.1745001
-0.28829515 -0.13186873 1.177
-0.28452891 -0.1249843 1.1745239
-0.27636024 -0.12244461 1.177
-0.26569793 -0.12072489 1.177
-0.28176242 -0.11825795 1.1730001
-0.27434948 -0.11472078 1.1740911
-0.26507244 -0.11448856 1.1765201
-0.27147913 -0.10694632 1.1730001
-0.26351729 -0.10566831 1.1732669
-0.25589913 -0.10433222 1.1750002
-0.22419882 -0.10276257 1.1761112
-0.26265857 -0.094781488 1.1742309
-0.25551173 -0.096331865 1.1752502
-0.23009957 -0.093897134 1.177
-0.22438815 -0.095023505 1.1744119
-0.21670339 -0.094812028 1.1730002
-0.2311314 -0.089769788 1.177
-0.22454354 -0.087229885 1.177
-0.21561736 -0.085403025 1.1737275
-0.20772266 -0.082266398 1.1730001
-0.21454175 -0.076096624 1.1765556
-0.20638615 -0.07445845 1.1767647
-0.20506035 -0.065005705 1.177
-0.19639291 -0.060878363 1.177
-0.20356663 -0.055571772 1.177
-0.19693339 -0.054687347 1.177
-0.20120814 -0.047464486 1.177
-0.19455855 -0.045171518 1.177
-0.18882613 -0.042305302 1.177
-0.32587841 -0.23391427 1.1852499
-0.31923085 -0.23157179 1.1810001
-0.32077497 -0.22704001 1.1880001
-0.3143031 -0.22540337 1.1836667
-0.30660704 -0.222435 1.1832858
-0.38398263 -0.21228483 1.187
-0.375525 -0.21453129 1.1850001
-0.36476395 -0.21349567 1.1843846
-0.35669443 -0.21201535 1.189
-0.31255808 -0.2172569 1.189
-0.30522272 -0.21464664 1.1855712
-0.29868209 -0.2126013 1.1830001
-0.38363343 -0.20494626 1.1850002
-0.379971 -0.20189194 1.1810001
-0.36105022 -0.20764871 1.1823335
-0.35465491 -0.20494875 1.1853075
-0.34559679 -0.20316233 1.1884286
-0.33668122 -0.20117484 1.189
-0.30464244 -0.20622201 1.1889998
-0.29811403 -0.20404133 1.189
-0.37335655 -0.19808546 1.1830001
-0.36961758 -0.19775057 1.1810001
-0.35451573 -0.19743119 1.1844286
-0.34461266 -0.19666152 1.1884999
-0.33751509 -0.19783929 1.189
-0.30124107 -0.19909012 1.189
-0.29498693 -0.19909012 1.189
-0.27726686 -0.15322644 1.189
-0.26788566 -0.15114172 1.189
-0.31474435 -0.14701876 1.1810001
-0.3033258 -0.14488758 1.189
-0.29329625 -0.14338689 1.1875455
-0.28645664 -0.14537916 1.1887499
-0.27518216 -0.1443664 1.189
-0.26586086 -0.14413425 1.1887997
-0.25871292 -0.14238591 1.189
-0.29273084 -0.13781726 1.1820002
-0.28436625 -0.13564093 1.1855999
-0.27532357 -0.13524383 1.1882941
-0.26530984 -0.13525793 1.1867999
-0.25580698 -0.13378255 1.1882379
-0.24745548 -0.13112846 1.189
-0.28057805 -0.12838256 1.1810001
-0.2739695 -0.12727429 1.1828667
-0.2645759 -0.12638229 1.1825999
-0.25512135 -0.12449527 1.1851817
-0.24458797 -0.12489753 1.1849999
-0.23835352 -0.12326796 1.1872857
-0.25514933 -0.11513093 1.1831334
-0.24450621 -0.11499956 1.1818
-0.23541257 -0.11526607 1.1852961
-0.22704001 -0.11143836 1.1880001
-0.25195166 -0.10501778 1.1827143
-0.24503765 -0.10477556 1.1855713
-0.23564814 -0.105097 1.1849998
-0.22695532 -0.10745811 1.1854001
-0.24576589 -0.095036015 1.1873999
-0.2363573 -0.094793089 1.183
-0.23507673 -0.084977105 1.1828947
-0.22644438 -0.082975373 1.1810001
-0.22513872 -0.075891763 1.1844544
-0.21732362 -0.072209567 1.1823335
-0.20430775 -0.076960512 1.1810001
-0.19982126 -0.072474033 1.1810001
-0.21474053 -0.06533587 1.1813477
-0.20485008 -0.064930812 1.1810001
-0.19829866 -0.065478578 1.1818001
-0.20721658 -0.053689945 1.1810001
-0.19345386 -0.053910088 1.1826
-0.19686314 -0.042449076 1.1810001
-0.18671232 -0.043779124 1.1843334
-0.32490563 -0.22565022 1.195182
-0.31829107 -0.22137439 1.1930001
-0.30643797 -0.22486061 1.1930001
-0.37755668 -0.21858543 1.1930001
-0.36239165 -0.21597078 1.1930001
-0.35466582 -0.21468303 1.1934
-0.34468588 -0.21383791 1.1946472
-0.33524752 -0.21375023 1.1957275
-0.32075742 -0.21372169 1.197
-0.31575114 -0.2133605 1.1942002
-0.29907045 -0.21197274 1.197
-0.34443763 -0.20742954 1.193
-0.33446419 -0.2054607 1.1946366
-0.32346827 -0.20344658 1.1970003
-0.31468844 -0.20451 1.1948826
-0.30713519 -0.20254886 1.1930001
-0.29473847 -0.20514774 1.1933635
-0.35379902 -0.19416983 1.194
-0.34447125 -0.19265276 1.1943333
-0.33511099 -0.19700649 1.1948463
-0.32355574 -0.19798113 1.197
-0.31390375 -0.19624737 1.1954002
-0.30473131 -0.19559075 1.1941669
-0.29532257 -0.19575703 1.1941113
-0.31166288 -0.18993597 1.197
-0.30373421 -0.18666971 1.1962503
-0.29499424 -0.18517146 1.195182
-0.28787717 -0.18224059 1.197
-0.30116919 -0.17944227 1.197
-0.29477635 -0.17567268 1.1961582
-0.28567317 -0.17416623 1.1932002
-0.27854827 -0.17117296 1.1930001
-0.29207465 -0.16440129 1.197
-0.28532371 -0.16438569 1.193696
-0.27531204 -0.16407239 1.1933336
-0.26848811 -0.16201659 1.1954
-0.29395598 -0.15391043 1.1961111
-0.28530052 -0.15462263 1.1930002
-0.27471343 -0.15490398 1.1930002
-0.26575133 -0.15448633 1.1941429
-0.29563072 -0.14746672 1.193
-0.2830106 -0.14411998 1.193
-0.27506205 -0.14642087 1.193
-0.2625117 -0.14851259 1.1930001
-0.25603402 -0.14372577 1.1945001
-0.252639 -0.13835642 1.1938
-0.24529944 -0.13469425 1.1945001
-0.23512389 -0.12533177 1.1946667
-0.22981203 -0.12067755 1.197
-0.2311358 -0.11818255 1.1930001
-0.22851315 -0.11582959 1.1946001
-0.20462714 -0.078702748 1.197
-0.19766816 -0.066935256 1.1930001
-0.3330369 -0.23153993 1.2060001
-0.34434062 -0.22041766 1.2030001
-0.33463943 -0.22388002 1.204154
-0.32771727 -0.22210775 1.202
-0.35269645 -0.21766639 1.2033334
-0.34879234 -0.21812694 1.202
-0.33193231 -0.21812694 1.202
-0.32596102 -0.21531694 1.2019999
-0.3270148 -0.2075894 1.202
-0.32500574 -0.1948605 1.2036667
-0.31735566 -0.19188891 1.2026668
-0.29291594 -0.19234593 1.2033334
-0.32034978 -0.18924955 1.2060001
-0.31295538 -0.18763064 1.2046667
-0.30781695 -0.18278852 1.2035
-0.29188967 -0.1875681 1.202
-0.28978217 -0.18651433 1.202
-0.30322126 -0.17536157 1.2042222
-0.2982122 -0.1717618 1.202
-0.2973215 -0.16568759 1.2038182
-0.26748678 -0.16176078 1.2060001
-0.26267445 -0.15472114 1.2033335
-0.2590287 -0.15118818 1.2060001
-0.25370732 -0.14666283 1.2050002
-0.24641927 -0.14327832 1.2046669
-0.23894075 -0.14061558 1.2060001
-0.24203715 -0.13657589 1.2030001
-0.23636425 -0.13416199 1.205
-0.22942542 -0.13004299 1.2060001
-0.23243298 -0.12659067 1.2033334
-0.22841048 -0.12454804 1.2054287
-0.22649035 -0.11754672 1.2048571
-0.33626303 -0.23018636 1.21
-0.3131164 -0.2318985 1.2190001
-0.34489974 -0.22514006 1.2142501
-0.3395032 -0.22881876 1.2140001
-0.3109791 -0.22762387 1.2190001
-0.30884176 -0.22334924 1.2190001
-0.3027288 -0.21593118 1.2173334
-0.29807544 -0.21109256 1.21
-0.26580459 -0.16283607 1.2162857
-0.25434971 -0.16308482 1.2170769
-0.24444813 -0.16521254 1.2185651
-0.23644029 -0.16323732 1.219
-0.26244068 -0.15778509 1.2120001
-0.25536191 -0.15498728 1.210889
-0.24523678 -0.15500116 1.2109998
-0.23523338 -0.15463756 1.2150836
-0.22682239 -0.15375297 1.219
-0.21907462 -0.15068059 1.2190001
-0.25352323 -0.1495681 1.21
-0.24356833 -0.14679378 1.21
-0.23458338 -0.14478569 1.2107998
-0.22473311 -0.14485843 1.21495
-0.21907462 -0.14319998 1.2190001
-0.23209572 -0.13641459 1.21
-0.22431858 -0.13501976 1.2127199
-0.21731241 -0.13399714 1.2184443
-0.22324334 -0.12514065 1.2119999
-0.21684569 -0.1254881 1.2164999
-0.21817604 -0.11813434 1.2140001
-0.31301999 -0.23342039 1.2270001
-0.30564395 -0.23403503 1.2270001
-0.30465871 -0.22552083 1.2244544
-0.29825383 -0.2224822 1.2260002
-0.30259815 -0.21889929 1.2240001
-0.29889897 -0.21650353 1.2238001
-0.25063109 -0.18178824 1.2270001
-0.2460894 -0.18346149 1.2270001
-0.23987441 -0.18178824 1.2270001
-0.2542837 -0.17379478 1.2254617
-0.24535041 -0.17511359 1.2231998
-0.23609327 -0.17367774 1.2251176
-0.22739664 -0.17189208 1.2270001
-0.21836101 -0.17103153 1.2270001
-0.25517488 -0.16832964 1.223
-0.2331955 -0.16600662 1.2229999
-0.22453542 -0.16485989 1.2260474
-0.21570344 -0.16445096 1.227
-0.22408213 -0.15733998 1.223
-0.21579479 -0.15493363 1.2259474
-0.20821898 -0.15382083 1.2270001
-0.21520485 -0.14523067 1.2246362
-0.20760432 -0.14521545 1.227
-0.21384981 -0.13560557 1.2239232
-0.2085263 -0.13661008 1.2270001
-0.31281105 -0.24209559 1.2346667
-0.30419248 -0.24424532 1.2344
-0.29689544 -0.24271744 1.2360001
-0.31357548 -0.2368917 1.2320002
-0.30239943 -0.23695098 1.2325716
-0.29567364 -0.23459651 1.2337145
-0.29622179 -0.22551689 1.2332002
-0.29917479 -0.21925083 1.2320001
-0.25414354 -0.18276605 1.2336
-0.243012 -0.18468912 1.2320001
-0.2365641 -0.18134989 1.2350001
-0.22501929 -0.18095452 1.2360001
-0.216712 -0.18203807 1.2360001
-0.23294844 -0.17777807 1.2340001
-0.22429395 -0.17572823 1.2332308
-0.21480803 -0.17511645 1.2338002
-0.20826022 -0.17185262 1.2360001
-0.22141093 -0.16956837 1.2320001
-0.21163383 -0.16501622 1.2325716
-0.20605174 -0.16416411 1.2342857
-0.2106104 -0.15876783 1.2320001
-0.20354839 -0.15468442 1.2338825
-0.19829148 -0.15386553 1.2360001
-0.20302504 -0.14571472 1.2335001
-0.30347517 -0.25373992 1.2431819
-0.29481781 -0.25389066 1.2437692
-0.28923425 -0.25430784 1.245
-0.29282409 -0.24612626 1.2410001
-0.28717273 -0.24489205 1.244077
-0.29048088 -0.23281987 1.2410001
-0.28726426 -0.23569348 1.2427778
-0.22393113 -0.19229136 1.2445
-0.214982 -0.19304438 1.2431335
-0.20584746 -0.19144033 1.245
-0.23292045 -0.18525109 1.243
-0.22508477 -0.18623936 1.2423334
-0.21541278 -0.18712625 1.2410001
-0.20581999 -0.18506023 1.2434763
-0.19876517 -0.18396997 1.245
-0.204097 -0.17594087 1.2421429
-0.19864389 -0.174632 1.245
-0.20126952 -0.16754326 1.2410001
-0.19671997 -0.16512807 1.2427142
-0.20126952 -0.15992767 1.2410001
-0.19668761 -0.15854824 1.243
-0.29595828 -0.26075134 1.2550001
-0.30427638 -0.25898194 1.25
-0.29477918 -0.25861666 1.25
-0.28707129 -0.25248942 1.25225
-0.2851674 -0.2451493 1.2540001
-0.22295211 -0.20198137 1.2590001
-0.21382932 -0.20282455 1.256
-0.20507178 -0.20507176 1.2590001
-0.19977392 -0.20529255 1.2590001
-0.22601213 -0.19744988 1.253
-0.213899 -0.19799626 1.25125
-0.20481224 -0.19647057 1.2529334
-0.19546106 -0.19464028 1.2561251
-0.18432179 -0.19259973 1.2589999
-0.1799069 -0.19094414 1.2590001
-0.19365807 -0.18523015 1.2517895
-0.18585572 -0.18554188 1.2587143
-0.19396247 -0.17533332 1.25
-0.1869911 -0.17573097 1.2538126
-0.19236232 -0.16463719 1.2512727
-0.18831739 -0.16700509 1.2533
-0.21231814 -0.21157706 1.268
-0.20373772 -0.2133522 1.2653334
-0.19373834 -0.21295337 1.2679999
-0.1846133 -0.21300223 1.2679999
-0.17896974 -0.21009491 1.268
-0.21386458 -0.20795469 1.2640001
-0.20943215 -0.20943215 1.2640001
-0.19522232 -0.20473899 1.2640001
-0.18522738 -0.20408729 1.2651999
-0.1766952 -0.20377177 1.2676363
-0.19244118 -0.19761235 1.2640001
-0.18545675 -0.19653784 1.2640001
-0.17542452 -0.19511926 1.2654999
-0.18145247 -0.18449977 1.2640001
-0.17719759 -0.18546571 1.2654544
-0.17477927 -0.23191866 1.2780001
-0.20054802 -0.22071485 1.2780001
-0.19208205 -0.22341175 1.2763335
-0.1843217 -0.22550255 1.2763332
-0.17462561 -0.22549815 1.2744706
-0.16757321 -0.22318369 1.2771667
-0.20422739 -0.21836334 1.273
-0.19529943 -0.21873532 1.2729999
-0.18509601 -0.21825707 1.2729999
-0.17522328 -0.21581827 1.2744585
-0.16625081 -0.21492369 1.2773334
-0.1568532 -0.21175182 1.2780001
-0.17263348 -0.20639354 1.274111
-0.16487773 -0.20584495 1.2777618
-0.1558951 -0.20674017 1.2774999
-0.17177442 -0.19545284 1.2739999
-0.19143279 -0.2329205 1.286
-0.1845126 -0.23425759 1.2846668
-0.17844923 -0.23530675 1.2842501
-0.19571529 -0.22669008 1.284875
-0.16758974 -0.22607742 1.2830001
-0.16219087 -0.21662942 1.2830001
-0.15859163 -0.2148298 1.2830001
-0.16421545 -0.20133263 1.2830001
-0.15494396 -0.20333801 1.2838334
-0.14959352 -0.20583169 1.2830001
-0.19141841 -0.24125516 1.2920001
-0.18838647 -0.23945229 1.2945001
