# .PCD v0.7 - Point Cloud Data file format
VERSION 0.7
FIELDS x y z
SIZE 4 4 4
TYPE F F F
COUNT 1 1 1
WIDTH 453
HEIGHT 1
VIEWPOINT 0 0 0 1 0 0 0
POINTS 453
DATA ascii
-0.28133109 -0.085880019 1.126
-0.27145982 -0.055279091 1.126
-0.2659758 -0.053633884 1.126
-0.25783879 -0.050912123 1.1240001
-0.28464726 -0.082317248 1.1313332
-0.27676436 -0.082910582 1.1340001
-0.28426847 -0.075735644 1.1358824
-0.27724117 -0.074925967 1.1362224
-0.2803387 -0.066842325 1.138
-0.27438107 -0.064446919 1.1344001
-0.26546159 -0.063442528 1.1349524
-0.27242416 -0.058447365 1.13
-0.26209351 -0.056548856 1.1316001
-0.25773975 -0.054733809 1.1351429
-0.27205744 -0.082117371 1.1423334
-0.26501942 -0.083215132 1.1436669
-0.25931606 -0.083890162 1.1474001
-0.28608057 -0.071937807 1.145
-0.27306128 -0.076027282 1.1420667
-0.26497251 -0.075305484 1.1439568
-0.25652507 -0.074463524 1.1470954
-0.28373986 -0.067172833 1.1436667
-0.26285711 -0.068267256 1.1418002
-0.25508511 -0.065713152 1.1446804
-0.24557211 -0.064337239 1.1474349
-0.23872773 -0.062451981 1.149
-0.25407776 -0.057636447 1.1445556
-0.24510977 -0.057259679 1.145889
-0.23822409 -0.057919178 1.149
-0.25493044 -0.082679838 1.1557999
-0.25277936 -0.07744132 1.1538889
-0.24535172 -0.074392244 1.1557367
-0.23836128 -0.072015539 1.1570001
-0.28807706 -0.069744967 1.153
-0.24340357 -0.069448367 1.1536666
-0.23601222 -0.065279521 1.1554443
-0.2425912 -0.053572223 1.153
-0.23673421 -0.056847837 1.1556668
-0.22592898 -0.054372329 1.1556667
-0.24493277 -0.091209278 1.169
-0.25343102 -0.086690642 1.1633333
-0.24520023 -0.08410906 1.1648402
-0.23878384 -0.080961041 1.169
-0.24142699 -0.077929966 1.1620001
-0.23483472 -0.074657477 1.1634763
-0.22778498 -0.072142549 1.1663333
-0.23206067 -0.064630933 1.1610001
-0.22496344 -0.064233534 1.1655519
-0.23339312 -0.055547841 1.1614445
-0.22554003 -0.057021469 1.1615001
-0.21816429 -0.055611003 1.1618
-0.2507363 -0.091833465 1.177
-0.24394274 -0.092839688 1.1752224
-0.23732242 -0.091833465 1.177
-0.24186182 -0.089026824 1.174
-0.23504665 -0.085577019 1.1749202
-0.22651005 -0.083127372 1.1759092
-0.23240258 -0.07918141 1.1730001
-0.22453745 -0.076003641 1.1740528
-0.21809313 -0.073462814 1.1765556
-0.22109094 -0.068898112 1.1730001
-0.21595319 -0.064399965 1.1749049
-0.22314762 -0.058614809 1.1730001
-0.21631575 -0.058026854 1.1750001
-0.2344556 -0.094022252 1.1841428
-0.2262456 -0.092083313 1.1882001
-0.22338527 -0.086094804 1.1831819
-0.21608004 -0.084683478 1.1873529
-0.20951369 -0.080261461 1.189
-0.22052813 -0.079721436 1.1810001
-0.21434285 -0.076259248 1.1847893
-0.20599571 -0.074398205 1.1889999
-0.19909012 -0.071922608 1.189
-0.21140416 -0.066403121 1.1814446
-0.2049811 -0.065554723 1.1869198
-0.19757396 -0.064720877 1.189
-0.21287404 -0.056587763 1.1832223
-0.20592169 -0.059033561 1.1883334
-0.19804776 -0.059414331 1.189
-0.2258821 -0.10214061 1.1962001
-0.21721959 -0.10283826 1.197
-0.23322754 -0.098311156 1.193
-0.22404727 -0.096714422 1.1942501
-0.21530819 -0.093218096 1.1947143
-0.20538068 -0.093370467 1.1966926
-0.21152586 -0.086545192 1.193
-0.20445395 -0.085051052 1.1938698
-0.19782756 -0.08399526 1.196273
-0.20342042 -0.077916816 1.1930001
-0.19566151 -0.074228838 1.1941431
-0.19306639 -0.065261878 1.193
-0.1888866 -0.064011574 1.197
-0.21021853 -0.054384895 1.1930001
-0.20533286 -0.056569546 1.1950001
-0.19541714 -0.05696417 1.1938571
-0.18993597 -0.058764718 1.197
-0.22149597 -0.10255422 1.2060001
-0.21391144 -0.10354755 1.2027999
-0.20649751 -0.1025615 1.2041539
-0.22023444 -0.097999059 1.202
-0.21349044 -0.097156063 1.202
-0.20407221 -0.096841358 1.2025715
-0.19833489 -0.094283305 1.2050002
-0.19469856 -0.085524455 1.2044001
-0.19188888 -0.07556165 1.2026666
-0.18625098 -0.072432652 1.2043999
-0.18418409 -0.064481728 1.2023476
-0.17798814 -0.063558087 1.2054287
-0.19445811 -0.053799856 1.2033334
-0.18566072 -0.057462491 1.2042857
-0.22167276 -0.2078153 1.2156668
-0.21556973 -0.20401935 1.2130001
-0.20897104 -0.2004849 1.21
-0.21355905 -0.19612831 1.2169999
-0.20757294 -0.19459386 1.2130001
-0.2058233 -0.18637374 1.219
-0.2810567 -0.17419104 1.2190001
-0.27479616 -0.1743681 1.2164999
-0.26590008 -0.17465319 1.2156876
-0.273536 -0.16753013 1.21525
-0.26623708 -0.16595894 1.2129232
-0.22426514 -0.10653582 1.21525
-0.20236988 -0.10384628 1.2128335
-0.19885314 -0.10209602 1.2173334
-0.19469613 -0.094690315 1.2136154
-0.18915223 -0.090835817 1.2190001
-0.19158794 -0.085153595 1.214125
-0.18690856 -0.084033467 1.2167778
-0.17846566 -0.080149248 1.2190001
-0.19199876 -0.079557501 1.21
-0.18514618 -0.076944597 1.2117857
-0.17623064 -0.073664241 1.2154
-0.16777909 -0.071599998 1.2190001
-0.17380151 -0.065134004 1.2113332
-0.16629061 -0.064375147 1.2163686
-0.17576958 -0.057169352 1.2138181
-0.16719203 -0.05798332 1.2173334
-0.13720833 -0.050571918 1.2170002
-0.1234557 -0.050020847 1.2140001
-0.13411643 -0.045417905 1.219
-0.12465213 -0.044746161 1.2152501
-0.11813434 -0.042570934 1.2140001
-0.12356003 -0.035149075 1.2150002
-0.1161245 -0.034012239 1.2152307
-0.12237417 -0.024700016 1.2170769
-0.11488594 -0.024464432 1.2134001
-0.1075633 -0.023344755 1.2148461
-0.12182686 -0.018167162 1.2190001
-0.11467649 -0.01493188 1.2168125
-0.10531896 -0.015095554 1.2161055
-0.099385068 -0.01282388 1.2190001
-0.11188014 -0.0058365092 1.219
-0.10447238 -0.0053332015 1.2160001
-0.098163746 -0.0047326223 1.219
-0.10381535 0.0033998727 1.2185454
-0.099385068 0.0053432835 1.2190001
-0.23126905 -0.20330162 1.2270001
-0.22552246 -0.2032226 1.2245384
-0.21979348 -0.20049454 1.223
-0.22418645 -0.19730434 1.2265002
-0.21717088 -0.19331621 1.2243334
-0.27435747 -0.18230779 1.2256669
-0.26543438 -0.18310368 1.2250001
-0.25816077 -0.18178824 1.2270001
-0.21330063 -0.18571594 1.2245387
-0.20778525 -0.1824822 1.223
-0.28295234 -0.17693646 1.2256669
-0.2764037 -0.17604922 1.223
-0.26148874 -0.17452437 1.223
-0.25545734 -0.17446086 1.2253997
-0.24847977 -0.17103153 1.2270001
-0.21190698 -0.1796369 1.2270001
-0.20867997 -0.1796369 1.2270001
-0.27769029 -0.16618532 1.223
-0.26306108 -0.16642456 1.2247778
-0.25488722 -0.16598116 1.2267777
-0.24614914 -0.16583247 1.2270001
-0.2382609 -0.16188833 1.2270001
-0.20360073 -0.10814297 1.2262001
-0.19594799 -0.10388763 1.2262729
-0.19197597 -0.096347712 1.2256669
-0.18616731 -0.0937123 1.2263335
-0.16457751 -0.091431953 1.2270001
-0.18356839 -0.08596424 1.2245386
-0.17654093 -0.083342515 1.2266668
-0.16409943 -0.084499858 1.2269999
-0.155581 -0.083413318 1.2270001
-0.14951813 -0.081750922 1.2270001
-0.1811956 -0.078267924 1.223
-0.17277758 -0.077114739 1.2241429
-0.16429339 -0.075391456 1.2257366
-0.15483424 -0.075267524 1.2264999
-0.14760488 -0.075201526 1.2254002
-0.16296883 -0.067546286 1.223
-0.15576822 -0.065528899 1.2253997
-0.14801806 -0.065360039 1.2259092
-0.15506788 -0.056436956 1.2262501
-0.14712819 -0.054537024 1.2262
-0.14498261 -0.045104153 1.2249998
-0.13670082 -0.043422617 1.223
-0.13485904 -0.036064051 1.2248824
-0.12973176 -0.035381388 1.223
-0.10003731 -0.01613505 1.2270001
-0.09772642 -0.012888754 1.2250001
-0.097043358 -0.0053628203 1.2241429
-0.23005135 -0.19764976 1.2320001
-0.22509684 -0.19384776 1.2337779
-0.2775737 -0.18468912 1.2320001
-0.26029286 -0.18468912 1.2320001
-0.25291598 -0.18184172 1.2346668
-0.24705169 -0.18095452 1.2360001
-0.22295585 -0.18674903 1.2354287
-0.21811715 -0.18384704 1.2325716
-0.20695996 -0.18095452 1.2360001
-0.25237247 -0.17748876 1.2320001
-0.24585964 -0.1750754 1.2327502
-0.23686621 -0.17141919 1.2360001
-0.21391676 -0.17736061 1.2355001
-0.20817912 -0.17787214 1.2346667
-0.25424457 -0.16135997 1.2320001
-0.24355203 -0.16434813 1.2320002
-0.23447184 -0.16473661 1.2338824
-0.22808936 -0.16307577 1.2360001
-0.2031675 -0.16307577 1.2360001
-0.24665016 -0.15902558 1.2340001
-0.23691216 -0.15902558 1.2340001
-0.20301975 -0.15376702 1.2360001
-0.19650573 -0.15103477 1.2350001
-0.20190336 -0.14483584 1.2360001
-0.19496277 -0.14513698 1.2355001
-0.189623 -0.14302993 1.2360001
-0.20154217 -0.13977924 1.2360001
-0.19467962 -0.13869567 1.2360001
-0.18474697 -0.12027516 1.2360001
-0.20287763 -0.11299124 1.2353334
-0.19530892 -0.11385663 1.235077
-0.18516989 -0.11478476 1.2352002
-0.17520475 -0.11398959 1.2352002
-0.16795179 -0.11269024 1.2360001
-0.19318961 -0.10617134 1.2323638
-0.1846891 -0.10476517 1.2320002
-0.17458004 -0.10512188 1.2327275
-0.1656996 -0.10388628 1.2336844
-0.15928333 -0.10077108 1.2360001
-0.182289 -0.096124738 1.2320002
-0.17504051 -0.095084131 1.2325002
-0.16524817 -0.095215224 1.2320002
-0.1556756 -0.094815217 1.2342502
-0.14844772 -0.092102602 1.2360001
-0.1803689 -0.089644425 1.2320001
-0.17388858 -0.087091573 1.2320002
-0.16648252 -0.086558558 1.2320002
-0.15354757 -0.087304302 1.2320002
-0.14722005 -0.085520238 1.2348001
-0.14430371 -0.077287808 1.233
-0.23211502 -0.19282283 1.245
-0.22883454 -0.19287281 1.243
-0.25212494 -0.18663795 1.245
-0.24430259 -0.18389022 1.2432858
-0.23357028 -0.18390933 1.2450001
-0.22593209 -0.18333545 1.2423334
-0.20410115 -0.18008925 1.245
-0.24043548 -0.17733477 1.2410001
-0.2344269 -0.17644309 1.2412857
-0.22470976 -0.17466433 1.2409997
-0.21616855 -0.17303304 1.2413636
-0.20672645 -0.17340408 1.2416154
-0.23029594 -0.16044314 1.245
-0.22355893 -0.16536359 1.2415333
-0.21521938 -0.16446124 1.2424001
-0.20624478 -0.16605638 1.2412666
-0.19930752 -0.1659112 1.2423334
-0.23416145 -0.15864657 1.2423334
-0.22476523 -0.15892722 1.2434
-0.21471167 -0.15550064 1.2441429
-0.20683011 -0.15654296 1.2410001
-0.19909362 -0.15883973 1.2410001
-0.21255988 -0.14488998 1.245
-0.20761585 -0.14487778 1.2410001
-0.1860383 -0.14088866 1.2410001
-0.21137749 -0.13788651 1.245
-0.2048656 -0.13512063 1.2429999
-0.19474186 -0.13381703 1.2409999
-0.18511026 -0.13471529 1.2429999
-0.19505568 -0.12537852 1.2418332
-0.18495038 -0.12620144 1.2409999
-0.17757118 -0.12473753 1.2426667
-0.19474186 -0.11749788 1.2410001
-0.17171592 -0.11798793 1.2423334
-0.16515435 -0.11473704 1.2435
-0.16155009 -0.1085474 1.2423334
-0.15566766 -0.10382082 1.2436666
-0.15122412 -0.099002846 1.2410001
-0.14645953 -0.094854459 1.2436668
-0.14202262 -0.084270455 1.243
-0.14079705 -0.078584403 1.245
-0.13279308 -0.076037683 1.245
-0.23795305 -0.19175331 1.2546667
-0.20639627 -0.19315158 1.2590001
-0.24542721 -0.18763734 1.2516667
-0.2367 -0.18848333 1.25
-0.20449916 -0.18376319 1.2582
-0.20298348 -0.17655998 1.2561111
-0.19913922 -0.17273402 1.2550001
-0.18190834 -0.13697916 1.25
-0.17816015 -0.13196945 1.2545
-0.17347041 -0.12560529 1.2524
-0.16732608 -0.12164517 1.2557501
-0.16326416 -0.11709319 1.254125
-0.15553431 -0.1137972 1.2571876
-0.14900266 -0.11147606 1.2590001
-0.15256281 -0.10646765 1.2520001
-0.14464207 -0.10438073 1.2574739
-0.13570318 -0.10260639 1.2585
-0.143617 -0.096354924 1.2505555
-0.1353987 -0.094674811 1.2557003
-0.1283998 -0.094184399 1.2589999
-0.1413625 -0.087666661 1.25
-0.13505532 -0.085648581 1.2525002
-0.12778714 -0.084828191 1.2566001
-0.13456832 -0.078680828 1.25
-0.20426887 -0.19223984 1.2663332
-0.2018337 -0.18505383 1.2640001
-0.19897878 -0.18452781 1.268
-0.20088466 -0.17757584 1.266
-0.15229103 -0.1411749 1.268
-0.14661461 -0.14217429 1.2670001
-0.15451425 -0.13349466 1.2679999
-0.14531958 -0.13534033 1.2653999
-0.13722248 -0.13351712 1.268
-0.15499796 -0.12448128 1.2644706
-0.14516197 -0.12521605 1.2640001
-0.1359241 -0.1245397 1.2669998
-0.14492865 -0.11541807 1.2640001
-0.13471326 -0.11561326 1.2653333
-0.12488548 -0.11393299 1.2666665
-0.11703701 -0.11163773 1.268
-0.14239171 -0.1091485 1.2640001
-0.13445027 -0.10674762 1.2640001
-0.12548065 -0.10515427 1.2648333
-0.1167194 -0.10449165 1.2679999
-0.12354501 -0.095302783 1.2650666
-0.11760869 -0.095376424 1.2679999
-0.20502955 -0.20390916 1.278
-0.21092337 -0.1997634 1.273
-0.20352116 -0.19815034 1.2770001
-0.19903533 -0.19232839 1.2755001
-0.19691671 -0.18537451 1.2738333
-0.1997634 -0.17967546 1.273
-0.14173158 -0.14173158 1.273
-0.13545641 -0.14083245 1.2770001
-0.12884369 -0.14004751 1.2780001
-0.13334729 -0.13521238 1.2746665
-0.12608582 -0.13384232 1.278
-0.11988066 -0.13108446 1.2780001
-0.13101801 -0.12566122 1.273
-0.12520504 -0.12520997 1.2751875
-0.11848018 -0.12492236 1.278
-0.12499162 -0.11941164 1.273
-0.11432287 -0.11551738 1.2743334
-0.10867686 -0.11315838 1.2780001
-0.1117624 -0.10505656 1.2748749
-0.10867686 -0.10867686 1.2780001
-0.20211725 -0.2201836 1.2880001
-0.1991062 -0.22093636 1.2880001
-0.21348499 -0.21263923 1.2867501
-0.20488276 -0.21451643 1.2841114
-0.19631019 -0.21357001 1.2880001
-0.21295519 -0.20658153 1.2830001
-0.20508187 -0.20470691 1.2830001
-0.19554394 -0.20544608 1.2860557
-0.19700211 -0.19625518 1.2841113
-0.13211016 -0.15017651 1.2880001
-0.13427065 -0.14503497 1.2846667
-0.12511806 -0.14428481 1.285778
-0.11585045 -0.14159498 1.2880001
-0.10952722 -0.14114334 1.2880001
-0.12184936 -0.1368462 1.2830001
-0.11483544 -0.13510528 1.2842501
-0.10632797 -0.13455664 1.2880001
-0.098235756 -0.13211016 1.2880001
-0.11375106 -0.12514867 1.2830002
-0.10481218 -0.12510556 1.2856003
-0.097106598 -0.12533529 1.2880001
-0.10408991 -0.11520243 1.2836251
-0.097482987 -0.11780763 1.2880001
-0.20954086 -0.2208674 1.2920001
-0.19519408 -0.22243035 1.2945
-0.19368373 -0.21746944 1.2919999
-0.18964112 -0.21462671 1.2953334
-0.18951911 -0.20880929 1.2945001
-0.12483295 -0.15207142 1.2945
-0.11427218 -0.15293144 1.2970001
-0.10509467 -0.15220048 1.2970001
-0.09778516 -0.15122588 1.2970001
-0.12119391 -0.14837758 1.2920001
-0.11492165 -0.14668122 1.2936666
-0.10503426 -0.14526336 1.2945
-0.097642146 -0.14533193 1.295125
-0.10335462 -0.13733421 1.2919999
-0.095061883 -0.13514833 1.2940001
-0.088517182 -0.13277978 1.2945
-0.092921957 -0.12465049 1.292625
-0.089067876 -0.12772711 1.2970001
-0.19061714 -0.22029406 1.302
-0.097393282 -0.17072469 1.307
-0.1135051 -0.16268042 1.3045001
-0.10499568 -0.16447634 1.3046668
-0.095709406 -0.16441429 1.3061175
-0.085890785 -0.16277947 1.3062859
-0.075623021 -0.16155827 1.307
-0.11560953 -0.15767901 1.302
-0.10463016 -0.15713549 1.302
-0.094357386 -0.15561357 1.302
-0.084438264 -0.15461138 1.3043683
-0.075623021 -0.15468344 1.3069998
-0.092455022 -0.14496034 1.302
-0.084853694 -0.14448056 1.3049412
-0.07768546 -0.14643367 1.307
-0.090172179 -0.13811181 1.302
-0.084869333 -0.13631214 1.3038751
-0.087889336 -0.12669761 1.302
-0.074907511 -0.18207504 1.3145001
-0.10251401 -0.17335239 1.3138751
-0.09489692 -0.17404686 1.3147779
-0.086544521 -0.17325713 1.3162857
-0.076201618 -0.17664921 1.317
-0.10926773 -0.16907744 1.312
-0.091631539 -0.16831064 1.312
-0.084253803 -0.16735986 1.3125558
-0.075911447 -0.16599008 1.3148572
-0.066965058 -0.16163979 1.317
-0.070161387 -0.1552752 1.312
-0.06811963 -0.15702152 1.317
-0.075574942 -0.14539969 1.3128334
-0.079362877 -0.13917258 1.312
-0.084987573 -0.19209521 1.3280001
-0.09424191 -0.18399404 1.327143
-0.085661553 -0.18548442 1.3240001
-0.07768999 -0.18553445 1.3227501
-0.093875222 -0.17847882 1.322
-0.084861144 -0.17783496 1.322
-0.074713863 -0.17469288 1.3220003
-0.067757212 -0.17300209 1.3280001
-0.070696153 -0.16688928 1.322
-0.064938866 -0.16466673 1.3227501
-0.058210667 -0.16182566 1.3280001
-0.065104946 -0.1564901 1.3262
-0.070696153 -0.14950497 1.322
-0.09333197 -0.19252156 1.3363334
-0.089981943 -0.19164985 1.3330001
-0.064272813 -0.16827792 1.3330001
-0.058429834 -0.16009775 1.3330001
