# .PCD v0.7 - Point Cloud Data file format
VERSION 0.7
FIELDS x y z
SIZE 4 4 4
TYPE F F F
COUNT 1 1 1
WIDTH 491
HEIGHT 1
VIEWPOINT 0 0 0 1 0 0 0
POINTS 491
DATA ascii
-0.3716453 -0.10005835 1.087
-0.36878648 -0.10005835 1.087
-0.34591603 -0.079093739 1.087
-0.37346143 -0.1135451 1.097
-0.36443874 -0.11421251 1.0961924
-0.37342891 -0.10586452 1.0914546
-0.3652727 -0.10468915 1.093613
-0.35766175 -0.10285156 1.0964546
-0.37110156 -0.095531464 1.09525
-0.36555612 -0.095463492 1.0944583
-0.35556832 -0.095140249 1.0962001
-0.34559092 -0.094077215 1.097
-0.33948126 -0.091361813 1.097
-0.36221004 -0.088554442 1.0940001
-0.35496986 -0.085826188 1.0943462
-0.34528756 -0.085547775 1.0943333
-0.3391718 -0.087436974 1.0960001
-0.35277462 -0.078604996 1.0935
-0.36002332 -0.11485998 1.1010001
-0.35765591 -0.11517986 1.106375
-0.36002332 -0.10906873 1.1010001
-0.35408607 -0.10595752 1.1039999
-0.34569758 -0.10459532 1.1067498
-0.35037124 -0.098451421 1.1010001
-0.34241727 -0.096331403 1.1039999
-0.33899999 -0.091306582 1.108
-0.34001955 -0.088153213 1.105
-0.3374404 -0.087148115 1.1045001
-0.31580162 -0.086215779 1.105
-0.35361814 -0.12102821 1.1163334
-0.34762669 -0.12142476 1.117
-0.35334471 -0.11492224 1.1128001
-0.34596151 -0.11348806 1.1142272
-0.33844155 -0.11085187 1.1190001
-0.34129488 -0.10480744 1.1126667
-0.33522415 -0.10415673 1.1153599
-0.32797766 -0.10169596 1.1190001
-0.34022382 -0.096510477 1.1120001
-0.33458886 -0.094621591 1.11272
-0.32570264 -0.094743349 1.1159599
-0.31963706 -0.091883436 1.115
-0.33411014 -0.088771485 1.1127501
-0.3252413 -0.087902762 1.1141
-0.31768209 -0.088950984 1.115
-0.34312525 -0.12378569 1.1260002
-0.33779472 -0.12773418 1.126
-0.34330222 -0.11684629 1.12475
-0.33608678 -0.11292661 1.1254548
-0.33228034 -0.10803802 1.1247143
-0.32517585 -0.10379302 1.1245002
-0.31785476 -0.10266117 1.126
-0.32158762 -0.09691944 1.12525
-0.31717139 -0.096206889 1.1260002
-0.33382237 -0.13053858 1.1366667
-0.32777601 -0.13110813 1.133
-0.34516495 -0.12609348 1.13
-0.33449408 -0.1247403 1.1345519
-0.32776287 -0.1217427 1.1364
-0.3417685 -0.11986663 1.13
-0.33514291 -0.1173789 1.1305715
-0.32561877 -0.11496814 1.1334785
-0.31705043 -0.11174081 1.1355
-0.32501781 -0.10851938 1.13
-0.31433216 -0.10510031 1.1329631
-0.30765563 -0.10148959 1.1372001
-0.3130725 -0.093512788 1.1311998
-0.30731958 -0.096466064 1.1363335
-0.3131541 -0.088478468 1.1340001
-0.32579213 -0.13273083 1.1470001
-0.32360435 -0.12588918 1.1439476
-0.3163054 -0.12303674 1.146091
-0.32108882 -0.11903292 1.141
-0.31401625 -0.11677209 1.1427779
-0.30553493 -0.11468581 1.1458336
-0.29764849 -0.11308738 1.1483334
-0.30369776 -0.10616171 1.1412224
-0.29517671 -0.10498717 1.1445558
-0.28909224 -0.10173629 1.149
-0.30350897 -0.094019331 1.1437693
-0.29532042 -0.096959651 1.1452106
-0.28741339 -0.098042898 1.149
-0.31125259 -0.089648813 1.149
-0.30923802 -0.089648813 1.149
-0.32263273 -0.13261224 1.1547143
-0.3151654 -0.13246123 1.1566364
-0.3093625 -0.13084513 1.1570001
-0.31417704 -0.12656975 1.1549999
-0.30509934 -0.12425268 1.155857
-0.29678518 -0.12252785 1.1569999
-0.30121741 -0.11826321 1.153
-0.29403257 -0.11511792 1.1552221
-0.28772405 -0.11191147 1.1570001
-0.29060403 -0.10663905 1.153
-0.28470543 -0.10414298 1.1553634
-0.27622858 -0.10244464 1.1569999
-0.30428195 -0.091519028 1.1556667
-0.29330084 -0.094504081 1.155
-0.2837632 -0.096699402 1.155
-0.27690479 -0.097228214 1.1570002
-0.31667039 -0.24698241 1.169
-0.30232289 -0.2326349 1.169
-0.2978811 -0.23100312 1.1676668
-0.31154627 -0.14347526 1.169
-0.3041048 -0.14354371 1.1625386
-0.29617536 -0.14293389 1.1653637
-0.32286948 -0.13668479 1.1618
-0.31430498 -0.13702923 1.1612667
-0.30457792 -0.13548321 1.1619599
-0.29476279 -0.13508645 1.165308
-0.28797534 -0.1311774 1.169
-0.30330738 -0.12926187 1.161
-0.29355681 -0.12617831 1.1612105
-0.2869696 -0.12424707 1.1668462
-0.29075438 -0.11840523 1.161
-0.28458771 -0.11586834 1.1631052
-0.2772055 -0.11408096 1.16575
-0.28295118 -0.10890567 1.161
-0.27392486 -0.10670575 1.1631178
-0.26563054 -0.10416975 1.1672001
-0.25506592 -0.10518678 1.1659093
-0.28498679 -0.094656326 1.161
-0.27345964 -0.095976248 1.1622002
-0.26587784 -0.097386777 1.1658571
-0.25723067 -0.099407859 1.169
-0.21213844 -0.094898641 1.169
-0.20763135 -0.095704831 1.1667144
-0.32193303 -0.24454528 1.177
-0.31497937 -0.24356629 1.1759092
-0.31264654 -0.23570098 1.177
-0.30696043 -0.23387256 1.1742002
-0.30195454 -0.22531648 1.1755456
-0.29807696 -0.22619665 1.1755002
-0.37352487 -0.21152651 1.177
-0.36630201 -0.21152651 1.177
-0.37361881 -0.20596159 1.1756668
-0.36480412 -0.20493092 1.1742309
-0.3649607 -0.19897528 1.1760001
-0.29335961 -0.14454818 1.174143
-0.28994611 -0.14136162 1.177
-0.29101738 -0.13779622 1.1730001
-0.28687006 -0.13451877 1.1754616
-0.28319195 -0.12580912 1.1746668
-0.2764672 -0.12251344 1.1760001
-0.26606646 -0.12131451 1.177
-0.27267578 -0.11590068 1.1737275
-0.2648277 -0.11448261 1.1746668
-0.25680384 -0.11450602 1.1743335
-0.2311314 -0.11040653 1.177
-0.21771753 -0.11040653 1.177
-0.26530913 -0.10797465 1.1730001
-0.25125223 -0.10215183 1.177
-0.23101674 -0.1046741 1.177
-0.22500215 -0.10359719 1.1750001
-0.2171547 -0.10233944 1.177
-0.26384836 -0.095240191 1.1745001
-0.25649074 -0.097512804 1.1750002
-0.23009957 -0.09802448 1.177
-0.22434953 -0.095815934 1.1752502
-0.21610883 -0.094234012 1.1738573
-0.20669432 -0.09152136 1.1730001
-0.22184488 -0.08873795 1.177
-0.21489242 -0.08616177 1.1760477
-0.20650023 -0.08510787 1.1746473
-0.21204244 -0.077903666 1.177
-0.20488825 -0.076136395 1.1768
-0.19695903 -0.073588438 1.1762729
-0.20198202 -0.065779589 1.177
-0.19557995 -0.064724281 1.177
-0.18882611 -0.060878363 1.177
-0.1946732 -0.055948477 1.177
-0.18882611 -0.055203263 1.177
-0.19088978 -0.048496325 1.177
-0.18882611 -0.048496325 1.177
-0.32264611 -0.24296764 1.1834
-0.31785041 -0.24192522 1.1810001
-0.32185221 -0.23654869 1.1866001
-0.31653315 -0.23407158 1.1846001
-0.3085323 -0.23088156 1.1810001
-0.36048093 -0.22127505 1.1850001
-0.35736439 -0.22127505 1.1850001
-0.31391647 -0.22580741 1.1870002
-0.30698031 -0.22410433 1.1816667
-0.29921421 -0.22052813 1.1810001
-0.3737762 -0.21596099 1.1843333
-0.36411378 -0.21566947 1.1849998
-0.35516632 -0.21532457 1.1874998
-0.34762597 -0.21316195 1.189
-0.31166464 -0.2188949 1.189
-0.30472091 -0.21691178 1.1876665
-0.29865316 -0.21852495 1.187
-0.37375894 -0.20189194 1.1810001
-0.36133483 -0.20499799 1.1810001
-0.35511398 -0.20502231 1.1854285
-0.34499887 -0.20531712 1.188333
-0.3369137 -0.20416911 1.1886923
-0.36360103 -0.19945569 1.1850001
-0.35483521 -0.1992729 1.187
-0.34571496 -0.19874267 1.189
-0.33876592 -0.19909012 1.189
-0.28456336 -0.15114172 1.189
-0.27205509 -0.1563535 1.189
-0.29142064 -0.14623414 1.1830001
-0.28467894 -0.14461008 1.1867141
-0.27541384 -0.14442429 1.1889998
-0.26591069 -0.1436806 1.1889998
-0.25635019 -0.1432198 1.1889999
-0.28296298 -0.13593276 1.1850002
-0.2753475 -0.13507603 1.1872221
-0.26531088 -0.13525757 1.1867999
-0.25511873 -0.13484624 1.1873635
-0.24587083 -0.13373941 1.1887333
-0.28057805 -0.12941791 1.1810001
-0.27419871 -0.12732607 1.1820667
-0.26450735 -0.12689778 1.1832223
-0.25489721 -0.1251044 1.1848397
-0.24477887 -0.12498452 1.1825557
-0.23778634 -0.12417852 1.1853335
-0.25332177 -0.11623243 1.1857059
-0.24488191 -0.11517366 1.1835999
-0.23575678 -0.11510005 1.1828182
-0.22723375 -0.11153216 1.189
-0.25188765 -0.10637504 1.1856668
-0.24571604 -0.10467656 1.1853635
-0.2369867 -0.10437769 1.1817499
-0.22646929 -0.10907925 1.1850001
-0.23530698 -0.094495103 1.1833634
-0.22730932 -0.090964153 1.1818001
-0.22548151 -0.08429227 1.18525
-0.21845745 -0.082827464 1.1810001
-0.20189194 -0.081792124 1.1810001
-0.21559533 -0.074741185 1.1823332
-0.2060333 -0.072128922 1.1810001
-0.19982126 -0.079721436 1.1810001
-0.206551 -0.064708956 1.181
-0.19114488 -0.064405188 1.1850001
-0.19656733 -0.051619258 1.1810001
-0.18839085 -0.053456064 1.184
-0.32458115 -0.23348816 1.1943334
-0.37232733 -0.22067717 1.1930001
-0.36605215 -0.22276889 1.1930001
-0.33334985 -0.22141707 1.197
-0.32359219 -0.22490007 1.1960001
-0.31731492 -0.22318724 1.1930001
-0.30116919 -0.22351581 1.197
-0.37964839 -0.21858543 1.1930001
-0.35036421 -0.21858543 1.1930001
-0.34485143 -0.21605012 1.1939414
-0.33529791 -0.21443699 1.1936669
-0.32513264 -0.21480535 1.195667
-0.31474721 -0.21416239 1.195118
-0.30402443 -0.21214937 1.193
-0.29837087 -0.21162295 1.197
-0.36082286 -0.20185162 1.1930001
-0.33260247 -0.20393649 1.194091
-0.32464737 -0.20554246 1.1954352
-0.31481099 -0.20462713 1.1970003
-0.30471554 -0.20418669 1.1944404
-0.29566425 -0.20488879 1.1941429
-0.34513488 -0.19766816 1.1930001
-0.33784717 -0.19876997 1.1946
-0.31434548 -0.1968589 1.1965556
-0.30506092 -0.19498645 1.1958002
-0.29510808 -0.19565526 1.1947145
-0.28942227 -0.1962598 1.194
-0.30344281 -0.18713762 1.1970001
-0.29474446 -0.18565752 1.1964786
-0.28595334 -0.1841644 1.1970001
-0.29259932 -0.17611927 1.1970001
-0.28445628 -0.17515872 1.1957829
-0.27708417 -0.17229845 1.1952858
-0.29067549 -0.1605536 1.197
-0.28509781 -0.16455737 1.1956003
-0.27531204 -0.16407242 1.1933336
-0.2676264 -0.16225499 1.1960001
-0.29413357 -0.15388493 1.1964285
-0.28525922 -0.15517996 1.1930001
-0.27529448 -0.15455538 1.1930002
-0.26469076 -0.15484038 1.1934001
-0.2569513 -0.1517241 1.1963334
-0.29493344 -0.14955845 1.1930001
-0.27297032 -0.14955845 1.1930001
-0.26460341 -0.14920983 1.193
-0.25378758 -0.14701034 1.1941429
-0.24786454 -0.1436937 1.1948184
-0.24336486 -0.13686061 1.194
-0.23786382 -0.1324815 1.1952858
-0.23389155 -0.12461075 1.1944546
-0.22860281 -0.12110829 1.1943334
-0.23165873 -0.11609083 1.1930001
-0.22642106 -0.11547931 1.1938888
-0.33092237 -0.23153993 1.2060001
-0.34198591 -0.22271191 1.204
-0.33372363 -0.22565341 1.2046667
-0.32771727 -0.22515196 1.202
-0.3024272 -0.22655697 1.202
-0.32139477 -0.21496567 1.202
-0.3003197 -0.21601944 1.202
-0.29709005 -0.21250926 1.2060001
-0.33193231 -0.20126688 1.202
-0.32560977 -0.20126688 1.202
-0.32309622 -0.19842087 1.2052001
-0.31436679 -0.19304961 1.2033334
-0.29188967 -0.19283685 1.202
-0.28939876 -0.19234593 1.2033334
-0.3118917 -0.18819228 1.2060001
-0.30528769 -0.18347722 1.2034545
-0.2982122 -0.18019181 1.202
-0.28451341 -0.18546058 1.202
-0.30216491 -0.17698532 1.2060001
-0.2971372 -0.17312159 1.2033334
-0.27924463 -0.17597681 1.202
-0.29430038 -0.16560759 1.2032307
-0.2729221 -0.16965428 1.202
-0.26563698 -0.1639571 1.2040001
-0.26071012 -0.15832776 1.204
-0.25456357 -0.15372506 1.2037778
-0.24726032 -0.15180945 1.2053335
-0.244076 -0.14530994 1.2044616
-0.23761916 -0.14220148 1.2060002
-0.22836816 -0.14061558 1.2060001
-0.24130951 -0.13804169 1.202
-0.23412085 -0.13552436 1.2033331
-0.2273109 -0.13427202 1.2060001
-0.232177 -0.12820666 1.202
-0.22583184 -0.1244566 1.2045715
-0.22260611 -0.11729216 1.2053336
-0.33469379 -0.2316311 1.2120001
-0.30670446 -0.2318985 1.2190001
-0.34284109 -0.22678357 1.2145001
-0.33520228 -0.22806484 1.21
-0.30287385 -0.22288899 1.2165
-0.30085796 -0.21782045 1.2144001
-0.29774758 -0.2123719 1.2173334
-0.24151641 -0.18380895 1.219
-0.23831044 -0.1848776 1.2190001
-0.28110316 -0.17926957 1.21
-0.2755042 -0.17381197 1.2134001
-0.24239077 -0.17555113 1.219
-0.23831044 -0.17525969 1.2190001
-0.2704955 -0.16866189 1.21
-0.26478499 -0.16634737 1.2130002
-0.25602409 -0.16266003 1.2158666
-0.24429488 -0.16468002 1.219
-0.23641062 -0.1654043 1.219
-0.25387681 -0.15734704 1.21
-0.24410437 -0.15597109 1.2113125
-0.23504971 -0.15473692 1.2157273
-0.22586372 -0.15332077 1.219
-0.21854028 -0.15335223 1.2190001
-0.24150121 -0.14815374 1.21
-0.2343453 -0.14575329 1.2102499
-0.22412762 -0.14477926 1.2128948
-0.21777353 -0.14462444 1.2168572
-0.22235155 -0.13425946 1.2106668
-0.21602501 -0.13593864 1.2166363
-0.22182067 -0.12592079 1.2121251
-0.22170024 -0.11986663 1.21
-0.30344087 -0.23456654 1.22525
-0.29590699 -0.23335755 1.2266668
-0.28935522 -0.23126905 1.2270001
-0.30250326 -0.22622645 1.2230002
-0.29574203 -0.22527345 1.2253999
-0.29804122 -0.2182204 1.2238001
-0.25063109 -0.18178824 1.2270001
-0.24710207 -0.18479213 1.2255001
-0.23863597 -0.18210793 1.2243334
-0.24747477 -0.1732031 1.2229999
-0.23506317 -0.1742347 1.2237998
-0.22470881 -0.17294955 1.2264287
-0.21750048 -0.17275259 1.2270001
-0.24981405 -0.16832964 1.223
-0.23285437 -0.16443086 1.2229999
-0.22442138 -0.16536827 1.2236314
-0.21571687 -0.16451134 1.2265
-0.20903854 -0.16099195 1.2270001
-0.23051512 -0.15975234 1.223
-0.2246948 -0.15883335 1.2230002
-0.21516323 -0.15543148 1.2236314
-0.2061801 -0.15383171 1.2258574
-0.19899894 -0.15166947 1.2270001
-0.2135137 -0.14566103 1.2229998
-0.20518082 -0.14502609 1.2253997
-0.19899894 -0.14951813 1.2270001
-0.20723261 -0.13597666 1.2248183
-0.31098172 -0.24163388 1.2360001
-0.30438736 -0.24424843 1.2338669
-0.29587501 -0.2436696 1.2338669
-0.28786579 -0.24307863 1.2360001
-0.29245442 -0.23629168 1.2320002
-0.28803605 -0.23536202 1.2346668
-0.29185024 -0.22591436 1.233
-0.23474853 -0.18210296 1.2340001
-0.2248387 -0.18230897 1.2360001
-0.2161078 -0.18429497 1.2344
-0.2084047 -0.18167688 1.2360001
-0.2311314 -0.1782088 1.2320001
-0.22501369 -0.17789251 1.2328001
-0.21386972 -0.17554747 1.2325336
-0.20645006 -0.17407072 1.2360001
-0.21169044 -0.16740827 1.2320002
-0.20428233 -0.16464852 1.2343159
-0.19829148 -0.1647011 1.2360001
-0.2032942 -0.15788022 1.2335001
-0.1982237 -0.15461828 1.2333335
-0.19926983 -0.14634722 1.2320001
-0.29141715 -0.26085654 1.245
-0.30213737 -0.2541458 1.2442
-0.29455951 -0.25452167 1.2418891
-0.28681961 -0.25519618 1.244
-0.29156882 -0.24805108 1.2410001
-0.28490552 -0.24589109 1.2420001
-0.28627682 -0.23446976 1.244
-0.23029594 -0.19100375 1.245
-0.22427963 -0.19335912 1.2435454
-0.21489257 -0.1944555 1.2435001
-0.20572376 -0.19190575 1.2445556
-0.19864389 -0.19100375 1.245
-0.22641437 -0.18722737 1.2416667
-0.20475096 -0.1857482 1.2409999
-0.19773304 -0.18443699 1.2434
-0.20126952 -0.17733477 1.2410001
-0.19595277 -0.1746221 1.2428948
-0.18882085 -0.17135765 1.245
-0.19285141 -0.16496851 1.2438573
-0.18827513 -0.16753757 1.245
-0.29427069 -0.2629759 1.2525001
-0.28935698 -0.26295179 1.2550001
-0.28346577 -0.25201097 1.2516667
-0.20418882 -0.21081115 1.2590001
-0.19977392 -0.21081115 1.2590001
-0.21367779 -0.20267944 1.2551
-0.20476812 -0.20477094 1.2571335
-0.19920549 -0.20450196 1.2582
-0.21149583 -0.19834583 1.25
-0.20474511 -0.1971675 1.2513636
-0.19453523 -0.19558513 1.2552106
-0.1853144 -0.19414155 1.2582501
-0.17801479 -0.19252087 1.2589999
-0.19339047 -0.18587556 1.2503573
-0.18542837 -0.18439393 1.2531582
-0.17779621 -0.1856207 1.2582726
-0.19250138 -0.17715973 1.25
-0.1853977 -0.17589414 1.251389
-0.17892635 -0.17782788 1.256
-0.18641438 -0.16558115 1.2508334
-0.1834162 -0.22176684 1.268
-0.17896974 -0.22121105 1.268
-0.20430717 -0.21517853 1.2652
-0.19413805 -0.21469371 1.2672498
-0.18428077 -0.21503547 1.2679999
-0.17658772 -0.21406499 1.2679999
-0.15006781 -0.21009491 1.268
-0.14784457 -0.21009491 1.268
-0.20943215 -0.20943215 1.2640001
-0.19461124 -0.20596932 1.2640001
-0.1853677 -0.20464282 1.2641739
-0.17517635 -0.20419091 1.2670586
-0.15006781 -0.20787169 1.268
-0.14784457 -0.20787169 1.268
-0.18062139 -0.19835109 1.2640001
-0.17344873 -0.1956341 1.26525
-0.17452562 -0.18561722 1.2653333
-0.18374231 -0.23191866 1.2780001
-0.17702004 -0.23191866 1.2780001
-0.16693662 -0.23191866 1.2780001
-0.19382297 -0.22326493 1.2754999
-0.18449886 -0.22680914 1.2754999
-0.17482388 -0.2258891 1.2759413
-0.16614577 -0.22480096 1.278
-0.20422739 -0.21985134 1.273
-0.19641541 -0.21985134 1.273
-0.17257367 -0.21599607 1.2729999
-0.16508348 -0.21509694 1.2771666
-0.15549554 -0.21315537 1.2729999
-0.17074747 -0.20645939 1.273
-0.16502725 -0.2055147 1.2744707
-0.15606619 -0.20730671 1.2757272
-0.14842756 -0.20645939 1.273
-0.17074749 -0.19195142 1.273
-0.16775332 -0.19813299 1.2739999
-0.18221167 -0.24182412 1.2830001
-0.17840517 -0.24050824 1.2880001
-0.18387771 -0.23626541 1.2839092
-0.175217 -0.23580289 1.2845
-0.16983926 -0.23395076 1.2830001
-0.16159099 -0.2223282 1.2830001
-0.15859163 -0.22270313 1.2830001
-0.15746686 -0.21932885 1.2830001
-0.15467294 -0.20454122 1.2855
-0.14791821 -0.20663384 1.2880001
-0.17556126 -0.24125516 1.2920001
