# .PCD v0.7 - Point Cloud Data file format
VERSION 0.7
FIELDS x y z
SIZE 4 4 4
TYPE F F F
COUNT 1 1 1
WIDTH 482
HEIGHT 1
VIEWPOINT 0 0 0 1 0 0 0
POINTS 482
DATA ascii
-0.25177225 -0.055912629 1.1060001
-0.2568084 -0.057107817 1.1166668
-0.27145982 -0.054291967 1.126
-0.26465964 -0.056046858 1.126
-0.29231048 -0.090785846 1.138
-0.29120195 -0.085243367 1.138
-0.28592551 -0.085199028 1.1380001
-0.29031518 -0.078814089 1.138
-0.28371993 -0.075138904 1.1360002
-0.27576205 -0.073949389 1.1370912
-0.26836696 -0.070832916 1.138
-0.28217092 -0.067152672 1.132
-0.27513012 -0.064767241 1.1336669
-0.26576871 -0.064144321 1.1346955
-0.25702816 -0.061034411 1.132
-0.27242419 -0.057456732 1.13
-0.2678012 -0.057126522 1.13
-0.27901933 -0.09166339 1.149
-0.28374514 -0.084023237 1.1409999
-0.27500075 -0.084650867 1.144231
-0.26524651 -0.084197901 1.1473532
-0.25786623 -0.082597777 1.149
-0.28707939 -0.077021301 1.141
-0.27107498 -0.077021301 1.141
-0.26482728 -0.075537115 1.1419092
-0.25598624 -0.074941583 1.1468464
-0.24678604 -0.071517587 1.149
-0.26173908 -0.06835223 1.141
-0.25442427 -0.066303246 1.1451741
-0.24638316 -0.065742463 1.149
-0.27387205 -0.093415208 1.1564286
-0.26434484 -0.094728567 1.1553156
-0.25864735 -0.0923016 1.1570001
-0.2739259 -0.089960903 1.153
-0.26432332 -0.088697411 1.153
-0.25590098 -0.085156262 1.1544285
-0.24850431 -0.080129966 1.1570001
-0.25269917 -0.078842141 1.153
-0.2453787 -0.075447612 1.1551998
-0.23836128 -0.072015539 1.1570001
-0.24252316 -0.066100463 1.1545384
-0.23836128 -0.066944018 1.1570001
-0.2578119 -0.10128392 1.1670001
-0.27582651 -0.095334865 1.161
-0.25580043 -0.094963737 1.1659093
-0.24903207 -0.091209278 1.169
-0.25268796 -0.087327205 1.1627778
-0.24462321 -0.084505945 1.1645387
-0.23623487 -0.082462087 1.1676667
-0.24122097 -0.077353559 1.161
-0.23440745 -0.074537225 1.1635184
-0.22771576 -0.072352529 1.169
-0.24325658 -0.062086411 1.161
-0.23360683 -0.066309139 1.1636668
-0.22853561 -0.067638338 1.169
-0.25605416 -0.10180467 1.1730001
-0.24557713 -0.10008816 1.177
-0.25276351 -0.097280018 1.1730001
-0.24546419 -0.095183723 1.1748334
-0.23629059 -0.092865296 1.177
-0.24165756 -0.089464709 1.1730001
-0.2341067 -0.087034978 1.1741112
-0.22609973 -0.084417045 1.175889
-0.23137425 -0.07918141 1.1730001
-0.22457042 -0.075750493 1.1740001
-0.21833663 -0.074085876 1.177
-0.23251112 -0.061988223 1.1746
-0.22512369 -0.065158509 1.1742003
-0.21794683 -0.066840082 1.177
-0.24204737 -0.10076845 1.1850001
-0.23869967 -0.1011086 1.189
-0.24123499 -0.098357618 1.1810001
-0.23405685 -0.096534587 1.184
-0.22543931 -0.093169406 1.18575
-0.21785255 -0.090685032 1.189
-0.22146733 -0.085686564 1.1823335
-0.21578656 -0.084639728 1.1873157
-0.20742898 -0.080261461 1.189
-0.21433918 -0.076023854 1.1843333
-0.20789224 -0.075860396 1.189
-0.23749864 -0.062227555 1.1830001
-0.22363415 -0.061085258 1.1810001
-0.21403088 -0.067269854 1.1845556
-0.20951369 -0.069837898 1.189
-0.23036082 -0.059414331 1.189
-0.2282761 -0.059414331 1.189
-0.24159443 -0.10354047 1.1930001
-0.23487356 -0.10308653 1.1949999
-0.22710867 -0.10237508 1.1956667
-0.2235451 -0.097750261 1.1938
-0.2147807 -0.0950142 1.1951053
-0.20596917 -0.09346538 1.1956667
-0.21111497 -0.086209022 1.193
-0.20412415 -0.085403189 1.1946366
-0.1997599 -0.080531478 1.1930001
-0.20422223 -0.073419608 1.1930001
-0.19723766 -0.073511332 1.1948824
-0.21287379 -0.06593357 1.1938
-0.20468412 -0.065382428 1.1947144
-0.19625475 -0.065837845 1.1946002
-0.20042966 -0.059814088 1.197
-0.2331378 -0.10725198 1.2033334
-0.22349454 -0.10562094 1.2038461
-0.21436076 -0.10443325 1.2045262
-0.20627792 -0.10228852 1.2047694
-0.19982214 -0.1004397 1.2060001
-0.21601944 -0.097999059 1.202
-0.20327927 -0.09623652 1.2029999
-0.19841248 -0.095270872 1.2060002
-0.19650483 -0.08528167 1.2041051
-0.1935688 -0.07571993 1.2041819
-0.18924955 -0.071893677 1.2060001
-0.20565459 -0.061169416 1.2030001
-0.19429313 -0.064160228 1.2054287
-0.18924955 -0.068721898 1.2060001
-0.1215849 -0.053920258 1.2060001
-0.11947038 -0.053920258 1.2060001
-0.1215849 -0.049691219 1.2060001
-0.11802037 -0.049526405 1.202
-0.22509803 -0.21499017 1.2176666
-0.21752876 -0.2111361 1.2143334
-0.21626636 -0.2049838 1.2169286
-0.2148 -0.19930446 1.2190001
-0.2810567 -0.18274029 1.2190001
-0.27654463 -0.18250282 1.219
-0.27571341 -0.17846566 1.2190001
-0.21817604 -0.12026288 1.2140001
-0.22365375 -0.1140038 1.2132728
-0.21489727 -0.1145465 1.2117646
-0.207597 -0.11357178 1.2157779
-0.23442943 -0.10872859 1.21
-0.22700407 -0.10925896 1.21
-0.21674998 -0.10925897 1.21
-0.2041357 -0.10711619 1.21175
-0.19789624 -0.10268206 1.2158335
-0.19338347 -0.094537415 1.2132353
-0.18842395 -0.092345655 1.2177501
-0.19153988 -0.085519835 1.2128572
-0.18573996 -0.084479384 1.2159375
-0.17739701 -0.080149248 1.2190001
-0.19199876 -0.078496732 1.21
-0.18552803 -0.075701229 1.2117391
-0.17604598 -0.074857511 1.2156668
-0.16991641 -0.073737308 1.2190001
-0.14640597 -0.071599998 1.2190001
-0.18533911 -0.065768316 1.2132107
-0.17574801 -0.067102693 1.215
-0.16991641 -0.069462679 1.2190001
-0.13144477 -0.053432837 1.2190001
-0.12591481 -0.053979598 1.2133126
-0.11986663 -0.051977567 1.21
-0.13144477 -0.045952234 1.2190001
-0.12467292 -0.044633336 1.2154446
-0.11871177 -0.044292122 1.2126669
-0.12397154 -0.035557784 1.2180001
-0.11566173 -0.034191694 1.2163334
-0.10962015 -0.030863926 1.2140001
-0.12075821 -0.028853729 1.2190001
-0.1132931 -0.024909995 1.2178888
-0.10579702 -0.020304477 1.2190001
-0.11327761 -0.018167162 1.2190001
-0.10579701 -0.014842452 1.219
-0.23255688 -0.21287601 1.2243334
-0.22622645 -0.21175225 1.223
-0.23249839 -0.2076043 1.2270001
-0.22525762 -0.20525308 1.2244736
-0.21979348 -0.20049454 1.223
-0.28182554 -0.19039358 1.2270001
-0.27537149 -0.19146925 1.2270001
-0.22266369 -0.19828182 1.2270001
-0.21605477 -0.19672778 1.2247778
-0.28443784 -0.1855379 1.2262002
-0.27398646 -0.18548426 1.2229999
-0.26608363 -0.1836836 1.2252858
-0.25665483 -0.18221851 1.2270001
-0.21190698 -0.18286391 1.2270001
-0.20832141 -0.18465668 1.2270001
-0.28267062 -0.17841482 1.2260002
-0.27402887 -0.1748116 1.2244285
-0.26496759 -0.17503487 1.2236663
-0.25493374 -0.1753342 1.2269998
-0.24794194 -0.17318287 1.2270001
-0.20545296 -0.17820267 1.2270001
-0.27125731 -0.16832964 1.223
-0.26804084 -0.16832964 1.223
-0.24847977 -0.16888019 1.2270001
-0.21477982 -0.12135258 1.2250001
-0.20867997 -0.12155071 1.2270001
-0.21121618 -0.11901013 1.223
-0.20434517 -0.11541566 1.2246667
-0.19828182 -0.11151112 1.2270001
-0.20049454 -0.1082885 1.223
-0.19536562 -0.10466377 1.2252222
-0.18716657 -0.10003731 1.2270001
-0.19191724 -0.099711187 1.223
-0.18492088 -0.094947487 1.2255
-0.17676844 -0.092149056 1.2270001
-0.16242617 -0.091431953 1.2270001
-0.1824822 -0.08770296 1.223
-0.17488433 -0.085100524 1.2259089
-0.16466714 -0.084888302 1.2269998
-0.15511161 -0.084260814 1.227
-0.14664967 -0.082826592 1.2270001
-0.17047396 -0.076123595 1.223
-0.16446775 -0.075247459 1.2261999
-0.15486558 -0.075282216 1.22675
-0.14727627 -0.076454759 1.224
-0.16427462 -0.067484044 1.22675
-0.15489648 -0.065615878 1.2269999
-0.14702514 -0.064523928 1.2267144
-0.15274514 -0.059161849 1.2270001
-0.14429344 -0.05532017 1.2270001
-0.13631377 -0.053668365 1.2243334
-0.14234701 -0.045536693 1.2270001
-0.13590446 -0.044805013 1.2236153
-0.12973176 -0.043958697 1.223
-0.13435048 -0.036003821 1.2260001
-0.12919568 -0.034845307 1.223
-0.11579365 -0.037525717 1.223
-0.12471372 -0.024465039 1.2246841
-0.11717214 -0.023740763 1.2230002
-0.1075016 -0.024248425 1.2238001
-0.11501166 -0.01467355 1.2247777
-0.10323648 -0.014747067 1.2235001
-0.10484288 -0.0056721587 1.2245237
-0.23445852 -0.20439239 1.2336003
-0.28189391 -0.19332954 1.2320001
-0.2710934 -0.19116944 1.2320001
-0.23079827 -0.19829148 1.2360001
-0.22491358 -0.19708769 1.2342857
-0.21604808 -0.19274744 1.2328891
-0.2647821 -0.18783459 1.2328001
-0.25406435 -0.18580489 1.234182
-0.2471699 -0.1816313 1.234286
-0.21476346 -0.185076 1.233778
-0.26720625 -0.17092369 1.2340001
-0.24452521 -0.17517163 1.2338824
-0.23784141 -0.17391136 1.2360001
-0.21375659 -0.17780483 1.2352002
-0.20878869 -0.17741454 1.2340001
-0.26245296 -0.16956837 1.2320001
-0.25435814 -0.16805632 1.2336001
-0.24643901 -0.1679488 1.2337143
-0.20154218 -0.15278196 1.2360001
-0.19652705 -0.15181355 1.2340002
-0.2004586 -0.14844772 1.2360001
-0.19504079 -0.14498031 1.2360001
-0.18890063 -0.14266874 1.2360001
-0.19684672 -0.13905688 1.2360001
-0.18637232 -0.135445 1.2360001
-0.21237776 -0.1246094 1.2360001
-0.20447157 -0.12401731 1.235077
-0.19829148 -0.1246094 1.2360001
-0.18513884 -0.12396856 1.2350001
-0.17662026 -0.12027516 1.2360001
-0.20251 -0.11826584 1.2320001
-0.19680509 -0.11435108 1.2335001
-0.18442193 -0.11399052 1.2360001
-0.17459284 -0.11435454 1.2344446
-0.16686822 -0.11269024 1.2360001
-0.19305719 -0.10680255 1.2333335
-0.18453893 -0.10521753 1.2328697
-0.17496863 -0.10476518 1.2320002
-0.16609292 -0.10429376 1.2337145
-0.15928333 -0.10077108 1.2360001
-0.1803689 -0.097204804 1.2320001
-0.17518467 -0.09526071 1.2320002
-0.16548818 -0.095404714 1.2320002
-0.15526035 -0.094710939 1.2334119
-0.14736417 -0.092102602 1.2360001
-0.1760487 -0.089644425 1.2320001
-0.16308805 -0.087484322 1.2320001
-0.1540876 -0.087844342 1.2320002
-0.14412253 -0.087196469 1.2330002
-0.13962846 -0.083346456 1.2346667
-0.14256704 -0.063723147 1.2320001
-0.10044496 -0.014040694 1.2320001
-0.23755562 -0.20268357 1.243
-0.26537719 -0.19131994 1.2423334
-0.25478649 -0.19054349 1.242
-0.24404708 -0.19327934 1.2435714
-0.23520954 -0.19469804 1.2440478
-0.2265244 -0.19346942 1.2417274
-0.21214895 -0.19691774 1.2410001
-0.24300696 -0.1860383 1.2410001
-0.23468301 -0.18542689 1.2425556
-0.22480218 -0.18477565 1.2414443
-0.24043548 -0.17080711 1.2410001
-0.23458777 -0.17529488 1.2409999
-0.22520426 -0.17515886 1.2409997
-0.21539855 -0.17373431 1.2424999
-0.20653775 -0.17364119 1.2426001
-0.24495296 -0.16572039 1.2436666
-0.23481019 -0.16772045 1.2432222
-0.22423291 -0.16662875 1.2436666
-0.21495983 -0.16476549 1.2446803
-0.20472749 -0.16536012 1.2433529
-0.19973534 -0.16044314 1.245
-0.21492447 -0.15513685 1.2444667
-0.20634656 -0.15630119 1.2409999
-0.19909362 -0.15775178 1.2410001
-0.21195957 -0.146036 1.245
-0.20488028 -0.14458758 1.2420524
-0.19256596 -0.14687234 1.2410001
-0.18386242 -0.14034469 1.2410001
-0.20498946 -0.13520457 1.2437501
-0.19437921 -0.13454232 1.2409998
-0.18491995 -0.13562059 1.2418573
-0.17870849 -0.1318533 1.243
-0.20388059 -0.12903008 1.2410001
-0.19264965 -0.12516771 1.2415333
-0.18495037 -0.12547614 1.2410001
-0.17617886 -0.12522197 1.2420666
-0.16844712 -0.12187859 1.245
-0.19256598 -0.11640994 1.2410001
-0.18567568 -0.11568464 1.2410001
-0.17080711 -0.11858582 1.2410001
-0.16352661 -0.1159858 1.2428182
-0.15738709 -0.11198278 1.245
-0.16210355 -0.10879433 1.2410001
-0.1555952 -0.10506317 1.2423332
-0.14952865 -0.1025963 1.245
-0.15122412 -0.099002846 1.2410001
-0.14514674 -0.095808432 1.2431818
-0.13861415 -0.09059035 1.245
-0.1375227 -0.086224549 1.245
-0.24355845 -0.20180576 1.2533334
-0.25407323 -0.19605894 1.2546251
-0.24765833 -0.19724999 1.25
-0.21157824 -0.19394846 1.2570001
-0.20860371 -0.18542552 1.2590001
-0.20522563 -0.17879003 1.2563335
-0.21807082 -0.15232083 1.25
-0.18211435 -0.14017287 1.2590001
-0.18081249 -0.13697916 1.25
-0.17607287 -0.13296241 1.2564286
-0.17238773 -0.12792102 1.2525001
-0.16490726 -0.12466864 1.2552859
-0.15452127 -0.12085771 1.2590001
-0.14789893 -0.12030584 1.2590001
-0.13796541 -0.12140957 1.2590001
-0.16218333 -0.11944583 1.25
-0.15428579 -0.11538047 1.2534119
-0.14594103 -0.11469693 1.258
-0.13796541 -0.11478723 1.2590001
-0.151225 -0.10739167 1.25
-0.14491321 -0.10410634 1.2562354
-0.13531649 -0.10330851 1.2589999
-0.12913562 -0.10154255 1.2590001
-0.14270884 -0.098252639 1.25225
-0.13505916 -0.094778761 1.2571112
-0.12913562 -0.097127654 1.2590001
-0.13379079 -0.086155996 1.2553571
-0.24821588 -0.20389163 1.2640001
-0.21135382 -0.19654866 1.2666668
-0.20612141 -0.19223329 1.2674999
-0.20747685 -0.18795033 1.2656
-0.16368507 -0.14256442 1.268
-0.1545165 -0.14294703 1.2654285
-0.14784457 -0.14228651 1.268
-0.16490372 -0.13518317 1.2662222
-0.15499596 -0.13546863 1.2671577
-0.14519517 -0.1350106 1.2665881
-0.13526793 -0.1333638 1.2677143
-0.16326106 -0.12890975 1.2640001
-0.15485366 -0.12635295 1.2642858
-0.14487289 -0.12560149 1.2640001
-0.13413562 -0.12504072 1.2656
-0.12672392 -0.12338907 1.268
-0.14294577 -0.11524308 1.2640001
-0.13380361 -0.11555655 1.2646154
-0.12554392 -0.11431246 1.2673333
-0.11894263 -0.11116134 1.268
-0.14220703 -0.10822508 1.2640001
-0.13452414 -0.10682149 1.2640001
-0.12525745 -0.10529017 1.2655237
-0.11894263 -0.10560326 1.268
-0.21175182 -0.2139926 1.2780001
-0.20665917 -0.2139926 1.278
-0.21414413 -0.206053 1.2768461
-0.20580859 -0.20567986 1.2771177
-0.21092337 -0.19864741 1.273
-0.20477746 -0.19685845 1.273909
-0.1662835 -0.14545156 1.273
-0.15065955 -0.14619556 1.273
-0.14460304 -0.14332759 1.2758571
-0.13444561 -0.14116788 1.2780001
-0.12884369 -0.14004751 1.2780001
-0.14173158 -0.13949959 1.273
-0.13344131 -0.13726759 1.2729999
-0.12606291 -0.13352627 1.2763332
-0.12379664 -0.12581156 1.2744999
-0.11932047 -0.12380199 1.2780001
-0.12238763 -0.11866764 1.273
-0.1172592 -0.11539775 1.2759166
-0.11740758 -0.10623008 1.2755001
-0.21263923 -0.22222602 1.2867501
-0.20510359 -0.22370167 1.2855
-0.19872981 -0.2224419 1.2880001
-0.2161337 -0.2151112 1.2834547
-0.20311785 -0.21606031 1.2836251
-0.19805233 -0.21453786 1.2880001
-0.20152879 -0.2049031 1.28425
-0.19880047 -0.20692506 1.2870001
-0.13527176 -0.15153149 1.2880001
-0.1290991 -0.15092927 1.2880001
-0.14321987 -0.14659415 1.2830001
-0.1349716 -0.14621924 1.2830001
-0.12545478 -0.14430113 1.2865295
-0.11565688 -0.14211117 1.2880001
-0.10952722 -0.14114334 1.2880001
-0.12203681 -0.13609636 1.2830001
-0.11500421 -0.13530417 1.2861251
-0.10772059 -0.13504595 1.2880001
-0.12034968 -0.12934779 1.2830001
-0.11437505 -0.1252497 1.2832781
-0.10764531 -0.12627621 1.2880001
-0.20125549 -0.23081844 1.2970001
-0.20161229 -0.22766332 1.2920001
-0.1954089 -0.22390456 1.2927142
-0.19422023 -0.21560265 1.2934285
-0.19670413 -0.20727555 1.2920001
-0.13189626 -0.16032217 1.2970001
-0.12507403 -0.16032217 1.2970001
-0.1348169 -0.15627421 1.2942727
-0.12452226 -0.154467 1.2936667
-0.11646955 -0.15359157 1.2961667
-0.10801848 -0.15122588 1.2970001
-0.12119391 -0.14724493 1.2920001
-0.11479984 -0.14724807 1.2939999
-0.10575749 -0.14453033 1.2952144
-0.10266768 -0.13556941 1.2940832
-0.098922193 -0.1398555 1.2970001
-0.19422659 -0.22450492 1.3032501
-0.12145516 -0.17072469 1.307
-0.11526781 -0.17164132 1.307
-0.10484101 -0.1724434 1.307
-0.096476637 -0.17118302 1.307
-0.12499433 -0.16577363 1.3040835
-0.11531857 -0.16458522 1.3051578
-0.10557759 -0.16466829 1.307
-0.095732868 -0.16445115 1.3064116
-0.088226855 -0.16270408 1.307
-0.11276837 -0.15673606 1.3026251
-0.10491707 -0.15566392 1.3036667
-0.094756931 -0.15526356 1.30225
-0.087237976 -0.1539041 1.3036667
-0.10329851 -0.1489553 1.302
-0.094783403 -0.14542885 1.3026522
-0.087485202 -0.1475237 1.3045001
-0.087170042 -0.19800875 1.317
-0.10368039 -0.18172932 1.317
-0.094674736 -0.18126749 1.317
-0.088901892 -0.18126749 1.317
-0.11441535 -0.1758844 1.3130001
-0.10466699 -0.1763968 1.3120002
-0.093769066 -0.17584348 1.3124168
-0.086710624 -0.17499922 1.3156365
-0.10466699 -0.16792725 1.312
-0.091631539 -0.16831064 1.312
-0.085964784 -0.16640298 1.3145001
-0.086263992 -0.15757558 1.312
-0.08741419 -0.14492351 1.312
-0.093875222 -0.20127155 1.322
-0.10128656 -0.19209521 1.3280001
-0.094632529 -0.19456126 1.3232858
-0.085825674 -0.19369335 1.3230003
-0.079967782 -0.1912273 1.322
-0.10376947 -0.18677968 1.3233334
-0.095034175 -0.18659149 1.3220001
-0.08553075 -0.18566431 1.3220003
-0.075992316 -0.18448067 1.3235002
-0.082672007 -0.17577459 1.322
-0.075592399 -0.17497294 1.3232503
-0.06694226 -0.17346779 1.3280001
-0.082346179 -0.16353428 1.3230001
-0.075730801 -0.16577359 1.3236002
-0.065195948 -0.16764674 1.3280001
-0.099330716 -0.20216723 1.3330001
-0.099330716 -0.19866143 1.3330001
-0.068947203 -0.18113248 1.3330001
-0.059821978 -0.16539018 1.3380001
