# .PCD v0.7 - Point Cloud Data file format
VERSION 0.7
FIELDS x y z
SIZE 4 4 4
TYPE F F F
COUNT 1 1 1
WIDTH 470
HEIGHT 1
VIEWPOINT 0 0 0 1 0 0 0
POINTS 470
DATA ascii
-0.34083366 -0.08481136 1.087
-0.33829251 -0.088623106 1.087
-0.37121749 -0.12021291 1.097
-0.37176272 -0.11388492 1.0962501
-0.36473787 -0.11444692 1.0961819
-0.35838661 -0.11049507 1.0960001
-0.37135482 -0.10674907 1.097
-0.36451384 -0.10476285 1.09535
-0.35574448 -0.10434824 1.0951999
-0.34717488 -0.10097885 1.097
-0.36201259 -0.096307717 1.097
-0.35397652 -0.09496972 1.09424
-0.34470189 -0.095177799 1.09475
-0.33867422 -0.092298269 1.0944
-0.35272163 -0.086315662 1.094923
-0.34546897 -0.085999727 1.0908
-0.33635944 -0.088867702 1.09
-0.31640038 -0.086232744 1.097
-0.37482321 -0.11550346 1.1010001
-0.36050594 -0.11437738 1.1010001
-0.35622367 -0.1139587 1.1059998
-0.34677076 -0.11219054 1.108
-0.36967543 -0.10134705 1.1010001
-0.35200649 -0.1073797 1.1034445
-0.3445673 -0.10522836 1.1044397
-0.36499736 -0.096902527 1.1032
-0.34036934 -0.097661547 1.103
-0.33774632 -0.094009355 1.1055
-0.36002332 -0.089764528 1.1010001
-0.32238013 -0.087834112 1.1010001
-0.31851929 -0.087834112 1.1010001
-0.35221982 -0.12153376 1.115
-0.3464278 -0.12133767 1.1143999
-0.35365513 -0.11665744 1.1120001
-0.34514546 -0.11529274 1.1145416
-0.33708224 -0.11180318 1.1172857
-0.34078088 -0.1051449 1.1120001
-0.33468911 -0.10448123 1.1138076
-0.3263779 -0.10221247 1.1161819
-0.34022382 -0.096510477 1.1120001
-0.33415353 -0.094507903 1.1123912
-0.32471272 -0.094805293 1.1130768
-0.31798652 -0.093470417 1.1135001
-0.34326443 -0.12458693 1.1254548
-0.33778065 -0.12508556 1.1248463
-0.32871318 -0.12931359 1.126
-0.34309709 -0.11863185 1.123
-0.33506665 -0.1158651 1.1248
-0.3282373 -0.11281195 1.1255
-0.33177537 -0.10829464 1.123
-0.32512316 -0.10611541 1.1246876
-0.31686762 -0.10266116 1.126
-0.31728896 -0.098067783 1.1254001
-0.32707205 -0.13023233 1.1340001
-0.34771228 -0.12581043 1.13
-0.33397546 -0.12554625 1.13
-0.32727981 -0.12410933 1.1344
-0.31824929 -0.12071525 1.138
-0.3325226 -0.11920621 1.13
-0.32450372 -0.11620025 1.1320001
-0.31518948 -0.11351117 1.135778
-0.30827281 -0.11073878 1.138
-0.32274833 -0.10837529 1.13
-0.314284 -0.10585684 1.1309228
-0.3051208 -0.10337 1.1347271
-0.295636 -0.1023142 1.138
-0.31204951 -0.097082071 1.13
-0.30454946 -0.096833348 1.1337142
-0.29530343 -0.09876702 1.138
-0.32430559 -0.13247339 1.1476668
-0.31931093 -0.13195498 1.149
-0.32265189 -0.12725957 1.143
-0.31476855 -0.12531061 1.1458699
-0.30620983 -0.12349182 1.1486365
-0.29916513 -0.12188209 1.149
-0.31226692 -0.11843562 1.1416667
-0.30432773 -0.11562289 1.1445388
-0.2952362 -0.11443225 1.1472224
-0.28707764 -0.11180919 1.149
-0.30258369 -0.10853002 1.141
-0.29396003 -0.10724887 1.1420001
-0.28519502 -0.10494372 1.1455003
-0.27834782 -0.10240781 1.149
-0.30166274 -0.09552598 1.1470001
-0.29363215 -0.09520296 1.143154
-0.28502578 -0.096288979 1.1456959
-0.27768826 -0.097594917 1.1476667
-0.32281467 -0.13526762 1.1543332
-0.31439462 -0.1329401 1.1548462
-0.30570066 -0.1321747 1.1561998
-0.29921949 -0.13084513 1.1570001
-0.30383119 -0.12689209 1.1533333
-0.29510924 -0.12408516 1.1549999
-0.28826502 -0.12232498 1.1570001
-0.29228798 -0.11732078 1.1536666
-0.28452075 -0.11497527 1.1554998
-0.27833343 -0.11129405 1.1562001
-0.28201225 -0.10714445 1.153
-0.27508524 -0.10440159 1.1551816
-0.30124807 -0.094330207 1.1570001
-0.29455143 -0.092110135 1.1545999
-0.28201225 -0.094004087 1.153
-0.27471665 -0.097316422 1.1563333
-0.19170333 -0.08418718 1.1570001
-0.31052145 -0.24493277 1.169
-0.30611783 -0.24328564 1.1667144
-0.30266127 -0.23782825 1.1676668
-0.29380634 -0.22791083 1.1623334
-0.29822358 -0.15064903 1.169
-0.30300173 -0.14433761 1.1676668
-0.29552925 -0.14450839 1.167316
-0.28695053 -0.1404008 1.169
-0.3246814 -0.13689545 1.161
-0.31552848 -0.13805357 1.1615715
-0.30399612 -0.13661358 1.1623334
-0.29459321 -0.13557704 1.1627601
-0.28572544 -0.13474232 1.1663336
-0.27909359 -0.13083579 1.169
-0.29170433 -0.12844762 1.161
-0.28418097 -0.1258326 1.1626364
-0.27669525 -0.12390444 1.1652858
-0.28396899 -0.11908377 1.161
-0.27484685 -0.11554626 1.1630801
-0.26570514 -0.11356277 1.1669999
-0.25752127 -0.1121226 1.1680001
-0.27243382 -0.10822713 1.161
-0.26568443 -0.10484941 1.1611599
-0.25565898 -0.10512164 1.1633079
-0.27200833 -0.097703613 1.165
-0.26547444 -0.098235667 1.1632222
-0.25825548 -0.099407859 1.169
-0.19847733 -0.091053233 1.1670001
-0.2018902 -0.085060343 1.169
-0.19605997 -0.084348865 1.1654447
-0.19437481 -0.078911394 1.169
-0.31314534 -0.24206609 1.1750001
-0.30849901 -0.24165756 1.1730001
-0.31205687 -0.23658541 1.177
-0.30560449 -0.235964 1.1744547
-0.29924402 -0.23240258 1.1730001
-0.29752517 -0.2282048 1.1743335
-0.36355045 -0.21221441 1.177
-0.29252571 -0.21616977 1.177
-0.28994611 -0.21462202 1.177
-0.36258876 -0.20664477 1.1759092
-0.31264651 -0.14136162 1.177
-0.30713463 -0.14584607 1.1743335
-0.29327253 -0.14756282 1.1738001
-0.28630236 -0.14366822 1.1759092
-0.28174824 -0.13727391 1.1738001
-0.27583072 -0.13406765 1.1758237
-0.26827753 -0.13104326 1.177
-0.2724202 -0.12525268 1.1733079
-0.26532739 -0.12400605 1.1754763
-0.25545329 -0.12160932 1.177
-0.24402937 -0.12227264 1.177
-0.26350957 -0.1174867 1.1730002
-0.25424746 -0.11562201 1.1752223
-0.24527365 -0.11345053 1.1764547
-0.23407951 -0.1126176 1.177
-0.22468244 -0.11169633 1.177
-0.21565387 -0.11453387 1.177
-0.25271317 -0.10197475 1.1750002
-0.24574381 -0.10457049 1.1761667
-0.23350462 -0.10390596 1.177
-0.22475155 -0.10412592 1.1760001
-0.21794967 -0.1018727 1.1738001
-0.26251987 -0.097802393 1.1743335
-0.25732419 -0.098598987 1.1756667
-0.23092505 -0.096373543 1.177
-0.22517851 -0.095643327 1.177
-0.21632874 -0.096908189 1.1760001
-0.20514441 -0.093349785 1.1748183
-0.21221441 -0.088394009 1.177
-0.20652367 -0.085780852 1.1751333
-0.20391066 -0.076759554 1.1764287
-0.19495662 -0.074474953 1.1760477
-0.18882611 -0.074292243 1.177
-0.19408847 -0.065418437 1.177
-0.18882611 -0.065005705 1.177
-0.19157767 -0.056407068 1.177
-0.18882611 -0.054687344 1.177
-0.18882611 -0.048496325 1.177
-0.312181 -0.23309341 1.187
-0.30705589 -0.23210214 1.1827145
-0.35648596 -0.22202197 1.189
-0.30419326 -0.22595263 1.1871176
-0.29756561 -0.22402577 1.1838572
-0.37187093 -0.2139577 1.1882
-0.36392435 -0.21578138 1.1841429
-0.35455281 -0.21422589 1.1832399
-0.34628817 -0.21271813 1.1880001
-0.30124107 -0.21993725 1.189
-0.2979213 -0.21714103 1.1874
-0.37212133 -0.20742898 1.189
-0.3645857 -0.20447549 1.184
-0.35485008 -0.20593911 1.1848181
-0.3447977 -0.20548886 1.188833
-0.33582282 -0.2048537 1.1889999
-0.33668122 -0.19909012 1.189
-0.26788566 -0.16156529 1.189
-0.2919668 -0.15012479 1.1810001
-0.2852796 -0.15097223 1.1876668
-0.25676718 -0.15114172 1.189
-0.283456 -0.14666225 1.1836667
-0.2753405 -0.14443855 1.1869999
-0.26549077 -0.1445948 1.1888257
-0.2550675 -0.14471237 1.1875597
-0.24605103 -0.14433898 1.1889998
-0.27330148 -0.13729958 1.1820002
-0.26468471 -0.13521858 1.1849998
-0.25485051 -0.13508485 1.187476
-0.24491373 -0.13552773 1.1877367
-0.23623191 -0.13298649 1.1886923
-0.26258036 -0.12887262 1.1823335
-0.25482664 -0.12655267 1.1832223
-0.24498585 -0.12560365 1.1818888
-0.23512337 -0.12510401 1.1840397
-0.2268763 -0.12320738 1.1885
-0.24413395 -0.11823621 1.1810001
-0.23521119 -0.11737028 1.181
-0.22625904 -0.11702228 1.183
-0.24371982 -0.10332726 1.1810001
-0.23792191 -0.10581209 1.1810001
-0.23601349 -0.09391024 1.1826843
-0.22420934 -0.090995178 1.1810001
-0.21466376 -0.093646921 1.1812857
-0.20810401 -0.09732227 1.1810001
-0.2159669 -0.083903134 1.1833528
-0.20592315 -0.072210744 1.1823335
-0.18906718 -0.07168065 1.1850001
-0.19940713 -0.063570082 1.1810001
-0.18502808 -0.064315565 1.18325
-0.18410236 -0.055089444 1.1813809
-0.17865729 -0.053524882 1.1838571
-0.313759 -0.2311358 1.1930001
-0.36082286 -0.22276889 1.1930001
-0.31271353 -0.22612378 1.194778
-0.30748153 -0.22208019 1.1938001
-0.29907045 -0.22771329 1.197
-0.35036421 -0.21649371 1.1930001
-0.34468284 -0.21634275 1.1934444
-0.33551943 -0.21507762 1.1938336
-0.3252314 -0.21328208 1.1950955
-0.31439123 -0.21428135 1.1970001
-0.30518895 -0.21466738 1.1955457
-0.29636484 -0.21213865 1.1934999
-0.33247846 -0.20341012 1.1945
-0.32449988 -0.20466092 1.1944817
-0.31428367 -0.20533594 1.1950002
-0.30474356 -0.20470095 1.1962004
-0.29524291 -0.20439921 1.1956669
-0.28857675 -0.20042966 1.197
-0.34531713 -0.1990528 1.1941429
-0.33856663 -0.19811 1.1956667
-0.31424516 -0.19780196 1.1957694
-0.30485138 -0.19624218 1.1958001
-0.29484308 -0.19544925 1.1957275
-0.28787717 -0.19448324 1.197
-0.29277423 -0.18923639 1.197
-0.28448972 -0.18606986 1.1970003
-0.27650902 -0.18259038 1.197
-0.28274491 -0.17591269 1.1964287
-0.27465799 -0.17448266 1.1937276
-0.2668747 -0.17268527 1.1938
-0.28321329 -0.16521747 1.197
-0.27506205 -0.16420053 1.1930003
-0.26446551 -0.16431095 1.193167
-0.25818166 -0.1621253 1.1962001
-0.28524476 -0.15587585 1.1945384
-0.27506208 -0.15478779 1.1930002
-0.26482362 -0.15495291 1.1930002
-0.25498337 -0.15508595 1.1941429
-0.24602796 -0.15223032 1.1955001
-0.2743648 -0.14955845 1.1930001
-0.26878688 -0.14746673 1.1930001
-0.24207689 -0.1468519 1.1936666
-0.23872219 -0.14344458 1.1943334
-0.23393252 -0.13621734 1.1934
-0.22687666 -0.13354984 1.1951537
-0.22372732 -0.12547243 1.1941429
-0.21931833 -0.12067755 1.197
-0.22172302 -0.11818255 1.1930001
-0.21931833 -0.11857881 1.197
-0.31928727 -0.23287947 1.202
-0.35089985 -0.22023444 1.202
-0.33592728 -0.22289687 1.205
-0.32333657 -0.22318996 1.2046669
-0.3167848 -0.22269785 1.2025
-0.32350227 -0.21812694 1.202
-0.31559914 -0.21522909 1.202
-0.29396421 -0.21292794 1.2036
-0.32560977 -0.20126688 1.202
-0.31085724 -0.20969692 1.202
-0.30874974 -0.20969692 1.202
-0.29265937 -0.20670836 1.2030001
-0.3145445 -0.19421498 1.204
-0.30522493 -0.19164342 1.2033335
-0.29505092 -0.19072935 1.202
-0.28580475 -0.19457968 1.2030001
-0.30256221 -0.18773524 1.2053334
-0.29527879 -0.1848332 1.2031765
-0.28662091 -0.18370433 1.202
-0.27924463 -0.18440683 1.202
-0.28857788 -0.17537467 1.202
-0.25511524 -0.16215527 1.205
-0.25258169 -0.15872225 1.2030001
-0.24480292 -0.15542306 1.2042223
-0.23929317 -0.15189302 1.2060001
-0.23470111 -0.14489166 1.2045262
-0.22750427 -0.14205933 1.2054287
-0.22314322 -0.13502666 1.2052002
-0.21885282 -0.13004299 1.2060001
-0.22094454 -0.12655649 1.2030001
-0.21686454 -0.12462392 1.2056366
-0.21625672 -0.11920621 1.2033334
-0.32389036 -0.23256622 1.2113334
-0.30237415 -0.2321032 1.2145001
-0.33514792 -0.22648998 1.2152001
-0.32689556 -0.22606896 1.2106668
-0.30180961 -0.22822131 1.2165
-0.29815522 -0.22228059 1.2190001
-0.29421809 -0.21568835 1.2160001
-0.29203227 -0.20707977 1.2113334
-0.2832247 -0.19199876 1.21
-0.28110316 -0.18987723 1.21
-0.27898163 -0.18563417 1.21
-0.2340358 -0.17258807 1.2190001
-0.22976118 -0.17205372 1.2190001
-0.26200935 -0.16866189 1.21
-0.25465676 -0.16544506 1.2144001
-0.24469423 -0.16336495 1.217
-0.2346326 -0.16520549 1.2174211
-0.22554688 -0.16537873 1.218375
-0.21785329 -0.16411512 1.219
-0.24150121 -0.15734705 1.21
-0.23445012 -0.15520406 1.2112632
-0.22458887 -0.15434334 1.2141602
-0.21494415 -0.15401454 1.216381
-0.23089354 -0.14886092 1.21
-0.22417535 -0.14497145 1.21
-0.21525228 -0.14491226 1.2142611
-0.20662977 -0.14349143 1.2184443
-0.22170024 -0.13789967 1.21
-0.21548074 -0.13509886 1.2118335
-0.20675759 -0.13609575 1.2178096
-0.30230105 -0.23547101 1.2252223
-0.29493713 -0.23431346 1.2257369
-0.28827953 -0.23449606 1.2270001
-0.30127791 -0.22729862 1.223
-0.29452875 -0.22551706 1.2236665
-0.28829426 -0.22521168 1.2265557
-0.29243252 -0.21764913 1.223
-0.23987441 -0.19039358 1.2270001
-0.243442 -0.1821779 1.2260002
-0.23605114 -0.18419474 1.2259998
-0.22573705 -0.18240289 1.2270001
-0.21728534 -0.18178824 1.2270001
-0.24489558 -0.17507912 1.2251999
-0.23533982 -0.17637089 1.2229998
-0.22461136 -0.17593174 1.2240524
-0.21572256 -0.17461401 1.2253636
-0.2076043 -0.17318289 1.2270001
-0.21390851 -0.1654029 1.2233075
-0.2058699 -0.16443644 1.2267894
-0.19792327 -0.16027483 1.2270001
-0.21228835 -0.15868017 1.223
-0.20522588 -0.1549954 1.2239089
-0.19760066 -0.1546475 1.2250001
-0.20313372 -0.14639151 1.2229998
-0.1975996 -0.14497593 1.2250001
-0.29292241 -0.25174713 1.2360001
-0.28931051 -0.25138593 1.2360001
-0.30236322 -0.24313822 1.2340001
-0.29422316 -0.24424262 1.2327502
-0.28707922 -0.24399772 1.2348001
-0.28513408 -0.23437159 1.2320002
-0.2861627 -0.22561425 1.2333335
-0.23513252 -0.19179012 1.2360001
-0.21996267 -0.19179012 1.2360001
-0.23269713 -0.18839157 1.2326669
-0.22487202 -0.18721534 1.2344002
-0.21507555 -0.18562463 1.2342224
-0.20719106 -0.18359539 1.2348001
-0.2106104 -0.17496864 1.2320001
-0.20364325 -0.17525795 1.234889
-0.19829148 -0.17445314 1.2360001
-0.20251 -0.16794829 1.2320001
-0.19599326 -0.16437015 1.2341539
-0.18875615 -0.16318414 1.2360001
-0.19375134 -0.15497413 1.2337145
-0.189623 -0.15711622 1.2360001
-0.29141715 -0.26085654 1.245
-0.28268555 -0.26085654 1.245
-0.27742556 -0.26001847 1.2410001
-0.30124021 -0.25321639 1.245
-0.29567161 -0.25571606 1.243
-0.28477252 -0.25506768 1.2418572
-0.27772126 -0.25485227 1.2423334
-0.28270987 -0.24603061 1.2410001
-0.27800348 -0.24582145 1.2428461
-0.2815038 -0.23610036 1.243
-0.22508007 -0.1935005 1.2423334
-0.21410502 -0.19468926 1.2431818
-0.20558591 -0.19231237 1.2431818
-0.19864389 -0.19209521 1.245
-0.20199482 -0.18567567 1.2410001
-0.19511428 -0.18399832 1.2434001
-0.1857648 -0.18161727 1.245
-0.19328268 -0.1745026 1.2434615
-0.18515413 -0.17475943 1.2445295
-0.19039008 -0.16863121 1.2410001
-0.18473949 -0.167054 1.2436666
-0.28622398 -0.26476273 1.2557501
-0.27615437 -0.26075134 1.2550001
-0.27497849 -0.25557932 1.2529999
-0.20198137 -0.21081115 1.2590001
-0.19646275 -0.21081115 1.2590001
-0.18763298 -0.21081115 1.2590001
-0.21257222 -0.20158863 1.2538
-0.20411134 -0.20411552 1.2553846
-0.19510072 -0.20502679 1.2573502
-0.18520287 -0.20505011 1.2575002
-0.17745417 -0.20369828 1.2589999
-0.21478334 -0.19834583 1.25
-0.20437294 -0.19752394 1.25
-0.19434823 -0.19600075 1.2525001
-0.18510841 -0.19524382 1.2527223
-0.17491226 -0.19542158 1.2569132
-0.16886967 -0.19425531 1.2590001
-0.1939625 -0.18957917 1.25
-0.18431917 -0.1870953 1.25
-0.17471589 -0.18479332 1.2513183
-0.16886967 -0.18652923 1.2590001
-0.18081249 -0.17423749 1.25
-0.17608449 -0.1756722 1.2524376
-0.1834162 -0.22121103 1.268
-0.17501734 -0.22219917 1.268
-0.166742 -0.22121105 1.268
-0.19405065 -0.21463989 1.2661818
-0.18426633 -0.21532667 1.26525
-0.17435533 -0.21545067 1.2667998
-0.16469426 -0.21430738 1.2679999
-0.15747856 -0.21194762 1.268
-0.18062139 -0.20943215 1.2640001
-0.17397274 -0.20721593 1.2640001
-0.16551432 -0.20440193 1.2655237
-0.15821962 -0.20527792 1.268
-0.16483384 -0.1959094 1.2658461
-0.17477927 -0.23303905 1.278
-0.16581625 -0.23303907 1.278
-0.1845393 -0.22605065 1.2757777
-0.17431869 -0.22721691 1.2729999
-0.16414455 -0.22633722 1.2747648
-0.1564275 -0.22381659 1.2775832
-0.16181952 -0.21985134 1.273
-0.1542702 -0.21529554 1.2733333
-0.14665316 -0.21382602 1.277
-0.15427196 -0.20586811 1.2743635
-0.14676978 -0.20951106 1.2780001
-0.15884352 -0.19901942 1.273
-0.17388859 -0.24050824 1.2880001
-0.16824286 -0.24050824 1.2880001
-0.1756373 -0.23755628 1.2842501
-0.16414431 -0.2364931 1.2837143
-0.15660322 -0.23321739 1.2851429
-0.15296783 -0.22607744 1.2830001
-0.14917469 -0.2234814 1.2842501
-0.14292322 -0.21430667 1.2837144
-0.16650003 -0.24125516 1.2920001
