# .PCD v0.7 - Point Cloud Data file format
VERSION 0.7
FIELDS x y z
SIZE 4 4 4
TYPE F F F
COUNT 1 1 1
WIDTH 400
HEIGHT 1
VIEWPOINT 0 0 0 1 0 0 0
POINTS 400
DATA ascii
-0.304900518 -0.2216708827 1.271073282
-0.2784279755 -0.01592410846 1.171782662
-0.4347969296 -0.1499825802 1.123118145
-0.1797050401 -0.1336715926 1.296609193
-0.3327136755 -0.1257196135 1.195776967
-0.3992618189 -0.2313351717 1.237552112
-0.2504583364 -0.1113774071 1.24505758
-0.3832281808 -0.1170371264 1.147550744
-0.3145524623 -0.2174643181 1.207020234
-0.2864201035 -0.08318787406 1.187100589
-0.3136062315 -0.1684906302 1.244381371
-0.2331918408 -0.1538010465 1.275495739
-0.3544037835 -0.2005903672 1.235121069
-0.3729858672 -0.1489258531 1.188674489
-0.2921091339 -0.1309535991 1.227708927
-0.4029606388 -0.1522599208 1.152183666
-0.2676869659 -0.1514261072 1.254766752
-0.1962654415 -0.1671844796 1.307465239
-0.2150491876 -0.1206089521 1.26989007
-0.3248138967 -0.09038668328 1.187249165
-0.2756405549 -0.09682701509 1.219043378
-0.3611858354 -0.1041592418 1.172757212
-0.3445325191 -0.2268451609 1.256966045
-0.4085977312 -0.1225137992 1.12421524
-0.3187939433 -0.2051364938 1.238322457
-0.3259099188 -0.1479720887 1.219551694
-0.2877129452 -0.04661765538 1.18028843
-0.3707624192 -0.2285738291 1.221000477
-0.3030081852 -0.1072119107 1.202035537
-0.3569691093 -0.1538461291 1.211462673
-0.2007437544 -0.14336306 1.280812894
-0.3725373801 -0.1311084974 1.167163655
-0.309203389 -0.1324484635 1.206417175
-0.285689905 -0.2222456553 1.288604443
-0.2643993885 -0.1232019229 1.228010342
-0.3830271457 -0.2117233074 1.234798403
-0.3340519666 -0.1781393562 1.23726679
-0.3510466411 -0.1387528265 1.188798296
-0.2992969853 -0.06348269035 1.191633695
-0.2314450662 -0.1346049673 1.260974319
-0.3846321437 -0.1501680349 1.168478759
-0.3037835067 -0.1495606315 1.237023748
-0.4277669611 -0.1295594873 1.115799802
-0.1829345351 -0.1601516664 1.291632067
-0.2322858665 -0.1122561806 1.256034315
-0.3107967518 -0.2023134973 1.266409134
-0.3190580406 -0.2185343612 1.256208857
-0.415747141 -0.1538572024 1.136179115
-0.3018877167 -0.234743468 1.286965762
-0.345284024 -0.1165998775 1.176269454
-0.2552150085 -0.1358304892 1.251556055
-0.3216366569 -0.109078001 1.193687515
-0.3334080328 -0.2182822942 1.2368202
-0.3595644845 -0.224967227 1.236784547
-0.3180101821 -0.1871249901 1.246829841
-0.3887086598 -0.1340941216 1.154289291
-0.2859678043 -0.08811683153 1.205593379
-0.2916009157 -0.1153835166 1.214893207
-0.380986558 -0.1085876238 1.164362463
-0.2805376732 -0.06193540004 1.191943054
-0.3324965509 -0.1964261115 1.228811204
-0.3410956592 -0.0960889424 1.179767128
-0.246927497 -0.1451813257 1.265986544
-0.3040597082 -0.08705227308 1.192214775
-0.2191070281 -0.1572175508 1.286976082
-0.4056631796 -0.1385485462 1.140593172
-0.2883721281 -0.143931863 1.244558118
-0.2595708812 -0.1016331114 1.233062291
-0.3420903513 -0.1920522251 1.245182248
-0.3190451612 -0.1670528815 1.227657019
-0.4201659592 -0.1521353062 1.113833805
-0.2185556841 -0.146634838 1.27006422
-0.3261144115 -0.132028119 1.210088879
-0.3419873084 -0.1461040757 1.210190413
-0.3205124802 -0.1846492472 1.228701836
-0.3632895601 -0.2117503059 1.22683242
-0.2688662315 -0.1362214111 1.242304859
-0.2016059849 -0.1273192965 1.277156348
-0.2772452982 -0.03544320989 1.174441495
-0.3098550845 -0.1464110599 1.218270316
-0.3654225084 -0.1372083958 1.18047896
-0.3905722202 -0.2260667212 1.225701761
-0.3585376096 -0.1238524905 1.173367494
-0.4164966452 -0.1388566596 1.129677499
-0.2803702119 -0.1149005944 1.225289984
-0.1988087234 -0.1544396115 1.291170485
-0.3970541267 -0.1195712097 1.141644862
-0.319733305 -0.1188306868 1.204830517
-0.1819919715 -0.1638023357 1.305761786
-0.1903539512 -0.1357984268 1.287376501
-0.3682531113 -0.1123649421 1.159707003
-0.2934244296 -0.09593298379 1.194001813
-0.2798625016 -0.1266442013 1.232820022
-0.2092242068 -0.1364994601 1.268345455
-0.2573497037 -0.1258148764 1.242225678
-0.3187726756 -0.223640031 1.268866823
-0.3502002724 -0.2134264253 1.235965554
-0.3125525576 -0.09673277562 1.196332693
-0.2983280708 -0.1268768254 1.212895653
-0.3564580395 -0.1490222921 1.195278057
-0.2065715897 -0.1630262513 1.300273848
-0.2964469566 -0.214892502 1.278316492
-0.4096415627 -0.1216074986 1.139178549
-0.35368068 -0.1125751735 1.166452677
-0.2770114044 -0.1513891375 1.245918283
-0.2578895939 -0.1514938649 1.266760037
-0.2401326731 -0.1300092793 1.25297979
-0.3256412532 -0.2167958942 1.227232956
-0.2903888277 -0.03459283443 1.18011607
-0.3959817734 -0.1460055219 1.160141931
-0.331406544 -0.1095614677 1.186249283
-0.3085421937 -0.1554363327 1.226248867
-0.4270038701 -0.1398235989 1.122083445
-0.2883729726 -0.09912610074 1.209863589
-0.223416729 -0.1197200859 1.258791575
-0.3080735229 -0.2128789574 1.261758166
-0.3523696043 -0.09820190843 1.182727693
-0.1817170694 -0.1439134742 1.291192925
-0.3767358728 -0.1438631318 1.174451701
-0.3414553682 -0.129000897 1.188701474
-0.3424068922 -0.2194473195 1.244229537
-0.3156389868 -0.197681711 1.25688048
-0.3229227238 -0.2197640231 1.214718343
-0.2104928049 -0.1524074914 1.280886711
-0.2720507163 -0.02500943814 1.175042713
-0.3185778317 -0.1755531198 1.23548353
-0.4161701573 -0.1273747497 1.131715295
-0.419545421 -0.1221129343 1.112991073
-0.2614678443 -0.1128831664 1.232985679
-0.3008033756 -0.07699384926 1.187987357
-0.4202726648 -0.1492177445 1.124755199
-0.3303098085 -0.1681572433 1.233622729
-0.2661588287 -0.09472176013 1.227166761
-0.3202798544 -0.2166368159 1.245225576
-0.3413791038 -0.139652083 1.194342719
-0.3362796083 -0.1324081801 1.203904696
-0.3303891598 -0.09883705924 1.180647169
-0.2788270205 -0.05322453748 1.179720392
-0.249056931 -0.123782379 1.251329218
-0.3260765383 -0.1570860419 1.225589179
-0.3110018785 -0.226628141 1.27860369
-0.3253623787 -0.2044684158 1.229174452
-0.2853612493 -0.02679722542 1.174842842
-0.3437557242 -0.2008519997 1.234928769
-0.3741143405 -0.2061286267 1.233306223
-0.3791206365 -0.1243746786 1.153935582
-0.3825008905 -0.2327199855 1.226614769
-0.3175784741 -0.1547875533 1.219902584
-0.2409672166 -0.1386556783 1.260243019
-0.3508420919 -0.1037025248 1.172796289
-0.2959107961 -0.1383420904 1.233850965
-0.389695949 -0.1256037421 1.145671709
-0.3168115832 -0.1972174348 1.245538678
-0.3559726698 -0.2193998715 1.229022705
-0.3177510793 -0.1083570578 1.203069043
-0.3011540089 -0.1166634247 1.205118943
-0.2941083857 -0.2242413384 1.281355572
-0.2819407935 -0.1040842353 1.216076923
-0.3345117799 -0.189854527 1.236136147
-0.3026726866 -0.144078622 1.224881666
-0.3639909042 -0.1493371006 1.201863233
-0.3479484383 -0.1237124747 1.183225631
-0.3817015128 -0.2156922124 1.22576426
-0.348573565 -0.1503601172 1.204183946
-0.2848652951 -0.06611031588 1.18414936
-0.353780387 -0.2099661139 1.227394537
-0.2720765727 -0.1041225442 1.224209675
-0.2200347989 -0.1379114691 1.266286278
-0.3692181393 -0.123730054 1.1620134
-0.2383716107 -0.1482014255 1.268985167
-0.2285876736 -0.1477633411 1.269701329
-0.2953286483 -0.05643282287 1.186615782
-0.3343002246 -0.2088586822 1.2361352
-0.2925671518 -0.2333011566 1.287030359
-0.2180649795 -0.1286559374 1.266060008
-0.4060827292 -0.1473973697 1.143759679
-0.3645126389 -0.227116749 1.229081422
-0.4185236739 -0.1301103637 1.123043922
-0.2738940657 -0.1214677628 1.227782133
-0.263151918 -0.1294438357 1.235882542
-0.2940287817 -0.1058835471 1.20416816
-0.363221962 -0.2035178428 1.234437606
-0.3192003851 -0.1381249853 1.211345576
-0.3105879402 -0.1177173553 1.205971701
-0.3729747524 -0.2126244427 1.225780523
-0.2496487781 -0.1410459213 1.258146524
-0.1913394547 -0.1576208325 1.295404053
-0.2404116729 -0.1207741889 1.251406477
-0.313087461 -0.08795176056 1.193404485
-0.3113594908 -0.1632265858 1.237269912
-0.3967887291 -0.1381529333 1.15367734
-0.3135426655 -0.2064786427 1.257470673
-0.3217042509 -0.1977977816 1.234056564
-0.3016289364 -0.135196815 1.213391914
-0.2617128454 -0.1392420908 1.246527809
-0.3234359807 -0.1175098205 1.195575138
-0.3270326215 -0.1230378068 1.201811078
-0.4107052489 -0.1467891566 1.136206243
-0.2073457298 -0.1554562467 1.288344721
-0.3198481887 -0.1276711022 1.206080602
-0.3836240857 -0.2253474407 1.220666278
-0.3581243063 -0.1335094438 1.183100898
-0.4355010431 -0.1408007359 1.122591654
-0.2985493825 -0.1365938556 1.225928844
-0.2606182422 -0.121323093 1.235782735
-0.3177219207 -0.1475185552 1.215278857
-0.3405232011 -0.1205834079 1.185862277
-0.3025446548 -0.2264645773 1.279115762
-0.3460269271 -0.2068920872 1.22885414
-0.3689158965 -0.1061304948 1.175526356
-0.4016246563 -0.1243508318 1.136405884
-0.3788164333 -0.1347027345 1.162872752
-0.361391694 -0.1207780362 1.166079169
-0.2813806809 -0.09509121598 1.213182421
-0.1982007269 -0.1630960682 1.300433526
-0.3321386716 -0.0908563275 1.183255585
-0.2714930995 -0.1134892693 1.227218903
-0.3016379424 -0.09701628474 1.194989762
-0.3506511841 -0.2205315805 1.244878536
-0.3256926493 -0.1887988803 1.233725356
-0.3744199514 -0.1493257211 1.168647168
-0.3380072117 -0.1118777293 1.181813796
-0.1896147295 -0.1458685176 1.289849051
-0.2784832872 -0.1556863405 1.252794497
-0.2839828525 -0.08507019678 1.212976816
-0.3638442924 -0.1464287655 1.192778077
-0.3889727076 -0.2183458104 1.228371054
-0.3239641326 -0.09849888256 1.185661544
-0.2102618166 -0.1274832901 1.268079349
-0.3193838244 -0.09902079988 1.192552344
-0.3879526111 -0.1456509841 1.161403551
-0.3481649471 -0.1478799215 1.196449988
-0.3790206938 -0.148713955 1.180550201
-0.368817232 -0.1335081877 1.173942399
-0.3171833871 -0.2067640512 1.246070089
-0.3264157471 -0.2142706057 1.23710462
-0.3493444876 -0.1310614313 1.187467725
-0.3091332712 -0.1382383419 1.211919569
-0.2800768717 -0.1339959388 1.235915674
-0.2108363305 -0.1447891257 1.270657508
-0.2306778788 -0.1195914826 1.253399564
-0.2084309148 -0.1233079932 1.276345201
-0.285967936 -0.08678906586 1.194148834
-0.2783197952 -0.1439867746 1.24340066
-0.3067029824 -0.1002237677 1.201544849
-0.360506403 -0.1129107059 1.162590056
-0.2706453267 -0.131655818 1.235804325
-0.2978586348 -0.1044977156 1.196830159
-0.3585564387 -0.140617778 1.187959357
-0.2777413013 -0.04314075641 1.175451462
-0.2876216449 -0.1169424414 1.223392522
-0.2856117249 -0.07563492294 1.185483262
-0.3430476897 -0.2104297353 1.236265266
-0.302447887 -0.1261349017 1.206364876
-0.3253271934 -0.178573329 1.228438139
-0.3285998699 -0.1391546787 1.211816971
-0.3800069726 -0.114821467 1.154218871
-0.198663851 -0.1362896252 1.27874488
-0.3518836108 -0.2259883341 1.25510219
-0.3424185052 -0.1094643387 1.176120384
-0.3756204248 -0.1363788714 1.172258572
-0.2888419851 -0.1356629617 1.234180949
-0.2028826477 -0.1329841524 1.270471415
-0.303064086 -0.2148602332 1.268468144
-0.1984701336 -0.1474493459 1.286689743
-0.1890588096 -0.168391979 1.305759264
-0.3103744285 -0.2187640399 1.26688521
-0.2051894971 -0.1402985066 1.275639018
-0.2931944652 -0.086180553 1.187791562
-0.4049192363 -0.130247036 1.139513357
-0.415842507 -0.1545053586 1.121987367
-0.3921522822 -0.1328148478 1.147831605
-0.3348785642 -0.1998517221 1.234934056
-0.2785540344 -0.1075919336 1.223297059
-0.2945322274 -0.06760206338 1.187838039
-0.3861767139 -0.127414219 1.152593296
-0.3723001416 -0.2224827189 1.224800116
-0.3491109194 -0.1112643418 1.172043397
-0.3905530042 -0.2330268134 1.227958682
-0.2861271374 -0.2238195982 1.281494022
-0.3672193575 -0.1437937844 1.183033708
-0.3168873601 -0.1761902545 1.242537595
-0.2854210357 -0.03639831579 1.175114926
-0.3871603003 -0.1384647492 1.160593821
-0.2942348398 -0.1224079634 1.216919473
-0.3327833749 -0.1163378375 1.188504495
-0.4305580032 -0.1557191102 1.121744694
-0.2296221649 -0.1393084591 1.266145424
-0.3759691339 -0.1267823256 1.159971812
-0.3876515149 -0.1111307202 1.16330879
-0.3049243386 -0.2062670096 1.267699384
-0.2898754366 -0.09620591882 1.203462916
-0.3611367204 -0.1302525005 1.175358837
-0.3605696193 -0.1063873693 1.165971019
-0.3996968351 -0.1356692159 1.143323708
-0.2496672908 -0.1316352901 1.253208958
-0.2515269976 -0.1210893504 1.245202749
-0.2898199236 -0.1059301992 1.211141699
-0.373621397 -0.1203682178 1.155831281
-0.2547235785 -0.1310029251 1.246425018
-0.2441327353 -0.1177231385 1.246246637
-0.2938110949 -0.07680775417 1.187171932
-0.3973894915 -0.127542173 1.141033782
-0.2851479078 -0.05593795075 1.181179208
-0.1799140625 -0.1538154849 1.291508663
-0.3370227836 -0.1418725933 1.212765042
-0.2636533072 -0.1022827781 1.227428918
-0.1879711466 -0.1632290362 1.297850492
-0.2839991424 -0.1099494223 1.219259332
-0.3301465895 -0.1503815557 1.224543368
-0.2227605148 -0.1279847705 1.260949334
-0.3215829344 -0.08731368 1.192598322
-0.4307808008 -0.1356768553 1.117167935
-0.3077922479 -0.1560288462 1.233129955
-0.1766532536 -0.1446968962 1.295868672
-0.3296789324 -0.1288094092 1.204593723
-0.2581115575 -0.1420198053 1.252678098
-0.3422478254 -0.1012080602 1.175288407
-0.2693260179 -0.1425322428 1.245022567
-0.3509444085 -0.1201397133 1.174851128
-0.3544107832 -0.2190327529 1.235645437
-0.3185550031 -0.1598057866 1.224393037
-0.2076879225 -0.1469307107 1.278004178
-0.4268908043 -0.1491426963 1.123252387
-0.3142922012 -0.2154092373 1.260771371
-0.2388425618 -0.1414834477 1.266033621
-0.3255412078 -0.1687833081 1.228155621
-0.2588196575 -0.1493684154 1.260433887
-0.2703305884 -0.1239623335 1.232923269
-0.3805438168 -0.1453409323 1.16623524
-0.2726687447 -0.01747129557 1.174816564
-0.3161854342 -0.2141929843 1.21261402
-0.1823626712 -0.1360393834 1.290956696
-0.4110511198 -0.1366114633 1.132825208
-0.2725781604 -0.09359571379 1.224011838
-0.3061152119 -0.07679382528 1.191883937
-0.3707614603 -0.1414033016 1.175695051
-0.3887632582 -0.1169628471 1.144042574
-0.3253140639 -0.1076699278 1.187731558
-0.2303975742 -0.1287820032 1.258177005
-0.334702724 -0.1004626222 1.17600958
-0.3068215636 -0.1492641815 1.22495097
-0.2900120803 -0.1250681954 1.225801917
-0.2647668223 -0.1456326251 1.25415661
-0.3825357779 -0.1316155378 1.155983407
-0.2865722465 -0.230794427 1.286687035
-0.3922455448 -0.1497104251 1.156315405
-0.4004970712 -0.1462759405 1.155528218
-0.2995335953 -0.2316674843 1.281464791
-0.2803253641 -0.121998224 1.227676075
-0.2950158659 -0.09231411752 1.188532339
-0.2775569389 -0.02617815308 1.171930668
-0.4011204502 -0.1433163963 1.143959259
-0.4259050117 -0.1222849229 1.113876949
-0.3256215515 -0.1980167613 1.22898588
-0.3304056033 -0.1197785694 1.193355847
-0.2972105407 -0.1211329358 1.210323337
-0.3704139015 -0.1068090991 1.162009661
-0.3539616105 -0.2037106696 1.228614135
-0.4098082869 -0.1275791685 1.13203337
-0.3645125758 -0.2051802782 1.228457195
-0.2080604399 -0.1493013269 1.285847063
-0.2839285373 -0.04427200783 1.175367097
-0.1881764059 -0.1539950568 1.291358127
-0.4169709899 -0.1484828439 1.133188683
-0.357377008 -0.1528913975 1.205290838
-0.3942835056 -0.1400322569 1.160003847
-0.3377673584 -0.1383915024 1.204547225
-0.4198563051 -0.1389229953 1.124470293
-0.4262036293 -0.1336944486 1.121950423
-0.2953794899 -0.1147663394 1.206174425
-0.2197914367 -0.1187447503 1.266472976
-0.3478481833 -0.1418926084 1.192950331
-0.2841982481 -0.05360817607 1.175627688
-0.3951542907 -0.2336450976 1.233692885
-0.3705573202 -0.2060384633 1.228367744
-0.324188598 -0.2086476754 1.236437447
-0.3479829829 -0.1508541899 1.210212636
-0.3364569854 -0.1221419236 1.192602891
-0.3016018335 -0.1443163831 1.234914446
-0.3002444154 -0.2190269803 1.276088679
-0.3385147926 -0.1307682222 1.193667098
-0.3188927427 -0.2212590158 1.208761855
-0.2163861285 -0.1536427156 1.280810742
-0.3153852783 -0.166676478 1.234433475
-0.3121065099 -0.1071849515 1.204642898
-0.2988130339 -0.08426385817 1.188231728
-0.2961212544 -0.1294720879 1.223588752
-0.371918057 -0.1146665102 1.15570082
-0.1971900126 -0.1583305875 1.295313837
-0.3193135266 -0.1873098242 1.233803053
-0.3547656014 -0.1064801765 1.165797129
-0.3632583507 -0.2215515323 1.228103893
-0.3830622063 -0.1462749435 1.172399988
-0.4234245965 -0.1518266959 1.1287724
-0.2562554284 -0.1106149756 1.232808503
-0.3266331085 -0.1139890071 1.192555952
-0.4241784456 -0.1521862435 1.117762104
-0.3302741819 -0.1341864075 1.206069697
-0.2595037606 -0.1331164794 1.244393844
