# .PCD v0.7 - Point Cloud Data file format
VERSION 0.7
FIELDS x y z
SIZE 4 4 4
TYPE F F F
COUNT 1 1 1
WIDTH 400
HEIGHT 1
VIEWPOINT 0 0 0 1 0 0 0
POINTS 400
DATA ascii
-0.3672879181 -0.2130204882 1.224559273
-0.289186816 -0.01424472378 1.161167052
-0.1854462084 -0.1392244092 1.290446882
-0.4297814535 -0.1280114152 1.10802814
-0.2903244283 -0.1194736882 1.222745601
-0.2954184992 -0.2328507246 1.285039167
-0.3609276159 -0.1022710841 1.165827315
-0.2490959532 -0.1501029427 1.265737287
-0.3995896118 -0.1524865597 1.158710262
-0.3040798673 -0.07737874718 1.17600347
-0.343012556 -0.1508493112 1.217638115
-0.3252272723 -0.2060365456 1.254929632
-0.2473978706 -0.109777806 1.244606233
-0.2907719073 -0.1547104299 1.250874137
-0.329756119 -0.2313963377 1.212067696
-0.3287870679 -0.1166547042 1.198048804
-0.3715776265 -0.1474476057 1.187214429
-0.2138888559 -0.1247017237 1.266824597
-0.2174845105 -0.1622196959 1.289037479
-0.3973116246 -0.1225539786 1.133141684
-0.4439474818 -0.1608426729 1.119159304
-0.3976808155 -0.2335292369 1.218146555
-0.2869766922 -0.04911687778 1.165003612
-0.3418422396 -0.1811627428 1.233704597
-0.3481731574 -0.228375769 1.249188069
-0.3123584062 -0.1423023633 1.221897476
-0.2940572542 -0.09223690719 1.207352491
-0.3317970586 -0.08958334658 1.18151463
-0.3740450169 -0.1292239993 1.163275699
-0.4199330219 -0.1572943816 1.13713342
-0.2679976082 -0.1312647428 1.241963105
-0.3507539017 -0.1274930049 1.181958475
-0.2673270481 -0.09902775016 1.227607214
-0.3898524868 -0.1074754663 1.164858592
-0.3278613611 -0.2077435984 1.224697853
-0.3251059046 -0.227158737 1.270879349
-0.3066073246 -0.206945884 1.272812414
-0.2367156431 -0.1333466684 1.251017092
-0.2226678627 -0.146813073 1.266703611
-0.203583393 -0.1694515006 1.306812099
-0.3062252826 -0.1174604251 1.203619645
-0.4196766402 -0.1346242976 1.127720117
-0.3232543337 -0.1626201616 1.218383519
-0.3068926289 -0.05256000351 1.175815775
-0.2707594455 -0.1490963639 1.257883344
-0.3049642082 -0.09781364287 1.18920442
-0.3561018205 -0.1974683569 1.236503505
-0.3732619464 -0.228438387 1.238826325
-0.3293529088 -0.1360737528 1.209182351
-0.2039466909 -0.141099958 1.279344032
-0.2909679658 -0.1390176826 1.231999355
-0.3878623955 -0.2159903918 1.215024928
-0.352820654 -0.1454538738 1.194824488
-0.3427310852 -0.2305718129 1.227366621
-0.3259679989 -0.1937082124 1.238918968
-0.3902455397 -0.1356983333 1.146348093
-0.1973701484 -0.157835583 1.292278887
-0.4306709007 -0.1478598122 1.121734675
-0.383377121 -0.1137654428 1.149383056
-0.2959637335 -0.03371971756 1.166249035
-0.4085631026 -0.1446348466 1.142267375
-0.4119887501 -0.1253310534 1.114745028
-0.3278009194 -0.2165865588 1.240027242
-0.3785037326 -0.1485638664 1.17111445
-0.3462824825 -0.1060638572 1.17441476
-0.2896399945 -0.06851123128 1.173105922
-0.2808446716 -0.09448735118 1.218037634
-0.2544874051 -0.1367311417 1.249777794
-0.3447258329 -0.2093724897 1.236364589
-0.2678810805 -0.1184575507 1.231814155
-0.3149506591 -0.1539932903 1.233016484
-0.3142775177 -0.2169550833 1.260123903
-0.2284122095 -0.1205774631 1.256561243
-0.2978337485 -0.2208056485 1.274789849
-0.3615899288 -0.1181039255 1.167902052
-0.3278171148 -0.1043958235 1.185567083
-0.2339729615 -0.152786598 1.276074752
-0.3067246658 -0.1289419041 1.216230828
-0.2550299271 -0.1225701527 1.240088833
-0.1798348194 -0.1259563776 1.296141707
-0.3102645188 -0.2323110009 1.281556882
-0.3372962723 -0.193350656 1.225775606
-0.3581503539 -0.2200348787 1.241496121
-0.3321093236 -0.1775731678 1.222726033
-0.3720586924 -0.1086334834 1.157813559
-0.4418631245 -0.1443762836 1.112415644
-0.327283806 -0.220974082 1.254325846
-0.3845609141 -0.2313272674 1.211959425
-0.2134879039 -0.1535271536 1.275969257
-0.3965387451 -0.2171386179 1.226788676
-0.2939135347 -0.1043345578 1.215481959
-0.3415122336 -0.114051657 1.185622144
-0.3687490754 -0.1354706717 1.175218745
-0.2808812242 -0.1502587926 1.241491415
-0.3757387635 -0.204704069 1.232277922
-0.3180568001 -0.1309879802 1.20258334
-0.3174538602 -0.09242168085 1.185818515
-0.2832510839 -0.1273505652 1.232637064
-0.3485791428 -0.1418583573 1.207465743
-0.3005977708 -0.1058019561 1.199429513
-0.2840974816 -0.02780767158 1.16352375
-0.3114401978 -0.2245589418 1.270724055
-0.3108147742 -0.06482523343 1.178974673
-0.2441064266 -0.1456138479 1.254594586
-0.2589826481 -0.105267029 1.235330252
-0.330884011 -0.2210963101 1.219740053
-0.1914619902 -0.1279634075 1.288705995
-0.3794148552 -0.2288664155 1.227704734
-0.2292320833 -0.1574598346 1.286834187
-0.3558618725 -0.1405749342 1.183677489
-0.2366256474 -0.1177479011 1.24759015
-0.317114716 -0.1415834299 1.210432508
-0.3400903105 -0.1595965623 1.225935607
-0.2854612927 -0.03700378973 1.171886751
-0.3030550737 -0.1405540782 1.233793112
-0.2737343924 -0.1113525632 1.223863131
-0.2658657521 -0.1445681543 1.247711941
-0.2966980854 -0.02103341659 1.167682503
-0.3135265722 -0.07965335144 1.182961233
-0.3459299474 -0.133069264 1.191362377
-0.3073307233 -0.09000962384 1.179946761
-0.3355705154 -0.1284946292 1.202381438
-0.2063448833 -0.1278179294 1.27500663
-0.3470184971 -0.1985822882 1.229123974
-0.1984190099 -0.1470952415 1.288580659
-0.3277080613 -0.2054658469 1.237580638
-0.3999036253 -0.1324726158 1.137860224
-0.356356225 -0.2077535904 1.231964013
-0.3690664808 -0.1495414192 1.197952901
-0.3935860021 -0.1195452966 1.143213333
-0.2957176583 -0.1492404434 1.242682246
-0.1895908064 -0.1525343904 1.297984501
-0.3768888581 -0.2160758023 1.215351796
-0.3104552848 -0.1090857433 1.196045559
-0.2033174779 -0.1663858158 1.296340824
-0.4066794037 -0.1257982435 1.128637921
-0.3424522392 -0.0959957718 1.175699488
-0.3478851897 -0.2230304295 1.239736528
-0.3567965281 -0.1508166591 1.203350016
-0.3874469738 -0.1267158199 1.151671506
-0.2244777313 -0.1299277668 1.260082775
-0.3664955646 -0.2260393466 1.246762293
-0.3232153527 -0.1707105427 1.225304474
-0.2961601083 -0.1315043344 1.226579517
-0.4112895432 -0.1549672766 1.142797292
-0.311484893 -0.2063804758 1.263449919
-0.3915495221 -0.1456514538 1.158878455
-0.3945709485 -0.2256773549 1.211928785
-0.2870795204 -0.05847801414 1.174723195
-0.3004270708 -0.1175037349 1.212279458
-0.3594185672 -0.09734483533 1.174874415
-0.3708659367 -0.2231811278 1.228550948
-0.3193339881 -0.1544979356 1.223347681
-0.3379003922 -0.1413517253 1.211368364
-0.4379621797 -0.1270498263 1.114129509
-0.2782818344 -0.1208294909 1.226486782
-0.3360883461 -0.2342121996 1.2196018
-0.340977101 -0.2212310529 1.23041074
-0.4252439638 -0.1343616034 1.119461879
-0.2982042311 -0.04129852305 1.17230209
-0.3660855641 -0.2034862508 1.230247859
-0.3194986945 -0.1130696395 1.196929871
-0.3706810392 -0.1029662229 1.167332171
-0.3311713025 -0.187443657 1.230811507
-0.2397667193 -0.1476229525 1.263909803
-0.3309215989 -0.1573762317 1.21532482
-0.2984568605 -0.1243706249 1.22041754
-0.2109405339 -0.1340325432 1.269163621
-0.3138942157 -0.1010219175 1.183149702
-0.2760844351 -0.1019906851 1.221824916
-0.316609475 -0.1217236608 1.200379887
-0.3512869789 -0.1194826697 1.176663358
-0.3681746682 -0.1169269683 1.160650419
-0.3257988695 -0.1455832652 1.210836447
-0.3821557684 -0.134214645 1.162777444
-0.3420541474 -0.1718088702 1.231939465
-0.3049629092 -0.2148481302 1.267816527
-0.2625745227 -0.1486638568 1.262642871
-0.4344240287 -0.1565126979 1.122511406
-0.3223341565 -0.08601643894 1.180881033
-0.2088063913 -0.1589372408 1.287272317
-0.4213709145 -0.1255611392 1.113864848
-0.3360042576 -0.1016210049 1.181823525
-0.3955818564 -0.1471903569 1.150538926
-0.3582999465 -0.1321529879 1.179045319
-0.3955859703 -0.1523488658 1.167130763
-0.3756521258 -0.2093039074 1.22287193
-0.2749599899 -0.143891011 1.245911356
-0.2306499118 -0.1430158988 1.263929501
-0.3863777504 -0.1474119429 1.16643884
-0.285291627 -0.1073344903 1.216320974
-0.2481192303 -0.1301593456 1.249306788
-0.371232846 -0.1435476611 1.178759898
-0.1814737199 -0.1291150513 1.287754046
-0.3808878034 -0.1070019236 1.157489475
-0.2720486903 -0.1380643841 1.237756044
-0.2973666773 -0.09404821348 1.191999278
-0.195801706 -0.135519479 1.286761042
-0.3247923151 -0.1247698535 1.202033392
-0.2183582913 -0.1388640526 1.269597125
-0.3180124301 -0.149183941 1.214809071
-0.2147836839 -0.1647598611 1.296998882
-0.4083219841 -0.1374207309 1.137308307
-0.2976038767 -0.06487705105 1.173270147
-0.3116535774 -0.1463896703 1.230266604
-0.2879796427 -0.1471202724 1.237536438
-0.3117584892 -0.0732034639 1.17680005
-0.3506549758 -0.09711812112 1.173055058
-0.2093336678 -0.1418726074 1.272541224
-0.3303429372 -0.1097799711 1.191861233
-0.231987555 -0.1250203559 1.247707388
-0.3357930015 -0.2018090595 1.225179143
-0.2932947047 -0.220596586 1.282099502
-0.2612168275 -0.1121798939 1.230781545
-0.4261343984 -0.1465954946 1.128837862
-0.2877636656 -0.09795641818 1.214546048
-0.4216233168 -0.1494193004 1.13973578
-0.2562609926 -0.1146733298 1.237327107
-0.3451527992 -0.1250383576 1.188879308
-0.3516528315 -0.1072008559 1.168027112
-0.3616972889 -0.2193381239 1.233893024
-0.2778480478 -0.1532648223 1.256214921
-0.2164445636 -0.1330048558 1.262929381
-0.2212293109 -0.1208325506 1.260840511
-0.2210973579 -0.1564054412 1.277891862
-0.3217728297 -0.2211717381 1.260576413
-0.2997404542 -0.1122531959 1.20451851
-0.3230212655 -0.2137811788 1.256676702
-0.2599915165 -0.133867979 1.244365852
-0.2033687941 -0.1501264634 1.282754635
-0.3733545079 -0.2182302024 1.222428849
-0.3674120886 -0.1243176745 1.164074691
-0.4054703805 -0.1538449788 1.153188404
-0.3021898598 -0.04877692569 1.170297131
-0.2808965778 -0.1348876775 1.234461692
-0.2540230768 -0.1434868338 1.254179209
-0.304864583 -0.1357031638 1.227632282
-0.3229696217 -0.1043427671 1.191980342
-0.1868832559 -0.1452276945 1.296057938
-0.3792829334 -0.1418575052 1.166832511
-0.3609435443 -0.1123110874 1.162432404
-0.3912261876 -0.1148630413 1.150355698
-0.3411625455 -0.1339528233 1.203956642
-0.301849791 -0.2331316976 1.280347264
-0.3068950846 -0.06063718369 1.173461747
-0.2825256798 -0.01630877351 1.164939234
-0.335065311 -0.1486008212 1.212801814
-0.4030086059 -0.1448132432 1.149226723
-0.3002987444 -0.2127881227 1.273831026
-0.2163925864 -0.1466742344 1.271463076
-0.3400895548 -0.09153018289 1.181691916
-0.3680195756 -0.1288916698 1.171039682
-0.3650480581 -0.1435649377 1.185327089
-0.4459162798 -0.1536469353 1.116790134
-0.3185158166 -0.2243081671 1.267399047
-0.358910776 -0.147965451 1.19061108
-0.3753988051 -0.1227927855 1.159048864
-0.4350988979 -0.1475956677 1.114573017
-0.316075558 -0.2100729757 1.25694337
-0.3378224014 -0.1570275021 1.218915024
-0.3915241998 -0.128511951 1.143640077
-0.3502924274 -0.215688285 1.238980907
-0.3808303797 -0.1208376305 1.151235658
-0.4308348256 -0.1396675274 1.118816598
-0.3816611935 -0.2238002763 1.222330865
-0.2952173069 -0.07373365314 1.172011711
-0.2989787452 -0.09782458522 1.198518182
-0.2832472942 -0.1540627001 1.249412726
-0.2336501751 -0.1368888101 1.257092517
-0.435413779 -0.1402691756 1.111797496
-0.3866252713 -0.2114549998 1.221050355
-0.3057280843 -0.226148348 1.275537066
-0.3916506457 -0.2336568857 1.213324323
-0.4128714059 -0.1356094554 1.131533145
-0.4048239147 -0.1188542318 1.131016816
-0.2626848364 -0.1186423709 1.237527774
-0.3731448914 -0.1371303328 1.169338718
-0.3379172989 -0.2259604874 1.2238735
-0.3292217921 -0.09756767985 1.182798097
-0.2839054258 -0.0443097576 1.171237721
-0.3342674841 -0.1212392229 1.201028467
-0.3092483391 -0.1357480766 1.218025507
-0.2392706764 -0.1265833978 1.247903853
-0.3120051751 -0.1292103991 1.206524876
-0.3278267118 -0.1865471318 1.239636445
-0.2925376492 -0.05214536662 1.168889561
-0.41436579 -0.141702933 1.137170968
-0.3333991876 -0.1704272661 1.221316187
-0.2242688285 -0.1517306713 1.273127441
-0.3345669873 -0.1149339697 1.188688657
-0.3506618789 -0.1354710603 1.184818927
-0.2679737984 -0.1253214324 1.234474111
-0.2398019531 -0.1408736994 1.258191451
-0.2625470153 -0.1264393884 1.241051097
-0.3056383555 -0.04469318739 1.175316083
-0.3118379391 -0.1365690249 1.210271383
-0.2800697674 -0.1435671958 1.238750276
-0.2805511542 -0.1151166609 1.222596295
-0.2450908849 -0.1385792933 1.253173131
-0.3400261555 -0.1881501142 1.23339941
-0.3901157393 -0.1394852854 1.155407987
-0.419823789 -0.1409732476 1.131151985
-0.4138223342 -0.1490944495 1.139460355
-0.3547229178 -0.2253869214 1.249323138
-0.3472456646 -0.1944370899 1.234983301
-0.2731746878 -0.1313082979 1.23562667
-0.2349205768 -0.151210646 1.26914382
-0.3673236934 -0.2233718617 1.235626536
-0.3290976067 -0.1993985065 1.224943486
-0.3342540081 -0.181302728 1.228954925
-0.4250749553 -0.153861691 1.133620414
-0.3239444741 -0.09497524751 1.187160333
-0.2952631457 -0.2290730141 1.279039352
-0.3470443787 -0.1142887795 1.178919116
-0.2221907886 -0.1594141542 1.284572644
-0.3311698288 -0.2134732835 1.222228293
-0.2510272955 -0.1456686737 1.260594833
-0.3233437305 -0.1537563968 1.215422481
-0.2386215426 -0.1124864291 1.251832399
-0.2049445996 -0.1330828818 1.27942692
-0.3628444665 -0.1242189065 1.171453911
-0.3266805807 -0.2146659931 1.250810011
-0.2498286564 -0.1240411065 1.246437062
-0.2627891091 -0.1457977697 1.256298209
-0.3377647806 -0.1683118454 1.227711172
-0.4261053734 -0.1421898468 1.123231147
-0.3011004545 -0.05551124611 1.171468868
-0.3411571461 -0.2143221651 1.230651841
-0.3940998763 -0.2185589381 1.216498043
-0.2755741558 -0.1240495092 1.231940039
-0.3605225216 -0.150098817 1.196941961
-0.2230056388 -0.1383439992 1.264595029
-0.3065461295 -0.06857833741 1.175158772
-0.3105882242 -0.2186881939 1.267274214
-0.3582555435 -0.2008597796 1.230977651
-0.2026581065 -0.1563109232 1.285956044
-0.2432132408 -0.1181343533 1.24589192
-0.3658065708 -0.1376936743 1.180946714
-0.3336324687 -0.1611885759 1.224475043
-0.4170136924 -0.1283759606 1.118266595
-0.3061787756 -0.1229274853 1.207632339
-0.3876302799 -0.1327806764 1.154670933
-0.2016696584 -0.1388257079 1.287161539
-0.32635136 -0.2252366204 1.263393126
-0.2887152798 -0.03982892446 1.166713084
-0.3954070946 -0.1399161206 1.14722383
-0.2927935583 -0.1108093581 1.216764903
-0.3620448869 -0.2112269409 1.231505809
-0.3864560198 -0.2287808349 1.21781499
-0.1927246608 -0.144477999 1.290835116
-0.2881325214 -0.1265933585 1.228200342
-0.3562810404 -0.1193895289 1.171666573
-0.3943332671 -0.1281949133 1.137638677
-0.2188369391 -0.1269186986 1.261884945
-0.2965089569 -0.1018934255 1.209900218
-0.3346453483 -0.1086843061 1.186505028
-0.1855194855 -0.126661163 1.292858173
-0.3396278874 -0.1215219184 1.188974676
-0.3025148045 -0.2353976314 1.286452444
-0.3519787311 -0.2073343739 1.236792531
-0.3628893424 -0.1302707805 1.174846425
-0.3318440877 -0.1302043675 1.208197092
-0.385579037 -0.2218753232 1.216196973
-0.3076698454 -0.1116569937 1.201220886
-0.3212482078 -0.1333692457 1.207612785
-0.3157479907 -0.2296598192 1.279575798
-0.3694266662 -0.2070118268 1.22405115
-0.4369855962 -0.1324013954 1.110766056
-0.3571736269 -0.1123978934 1.167575175
-0.4121747814 -0.1289880229 1.129066335
-0.3263657554 -0.1753010391 1.221192251
-0.1958873807 -0.1637154519 1.294123986
-0.3205452358 -0.2017928791 1.255133412
-0.3503647975 -0.1403403033 1.19203412
-0.2905427937 -0.03074613076 1.164944294
-0.2924113596 -0.02266741068 1.163400342
-0.3306388357 -0.08516668822 1.185819231
-0.3629013041 -0.1064452646 1.161383825
-0.3098051864 -0.1410857037 1.227507878
-0.2105623266 -0.1555749935 1.282329984
-0.3117901982 -0.09014767228 1.184637821
-0.2186264692 -0.1187409868 1.26604707
-0.3281710129 -0.1671025523 1.225700861
-0.2667041018 -0.1391933119 1.244900003
-0.302448761 -0.1225697513 1.215007173
-0.2065981891 -0.1625338101 1.292947726
-0.2969138989 -0.0278387933 1.165075675
-0.285520335 -0.03186030341 1.168706009
-0.3266405279 -0.1956776412 1.23324669
-0.1864160294 -0.1323098201 1.289049523
-0.3214345253 -0.1598140987 1.225177453
-0.3081182742 -0.2097308657 1.26707626
-0.3340871241 -0.2097786394 1.225893979
-0.344211551 -0.2256939976 1.232661631
-0.276237585 -0.1487719732 1.249058448
-0.2638516309 -0.1069212784 1.229947565
-0.2943519813 -0.04283220256 1.168050339
-0.2314998187 -0.1307879111 1.249827926
-0.4000938928 -0.2281224796 1.218431475
-0.4065645906 -0.1537201616 1.146077655
