# .PCD v0.7 - Point Cloud Data file format
VERSION 0.7
FIELDS x y z
SIZE 4 4 4
TYPE F F F
COUNT 1 1 1
WIDTH 400
HEIGHT 1
VIEWPOINT 0 0 0 1 0 0 0
POINTS 400
DATA ascii
-0.3697414239 -0.1359835197 1.178201163
-0.3540266699 -0.2367882111 1.382466838
-0.1797763262 -0.1295271797 1.297849964
-0.2903728614 -0.006935494759 1.166823571
-0.2961726421 -0.2108551716 1.267387222
-0.2664730006 -0.1067748602 1.225036872
-0.3916015191 -0.2302959514 1.223916651
-0.4436051698 -0.1474536592 1.11162421
-0.3187588744 -0.07194898974 1.18564824
-0.3191679691 -0.2123304756 1.197758208
-0.2408560165 -0.1466360916 1.269815737
-0.3183342365 -0.1501563573 1.216864478
-0.3282323048 -0.2358163999 1.326136483
-0.3990548584 -0.1118009717 1.131619245
-0.3556448578 -0.188912484 1.231238345
-0.3634002104 -0.09546082572 1.156273156
-0.2312066761 -0.1054794354 1.252713893
-0.3411705576 -0.2303952578 1.237027632
-0.4198534146 -0.151616721 1.14859592
-0.278952914 -0.1449338692 1.2419485
-0.3329579231 -0.1163022179 1.193832963
-0.2023933394 -0.1625149142 1.279434629
-0.2876679797 -0.04922929807 1.165234164
-0.3189487928 -0.1973861617 1.240401466
-0.2993028587 -0.1034595865 1.204484558
-0.208078221 -0.1236263829 1.27044972
-0.3238643422 -0.2251589106 1.375898027
-0.4260674384 -0.120508078 1.104577437
-0.1897585878 -0.1602124426 1.307033104
-0.3910825234 -0.1324564483 1.152332845
-0.2520181929 -0.1316695087 1.24593871
-0.346651124 -0.08479151289 1.179065264
-0.3733384557 -0.2076939631 1.2177842
-0.3271215195 -0.237982784 1.208062206
-0.3280643375 -0.1752806674 1.224546527
-0.3024439595 -0.1301842906 1.225662561
-0.4150791175 -0.1357286417 1.127530794
-0.3411819597 -0.1401360852 1.208981406
-0.349914365 -0.1131546523 1.175267729
-0.3354622134 -0.2026869156 1.222862789
-0.315718515 -0.1305247233 1.203029995
-0.3811843197 -0.1096284928 1.147524464
-0.3064438767 -0.04481192447 1.179372396
-0.2277887681 -0.1332015767 1.25625783
-0.3098492221 -0.2259391408 1.278361232
-0.3473217504 -0.1338372363 1.187760188
-0.2822906731 -0.02510574097 1.178236606
-0.2800229923 -0.1247867538 1.227374083
-0.3280902468 -0.09569301365 1.18561753
-0.1872563472 -0.1448575472 1.284096916
-0.3947826571 -0.2188563183 1.205645337
-0.3580601981 -0.2234064285 1.248161857
-0.3715645913 -0.1224484104 1.16157831
-0.2458395368 -0.09985100311 1.23858401
-0.2178602341 -0.14863626 1.276487416
-0.2870720923 -0.09165514382 1.216740783
-0.3145786072 -0.2115193999 1.257663478
-0.3581933045 -0.2180260971 1.228228393
-0.429221879 -0.1490478538 1.131407957
-0.3619396531 -0.1451058957 1.194674204
-0.3139825903 -0.109788672 1.193259288
-0.3311054186 -0.2207627429 1.217578646
-0.3009604994 -0.06329761849 1.180641353
-0.1861006458 -0.1255810698 1.280130329
-0.3023114527 -0.09375160487 1.188441612
-0.3053497896 -0.1951049642 1.262379094
-0.2914035564 -0.2273899443 1.276033313
-0.2568199746 -0.1420318337 1.25943834
-0.3899158245 -0.1448418532 1.164833211
-0.4183502488 -0.1187544426 1.130580158
-0.2856975295 -0.1085457006 1.223994307
-0.4385986176 -0.1290699295 1.112844923
-0.4006967945 -0.1459549001 1.147851327
-0.3905101125 -0.212669422 1.220872586
-0.3782308229 -0.09383139046 1.164227985
-0.2958048021 -0.1439354229 1.241670101
-0.2394573226 -0.1210699031 1.247696998
-0.3205600793 -0.2006879362 1.216240284
-0.3768839976 -0.224712465 1.219276324
-0.2203078485 -0.1192046662 1.259708355
-0.3325368075 -0.1567931891 1.220785181
-0.3453949443 -0.2110554389 1.23518309
-0.3615805564 -0.110255129 1.164850949
-0.2695381087 -0.1326023272 1.24497353
-0.2665086408 -0.1199237111 1.233957417
-0.2720775198 -0.09078003464 1.219632959
-0.2048520492 -0.1420517974 1.280891682
-0.214763679 -0.1355546774 1.264343444
-0.4272627956 -0.1401443011 1.119637319
-0.3792769333 -0.1347083802 1.166265842
-0.1903717151 -0.1574440081 1.291137761
-0.3326666053 -0.08142237709 1.182078758
-0.3368025283 -0.2391631395 1.226132434
-0.3636116937 -0.1233663797 1.174157196
-0.3550876072 -0.09577582168 1.168254428
-0.353993497 -0.2021097983 1.225375201
-0.3388934163 -0.1076583944 1.182923047
-0.3340640715 -0.1883578699 1.225731497
-0.3001997192 -0.03223880573 1.176006985
-0.2954677825 -0.01947216082 1.171171489
-0.3389863057 -0.1291969108 1.198210198
-0.286335255 -0.1365563322 1.233547583
-0.3052503903 -0.1255569984 1.210797538
-0.3184594751 -0.1849793217 1.226221674
-0.3243846836 -0.163734135 1.212155751
-0.3153319666 -0.1914078851 1.253802711
-0.2951360704 -0.1194033636 1.221642422
-0.4001262006 -0.1251921864 1.133898208
-0.2530711675 -0.1099051133 1.233016798
-0.3117991981 -0.1375583691 1.213864465
-0.4226654451 -0.1285369789 1.114925601
-0.3390882269 -0.1770085049 1.231688949
-0.4421754645 -0.1546890753 1.122522214
-0.3061200937 -0.07542331114 1.185036015
-0.2592697279 -0.09650317687 1.228678673
-0.3797115589 -0.1441589735 1.176424557
-0.3444130834 -0.1214219343 1.185301707
-0.3439093653 -0.1017625551 1.172519291
-0.4102811819 -0.143942383 1.136292211
-0.4016102175 -0.2224420058 1.222413514
-0.3114241057 -0.1426250498 1.225616281
-0.3290210297 -0.1436552886 1.210304479
-0.3277668072 -0.1252255079 1.202374646
-0.3013379852 -0.2229826705 1.269555304
-0.197986781 -0.1650271801 1.298858352
-0.3586434335 -0.1380374391 1.184351427
-0.2900449872 -0.0397674084 1.173080367
-0.3667491185 -0.09263220621 1.171478983
-0.2863233127 -0.2164528786 1.27315571
-0.3037699927 -0.1137432105 1.199060782
-0.3863072414 -0.1013734982 1.15862793
-0.3237849684 -0.2221759081 1.203442044
-0.2001678919 -0.1310872843 1.278064901
-0.3803736506 -0.2044366707 1.227220784
-0.2279247316 -0.1490772789 1.270111225
-0.233793774 -0.1425128209 1.260386157
-0.2134961352 -0.155068459 1.285327785
-0.4049811031 -0.1137417064 1.121650636
-0.2820246001 -0.01425343745 1.173999832
-0.3202847908 -0.2034695966 1.251738726
-0.3225708335 -0.1032974159 1.197312368
-0.3267322661 -0.2102992252 1.214894673
-0.3389269602 -0.2242232802 1.227602438
-0.3479931329 -0.192711221 1.222670705
-0.2568014713 -0.1179525922 1.240278435
-0.3122292186 -0.08857289439 1.186081175
-0.39200323 -0.1139965912 1.14031464
-0.1804627186 -0.1401998102 1.301767662
-0.2918011513 -0.0609308511 1.174302943
-0.3098279328 -0.05639776645 1.182137809
-0.3852113557 -0.1200614838 1.147645497
-0.3358297326 -0.1462988435 1.219680464
-0.3799410017 -0.2175040995 1.211507844
-0.3535863989 -0.1260965642 1.181507746
-0.3308008071 -0.2325521147 1.216842852
-0.1966317282 -0.1209826829 1.279429296
-0.420414908 -0.1485855403 1.13758111
-0.3707519424 -0.2245622437 1.228063346
-0.344412312 -0.2210812828 1.241138014
-0.3993123353 -0.1321579059 1.141846057
-0.3052206685 -0.1376313665 1.232499061
-0.3652246898 -0.2112598414 1.224655767
-0.223292615 -0.1093556227 1.258531363
-0.2028081487 -0.1527402795 1.282710608
-0.3151056555 -0.09972150893 1.191432536
-0.247165295 -0.1390277641 1.259261247
-0.350268511 -0.2380835768 1.373185331
-0.2890973481 -0.1275077412 1.230274853
-0.4357034256 -0.1451294087 1.118412986
-0.3621770527 -0.1962870803 1.231903863
-0.3360285451 -0.1696161957 1.225680785
-0.2748733929 -0.1117577004 1.226180887
-0.4168024488 -0.1263577697 1.124656898
-0.319016565 -0.1177129531 1.195536085
-0.4090211378 -0.1240825408 1.130309244
-0.2131262154 -0.1158289706 1.267886498
-0.2308539786 -0.1242602609 1.254400299
-0.2871502592 -0.01664428843 1.166249131
-0.3006148539 -0.11239379 1.208001116
-0.2412294001 -0.1082129053 1.239168739
-0.222110356 -0.1414643317 1.26572709
-0.2783147324 -0.1027955582 1.222401455
-0.3439527299 -0.18490293 1.229819521
-0.3274348418 -0.1889244329 1.219010129
-0.3618504289 -0.100879791 1.16398312
-0.2916550888 -0.2086783223 1.275336196
-0.2851982018 -0.02574527667 1.169366058
-0.3977480512 -0.2241888739 1.212730903
-0.1826269431 -0.1369720227 1.286001522
-0.316423013 -0.1554880557 1.22423134
-0.3662329681 -0.1109336396 1.156845723
-0.3543438781 -0.2087203069 1.231874353
-0.2951057166 -0.05244177367 1.172684733
-0.309153698 -0.06602387528 1.183940955
-0.3026376418 -0.104825381 1.19602365
-0.2963282276 -0.1119872055 1.216433619
-0.3013554891 -0.202914442 1.264897061
-0.2749740199 -0.1424668413 1.249748005
-0.2859156698 -0.03481189899 1.179430143
-0.37125764 -0.203454922 1.225467827
-0.3856616687 -0.1337769218 1.159989195
-0.3563039435 -0.08961769845 1.174696345
-0.3403359697 -0.2003364172 1.230035985
-0.3888654302 -0.105174756 1.146362345
-0.2777287382 -0.1322952671 1.231666623
-0.3338161398 -0.1362058232 1.206015672
-0.4215044473 -0.1417097776 1.128009075
-0.3052482806 -0.08480915937 1.182291382
-0.2837667629 -0.1448577754 1.234485983
-0.2616405833 -0.1354108234 1.247441448
-0.3625532118 -0.2016080575 1.223745163
-0.2720787004 -0.1208378971 1.227319172
-0.3628036359 -0.1307532454 1.178793194
-0.3785305902 -0.09925060202 1.15534287
-0.1953643336 -0.1482668678 1.282574159
-0.2982014936 -0.04246559867 1.174311073
-0.3184257908 -0.1911011731 1.234456607
-0.2918700001 -0.02902733865 1.173781416
-0.3462830765 -0.09354546061 1.171244636
-0.3735005309 -0.1276424221 1.168169576
-0.2111869747 -0.1387548745 1.27149124
-0.395832934 -0.1437638451 1.154588235
-0.3919282142 -0.1259633764 1.146781094
-0.3250782571 -0.1331957803 1.204080409
-0.2910748302 -0.09847450107 1.213418427
-0.3510451403 -0.1055604704 1.169686727
-0.4309012052 -0.1325515858 1.114205043
-0.3562984696 -0.1187027484 1.174160721
-0.2121414121 -0.1244182563 1.263009754
-0.3443495633 -0.1353241231 1.195740206
-0.3219989806 -0.1706471562 1.220808654
-0.3087632356 -0.1253245026 1.20313121
-0.3279398967 -0.1044530254 1.190925838
-0.3372166322 -0.2167298934 1.231027176
-0.3217218373 -0.1926584346 1.225258745
-0.3250164335 -0.1554033895 1.212054572
-0.389742001 -0.2218325632 1.212378783
-0.2269150531 -0.1512447652 1.278113926
-0.3034074064 -0.2147800922 1.265985263
-0.3220505528 -0.2148202684 1.206890542
-0.3727400352 -0.1160653511 1.156278994
-0.4335162247 -0.1223593617 1.107713567
-0.3342400732 -0.2301389798 1.223988922
-0.3011237981 -0.1241633698 1.218456195
-0.3210937099 -0.1418393664 1.208823085
-0.3156001267 -0.07895256297 1.182630352
-0.2925680083 -0.2205894471 1.269711569
-0.1890155325 -0.1366659255 1.280800792
-0.3345723103 -0.2107784838 1.223646965
-0.2894155317 -0.1063816219 1.217072276
-0.3216672096 -0.2063697797 1.209873566
-0.2079503555 -0.1608564861 1.286755566
-0.2061202213 -0.1313166065 1.272264486
-0.3194979819 -0.1620443463 1.218414085
-0.3674536341 -0.1034351565 1.154010743
-0.3509466456 -0.2162937443 1.241119593
-0.3246608674 -0.08136587394 1.180932931
-0.3023284377 -0.2288587332 1.277871351
-0.3450092308 -0.1135876372 1.183524022
-0.3386279638 -0.1005088084 1.178456381
-0.3851528674 -0.1267282303 1.152146253
-0.2946869432 -0.1390416945 1.235400759
-0.3216099778 -0.0916261501 1.188012854
-0.4403848192 -0.1412675335 1.107683468
-0.3689734804 -0.220883576 1.221205118
-0.3617696377 -0.1175376836 1.168115519
-0.3755581188 -0.105900549 1.152080331
-0.2628036913 -0.1286852791 1.243246382
-0.3787010267 -0.1282094826 1.161681022
-0.2447505065 -0.1286264567 1.244792486
-0.3380630349 -0.1222779741 1.192961559
-0.2682772941 -0.09925032507 1.223415877
-0.3145337375 -0.1989501416 1.248745751
-0.3783946771 -0.1214790577 1.157356495
-0.3360394047 -0.08782642797 1.17891975
-0.4056396626 -0.1308165108 1.133481828
-0.278777435 -0.1380668563 1.238099242
-0.3078203628 -0.1975506713 1.255322166
-0.3517839268 -0.1417527909 1.184340805
-0.3267985433 -0.2284736596 1.2116291
-0.433563807 -0.1514983691 1.122215933
-0.3570998484 -0.1117367621 1.170940082
-0.3219544828 -0.1762903721 1.229119075
-0.3488990748 -0.203324626 1.231771343
-0.2344781895 -0.1156580574 1.249782975
-0.3079750033 -0.1362374801 1.223238381
-0.3807059132 -0.2096915797 1.217991212
-0.421087903 -0.135723467 1.118879439
-0.2376479326 -0.1363435399 1.25811489
-0.3744091632 -0.1351850466 1.172073049
-0.2896239267 -0.1199779924 1.226806289
-0.2256608502 -0.1182174833 1.254440856
-0.3387393424 -0.2094135544 1.232044877
-0.3265911792 -0.2296089977 1.381278692
-0.3347807914 -0.1098200685 1.188803848
-0.2453699271 -0.1201988283 1.243217902
-0.3303774725 -0.1979141171 1.220220829
-0.2614472699 -0.1076330724 1.230462692
-0.2358878031 -0.1042908767 1.247053973
-0.2677932459 -0.1266271767 1.236858576
-0.3988604989 -0.2155934426 1.222045038
-0.3348164436 -0.1956594871 1.226530319
-0.2736707418 -0.1327446786 1.238089625
-0.2973752157 -0.2291082913 1.272073212
-0.2984543189 -0.1318824845 1.231616619
-0.1926681691 -0.1272613235 1.277276548
-0.3404429429 -0.1352918245 1.202040544
-0.2482213511 -0.1344248663 1.251573664
-0.314464361 -0.1375386949 1.207034736
-0.3098656304 -0.2230613294 1.271621459
-0.3267540535 -0.2191036945 1.211930549
-0.4117575361 -0.1161693967 1.12296139
-0.3949448723 -0.2300034224 1.216100025
-0.2667570874 -0.1158898573 1.22687531
-0.4007288224 -0.1192994074 1.129676854
-0.217725453 -0.1285376076 1.260855375
-0.2094616033 -0.1455149418 1.276477241
-0.2604162936 -0.1386279139 1.254131101
-0.2616058901 -0.1146047685 1.23405586
-0.3085668233 -0.1191446021 1.19896843
-0.2009122621 -0.1584828273 1.286661928
-0.2271452168 -0.1400974336 1.25896742
-0.3197259715 -0.1226488382 1.200726881
-0.239748103 -0.1285551058 1.249949935
-0.2895473606 -0.1149040305 1.221678043
-0.2815855775 -0.09409637439 1.220560735
-0.4004348885 -0.1381368436 1.145499976
-0.3334005633 -0.09623245495 1.180988038
-0.2999403142 -0.07006002394 1.182402696
-0.2227596108 -0.1280118648 1.255961894
-0.2405512327 -0.1148274741 1.241475145
-0.3038452009 -0.05462802714 1.178882543
-0.4188573783 -0.1216191099 1.119897288
-0.4137011236 -0.1422295802 1.130435959
-0.3847248378 -0.2292115767 1.223361457
-0.3312896639 -0.2401671592 1.213200265
-0.3095748376 -0.2066875208 1.257938263
-0.349994625 -0.2202707676 1.246743302
-0.283601079 -0.1152241682 1.225210434
-0.290178798 -0.0598255409 1.167680391
-0.4074625384 -0.1374142394 1.134261908
-0.3352915762 -0.1782557217 1.226104583
-0.2496428477 -0.1127359499 1.238234584
-0.1835219966 -0.1230681403 1.285958156
-0.4236500513 -0.1224308518 1.112046585
-0.216843136 -0.14244691 1.272378115
-0.2545160361 -0.1240001463 1.242382273
-0.3520856082 -0.1348409031 1.183020005
-0.2861543292 -0.05747336766 1.172820591
-0.437951704 -0.1356891097 1.114059053
-0.1985935829 -0.1398947676 1.279579403
-0.3158528402 -0.1928344077 1.246268307
-0.2555544579 -0.1038620475 1.231428228
-0.3335647372 -0.1297717711 1.204093204
-0.3676022025 -0.1230504612 1.168779839
-0.3087677428 -0.09797925648 1.190190309
-0.3545477053 -0.2155601505 1.235539504
-0.3345968163 -0.2209445986 1.223722541
-0.2281352899 -0.1113600991 1.253438527
-0.3850669558 -0.1403496233 1.16391184
-0.3794948639 -0.1394173776 1.17134202
-0.2909454522 -0.1445149862 1.235950368
-0.4246751606 -0.1536222876 1.138355142
-0.1869414987 -0.1513748251 1.285338003
-0.3273759959 -0.09318867445 1.179533766
-0.3261772158 -0.2024623146 1.213269971
-0.2328175136 -0.1463295215 1.266660786
-0.364572162 -0.2194659114 1.227765292
-0.3563163374 -0.1064544003 1.16567074
-0.3121424729 -0.1163146358 1.194286029
-0.3153842142 -0.2173716999 1.260402315
-0.2401591878 -0.14326099 1.261436069
-0.3694983527 -0.140272809 1.183031138
-0.4120201502 -0.1329167148 1.13247694
-0.3686367127 -0.1295010564 1.171963359
-0.3021420395 -0.09790038343 1.19335248
-0.3070513341 -0.1063075522 1.191590346
-0.3247290079 -0.1845808823 1.224883698
-0.3521343113 -0.1937641721 1.22892726
-0.3320072401 -0.1658516811 1.222447147
-0.3191781117 -0.2097486128 1.252072141
-0.3096902025 -0.213896364 1.260967912
-0.392406326 -0.216109938 1.211627329
-0.3695708963 -0.0967604227 1.155574758
-0.3149132347 -0.1494017902 1.225132124
-0.384898829 -0.2135665228 1.211433677
-0.3487409236 -0.1277000341 1.185253688
-0.3344323103 -0.1031891355 1.182506649
-0.3973819486 -0.1106786051 1.140422354
-0.244937879 -0.1426591181 1.267139969
-0.3239645102 -0.196274232 1.219145095
-0.3317786232 -0.1226315591 1.198315057
-0.2717438709 -0.1266256831 1.229699967
-0.359757265 -0.2082659973 1.225240307
-0.3197752903 -0.147799235 1.209811569
-0.3430178701 -0.190879407 1.2285392
-0.1942743243 -0.1641700822 1.308453826
-0.3226824703 -0.1127871328 1.195083663
-0.3945739992 -0.138003257 1.152824298
-0.3273900091 -0.08610559138 1.178138425
