# .PCD v0.7 - Point Cloud Data file format
VERSION 0.7
FIELDS x y z
SIZE 4 4 4
TYPE F F F
COUNT 1 1 1
WIDTH 400
HEIGHT 1
VIEWPOINT 0 0 0 1 0 0 0
POINTS 400
DATA ascii
-0.3047415725 -0.1365069294 1.21720658
-0.4323019871 -0.1583585258 1.0948135
-0.1831910039 -0.1511363401 1.307300051
-0.3825760241 -0.2459650196 1.248926199
-0.2965780398 -0.02160436117 1.157936417
-0.2774074617 -0.2257018118 1.29958404
-0.3900680675 -0.1717829123 1.185705085
-0.2325615186 -0.1055224742 1.250873832
-0.3178317361 -0.2091616843 1.23691561
-0.4467824099 -0.1859578435 1.154340956
-0.3142472165 -0.08160339459 1.182072444
-0.3667641562 -0.1160122039 1.169906216
-0.3321449817 -0.2329691948 1.280762969
-0.2640546809 -0.1454198147 1.260821011
-0.3479279551 -0.1635911345 1.212479164
-0.2756103399 -0.09760140437 1.223008914
-0.4177875891 -0.147993299 1.144445315
-0.2237917587 -0.1451038467 1.282292286
-0.1886071159 -0.1205610697 1.276976405
-0.3173848742 -0.252089054 1.231941128
-0.3007871459 -0.2018926051 1.273740074
-0.3549437386 -0.2090345622 1.250382616
-0.3126036137 -0.1701591922 1.237399335
-0.3007674729 -0.07724835491 1.145881974
-0.3337463844 -0.1178070883 1.189637411
-0.3865355758 -0.1470200597 1.160425518
-0.414967617 -0.1829821401 1.164744757
-0.4448537981 -0.1625848964 1.125418771
-0.3592454529 -0.1474576207 1.179523888
-0.3118294306 -0.04873953341 1.168806891
-0.2602077095 -0.1200933238 1.239197467
-0.2976035936 -0.1021251221 1.201270767
-0.2921204153 -0.1468587789 1.242487621
-0.3576917526 -0.2355275024 1.26299195
-0.2145994223 -0.126421294 1.261638002
-0.333313844 -0.1865339056 1.249543824
-0.3041998113 -0.2238668184 1.290085601
-0.3402237662 -0.1400725875 1.20287765
-0.4274086795 -0.1718250113 1.143418767
-0.3265567409 -0.2277985134 1.251802583
-0.1990236391 -0.1468195047 1.286550788
-0.371137182 -0.1662936584 1.203648356
-0.2856158804 -0.1229411306 1.225380351
-0.4058383537 -0.1330510123 1.167155773
-0.2378630978 -0.1291344331 1.255895141
-0.3299934628 -0.1476099385 1.223358756
-0.3137703767 -0.231866915 1.221811709
-0.4025685955 -0.1644336464 1.16049962
-0.3160711797 -0.1226055752 1.202312927
-0.3764261024 -0.226276146 1.24122889
-0.3108504813 -0.1598749435 1.218450165
-0.1755436333 -0.1317058369 1.288390991
-0.3787829704 -0.1568052517 1.177243774
-0.2980315977 -0.0523493211 1.154962624
-0.2704616718 -0.1374081407 1.243832388
-0.3499187774 -0.1199919003 1.179354396
-0.3156104955 -0.101028785 1.194471862
-0.2885091038 -0.213571762 1.286342708
-0.2577792638 -0.1075349675 1.22497337
-0.2964848933 -0.1191526451 1.209877282
-0.3945004089 -0.1322238475 1.151924365
-0.3692788148 -0.1346116493 1.169689681
-0.3035331033 -0.0773606467 1.164328932
-0.2952466019 -0.04026292361 1.169581108
-0.3354249713 -0.2046651088 1.247240352
-0.2463065032 -0.1027833799 1.238433229
-0.3089932701 -0.2076525199 1.25843016
-0.3472453179 -0.1549894721 1.195999193
-0.3301266908 -0.1684064161 1.234581667
-0.3499557722 -0.2274646642 1.249109426
-0.2386451365 -0.1441011147 1.272765225
-0.4292650462 -0.1581390246 1.132511044
-0.3241125821 -0.2500854597 1.248037425
-0.314520872 -0.1919558372 1.237832727
-0.2086894892 -0.1108609218 1.265615057
-0.401636212 -0.1762340403 1.172873939
-0.4286793445 -0.1872543305 1.15581996
-0.3048658877 -0.1477247871 1.229513285
-0.3232171467 -0.2347931005 1.23716532
-0.3776844869 -0.1214910627 1.180597016
-0.3678447987 -0.2393125939 1.245579595
-0.3319390115 -0.123736218 1.205348618
-0.1979375185 -0.1345767992 1.2762481
-0.4343653366 -0.158667444 1.110694999
-0.4035111599 -0.1540658022 1.148283135
-0.4445493859 -0.1775613908 1.141029209
-0.2911737022 -0.108396059 1.220205643
-0.3061580204 -0.2179349138 1.270102665
-0.4164437771 -0.1649353785 1.152099825
-0.2734338722 -0.1257467894 1.234159229
-0.3468668051 -0.1305859408 1.189254652
-0.2941083936 -0.1333941694 1.230894437
-0.333879138 -0.1054002855 1.182107393
-0.2453521231 -0.1222123057 1.245647071
-0.3394025497 -0.2308621288 1.268445137
-0.3065988001 -0.1118242299 1.191239119
-0.3289680349 -0.1379705404 1.212702912
-0.2893020361 -0.09592461747 1.211235284
-0.3753205371 -0.1634843658 1.189455506
-0.2765664949 -0.14877495 1.249926676
-0.3910605216 -0.1589620065 1.166868082
-0.220897775 -0.1367006013 1.269050738
-0.3063873288 -0.06067963444 1.163857126
-0.3071733695 -0.03677368777 1.163713103
-0.2004057405 -0.1207853663 1.261135353
-0.1799059711 -0.1153696828 1.286163131
-0.36024588 -0.1580678749 1.193078231
-0.3620919392 -0.2277498493 1.241731762
-0.2442107561 -0.1395006297 1.261481394
-0.3385528668 -0.1577096251 1.222700354
-0.340034065 -0.1506399304 1.210829993
-0.223076019 -0.1205259942 1.253420015
-0.3140750497 -0.06103587705 1.174503971
-0.2788203549 -0.1099344292 1.225315384
-0.3160745402 -0.1409470901 1.212787287
-0.3191970389 -0.220779429 1.231547289
-0.3717253738 -0.2471502112 1.255616809
-0.1937477106 -0.1520691222 1.300131636
-0.33994077 -0.216501411 1.248845233
-0.2613241687 -0.1310516648 1.249939897
-0.3576270576 -0.1342790801 1.174631263
-0.2929877355 -0.2248137181 1.283017638
-0.3778214587 -0.1308437596 1.161322474
-0.1978711709 -0.1129240733 1.274050461
-0.3731850413 -0.1462871669 1.174244484
-0.3197662246 -0.09239076553 1.186835174
-0.222522419 -0.1081268499 1.257355807
-0.3241796822 -0.2150996702 1.245507811
-0.3511106071 -0.1441364581 1.187997489
-0.1873999077 -0.1476911181 1.290740888
-0.2134009185 -0.1462214227 1.288479466
-0.2875267843 -0.2299817206 1.29457951
-0.4107503415 -0.1446169877 1.153599576
-0.3191329221 -0.1524725679 1.224544922
-0.3319535612 -0.1807060405 1.239205066
-0.250036421 -0.1332760031 1.253243182
-0.3259492952 -0.1066084932 1.192915295
-0.3781270647 -0.2377546921 1.239525751
-0.3549938264 -0.1645908109 1.201211229
-0.4210598501 -0.1775795786 1.156721
-0.2334540281 -0.1166480961 1.249545989
-0.3155464858 -0.2426869181 1.226088471
-0.2666370132 -0.1132471327 1.228567789
-0.4428722757 -0.1691280189 1.134071816
-0.3688265941 -0.2238524443 1.249539369
-0.2873428941 -0.1506260765 1.251624724
-0.3272088157 -0.1979737495 1.244375504
-0.2997871607 -0.1157038749 1.19888377
-0.3492774509 -0.1097211064 1.183085034
-0.2080623541 -0.1343965172 1.272642625
-0.3144803902 -0.07099992417 1.183785751
-0.2258517212 -0.1297277171 1.258110337
-0.3287246941 -0.2405250244 1.246966436
-0.3061003402 -0.1242525021 1.205157518
-0.1796597763 -0.124572703 1.281272547
-0.2925798803 -0.02616230405 1.166326247
-0.3166244402 -0.1823159968 1.234848002
-0.3081254701 -0.06916548024 1.172326644
-0.311805286 -0.2084010083 1.245231261
-0.2833325289 -0.141901793 1.240512309
-0.3361837725 -0.1974041366 1.254393902
-0.316632092 -0.1626487855 1.226372797
-0.3412999098 -0.2310078222 1.258452207
-0.4352742292 -0.1779402022 1.145164611
-0.3011283169 -0.06751096705 1.158665546
-0.3648104425 -0.1264232465 1.166023996
-0.3859120525 -0.163359034 1.179366031
-0.2136631491 -0.1430521829 1.279204079
-0.3202853802 -0.1141441642 1.199894661
-0.3270900128 -0.1568211226 1.228120367
-0.2992226348 -0.03313677766 1.15948465
-0.3620800123 -0.2182418701 1.245394883
-0.2528815091 -0.1428239037 1.264259845
-0.1944031557 -0.1256659763 1.271155934
-0.2293189603 -0.1410846484 1.270601633
-0.3525606759 -0.135083958 1.182950517
-0.2729987227 -0.2231557887 1.307684232
-0.3355989118 -0.1608633288 1.231218403
-0.3446045603 -0.2072175007 1.247879998
-0.3761554223 -0.124861131 1.17182686
-0.4103202767 -0.1698936963 1.161055608
-0.4228048353 -0.159181619 1.139353761
-0.3573489446 -0.1155351221 1.175702865
-0.2519973685 -0.1160908749 1.237027702
-0.3109466456 -0.1490172438 1.221959857
-0.3360088594 -0.2231426917 1.253891439
-0.2991303643 -0.215552166 1.275522348
-0.4075328985 -0.1777925455 1.165887805
-0.3456673542 -0.1392442814 1.193462136
-0.3685426929 -0.1620670566 1.195370252
-0.27466811 -0.1449817127 1.24109635
-0.3194135418 -0.1735825232 1.232584077
-0.3664429525 -0.1524497067 1.181582182
-0.298721745 -0.1410905484 1.231527026
-0.4041329103 -0.1383047709 1.16008563
-0.2417435116 -0.1099747337 1.241193551
-0.3074022442 -0.08724853728 1.182805988
-0.3246147034 -0.2249092199 1.243638127
-0.3294989572 -0.188876179 1.241613347
-0.271402163 -0.1050029496 1.225420199
-0.2611600842 -0.1001167861 1.228367326
-0.3497090628 -0.2340380811 1.266401918
-0.3893122572 -0.137192141 1.157019174
-0.4238224345 -0.1849344062 1.162728424
-0.1813501114 -0.1370898275 1.284657713
-0.254353415 -0.1265738441 1.247117435
-0.311875136 -0.09070501672 1.190193273
-0.3361121997 -0.1255798523 1.19793556
-0.3375254743 -0.1155821083 1.182119678
-0.2922741867 -0.2060446342 1.284395687
-0.3051420261 -0.2059351772 1.265969224
-0.2954085371 -0.1226355526 1.217703606
-0.2999559226 -0.1352920622 1.22428629
-0.34137205 -0.1322274686 1.196048956
-0.4347592252 -0.164729076 1.133297212
-0.3981821018 -0.1524047144 1.154820395
-0.2042369691 -0.1278061953 1.264278352
-0.4023013453 -0.1437995249 1.153076817
-0.3226787057 -0.2431811228 1.238324247
-0.2736601023 -0.1179244022 1.229207553
-0.2807618784 -0.09879842892 1.216406744
-0.3231598571 -0.1649829825 1.231268265
-0.1861534381 -0.1295914439 1.279362567
-0.3622355331 -0.1663532558 1.205015384
-0.2804230335 -0.2188157746 1.295934415
-0.3120196935 -0.1295300938 1.207738749
-0.2674534865 -0.1239001886 1.240699059
-0.2899748489 -0.1165381275 1.221270478
-0.3961018073 -0.1650399147 1.169399154
-0.4343386746 -0.1588185732 1.118980523
-0.3354550622 -0.1429195276 1.21411277
-0.2348240406 -0.1351019927 1.260759647
-0.3022109072 -0.0748318497 1.154969719
-0.4209589857 -0.1655481881 1.144269625
-0.387718925 -0.1290434781 1.1553195
-0.3841915486 -0.1536353152 1.164698527
-0.3307254644 -0.2345961889 1.27283667
-0.40600879 -0.1594895058 1.154925566
-0.3493888602 -0.2124014627 1.243749064
-0.3193227152 -0.1337978279 1.210534921
-0.2307957171 -0.1240025801 1.255026056
-0.3314307137 -0.1186889897 1.19740636
-0.3012299184 -0.1293257352 1.215718437
-0.3757669825 -0.1392749908 1.168191892
-0.3963586121 -0.1588882819 1.16070809
-0.2131456996 -0.1135306267 1.259370233
-0.3253766184 -0.2070827727 1.245239852
-0.2589559817 -0.1374865904 1.254265292
-0.3411514868 -0.1085605984 1.180513231
-0.2945647923 -0.1085264816 1.205104922
-0.285802846 -0.11313007 1.227692629
-0.3243565033 -0.1262656569 1.206125449
-0.2887008758 -0.1280406741 1.233420974
-0.3924242595 -0.1521973045 1.162819085
-0.3231827448 -0.1865538334 1.236557168
-0.3192722963 -0.2298730339 1.232278927
-0.4110857929 -0.1520533043 1.146926635
-0.3022752476 -0.2224179382 1.282516486
-0.3441842945 -0.1478624555 1.197582431
-0.2801365401 -0.1299378979 1.233892645
-0.3570065475 -0.230962769 1.248869612
-0.4335199969 -0.1708596577 1.1380784
-0.3751798301 -0.2443064573 1.246805929
-0.3530260286 -0.153860438 1.190782525
-0.3051626497 -0.1432160574 1.221277623
-0.4250530961 -0.1762579597 1.150098506
-0.3710527007 -0.2319429102 1.241949126
-0.2852401642 -0.2103630676 1.292690552
-0.3366960468 -0.1321930924 1.202252792
-0.4440303041 -0.1811347699 1.148936564
-0.2050306981 -0.139605043 1.277494413
-0.3220547007 -0.2193463915 1.238589054
-0.41349005 -0.1774341201 1.158243265
-0.189709272 -0.1418119944 1.286343037
-0.2856861332 -0.2200087692 1.289422665
-0.3720811586 -0.1169422232 1.177996652
-0.3052692938 -0.04419843001 1.163453604
-0.3613211927 -0.1408872855 1.175559009
-0.2661117089 -0.1309891455 1.244067624
-0.3518710627 -0.2213687558 1.245076359
-0.2809390102 -0.1484673905 1.243446244
-0.306628714 -0.1188255401 1.199490668
-0.33396086 -0.2301669752 1.263279352
-0.4380567054 -0.1602521254 1.12767413
-0.3430015258 -0.1573674755 1.212281929
-0.2950559271 -0.1289654652 1.224939295
-0.2759554325 -0.1376607429 1.238773434
-0.3204923501 -0.2503177596 1.238510367
-0.3112051179 -0.1102553102 1.196896364
-0.3070465113 -0.07950511359 1.170547519
-0.3120902526 -0.1670735249 1.230243042
-0.336937768 -0.1517564247 1.217465287
-0.2869572166 -0.102727189 1.215405593
-0.3031319856 -0.1072703923 1.195930587
-0.3814430442 -0.1675969818 1.188988886
-0.2429017862 -0.1288055599 1.250527668
-0.2068012724 -0.1480350885 1.291143371
-0.3928808137 -0.169011079 1.179515328
-0.3232990267 -0.1449415597 1.222005523
-0.3623516846 -0.234651462 1.244187756
-0.2980807728 -0.1466642548 1.23624429
-0.2957318667 -0.2093620004 1.273642857
-0.3311084859 -0.1940043036 1.249066595
-0.2460239669 -0.1160060347 1.241923264
-0.3757900487 -0.1664113573 1.19808338
-0.3638705386 -0.2397905897 1.25162846
-0.3720928107 -0.1530418114 1.176631367
-0.42802436 -0.1641326399 1.13903499
-0.3019145004 -0.05676090787 1.159122773
-0.1942247768 -0.1508097087 1.293062754
-0.2275801111 -0.1126697883 1.250677539
-0.3279056967 -0.100312516 1.190079324
-0.3856427084 -0.2394990169 1.249372429
-0.3813594155 -0.1422496948 1.161645111
-0.3331253248 -0.2114203963 1.247147926
-0.1990549457 -0.140254876 1.283804387
-0.324808241 -0.23200707 1.244001808
-0.3094695911 -0.09814994186 1.192357279
-0.3020903365 -0.2122218206 1.269069689
-0.2885498789 -0.1344596331 1.236392637
-0.4171546123 -0.154206846 1.141127535
-0.2121799538 -0.1323158101 1.267287815
-0.2693467535 -0.1424467952 1.248651592
-0.2043421899 -0.1179749506 1.266238302
-0.4115959152 -0.1630988734 1.157194965
-0.2839403951 -0.2288094996 1.300506249
-0.2799099426 -0.1193564159 1.223428704
-0.3630008382 -0.1530967329 1.188975764
-0.4104565121 -0.1379606602 1.165406036
-0.2934203832 -0.1410844177 1.238826832
-0.3589471002 -0.1280377336 1.17187268
-0.4409368178 -0.1871569652 1.150397335
-0.4338098469 -0.1584312553 1.101558125
-0.352982174 -0.2328049638 1.258734643
-0.3179909143 -0.08070231834 1.187806923
-0.255967765 -0.1082234863 1.231601944
-0.2247472444 -0.132581394 1.264279127
-0.3102430105 -0.1379514486 1.21068784
-0.3713148351 -0.1283193979 1.16720023
-0.315740593 -0.2033191263 1.239870406
-0.3475240804 -0.1600729171 1.200612356
-0.1937942631 -0.136542036 1.281557753
-0.2039835475 -0.145294769 1.281081841
-0.3190624494 -0.2396146585 1.23379952
-0.2646025088 -0.1370594752 1.247256997
-0.3105361467 -0.07849509446 1.17730821
-0.4317098002 -0.1822472277 1.152377599
-0.2716501912 -0.1320255503 1.236028551
-0.2001101408 -0.1293042096 1.271218825
-0.3127216151 -0.1435317606 1.218455976
-0.3673178486 -0.145719708 1.177510577
-0.3554946687 -0.14110132 1.183432265
-0.2987680279 -0.2276416908 1.291189079
-0.2650105909 -0.1050350675 1.230779899
-0.4472042955 -0.1742235084 1.134203971
-0.3450126328 -0.1207485942 1.183788121
-0.3102054844 -0.05887930016 1.169541736
-0.3416759424 -0.1265470988 1.190226117
-0.3676533462 -0.1407720175 1.171546268
-0.2345591241 -0.1380353079 1.267955927
-0.3030976642 -0.04863274681 1.15905761
-0.3795792762 -0.1490134692 1.163684371
-0.2896016868 -0.2252941508 1.289736566
-0.3787154925 -0.2310001211 1.237274461
-0.3145536418 -0.225141911 1.230081996
-0.2574626948 -0.1422027474 1.258506854
-0.3296622487 -0.1131085242 1.191557115
-0.4386582269 -0.1748979122 1.140263059
-0.2928153715 -0.09271979349 1.206792696
-0.3024194967 -0.02439497788 1.158418415
-0.3275941857 -0.1772111011 1.235908313
-0.3307046578 -0.1297914493 1.207239291
-0.3271537748 -0.1199775131 1.203171998
-0.3834970735 -0.1336422642 1.156971548
-0.3068844344 -0.1300339405 1.212689648
-0.2828144323 -0.1242594377 1.231037386
-0.3552475126 -0.2150768358 1.243427303
-0.3608203032 -0.1620028278 1.200286282
-0.3280117769 -0.2190028199 1.248905707
-0.3312796533 -0.1111155713 1.1807673
-0.3503181224 -0.1263707472 1.185950837
-0.3222119036 -0.1417887876 1.214190151
-0.2832773241 -0.112624351 1.221687338
-0.3483457875 -0.1496638821 1.189427254
-0.396116881 -0.1754417981 1.175897823
-0.391313064 -0.1464115792 1.156300718
-0.4095545436 -0.1578817457 1.14992573
-0.3532153708 -0.1253599307 1.178753757
-0.3275024534 -0.2455202617 1.241684096
-0.3745799199 -0.1588315515 1.185241641
-0.3982037516 -0.1325915046 1.157019935
-0.2620977448 -0.1118116515 1.232618943
-0.2962651728 -0.2198297216 1.279026052
-0.1820228952 -0.1190197036 1.279761265
-0.4160301869 -0.1700292822 1.155640076
-0.2387679095 -0.117490579 1.246502623
-0.3936999696 -0.1393698172 1.153251062
-0.378422303 -0.152180385 1.17317666
-0.3983743461 -0.1710301638 1.172237927
-0.1854395991 -0.149352492 1.296338948
