# .PCD v0.7 - Point Cloud Data file format
VERSION 0.7
FIELDS x y z
SIZE 4 4 4
TYPE F F F
COUNT 1 1 1
WIDTH 400
HEIGHT 1
VIEWPOINT 0 0 0 1 0 0 0
POINTS 400
DATA ascii
-0.4468441917 -0.1730412575 1.130526452
-0.178868735 -0.124574679 1.285978898
-0.3057400274 -0.02128149703 1.151944115
-0.3304470397 -0.2326582726 1.270544592
-0.3454542435 -0.1340637472 1.193733386
-0.2670633871 -0.1399041707 1.249077958
-0.3981289422 -0.172413374 1.177036926
-0.2891586397 -0.09024530533 1.209735013
-0.3853941712 -0.2432975971 1.241441537
-0.3168041744 -0.175632746 1.235946779
-0.2764731765 -0.2223752876 1.299590193
-0.2265600798 -0.1053517271 1.248347812
-0.3826551849 -0.1282400589 1.157120895
-0.3129538609 -0.06801459551 1.169223749
-0.3158354686 -0.2444127434 1.226657654
-0.2262144586 -0.1407355505 1.275207233
-0.3035133528 -0.1309106657 1.217219485
-0.3480017698 -0.2069735982 1.24156708
-0.4140909751 -0.1494139613 1.139441711
-0.3007129048 -0.2022367008 1.277745208
-0.3420286104 -0.09866099368 1.179880823
-0.3656333869 -0.1640755874 1.190182949
-0.2612656499 -0.1040247703 1.227830296
-0.4201959886 -0.1809281153 1.1493393
-0.202773933 -0.1466492406 1.297786745
-0.3158286386 -0.208017647 1.235188198
-0.3132557466 -0.1068050664 1.191221128
-0.1999290538 -0.1180411975 1.264575587
-0.3363511927 -0.1552401097 1.224093702
-0.3585405289 -0.2308355856 1.260037453
-0.35809249 -0.123390495 1.170611982
-0.2969765731 -0.04734496125 1.155551601
-0.2836050136 -0.1196880477 1.232800654
-0.241312893 -0.1304159695 1.255409885
-0.3945845068 -0.1541660269 1.158259533
-0.368099552 -0.225015638 1.235912847
-0.3052941489 -0.1470477247 1.236096967
-0.432690231 -0.154779936 1.121687587
-0.4448530419 -0.190980552 1.147324415
-0.3258758127 -0.2331111037 1.245779816
-0.3244467521 -0.1217964744 1.205926363
-0.3778296947 -0.1469062508 1.171969755
-0.2039505486 -0.1360898725 1.27703513
-0.3102145324 -0.2069483542 1.258587214
-0.1766634804 -0.106566115 1.274140864
-0.2932650111 -0.2210903333 1.284578275
-0.3367645374 -0.1893445916 1.245968025
-0.3223819266 -0.08883586536 1.18418563
-0.2948753049 -0.1127455544 1.210707877
-0.2486458328 -0.108895728 1.243591631
-0.3593189557 -0.142349132 1.180690684
-0.2870759694 -0.1445899568 1.246533941
-0.3254100991 -0.1412144146 1.212996526
-0.2187363151 -0.1237638187 1.253607306
-0.331560591 -0.2142211642 1.249664438
-0.3511465518 -0.1535476031 1.198006536
-0.2496988572 -0.1424070415 1.268046184
-0.334506651 -0.1161137134 1.190624744
-0.3999795263 -0.1388115516 1.148196024
-0.3734535784 -0.1123052103 1.173050297
-0.3128239196 -0.2257157672 1.227025221
-0.3713536699 -0.2439645804 1.257159892
-0.3865771935 -0.1679565679 1.19072926
-0.4079154081 -0.1666272855 1.159407417
-0.3188237426 -0.1559535416 1.22145041
-0.3195691187 -0.1938185676 1.22538176
-0.2135078102 -0.107629426 1.260429001
-0.4313760661 -0.1670446946 1.135963932
-0.3483889429 -0.2243476334 1.24751303
-0.3465191825 -0.1099834769 1.167771852
-0.3062843027 -0.2170407998 1.271197687
-0.1873401241 -0.1438958132 1.292739144
-0.2755508812 -0.1025811976 1.220009519
-0.3688520778 -0.1203049074 1.153651975
-0.2689217943 -0.1284710808 1.237796258
-0.3133784227 -0.05187714917 1.169543846
-0.3258320882 -0.2501305519 1.237864735
-0.3817721328 -0.2287256796 1.246368429
-0.2812033406 -0.2084130617 1.29406005
-0.3472204861 -0.1216170532 1.181696498
-0.1923168777 -0.124671424 1.276419475
-0.3440671398 -0.1489352898 1.211001627
-0.2557635097 -0.1296065457 1.246768006
-0.2956369329 -0.1290752221 1.230610715
-0.2123027942 -0.1297718724 1.266140999
-0.3751362972 -0.1621050396 1.178775542
-0.299146825 -0.06136777619 1.16028729
-0.3287559038 -0.1714129757 1.228594227
-0.388247621 -0.160600282 1.169695536
-0.2609507078 -0.1149313361 1.237347075
-0.3113235603 -0.09701137557 1.180075513
-0.3170542471 -0.1341471288 1.203728749
-0.2327204143 -0.1201608475 1.250339747
-0.190758064 -0.1108103567 1.279016853
-0.3086810009 -0.08118017918 1.172213882
-0.4184649278 -0.1670122603 1.148397313
-0.3096351441 -0.1446837392 1.223010605
-0.3080659744 -0.03452578781 1.155686804
-0.3341636235 -0.1329431014 1.20612833
-0.3665905328 -0.234842947 1.245480007
-0.358408016 -0.107178903 1.174110071
-0.2757236634 -0.1513772805 1.242776234
-0.3297772763 -0.1969382736 1.236926776
-0.2950215403 -0.22692466 1.296845082
-0.4062851739 -0.1563078401 1.148303456
-0.3846980914 -0.1200391871 1.173364656
-0.306094123 -0.1131310581 1.200939448
-0.3128366067 -0.1780455619 1.248734006
-0.4321042835 -0.1863754716 1.145726621
-0.3339123 -0.2262590677 1.255411854
-0.3739120606 -0.1351259203 1.166638376
-0.3397902703 -0.2020349454 1.250984715
-0.4433761724 -0.1583013484 1.129004177
-0.3597131103 -0.2126497854 1.238719484
-0.2982839377 -0.0982306091 1.204314939
-0.3120074085 -0.1637600836 1.229547535
-0.3302819004 -0.1021295882 1.184583195
-0.2324965961 -0.1357285723 1.265023197
-0.4120818032 -0.1779498164 1.164125839
-0.180180214 -0.1188301099 1.272334393
-0.3846034732 -0.1406240336 1.159190516
-0.3219904888 -0.1871776489 1.238887449
-0.4121268393 -0.1384928597 1.150090387
-0.3197488316 -0.2337667877 1.235332129
-0.3180871331 -0.07846663319 1.179785268
-0.2737464253 -0.1138749281 1.229102162
-0.3025101679 -0.07286827679 1.166445299
-0.2557714147 -0.1398827552 1.258239192
-0.2925166793 -0.2106572118 1.278619974
-0.3163789743 -0.1174192467 1.197663498
-0.3878408366 -0.2418593217 1.252690421
-0.2859377556 -0.2305519102 1.302721936
-0.209653653 -0.1436091638 1.283339687
-0.3627681473 -0.154242261 1.185350545
-0.3405830824 -0.2298418692 1.266383574
-0.3810197888 -0.2347700281 1.235522207
-0.2986671251 -0.02725856507 1.15835028
-0.3040745377 -0.2184917615 1.282807337
-0.2510753364 -0.1194882715 1.247763147
-0.3117607633 -0.04566843741 1.160703905
-0.3335422271 -0.1625371506 1.232518384
-0.3352703702 -0.2055274767 1.241812532
-0.4368324636 -0.1774046395 1.142456124
-0.4266160051 -0.1561154824 1.13028993
-0.3984729144 -0.1654797045 1.163883533
-0.2275608769 -0.1267230209 1.25846917
-0.2895988033 -0.2063545454 1.287732466
-0.320681669 -0.2171304964 1.23338508
-0.2951077822 -0.1185945422 1.219273329
-0.3889405423 -0.1678753533 1.178200101
-0.3362471735 -0.1101701549 1.182119726
-0.2206408041 -0.1141473029 1.250499551
-0.3117754092 -0.1255223761 1.205515958
-0.2215218624 -0.1336719994 1.268336635
-0.3387735646 -0.1264413824 1.195087134
-0.2862311123 -0.09964701324 1.21235175
-0.2981953799 -0.1398087511 1.237002206
-0.2371229839 -0.1113261545 1.247923274
-0.2853807066 -0.1375542334 1.239452818
-0.2730535376 -0.1414250998 1.241067559
-0.1914304225 -0.1374051265 1.286176244
-0.3259355347 -0.1621714139 1.224838923
-0.3965992581 -0.1477211026 1.151115139
-0.3616849873 -0.114524473 1.168457488
-0.3834954485 -0.1489942962 1.164247763
-0.2100270685 -0.124867421 1.25793191
-0.3763394709 -0.2452211265 1.244466085
-0.4184502194 -0.1732434391 1.155768947
-0.3664715225 -0.1374421831 1.172248613
-0.2769307032 -0.1336328941 1.236847154
-0.3138905763 -0.08759723445 1.177037253
-0.3230385396 -0.2424476834 1.232520018
-0.3603909027 -0.2282321016 1.242658652
-0.3533691501 -0.1494141129 1.189871343
-0.3577236381 -0.1590663474 1.194254237
-0.3184951267 -0.1000691324 1.187541127
-0.3038238472 -0.2084591737 1.268657482
-0.1886297247 -0.1475411831 1.301137429
-0.351137155 -0.1366647576 1.186983357
-0.3303106686 -0.1081322454 1.192364092
-0.3711242682 -0.1498924319 1.177448786
-0.3289087014 -0.2411855993 1.242709433
-0.4476465386 -0.1827791105 1.15023845
-0.3085278792 -0.05490689725 1.162454188
-0.3332174105 -0.1450420063 1.215649294
-0.3168056253 -0.2026000002 1.228050316
-0.4458704629 -0.1767303132 1.13866113
-0.3064149893 -0.105067243 1.196991686
-0.2073514939 -0.1147842608 1.260806776
-0.3677447181 -0.1288631974 1.168233556
-0.3214203345 -0.1103125657 1.19572871
-0.2861681022 -0.1166028247 1.224875143
-0.3238973204 -0.226275321 1.237648686
-0.3002876652 -0.1208758968 1.212501056
-0.4365319435 -0.1620301052 1.12490297
-0.3555067947 -0.2284727337 1.250638227
-0.314074477 -0.1435068564 1.215519354
-0.2340415255 -0.1029521652 1.244433478
-0.3443359934 -0.1415386272 1.198192903
-0.3236143395 -0.212100772 1.239933627
-0.1852053553 -0.1317409906 1.283809978
-0.3420294385 -0.2183515598 1.24749392
-0.3426105274 -0.1049026117 1.173696663
-0.2645453322 -0.09652031276 1.22484215
-0.325577877 -0.1791873446 1.230835845
-0.3051717525 -0.04347741169 1.155529749
-0.2031054679 -0.1313635396 1.26984211
-0.3661880615 -0.1193369213 1.162893446
-0.3725370394 -0.2360611655 1.236280631
-0.2797149003 -0.09530925711 1.218109912
-0.2580962403 -0.1380860933 1.250171502
-0.3416255795 -0.1222978191 1.188143073
-0.349550152 -0.2150834557 1.243814187
-0.3420158299 -0.2282335382 1.256917039
-0.2869830154 -0.2272669864 1.294295384
-0.4208458548 -0.1538570144 1.137077519
-0.2093963173 -0.1446245607 1.293004333
-0.2553527205 -0.10146506 1.233231281
-0.2422246548 -0.1035747641 1.242725565
-0.2540601134 -0.1092959827 1.237243517
-0.2421434386 -0.1396845798 1.265828373
-0.2377567168 -0.1227977241 1.256407668
-0.289553494 -0.1125016259 1.218227796
-0.313643058 -0.1557012894 1.228403084
-0.3502673407 -0.1292626338 1.182772632
-0.3802180875 -0.120862276 1.160026169
-0.3729985461 -0.2225153108 1.242082691
-0.4189644119 -0.1616703694 1.142116703
-0.1938246835 -0.1177782627 1.272149529
-0.325871041 -0.2041656432 1.237532456
-0.3167871177 -0.2362923599 1.227595134
-0.2707382091 -0.1204502767 1.232991113
-0.3213346205 -0.1491498129 1.217634732
-0.3902220407 -0.1428913727 1.153699553
-0.3923951714 -0.1361579847 1.149536611
-0.29918322 -0.1364362119 1.229662935
-0.3104621256 -0.1327225248 1.209065882
-0.3748862532 -0.1303677878 1.158230817
-0.3130130638 -0.06000334594 1.16807874
-0.3870568528 -0.2343354907 1.248808827
-0.3546330515 -0.2093579606 1.246376379
-0.3266349761 -0.2245967517 1.245023492
-0.2960225336 -0.1054616556 1.206962121
-0.3951563577 -0.1678048642 1.171181631
-0.3048818729 -0.1202446951 1.205959455
-0.3554232076 -0.1301869673 1.173906676
-0.3114691946 -0.169746944 1.234811938
-0.2178711343 -0.1386316704 1.273404728
-0.4378622693 -0.1729209451 1.135955754
-0.3332396954 -0.184022997 1.2412167
-0.3413825101 -0.1161577982 1.183085397
-0.3091228416 -0.2131198823 1.263467809
-0.3625396442 -0.2210015944 1.240189304
-0.2469694156 -0.135665407 1.257138936
-0.4429411053 -0.1660259406 1.127384509
-0.43075471 -0.1788361744 1.147475396
-0.3071373842 -0.1024187625 1.189078599
-0.4012147103 -0.161343769 1.157851792
-0.3513421254 -0.2304496236 1.263007086
-0.2822510094 -0.1063299671 1.218663444
-0.4234070814 -0.1729506447 1.147421673
-0.3217420653 -0.168516859 1.226404132
-0.3000683153 -0.129832374 1.224092873
-0.321211962 -0.1292160841 1.208032338
-0.1972354209 -0.1305746816 1.277415315
-0.4257798869 -0.1676495132 1.141239199
-0.3541210461 -0.2238714259 1.241788971
-0.200720822 -0.1120236898 1.269278926
-0.3165790807 -0.06350100556 1.174209879
-0.2985266745 -0.03985448119 1.15448452
-0.308588819 -0.2028920885 1.266543027
-0.2661130636 -0.1134061592 1.231970426
-0.4417856521 -0.1831992323 1.145415495
-0.3154720455 -0.1836035157 1.240405203
-0.3652728097 -0.1470479634 1.18134961
-0.3474866213 -0.115560303 1.17715579
-0.3019347301 -0.03193435149 1.152080158
-0.4131342166 -0.1618818967 1.149987222
-0.3808418591 -0.1549999576 1.167981944
-0.1833617531 -0.1098183736 1.277924743
-0.1987539175 -0.1252632764 1.27232292
-0.3887943972 -0.1485617247 1.158411131
-0.3676108459 -0.2407171709 1.250014244
-0.2810601833 -0.1462242626 1.241824355
-0.1964189822 -0.1423364791 1.288755811
-0.3161346508 -0.138106604 1.210786952
-0.3362954266 -0.2193693529 1.252279561
-0.3899377397 -0.1294496353 1.158243607
-0.3285297151 -0.1140400999 1.196516442
-0.3728060086 -0.1414473422 1.17223329
-0.3303518481 -0.1909705472 1.241189861
-0.3290833558 -0.1268810535 1.208502288
-0.3050525265 -0.1433773698 1.229737461
-0.2022236987 -0.1421419001 1.280822121
-0.2035617327 -0.1243992119 1.264960082
-0.3303220826 -0.1527261529 1.220770104
-0.2500040862 -0.1285836738 1.251181319
-0.2077710569 -0.1416975423 1.274291226
-0.2952087317 -0.1233973742 1.226034873
-0.1836094282 -0.139106431 1.28871159
-0.3290924264 -0.1206641892 1.200442576
-0.3764241943 -0.1548291396 1.176859108
-0.2091037685 -0.1348566011 1.272076797
-0.2785458756 -0.1134987491 1.22367409
-0.2965299064 -0.2173064166 1.279347936
-0.3781410698 -0.2413091261 1.2365842
-0.2567781088 -0.1222742918 1.244326028
-0.3688268651 -0.1595933116 1.185534677
-0.2885587586 -0.2182831412 1.289120491
-0.3831436815 -0.1605979451 1.174651847
-0.3049284572 -0.06460039033 1.162878596
-0.4046881542 -0.1431426824 1.145087768
-0.4391749484 -0.1904653704 1.1515736
-0.2997248227 -0.214335025 1.271441905
-0.3039073604 -0.1370758277 1.220706464
-0.3795793919 -0.1431217586 1.163545763
-0.3529231507 -0.1123527851 1.169673644
-0.4115779196 -0.1553340512 1.14238651
-0.235587315 -0.1307870474 1.261040886
-0.3722324695 -0.1222369366 1.160711831
-0.3382813276 -0.1385864507 1.206937428
-0.3274968046 -0.2167805588 1.244532617
-0.2828347358 -0.2145320651 1.291079776
-0.3548175021 -0.1425140961 1.186422956
-0.3457729459 -0.1278184001 1.190826069
-0.3889954022 -0.1545955239 1.166451586
-0.1869188446 -0.1230877536 1.280335103
-0.4017714182 -0.1501617786 1.147375447
-0.2160855858 -0.1273690806 1.259823706
-0.262018862 -0.1341087939 1.246294533
-0.2890514746 -0.2260311698 1.28658828
-0.3797541629 -0.1359728497 1.160125813
-0.3349604759 -0.1273647512 1.20239455
-0.2674100646 -0.1078297556 1.228390911
-0.3011647287 -0.05130540479 1.15906691
-0.3546667015 -0.2170661171 1.23945702
-0.1965050662 -0.1376735533 1.281739276
-0.3141030361 -0.1754489232 1.242647868
-0.3400483211 -0.1331322076 1.202871272
-0.3115142035 -0.1133676058 1.195417486
-0.3363992068 -0.19782051 1.247014465
-0.4121924919 -0.1729027085 1.158050988
-0.3471691288 -0.2289925446 1.252130658
-0.3645237377 -0.1583058769 1.193317276
-0.2699964875 -0.1001078027 1.223582537
-0.3256852093 -0.1037137623 1.190599861
-0.4072249737 -0.1717896331 1.163493925
-0.3827160168 -0.1651981192 1.179369451
-0.3729309058 -0.2296873971 1.234614298
-0.3313440281 -0.1652880704 1.226842153
-0.3250199406 -0.1814612707 1.236923808
-0.2241635993 -0.1307046228 1.262346097
-0.2640682452 -0.1265767513 1.241690999
-0.3176613585 -0.1190512817 1.203827744
-0.3374228508 -0.1471580976 1.211189229
-0.3519391737 -0.1074296179 1.173791013
-0.3535651233 -0.1183928034 1.171929427
-0.29241626 -0.100098329 1.206874343
-0.3482208559 -0.1466871234 1.19859693
-0.2961675944 -0.2060434171 1.275279499
-0.3288643705 -0.1329175482 1.210614612
-0.3321073109 -0.0968500142 1.181484133
-0.3183086835 -0.169746702 1.231645527
-0.2799068939 -0.2216524618 1.294260743
-0.2808446525 -0.1252272222 1.234315794
-0.22325532 -0.1221706557 1.24949051
-0.3218938951 -0.1941058426 1.231239595
-0.3292236856 -0.1731132524 1.234647895
-0.3861772451 -0.2369610271 1.243152419
-0.3202629774 -0.2252128095 1.232703048
-0.3571555828 -0.1517750507 1.184403795
-0.4108818032 -0.1428519962 1.144990571
-0.4032681349 -0.1724048372 1.173586619
-0.1968767528 -0.1452747804 1.294174308
-0.3440676316 -0.2115479626 1.242831214
-0.4260475692 -0.1827841663 1.149534721
-0.3107087035 -0.1498229139 1.226162792
-0.3324369469 -0.2311760464 1.25870829
-0.3193449209 -0.2016577158 1.233506005
-0.3657136638 -0.2158221492 1.239766164
-0.322586784 -0.1585123783 1.228354334
-0.3342455848 -0.2071187115 1.247580677
-0.2737952682 -0.1081368881 1.221696832
-0.4384447967 -0.1565648034 1.123274032
-0.3296999182 -0.2368843247 1.248471132
-0.3756183692 -0.1239100338 1.156053491
-0.1805606435 -0.1199951781 1.278183139
-0.3635593578 -0.1231280517 1.166672786
-0.4054721899 -0.1604523952 1.152509035
-0.2464936472 -0.1156946418 1.247804238
-0.3160831502 -0.08446266996 1.181588248
-0.3620112792 -0.1351681911 1.175451471
-0.4128093872 -0.1662895229 1.153865339
-0.2939661817 -0.09438221944 1.20509615
-0.3237673053 -0.2358087881 1.239036823
-0.2298967738 -0.1383265941 1.271377559
-0.3515603584 -0.120920153 1.177868754
-0.3161281252 -0.2138213352 1.231932049
-0.2137116063 -0.1401705457 1.28099619
-0.4304744087 -0.1604350581 1.130137609
