# .PCD v0.7 - Point Cloud Data file format
VERSION 0.7
FIELDS x y z
SIZE 4 4 4
TYPE F F F
COUNT 1 1 1
WIDTH 400
HEIGHT 1
VIEWPOINT 0 0 0 1 0 0 0
POINTS 400
DATA ascii
-0.3210804383 -0.0903599029 1.187196563
-0.1894992421 -0.1547107503 1.309326469
-0.3920544397 -0.2309431945 1.242155252
-0.4425884163 -0.1519274868 1.118135451
-0.2886530089 -0.2248446561 1.296643336
-0.2427897669 -0.09685886395 1.242385694
-0.2843288627 -0.01048000696 1.161632511
-0.3240579305 -0.1727506267 1.224381603
-0.3815099808 -0.1429817002 1.170364407
-0.3261222595 -0.2399016333 1.228474521
-0.2771221317 -0.1448907169 1.243294873
-0.2357324223 -0.1452486508 1.278302913
-0.2869927609 -0.06273617851 1.160786902
-0.3415083189 -0.1340236565 1.201545975
-0.3103146454 -0.1940711314 1.266911907
-0.4085613449 -0.1229283467 1.135310333
-0.281611733 -0.08969099767 1.211779866
-0.3646470046 -0.09692574418 1.17245663
-0.2008151641 -0.1159387292 1.276257478
-0.3574564764 -0.2061818263 1.230977783
-0.3019152896 -0.1271760676 1.217970314
-0.4185995304 -0.1610076866 1.144811853
-0.3401869834 -0.2249118397 1.256232549
-0.3157842749 -0.204754606 1.229789951
-0.317472088 -0.2272624639 1.198724992
-0.3930361653 -0.1129711363 1.162619231
-0.1757676097 -0.1305795131 1.291396652
-0.2684134652 -0.1132061817 1.230091499
-0.2257975207 -0.121829494 1.257714608
-0.4237487743 -0.1300204237 1.110434401
-0.3026475181 -0.03972102498 1.170626585
-0.3574600182 -0.1268530487 1.174891392
-0.3121816124 -0.2208761875 1.277909389
-0.341071176 -0.1835880783 1.244567306
-0.3069861187 -0.1492207896 1.234552474
-0.2935869762 -0.08597095854 1.18389017
-0.3875052141 -0.2192817983 1.217359475
-0.2533998695 -0.1301369599 1.24610243
-0.2064356947 -0.1464913105 1.289119012
-0.3108527768 -0.06631702488 1.180001284
-0.3657873922 -0.1441634763 1.19965345
-0.3022457575 -0.1115593376 1.196920534
-0.3650319799 -0.2216899648 1.251997072
-0.292318068 -0.2034933273 1.281055924
-0.3978203318 -0.1426986904 1.151772008
-0.3375439105 -0.09289348879 1.169472421
-0.3190868709 -0.1408654249 1.207799009
-0.335911018 -0.1161510567 1.188810474
-0.2826261984 -0.03524540203 1.177554199
-0.3329642508 -0.1538627 1.229552118
-0.2163680633 -0.1363853825 1.273094137
-0.3695733439 -0.1189039964 1.159228881
-0.2841444725 -0.1261567045 1.235027986
-0.3375943535 -0.2074533057 1.23734501
-0.4236915181 -0.1395623893 1.128763792
-0.1859987042 -0.1487595267 1.287328782
-0.3776091902 -0.2117897106 1.239164021
-0.3188230831 -0.1968836644 1.211164683
-0.3896817492 -0.1207554938 1.144551298
-0.3252395225 -0.2227034966 1.218447041
-0.4428286708 -0.1709068314 1.122785115
-0.2676418084 -0.09281403562 1.224851625
-0.3826094687 -0.1497215008 1.191938779
-0.2838116943 -0.1106547526 1.219353177
-0.3185362458 -0.1193650659 1.201609003
-0.3494151186 -0.1076100692 1.172637555
-0.2276179863 -0.1037921282 1.253665785
-0.2635718442 -0.1405754764 1.256567788
-0.2493911299 -0.1411910059 1.267844378
-0.1989898198 -0.1339023165 1.274179518
-0.3148730827 -0.2064958269 1.255504708
-0.3263319347 -0.1913489533 1.227228883
-0.3130937083 -0.1538144133 1.219145678
-0.356644458 -0.1402243483 1.185643686
-0.2863027976 -0.03448599402 1.161030609
-0.2145326517 -0.1128763566 1.266554758
-0.2972639499 -0.05842452589 1.173342412
-0.1878623602 -0.1189601437 1.286450687
-0.293878299 -0.09730373362 1.198964442
-0.3786442278 -0.1060178438 1.167295612
-0.2379159772 -0.1324163534 1.254325066
-0.2416697264 -0.1130296666 1.245064193
-0.3930376435 -0.2145153729 1.23445339
-0.2939526367 -0.1383409146 1.239667772
-0.3552619415 -0.1948800046 1.242498179
-0.3206324741 -0.2379886931 1.210529733
-0.2542987533 -0.1080904642 1.235743503
-0.3757136191 -0.2308456531 1.244365938
-0.350297632 -0.147239153 1.198915532
-0.3802144135 -0.1304471698 1.158742363
-0.4131387125 -0.1490986383 1.136582224
-0.2213677083 -0.1495707082 1.286543141
-0.33546299 -0.1448708496 1.217404329
-0.4319054521 -0.1621807254 1.128358647
-0.3347988461 -0.1028141511 1.18208817
-0.2986194838 -0.2250663386 1.285626235
-0.2861549625 -0.2171171624 1.284201825
-0.436989622 -0.1384154904 1.120552826
-0.2869893415 -0.04872489075 1.181913826
-0.3695615692 -0.1381090385 1.177637162
-0.3325516793 -0.2235097188 1.231270094
-0.2977858933 -0.02666183204 1.165553506
-0.2644651355 -0.1269837372 1.237104041
-0.298674012 -0.2148131197 1.274362817
-0.295302887 -0.1095886648 1.210707226
-0.2993412414 -0.07261390018 1.172952852
-0.3077126368 -0.08438115383 1.181981486
-0.3339119932 -0.1737286973 1.234749145
-0.397932243 -0.1547340477 1.159399653
-0.4029223985 -0.1349586292 1.141129965
-0.3466790298 -0.2142174685 1.245587556
-0.3044827957 -0.2067060099 1.264582645
-0.2925663227 -0.0476411822 1.165524409
-0.3084460929 -0.09484949511 1.190702002
-0.3447117804 -0.1221419145 1.18086769
-0.3354197757 -0.1944503711 1.238614878
-0.3963378271 -0.2259737411 1.228691281
-0.2012094794 -0.1510199625 1.300251847
-0.3091871178 -0.1281615605 1.207186758
-0.1738945841 -0.117696145 1.291690038
-0.3248718141 -0.1035617838 1.190387378
-0.3086682394 -0.1412744215 1.224465656
-0.3582204969 -0.2162485213 1.239052834
-0.2277655731 -0.1402032568 1.268415652
-0.2552845067 -0.09552788618 1.233478948
-0.3781698037 -0.1139864322 1.151193473
-0.3652546534 -0.1070029101 1.159202395
-0.4184582114 -0.1287475612 1.126055789
-0.3261234904 -0.211242733 1.228684102
-0.3160808433 -0.2156596314 1.267678331
-0.1873703948 -0.130244843 1.28221848
-0.3856506118 -0.2291400663 1.224132884
-0.4282891479 -0.1523385472 1.134274347
-0.3463874983 -0.196951208 1.234564454
-0.3344125631 -0.0875640597 1.179630506
-0.3930608538 -0.1317780183 1.146748383
-0.3697086228 -0.2198415441 1.2363292
-0.2863448648 -0.02314459892 1.163486671
-0.4297985059 -0.1628953341 1.142498097
-0.3127296845 -0.1075529006 1.194370586
-0.330977985 -0.1358208306 1.211966127
-0.3601014063 -0.1213438093 1.165264186
-0.3164929541 -0.1613997294 1.226944462
-0.3502576493 -0.2206321405 1.259005207
-0.3227672691 -0.1292178507 1.20492006
-0.2799925167 -0.1176232902 1.227168427
-0.2830713672 -0.1371720163 1.233851397
-0.2828784078 -0.1479303024 1.25229254
-0.2916503395 -0.08700571025 1.195466548
-0.2116082406 -0.1234007334 1.268506239
-0.1928347399 -0.1402834921 1.285729399
-0.3782338691 -0.1458084802 1.182767117
-0.3166423577 -0.07824048559 1.182227004
-0.3983152222 -0.1255911082 1.138236419
-0.2990356204 -0.2278648745 1.296648254
-0.323067113 -0.151503119 1.215751653
-0.3403666915 -0.1110080983 1.177829335
-0.2412422173 -0.1072407093 1.236038163
-0.4088633394 -0.1571265288 1.142545687
-0.3606579528 -0.1480301296 1.208097438
-0.3054243777 -0.05241621399 1.1759527
-0.2523402747 -0.1393149583 1.258009593
-0.1951846531 -0.1247031974 1.2769926
-0.2880519926 -0.08423370762 1.204713821
-0.3547179037 -0.09508795653 1.170898954
-0.357272432 -0.1118519216 1.167804958
-0.2779750171 -0.0975010325 1.217139188
-0.3089110486 -0.1183658368 1.204363636
-0.4468247457 -0.1602790726 1.121804169
-0.2742158353 -0.1258351619 1.23395186
-0.2751887029 -0.1061897636 1.221470349
-0.3221974695 -0.1112548349 1.197223629
-0.2017778267 -0.1399999066 1.281481568
-0.2408955058 -0.1396205226 1.26301184
-0.3408233312 -0.1281262426 1.193737398
-0.3659043713 -0.1423320106 1.188081678
-0.3376562965 -0.2179644302 1.245579233
-0.1963052676 -0.1464779028 1.293140496
-0.3482071241 -0.1410632548 1.190394973
-0.2579721499 -0.1163787066 1.232262787
-0.3283526312 -0.1623926677 1.230036616
-0.3202508767 -0.222767219 1.20684622
-0.2928247155 -0.01510166782 1.161257871
-0.3682717529 -0.1269000438 1.164515888
-0.3005885979 -0.08971369664 1.178464673
-0.3110801141 -0.1408640715 1.215216865
-0.2227377139 -0.1463084965 1.277666168
-0.3835980748 -0.2129987374 1.231849607
-0.3315909909 -0.182943587 1.234880857
-0.2223563246 -0.128865748 1.26307642
-0.2918764834 -0.1155434658 1.220367554
-0.2298050482 -0.1129946909 1.253059053
-0.3551315653 -0.218276943 1.247751489
-0.3070456981 -0.2183685712 1.268210131
-0.3176533774 -0.09822430239 1.19323939
-0.2082611092 -0.1317300572 1.2720219
-0.2707923306 -0.1336882144 1.238930529
-0.2962128553 -0.08132632184 1.174507493
-0.3897578721 -0.1417471692 1.166238509
-0.2320128737 -0.122712024 1.250857174
-0.3770023145 -0.2255330951 1.235470878
-0.2904282315 -0.09519140974 1.207261962
-0.3219999302 -0.1816290009 1.225688083
-0.3171402777 -0.2012314114 1.221412596
-0.2861605487 -0.1029057068 1.215039826
-0.3880342775 -0.1352065453 1.15841386
-0.3304513772 -0.115597494 1.196095452
-0.2934755401 -0.1338255174 1.231863285
-0.2876463023 -0.2087605047 1.287232258
-0.299643351 -0.1164270178 1.206892836
-0.3133163835 -0.1561513421 1.233443564
-0.303175845 -0.1388530484 1.231053109
-0.3489627714 -0.09998230918 1.166224575
-0.384683517 -0.2297541017 1.236751597
-0.2979256137 -0.09933708877 1.191354257
-0.288096874 -0.1219149576 1.228360321
-0.4105224106 -0.1303371452 1.130926315
-0.3593728166 -0.1455142576 1.192993866
-0.2477626424 -0.1240454369 1.248928262
-0.3934536406 -0.2183473149 1.225477488
-0.3637653352 -0.2029075811 1.236030189
-0.4217405203 -0.1467439509 1.135487624
-0.3510533018 -0.1280107462 1.181381023
-0.3598673997 -0.1331463098 1.181895999
-0.3626120415 -0.102060048 1.165826953
-0.3302298454 -0.2359954409 1.221990533
-0.3736156215 -0.1387489439 1.170088754
-0.4299346964 -0.1340600011 1.118560147
-0.3056866292 -0.07762945071 1.17563034
-0.2887623571 -0.05710962514 1.16693086
-0.2321947879 -0.1333134956 1.260508957
-0.3356162248 -0.127987481 1.200868377
-0.2359203849 -0.1068569052 1.245411298
-0.2931816846 -0.06794328891 1.169586441
-0.2842342735 -0.01912730075 1.156409253
-0.3946620988 -0.1176844017 1.15054979
-0.2658569976 -0.1386197911 1.248747791
-0.2970624947 -0.1269577829 1.224787749
-0.2532008919 -0.1164397021 1.239132652
-0.3056525495 -0.1339202874 1.221174236
-0.3291470259 -0.096711202 1.181959608
-0.2648766323 -0.1003615239 1.226978253
-0.3278066429 -0.1230108329 1.202651055
-0.433710593 -0.1542493148 1.126801009
-0.3820883547 -0.1249865885 1.152805364
-0.408217116 -0.1412693907 1.140717944
-0.404250351 -0.1477990616 1.152563772
-0.300155166 -0.09295955457 1.186663694
-0.3339271662 -0.2172609684 1.238306033
-0.2885316062 -0.04462498134 1.171998774
-0.3242523721 -0.1624591071 1.222938263
-0.2984111904 -0.04951156461 1.170940305
-0.3822599617 -0.2214952724 1.223189266
-0.3554478455 -0.1990198505 1.234280209
-0.2934729582 -0.03781503623 1.162833613
-0.3119514128 -0.2040936799 1.262897249
-0.4351261996 -0.1461621593 1.121830796
-0.2606466992 -0.1086074977 1.230843435
-0.3879990889 -0.1485146105 1.170189278
-0.3293799355 -0.1522608104 1.220644539
-0.1764962651 -0.124359999 1.286381905
-0.444240651 -0.1662032998 1.129114293
-0.2918797674 -0.2129746578 1.280448387
-0.3914692807 -0.225894988 1.219715733
-0.2196452475 -0.1171535309 1.259714567
-0.3426852432 -0.1033748929 1.172024042
-0.3511289041 -0.1157897961 1.170985506
-0.3282893919 -0.1431005372 1.213719377
-0.2367173415 -0.142278662 1.269201727
-0.3422236807 -0.1993805116 1.240830276
-0.2049831522 -0.1193012947 1.269479022
-0.2460419186 -0.1307444839 1.252614265
-0.3733063666 -0.110760344 1.156417144
-0.2130185116 -0.1416842114 1.27776947
-0.3619996113 -0.114848976 1.161357137
-0.2597487095 -0.1216292175 1.240249571
-0.3854976466 -0.1163148028 1.150113555
-0.3267970604 -0.08734781177 1.180915105
-0.4161271992 -0.1244213534 1.134992918
-0.3291834113 -0.2265942748 1.225048978
-0.2346835551 -0.115752801 1.246867549
-0.3496373604 -0.211683605 1.238939031
-0.3883910063 -0.1301304733 1.152649686
-0.3319472044 -0.1092958414 1.191967199
-0.301300343 -0.2079274636 1.271458686
-0.3153351601 -0.1476890797 1.215110066
-0.2952286264 -0.1048401955 1.198879905
-0.3352915024 -0.1215247043 1.195849141
-0.3034193395 -0.2206794525 1.275622692
-0.3348319131 -0.1651617389 1.232993074
-0.3454285625 -0.1924405806 1.240630985
-0.3640806966 -0.1308742055 1.175988446
-0.3308805913 -0.2066024758 1.233910008
-0.1815012334 -0.1355236144 1.291046425
-0.4322143708 -0.1654862474 1.121545666
-0.3254900851 -0.2307776313 1.21922172
-0.1796663735 -0.117495046 1.286564563
-0.4137151052 -0.1424412012 1.133109811
-0.3185760103 -0.2169778374 1.277212331
-0.2120607294 -0.1454691969 1.284265271
-0.3225426941 -0.2055862002 1.225313821
-0.3752167814 -0.1326005329 1.163893592
-0.2707295465 -0.1050126017 1.227406103
-0.3459099353 -0.1158882326 1.176340214
-0.3949820496 -0.1445613796 1.158433937
-0.4283461218 -0.1410997297 1.123126618
-0.3099769408 -0.1508684435 1.225261138
-0.3035138798 -0.1041372575 1.192568445
-0.2212826883 -0.1361008865 1.267520687
-0.339735361 -0.2105870145 1.243725594
-0.3368728198 -0.1866408863 1.239272329
-0.3289232199 -0.1772417498 1.227705762
-0.2732090306 -0.1444441203 1.249548925
-0.3527202702 -0.1216025325 1.177017174
-0.319957485 -0.230040621 1.205673625
-0.3101454254 -0.134532299 1.210685525
-0.2994655873 -0.1207609853 1.215432377
-0.3402474327 -0.1219479337 1.189797942
-0.4401340449 -0.1595712233 1.12464248
-0.1883145004 -0.1419033485 1.291212165
-0.3922739427 -0.1384101001 1.149889048
-0.2984463103 -0.04270972695 1.164820692
-0.2647189146 -0.1331581548 1.244125972
-0.1937048828 -0.1528520536 1.295393694
-0.3332831595 -0.1983711452 1.232956069
-0.2493016235 -0.1030844355 1.234460769
-0.3427749622 -0.2186615878 1.250574587
-0.4335555315 -0.1399467985 1.114430897
-0.2532338106 -0.1234587179 1.243536333
-0.4097632689 -0.1502881061 1.144442911
-0.314045585 -0.1973736646 1.261669094
-0.2070007298 -0.148188693 1.297228546
-0.3413944373 -0.139101144 1.206530488
-0.2838421824 -0.2172067555 1.290928948
-0.3763728501 -0.1208127079 1.152051422
-0.3160154982 -0.1348144734 1.205709317
-0.3239113892 -0.239129777 1.221292815
-0.2171455525 -0.12425466 1.264176621
-0.3455748318 -0.1418049462 1.196871209
-0.3151455791 -0.1275045175 1.203523133
-0.2554620761 -0.1040751643 1.229505508
-0.418974841 -0.152560939 1.13826405
-0.3604473636 -0.2100847857 1.236632517
-0.3258373283 -0.1969409891 1.223081228
-0.3091258607 -0.2122632457 1.265546573
-0.2942632672 -0.03036439241 1.160805587
-0.4051300587 -0.128845752 1.136474604
-0.3056649599 -0.1987247428 1.269078673
-0.284342307 -0.04088800434 1.162620444
-0.2469714323 -0.1106642287 1.237696406
-0.3840626492 -0.1494334043 1.182401205
-0.3337714321 -0.13235899 1.206746055
-0.238128212 -0.1256596615 1.25178172
-0.2754764682 -0.1192411741 1.232024849
-0.4052379792 -0.1419010531 1.149289088
-0.3563335068 -0.1205311452 1.17134598
-0.3530229059 -0.1458571203 1.190008709
-0.2414359969 -0.1193615037 1.247500706
-0.3841900546 -0.1378759699 1.166082276
-0.3655570599 -0.1374309161 1.183055905
-0.4263766389 -0.1578271441 1.139599856
-0.3344908775 -0.09796125666 1.172737356
-0.3011642487 -0.06620887806 1.171838191
-0.2001429925 -0.12748067 1.272487744
-0.2745868313 -0.1137338894 1.22616384
-0.3298526382 -0.2132977773 1.233900486
-0.3188602274 -0.1691411593 1.222105697
-0.3240088566 -0.1467765018 1.210069472
-0.3372573461 -0.1782615918 1.2384092
-0.3272279348 -0.2176550275 1.227014021
-0.3468084811 -0.09443470147 1.169334924
-0.317473426 -0.2109311753 1.231750649
-0.1865287996 -0.148994702 1.294000055
-0.2721755331 -0.09290423248 1.219943169
-0.3223790126 -0.2321464606 1.2132601
-0.2656294297 -0.121257734 1.233887585
-0.2053822111 -0.1382053051 1.276167222
-0.1989624551 -0.1448747499 1.287244156
-0.3208274636 -0.1889230196 1.230067951
-0.4240288751 -0.1310392912 1.118258718
-0.1940166156 -0.135218512 1.281657256
-0.2794039657 -0.1250260818 1.229954559
-0.352694095 -0.2059446684 1.235533912
-0.4161136566 -0.1346082499 1.127960049
-0.1823977508 -0.1272524745 1.286006405
-0.3030530965 -0.06092314109 1.175267436
-0.3257420522 -0.1684135874 1.230044879
-0.4156003036 -0.1552455925 1.143969628
-0.2910226491 -0.1031822653 1.210674785
-0.4026896227 -0.1539616016 1.154989688
-0.3090811038 -0.1153095 1.198629004
-0.3195398855 -0.1583472507 1.221205578
-0.3957574814 -0.1310853842 1.140891917
-0.2602924189 -0.1286280821 1.242773151
-0.3208537354 -0.2138698636 1.226013361
-0.2305674495 -0.1479417869 1.281105636
-0.2344979134 -0.1279133955 1.257867932
-0.3565583332 -0.09987071433 1.167097947
-0.3349057387 -0.108371239 1.185206164
-0.3875178201 -0.2156975504 1.2226198
