# .PCD v0.7 - Point Cloud Data file format
VERSION 0.7
FIELDS x y z
SIZE 4 4 4
TYPE F F F
COUNT 1 1 1
WIDTH 400
HEIGHT 1
VIEWPOINT 0 0 0 1 0 0 0
POINTS 400
DATA ascii
-0.2933932864 -0.2158354303 1.288344988
-0.319773858 -0.02577532811 1.13877439
-0.4523486905 -0.1979079673 1.146255116
-0.1869589898 -0.1035268265 1.271880319
-0.3486370524 -0.1472877128 1.196855071
-0.3820510541 -0.246644525 1.258909744
-0.2699569042 -0.1006396705 1.221382632
-0.321493181 -0.0877633709 1.172001545
-0.3174016594 -0.2539846709 1.234685761
-0.4054149898 -0.1506004125 1.155042326
-0.3146000539 -0.1805268002 1.239254791
-0.2465320644 -0.136068763 1.263432538
-0.3061241274 -0.132923622 1.219931908
-0.3377249962 -0.22999892 1.271370709
-0.3862302162 -0.1771477255 1.192753472
-0.1897438711 -0.1415419563 1.299053273
-0.2307453578 -0.09883313899 1.241560543
-0.3751609618 -0.1225894574 1.171696256
-0.416953192 -0.1883563049 1.166926166
-0.2841754166 -0.1466580264 1.247651176
-0.332478742 -0.1146844596 1.193857346
-0.3008876048 -0.1000409965 1.203164228
-0.3139468442 -0.2188183441 1.239165455
-0.2122407172 -0.1301965992 1.269190992
-0.3194083549 -0.0566304472 1.152460968
-0.4292662133 -0.1688715808 1.141565428
-0.3378266223 -0.2029577898 1.255254306
-0.3373996749 -0.1580543741 1.224090674
-0.3787107191 -0.1533811736 1.172358202
-0.254869475 -0.1198922501 1.240516471
-0.3602400454 -0.2297760328 1.253531235
-0.3604667707 -0.1727329788 1.201191199
-0.2707897653 -0.2138184395 1.303017521
-0.2038149331 -0.1095390871 1.252670818
-0.3075694718 -0.1536036416 1.23962923
-0.2830147688 -0.1267045758 1.228068606
-0.3032679011 -0.2064428982 1.267086915
-0.3278482412 -0.1385151819 1.206741101
-0.352126269 -0.1175993071 1.177873249
-0.1856151045 -0.1261031063 1.281414761
-0.3104958733 -0.06156508372 1.17312537
-0.2330783233 -0.1205429367 1.253041736
-0.4005163531 -0.1732058482 1.168031199
-0.3229114624 -0.2309485965 1.255593527
-0.4320811525 -0.2021768218 1.160954292
-0.4483926957 -0.177117699 1.14028995
-0.3152141656 -0.10564772 1.186443471
-0.3650273714 -0.156425283 1.188043209
-0.3102716666 -0.1237473214 1.20194034
-0.3175085271 -0.1543151986 1.221112072
-0.3168536943 -0.2000040665 1.231777748
-0.3902497424 -0.1347812019 1.16605656
-0.3363646558 -0.09819853326 1.180783095
-0.2646190256 -0.1361044553 1.247208342
-0.4103760804 -0.1711324246 1.151127631
-0.3122470591 -0.07445490822 1.156026251
-0.3606561894 -0.2432115135 1.267564932
-0.329355068 -0.07128261036 1.165855688
-0.3647255305 -0.1374450724 1.177828309
-0.3480084948 -0.2166549596 1.247080304
-0.3068762015 -0.2044734606 1.248808678
-0.2830384226 -0.09167680489 1.211816159
-0.3320004689 -0.1802327227 1.245435366
-0.3124170817 -0.04165844459 1.144099653
-0.3664720776 -0.2468278156 1.2496456
-0.3097471193 -0.2333895648 1.230038556
-0.2884563461 -0.1120180922 1.220110016
-0.2551103983 -0.1016750746 1.230615618
-0.4303988553 -0.1851086849 1.147408964
-0.1971692347 -0.1242209306 1.263372883
-0.2322718883 -0.133241316 1.272495489
-0.3275465721 -0.1704052128 1.230287558
-0.2016238771 -0.1358684039 1.288412418
-0.280585164 -0.2054447458 1.292143265
-0.3907981617 -0.1567615974 1.160357227
-0.3999805509 -0.1806825496 1.182352298
-0.1797187349 -0.1135333496 1.289632665
-0.3353119981 -0.2180355925 1.260847631
-0.3406677576 -0.1283762742 1.192856444
-0.2944566813 -0.1358512762 1.233728476
-0.2097154325 -0.09729798076 1.260417023
-0.2214508794 -0.1086104717 1.249202059
-0.3143648046 -0.1664145908 1.245546834
-0.3837667189 -0.1662008558 1.179329508
-0.2674501325 -0.1200167473 1.231693944
-0.3242773033 -0.2112643948 1.247630078
-0.3229933554 -0.2345226361 1.270494268
-0.3505772333 -0.1633131229 1.207598912
-0.3757456459 -0.2352233601 1.248599109
-0.4467131767 -0.2071974666 1.156377196
-0.313273842 -0.102132242 1.172340066
-0.2203434797 -0.1191946487 1.260117521
-0.3420884728 -0.152256838 1.211512291
-0.2460013263 -0.125447002 1.249989615
-0.3528745566 -0.1376679547 1.187492977
-0.2427020716 -0.1133065631 1.24284795
-0.3016040189 -0.1193854357 1.211988137
-0.2869564952 -0.220269573 1.299699743
-0.4176261729 -0.1609486115 1.145374915
-0.244578005 -0.09607665017 1.237471508
-0.3473821177 -0.2252670249 1.257675838
-0.3708527724 -0.1679166844 1.193955615
-0.2797866569 -0.1371133502 1.239169935
-0.3244246913 -0.1896854873 1.239886198
-0.3776728119 -0.1386432465 1.165308305
-0.3267430035 -0.1630302534 1.217895858
-0.3143301326 -0.1405535989 1.213175715
-0.3089831682 -0.1115468287 1.197512
-0.3421374193 -0.1098228159 1.18072608
-0.2584733967 -0.1377803751 1.258513347
-0.3309359356 -0.1918027295 1.250776959
-0.3088950699 -0.1457164241 1.224934629
-0.4419731515 -0.1926112744 1.141700785
-0.1954486043 -0.132382654 1.277002789
-0.3286544597 -0.1502300069 1.21794529
-0.3620821442 -0.1266528478 1.172605594
-0.35364014 -0.2322852272 1.2655597
-0.3243638143 -0.09708954752 1.182326971
-0.1895002475 -0.1101450959 1.262095737
-0.3203088873 -0.1165507123 1.186057282
-0.2944520822 -0.2059081632 1.27523403
-0.4383730782 -0.1813189002 1.135732457
-0.3135403714 -0.2435927351 1.23848499
-0.2202262724 -0.09758458935 1.25286625
-0.2997097528 -0.08944003525 1.19845434
-0.4013555261 -0.1651981506 1.155517747
-0.1856447357 -0.1149608092 1.273559158
-0.3570857941 -0.1623244295 1.197259704
-0.3177128587 -0.2325884226 1.24536648
-0.3561184717 -0.2181888862 1.255034647
-0.3244073435 -0.1289062161 1.201585903
-0.2744159357 -0.1416185269 1.250545831
-0.3999906465 -0.1405726018 1.166228917
-0.3002399251 -0.145072813 1.23895266
-0.3895988128 -0.1458021421 1.162073732
-0.3466732556 -0.1610601069 1.218766035
-0.3270537997 -0.05918086791 1.160092514
-0.4115878688 -0.177181539 1.160344454
-0.3213593776 -0.03540940137 1.145527631
-0.2884069409 -0.203101923 1.283809594
-0.2826486438 -0.2160340433 1.29074997
-0.310471399 -0.1554524382 1.229472977
-0.3154709624 -0.1634104881 1.235329242
-0.3152067556 -0.2069457712 1.242586425
-0.1893917953 -0.1360791533 1.289882002
-0.3384428119 -0.1372139888 1.206647105
-0.4122038641 -0.1895787926 1.17619824
-0.3817211102 -0.1318591529 1.158494085
-0.3625703431 -0.1458693636 1.183544139
-0.3616061509 -0.2407019286 1.256504626
-0.3255871244 -0.2211841196 1.253517596
-0.4074090041 -0.1617228921 1.146161049
-0.2732698632 -0.1139869735 1.225801529
-0.2909192984 -0.09496215381 1.206199848
-0.2389546491 -0.1295713927 1.261488067
-0.3950025699 -0.1724819926 1.176544306
-0.3214418247 -0.2405058018 1.250541566
-0.3507163356 -0.1278261455 1.187345773
-0.364230939 -0.1183033025 1.177810542
-0.2068057476 -0.1219500819 1.2620239
-0.2125489297 -0.1144202075 1.256327201
-0.3705422554 -0.1690594068 1.203763344
-0.2852950696 -0.1012145549 1.212510468
-0.3751456117 -0.1648808766 1.183849584
-0.3107259676 -0.06213350351 1.163348216
-0.3324929872 -0.2133791192 1.252512891
-0.2165045421 -0.1336777996 1.277272133
-0.2344196465 -0.1078810689 1.242018901
-0.2239498738 -0.1299590777 1.268644021
-0.3233271757 -0.1782835439 1.234136525
-0.378545507 -0.2444756939 1.249473667
-0.2719571002 -0.131751724 1.237143488
-0.2619121085 -0.09541857572 1.227778216
-0.4234673126 -0.1950103826 1.169337843
-0.3212275728 -0.1642599915 1.226543212
-0.3387434166 -0.1173235262 1.185570328
-0.3895354126 -0.1606717271 1.168962142
-0.4422528532 -0.1972475277 1.150022686
-0.423214798 -0.1835631499 1.153425229
-0.2533956092 -0.1312851886 1.251110654
-0.4214895288 -0.1719113499 1.146048905
-0.301336377 -0.1247970267 1.220797045
-0.3477220244 -0.1542426274 1.20320457
-0.3269155361 -0.2293424542 1.277288589
-0.2933636843 -0.1064167334 1.214479823
-0.3772401274 -0.1745741904 1.195346982
-0.4062553472 -0.1798415036 1.171074751
-0.3237364958 -0.04859597206 1.15082465
-0.2917456923 -0.1238517854 1.227082093
-0.3288359516 -0.08925322464 1.180384454
-0.3227469317 -0.2381904348 1.262059571
-0.3083837114 -0.2251533059 1.226207573
-0.2567992824 -0.1139248438 1.233825823
-0.3732172862 -0.1534532736 1.179687917
-0.3253667603 -0.08008944681 1.168910938
-0.3277687175 -0.111370162 1.185159747
-0.3329612893 -0.1662585847 1.236341807
-0.3129474251 -0.1755599236 1.246702919
-0.4128712681 -0.1562327487 1.151441293
-0.2995261936 -0.1302091864 1.228883933
-0.4146991389 -0.1854523595 1.158647175
-0.1926102756 -0.1221731158 1.270841673
-0.3286207054 -0.2038668262 1.24507412
-0.2663977438 -0.1082093437 1.22453354
-0.3181384486 -0.0774102777 1.161893453
-0.4169782529 -0.1773397841 1.153304706
-0.2767001787 -0.1061042092 1.222835923
-0.3229343539 -0.1983398719 1.240314146
-0.1990826892 -0.1177532994 1.257740186
-0.312507755 -0.05241789541 1.149111576
-0.2803700655 -0.1179251582 1.229063678
-0.3233979607 -0.06823824086 1.160223522
-0.3164295704 -0.1719013756 1.237115498
-0.3079736637 -0.2423912973 1.231883558
-0.3435306979 -0.1187649601 1.177205506
-0.3055794327 -0.1372572714 1.227437301
-0.3719685592 -0.1392135333 1.17338706
-0.3294913302 -0.2285919284 1.26905437
-0.3205004496 -0.1086709206 1.180337251
-0.3140632266 -0.1313714265 1.200640741
-0.3213370792 -0.1466650078 1.215171245
-0.3419218233 -0.2186913048 1.255388782
-0.4323067172 -0.1780613399 1.142895778
-0.2887489953 -0.142125316 1.241988216
-0.312900467 -0.11463174 1.189647679
-0.3143880344 -0.2336261762 1.237097175
-0.3731329561 -0.2312582775 1.255571112
-0.2949298509 -0.2204093844 1.295261765
-0.2460548205 -0.1070211306 1.238366179
-0.2607876565 -0.1258390302 1.241175753
-0.2091390885 -0.1032119808 1.254172372
-0.3155999838 -0.06351634193 1.156657074
-0.3992991261 -0.1452718883 1.157062226
-0.2898281164 -0.2117548524 1.279006096
-0.2753056203 -0.2202514124 1.30019048
-0.3468584322 -0.1349936789 1.192596227
-0.2859863296 -0.1374655676 1.233663338
-0.3294379691 -0.1214306638 1.197563662
-0.3371078837 -0.1448341669 1.209452249
-0.296536345 -0.1184206358 1.218869598
-0.2277347659 -0.1136110987 1.250746693
-0.1992398196 -0.1265186987 1.272703554
-0.4392659943 -0.2027633172 1.155191004
-0.3723623089 -0.1327910816 1.168447699
-0.2455958309 -0.1315328263 1.255253998
-0.3052576083 -0.1064666219 1.205235902
-0.3527561905 -0.2251415399 1.251697916
-0.1955372402 -0.1405852281 1.293564206
-0.3173107467 -0.1924240927 1.237478498
-0.3851984648 -0.1546548169 1.166001443
-0.3283154244 -0.2218621173 1.261210204
-0.4199146107 -0.1912771758 1.175854001
-0.3430009064 -0.1477289023 1.205111942
-0.2766256058 -0.1260917789 1.23256943
-0.4493665757 -0.1900337595 1.141998302
-0.3207739499 -0.1354516133 1.203890117
-0.2079485639 -0.1319034906 1.275467562
-0.3353989726 -0.1268476753 1.198367915
-0.3749578245 -0.1463631755 1.172825768
-0.3632431537 -0.2351892632 1.248859526
-0.3540783527 -0.1507428817 1.192595524
-0.3184430458 -0.0944515483 1.174302901
-0.4262485648 -0.1775193633 1.148331908
-0.3783164919 -0.1592133848 1.179468469
-0.2270785687 -0.1246715643 1.264020074
-0.2784197083 -0.1478024222 1.252623659
-0.4058683439 -0.1843249086 1.177261992
-0.4284302734 -0.1955281063 1.160062651
-0.3197984359 -0.2477683249 1.239476728
-0.3702230594 -0.2401464755 1.246986986
-0.344467602 -0.1419528384 1.200226999
-0.3898126518 -0.1770689313 1.186093098
-0.374581148 -0.2507980029 1.250585968
-0.3028242338 -0.1135080971 1.207452146
-0.2850396811 -0.210604473 1.286126383
-0.2605638528 -0.1068099808 1.229990945
-0.2620170408 -0.1152522312 1.228598682
-0.3937864981 -0.1667997142 1.168181693
-0.3644443738 -0.1610630707 1.196578562
-0.2609314483 -0.1199758142 1.236175783
-0.3091094248 -0.1399559406 1.220212351
-0.2512565812 -0.1079703354 1.233132552
-0.3887322872 -0.1664412563 1.173601397
-0.2787496326 -0.1421657511 1.244470117
-0.332010837 -0.1440589818 1.215759095
-0.239395767 -0.1011148824 1.23883326
-0.3823290075 -0.1711687521 1.184482961
-0.3807523311 -0.1488674618 1.166192341
-0.2822116637 -0.1099054684 1.225713578
-0.3316545394 -0.199022162 1.251284184
-0.3552005624 -0.1304999827 1.182319311
-0.342336548 -0.2131396462 1.249907026
-0.3524221699 -0.156569661 1.196547778
-0.3162020825 -0.1244507491 1.197860545
-0.3835663123 -0.1415313477 1.162288587
-0.3129437277 -0.2135980708 1.244182015
-0.3080487836 -0.2489127516 1.234925496
-0.181282118 -0.1201935632 1.287435577
-0.2260815721 -0.1195195841 1.255823543
-0.3188199019 -0.2225998739 1.242822258
-0.3994267075 -0.1680490654 1.163176169
-0.3101518682 -0.1298908438 1.206448718
-0.2973903418 -0.2105837425 1.285594314
-0.2861984006 -0.1198770958 1.224982429
-0.1837539036 -0.1321778418 1.287893025
-0.4438876134 -0.1848890531 1.138503691
-0.3506468993 -0.1445349632 1.190603557
-0.4347347888 -0.1903724982 1.149421524
-0.3470712703 -0.1047687833 1.181512246
-0.333191718 -0.1329730611 1.204432937
-0.3696867103 -0.1628077968 1.189174963
-0.1904879679 -0.1287537767 1.273467178
-0.2015927163 -0.1352847759 1.279008557
-0.3216896789 -0.1185170439 1.192692757
-0.3193114974 -0.2112144916 1.238758043
-0.2670092258 -0.1271557527 1.235131885
-0.2583199202 -0.1307647019 1.245559166
-0.395697707 -0.161747421 1.161155015
-0.3599442038 -0.1320317393 1.176591249
-0.4132083433 -0.1663073746 1.146418362
-0.1912751843 -0.1339165834 1.283494419
-0.331380364 -0.1746567946 1.234316169
-0.359222901 -0.1516758438 1.185562834
-0.4046472917 -0.1597604136 1.152279223
-0.2787411482 -0.114154606 1.221380532
-0.3883078696 -0.1721251429 1.178513115
-0.3323256541 -0.1622832172 1.226350133
-0.3648131847 -0.1670236999 1.200166561
-0.2316424118 -0.1244660992 1.258775553
-0.4057269589 -0.1705052344 1.156504107
-0.2382735044 -0.1200746886 1.248456786
-0.3397383551 -0.1559053896 1.216869413
-0.3486838509 -0.1119795605 1.18070133
-0.329974108 -0.10016415 1.184887776
-0.3165317852 -0.03335977174 1.14107927
-0.2064443061 -0.1274320663 1.266736947
-0.2786669353 -0.100006594 1.220403187
-0.3120206779 -0.2249651047 1.232010696
-0.3285010095 -0.1817269037 1.237015904
-0.4209147801 -0.1881637503 1.159437096
-0.3253265946 -0.1589053911 1.223092883
-0.3342943845 -0.104557113 1.182070477
-0.2810065265 -0.2229722577 1.302604955
-0.3452655163 -0.1241054791 1.18591891
-0.2496243552 -0.1190956324 1.244691341
-0.2049866342 -0.1154746918 1.249684728
-0.3998481201 -0.1542295016 1.156206877
-0.1933321194 -0.1153231681 1.264072144
-0.3943049926 -0.1393805175 1.162845834
-0.3336441651 -0.1538005818 1.215006282
-0.2256792761 -0.1023257091 1.24419575
-0.3265410438 -0.1404942887 1.21299977
-0.3668764523 -0.1290637047 1.167647603
-0.450089353 -0.2009893943 1.151712124
-0.215417111 -0.1051461708 1.253111611
-0.3038530231 -0.09413492563 1.200655182
-0.2652176351 -0.09610912074 1.220360474
-0.233332968 -0.1291643587 1.267368767
-0.2796835716 -0.09708455325 1.213648295
-0.3031592701 -0.142290149 1.233701742
-0.3666833667 -0.1326478731 1.17375547
-0.3579247681 -0.1423423901 1.186572679
-0.2736041227 -0.2110072871 1.297798077
-0.3179883871 -0.08264901657 1.16985392
-0.3410341901 -0.2239796992 1.259158321
-0.3596549269 -0.1571179664 1.194228333
-0.2885059622 -0.2179383911 1.292817199
-0.2864958201 -0.1313682412 1.230936123
-0.3348187037 -0.2239405206 1.263488261
-0.3169510887 -0.1597485061 1.224481953
-0.2818229105 -0.1319995756 1.235889448
-0.4458946399 -0.1968574365 1.144463952
-0.1863520237 -0.1134324165 1.267388599
-0.3561107698 -0.2296144146 1.260335952
-0.3758982485 -0.1273086248 1.167534858
-0.2695816855 -0.1335491025 1.244222944
-0.3836475834 -0.1598874845 1.171144744
-0.3078101334 -0.2082748306 1.253750308
-0.2993193558 -0.1007318314 1.209220345
-0.1867245507 -0.1368042759 1.296244456
-0.2812593067 -0.1071798874 1.218651879
-0.304667433 -0.1275729284 1.216257598
-0.2506187183 -0.135196543 1.255478324
-0.367606268 -0.149517746 1.183423478
-0.3291641182 -0.0834557108 1.172485986
-0.3359634631 -0.2084896805 1.250944672
-0.321350703 -0.2025748822 1.235160143
-0.3692769779 -0.1235552917 1.170059332
-0.2154940915 -0.1256479956 1.266616289
-0.434325349 -0.1721919825 1.140542026
-0.2738432631 -0.2188705282 1.305979167
-0.2374342605 -0.09603043136 1.241610995
-0.4241756729 -0.1655929189 1.142377694
-0.4401251225 -0.1758870047 1.133565323
-0.4115279842 -0.1528115408 1.15630696
-0.4123643109 -0.1855220393 1.171657634
-0.3183274465 -0.1865034946 1.236579784
-0.1979193117 -0.1098584971 1.251254382
-0.3120760259 -0.1184716983 1.194252225
-0.4397530516 -0.186100814 1.142713895
