# .PCD v0.7 - Point Cloud Data file format
VERSION 0.7
FIELDS x y z
SIZE 4 4 4
TYPE F F F
COUNT 1 1 1
WIDTH 400
HEIGHT 1
VIEWPOINT 0 0 0 1 0 0 0
POINTS 400
DATA ascii
-0.333986697 -0.1748107763 1.241248837
-0.3065705443 -0.02131489286 1.148791315
-0.1832213528 -0.1399306156 1.302593303
-0.450730182 -0.1829831931 1.136024875
-0.2583393539 -0.09480827371 1.229944235
-0.3674748068 -0.1175955219 1.156525084
-0.2804095274 -0.2241029801 1.303516278
-0.3825996302 -0.2462195716 1.260179232
-0.3167152308 -0.2452147706 1.222994945
-0.4027243332 -0.1763499585 1.186180708
-0.3114553119 -0.1256072256 1.199525752
-0.2076194108 -0.1047445013 1.259412171
-0.3193642987 -0.07207936655 1.171159115
-0.2875956208 -0.1434840339 1.246888625
-0.3327060759 -0.2259880483 1.272273366
-0.3557317611 -0.1541832122 1.193480852
-0.4099959296 -0.1527975711 1.141684119
-0.2416192384 -0.1374782166 1.267675132
-0.3577481595 -0.2156054119 1.234807526
-0.2987144575 -0.2033670773 1.271088262
-0.2987745898 -0.09000172762 1.201039219
-0.3383592143 -0.1017862283 1.181412401
-0.3802763348 -0.1506828986 1.165746693
-0.3194993373 -0.2065036188 1.232314087
-0.20809477 -0.1335912519 1.279210094
-0.2844840482 -0.1165128154 1.225868751
-0.4233720182 -0.1864477934 1.154705624
-0.3277340321 -0.1564426738 1.214680311
-0.2596727971 -0.124240857 1.241996114
-0.3031723472 -0.04903758825 1.159092746
-0.2330161572 -0.1081496576 1.244410978
-0.1843641817 -0.1176675704 1.277306298
-0.312553257 -0.1564560157 1.238788609
-0.3442115609 -0.1274878712 1.189872368
-0.4358743492 -0.1618391325 1.126588514
-0.3086383591 -0.09720301942 1.173632937
-0.3167349967 -0.1793120223 1.221667944
-0.3389328136 -0.1979483204 1.251544985
-0.3041751431 -0.1331806818 1.226252387
-0.3913886165 -0.1285212148 1.159422362
-0.3744955311 -0.2334391551 1.239092961
-0.3571899283 -0.2284733467 1.255823967
-0.324112815 -0.2320192835 1.242349636
-0.3656732445 -0.1336544053 1.17560996
-0.281112789 -0.2063525485 1.288197149
-0.3790407688 -0.1655440924 1.183788491
-0.4035452516 -0.1678346368 1.164556827
-0.3649166012 -0.163428345 1.212507935
-0.2817962194 -0.09689232074 1.214264047
-0.2986997771 -0.2233850219 1.291335923
-0.3590884982 -0.1078418834 1.178399168
-0.224424933 -0.1216803397 1.258279319
-0.3310700537 -0.1360403025 1.212705883
-0.4448795423 -0.1989550459 1.147240567
-0.415359748 -0.1422242662 1.157608537
-0.2590875382 -0.1374675477 1.258348414
-0.3081964592 -0.1085550524 1.189780041
-0.2969072292 -0.1153056501 1.210669333
-0.3466965698 -0.1554764727 1.215924396
-0.3108872253 -0.2203358408 1.222583567
-0.3835131203 -0.1171948483 1.172409584
-0.4339685851 -0.1766145465 1.140240931
-0.195559996 -0.1267361014 1.265858404
-0.3256343097 -0.1145748296 1.195737003
-0.3930369812 -0.1514883706 1.153040617
-0.3317281856 -0.2194534878 1.255521784
-0.32177681 -0.08904234869 1.182652405
-0.2811555766 -0.1351091561 1.232585408
-0.2448452938 -0.1252580365 1.251729109
-0.3055077898 -0.06654396892 1.159334949
-0.1927420046 -0.137765537 1.286045178
-0.4143705424 -0.1726176547 1.149776398
-0.2602426302 -0.1125017376 1.229635365
-0.3692071064 -0.1492383796 1.178041666
-0.4011234733 -0.1381176016 1.149003982
-0.370273434 -0.16015809 1.196719871
-0.2232571634 -0.1312982004 1.271056935
-0.3129605764 -0.1357602217 1.211637588
-0.3319509548 -0.1912132322 1.238978317
-0.3417539449 -0.1398251859 1.201989173
-0.272989915 -0.1390967505 1.249737927
-0.4238359592 -0.1636823221 1.141455099
-0.3922418938 -0.1660204101 1.17488017
-0.3480418911 -0.2086548773 1.244456458
-0.3148581092 -0.03990469123 1.155192378
-0.3229381058 -0.1039398223 1.18437639
-0.3100614591 -0.1468379801 1.225086564
-0.3546610417 -0.1241949145 1.172871865
-0.3731469497 -0.1298383861 1.162396235
-0.3250340984 -0.2142118757 1.243376439
-0.4123792884 -0.1804478768 1.162092507
-0.3277254102 -0.1700509188 1.220042787
-0.3459327846 -0.1137051626 1.178285947
-0.2737251908 -0.1032815083 1.224123419
-0.2986891504 -0.1415574971 1.238358584
-0.3862962269 -0.2414047209 1.247511471
-0.446882543 -0.1654747326 1.1344125
-0.2216934711 -0.1085529438 1.252601427
-0.3025767972 -0.2165266737 1.268626186
-0.3191095438 -0.1945775384 1.225396548
-0.3176251351 -0.2294302424 1.230525933
-0.3301312711 -0.1276251604 1.201966373
-0.2742853847 -0.1233156146 1.23212365
-0.3668438284 -0.2376988089 1.249554604
-0.3683010151 -0.1134228322 1.170300522
-0.352565351 -0.1416345881 1.189747439
-0.3440226412 -0.2270821874 1.265156689
-0.3234910188 -0.2431104128 1.235057801
-0.2850553099 -0.2187436371 1.285537656
-0.4378153509 -0.1883113035 1.146440955
-0.373614908 -0.225204344 1.248785699
-0.4028279398 -0.1592555505 1.151234816
-0.3813987871 -0.2441213992 1.23622894
-0.2499692365 -0.1081250422 1.235435312
-0.2995825286 -0.1219840036 1.22099256
-0.2274215907 -0.09788918663 1.249453617
-0.3180713627 -0.05085003216 1.160129257
-0.3618604139 -0.2252612366 1.244824194
-0.3078481276 -0.2051709212 1.26294029
-0.3487201121 -0.2218086791 1.249766378
-0.1968171164 -0.1451436886 1.29505828
-0.3894079997 -0.1383937309 1.152307448
-0.3023376412 -0.1136761799 1.199937562
-0.1964312464 -0.1090553875 1.25904962
-0.3589401448 -0.1644822466 1.198715428
-0.336441168 -0.2098520492 1.247152798
-0.2936747477 -0.1328764925 1.231883641
-0.3039985429 -0.03285847298 1.147414713
-0.3810611959 -0.1211847363 1.160928282
-0.3148821542 -0.08289110664 1.172413733
-0.3305752636 -0.1781427371 1.230573639
-0.2750107406 -0.217472782 1.295545615
-0.2681922772 -0.1350932249 1.24000542
-0.3624061211 -0.1368277872 1.186073765
-0.1904467331 -0.1325009581 1.276276631
-0.3208778556 -0.1615506611 1.223064259
-0.3785545036 -0.1395353829 1.160235353
-0.2111202517 -0.1154931112 1.259584889
-0.3275932157 -0.2314446759 1.263848596
-0.2063029933 -0.1232480512 1.265967379
-0.3061105967 -0.09786766005 1.187606489
-0.2955056199 -0.217357541 1.28291833
-0.3614488691 -0.1200866328 1.165120977
-0.2961530397 -0.1053602778 1.206610105
-0.3113950689 -0.2355783519 1.224323027
-0.3335652019 -0.1679436583 1.229480302
-0.317448626 -0.149069361 1.217710721
-0.3151809715 -0.06043964965 1.162643426
-0.2860347588 -0.1087512739 1.219246153
-0.3837175861 -0.1610136357 1.17227044
-0.1837961451 -0.1360757094 1.290274024
-0.3275158299 -0.2353341009 1.251190176
-0.4196892447 -0.1511074012 1.140096555
-0.2870780708 -0.09019583956 1.209118131
-0.3216091358 -0.1232727979 1.198295301
-0.3644549122 -0.1498920898 1.191600981
-0.1879740738 -0.1086666303 1.275332238
-0.319741387 -0.1860146896 1.230316859
-0.4091248178 -0.1441065353 1.146295688
-0.2934398495 -0.2109470876 1.274558049
-0.3500513024 -0.1567699242 1.206743979
-0.2173631043 -0.1363271382 1.280927445
-0.3363702715 -0.1215903741 1.19013571
-0.3322224738 -0.1480867638 1.212213749
-0.4294441591 -0.1646695243 1.133407129
-0.3833867244 -0.1676863672 1.192288917
-0.238340975 -0.1311484134 1.261070408
-0.2529732382 -0.1305296077 1.251760551
-0.3387150799 -0.1539360188 1.221168724
-0.2191664732 -0.09984797362 1.255974822
-0.3350525395 -0.1101831547 1.184844029
-0.3151352608 -0.1015425982 1.179267311
-0.4408923566 -0.1773435158 1.133624735
-0.3813143782 -0.2287905136 1.244347686
-0.2153051739 -0.1263964963 1.26936316
-0.4490542544 -0.1860989185 1.144812085
-0.2367496225 -0.120652018 1.250330109
-0.2934095656 -0.1145820782 1.21981248
-0.2409067537 -0.1132643401 1.244094841
-0.3040221463 -0.1023983615 1.195550824
-0.3246356582 -0.1409131912 1.207987954
-0.2483047598 -0.1185842841 1.246191753
-0.2932475014 -0.2027827671 1.279029126
-0.3474272208 -0.1196505764 1.185267063
-0.3723956198 -0.1362505027 1.168957696
-0.398989967 -0.1717403061 1.177404839
-0.2316752714 -0.1342797809 1.273150677
-0.1992284097 -0.1302507384 1.274930875
-0.2637650523 -0.135769301 1.247844918
-0.3480717639 -0.2172906022 1.241928481
-0.1841841706 -0.1263061058 1.274498207
-0.2369675401 -0.1011996244 1.24031706
-0.3156367624 -0.159732574 1.230106306
-0.2017258849 -0.1396938426 1.289915136
-0.3036024381 -0.05489888981 1.165844564
-0.3079798837 -0.1493786539 1.235792199
-0.3882462041 -0.1699224288 1.18185148
-0.2760945909 -0.2089970828 1.298129907
-0.3466507331 -0.146849831 1.199541134
-0.2213233878 -0.1134814021 1.259928649
-0.3045738156 -0.1293814728 1.218284881
-0.3164977573 -0.1098161503 1.185505959
-0.324598579 -0.1941364425 1.235206657
-0.4087899715 -0.1695164813 1.157760014
-0.3185552788 -0.1301988984 1.202644101
-0.441010129 -0.1823422639 1.140985921
-0.2709286892 -0.1108342006 1.227354892
-0.3900612386 -0.1561034973 1.159759458
-0.1975453456 -0.1198703705 1.260973223
-0.3697850653 -0.1611615491 1.205749963
-0.3709628408 -0.2412203112 1.240026143
-0.2896097033 -0.1026973525 1.214315094
-0.3463920236 -0.1053358814 1.180104897
-0.3855529916 -0.1453741975 1.155451247
-0.258004833 -0.1044583774 1.231505305
-0.2654258422 -0.1268894458 1.236261863
-0.3279946264 -0.1226473092 1.192682409
-0.3349430843 -0.1876902065 1.246138381
-0.2976048453 -0.1264048327 1.227995957
-0.3999336136 -0.1461643618 1.146555412
-0.2882646216 -0.138797923 1.235349524
-0.266922406 -0.09838903936 1.223018367
-0.3980627156 -0.1619828907 1.161966936
-0.3515165427 -0.1166958501 1.170678582
-0.1833232886 -0.1218047237 1.284561581
-0.3115983346 -0.04830706527 1.155450119
-0.3230392959 -0.2199955774 1.237676573
-0.3404391739 -0.1451751205 1.208217762
-0.4149295586 -0.165248445 1.146015048
-0.3287138228 -0.107783078 1.192110917
-0.3438746126 -0.2143829712 1.248722422
-0.287883822 -0.2110756769 1.28064148
-0.3276268878 -0.2274448166 1.248894142
-0.3171951927 -0.2142825236 1.233554467
-0.4217140667 -0.1818967477 1.161330609
-0.382832668 -0.237416739 1.240714286
-0.3497483602 -0.1291332761 1.184063921
-0.3678440141 -0.1543353695 1.185615918
-0.3368863322 -0.1316339502 1.204238919
-0.4223417325 -0.1707661021 1.145255167
-0.2865795091 -0.2250944792 1.298344883
-0.2799794755 -0.1075384251 1.226953968
-0.2638011509 -0.1057882866 1.226086867
-0.330706835 -0.1991165619 1.239683223
-0.3425066981 -0.1335629984 1.197023902
-0.3286678558 -0.09844150305 1.18326498
-0.432210875 -0.1822808175 1.145603815
-0.2441351941 -0.1047276036 1.239961264
-0.2656377503 -0.1176718098 1.23247777
-0.1896255492 -0.1415889357 1.292331781
-0.215100908 -0.1071588838 1.258107289
-0.3547243395 -0.221997395 1.243555377
-0.3029061687 -0.1194544134 1.205340095
-0.3796849062 -0.1304097439 1.157946821
-0.3751881501 -0.1500163413 1.172907122
-0.4404943415 -0.1965309455 1.141114642
-0.3131434499 -0.1183873351 1.196782959
-0.2800927567 -0.2143424932 1.289795419
-0.3078885873 -0.0559718291 1.159319779
-0.318209407 -0.2382927023 1.231765907
-0.3651863942 -0.1407592832 1.17986049
-0.1879364455 -0.1135204751 1.269158667
-0.2776645593 -0.1371099087 1.23927424
-0.3023424812 -0.1390837692 1.231922299
-0.3504582805 -0.1536529714 1.199228623
-0.376063556 -0.1430651979 1.168147433
-0.3306417764 -0.217321602 1.248156044
-0.3183600792 -0.1723676782 1.224683069
-0.3233096409 -0.1782906094 1.227929774
-0.3749606577 -0.1638774932 1.190107096
-0.18542717 -0.1314637811 1.284394294
-0.2100848449 -0.1318134091 1.270536469
-0.3667929192 -0.2295815404 1.240991866
-0.2024537013 -0.137603139 1.282318036
-0.4282392484 -0.1719890164 1.138452173
-0.3159866322 -0.1558487073 1.222096437
-0.366151968 -0.1461776094 1.184996713
-0.3465891343 -0.1396251572 1.193858713
-0.3181482454 -0.1118826789 1.192544741
-0.3732056217 -0.1555710529 1.178657363
-0.2265346217 -0.1142851361 1.252866234
-0.3269880164 -0.2070385761 1.242363017
-0.3682708403 -0.1230892539 1.164289912
-0.284664831 -0.1294228402 1.229194851
-0.3127049174 -0.09002218965 1.171915196
-0.2590888005 -0.1185283027 1.237251113
-0.4034726828 -0.1487660373 1.140547347
-0.3176515073 -0.07854709187 1.177755181
-0.3282194497 -0.18676693 1.234356998
-0.3191190432 -0.1415340659 1.212876768
-0.355139109 -0.1341839852 1.183964973
-0.3341987325 -0.1950320688 1.246350691
-0.3078392705 -0.1400341563 1.223303817
-0.2304332253 -0.1256581498 1.259785973
-0.410021947 -0.1406512275 1.1527331
-0.2920390051 -0.2211747177 1.288146516
-0.2264062379 -0.1268722189 1.266143699
-0.3202749214 -0.2226045217 1.230660681
-0.363310676 -0.1579337286 1.197013838
-0.3038685756 -0.04397280936 1.153868947
-0.2499338262 -0.1353206071 1.256360536
-0.3204696729 -0.248418497 1.231056634
-0.3729075043 -0.1177236534 1.161393743
-0.3708253496 -0.1429973422 1.174633613
-0.3328765164 -0.1580930903 1.222458583
-0.2956159152 -0.09577869643 1.204143618
-0.3255651476 -0.1341575499 1.205496322
-0.2537436786 -0.1237724555 1.249239013
-0.3357953826 -0.1398129831 1.206806335
-0.3385020698 -0.1511427928 1.214090732
-0.4402760957 -0.170207867 1.132879592
-0.3844639684 -0.1515712913 1.159961477
-0.3231983425 -0.0821309415 1.181280619
-0.3026280437 -0.1235880197 1.214552087
-0.1922857603 -0.120906958 1.268410138
-0.3313185849 -0.2256019711 1.262232061
-0.2579929043 -0.1298117355 1.246040905
-0.3115370219 -0.06813799839 1.162642066
-0.2437438555 -0.1309923414 1.255694961
-0.3184262434 -0.09282213035 1.177727717
-0.3067241081 -0.1139550147 1.194060824
-0.348253359 -0.136480435 1.187691095
-0.360920755 -0.1286449145 1.174395374
-0.2940808682 -0.1080915487 1.214502595
-0.4186631339 -0.1580315834 1.139801556
-0.3246635986 -0.1623980489 1.216461953
-0.3952176392 -0.1419798349 1.149437925
-0.2180849002 -0.1352729642 1.273374434
-0.2323718933 -0.1159908174 1.24768602
-0.2023521851 -0.1122327872 1.257454956
-0.3507377777 -0.2276926399 1.266634812
-0.1956974069 -0.1349240418 1.280016916
-0.2062705137 -0.1008735484 1.264908241
-0.2753194697 -0.09698559097 1.22193551
-0.2790301517 -0.1152220426 1.229807732
-0.202084793 -0.1283538555 1.267698505
-0.3668531887 -0.129968033 1.170011936
-0.3048595393 -0.2017337448 1.268668662
-0.4033228434 -0.1645557881 1.155468358
-0.2464526175 -0.1369977216 1.262923387
-0.3602419196 -0.1362282097 1.179016455
-0.254928453 -0.1126595461 1.235988744
-0.3112224359 -0.02568860209 1.150936269
-0.3968509308 -0.1738100561 1.184097158
-0.4071239322 -0.1582090623 1.144457796
-0.3274969282 -0.1445457738 1.215400077
-0.2533146092 -0.1188489657 1.241766369
-0.4049201074 -0.1739995997 1.166755633
-0.3747507186 -0.1260586586 1.156839517
-0.424768202 -0.159921496 1.133601051
-0.2241629459 -0.1034995946 1.247948514
-0.2975279541 -0.2078469116 1.279542247
-0.2896691624 -0.1203262991 1.227534525
-0.3293447051 -0.1651409431 1.224222235
-0.2765965705 -0.110202902 1.221927985
-0.3982093969 -0.1532635341 1.149347684
-0.3421442824 -0.220239538 1.25120774
-0.3421163457 -0.1160823715 1.183099632
-0.3211656377 -0.2021766773 1.23695002
-0.3232083759 -0.1536608446 1.218514296
-0.3072498145 -0.1243261973 1.205637448
-0.4155213741 -0.1750831897 1.160121005
-0.3802818603 -0.1620456861 1.178442249
-0.2862741602 -0.2028348799 1.286398513
-0.4084590111 -0.1753022524 1.16065089
-0.2311932905 -0.1205966485 1.25582764
-0.362202834 -0.123363019 1.170913783
-0.3123906266 -0.2292346621 1.224550577
-0.3147062812 -0.2028611669 1.230091979
-0.1902803244 -0.1265649665 1.272543028
-0.3833637245 -0.2468640155 1.249122988
-0.3193603629 -0.08523017104 1.176342251
-0.4470143537 -0.1755460639 1.134044627
-0.219723285 -0.1198003347 1.262124556
-0.3335906845 -0.1250672763 1.194667573
-0.3799094074 -0.1454959289 1.161962209
-0.3272621355 -0.09264698384 1.18544751
-0.2781845916 -0.103931964 1.219748551
-0.3657108074 -0.2207946404 1.24268278
-0.3016478243 -0.2089063514 1.271340192
-0.3211686963 -0.171058023 1.219231464
-0.4464351305 -0.1929369482 1.147855505
-0.3154727155 -0.2208051161 1.226794223
-0.3545774508 -0.1610203675 1.195912145
-0.3366935257 -0.2225532726 1.257658685
-0.3211008245 -0.183112537 1.223970576
-0.3595939798 -0.163547572 1.204812421
-0.3631051526 -0.2328913707 1.248424804
-0.3879862649 -0.1250151588 1.163229682
-0.3775860696 -0.1207802258 1.155281388
-0.3696371284 -0.1589875248 1.189234301
-0.4144293104 -0.1481030958 1.141214598
-0.3040935938 -0.1037763019 1.189563841
-0.3075100703 -0.1351660819 1.219579464
-0.2705316862 -0.1306380052 1.236499143
-0.3138258366 -0.1308719865 1.208036091
-0.3312360027 -0.1181570645 1.19014658
-0.3593320006 -0.1469184282 1.190277709
-0.3512156761 -0.2132499734 1.238673466
-0.3385676431 -0.2044469593 1.245414109
