# .PCD v0.7 - Point Cloud Data file format
VERSION 0.7
FIELDS x y z
SIZE 4 4 4
TYPE F F F
COUNT 1 1 1
WIDTH 400
HEIGHT 1
VIEWPOINT 0 0 0 1 0 0 0
POINTS 400
DATA ascii
-0.2959034233 -0.1321224912 1.230038466
-0.4388819125 -0.1392995875 1.118851612
-0.3939263504 -0.2377675132 1.23926175
-0.2789114926 -0.01066070337 1.169640899
-0.1860250285 -0.1556739466 1.306820806
-0.2975634696 -0.2320346164 1.285920466
-0.3612637255 -0.1039078538 1.168763024
-0.3254982675 -0.2288945591 1.208321516
-0.2306533888 -0.1195301936 1.258320424
-0.2895842218 -0.08676907814 1.174961544
-0.3387750898 -0.178144724 1.236853978
-0.3909507665 -0.1480679418 1.155683697
-0.3545396328 -0.1486315304 1.195510475
-0.2663491364 -0.1514773466 1.261921253
-0.3207113336 -0.1115275479 1.197521362
-0.267962747 -0.0962574928 1.225611444
-0.3300659784 -0.2223592487 1.258337324
-0.2307263984 -0.1574599101 1.283194276
-0.3591001157 -0.2177810645 1.230183831
-0.3849929936 -0.1134396142 1.137440664
-0.2877088082 -0.04831260369 1.176543813
-0.3271737113 -0.1483981343 1.218735341
-0.2026689482 -0.1366486546 1.277857204
-0.4117422917 -0.1166759236 1.15613753
-0.265209495 -0.1256030136 1.238466546
-0.4131881624 -0.149031285 1.133172748
-0.385974026 -0.2211371344 1.214802451
-0.2875709745 -0.07817757137 1.203152834
-0.3845345232 -0.149973237 1.183942818
-0.3280973662 -0.2086432026 1.23298002
-0.3677777281 -0.1313692448 1.169484331
-0.3145215593 -0.1637500248 1.238577638
-0.331840326 -0.08937247871 1.184974966
-0.4180365288 -0.1221489649 1.128559976
-0.2959215368 -0.1096276365 1.209309652
-0.2098892649 -0.1683256528 1.30352169
-0.3416869704 -0.1250609277 1.186964941
-0.2894477809 -0.1516926043 1.248125459
-0.3063863737 -0.2142051852 1.267552715
-0.3062707013 -0.06966496427 1.186992314
-0.4370512865 -0.1634851221 1.125881348
-0.2468689929 -0.1083973965 1.242721117
-0.3074992601 -0.1374373209 1.20853086
-0.2399331083 -0.1455690208 1.263613671
-0.3837419689 -0.1100478491 1.16970999
-0.3200503266 -0.1991270681 1.257140704
-0.1800288222 -0.1441212235 1.288562476
-0.3024893922 -0.1012064095 1.189776726
-0.2722811087 -0.03255519571 1.174124355
-0.2011719865 -0.1562641716 1.287077785
-0.2787031583 -0.1177910831 1.224178595
-0.2699815908 -0.1510843752 1.241134862
-0.3318071941 -0.1286073592 1.204285136
-0.3959876677 -0.1364887891 1.139937396
-0.2848987663 -0.06751494764 1.180030148
-0.3156490999 -0.229954881 1.278688227
-0.339954832 -0.1058113785 1.178731933
-0.2454948304 -0.1268921501 1.248645687
-0.3509776828 -0.2009043017 1.233965353
-0.3190553342 -0.1655373224 1.220259773
-0.2182485564 -0.1349148455 1.267215057
-0.3743396917 -0.2287369637 1.229016371
-0.3387268483 -0.2223865878 1.225884336
-0.378983562 -0.1267426846 1.155158408
-0.4293396233 -0.1211171749 1.114070917
-0.3114924964 -0.1499566955 1.227298951
-0.3989123417 -0.2302703755 1.222836548
-0.4012359093 -0.1199940541 1.134619238
-0.2840540783 -0.09086859258 1.214885142
-0.3265749977 -0.1934325294 1.24173588
-0.3724525851 -0.2069577483 1.232066823
-0.3441948105 -0.1493306458 1.21583995
-0.1932600446 -0.1684528206 1.295912154
-0.3125711612 -0.08762771317 1.18992456
-0.4226490655 -0.1373540694 1.123499335
-0.3652660566 -0.2228892974 1.215653903
-0.3542192035 -0.1343043472 1.181652267
-0.3427668679 -0.1381528382 1.196959462
-0.3211353854 -0.1773420121 1.242690555
-0.1903431497 -0.1344361327 1.295040384
-0.3514055984 -0.09529060233 1.178826182
-0.3717632818 -0.1130671224 1.156017254
-0.3299718685 -0.2101870206 1.217798032
-0.2978092842 -0.2164592382 1.280084494
-0.3670059355 -0.1516162811 1.187328364
-0.2833715593 -0.1368290937 1.237156066
-0.324179302 -0.1051428463 1.184622051
-0.2958988651 -0.1202318846 1.221295326
-0.2867183318 -0.02958009924 1.174409873
-0.3561367702 -0.1223573112 1.169259553
-0.2175566274 -0.1512248655 1.281555533
-0.3325864447 -0.1624306297 1.224799968
-0.4261880439 -0.1573165012 1.133419371
-0.2500079385 -0.1530196837 1.271002647
-0.399465315 -0.114258639 1.148779221
-0.2647540174 -0.1372512614 1.246990229
-0.323812407 -0.2096417291 1.248157836
-0.2290972666 -0.1467039024 1.272887757
-0.2574463383 -0.1065483936 1.233310412
-0.4033888349 -0.1486232413 1.143499227
-0.3055404602 -0.1170674881 1.201965279
-0.3833393485 -0.1428180695 1.166430997
-0.3227318273 -0.1768158007 1.228614551
-0.2975158348 -0.1428331771 1.23892813
-0.200815998 -0.1761725571 1.310261892
-0.2206433622 -0.160437844 1.292031856
-0.3744851409 -0.1434639002 1.177466514
-0.3152114629 -0.2191348554 1.258478107
-0.2826093355 -0.1029264878 1.2206518
-0.2676704911 -0.1096488154 1.225033085
-0.2985025839 -0.05909131913 1.184271371
-0.1899272891 -0.1512097608 1.29491476
-0.4093039693 -0.1317295747 1.131534457
-0.2955398136 -0.08824339086 1.186653069
-0.3897538185 -0.1337351347 1.153698553
-0.2143778818 -0.1239742545 1.272881804
-0.2857524949 -0.0644767952 1.19214982
-0.3021840379 -0.1306890021 1.218547677
-0.3720720545 -0.2164147437 1.223781102
-0.2382426938 -0.1350157647 1.257295844
-0.2769544896 -0.1548031489 1.250677761
-0.3417738824 -0.2088968667 1.232466585
-0.2491997285 -0.1431211218 1.256045685
-0.2751104893 -0.02031728455 1.176014589
-0.3882091439 -0.1238398423 1.146856863
-0.3510039266 -0.1192625225 1.17978937
-0.3619620262 -0.2071547698 1.225514898
-0.3665758342 -0.1219623502 1.161937874
-0.2992985873 -0.09838511812 1.209082204
-0.2542874742 -0.1168202819 1.239344361
-0.3152753211 -0.128950823 1.206425888
-0.3338318883 -0.1168224993 1.18956748
-0.4322360884 -0.1465315808 1.124937761
-0.3455363241 -0.1126182367 1.171310147
-0.3844338909 -0.2335589977 1.231690528
-0.3139267436 -0.1063356759 1.189609594
-0.345843271 -0.2250199677 1.234466555
-0.2917736936 -0.0886208404 1.203839108
-0.2396634957 -0.1534525482 1.275455646
-0.3267815165 -0.1346993216 1.21225754
-0.304640722 -0.223261428 1.274467829
-0.382931823 -0.1142363911 1.148720216
-0.3439803426 -0.146726834 1.205068128
-0.3184844509 -0.1419364595 1.217319756
-0.3066859434 -0.1405122898 1.219515143
-0.3319435657 -0.2266586663 1.268083124
-0.3026479144 -0.2384804354 1.292922468
-0.3407002418 -0.09461417496 1.179002179
-0.3310167446 -0.1983389025 1.233256399
-0.3292879609 -0.1838431435 1.233020004
-0.2942238821 -0.03652723851 1.176972516
-0.2913480917 -0.07887617567 1.184301677
-0.1964922393 -0.1435986829 1.291855027
-0.226854457 -0.1277847841 1.263581421
-0.338821308 -0.1886134123 1.236389524
-0.3311087212 -0.2366198352 1.21257153
-0.3451102416 -0.1366365138 1.186933174
-0.2819811134 -0.05697843024 1.176618368
-0.3077630096 -0.1498631019 1.236989292
-0.239229604 -0.1152726596 1.244095951
-0.2782484166 -0.1294481162 1.232033936
-0.3122740937 -0.09700238264 1.185515498
-0.2104801044 -0.1622036021 1.292075771
-0.2000159941 -0.1321683962 1.286690926
-0.273439344 -0.09992702265 1.217187869
-0.3127387209 -0.222163398 1.268307939
-0.3352304475 -0.1383968526 1.208015441
-0.3063110699 -0.1411906786 1.22958864
-0.3300241852 -0.2225022433 1.214579763
-0.3613650966 -0.2011160735 1.23349008
-0.3566000042 -0.1446199124 1.186634825
-0.4109687261 -0.1422325401 1.143019667
-0.3346137662 -0.1760164144 1.228116902
-0.3247316452 -0.2293664404 1.274299001
-0.2104587585 -0.1459952907 1.277094976
-0.3819100641 -0.2167187805 1.222995342
-0.2579410883 -0.1312574899 1.241978111
-0.329129311 -0.2184165424 1.232390744
-0.3237435749 -0.1230434058 1.204892572
-0.3413646179 -0.1990216426 1.234339015
-0.3010147995 -0.07860637596 1.185831159
-0.3515401442 -0.1037802826 1.168926452
-0.3154217447 -0.2048053677 1.250751768
-0.2585509229 -0.1428870854 1.253460878
-0.3706294746 -0.1059235743 1.16914436
-0.3269098309 -0.1581655638 1.218362662
-0.3226628274 -0.2250657897 1.263559752
-0.4116421177 -0.119760861 1.135075579
-0.3597146944 -0.1129651811 1.166651138
-0.3123560301 -0.07828425035 1.191053889
-0.3148991116 -0.1598645961 1.226508242
-0.4019017066 -0.2299901726 1.231732571
-0.3921678334 -0.1209955167 1.136340033
-0.3774229892 -0.2327984561 1.237716416
-0.4263789329 -0.1341585451 1.115631568
-0.3951332077 -0.1474514694 1.147507474
-0.2927851866 -0.1115991388 1.220814297
-0.2375306365 -0.1256642451 1.252922092
-0.3144615322 -0.1181200783 1.203522502
-0.3052702673 -0.2313151097 1.278676258
-0.2206984589 -0.1214982527 1.26569379
-0.2467646488 -0.1357047062 1.25147257
-0.2872797818 -0.07722830582 1.19418999
-0.4205228448 -0.1424912703 1.13055592
-0.2861837905 -0.1481731424 1.240536707
-0.3283869218 -0.2171930575 1.249623085
-0.2780079142 -0.03941588379 1.174065551
-0.3214450675 -0.08698760468 1.190088955
-0.2279079389 -0.1362053697 1.26625306
-0.271882632 -0.1160539465 1.229571158
-0.3667008144 -0.1413444614 1.181115826
-0.3854014557 -0.1412612762 1.15529048
-0.3928205309 -0.2247754278 1.219678628
-0.3928402455 -0.2328884384 1.229339022
-0.3383882677 -0.2236206538 1.216827184
-0.2947417882 -0.2237979975 1.285337102
-0.412758782 -0.1396925343 1.133318315
-0.3635036771 -0.1004093381 1.176387545
-0.2016059642 -0.1700425421 1.301590797
-0.3593954144 -0.1288414852 1.173979985
-0.2841208512 -0.1240612202 1.228668656
-0.3771972696 -0.1206808627 1.1484923
-0.2864108098 -0.1321780923 1.230564998
-0.3650592006 -0.1069436927 1.161667364
-0.277712211 -0.1429683879 1.239142514
-0.223939656 -0.1531644053 1.276173655
-0.4189846428 -0.1275953755 1.122082844
-0.2911357163 -0.05983956912 1.1800894
-0.2744852773 -0.03504629915 1.181931312
-0.3827383494 -0.2250710175 1.221787803
-0.2826386588 -0.01823711835 1.170284149
-0.2359563691 -0.1164448885 1.252520065
-0.1890009833 -0.1625839217 1.303042218
-0.3213305743 -0.2144667572 1.255069915
-0.3431914404 -0.1163365488 1.180870016
-0.3051148175 -0.1295607913 1.206824028
-0.3225805228 -0.2012526508 1.248154071
-0.3509617921 -0.2087151734 1.230948891
-0.4040851208 -0.1376210768 1.138188338
-0.2754255783 -0.1345799036 1.238413305
-0.330979176 -0.1201205014 1.196681272
-0.2641704767 -0.1136204496 1.231501284
-0.3821780304 -0.1348052282 1.16467893
-0.2480537728 -0.1482037265 1.262485574
-0.3222786944 -0.09709163963 1.184902289
-0.4407297205 -0.1560795853 1.126043543
-0.4052374816 -0.1250076559 1.129007806
-0.3123679651 -0.2115662702 1.256852411
-0.2587032641 -0.1486303586 1.260786878
-0.3320688528 -0.2077934349 1.225825544
-0.3267752883 -0.113583864 1.192148638
-0.4151419503 -0.1543052681 1.127269531
-0.1825206893 -0.1416155525 1.295909206
-0.2088891299 -0.1297125183 1.274642847
-0.3438517796 -0.1043382079 1.171751419
-0.2848199333 -0.1120008053 1.222378454
-0.3739723843 -0.1485896852 1.184477684
-0.3279366571 -0.1690626344 1.225187241
-0.3986273136 -0.1151336851 1.140762209
-0.4118630139 -0.1174864586 1.148080565
-0.1914197977 -0.1606023636 1.295185249
-0.3128912049 -0.1110077001 1.199498259
-0.2564293255 -0.1357769605 1.248502166
-0.3702156566 -0.2086248809 1.224189094
-0.2672021649 -0.133132633 1.240575703
-0.378058542 -0.2099771518 1.224668241
-0.3817834212 -0.1111587877 1.155943672
-0.3471753406 -0.1459120426 1.196596967
-0.2797955774 -0.04849882202 1.176868286
-0.1997176946 -0.1398367359 1.284452929
-0.3169262475 -0.149475579 1.218726563
-0.3642242042 -0.217267165 1.224298764
-0.2988997952 -0.1167759007 1.210291771
-0.3395801286 -0.1326834497 1.190730696
-0.1899501904 -0.1418094529 1.288219567
-0.2196837095 -0.1468194913 1.275308652
-0.2969852854 -0.2232543893 1.276600758
-0.2702096226 -0.1434200417 1.241463152
-0.3344866574 -0.1568069107 1.219953216
-0.3994987775 -0.2226372333 1.223147385
-0.4217985183 -0.1217541808 1.115182618
-0.3732997184 -0.1223576218 1.157778126
-0.2937369762 -0.1250362128 1.228194269
-0.4398565935 -0.146982109 1.124942975
-0.372409758 -0.1376402817 1.173007611
-0.34333964 -0.09649582346 1.172120772
-0.4230039486 -0.1496036389 1.131588276
-0.2785346474 -0.150438309 1.240163137
-0.2484312437 -0.122302569 1.243372722
-0.2000456831 -0.1614705467 1.292471771
-0.2093751831 -0.1387621398 1.27510529
-0.2091133382 -0.1507584818 1.282789801
-0.3029412142 -0.110213983 1.200226304
-0.2961452645 -0.0957394844 1.186294825
-0.3037904071 -0.2132451255 1.27687508
-0.3026242467 -0.1341699996 1.227392115
-0.2117037661 -0.1312745257 1.267669404
-0.2666609354 -0.1440163474 1.249611939
-0.3525272209 -0.1136183696 1.168687323
-0.3637193373 -0.1345724069 1.176137867
-0.3370476465 -0.1494966995 1.218039326
-0.2764257809 -0.1225294512 1.229883054
-0.2098611373 -0.1571183273 1.286650313
-0.2324462527 -0.1421209039 1.266259953
-0.338044363 -0.1445907445 1.211064874
-0.4301483488 -0.1518580013 1.129710465
-0.3333027878 -0.1059255146 1.182078602
-0.3527181564 -0.2240168236 1.231797839
-0.4157861793 -0.1354725991 1.125667781
-0.4337073498 -0.1352474457 1.115023706
-0.3906618211 -0.1304859676 1.14471657
-0.206192275 -0.1427557301 1.282439338
-0.2676065985 -0.1212647985 1.232538748
-0.3227744376 -0.1813922953 1.235424275
-0.332250096 -0.09622704062 1.182341361
-0.2179491028 -0.1400526973 1.272466767
-0.3549516335 -0.2050228581 1.225923506
-0.3240812566 -0.1176097655 1.199773451
-0.3812192178 -0.1460279826 1.176249927
-0.3159240749 -0.1374920226 1.212120004
-0.4017646077 -0.1304545054 1.132410098
-0.2752098231 -0.1114838611 1.223137043
-0.3949741346 -0.1300041381 1.136795803
-0.3199269766 -0.1709715894 1.224990662
-0.2997373665 -0.06906069526 1.183905215
-0.3745181458 -0.1327302811 1.16720519
-0.3143924046 -0.2035014346 1.258270193
-0.3929383827 -0.1140986375 1.145071023
-0.2979381305 -0.1019663595 1.202973162
-0.4129612376 -0.127420391 1.125990025
-0.2399587783 -0.1103948581 1.249288594
-0.2521668471 -0.129321301 1.247905067
-0.3073718068 -0.09185350466 1.185962902
-0.3906668896 -0.2180946338 1.220881409
-0.3048886797 -0.2358070373 1.284172802
-0.3564527282 -0.1517198438 1.186728433
-0.196356185 -0.1733329119 1.305577449
-0.2877557108 -0.03890712002 1.175554356
-0.326395878 -0.1397940926 1.217059318
-0.3936798045 -0.1410410388 1.145122897
-0.2176440509 -0.127590134 1.267183834
-0.3465397523 -0.1427210312 1.189975187
-0.3122388414 -0.2260815036 1.274002364
-0.2708267462 -0.1533683272 1.247809449
-0.3171239172 -0.1701311866 1.238179068
-0.3107046962 -0.1460774039 1.218821856
-0.3033739993 -0.1069036674 1.193493236
-0.3029592875 -0.121342256 1.207252447
-0.3350650022 -0.1269146686 1.198535944
-0.2871565586 -0.07002371831 1.195849671
-0.3624281685 -0.1239632864 1.167379605
-0.3454492052 -0.1315559463 1.182501391
-0.1964710057 -0.1515417622 1.293383764
-0.2012050069 -0.1499800939 1.284681976
-0.230640948 -0.1527135596 1.275892986
-0.2718179326 -0.1267143995 1.238121042
-0.4050124996 -0.114484566 1.152528252
-0.2898066656 -0.137808106 1.231814276
-0.3186749782 -0.1589968321 1.219062741
-0.3433794592 -0.2188344126 1.234614705
-0.3532239289 -0.1254933726 1.17928353
-0.2661178729 -0.1025326325 1.224558236
-0.3715940309 -0.1076710552 1.162344004
-0.3120431771 -0.1588625283 1.234896849
-0.3258545963 -0.2034178281 1.236317256
-0.3631025345 -0.1135811454 1.161061273
-0.2861909395 -0.1203026775 1.223731704
-0.2570209203 -0.1248078903 1.241474209
-0.2988382847 -0.2322163032 1.279342381
-0.3735745903 -0.224381366 1.22423316
-0.29757451 -0.1008402715 1.194021276
-0.33419057 -0.1695360189 1.228422111
-0.4258071928 -0.1442656162 1.127234581
-0.2936691546 -0.1001383906 1.211742284
-0.2453088595 -0.1146016699 1.241849045
-0.2861260713 -0.1003621318 1.215883781
-0.3419057522 -0.1409373588 1.203287581
-0.3834053455 -0.1275248171 1.148913639
-0.4033785181 -0.1422372062 1.143359914
-0.3781030116 -0.1287792983 1.16111974
-0.4047012349 -0.1162078793 1.145786089
-0.3233493809 -0.2202742479 1.256593056
-0.302641988 -0.09613724843 1.18598585
-0.3018494465 -0.08802715852 1.186178909
-0.3306560919 -0.1106681207 1.188095424
-0.3250619904 -0.1288151717 1.207109914
-0.2266652981 -0.1410241569 1.271577601
-0.3614779327 -0.2236116604 1.22981965
-0.3226506618 -0.1088857652 1.189423986
-0.3247889027 -0.1870988809 1.237085832
-0.3337072818 -0.2188945885 1.22466065
-0.3377065682 -0.1152755329 1.183567754
-0.4310361133 -0.1270562164 1.114533992
-0.3653932489 -0.1458724191 1.185841209
-0.2899118628 -0.07024779212 1.182289536
-0.4073224513 -0.1494411924 1.138856901
-0.3269610473 -0.1640823717 1.21996943
-0.2916997204 -0.09076553927 1.209571615
-0.2328863527 -0.1270701539 1.262897148
-0.43239044 -0.1391344205 1.119484038
