# .PCD v0.7 - Point Cloud Data file format
VERSION 0.7
FIELDS x y z normal_x normal_y normal_z
SIZE 4 4 4 4 4 4
TYPE F F F F F F
COUNT 1 1 1 1 1 1
WIDTH 206
HEIGHT 1
VIEWPOINT 0 0 0 1 0 0 0
POINTS 206
DATA ascii
-0.071808644 -0.17632222 0.81100005 0.4312934875 0.3806788623 0.8179666996
-0.11128845 0.01076985 0.81900007 -0.3919554651 -0.7650229335 0.5109900832
0.070953012 -0.21361035 0.86100006 0.1411677152 0.3174500763 0.9377084374
-0.032306336 -0.06670323 0.79533339 -0.4781476855 -0.4393780529 0.7604746819
-0.14103375 -0.090406246 0.82500005 0.3756303787 0.3745064735 0.8477303386
0.024570072 -0.15438151 0.79610008 -0.6521703005 -0.1507402956 0.742934227
-0.0034979 -0.24135509 0.79800004 0.2531273961 -0.7550144196 0.6048799753
-0.015260087 -0.1950807 0.86811095 -0.3512820601 -0.06629243493 0.933919847
-0.050200123 -0.12717804 0.76350003 -0.6343095899 0.6930545568 0.3425298035
0.038450599 -0.15003273 0.86000001 0.2248335928 -0.1281140149 0.9659382105
-0.16115324 -0.029365703 0.81700003 0.6495738626 0.2372383922 0.7223376632
0.051491268 -0.21256648 0.78614289 0.3469381034 -0.2812228501 0.8947333097
-0.095963053 -0.046540096 0.80029625 0.1182133555 0.09008233249 0.9888936877
-0.088516593 -0.11766663 0.81100005 0.5149478316 0.2527849078 0.8191022873
0.016491853 -0.24135508 0.85500002 -0.03907868266 -0.4691388607 0.8822593689
-0.056886464 -0.027341915 0.8355 -0.7572773099 -0.5587964654 0.33804968
-0.0085317194 -0.11020138 0.81100005 -0.4488057494 -0.6109033823 0.6522042751
-0.02540678 -0.16340633 0.79696012 -0.3790656924 0.4099358022 0.8296154737
-0.042429917 -0.21419725 0.81442875 -0.5493005514 -0.2620590031 0.7934696078
-0.10911694 -0.14303166 0.84100002 0.6730467677 0.2827364802 0.6834238172
-0.035340577 -0.063927598 0.84577787 -0.8239579201 -0.5129817724 0.2407136112
0.054506749 -0.18968348 0.82900006 -0.8976997137 -0.274875015 0.3443529606
0.033016499 -0.19535924 0.86313653 0.3967864513 0.1589980721 0.904035449
-0.074994981 -0.08101137 0.79799998 0.2706742883 0.1320513338 0.9535711408
0.039476302 -0.25001657 0.79000002 0.1898543388 -0.07478905469 0.97895962
-0.12497882 -0.014667368 0.79258174 0.02754190192 -0.1315393448 0.9909282923
-0.0048669283 -0.13763753 0.77681494 -0.1836958379 0.08645574003 0.9791737795
-0.043480914 -0.12793392 0.80133343 0.3714774251 0.1113612428 0.9217392206
-0.13502412 -0.054988053 0.80579072 0.2431422174 0.4043311477 0.8817018867
-0.072466284 -0.14780499 0.78599995 0.5815968513 -0.194391042 0.7899096608
-0.082725115 -0.013101014 0.81350005 -0.5329532027 -0.6372894049 0.5566176176
-0.10821066 -0.085885987 0.81099999 0.3526138365 0.251082778 0.9014549255
0.0050003049 -0.16650048 0.86238468 0.08381955326 0.221333757 0.9715892673
-0.043033816 -0.16877323 0.76700002 -0.1654230803 0.2749239504 0.9471282959
-0.0076130703 -0.21813209 0.82300001 -0.4390555024 -0.8256340027 0.3543426991
-0.056972384 -0.046273485 0.80539393 -0.6171992421 -0.5006018877 0.6070114374
-0.023534117 -0.10960174 0.76700002 -0.6487637162 -0.7273404002 0.2237892002
0.06347768 -0.17002951 0.86200005 -0.6685602665 -0.5598936081 0.4894346595
-0.049109988 -0.098911673 0.78900003 0.08332644403 -0.1257864237 0.9885517359
-0.047763865 -0.18741292 0.79250008 -0.8354898095 0.2099565417 0.5078139305
-0.15808667 -0.057552289 0.83100003 0.6763572097 0.3588848412 0.6432282925
-0.0080653327 -0.22250062 0.85600007 -0.3968557119 -0.4215969443 0.8153291345
-0.12302573 -0.11412764 0.8314212 0.4435378909 0.4686489999 0.7639648318
-0.07989151 -0.14898688 0.82100004 0.6349412203 -0.222825557 0.73972857
0.036736917 -0.1851638 0.80592316 -0.7429593801 -0.4137522876 0.5261372328
-0.08523567 -0.19305515 0.83100003 0.4517208338 0.2490481287 0.8566932678
-0.042842444 -0.19299218 0.85862494 -0.8552636504 -0.1255485415 0.5027540326
0.012215722 -0.12618387 0.79733348 -0.5631228685 -0.5624762177 0.6054032445
0.015063284 -0.21567573 0.87100023 0.04773692787 -0.1632280499 0.9854328036
-0.15163235 -0.008671402 0.80200005 0.4924427569 -0.06737989187 0.8677327037
0.026570788 -0.22660303 0.79417658 0.1863078177 -0.08347261697 0.9789390564
-0.044863999 -0.18881266 0.82100004 -0.6259554625 0.07212615758 0.7765163183
0.043395877 -0.1640217 0.83900005 -0.7075041533 -0.6525742412 0.2712650299
-0.026549192 -0.11088233 0.79174995 -0.3089141846 -0.6240087152 0.71776402
-0.047466844 -0.14438818 0.78057593 -0.5095983148 0.5472670197 0.663934052
-0.065969788 -0.11502433 0.80214274 0.3132853508 0.2068909258 0.92684865
-0.14121522 -0.031880863 0.79799998 0.3858385384 0.2140344232 0.8973950744
-0.018583873 -0.089155532 0.80500007 -0.5125071406 -0.3051146269 0.8026465774
-0.042240221 -0.10637097 0.75228566 0.9589557052 0.2781791687 0.05495708808
-0.10431208 -0.0044607245 0.80209297 -0.4178566039 -0.6270009875 0.6574690938
-0.088219263 0.00072909443 0.83166671 -0.5267609358 -0.7415507436 0.4154821932
-0.058212858 -0.16666837 0.79050004 0.4689288437 0.3159935176 0.8247750401
-0.047099192 -0.046182107 0.82657903 -0.8218253255 -0.4656341076 0.3283108175
-0.046924457 -0.16850147 0.81100005 -0.2867714167 0.5405212641 0.7909480929
-0.074300066 -0.032705504 0.80086195 -0.4375448823 -0.4308028519 0.7892802954
0.058876056 -0.20668204 0.84300011 -0.5552049279 0.2923654616 0.7786333561
-0.094981484 -0.024443291 0.7966668 -0.1505645365 -0.1146967635 0.9819241166
0.033392116 -0.22416343 0.86173338 0.1572936624 -0.3118086457 0.9370347261
-0.022266105 -0.23206368 0.81400013 -0.2271646708 -0.685949266 0.6912812591
-0.1042485 -0.12460839 0.82636851 0.5852168202 0.3691845238 0.7219584584
-0.11605202 -0.065365151 0.81107169 0.2019563615 0.2854382396 0.9368770719
0.070999041 -0.18833561 0.85250002 -0.8660401106 -0.1417346448 0.4794640839
-0.074695535 -0.05514897 0.79628599 -0.0258937981 -0.05228688195 0.9982963204
0.047680497 -0.23678204 0.7748 0.18061997 -0.02267356776 0.9832915664
-0.074552782 -0.1345983 0.80512816 0.7165386677 0.05836518854 0.6951013207
-0.10123659 -0.15077791 0.81900007 0.5415098071 0.1492275894 0.8273441195
-0.083297662 -0.16228385 0.79733342 0.7990570664 0.01157663297 0.6011437178
0.043638766 -0.16581205 0.81135291 -0.848143816 -0.4005825818 0.3466780186
-0.13322495 0.0024811972 0.80184221 0.1115658432 -0.544026792 0.8316176534
-0.055086013 -0.07461264 0.79542875 -0.04145445302 -0.1264468282 0.9911068082
-0.020356201 -0.17642039 0.86000001 -0.2120803595 0.05057488009 0.9759426713
-0.11644925 -0.033156957 0.79718536 -0.02021201141 0.229422614 0.9731169939
0.015161829 -0.18501595 0.86491692 0.1289085448 0.1712017953 0.9767663479
-0.021165714 -0.1448399 0.78900003 0.3076366782 0.4555108249 0.835385859
-0.042482536 -0.14833303 0.80316669 -0.2094693631 0.2390226722 0.9481512308
0.061068598 -0.23145753 0.86000001 0.2712490261 0.01557497308 0.9623832107
-0.072835654 -0.012076521 0.83500004 -0.6496981382 -0.6746083498 0.3504224122
-0.10488114 -0.10522282 0.81568307 0.4390878379 0.3414701819 0.8310234547
-0.024611188 -0.20728841 0.8233 -0.3956687748 -0.3089642525 0.8648626208
-0.090516709 -0.18245888 0.81300002 0.7336617112 0.1946100742 0.6510510445
-0.025592199 -0.20591611 0.85532427 -0.660749197 -0.4130840302 0.6267153621
-0.084865399 -0.094821177 0.80797279 0.3047542572 0.1965752393 0.9319243431
-0.065484159 -0.025575105 0.81657583 -0.6747708321 -0.5623825192 0.4779227972
0.0138338 -0.24001643 0.78900003 0.209525004 -0.2140361369 0.9540900588
-0.13487805 -0.074883163 0.81566674 0.3268281519 0.3818893135 0.8644905686
-0.022297317 -0.12544066 0.7802 0.1424788684 0.3672599494 0.9191408753
-0.094918534 -0.065388553 0.80200011 0.3047617972 0.1362678707 0.942629993
0.052554119 -0.19551814 0.80466682 -0.8780719638 -0.1923923343 0.438149333
-0.0044287452 -0.21212161 0.87100011 -0.3068049848 -0.2207831442 0.9258107543
0.036598247 -0.20435169 0.79278272 0.3565396965 -0.326837182 0.8752467632
-0.12312669 -0.092772298 0.81838477 0.3677759469 0.3594587743 0.8576306105
-0.1518327 -0.042350188 0.80780011 0.5449824929 0.3169080317 0.7762495875
-0.038111094 -0.087062143 0.79652649 -0.3368526399 -0.2292224914 0.9132291079
-0.0044433842 -0.11771881 0.79575008 -0.431545198 -0.6724147201 0.6013544798
-0.064814799 -0.094840355 0.79608893 0.3341322243 0.1029038355 0.9368919134
0.055616416 -0.17479798 0.8440271 -0.6515088677 -0.5489096642 0.523673892
0.013603522 -0.14487565 0.7875582 -0.5863115191 -0.1287692636 0.7997857332
0.0052492446 -0.2278298 0.8028847 0.3684296906 -0.6780247688 0.6360361576
-0.11771851 -0.12656583 0.84100002 0.5822120905 0.3903621733 0.7131945491
0.051404227 -0.15946479 0.85600007 -0.5524591208 -0.6632838845 0.504820168
0.027535576 -0.17157365 0.80540019 -0.5905965567 -0.2043559104 0.780662775
-0.008543117 -0.15272717 0.7955001 0.08307565004 0.4361714423 0.8960205913
0.04332887 -0.22581366 0.7904762 0.3072535694 -0.05538829789 0.9500144124
0.021651037 -0.13825256 0.80233341 -0.6705067754 -0.3477267325 0.6553676724
-0.055483792 -0.13773327 0.79283339 0.239562735 -0.5964615345 0.7660570145
-0.14814819 -0.068190642 0.82166672 0.5378572941 0.4023584425 0.7408220172
-0.096427523 0.0029048144 0.8182382 -0.491084516 -0.7272925973 0.4794595838
-0.052193012 -0.20336477 0.80862504 -0.7795363665 -0.1378497332 0.6109995842
0.0072115576 -0.19708762 0.87100017 0.03671278432 0.1277501136 0.9911266565
0.0045231828 -0.22588083 0.86604762 -0.2148783654 -0.448189348 0.8677290082
-0.11822902 0.00069958001 0.79800004 -0.1617892534 -0.569924593 0.80561167
-0.030850874 -0.13591412 0.79777777 0.189728424 0.4332225621 0.8810909986
-0.047073971 -0.057853032 0.80385017 -0.5711519718 -0.556288898 0.6035959721
-0.061304424 -0.1827473 0.79766673 0.4527594149 0.4541315734 0.7673157454
-0.034387924 -0.17407258 0.80289745 -0.743801713 0.4568737745 0.487878412
-0.027502105 -0.077620551 0.80900002 -0.5878634453 -0.4879673421 0.6452165842
-0.041998468 -0.060102515 0.82600003 -0.8090195656 -0.4992065132 0.3102904856
-0.08881633 -0.13718309 0.82099998 0.5167091489 0.2480389774 0.8194438815
-0.15148963 -0.054393034 0.81785721 0.6422200203 0.3508975506 0.6814869046
-0.047475327 -0.17507435 0.78478938 -0.4741418362 0.6112069488 0.6337314844
-0.12462752 -0.045696992 0.80187756 0.02028578892 0.3521427512 0.9357264638
-0.13260509 -0.10200981 0.82655567 0.394246906 0.4369490147 0.8084831238
-0.099805869 -0.13841689 0.83100003 0.6455817223 0.1674878746 0.7450987101
-0.095246702 -0.085363679 0.80475515 0.3070966601 0.2023350149 0.9299205542
0.026009023 -0.1428268 0.86043483 0.2634469867 -0.004274907056 0.9646643996
-0.048643477 -0.11211014 0.79428577 0.3044516742 0.2258692086 0.92536062
-0.0053253565 -0.18490838 0.86797965 -0.09513448179 0.176460132 0.9796995521
0.00138338 -0.12934603 0.78900003 -0.4172754884 -0.5293599963 0.7386874557
-0.05795972 -0.037386328 0.81625009 -0.7252175808 -0.5217370987 0.4492770135
0.05900668 -0.21735547 0.852 0.1360925883 0.3303797245 0.9339850545
-0.075333506 -0.10490302 0.80308193 0.3705396652 0.1010242999 0.9233062267
-0.064891584 -0.064891063 0.79591858 -0.05225796252 -0.09213520586 0.9943742752
-0.030337051 -0.1260673 0.76900005 -0.424844563 0.5759673119 0.6984044313
-0.028108737 -0.096492603 0.79759997 -0.4378605187 -0.3361531496 0.8338340521
-0.03481945 -0.1213047 0.78418183 0.8818621039 -0.2236801535 0.415073961
0.034894545 -0.15524831 0.81233341 -0.8399447203 -0.4214554429 0.3418599367
0.024922943 -0.20509492 0.86843467 0.2199029773 0.02682691813 0.9751527905
-0.032406509 -0.22282481 0.81780005 -0.3671652675 -0.3566758931 0.8590529561
-0.15476519 -0.024297638 0.8063125 0.5654734373 0.1622193903 0.8086560965
-0.038405303 -0.13498825 0.77766675 -0.5354326367 0.5975883603 0.596824944
-0.06714309 -0.16734648 0.80230778 0.2965693772 0.4297031164 0.8528785706
-0.10511968 -0.055126846 0.8047142 0.220662266 0.2237771153 0.9493323565
-0.035885498 -0.19630194 0.81486207 -0.5125258565 0.1662495136 0.8424240947
-0.05562523 -0.1255728 0.80589467 0.2673491836 0.08439905941 0.9598964453
0.037191268 -0.15732306 0.84850001 0.1195164472 -0.3493056297 0.9293553829
-0.11532629 -0.10550386 0.82369983 0.4456843436 0.4461680353 0.7760795951
0.023653308 -0.23259832 0.86120838 0.02660369687 -0.4033626616 0.9146533608
-0.076912895 -0.067281246 0.80000013 0.1288595796 0.05248558894 0.9902729392
0.0041960697 -0.22627994 0.81560874 0.2310734838 -0.6978293657 0.6779670119
-0.054468039 -0.15511572 0.78638786 0.1628663689 0.1708627343 0.9717409611
-0.014209012 -0.21324818 0.8623001 -0.3805950284 -0.2898303866 0.8781490326
0.05138056 -0.20135193 0.79200006 -0.2698996067 -0.3461479843 0.8985186815
-0.012045524 -0.23652706 0.80814284 0.1641160399 -0.734973073 0.657936573
0.067910641 -0.20505677 0.85227776 -0.8268373013 0.1450940222 0.5434039235
-0.04377168 -0.073619761 0.80077404 -0.3074761331 -0.2892841995 0.9065170288
-0.093986362 -0.10331995 0.80877775 0.3956771791 0.2385192811 0.8868754506
0.045762289 -0.23756643 0.787 0.2192726135 -0.01655272953 0.9755232334
-0.010828148 -0.12770492 0.78425002 -0.2375472635 -0.3986872733 0.8857876658
0.033017404 -0.21587619 0.79113048 0.3328348994 -0.21381405 0.9184250236
0.063732281 -0.19488204 0.84524995 -0.8694324493 -0.08017516881 0.4875029922
-0.084495388 -0.045389906 0.79653084 -0.005628709681 -0.02379846759 0.9997009039
-0.10316473 -0.033253361 0.79800022 -0.03066660091 0.08452223986 0.9959495664
-0.14251202 -0.01487319 0.79704785 0.2978268564 -0.06400808692 0.9524716139
-0.032568686 -0.15368405 0.79720014 -0.2002291977 0.45627895 0.8670166135
-0.048100725 -0.037124861 0.83450001 -0.8187767863 -0.4751102924 0.3222960532
0.035547737 -0.235074 0.79293036 0.2173846811 -0.05035012588 0.97478652
-0.093505234 -0.013391143 0.8011378 -0.4326160848 -0.4782367051 0.7642859221
0.0076242448 -0.23355678 0.85742855 -0.1658761799 -0.5337204933 0.82923311
-0.10537622 -0.074734278 0.80786932 0.3341834843 0.1676618606 0.9274755716
-0.038283862 -0.05632443 0.83660001 -0.821098268 -0.5053153634 0.2654317617
-0.10522162 -0.014742763 0.79636019 -0.2450655997 -0.2226507515 0.9435939193
-0.048346702 -0.047870383 0.81500006 -0.7555988431 -0.532012105 0.3821433485
-0.08444944 -0.024012052 0.80163407 -0.3437407911 -0.3970619142 0.850990057
-0.074852042 -0.011607554 0.82188898 -0.6251859665 -0.6675817966 0.4043229818
0.017533334 -0.23073867 0.80000001 0.342984885 -0.6021590829 0.7209478617
-0.06566219 -0.15548086 0.79116684 0.5129672885 0.0535698384 0.8567349911
-0.070657581 -0.12452523 0.79800004 0.4621979892 -0.02088808455 0.8865306973
-0.085375048 -0.074772805 0.8012045 0.2704050541 0.1527931839 0.9505447745
-0.01548807 -0.10201038 0.80744445 -0.4876842499 -0.4854836166 0.7255823612
-0.017613109 -0.21792446 0.81771439 -0.2397210151 -0.5733922124 0.7834253311
-0.047981333 -0.16420649 0.78188896 -0.5106810927 0.1372495294 0.8487446308
-0.093083426 -0.1517224 0.82663637 0.5595196486 0.1210833788 0.8199247718
0.0052360059 -0.23478526 0.79424578 0.3416222632 -0.6996298432 0.6275447011
-0.067752801 -0.046618111 0.79766679 -0.3091671765 -0.2657484114 0.9131228924
-0.07822255 -0.18513426 0.81300008 0.509080708 0.5055601001 0.6965959072
-0.082359739 -0.17475253 0.80805272 0.7794181705 0.1311012506 0.6126334667
0.044603314 -0.17567992 0.80667847 -0.7980794311 -0.3854774237 0.4631159306
-0.025257643 -0.19571613 0.86387193 -0.3197110295 -0.1200065315 0.9398847222
-0.061985776 -0.1052658 0.79631597 0.3433014452 0.1173853278 0.9318609238
-0.058972739 -0.028404625 0.8247143 -0.7194509506 -0.5698074698 0.3971268833
0.014911224 -0.2277464 0.86770022 0.04026183113 -0.4213328063 0.906011939
0.015121873 -0.17467001 0.86252367 0.1909074485 0.2086495757 0.9591766
-0.034559458 -0.1043255 0.79404348 -0.2091715187 -0.4161171019 0.8849259019
-0.11152437 -0.13368885 0.83633339 0.7098171711 0.3034229875 0.6356839538
-0.068517558 -0.14285584 0.80272734 0.72900033 -0.3094744682 0.6105604768
-0.045706563 -0.19658445 0.80393094 -0.7177199125 0.1200413555 0.6859068871
