# .PCD v0.7 - Point Cloud Data file format
VERSION 0.7
FIELDS x y z normal_x normal_y normal_z
SIZE 4 4 4 4 4 4
TYPE F F F F F F
COUNT 1 1 1 1 1 1
WIDTH 206
HEIGHT 1
VIEWPOINT 0 0 0 1 0 0 0
POINTS 206
DATA ascii
-0.11181445 -0.13146669 0.77300006 0.3795287609 0.465077579 0.7997879386
-0.21111304 -0.017309453 0.73812503 0.1352101266 0.02291247994 0.9905520082
0.02346223 -0.14575021 0.81100005 0.8917928934 0.06407453865 0.4478838146
-0.095685981 -0.017113147 0.77263349 -0.3472277522 -0.002003706526 0.9377787113
-0.033788234 -0.082641117 0.78092873 -0.4969422817 -0.4134920239 0.7629368901
-0.18427081 -0.087512515 0.77183336 -0.06668343395 0.4950353801 0.8663101792
-0.041604847 -0.17119372 0.77800006 0.3743128777 0.9244359136 0.072856538
-0.15155692 -0.037528872 0.75100005 -0.4392201602 0.4320187867 0.7876836061
-0.065372422 -0.12697175 0.81139994 -0.3379509151 -0.0646738559 0.9389390349
-0.083752491 -0.074042596 0.7485429 -0.8088004589 0.3666197956 0.4598171115
0.013788642 -0.17526266 0.76612824 0.3067106605 -0.2236819416 0.9251459241
-0.025267161 -0.15523709 0.82361263 -0.356426239 -0.1446313411 0.9230612516
-0.13513486 -0.084691219 0.76340902 0.1075273827 0.01443530153 0.9940972924
-0.0049449159 -0.12532948 0.77556872 -0.602656126 -0.5325833559 0.59427315
-0.065309323 -0.11385351 0.76216251 -0.2149826884 -0.06318226457 0.9745719433
-0.13518199 0.00067590998 0.77100003 -0.3728610277 -0.4642860889 0.803376019
-0.16893016 0.00065224001 0.74400002 -0.3169247508 -0.4775628448 0.8194464445
-0.19454598 -0.056049164 0.74389356 -0.03142377362 0.5847562551 0.8106001616
-0.065920897 -0.045863558 0.7808373 -0.4061156511 -0.3205646574 0.8557502031
-0.078037985 -0.15307964 0.77214295 0.3406483829 0.6528101563 0.6766073704
0.01061205 -0.10965785 0.80700004 -0.6792622805 -0.5146660805 0.5231841207
-0.078763038 -0.03747575 0.73844445 -0.9637793303 -0.2302560359 -0.1345793456
-0.11504319 -0.054847792 0.76296872 -0.14632608 0.04212500528 0.9883390665
0.005338734 -0.17427048 0.8144595 0.3444813192 -0.7839950323 0.5164149404
-0.10129667 -0.10274813 0.75881809 0.329697758 0.07947073132 0.9407357574
-0.15766653 -0.1034013 0.78025007 0.1848329604 0.357182622 0.915563941
0.022896012 -0.14631979 0.7757085 -0.7253578901 -0.3956828117 0.5632858872
-0.053086255 -0.1618657 0.81100005 -0.5307243466 -0.4207867682 0.7357106209
-0.16452524 -0.064986035 0.76330906 -0.293720156 0.3991056383 0.8685868979
-0.034528207 -0.11247656 0.76510346 -0.3469465673 -0.3432330787 0.8728225231
-0.035225254 -0.12669867 0.81727767 -0.3410095572 0.02530204132 0.9397192597
-0.011255961 -0.089347675 0.80250001 -0.6672369242 -0.4890983999 0.561762929
-0.014133093 -0.18142696 0.77510011 0.2222925574 0.02398954332 0.9746848345
-0.12566957 -0.024765819 0.75676781 -0.4439834058 0.1827681959 0.8771969676
-0.061638057 -0.073134542 0.77142859 -0.4263526499 -0.318732053 0.8465420008
-0.18448503 -0.024981918 0.73069632 -0.1865049154 -0.01576295495 0.9823275805
-0.13385157 -0.1133426 0.77226484 0.3376910686 0.3655239344 0.867385149
-0.082630225 -0.13233919 0.75806659 0.1543272436 0.3432357907 0.9264838099
-0.09733104 -0.07097055 0.77100003 0.1393840909 -0.3465338945 0.9276240468
-0.09444768 -0.045768417 0.77214301 -0.2624157965 -0.05148523301 0.9635804296
-0.01358094 -0.10446683 0.7837956 -0.6304428577 -0.4633111656 0.6228038073
-0.1478705 -0.0094703799 0.74871433 -0.3929124177 -0.4118880928 0.822172761
-0.20081015 -0.071384333 0.76100004 -0.1116542816 0.5979548693 0.7937148809
-0.0094478363 -0.13881052 0.82900006 -0.2895663977 -0.07956115901 0.9538455606
-0.17429055 -0.04593657 0.74272722 -0.3886368275 0.5093607903 0.7677974701
0.015787855 -0.13329753 0.79376 -0.7457125783 -0.5154413581 0.4221764803
-0.048107784 -0.058584999 0.78620005 -0.4195353091 -0.370051682 0.8288859129
-0.21419114 -0.039328147 0.74150002 0.1822867543 0.3223620653 0.928899467
-0.13506478 -0.044998199 0.76355553 -0.250161618 0.3153797388 0.9153987169
-0.055256106 -0.094934866 0.76667839 -0.1853963137 -0.2772689164 0.9427354336
-0.1163106 -0.007590272 0.76505262 -0.3576124609 -0.2435905337 0.9015414715
-0.014325816 -0.17415138 0.82188207 -0.2207330167 -0.3338713348 0.9164097905
-0.055508174 -0.15636823 0.77273548 0.4605439305 0.8875317574 0.01366312336
-0.078355417 -0.027933758 0.77720004 -0.3162485063 -0.08349087834 0.9449953437
0.0017330348 -0.1562527 0.82900017 0.1486252546 -0.1641070396 0.9751817584
-0.15548895 -0.084692866 0.76723921 0.1433505118 0.344514668 0.9277716875
-0.082796477 -0.094507612 0.76272404 -0.272398293 -0.1622821689 0.948400557
-0.11484022 -0.084842838 0.76159614 0.08562918752 -0.1998209208 0.9760836363
-0.19374448 -0.0074052988 0.73822224 -0.01221266203 -0.3365722001 0.9415784478
-0.13522984 -0.065256737 0.76742876 -0.06488697231 0.08634177595 0.994150281
-0.094264582 -0.1420275 0.77357155 0.3961782455 0.5062069893 0.7660269737
-0.044936534 -0.14502911 0.81700015 -0.4026380777 -0.06758122891 0.9128611088
-0.077658802 -0.054144796 0.74843997 -0.8816075921 0.335493356 0.3319823444
-0.065106794 -0.14515972 0.80516404 -0.6549063921 -0.3843539059 0.6506686211
-0.16666856 -0.024576096 0.7377001 -0.3631324172 0.03604428098 0.9310401082
-0.11468225 -0.11468271 0.76554179 0.2988819182 0.329749614 0.8955081105
0.0083070016 -0.15806417 0.76833338 0.2615283728 -0.2045000196 0.9432829022
-0.085229129 -0.11510964 0.75338006 0.00529934559 0.188732639 0.9820142388
-0.074779041 -0.060847305 0.77242863 -0.2953567505 -0.5225420594 0.7998213172
-0.11505863 -0.034880001 0.76689452 -0.2820059359 0.07035936415 0.9568292499
-0.030798176 -0.17118056 0.81700003 -0.3551401496 -0.2705515921 0.8948057294
-0.025170935 -0.16640021 0.77790904 0.1505973339 0.1294926256 0.9800776243
-0.17918015 -0.071009122 0.75700009 -0.200788334 0.5505360961 0.8103049397
0.0016795682 -0.11843329 0.78871435 -0.6487221718 -0.5114585757 0.5635331273
-0.020638486 -0.084908672 0.79000002 -0.6342246532 -0.4623684287 0.6196568012
-0.094198793 -0.086503774 0.75516677 0.2373582572 -0.3095462918 0.9207834601
-0.0020351815 -0.16884732 0.77350008 0.293858707 -0.1281181276 0.9472237229
-0.0011691811 -0.10196948 0.80033332 -0.6815621257 -0.5086222291 0.5260955691
-0.027131489 -0.096014693 0.77676922 -0.5094302893 -0.4454250634 0.7362589836
-0.16214396 -0.048367716 0.75370002 -0.4488892257 0.5300555229 0.7194022536
-0.095642686 -0.12575479 0.76289183 0.4013502896 0.4047447741 0.821644485
-0.12321331 -0.077311672 0.7716428 0.0305028148 -0.1165338904 0.9927182198
0.0060038855 -0.1446037 0.77458996 -0.3015992939 -0.3951786757 0.8676818013
-0.046431623 -0.076335624 0.77616215 -0.4072234929 -0.3724615872 0.8339312673
-0.19500042 -0.045197111 0.73380327 0.02371911891 0.3919865787 0.9196650982
-0.14207917 -0.026195519 0.75044447 -0.4133508205 0.2296239138 0.8811435699
-0.074974611 -0.07500118 0.76553428 -0.3993527591 -0.08857960254 0.9125080705
-0.13512492 -0.0069723967 0.75548828 -0.3973869681 -0.3645398617 0.8421367407
-0.00067415665 -0.18269646 0.76900005 0.2684237659 -0.08515335619 0.9595298767
-0.021364192 -0.1141243 0.7712 -0.5136948824 -0.444088757 0.7340999246
-0.17289811 -0.058101691 0.7520625 -0.3638846278 0.5531988144 0.7493724227
-0.066688493 -0.1469909 0.76532006 -0.007598407567 0.3595273197 0.933103621
-0.14971276 0.00066538999 0.75900006 -0.3692358136 -0.5236468911 0.7677622437
-0.03832699 -0.098843299 0.76700002 -0.327131629 -0.4034541547 0.8545230627
-0.1477205 -0.096393764 0.77280015 0.2647598684 0.3390576243 0.9027414322
-0.14540292 -0.055302482 0.7665931 -0.184645772 0.2699674666 0.944999218
-0.025158176 -0.13499962 0.82291669 -0.3551200926 0.01981451921 0.9346106648
-0.14535391 -0.0749764 0.7650345 0.04938240349 0.115519017 0.992076993
-0.088103175 -0.097493373 0.74869227 0.07368452847 -0.027486654 0.9969027638
-0.086164936 -0.06025067 0.73900002 -0.9831041694 0.1117068753 -0.1450095624
-0.12484494 -0.094726503 0.76229638 0.1882757396 0.02492898703 0.9817997813
-0.012384669 -0.15225859 0.83099997 -0.253634423 -0.2038366795 0.9455792904
-0.20443423 -0.034715023 0.7332918 0.114138633 0.1848949194 0.9761077166
-0.16762568 -0.088882163 0.77099997 -0.005340618547 0.411206305 0.91152668
-0.10488296 -0.024876859 0.76692832 -0.370133698 0.02401488461 0.9286680222
0.020826384 -0.16190775 0.76633334 0.249740839 -0.2206242681 0.9428437948
-0.21129714 -0.051792298 0.74466664 0.2094293982 0.511346221 0.8334652781
-0.1550827 -0.024850281 0.74373835 -0.4245144129 0.0946849063 0.9004567266
0.0082412511 -0.13116044 0.78333336 -0.6185246706 -0.5657552481 0.5452964306
-0.074069783 -0.10412551 0.76148868 -0.3491366804 -0.1552197337 0.9241268635
-0.065228723 -0.084730379 0.76707119 -0.3356707394 -0.1769762635 0.9252051115
-0.16425036 -0.036250468 0.74255323 -0.4358419776 0.3433583975 0.8319535851
0.0104937 -0.11962818 0.79800004 -0.6806860566 -0.5322986841 0.5033136606
-0.037658472 -0.068368852 0.78100008 -0.4635151029 -0.384341836 0.7983953357
-0.095325746 -0.058112301 0.76900005 -0.008982617408 -0.1286602467 0.991648078
-0.055218253 -0.13454083 0.81241477 -0.3361261487 -0.05793875083 0.9400331378
-0.03887666 -0.15891688 0.77800006 0.3817795515 0.9222854376 0.06028199196
-0.17504145 -0.0089517972 0.73870593 -0.289223671 -0.3187618852 0.9026297927
-0.072790869 -0.13498962 0.80562073 -0.6294525266 -0.2546930611 0.7341123819
-0.13583043 -0.034279063 0.75781089 -0.3557670712 0.3502679467 0.8664537668
-0.08386486 -0.14283626 0.76733339 0.2876402736 0.4556220174 0.8424201012
0.020697225 -0.12713647 0.80300009 -0.7623972893 -0.5276169777 0.3746608198
-0.10562603 -0.044446759 0.76765227 -0.2681902051 0.01755270734 0.9632060528
-0.032602035 -0.14442007 0.82145458 -0.3693244755 -0.01119061932 0.9292331338
-0.17496315 -0.034562379 0.73723406 -0.362260282 0.23706761 0.9014246464
-0.075887665 -0.12427137 0.75243509 -0.08503004164 0.2151917517 0.9728630185
-0.053896591 -0.11378169 0.75900006 -0.1816615462 -0.2145655155 0.9596669674
-0.087781861 -0.076205306 0.76660001 0.09149094671 -0.317933321 0.9436883926
-0.16166171 -0.014739582 0.74121064 -0.35715729 -0.2440917939 0.9015862942
-0.0051608705 -0.16530825 0.82799965 -0.1813302934 -0.2940940559 0.9384178519
-0.036295306 -0.15482965 0.81885391 -0.3865963221 -0.1391419619 0.9116922617
-0.079197459 -0.064874478 0.75330764 -0.8189845085 0.402084291 0.409380734
-0.098052353 -0.03558049 0.76900005 -0.3215538263 -0.007792802993 0.9468592405
-0.10618819 -0.065405503 0.76688123 -0.04235800356 -0.03003813513 0.9986508489
-0.21437129 -0.02728362 0.74100006 0.1232549623 0.1190972105 0.9852025509
-0.13446082 -0.10361091 0.7675643 0.2699169815 0.1969440132 0.9425274134
-0.11437097 -0.074837059 0.7660203 -0.05047367886 -0.1529809684 0.986939311
-0.05287734 -0.083441369 0.77131999 -0.3274377882 -0.3256628215 0.8869770169
-0.14359908 -0.11187373 0.7763077 0.3187530339 0.3756072819 0.8702388406
-0.202546 -0.064599812 0.75317645 0.03628921509 0.605881393 0.7947269082
-0.013031339 -0.09425693 0.79341942 -0.6630123258 -0.4884483814 0.5673031211
-0.12481953 -0.044960797 0.76550001 -0.1861791611 0.1946312636 0.9630451798
-0.11512868 -0.024861198 0.76412743 -0.3573520184 0.07412227243 0.9310238361
-0.1022471 -0.13101111 0.76900005 0.3911120892 0.458953619 0.7977423668
-0.18398416 -0.0047068233 0.74180001 -0.1781133413 -0.3269730508 0.9280971289
-0.027878059 -0.077647708 0.78846663 -0.5898157358 -0.4397880733 0.6772767901
-0.19084787 -0.082060561 0.76600003 -0.1431535184 0.5391055942 0.8299832344
-0.1948224 -0.024992246 0.73101777 0.05587170646 0.01962142065 0.99824512
-0.025053326 -0.17671917 0.77756244 0.1228279248 0.04893364757 0.9912208915
-0.18458985 -0.034934364 0.73343575 -0.1815485805 0.244551897 0.9524886012
-0.075531051 -0.13918443 0.76110011 0.1143857688 0.3710728586 0.9215317965
-0.17480293 -0.082288697 0.7677002 -0.1058267727 0.4489029646 0.8872918487
-0.015854213 -0.17279033 0.78039134 0.2071912438 0.05597319081 0.9766979218
-0.098437697 -0.11602911 0.76141173 0.356600225 0.2774554491 0.8921069503
-0.12524652 -0.06521 0.76525503 -0.1000567079 -0.009014861658 0.994940877
-0.14637351 -0.042589132 0.75815392 -0.3749676645 0.468383342 0.8000101447
-0.11493735 -0.10491759 0.76279992 0.2560434341 0.244988367 0.9351055622
-0.20489331 -0.024662714 0.7345435 0.1355952173 0.04299109429 0.9898311496
-0.054808188 -0.10444438 0.7632066 -0.1579070538 -0.2318317741 0.959853828
-0.16516933 -0.07478749 0.76572871 -0.1086809784 0.3847868443 0.9165847301
0.015211262 -0.15111475 0.77124995 0.0340747647 -0.3269433677 0.9444294572
-0.065297723 -0.095100231 0.76609427 -0.2434208095 -0.2611724734 0.9340959787
-0.095901057 -0.081895702 0.76499999 0.1816429943 -0.3733442724 0.9097361565
-0.12507963 -0.054845642 0.76296425 -0.1369092017 0.1396256983 0.9806938767
-0.184916 -0.015285329 0.73309565 -0.1484308243 -0.1406322867 0.9788722396
-0.1445097 -0.084961303 0.76684463 0.1300150752 0.157775104 0.9788784981
0.013539825 -0.13832866 0.77644444 -0.5964736938 -0.538906455 0.5948100686
-0.18569238 -0.044022184 0.73737741 -0.1698652953 0.4545161724 0.874391675
-0.11482703 -0.094799727 0.76151586 0.2077727169 -0.1058654115 0.9724314809
-0.075034119 -0.085061386 0.76565504 -0.3247772753 -0.09146121889 0.941357851
-0.13512617 -0.054805897 0.76481664 -0.1309079379 0.2180318981 0.9671221375
-0.14510599 -0.065163024 0.76630336 -0.1038349047 0.203251645 0.9736052155
-0.04518256 -0.1351964 0.81649995 -0.3378200233 -0.02675495669 0.9408303499
-0.0053683207 -0.17622875 0.81836015 -0.2188599408 -0.5710657835 0.7911916375
-0.044183623 -0.09271802 0.77200001 -0.3346886337 -0.3812393546 0.8617656827
-0.015070288 -0.16530564 0.82611126 -0.1946829557 -0.3085265756 0.9310799837
-0.15485777 -0.055470895 0.76391232 -0.3371982574 0.3998167515 0.8523167968
-0.066551507 -0.056238554 0.77514714 -0.5053790808 -0.3769131601 0.776227057
-0.05453229 -0.14431718 0.81245965 -0.3674172759 -0.1096614525 0.9235686064
-0.055975508 -0.066390231 0.77571064 -0.3855897784 -0.3564397991 0.8510412574
-0.068585142 -0.121705 0.76700002 -0.1136869565 0.08398040384 0.9899609089
-0.15510565 -0.065130562 0.76591843 -0.1862898916 0.2652954459 0.9459991455
-0.10311653 -0.088004686 0.75885713 0.1931925565 -0.3678992987 0.9095750451
-0.13522017 -0.075158082 0.76549989 0.05030246451 0.02472837083 0.9984278679
-0.12442932 -0.035307087 0.76424164 -0.2950991988 0.1959662884 0.9351543784
-0.13457125 -0.094401516 0.76367348 0.1704228073 0.08657263219 0.9815605879
-0.072655961 -0.03511057 0.78040016 -0.3212147951 -0.17911686 0.9299129844
-0.15504187 -0.074998528 0.76559252 -0.05378497392 0.2679865658 0.9619201422
-0.083672442 -0.10555263 0.75274199 -0.1886941344 -0.03990957141 0.9812245965
-0.18501058 -0.054877717 0.74507797 -0.2279718667 0.5742509365 0.7862980962
-0.024944885 -0.1648149 0.82242203 -0.3080948591 -0.2743729949 0.9109319448
-0.068346217 -0.066789933 0.76838464 -0.5185725093 -0.2767101824 0.8090204
-0.12593043 -0.085749462 0.75900018 0.1148940921 -0.1254919469 0.9854192734
-0.044916395 -0.11175964 0.76178259 -0.1814549118 -0.2298324704 0.9561648369
-0.1948452 -0.03454772 0.73084128 0.06755956262 0.2082277238 0.975744307
0.0046403059 -0.13515045 0.77437502 -0.552349627 -0.5271331668 0.6457867622
-0.10486549 -0.075286455 0.76679665 0.07762075216 -0.2254795581 0.9711508751
-0.044897608 -0.15523581 0.81473923 -0.4069808125 -0.1341005266 0.9035395384
-0.085251391 -0.033652935 0.77397519 -0.303334415 -0.06593623757 0.9506001472
-0.12532961 -0.10506811 0.76529992 0.2553442717 0.1973469704 0.9464953542
-0.16556677 0.0012260809 0.75285709 -0.3613247871 -0.4808316231 0.7989025712
-0.1255575 -0.015378376 0.75541508 -0.4168394506 -0.1560261399 0.8954890966
-0.1012024 -0.14154659 0.78000003 0.4090711772 0.5003980398 0.763061285
-0.20403686 -0.044545185 0.73632443 0.1701764017 0.3410825431 0.9245012999
-0.1149068 -0.0450201 0.76651019 -0.2282981724 0.07341311872 0.9708194733
-0.057447087 -0.12269563 0.80900002 -0.3267365098 -0.04851610586 0.9438694119
