# .PCD v0.7 - Point Cloud Data file format
VERSION 0.7
FIELDS x y z normal_x normal_y normal_z
SIZE 4 4 4 4 4 4
TYPE F F F F F F
COUNT 1 1 1 1 1 1
WIDTH 206
HEIGHT 1
VIEWPOINT 0 0 0 1 0 0 0
POINTS 206
DATA ascii
-0.055828474 -0.044136867 0.90899998 -0.1772848368 -0.1265977323 0.9759831429
-0.2553435 -0.036618069 0.84100002 -0.1083493456 0.1422748715 0.9838792086
-0.13793209 0.01255825 0.82871437 -0.7802299857 -0.6221179962 0.06488755345
-0.16594274 -0.07378611 0.88251853 0.1033956409 0.5434337854 0.8330600858
0.01341287 -0.054570623 0.85525936 0.184809044 -0.0444371514 0.9817693233
-0.098618418 -0.056193892 0.84900004 -0.1169664115 0.1393209398 0.9833150506
-0.20541586 0.01544208 0.85189182 -0.2493577749 -0.1448110193 0.9575231075
-0.086064018 0.011855943 0.87566674 -0.1538363099 -0.4849603772 0.8608994484
-0.0066422638 -0.0072148074 0.89636362 -0.4335564673 -0.7589217424 0.4858668745
0.0015993906 -0.063202403 0.91260004 0.7236871719 -0.4850803018 0.4908910394
-0.046345856 -0.02655774 0.85799986 -0.1227498651 -0.5228758454 0.8435243368
-0.15494619 -0.024798611 0.8638261 0.1792306751 0.04384621233 0.9828295112
-0.21513227 -0.065018438 0.86511117 -0.4745324552 0.4091878235 0.7793486118
-0.05577134 -0.080603369 0.87150013 -0.0844078362 -0.9739419222 0.2105053514
-0.14175612 0.026958572 0.87300003 -0.1273088604 -0.2093254626 0.9695232511
-0.11476195 -0.014752501 0.86061126 -0.2581758201 -0.2504832745 0.9330613017
-0.21468852 -0.024486726 0.84637249 -0.5321591496 0.197002396 0.8234055638
-0.045412939 0.0025068286 0.88638896 -0.2948096395 -0.7466727495 0.5962944031
-0.012999505 -0.080298282 0.87233335 0.1971860081 0.5069426298 0.839122653
-0.11736375 -0.080543749 0.87500006 0.1873908639 0.5895702243 0.7856791019
-0.085809886 -0.068490461 0.89800006 -0.2667008936 -0.740293026 0.6171198487
-0.034748916 -0.073271483 0.91027266 -0.1550118476 -0.5614125729 0.8128882051
-0.19156793 -0.034899943 0.87100023 -0.2317202091 0.2111305296 0.9495944381
-0.0064476207 -0.027541533 0.86560011 -0.3436000347 -0.6929325461 0.6338639259
-0.17437981 0.0050924821 0.8625651 -0.2244445831 -0.05053825304 0.9731754661
-0.13503325 -0.055052176 0.86177772 0.2393709421 0.3291039765 0.9134506583
-0.24492927 -0.0051486632 0.83900005 -0.1093726531 -0.1900234073 0.9756683707
-0.08480829 -0.02745457 0.85799986 0.05595318601 -0.2104557306 0.9760008454
-0.025512183 -0.037706971 0.91515017 -0.1280487031 -0.07407727093 0.988997519
-0.084869519 -0.081823967 0.86688888 0.05870874971 0.7280097604 0.6830483675
-0.11509569 0.015191893 0.87423068 -0.1873180717 -0.4132963419 0.8911218047
-0.065212041 -0.0078269849 0.86859995 -0.1379974484 -0.5809282064 0.8021715283
0.011361249 -0.026765862 0.88760006 -0.4697825611 -0.7489726543 0.4672732353
-0.17336082 0.029916249 0.87500006 -0.2246092707 -0.1528740376 0.962382555
-0.23531248 -0.054816689 0.8462559 -0.3059546649 0.4277274013 0.8505533338
-0.12859768 -0.013012841 0.83736366 -0.8857978582 0.104125239 0.4522389472
-0.14922707 0.0022802099 0.86700004 -0.1120409891 -0.1168348268 0.9868112206
-0.16420795 -0.05394813 0.86667997 0.143721059 0.2453837991 0.9587132335
-0.025211288 -0.013320951 0.87487507 -0.296102792 -0.7271820307 0.6192975044
-0.19481683 -0.072874516 0.8760556 -0.2158514857 0.3460146785 0.9130618572
-0.19437228 -0.0055129477 0.85417795 -0.4373947978 0.17107822 0.8828465343
-0.081970252 -0.046726655 0.90618187 -0.4054934978 -0.0739748925 0.9110997319
-0.12506928 -0.035132196 0.85491675 0.1248695627 0.03353298828 0.9916063547
-0.2254453 0.0048227473 0.84755838 -0.1800608486 -0.21786578 0.959224999
-0.14457719 -0.073146306 0.87476194 0.209230572 0.5313001275 0.8209401369
-0.2093024 -0.044367902 0.85777771 -0.5654495358 0.3338697851 0.7541868687
-0.064540565 -0.073777407 0.90241945 -0.2502665818 -0.725260675 0.6413763165
-0.23531128 -0.02492618 0.83619052 -0.1847343147 0.03554323688 0.9821455479
-0.18631943 0.022432659 0.85799986 -0.3684518635 -0.1657990366 0.9147425294
-0.095074058 -0.0052520544 0.86702091 -0.08813587576 -0.392157197 0.9156663418
-0.035234917 -0.076600999 0.87375003 0.09778052568 -0.9862955809 0.1328910887
-0.066569246 0.010063257 0.88300002 -0.258061409 -0.634006381 0.7289994359
0.01217427 -0.038046457 0.86800003 -0.4822520316 -0.5779754519 0.6583139896
-0.025115035 0.0023548242 0.89522225 -0.3379554152 -0.7831475735 0.521982789
-0.11533707 -0.065141194 0.86124247 0.2245593071 0.5667898059 0.7926679254
-0.10524061 -0.034915633 0.86018622 -0.1102827564 -0.2271344066 0.9675989151
-0.1745339 -0.015175028 0.86558354 -0.07516137511 0.2382781804 0.9682841897
-0.18591881 -0.054990221 0.87166673 -0.03433828801 0.2830224335 0.9584984183
-0.065702938 -0.032776464 0.85672015 0.004393322393 -0.237046957 0.9714882374
0.0017991223 -0.073349282 0.86115384 0.3630794883 0.1078406125 0.925496459
-0.13710804 -0.016208924 0.86406672 0.2377910316 -0.1066313833 0.9654455781
-0.035251401 -0.054482643 0.91394478 -0.181374833 -0.09266102314 0.9790388942
-0.016137095 -0.072688378 0.91283339 -0.1240964383 -0.3546595275 0.926723659
-0.086096346 -0.046414156 0.85896659 -0.09093931317 -0.09417759627 0.9913932681
-0.014466754 -0.054665431 0.91699994 -0.1294565201 -0.1139383093 0.9850172997
-0.051655393 -0.06282413 0.90999997 -0.2228916585 -0.1318053752 0.9658916593
-0.023998011 -0.031779572 0.86153847 -0.2260407507 -0.59202528 0.7735707164
-0.047233045 -0.0099037029 0.86900002 -0.2094010264 -0.6521716714 0.7285762429
-0.0018782584 -0.045925792 0.85649997 -0.2287001759 -0.3097831607 0.9228925109
-0.12797442 0.0034777368 0.84242857 -0.9060428739 -0.2404712886 0.3482238352
-0.11362825 -0.046559468 0.84900004 0.07408186048 -0.03995756432 0.9964513183
-0.1748492 -0.034969602 0.86716694 0.06075346097 0.133519575 0.9891822338
-0.086608581 -0.06591142 0.85560018 -0.0299935881 0.3787460029 0.9250144958
-0.19932769 -0.02106104 0.85800004 -0.5636082888 0.2981237471 0.7703686953
-0.22780775 -0.0084499698 0.83825004 -0.2254225314 -0.1677554995 0.9597097635
-0.20308848 -0.055930093 0.87142122 -0.3099481761 0.2793077826 0.9088010192
-0.25204757 -0.052226912 0.84242862 -0.2470022291 0.3369827867 0.9085331559
-0.21771491 0.01544599 0.83900005 -0.2148996443 -0.2123043835 0.9532811642
-0.25162944 -0.019243008 0.83780003 -0.06031647325 -0.007606591098 0.9981503487
-0.0019310775 -0.021256756 0.88175005 -0.4711262584 -0.7386100888 0.4821775258
-0.12468118 0.0057509332 0.86682063 -0.2248132229 -0.4931677282 0.8403835893
-0.15525472 0.025064716 0.86630982 -0.160074845 -0.1714273989 0.9721052647
-0.22791053 -0.060926575 0.85800004 -0.4829351604 0.4434962273 0.7550395131
-0.13589773 -0.0045659435 0.82720006 0.1981218457 0.7104054093 0.6753309369
-0.21435344 -0.0051919958 0.84606129 -0.2864846587 -0.1075036004 0.9520344138
-0.22274259 -0.048365016 0.85166663 -0.4958967268 0.417811662 0.7612619996
-0.014037966 -0.013007266 0.8845185 -0.3997137547 -0.7574359775 0.5162554383
-0.14528279 -0.044641767 0.86311895 0.292896688 0.09731259197 0.9511791468
-0.17934321 -0.070043914 0.87800002 -0.006546266377 0.4196146131 0.9076787233
-0.1585694 -0.036906198 0.87100017 0.1557232887 0.08047638834 0.9845170379
-0.22447814 -0.035077844 0.84533334 -0.4622518122 0.2861431539 0.8393124342
-0.23696567 -0.042891473 0.83827281 -0.2449330688 0.3093158603 0.9188750982
-0.065178804 -0.054845732 0.90671438 -0.1929773986 -0.1409150809 0.9710317254
-0.12529884 -0.022383131 0.84845454 -0.4874674082 0.3302886486 0.8082604408
-0.081702702 -0.00076357665 0.87100005 -0.1462115943 -0.4916786849 0.8584137559
-0.12665619 -0.072702304 0.86837512 0.1806412637 0.5314381123 0.8276124001
-0.10478979 -0.072920784 0.8656922 0.1606960595 0.5962840915 0.7865253091
-0.16488618 0.015128051 0.86277789 -0.1901136637 -0.1522833407 0.9698796868
-0.16507699 -0.0052995346 0.8637619 -0.0916364193 0.08773361892 0.9919201732
0.0036234823 -0.016060753 0.893875 -0.4807060063 -0.7426036 0.4663278162
-0.045167904 -0.035687804 0.91116124 -0.1898147464 -0.07663737237 0.9788243175
-0.058062728 0.0011539125 0.87725002 -0.2513025701 -0.6513673067 0.7159382701
-0.074903578 -0.015210657 0.86260986 -0.03138105571 -0.4344831705 0.9001331329
-0.13491751 0.01621886 0.86850011 -0.1039424315 -0.6127933264 0.7833774686
-0.035585374 -0.016373621 0.86704534 -0.2006664276 -0.6661260724 0.7183377147
-0.10458102 0.0073960866 0.87246668 -0.1646244973 -0.3865492642 0.9074571133
-0.18332013 -0.0065311976 0.86182147 -0.3609244227 0.1930686533 0.9123914242
-0.18544532 0.0053467173 0.85599995 -0.4042704403 0.0216096919 0.9143841863
-0.15485223 -0.062399376 0.86799985 0.2410642654 0.4039599597 0.8824422956
-0.17490999 0.023962185 0.86392111 -0.263854295 -0.1326307952 0.9554004073
-0.18469737 -0.02499041 0.86714917 -0.1858934015 0.2786290944 0.9422364235
-0.074955985 -0.075510889 0.8623901 -0.129095912 0.3883310854 0.912432611
-0.13746947 -0.035339624 0.86064011 0.2992902398 0.009636766277 0.9541134834
-0.034944929 -0.0036002034 0.88408697 -0.29680565 -0.7706500888 0.5639191866
-0.19872543 0.0055077458 0.8490001 -0.2792398632 -0.04102308303 0.9593446851
-0.046182409 -0.072770558 0.90525007 -0.1612136662 -0.7606902122 0.6287770271
-0.075204857 -0.064913668 0.903 -0.2287636399 -0.3358900547 0.913698554
-0.0097783403 -0.036856819 0.85800004 -0.2154970914 -0.5391197205 0.8141934276
-0.009926497 -0.068721905 0.87100005 0.329856813 0.2015736848 0.92225945
-0.16490582 -0.06401778 0.87429631 0.1190517694 0.4875252545 0.8649542332
-0.096974231 -0.080175549 0.87100005 0.08999460936 0.7080844641 0.7003694177
-0.10454702 -0.063551672 0.85655558 0.07047152519 0.4735055566 0.8779671192
-0.20713644 -0.01421147 0.84870005 -0.4927176237 0.1856703162 0.8501505256
0.0037696667 -0.059560735 0.86000001 0.3376897871 0.1160422564 0.9340769649
-0.15795779 -0.01278706 0.85800004 0.09297296405 0.08224132657 0.9922662973
-0.073150814 -0.038961697 0.90700006 -0.1903104335 -0.1279166639 0.9733546376
-0.024843661 -0.064911388 0.91416365 -0.1219237745 -0.1275784224 0.9843060374
-0.12268436 -0.007823999 0.85557145 -0.7540835142 0.3058258593 0.5812302232
-0.065139845 -0.020959349 0.86000001 -0.02850762755 -0.4416645765 0.8967272043
-0.1839817 -0.043293308 0.86840016 -0.0318973735 0.1353779435 0.9902804494
-0.03547895 -0.030952344 0.86114293 -0.1566715986 -0.5416433215 0.8258792758
-0.12466858 -0.052409153 0.85769987 0.2973453701 0.2730784416 0.9148846269
-0.24498312 -0.034474134 0.83666676 -0.10189569 0.1446127146 0.9842278361
-0.17468204 -0.057054721 0.87178266 0.1058676094 0.455349952 0.8839957118
-0.20441455 -0.035304423 0.86272019 -0.5699815154 0.2926880121 0.7677595615
-0.095447876 -0.024545096 0.86084223 -0.02690530941 -0.2200806439 0.9751105905
-0.12609933 0.022181947 0.8724668 -0.1972361952 -0.4849487841 0.8520109057
-0.11808385 -0.02502971 0.85739994 -0.07620750368 -0.1262250096 0.9890701175
-0.14606151 0.017666783 0.86777776 -0.07743121684 -0.3161570132 0.9455417395
-0.043973599 -0.073289335 0.88000005 0.01300046779 -0.9707308412 0.2398179919
-0.024982369 -0.080915928 0.87300014 0.1693288982 -0.9843609333 0.04859261587
-0.19587685 -0.044713836 0.86795247 -0.2650540471 0.191056326 0.9451158047
-0.065743737 -0.08291588 0.86771423 -0.1149381176 -0.9927152991 -0.03613312542
-0.0050802832 -0.071391352 0.91500002 0.1964418143 -0.8121988177 0.5493120551
-0.13163148 -0.044147179 0.85799986 0.3201872706 0.1316782087 0.9381582737
-0.017902847 -0.018664673 0.86900002 -0.2970294058 -0.6817640662 0.668559134
-0.055064321 -0.015292133 0.86399996 -0.1396417767 -0.5625929832 0.8148553967
-0.21224976 -0.071686491 0.87300009 -0.3477686346 0.3736429811 0.859911561
-0.13145617 -0.024790879 0.85685718 0.2463956922 0.296258539 0.9227784276
-0.17871797 0.013689674 0.85799992 -0.3448403776 -0.1642191112 0.9241846204
-0.22420225 -0.070441917 0.86400002 -0.4627007246 0.4196617901 0.7808918357
-0.10411656 -0.044180781 0.85518181 -0.04763401672 -0.1736444384 0.9836557508
-0.12956695 0.01098025 0.83500004 -0.9104367495 -0.2816873491 0.302914381
-0.13501798 -0.065126382 0.86494124 0.1786863804 0.4686858952 0.8651039004
-0.085441858 -0.015308532 0.86250007 -0.02197218314 -0.3877678812 0.9214951396
-0.19532406 0.015168087 0.85476214 -0.3074472845 -0.1983903944 0.9306542873
-0.21660125 0.0092012007 0.85100001 -0.2284662873 -0.156856209 0.9608325958
-0.024906976 -0.054639503 0.91657138 -0.1294565201 -0.1139383093 0.9850172997
-0.074859194 0.0049865399 0.87616277 -0.1801058352 -0.5543218851 0.8125817776
-0.14466424 -0.024994412 0.86395901 0.2778863311 0.06134277582 0.9586533308
-0.11490615 -0.055017982 0.85596877 0.1676780432 0.1600604653 0.9727613926
-0.095077008 -0.035309941 0.85899985 -0.07977711409 -0.2539106905 0.9639320374
-0.035286471 0.003138467 0.8945455 -0.3221835792 -0.7611106038 0.5629462004
-0.025196876 -0.0065846974 0.88431257 -0.3233017921 -0.78336519 0.530862391
-0.16497655 -0.025238127 0.86508888 0.08289335668 0.0944442302 0.9920730591
-0.18249482 0.028252337 0.87100005 -0.3247451484 -0.1673954725 0.9308701754
-0.075681649 -0.034246217 0.85737503 0.04505236447 -0.2073979825 0.9772186875
0.002441118 -0.02726051 0.87490916 -0.4355607331 -0.733122468 0.5223201513
-0.094559789 0.0061881896 0.87248564 -0.1676723361 -0.4318135083 0.8862410188
-0.20399916 -0.065880679 0.873263 -0.2721306384 0.330098778 0.9038692713
-0.035220299 -0.03682138 0.91308337 -0.1829394996 -0.05553622171 0.9815543294
-0.10501915 -0.0052392599 0.86639041 -0.1457951665 -0.3826971948 0.9122974277
-0.15509671 -0.044968627 0.86431104 0.2246887535 0.1393454373 0.9644157887
-0.14448485 -0.063716821 0.86742848 0.2222886086 0.4443181157 0.8678532243
-0.1747839 -0.02510968 0.86656117 -0.01729229838 0.2451400906 0.9693334103
-0.1051036 -0.015120621 0.86252373 -0.1804533303 -0.292640537 0.9390410781
-0.23531678 -0.0033605231 0.84203696 -0.1902477294 -0.1811292619 0.9648823738
-0.15405966 -0.072954565 0.87720013 0.2102754116 0.5121845603 0.8327372074
-0.11511239 -0.0054416382 0.86361915 -0.2738030255 -0.3988973498 0.8751644492
-0.14475134 -0.055110186 0.86276197 0.2630979121 0.2698971033 0.9262478352
-0.075563326 -0.024201166 0.85899985 0.04690349102 -0.3125577271 0.9487400651
-0.095145293 -0.015020427 0.86264861 -0.05572653562 -0.3235552907 0.9445668459
-0.074735455 -0.054871954 0.90534866 -0.1929773986 -0.1409150809 0.9710317254
-0.21635444 -0.052880678 0.85727996 -0.5286322236 0.4023892581 0.7474161386
-0.044822212 -0.054426953 0.91299999 -0.2222964615 -0.1148471385 0.9681913257
-0.10500482 -0.024928747 0.86171418 -0.1849638522 -0.2082227618 0.9604330659
-0.035541642 -0.0082121752 0.87570012 -0.257083118 -0.7524961233 0.6063479185
-0.11464632 -0.035170417 0.85856658 -0.0849095881 -0.1472935081 0.9854415059
-0.15560928 -0.0053053987 0.86488086 -0.0414667204 -0.02860141918 0.9987304211
-0.065243818 -0.044557799 0.90761155 -0.1903104335 -0.1279166639 0.9733546376
-0.16475168 0.024934415 0.86565 -0.2002847791 -0.1491717249 0.9683149457
-0.11404912 -0.072060652 0.8676666 0.2027031034 0.5959270597 0.7770343423
-0.088073045 -0.055290777 0.85622221 -0.1779476851 0.09627872705 0.9793186784
0.0052652601 -0.039865538 0.85800004 -0.4041468203 -0.4622707963 0.789285183
-0.15483277 -0.054311693 0.86279994 0.2421155125 0.2390009314 0.9403502941
-0.22317435 -0.025653958 0.84239995 -0.4159614146 0.1348951906 0.8993216157
-0.20463975 -0.0051138895 0.84845859 -0.3024832308 0.01230432559 0.9530752897
-0.23500654 -0.015539514 0.83576602 -0.1844694912 -0.04842176288 0.98164469
-0.16505723 0.0052986988 0.86366665 -0.1998692602 -0.03911003098 0.9790416956
-0.16528597 -0.044622913 0.86671132 0.1452779621 0.1063904762 0.9836540818
-0.17482594 -0.044846844 0.86704779 0.08088883013 0.1038179621 0.9913015962
-0.11542728 0.004526875 0.867737 -0.2996920049 -0.4620701075 0.8346711397
-0.055236448 -0.073521525 0.90303218 -0.104317002 -0.7799615264 0.617072165
-0.13587809 -0.075038537 0.87214297 0.1707831025 0.5674250126 0.8055197001
-0.22234452 -0.015269488 0.84137017 -0.3311207592 -0.07414469868 0.9406708479
-0.17485169 -0.0052417987 0.86538112 -0.1720817685 0.1218101308 0.9775224328
