# .PCD v0.7 - Point Cloud Data file format
VERSION 0.7
FIELDS x y z normal_x normal_y normal_z
SIZE 4 4 4 4 4 4
TYPE F F F F F F
COUNT 1 1 1 1 1 1
WIDTH 206
HEIGHT 1
VIEWPOINT 0 0 0 1 0 0 0
POINTS 206
DATA ascii
0.046803679 -0.14684036 0.91684622 0.447710067 -0.7585777044 0.4734084606
-0.17339168 -0.1846427 0.90368962 0.4689524472 -0.02847238071 0.8827643991
-0.061322886 -0.12616912 0.82553327 -0.5088784695 0.3348996639 0.7930226326
0.087102532 -0.040753163 0.91150004 -0.2207879126 -0.765519917 0.6043442488
-0.065902419 -0.20460583 0.92200005 -0.0972956419 0.6327393651 0.7682281137
-0.10377123 -0.10863674 0.92555553 0.2659439445 -0.9036265612 0.3357570767
0.1035529 -0.10272966 0.83621728 -0.138100788 0.02458415739 0.9901130199
0.015992288 -0.07647074 0.86238474 0.1207779422 -0.6218810678 0.7737419605
-0.012189174 -0.18359943 0.86900002 0.2495862991 0.6465892196 0.7208530307
-0.044143047 -0.098323926 0.88114297 0.5224267244 -0.482414484 0.7030978799
-0.084588408 -0.15542533 0.88736838 0.1750477701 0.4344445467 0.8835248947
0.0014552667 -0.081383422 0.92280006 0.02397641353 0.3602935076 0.9325308204
0.1143534 -0.09240894 0.90314287 -0.888328433 0.2373655885 0.3931033015
-0.12442259 -0.21181259 0.91450006 -0.2531479299 0.3604448736 0.8977726102
-0.15456632 -0.1361087 0.9241668 0.5791649222 -0.7281740904 0.3665112853
0.07849814 -0.14166442 0.86600006 0.7951695323 -0.0431560576 0.6048495173
0.014758172 -0.13602068 0.87119371 -0.2117439657 0.2519342601 0.9442952871
0.073981896 -0.068652645 0.8682 -0.2522594035 -0.865329504 0.4330935478
0.062788114 -0.09754169 0.92500013 0.2194563895 0.07136470079 0.9730086923
-0.037344951 -0.14612104 0.88626677 -0.01560970489 0.5388743281 0.8422415257
0.034868639 -0.056265533 0.90400004 0.5226439834 -0.7387861013 0.4254859984
-0.0246353 -0.18807042 0.91250002 0.09095754474 0.7223435044 0.6855264902
-0.13484046 -0.16420151 0.89234233 0.02388780005 0.143310234 0.9893894792
-0.013999261 -0.10684055 0.84813058 0.1946534365 -0.3989671469 0.8960665464
0.0089972299 -0.1226895 0.93300003 0.0799632594 0.2290079743 0.9701346159
-0.028419487 -0.15148537 0.84566671 -0.4780710936 0.3416271806 0.8091593981
0.043748908 -0.16402048 0.87777793 0.1665093005 -0.7955105901 0.5826127529
0.083581403 -0.13293423 0.90800005 0.5808606148 -0.7369120121 0.3457768261
0.066828832 -0.09143322 0.83526671 -0.1502188146 -0.5855191946 0.7966188192
-0.12123598 -0.1298957 0.89800006 0.3295284212 -0.6527066231 0.6821913719
-0.085083485 -0.11607765 0.89413649 0.3769640028 -0.782746613 0.495182693
0.016303457 -0.1629007 0.90290004 0.1742067635 -0.9542425275 0.2430497706
-0.095210135 -0.18516523 0.90503126 0.06074234098 0.4961428046 0.8661135435
-0.067925386 -0.10647542 0.92714292 0.2836233377 -0.9160209894 0.2836606801
-0.057469007 -0.18027948 0.89800006 -0.02688177489 0.6285787821 0.7772812247
-0.015369461 -0.087012202 0.87382364 0.4460108876 -0.5411095619 0.7129338384
-0.066332601 -0.13419078 0.87411118 0.3654719293 -0.1531798691 0.9181318879
0.097074069 -0.063904375 0.89384007 -0.5916535258 -0.4941776395 0.6369729638
0.064861812 -0.050796572 0.89142853 0.108427614 -0.8172689676 0.5659636259
0.045912713 -0.076688886 0.85723805 0.2375809997 -0.7243651748 0.6471864581
0.014884643 -0.1650109 0.86403239 -0.1914928555 -0.1428668499 0.9710404277
-0.014131963 -0.13142315 0.86877781 -0.4133054018 0.2966921031 0.8609021306
-0.094364397 -0.21131174 0.92000002 -0.08967732638 0.4318744242 0.8974644542
-0.16330715 -0.15661699 0.90542108 0.5861771703 -0.5067056417 0.6321754456
0.034931976 -0.10561019 0.92664284 0.03633340448 0.1949242204 0.9801450968
-0.14623903 -0.19229408 0.89685714 -0.06788346916 0.3206614256 0.9447582364
-0.031818714 -0.12515013 0.83584219 -0.775357306 0.3310050368 0.5378258824
-0.0043689478 -0.15322874 0.88395458 -0.6959599257 -0.08305059373 0.7132618427
0.027803985 -0.1519217 0.93671429 0.1342565268 -0.2867044806 0.9485650659
0.099519201 -0.090261601 0.88000005 -0.7635846734 -0.5009864569 0.4073708951
0.064966589 -0.12506711 0.92638874 0.4195993245 -0.347107172 0.8387210369
0.085469164 -0.12461517 0.84670734 0.1985174268 0.4460652173 0.8727065325
0.091927707 -0.085202798 0.85250002 -0.5839238763 -0.6872480512 0.4321145713
-0.12713158 -0.12065241 0.92366672 0.4022290111 -0.8269686103 0.3928546309
-0.039958466 -0.1334462 0.86000001 0.7457481623 -0.08384509385 0.6609309316
-0.11352944 -0.15246059 0.88819999 0.0945802778 0.0598204881 0.9937183261
-0.034514952 -0.17048712 0.88800001 0.396563381 0.5677378774 0.7213953137
0.053283274 -0.042880218 0.91260004 0.3232192397 -0.8343421817 0.4465450048
0.056015994 -0.1457569 0.88717926 0.462169826 -0.7113633752 0.5294914842
-0.12451915 -0.1856517 0.90320015 -0.3022354543 0.38089481 0.8738265634
0.019097013 -0.072410621 0.90766668 0.7869154215 -0.1123773456 0.6067416668
-0.14653701 -0.14135526 0.90263635 0.5203446746 -0.6091396809 0.5984899998
0.0027676779 -0.1152036 0.86104774 -0.2789644301 0.4156453013 0.865689218
-0.064396359 -0.10682532 0.88674998 0.514169693 -0.6030602455 0.6098753214
-0.056993742 -0.15723501 0.88788891 -0.0501729399 0.4915753901 0.8693884611
-0.09440732 -0.13531145 0.88433337 0.3237572312 -0.173998341 0.9300031066
0.0042890753 -0.092821442 0.85211104 0.08508188277 -0.3209547997 0.9432651401
-0.0056194831 -0.15621018 0.86172247 -0.2834075093 -0.09809883684 0.9539690018
0.03482496 -0.12672092 0.93000025 0.1383238137 0.08827522397 0.9864451289
-0.044426024 -0.11365812 0.82253838 -0.5197107196 0.4130347967 0.7478656769
-0.045230549 -0.19224317 0.91207141 -0.1044100299 0.6927585602 0.7135713696
-0.075557485 -0.19207877 0.90725005 -0.01504131593 0.5957214236 0.8030502796
-0.17450957 -0.15562908 0.92300004 0.6905415058 -0.5282719135 0.4940457344
-0.085092776 -0.10917071 0.91566676 0.2649866045 -0.9072096348 0.3267303407
-0.052726101 -0.1433395 0.83352637 -0.5020563602 0.2307838649 0.8334735632
-0.14401354 -0.21085063 0.90760005 -0.1859202981 0.4357835054 0.8806397319
0.044770904 -0.062244311 0.88688236 0.3039903641 -0.8801256418 0.3646487594
0.0037056699 -0.17740455 0.88060009 0.3026202619 -0.8762035966 0.375084281
0.02577663 -0.14919201 0.89100003 -0.02335713059 0.9039064646 0.4270920157
-0.10253727 -0.11918312 0.90433335 0.3117830157 -0.8300616145 0.4623732567
0.083205827 -0.10300311 0.83817643 -0.1710906625 0.04691665247 0.9841375947
-0.035821564 -0.11415682 0.86430013 0.6077612638 -0.4030387104 0.6842412353
-0.023311667 -0.16470084 0.86475021 0.6283061504 0.5864129663 0.5112252831
-0.15520594 -0.17480142 0.8941434 0.2229675055 0.01406134758 0.9747244716
0.014975755 -0.10544202 0.92599988 0.01701113023 0.2897001505 0.9569662809
0.080965735 -0.11479345 0.92272735 0.4492776394 -0.2571515739 0.8555832505
0.074680194 -0.076553494 0.84469223 -0.1811998934 -0.7822517753 0.5960274935
0.112129 -0.065350406 0.9054001 -0.6826012731 -0.418679148 0.5989685059
-0.16201633 -0.20152944 0.90150005 0.0754448548 0.3176018894 0.9452180266
-0.10570576 -0.1715482 0.898 0.03066500835 0.4881266356 0.8722339272
0.070850737 -0.13577667 0.88166672 0.666046083 -0.7325565815 0.1405115575
-0.074956305 -0.17477311 0.89720023 0.0752068162 0.5021820068 0.8614854217
0.10095978 -0.048696421 0.90325004 -0.5012229681 -0.6053666472 0.618309617
0.038178831 -0.066431172 0.87100005 0.1845852137 -0.8669236898 0.4630028009
0.04028371 -0.15086645 0.90100002 0.1896956861 -0.9555820227 0.225562647
-0.14006941 -0.12886386 0.91300005 0.473957479 -0.7769197822 0.4144393206
0.071232088 -0.15300755 0.88000005 0.6486964226 -0.7158312798 0.2584154606
-0.048738979 -0.1229916 0.87140006 0.5801717043 -0.1554327607 0.7995257378
0.062920853 -0.14147662 0.91433334 0.4511459172 -0.7234011889 0.5226452947
-0.070043914 -0.15009409 0.87800002 0.2117853016 0.4190106988 0.8829365969
0.02977949 -0.1702776 0.87100005 -0.0338794589 -0.9129986763 0.4065533578
-0.017225843 -0.12300421 0.84525007 -0.7370291352 0.36782974 0.5670002699
-0.051803984 -0.14093731 0.86900002 0.1246439964 0.6328569651 0.7641701102
-0.11364106 -0.1955492 0.91074991 -0.2197432965 0.3599775434 0.9067133069
-0.16662259 -0.14487232 0.93260002 0.6196302772 -0.6650410891 0.4168677032
0.057961088 -0.083886012 0.84684616 0.2726944387 -0.7069880366 0.6525378823
0.055677097 -0.064771131 0.87514299 0.08837454021 -0.8961766362 0.434807241
-0.07667017 -0.12427294 0.88159984 0.3523903191 -0.4069930017 0.842720449
0.084725916 -0.048076093 0.8972941 -0.23952052 -0.75379318 0.6119033694
0.062644497 -0.069554031 0.85679996 0.05594643578 -0.8894802332 0.4535360336
0.041079726 -0.1417421 0.93100005 0.3395706713 -0.1660216451 0.9258123636
-0.04186346 -0.17930202 0.90100002 -0.0684209466 0.701143384 0.7097298503
-0.031234756 -0.099798858 0.86900002 0.5384327173 -0.5632336736 0.6267839074
0.086207338 -0.062827103 0.8825264 -0.4347001314 -0.6580030918 0.614872098
0.017230006 -0.14031576 0.93600005 0.1946857423 0.1094015092 0.974745512
-0.0058222776 -0.085030854 0.86150002 0.3516434133 -0.5805794597 0.7343530655
-0.11453772 -0.11736242 0.91547632 0.3310274482 -0.8364701271 0.4367362857
0.092928611 -0.076718785 0.87715399 -0.6583787799 -0.6099644899 0.4409997165
-0.13476028 -0.14493935 0.89369076 0.3128705919 -0.3840778172 0.8686749935
0.1083582 -0.082507044 0.89350003 -0.7433874011 -0.3676665723 0.5587454438
0.032929942 -0.083625227 0.8602221 0.1597709358 -0.6596850753 0.7343629003
-0.0038178833 -0.16875045 0.87100005 -0.1576149464 0.2261168063 0.9612641335
-0.04920993 -0.16950087 0.89100003 0.08220099658 0.4753831625 0.8759302497
-0.01801024 -0.14933491 0.85600007 -0.763690412 0.08378926665 0.6401221156
-0.02030886 -0.097783402 0.85800004 0.4467386603 -0.5367161632 0.7157934904
0.0513639 -0.1312633 0.93000007 0.2697515488 -0.266012609 0.925457418
-0.026041711 -0.13675298 0.84262496 -0.7300804257 0.2389834225 0.6402105093
0.045558624 -0.11552361 0.92799991 0.06348038465 0.1247755587 0.9901521802
0.045430399 -0.095943056 0.92387885 0.04241685197 0.157451421 0.9866153598
-0.082166903 -0.14220454 0.87800014 0.2658484876 0.2065376043 0.9416298866
-0.1081754 -0.13111252 0.89200002 0.353556186 -0.4997756183 0.790710032
0.023670876 -0.067958325 0.87100005 0.1571142375 -0.8571645617 0.4904936552
-0.025874645 -0.11399795 0.85397226 0.4696255326 -0.5675017238 0.6763088703
0.0045976778 -0.1569825 0.87350005 -0.01706162095 -0.3719475865 0.9280969501
-0.071700811 -0.16132683 0.88900006 0.09801019728 0.5137580037 0.8523184061
0.065027408 -0.043346565 0.90458345 0.09964510053 -0.8391809464 0.5346458554
0.082240663 -0.086648703 0.83827281 -0.3482672274 -0.4990878403 0.793486774
0.061714701 -0.16185722 0.88550001 0.4398055673 -0.6447178125 0.6252279282
0.025316881 -0.16065292 0.8828572 -0.05873453245 -0.9408923984 0.333574146
0.093870103 -0.095384419 0.84311759 -0.5514866114 -0.4557462335 0.6986829638
0.10061854 -0.11223934 0.84600002 0.2595401108 0.1600651145 0.9523749948
0.076733023 -0.12832354 0.85683334 0.6130762696 0.3803154528 0.6924576759
0.036680736 -0.15387538 0.92590487 0.3685856462 -0.7221109867 0.5854061246
-0.015698504 -0.14307165 0.87608016 -0.2008433938 0.4164052308 0.8867179155
-0.027398551 -0.17817593 0.90329999 -0.08203285933 0.6977536678 0.7116251588
-0.041287493 -0.15187898 0.84100002 0.538600266 0.8337686062 -0.1214068234
-0.12626426 -0.17407288 0.89668769 -0.1889112443 0.3254615366 0.9264919758
0.013650817 -0.15344782 0.88727278 0.1799457371 0.8732361794 0.4528555572
-0.095039017 -0.16469565 0.8937254 0.09086242318 0.4638343155 0.8812500834
-0.094729848 -0.19659074 0.91187501 -0.02248738892 0.4531448483 0.8911532164
-0.10513087 -0.20512319 0.91441506 -0.1293544769 0.3772064447 0.9170510769
-0.14433675 -0.15505436 0.89413553 0.2979579568 -0.2225257307 0.9282797575
-0.17296599 -0.16567393 0.90540922 0.6190026999 -0.3198402226 0.7173129916
0.02486665 -0.11801466 0.93000025 0.0625866577 0.228106901 0.9716224074
0.074583873 -0.037068386 0.91266662 -0.002651517512 -0.8411206007 0.5408411622
-0.072700657 -0.10885175 0.89649999 0.4446680546 -0.7824659348 0.4359098673
0.082731739 -0.076135173 0.85480005 -0.4878991544 -0.7926142812 0.3656733036
0.042402614 -0.050406575 0.91266674 0.4915933907 -0.7639369369 0.418014735
-0.030018819 -0.16394894 0.87800002 0.6769501567 0.3002733886 0.6719928384
-0.038942412 -0.13973454 0.87100005 0.4244185388 0.6267517805 0.653491497
-0.042615354 -0.15398942 0.89466667 0.1547429264 0.4966975749 0.8540176749
-0.13484101 -0.19566993 0.90112543 -0.261069566 0.3583476245 0.8963423967
0.074633457 -0.056660637 0.88621861 -0.1428891718 -0.7826874256 0.6057912707
0.0112301 -0.081017151 0.91500002 0.08276004344 0.3918499649 0.9162992835
-0.14353225 -0.12893575 0.92500007 0.515923202 -0.7984589338 0.3103008568
-0.056709647 -0.11448979 0.88057679 0.4652425349 -0.4346324801 0.7711316347
-0.09667284 -0.12163142 0.89359993 0.3662858605 -0.6791993976 0.6360211372
-0.06493514 -0.19508193 0.91296679 -0.07956612855 0.6297139525 0.7727416158
-0.16319738 -0.18473707 0.89670002 0.2471324056 0.04641417041 0.9678694606
-0.13554834 -0.13372715 0.90262985 0.4200954139 -0.6630936265 0.6195374727
0.024750054 -0.097997092 0.92575014 -0.002184975659 0.283867389 0.958861053
-0.15512441 -0.14243861 0.91366673 0.6068275571 -0.6632845998 0.4379656017
0.0050876685 -0.144804 0.87475765 0.05674691126 0.05718772113 0.9967494011
0.00074218598 -0.10316385 0.84659994 -0.1061081663 -0.09034237266 0.990242064
-0.12503757 -0.15487726 0.89160025 0.1549707055 0.010292341 0.987865448
0.072208837 -0.1313625 0.91183335 0.5436629057 -0.5572385788 0.6276270747
-0.0049034962 -0.12481257 0.86460978 -0.2578602433 0.5180481076 0.8155576587
-0.01730014 -0.12711842 0.85800004 -0.6145527363 0.2007965147 0.7628930211
0.035813317 -0.06452141 0.89550018 0.4823135138 -0.8129059076 0.3264317214
-0.12758562 -0.20364597 0.90606254 -0.2954479456 0.3622741103 0.8840067983
-0.035553217 -0.12459318 0.85350001 0.7305699587 -0.3681880236 0.5750696659
0.055356406 -0.057008531 0.88706237 0.1955608428 -0.8516757488 0.4862143397
0.022191064 -0.062355779 0.91300005 0.6702801585 -0.3115041256 0.6735649109
0.084449217 -0.073661663 0.86629999 -0.5319449902 -0.7632892728 0.3666388392
-0.076632008 -0.20400497 0.91725004 -0.06416343898 0.57764256 0.8137641549
-0.085109212 -0.17890705 0.90100002 0.09428066015 0.513964057 0.8526148796
-0.11454102 -0.16475222 0.89488912 -0.002143334597 0.3586017787 0.9334881902
-0.01327887 -0.15544088 0.89100003 0.09493824095 -0.0108825611 0.9954236746
-0.065195575 -0.1860853 0.90433341 -0.03731003404 0.6297562718 0.7758962512
0.09522792 -0.084562391 0.86900002 -0.6497690678 -0.6795347929 0.3406355977
-0.10504624 -0.14472741 0.88757122 0.1880568862 0.05211286619 0.980774641
0.044890389 -0.15439378 0.88365775 0.1415856779 -0.7805536389 0.6088427305
-0.16257542 -0.16686536 0.89745462 0.4587466121 -0.185490042 0.8689907789
-0.11485204 -0.17655511 0.90233338 -0.1414419562 0.4320771992 0.8906758428
-0.055475608 -0.11489114 0.82423085 -0.5769256949 0.4092920721 0.7068498731
0.048964817 -0.048645709 0.90380001 0.3792516291 -0.8100078702 0.4472756386
-0.005167847 -0.13761587 0.87123549 -0.2793874145 0.3553491831 0.8920031786
0.0069530383 -0.11314309 0.92700005 0.04228164256 0.2790243924 0.9593527317
-0.034332015 -0.19299726 0.91500008 -0.1084937528 0.7124143839 0.6933215857
0.12046277 -0.086158797 0.91000003 -0.8791760206 -0.1204750687 0.4610154927
-0.13521263 -0.18552731 0.89672238 -0.2198939323 0.2876299322 0.9321564436
0.055196613 -0.10552678 0.92591643 0.08607266843 0.1048804671 0.9907530546
0.10202871 -0.075666144 0.88756251 -0.7230024934 -0.3934607506 0.5678521395
0.064803198 -0.060945865 0.88000005 -0.009600527585 -0.8673294783 0.4976418018
-0.095563143 -0.11210741 0.91731256 0.2644527256 -0.9108868241 0.3167806566
-0.055243324 -0.19024718 0.90800011 -0.09564115852 0.6593672037 0.7457128763
