# .PCD v0.7 - Point Cloud Data file format
VERSION 0.7
FIELDS x y z normal_x normal_y normal_z
SIZE 4 4 4 4 4 4
TYPE F F F F F F
COUNT 1 1 1 1 1 1
WIDTH 206
HEIGHT 1
VIEWPOINT 0 0 0 1 0 0 0
POINTS 206
DATA ascii
-0.085529469 0.0048535015 0.86865705 -0.3239716589 -0.3585881293 0.8754752278
-0.24332234 0.0218553 0.83100003 0.09708225727 0.1049286872 0.9897297621
-0.0045130802 -0.11057046 0.85800004 0.3572447002 -0.05979235843 0.9320949912
-0.17898026 -0.054002665 0.88000005 0.2864394486 0.4836318493 0.8270747662
-0.095247202 -0.084842041 0.91300005 -0.2047764212 -0.03941180184 0.9780150056
-0.16575824 0.05189177 0.85453331 -0.2456390113 -0.3279148936 0.9122133851
-0.013228792 -0.035259645 0.89212513 -0.5992662907 -0.5627804399 0.5693488717
-0.095987096 -0.06501466 0.84526676 -0.2985957861 0.2734585404 0.9143636823
-0.024864061 -0.094643436 0.91490519 -0.05072299391 -0.2460973114 0.9679169655
-0.12134031 0.01579578 0.81900007 -0.8530012965 -0.417534411 -0.3131354749
-0.1349501 -0.024602225 0.85742229 0.2145820111 -0.1024825275 0.9713144898
-0.19538933 -0.0049586985 0.85657805 -0.4039559364 0.492851615 0.7706600428
-0.065036193 -0.10176684 0.87280965 -0.356089294 -0.9162683487 0.1834468991
-0.045016397 -0.051018935 0.85583335 -0.3282649219 -0.4374904037 0.837164402
-0.11816853 0.040910352 0.86740005 -0.3497657478 -0.08416067809 0.9330492616
-0.055998433 -0.057446849 0.90781844 -0.1921347827 0.0897276774 0.977257967
-0.13582633 -0.072573438 0.87140018 0.3372145593 0.5210407376 0.784093678
-0.21135469 0.051270973 0.84150004 -0.2352090925 -0.4807516932 0.8447215557
0.006254937 -0.071722977 0.88145465 -0.6034107208 -0.5293416381 0.5964000225
-0.047403384 -0.016046394 0.87526089 -0.4890879393 -0.5367878079 0.6874967813
-0.14503343 0.015030782 0.85719073 -0.155446738 0.1343143582 0.9786705375
-0.23230176 -0.012070823 0.84299999 -0.0659981966 0.5930258632 0.8024740219
-0.1849903 0.025873005 0.83887905 -0.3866109252 0.1932043135 0.9017782807
-0.10857593 -0.004346889 0.84500009 -0.6918010712 0.4537381828 0.5617231727
-0.075080104 -0.035283618 0.8564288 -0.07792692631 -0.2119361013 0.9741716981
-0.056834381 -0.09409523 0.90704775 -0.3404942155 -0.289737761 0.8944919109
-0.2120295 -0.032505702 0.86224997 -0.2947582304 0.457105577 0.8391495943
-0.02030886 -0.071457103 0.85800004 -0.5409247875 -0.4452141523 0.7135718465
-0.16512379 -0.015292981 0.86230761 0.1612236351 0.07581755519 0.9840013385
-0.093527667 -0.09201356 0.86111116 0.2310802341 0.6545211673 0.719863832
-0.033491123 -0.11142783 0.8682 0.2285468429 0.6477329135 0.7267795205
-0.2121264 0.01438144 0.83121067 -0.3277362883 0.2817944884 0.9017653465
-0.1052855 -0.0352313 0.85514903 -0.221054703 -0.1623011827 0.9616616368
-0.084586188 -0.057499833 0.90345001 -0.3592013419 0.2592074275 0.896541059
-0.15506274 -0.04462995 0.86280847 0.3220035732 0.3156888485 0.8925548792
-0.12501611 -0.055304743 0.85502791 0.4147003591 0.3703579009 0.8311790824
-0.02967955 -0.068984896 0.91500002 -0.12349163 0.0647013858 0.990234077
-0.018537702 -0.049010634 0.86900002 -0.6062883139 -0.5298630595 0.5930088758
-0.18457885 -0.034202952 0.86690313 0.1387652308 0.466514498 0.8735607862
-0.1424934 0.047497801 0.86000001 -0.3400582671 -0.08701550961 0.9363699555
-0.18880157 0.052596498 0.84900004 -0.2238682806 -0.5144712925 0.8277694583
0.0011260783 -0.087849461 0.85650003 -0.4863639474 -0.2211734504 0.8453001976
-0.088928193 -0.061565671 0.86700004 -0.3246893883 0.2410951257 0.9145763516
-0.17549284 0.0067061642 0.85746151 -0.2211298496 0.4263637364 0.8771063685
-0.22563475 0.037084501 0.83135301 -0.0888414979 -0.2615192533 0.9611008763
0.002084275 -0.052362863 0.8915 -0.6610444784 -0.4876013994 0.570320189
-0.095034122 -0.01504655 0.85889989 -0.3081724644 -0.2202106416 0.9254928231
-0.032780029 -0.032394875 0.87300014 -0.5144583583 -0.5757985711 0.6354436278
-0.11503178 -0.074600682 0.86446428 0.3726988137 0.591940105 0.7146345377
-0.10457715 0.015509083 0.8662582 -0.4241683483 -0.4358576238 0.7937942743
-0.075878464 -0.087989941 0.898 -0.3168238997 -0.759944737 0.5675443411
-0.16515948 0.027263386 0.84788018 -0.3505548239 0.2847055495 0.8922186494
-0.066554338 -0.0082834037 0.86887515 -0.3526656926 -0.4143221974 0.8390256166
-0.1265531 -0.004846714 0.86000007 0.09724228829 -0.2150427699 0.9717512727
-0.054162119 -0.0323641 0.86077785 -0.3077132106 -0.4490213394 0.83886379
-0.10762638 0.014189288 0.83587497 -0.9662014842 -0.2274584323 0.1213149875
-0.11720888 -0.0024166778 0.82700008 -0.9461090565 0.2075961381 0.2485589087
-0.20492245 0.03500706 0.83185714 -0.2889136076 -0.2507815361 0.9239251018
-0.12678406 0.026035702 0.85762966 -0.3029652536 -0.1264927834 0.9445695281
-0.02137401 -0.11003657 0.90300006 -0.09587788582 -0.9207624793 0.3781586289
-0.065323144 -0.074686036 0.90714324 -0.2842076719 -0.03881650791 0.9579766393
-0.23535986 0.0045157578 0.83256745 0.07764779776 0.3719786406 0.9249879718
-0.1449654 -0.0050767763 0.85476941 0.0371097289 0.01968320459 0.9991173148
-0.21430373 -0.0062465635 0.84376907 -0.3314469457 0.5982127786 0.729578197
-0.1227209 -0.034782149 0.84745467 0.2666367888 -0.04100620747 0.9629243612
-0.041097548 -0.10313984 0.90733337 -0.2089938968 -0.4736380875 0.855563283
-0.095519252 -0.074788429 0.89800006 -0.6030957103 0.2682233155 0.7512202263
-0.07661365 -0.087746739 0.86533338 -0.6731252074 -0.6722128391 0.3082731664
-0.079826638 -0.051476989 0.85100001 -0.1735462397 -0.01225815155 0.9847494364
-0.047996622 -0.098602384 0.87460005 -0.3274596035 -0.9387959242 0.1069223508
-0.15462129 -0.027899452 0.85741168 0.1536877006 0.09035038203 0.9839801192
-0.026082985 -0.025661228 0.88700002 -0.5823931098 -0.5863289833 0.5630599856
-0.19826694 0.0085773068 0.83866674 -0.4587991834 0.482571274 0.746075213
-0.1484445 0.036635607 0.84900004 -0.2603023648 0.05388642102 0.9640222788
-0.078978896 -0.0188045 0.85800004 -0.2114822268 -0.3242907822 0.9220145345
-0.044834927 -0.075260542 0.91327792 -0.1867583245 0.0703869462 0.9798811078
-0.098990567 -0.049123138 0.84900004 -0.3105136156 -0.02581915818 0.9502182007
-0.15289271 -0.0600917 0.86766672 0.3609441519 0.4223123193 0.831487596
-0.10941063 -0.02084012 0.84900004 -0.2622289956 0.01270217076 0.9649220705
-0.11089921 -0.06028749 0.84900004 0.1889868528 0.2967296243 0.9360744953
-0.010348173 -0.099501669 0.90800005 0.3098015785 -0.2552215755 0.9159066081
-0.18535005 -0.01533876 0.86352652 -0.0717401877 0.2578732073 0.9635117054
-0.20158423 -0.040469564 0.87100005 -0.1143982112 0.470875591 0.8747509718
-0.0287196 -0.058191031 0.85760003 -0.4515637755 -0.4721934497 0.7570492029
-0.18517472 0.041428052 0.83886659 -0.2696026266 -0.3917318285 0.8796934485
-0.22082883 -0.018651083 0.85100001 -0.3460510373 0.5463517904 0.76272434
-0.10312133 -0.0019267187 0.86000007 -0.5165656805 -0.1389006823 0.8449062109
-0.0075839185 -0.067086168 0.86542863 -0.6011911631 -0.5086947083 0.6162782311
-0.16599734 -0.053912621 0.87142879 0.3392037153 0.4394035339 0.8317844272
-0.13651234 -0.046875875 0.85857582 0.3650945723 0.2240401655 0.9036105275
-0.12847199 0.04207211 0.85700005 -0.3660202026 -0.004182951525 0.9305974841
-0.20564535 -0.015317463 0.85525 -0.4113652706 0.5170115829 0.7506514788
-0.035761427 -0.058808118 0.9065001 0.07551236451 0.4427446127 0.8934624195
-0.10419443 -0.074213624 0.85503995 0.1393218786 0.4328988791 0.8906109929
-0.0092194648 -0.056861475 0.87650001 -0.6445319653 -0.4956048727 0.5821979046
-0.011968002 -0.082691453 0.86085719 -0.223964572 -0.2253018916 0.9481977224
-0.11352384 0.026415775 0.86753345 -0.3227179348 -0.2039476484 0.9242610335
-0.18860307 0.0090803374 0.8490001 -0.4692819417 0.5183753967 0.7148855925
-0.2251253 0.015294616 0.82604188 -0.009127299301 0.1427758634 0.9897129536
-0.16529028 -0.035083376 0.8628751 0.2600081861 0.2968367934 0.9188491106
-0.065180808 -0.044950396 0.85459536 -0.09284841269 -0.1640363783 0.982074976
-0.1550208 0.005481272 0.8561002 -0.0007642123965 0.1949672699 0.9808094501
-0.035288025 -0.085011691 0.91483372 -0.1361677796 -0.08405888826 0.9871131778
-0.034901679 -0.044009492 0.86180019 -0.4356451631 -0.4949519932 0.7518216968
-0.093410879 0.021634674 0.87100005 -0.3432317972 -0.3198314905 0.8831193447
-0.19476913 -0.024932677 0.86489606 -0.1362915933 0.4286038876 0.8931536078
-0.16495623 0.01508345 0.85654545 -0.1255759895 0.3239869475 0.9376903176
-0.17564137 -0.025646348 0.86172223 0.17415528 0.2396849245 0.9551026821
-0.055587683 -0.10783058 0.88066673 -0.3332713246 -0.9353060722 0.1188814342
-0.11476918 -0.045166314 0.8445918 0.1040036082 0.01649751142 0.9944400787
-0.1752346 -0.0060054427 0.861579 -0.01717271656 0.2249717563 0.9742139578
-0.1788777 0.018111058 0.84900004 -0.3994542062 0.4893259108 0.7752396464
-0.12635927 -0.066376299 0.8621363 0.4012435079 0.5419442654 0.7384443283
-0.13394883 0.0061152373 0.86000007 -0.03607754409 -0.01729829423 0.9991992712
-0.064615369 -0.024671828 0.86092311 -0.2846908867 -0.4171933234 0.8630763888
-0.11920168 -0.01499027 0.85516667 0.2115460187 -0.1811409444 0.9604354501
-0.036780477 -0.018390788 0.88641667 -0.5324419737 -0.5656724572 0.6296985149
0.0029735861 -0.077526398 0.86376941 -0.6085083485 -0.4598875046 0.6467001438
-0.013711067 -0.091138266 0.92000002 -0.02789080143 -0.1508060247 0.9881698489
-0.1545926 0.024184925 0.8542093 -0.2264396548 0.2178059816 0.9493606687
-0.21577194 0.025343977 0.82595253 -0.1698482782 -0.02736461721 0.9850901961
-0.17278475 0.034974609 0.84141362 -0.3533200324 -0.04406166449 0.9344642758
-0.045519751 -0.026861621 0.86811107 -0.4498234093 -0.5241608024 0.72312814
-0.22504281 -0.0041608168 0.83658969 -0.1101899222 0.553036809 0.8258380294
-0.14628261 -0.037151851 0.85825002 0.2191295326 0.1538041383 0.9634970427
-0.15448688 0.046878669 0.85177773 -0.2390814424 -0.2108606547 0.9478279352
-0.068859823 0.0012811023 0.87599999 -0.3598205149 -0.414693296 0.8357982039
-0.18527159 -0.043601915 0.87450016 0.1388693303 0.4634225965 0.8751884699
-0.10428346 -0.083846912 0.86217254 0.2829988897 0.5257580876 0.8021783233
-0.013180193 -0.04463822 0.88467985 -0.6217085123 -0.5296458602 0.5770214796
-0.075285114 -0.064987563 0.90399987 -0.2183161229 -0.05639118329 0.9742474556
-0.16485278 -0.0013789966 0.85799986 0.05192359537 0.1621166319 0.985404551
-0.085414767 -0.0055566649 0.86293346 -0.2803816497 -0.3266614974 0.9025954008
-0.056189895 -0.0080995727 0.87538898 -0.4423407316 -0.4860553145 0.7537140846
-0.11380116 0.021574242 0.82580006 -0.9002866745 -0.3778984547 -0.2160476893
-0.085809886 -0.081086405 0.89800006 -0.3383303881 -0.5580383539 0.7577108741
-0.17485906 -0.038942412 0.87100005 0.2884146571 0.4638229609 0.8376665711
-0.056427646 -0.017285988 0.86814278 -0.4088584781 -0.4987979531 0.7642220259
-0.12015681 -0.080359653 0.87300003 0.4264907241 0.5808030367 0.6933783293
-0.23530872 0.02986891 0.83100003 0.05412022397 -0.01073914953 0.9984766841
-0.015405118 -0.11279143 0.86019051 0.3545667827 -0.01944201253 0.9348285198
-0.11354338 0.0047684647 0.83631265 -0.7940169573 0.4276954532 0.4319880903
-0.094713978 -0.08165516 0.85692304 0.1048886627 0.4073884487 0.9072116613
-0.04242979 -0.1116961 0.87466669 -0.208306402 -0.9778184295 0.02189956978
-0.05458542 -0.084146053 0.91125 -0.2852590382 -0.05557223409 0.9568380117
0.001347612 -0.10226878 0.85399997 0.262480855 -0.0546191074 0.9633901119
-0.045527525 -0.058187265 0.91115385 -0.1853693724 0.1096718013 0.9765297174
-0.21482129 0.04338605 0.83500004 -0.2328859121 -0.309133321 0.9220632911
-0.13505456 -0.035264175 0.85585737 0.284371525 0.05730137229 0.957000196
-0.12865762 0.015468564 0.86075008 -0.1472708732 -0.06461817771 0.98698318
-0.19482794 0.02535668 0.83462274 -0.3723999262 0.1317771077 0.9186692238
-0.16496968 0.043805033 0.84766698 -0.2450755984 -0.2350805998 0.9405716658
-0.15239167 -0.011884443 0.85799998 0.05375739187 0.01013051812 0.9985026121
-0.11657954 -0.066736132 0.85759461 0.4258410931 0.5648730993 0.7068081498
-0.21461619 0.0045950841 0.83400005 -0.2811126113 0.4705945551 0.8363710046
-0.054747637 -0.044996161 0.85547638 -0.21745269 -0.3436591029 0.9135714173
-0.0028334451 -0.063129529 0.88180006 -0.6420554519 -0.5205609798 0.5628330708
-0.065116137 -0.084969118 0.90585721 -0.2890968919 -0.06014714018 0.9554084539
-0.12751301 -0.045425691 0.8534286 0.3429864645 0.1373518407 0.9292441607
-0.035328038 -0.095163852 0.9133659 -0.08878844231 -0.2663838565 0.9597688317
-0.17486256 0.044576999 0.84513336 -0.253955245 -0.3471832275 0.9027571678
-0.095234394 -0.035369363 0.85620874 -0.2094710469 -0.1288370043 0.9692898989
0.010131637 -0.066245317 0.88900012 -0.6480705142 -0.5208514333 0.5556243658
-0.1993356 -0.0019319979 0.84780008 -0.4858452082 0.5385451913 0.6884210706
-0.20470639 -0.025231605 0.86344182 -0.2985140979 0.4638967514 0.834079802
-0.14504775 0.0050786482 0.85525006 -0.04161407053 0.09322375804 0.994775176
-0.075561985 -0.074930795 0.90479976 -0.1924919188 -0.04524341598 0.9802550077
-0.0040888409 -0.044568591 0.89192325 -0.6322126985 -0.5045143962 0.5880241394
-0.16447249 -0.044394717 0.86624253 0.3216359317 0.3787723482 0.8678028584
-0.095749535 -0.0248798 0.86000001 -0.2387587726 -0.1440221071 0.9603394866
-0.085688859 -0.086049497 0.86100006 -0.04511867836 0.3772710264 0.925003171
-0.14477441 -0.02499857 0.85739136 0.1575143635 0.01792388596 0.9873540401
-0.14333299 -0.062016018 0.86690009 0.3149991035 0.4326792657 0.8447272778
-0.19488214 0.041796122 0.83772731 -0.2739835978 -0.4145480096 0.867803514
-0.1448867 0.024771236 0.85632664 -0.2334340662 0.1100675911 0.9661229849
-0.024787683 -0.11286525 0.86407155 0.3605787158 0.03402032331 0.9321081638
-0.084684633 -0.035219524 0.85485709 -0.08000911772 -0.1627407372 0.9834195375
-0.19484702 -0.014987221 0.86147368 -0.2355131507 0.3964375257 0.8873391747
-0.065007851 -0.056291081 0.90436667 -0.2094960362 0.04385536537 0.9768255353
-0.0502593 -0.10131636 0.91000003 -0.3019683659 -0.4328373075 0.8493921161
-0.15503278 0.015139272 0.85767561 -0.07470278442 0.2234737128 0.9718430638
-0.093392968 -0.054020386 0.85515785 -0.3119735718 0.1019773483 0.9446020722
-0.019944167 -0.10131636 0.91000003 -0.05072299391 -0.2460973114 0.9679169655
-0.044844862 -0.084888749 0.91350013 -0.1962660104 -0.0759665668 0.9776035547
-0.08740408 0.013998906 0.87100023 -0.3304584324 -0.3211815059 0.8874906301
-0.024866646 -0.085027874 0.91500056 -0.02674655616 -0.1077953354 0.9938132763
-0.11097226 -0.08303874 0.86900002 0.3755548298 0.5930702686 0.7121981978
-0.094770439 0.005426547 0.86616284 -0.4520747662 -0.344837606 0.8226271272
-0.075673461 -0.0059503992 0.86708343 -0.3204311728 -0.3877387941 0.8642814755
-0.065552995 -0.035517726 0.85740417 -0.1672887653 -0.2724407613 0.9475180507
-0.13461007 -0.015040842 0.8578096 0.1756373942 -0.08857736737 0.9804618955
-0.019189794 -0.027020618 0.89350003 -0.5923179388 -0.5736644864 0.5657460093
-0.18623732 -0.0023342404 0.85715789 -0.289116174 0.4232646823 0.8586378098
-0.23819861 0.013509501 0.83130771 0.1050372198 0.2412191927 0.9647696614
-0.20500156 0.025533015 0.83218378 -0.3197077811 -0.02028428018 0.9472990632
-0.23468649 -0.0038461427 0.83688223 0.05848867819 0.5223189592 0.8507419825
-0.10420774 -0.015074417 0.8542822 -0.269430846 -0.1326360554 0.9538420439
-0.24406363 0.0059267175 0.83572721 0.07529698312 0.3370159566 0.938483119
-0.14605021 -0.046235099 0.86086971 0.2901155055 0.2902488708 0.9119147658
-0.12273737 0.035433922 0.86138475 -0.3488379121 -0.03373486176 0.9365757108
-0.18470033 -0.024980968 0.86345226 0.1086947173 0.3299669921 0.9377138615
-0.029015914 -0.10384642 0.87100005 0.3689289689 0.17868267 0.9121205807
-0.067722499 -0.094360016 0.86800003 -0.4252600372 -0.8986256123 0.1078233346
-0.17483564 0.053214639 0.85363156 -0.2151736319 -0.4350038469 0.8743408918
-0.044610359 -0.035119705 0.86413175 -0.3855295181 -0.4752197564 0.7909065485
-0.22492108 0.025314434 0.8249594 -0.01410760451 -0.04219153896 0.9990099072
