# .PCD v0.7 - Point Cloud Data file format
VERSION 0.7
FIELDS x y z normal_x normal_y normal_z
SIZE 4 4 4 4 4 4
TYPE F F F F F F
COUNT 1 1 1 1 1 1
WIDTH 206
HEIGHT 1
VIEWPOINT 0 0 0 1 0 0 0
POINTS 206
DATA ascii
0.01011235 -0.031011207 0.76900005 0.4237923026 -0.550419569 0.7193319201
-0.16639134 -0.13119316 0.73000002 0.05470595136 0.003005759325 0.998497963
-0.10365356 -0.01924108 0.708 -0.2580535114 -0.8893903494 0.3773502409
-0.068159662 -0.10765672 0.77233338 -0.3233310282 0.6006658077 0.7312028408
0.03077889 0.060902908 0.74700004 0.2085919678 -0.7829381824 0.5860863924
-0.045335867 0.02585602 0.74213165 0.2990240753 -0.5116972923 0.8054504991
-0.038197596 -0.047022119 0.71900004 0.08150836825 0.09427592158 0.9922038317
-0.12430123 -0.075261146 0.74321276 -0.4377192557 0.04532150552 0.8979687095
0.050418854 -0.0012764267 0.72800004 0.08486376703 0.4974308908 0.8633427024
-0.11182059 -0.13342164 0.75120008 -0.625001967 0.0676009655 0.7776905894
0.007502513 0.021143446 0.77800006 0.0154764168 -0.1076474115 0.9940686822
0.0012659066 0.019621553 0.72200006 0.352296263 -0.4712926149 0.8085608482
-0.075695455 -0.065881789 0.74159503 0.2372826487 0.2666751444 0.9341205955
-0.13209622 -0.026401589 0.74529433 -0.09887912869 -0.07141247392 0.9925337434
-0.1685738 -0.087047741 0.74100006 0.4159524739 -0.2738933265 0.8671597242
-0.084559835 0.0033339621 0.74540013 0.2659523785 -0.3157216311 0.9108178616
0.050517917 0.023576198 0.76833338 0.9109128118 0.0295655299 0.4115382731
-0.014347133 0.052355539 0.75404996 0.2938521802 -0.659317553 0.6920630336
0.044881754 0.035098527 0.71090162 -0.03139416501 -0.3151600957 0.9485191107
-0.038352121 -0.080841526 0.74566668 -0.1319277436 0.6025412083 0.7871081233
-0.00064084335 -0.039091442 0.73100001 -0.2691754103 0.206873998 0.9406102896
-0.071036302 -0.030078433 0.73000002 -0.1948489994 -0.2796385288 0.9401255846
-0.034991622 -0.0050886422 0.72560698 0.2924980819 -0.1313783973 0.9471982718
-0.09535566 -0.095405161 0.7521404 -0.08891069889 0.2847252488 0.9544770122
-0.13472395 -0.11497506 0.7315402 -0.4199480414 0.01090683695 0.9074826241
-0.02179368 -0.018307054 0.77342862 0.04859018326 -0.1092156246 0.99282974
-0.15275107 -0.053084601 0.74144453 0.0442648381 -0.09172277153 0.9948002696
-0.10513602 -0.045085184 0.74424994 -0.02530761063 0.07022015005 0.997210443
0.034269717 -0.0040130937 0.77218622 0.5048695803 -0.427323997 0.750000596
0.02663401 -0.016340192 0.74100012 0.7371432185 -0.6473187804 0.1939027309
-0.016519615 -0.062388804 0.74180013 -0.1924690455 0.5222917795 0.8307628632
-0.13468428 -0.14214078 0.73580652 -0.4282567203 0.191328302 0.8831702471
0.0056927972 0.042931836 0.73585725 0.3284173906 -0.6578456759 0.6777765751
-0.10507684 -0.014543521 0.74338633 0.3402605057 -0.4238097668 0.8394093513
0.0047598341 -0.0047571156 0.77551043 0.0178036727 -0.1397119612 0.9900321364
-0.063998744 -0.087143086 0.7511428 -0.08239284158 0.5828830004 0.8083679676
-0.14496037 -0.0847876 0.73123348 -0.04347317293 -0.2523861229 0.9666495323
-0.012290395 -0.043094177 0.76900005 -0.08863601834 -0.6772139668 0.7304278612
-0.089744367 -0.040230233 0.70600003 -0.5741146207 -0.5220260024 0.6307783127
-0.1175472 -0.10512649 0.74694294 -0.5741924644 -0.06986925006 0.8157336116
-0.16170233 -0.10711581 0.72777784 0.2627235949 -0.1812609285 0.9476923347
-0.055028263 0.0049945773 0.73493254 0.3299694955 -0.3076330423 0.8924584389
-0.086420625 -0.12235244 0.7670477 -0.4793343544 0.3219462931 0.8164491057
-0.025903067 0.018289018 0.73055547 0.3117969334 -0.4528514743 0.8352892995
-0.062722869 -0.051999792 0.72700012 0.2268837392 0.5016602874 0.8347818255
0.0071368553 0.061961841 0.7535001 0.2571662068 -0.7046611905 0.6613003612
0.025695384 0.044007771 0.72377503 0.2916155159 -0.7219220996 0.6275259852
0.030771 0.027352 0.78000003 0.1246129423 -0.1246983558 0.9843383431
-0.022313138 -0.034477696 0.73624998 -0.1486659646 0.1269484013 0.980705142
-0.048644215 -0.026498565 0.73010004 0.1506572664 -0.1072128266 0.9827551842
-0.025104064 0.036288086 0.74306965 0.298608005 -0.6293421388 0.717468977
-0.12728603 -0.054128278 0.73880965 -0.177035749 -0.01154527999 0.9841367006
-0.01085664 0.0101781 0.77400005 -0.005809675436 -0.1172569618 0.9930846095
-0.09506914 -0.070592217 0.74788898 0.1148265079 0.2399868518 0.963961184
0.055204883 0.015437155 0.71657687 0.3080637753 0.3996427059 0.8633553386
-0.04532747 -0.064038053 0.73566657 -0.04324324802 0.6143711209 0.7878313065
-0.084384218 -0.015232167 0.73670602 0.05077660456 -0.6421043873 0.7649338245
-0.085204609 -0.046056189 0.74221629 0.3194421828 0.2459476739 0.9151319265
-0.017196499 -0.050751403 0.72666669 -0.2688220143 0.392460674 0.8796074986
-0.15915444 -0.070807487 0.74100006 0.2211562395 -0.202015236 0.9540858269
-0.086318471 -0.026959317 0.71871418 -0.5101915598 -0.6540775895 0.5584685206
-0.10486412 -0.11497329 0.75461924 -0.520603776 0.09625212848 0.8483555913
-0.074800543 -0.041559204 0.71556246 -0.5880699158 -0.3644709885 0.72203511
-0.080724344 -0.099404357 0.76100004 -0.2649634182 0.5776897073 0.7720550299
-0.1522848 -0.14160484 0.7308889 -0.205959931 0.138797611 0.9686669707
0.021048548 -0.032704707 0.73875004 0.655869782 -0.7341110706 0.1758287102
-0.11329407 -0.085772261 0.75169235 -0.290294379 0.1059142202 0.9510580301
-0.12797147 -0.095393755 0.73713809 -0.5842087865 -0.1031761169 0.8050184846
0.025082748 0.028853729 0.71550006 0.2653123438 -0.3804553449 0.8859249949
-0.11713247 -0.034336407 0.7390002 -0.08176415414 -0.07925090939 0.993495822
0.042001981 0.047390115 0.72233343 0.1682084203 -0.7155041695 0.6780558825
-0.017830992 0.005974202 0.72274983 0.3049667776 -0.337259531 0.8906465173
-0.14144869 -0.038655445 0.73900002 -0.08609052002 -0.05850628391 0.9945679903
-0.054620579 -0.075132646 0.7437408 -0.02103426866 0.5166059732 0.8559648395
-0.060658321 0.02021944 0.74400002 0.32911551 -0.4103328884 0.850476265
-0.059375755 -0.099404357 0.76100004 -0.193870604 0.6668438911 0.7195369005
-0.0095995003 0.0287985 0.73000002 0.3285782635 -0.568872571 0.7539365292
-0.0047357348 -0.025032368 0.77181631 0.0711139217 -0.1499535888 0.9861322045
-0.064949431 -0.015432511 0.733518 0.1854124069 -0.2706966996 0.9446404576
-0.14505616 -0.065007947 0.7336604 0.01778368652 -0.1204129085 0.9925646186
-0.099404357 -0.13009295 0.76100004 -0.5420103073 0.1735608727 0.8222538829
0.019550543 -0.01820223 0.76900005 0.5099945068 -0.5337657332 0.674536705
0.040594049 -0.011597423 0.73500001 0.7983657122 -0.5903410912 0.1187837645
-0.14621183 -0.10418055 0.72731376 -0.1029287055 -0.1297697574 0.9861873388
0.041040931 0.052030824 0.73725009 0.2244190127 -0.7484241128 0.6240973473
-0.085102722 -0.085102618 0.74671865 0.07775971293 0.3768979609 0.9229850173
-0.013883615 -0.0049290289 0.77379996 0.01155250799 -0.1145713106 0.9933478236
-0.14517465 -0.12480283 0.72632807 -0.1712678075 0.08495882899 0.9815545678
0.018139988 0.051180676 0.73900002 0.2314820737 -0.7408099771 0.6305685043
-0.068605855 0.007623971 0.74145466 0.2893159688 -0.3372219801 0.8958669901
-0.12109019 -0.12659392 0.74169242 -0.6085318327 0.04194445908 0.7924201488
-0.17255764 -0.10414578 0.73758626 0.3435555995 -0.2197291106 0.9130655527
-0.071048282 -0.049453061 0.73900002 0.3382969499 0.3275808096 0.8821825385
-0.038131367 0.0085042929 0.73014289 0.3301796317 -0.3186824024 0.88849473
-0.15656145 -0.093599722 0.7302857 0.2529370487 -0.2667708099 0.9299764633
-0.027822694 -0.025978772 0.72581804 -0.0144572407 -0.008857000619 0.9998562336
-0.005599177 0.045887966 0.74431586 0.3104775548 -0.6643103361 0.6799231768
-0.10396559 -0.032823231 0.70354056 -0.1991813332 -0.9747495651 0.1009458676
-0.089827649 -0.11112013 0.75900006 -0.4282276034 0.3460958898 0.8347686529
0.014985895 0.0047690985 0.7768932 0.01214767061 -0.1666105837 0.9859479666
0.0060112807 0.033957835 0.72517949 0.3550264537 -0.5984312296 0.7182174325
0.025201442 0.014986836 0.77696455 0.1246129423 -0.1246983558 0.9843383431
-0.049277432 -0.0403179 0.73000002 0.1445909292 -0.107630305 0.9836204648
-0.11532383 -0.065282382 0.74577951 -0.1740773767 0.2115547061 0.9617388844
-0.094949313 -0.0053845476 0.74484718 0.2460858971 -0.4846183062 0.8393967152
-0.1224037 -0.017175656 0.74400014 0.01680911146 -0.1164918467 0.9930493832
0.042835273 0.0061047641 0.77343482 0.3266356885 -0.2792988718 0.9029403329
-0.13466018 -0.07474374 0.73500019 -0.314866513 -0.1158026978 0.942045033
-0.074591354 -0.0064968034 0.73819578 0.2781121135 -0.3276875317 0.9029255509
0.012636542 -0.042076357 0.73492312 0.5794124603 -0.8140207529 0.04063757882
-0.034648038 -0.058142282 0.73135996 -0.1385577321 0.6446734667 0.7517964244
-0.094868653 -0.054581422 0.74120325 0.088044025 0.221962139 0.9710721374
-0.021685226 -0.031172514 0.77300006 -0.3136357963 -0.3166940808 0.8951745629
-0.034743294 -0.068365365 0.74140912 -0.149571985 0.6516279578 0.7436459064
-0.10662568 -0.074511364 0.7481212 -0.09039932489 0.2349760234 0.9677883387
-0.035194363 -0.03566632 0.72662514 0.01839155145 -0.07342801243 0.9971309304
-0.065306157 -0.071784139 0.73895252 0.08351409435 0.4387669861 0.8947116733
-0.044648841 -0.015307596 0.72754717 0.2537027895 -0.02378594317 0.966989696
-0.024262778 0.045534112 0.75268579 0.2947148979 -0.6448348761 0.7052170634
-0.047349386 -0.003078561 0.73033321 0.3283046484 -0.1687240899 0.9293805361
-0.026590057 -0.014617314 0.72213042 0.1220602766 0.05190552399 0.9911645055
-0.034351014 0.024175081 0.73661911 0.3076878488 -0.5242206454 0.7940534949
-0.12407551 -0.14096537 0.74100006 -0.5369675756 0.1764961332 0.8249332905
-0.048325546 -0.08414229 0.75099999 -0.1101065278 0.5894801021 0.8002435565
0.047437824 0.014208415 0.72504562 0.2968008518 0.4329791665 0.8511394262
-0.093543842 -0.02013791 0.74100006 0.3493015766 -0.4215910137 0.8368090987
-0.097410947 -0.084505208 0.75038463 0.02475971729 0.2415223867 0.9700793028
-0.025255289 -0.044388842 0.72225404 -0.1960313618 0.1889970452 0.9622119665
0.035614584 0.028866446 0.71066666 0.2498245686 0.1601217687 0.9549600482
-0.1212478 -0.045052364 0.74100012 -0.1183192059 -0.02093751729 0.9927548766
-0.0074585425 -0.052947391 0.73131573 -0.2647002935 0.490485698 0.8302755952
-0.12805969 -0.065073609 0.73900008 -0.2570877075 0.04068605974 0.96553123
-0.074819371 -0.093463317 0.75404757 -0.131830439 0.6053740978 0.7849476933
-0.16824175 -0.11538122 0.7304545 0.2029125094 -0.1344164312 0.9699271917
-0.045024786 -0.053489521 0.72439027 0.1278012395 0.409476012 0.9033250809
0.0054058502 0.053553414 0.74689126 0.2663782537 -0.7024989128 0.6599529386
0.01396039 0.027503723 0.72180003 0.3678506613 -0.5907328129 0.7181369066
-0.10496176 -0.065089427 0.74301648 -0.05204958841 0.23516801 0.9705600739
-0.11540674 -0.054772343 0.74374992 -0.1445568055 0.1086591482 0.983512342
-0.045048948 0.01476149 0.73536354 0.3160870373 -0.4021891356 0.8592630029
-0.055812109 -0.058434132 0.73172718 0.1813281924 0.458306402 0.8701007366
0.054076526 0.02477905 0.71179259 0.3704194129 0.3295212984 0.8684498668
-0.076101325 -0.11308381 0.76822734 -0.3903236389 0.5229041576 0.7577722073
-0.11533234 -0.11506444 0.74505663 -0.6223536134 -0.03793887421 0.7818162441
-0.12527974 -0.11505315 0.7357834 -0.5790074468 -0.03851683065 0.8144119382
0.0047481358 -0.014922222 0.77376753 0.04682686552 -0.1474772841 0.9879563451
0.025210712 0.00477057 0.77730632 0.1298372597 -0.1653898805 0.9776443243
-0.15527076 -0.13261119 0.72712904 -0.04313496873 0.06000096351 0.9972658753
-0.10936426 -0.12380997 0.74900001 -0.6216415167 0.06020985544 0.7809844017
-0.11790302 -0.094979219 0.74717861 -0.4987628162 -0.03099285252 0.8661842346
-0.14523453 -0.11466056 0.72662497 -0.1477782726 -0.02150278911 0.988786757
-0.13443899 -0.12508447 0.73123419 -0.4304806292 0.107370086 0.8961908817
-0.065087318 -0.0051518558 0.7350359 0.2751493752 -0.2721181214 0.9220870733
-0.075091653 -0.085183643 0.74553573 0.03104632348 0.4934519529 0.8692187667
-0.13429847 -0.084748223 0.73426884 -0.406937331 -0.1331771463 0.9036956429
-0.083745286 -0.07519149 0.74738103 0.1472859532 0.2920268178 0.9450011253
-0.15534654 -0.11464502 0.72607917 0.0716490373 -0.06488201767 0.9953173995
-0.024755213 -0.057491954 0.73255563 -0.271867007 0.5717461109 0.7740766406
-0.1054469 -0.05459898 0.74143565 -0.05746792629 0.174818933 0.9829220772
-0.093039595 -0.03220151 0.71366668 -0.5005291104 -0.7001680136 0.5091515779
-0.0046756021 -0.036817651 0.76900041 -0.0006904148613 -0.3098181486 0.9507955909
-0.11246204 -0.0089031635 0.74670011 0.127148971 -0.203128919 0.9708613753
-0.025045492 -0.066857524 0.74364519 -0.173971802 0.6532675028 0.7368686199
-0.12633297 -0.10492172 0.73558331 -0.5793713331 -0.09756172448 0.8092036843
-0.015375815 0.015356102 0.72385454 0.3344363272 -0.442842871 0.8318909407
-0.10501013 -0.095106147 0.75333935 -0.174574703 0.1462418437 0.9737232924
0.014992067 0.014989818 0.7772814 0.02758980356 -0.1226217002 0.9920699
-0.10484911 -0.10528354 0.75440377 -0.3745218217 0.1149910465 0.9200600386
-0.03448965 0.034391042 0.74451995 0.2840123773 -0.6046303511 0.7441499233
-0.07461834 -0.015437101 0.73376584 0.1629901379 -0.4570444822 0.8743823767
-0.13976872 -0.097008422 0.72800004 -0.3281450868 -0.1269192249 0.9360621572
-0.025316119 -0.0050625987 0.72192204 0.2401580364 -0.09419985116 0.9661524296
0.035555035 0.042450503 0.71714813 0.1778707653 -0.6417635083 0.7459903359
-0.13454874 -0.045280725 0.73787493 -0.1314766258 -0.01652752981 0.9911814928
0.014959909 -0.0047585168 0.77567911 0.03977068886 -0.1516712755 0.9876305461
0.017059058 0.041131154 0.72677785 0.3288343251 -0.6916661859 0.6430131197
-0.16488092 -0.095115729 0.73477083 0.3223519325 -0.262786001 0.9094133973
-0.14417553 -0.13657777 0.7305001 -0.2540799081 0.1506707072 0.9553751945
0.034697838 0.014968271 0.77607203 0.1723504514 -0.1497413069 0.9735876322
-0.014351889 0.033666007 0.73668301 0.3218862414 -0.6229396462 0.7129764557
0.0047620535 0.0047620521 0.77600056 0.006349616684 -0.1480615735 0.9889577627
-0.0047487626 -0.014923855 0.773839 0.04418518022 -0.1138545051 0.9925143719
0.025124317 -0.0047498699 0.77463269 0.07618569583 -0.1654504985 0.9832710028
-0.12461064 -0.084727213 0.74354357 -0.5198091865 -0.01574872807 0.8541372418
-0.084955566 -0.064751796 0.74316984 0.1752884686 0.2094128281 0.9619876146
-0.1448558 -0.055304743 0.7367667 0.009780108929 -0.02948988788 0.9995172024
-0.13489823 -0.10518998 0.7316429 -0.4704826474 -0.09794700146 0.8769563437
-0.1451481 -0.074407831 0.73291981 -0.01171068661 -0.2376889586 0.97127074
-0.054852016 -0.046624035 0.72591913 0.078669101 0.1484364569 0.9857879281
0.022288373 0.062919736 0.75022227 0.2402242571 -0.7438209057 0.6237168908
-0.07344351 -0.033973068 0.72192103 -0.5802943707 -0.3336711824 0.7429144979
0.033996254 -0.0093110763 0.741 0.7827882171 -0.5991097093 0.168256104
-0.0060399892 0.055068739 0.75127786 0.2864206731 -0.672108233 0.682813108
-0.074639276 -0.07496801 0.74158812 0.1567713022 0.328551352 0.931384325
-0.0047498508 -0.0047499216 0.77408147 0.02395167388 -0.1241215765 0.9919778705
-0.014912976 -0.025080487 0.77321416 0.06210213155 -0.1161787212 0.9912849665
-0.096905418 -0.018906808 0.7141 -0.4616310298 -0.7271094322 0.5081423521
-0.15477815 -0.084790222 0.7313391 0.2753831446 -0.2550580502 0.9268816113
-0.060898528 0.01166142 0.73900002 0.3177388906 -0.3501530886 0.8811553717
-0.014069319 0.042997185 0.74552172 0.3111391962 -0.6493974328 0.6938843131
-0.056229983 -0.01490388 0.73125005 0.1696578413 -0.1321456581 0.9766031504
-0.15340337 -0.064729169 0.73697305 0.1333673745 -0.1570368409 0.9785461426
-0.0349667 -0.015256725 0.72510713 0.1897977442 0.03483499214 0.9812050462
0.0041320999 -0.024187228 0.7721054 0.07933412492 -0.1488734633 0.9856687188
0.043692041 0.014963199 0.77378428 0.2870009542 -0.2768177092 0.9170618057
0.037366163 0.030573748 0.77500004 0.08997256309 0.4624502063 0.8820684552
