# .PCD v0.7 - Point Cloud Data file format
VERSION 0.7
FIELDS x y z normal_x normal_y normal_z
SIZE 4 4 4 4 4 4
TYPE F F F F F F
COUNT 1 1 1 1 1 1
WIDTH 206
HEIGHT 1
VIEWPOINT 0 0 0 1 0 0 0
POINTS 206
DATA ascii
-0.093120411 -0.10196707 0.74737495 -0.2454468757 0.587192297 0.7713371515
-0.0073765651 0.060739268 0.74233335 0.1989334077 -0.7942596674 0.574088037
-0.19153881 -0.14381367 0.72266674 0.09111990035 0.008713437244 0.9958018064
-0.10366846 0.0033762988 0.73212898 0.260217458 -0.3463522196 0.9012918472
-0.018796485 -0.04168174 0.7251429 0.6970619559 -0.7164291143 -0.02887802012
-0.17303072 -0.053694084 0.73011088 -0.0007788974908 -0.08018954843 0.9967793226
0.020540301 0.010581367 0.71000004 0.252618283 0.4157604873 0.8736860156
-0.042412259 0.01110727 0.76522225 -0.1251706034 -0.08640248328 0.9883657694
-0.11703111 -0.046628643 0.69756258 -0.5597257018 -0.5256122947 0.6406550407
-0.13292645 -0.14502542 0.74100012 -0.5867561102 -0.0001498006895 0.80976367
-0.068430848 -0.061504889 0.71833342 -0.07746563107 0.469484359 0.8795359731
-0.035015166 0.025009925 0.7131564 0.3735584915 -0.5138543248 0.7722744346
0.010991328 0.017306678 0.76200008 0.6232289076 -0.6298997402 0.4634782374
-0.14536197 -0.095157318 0.73601478 -0.387536943 0.0288693998 0.9214020371
-0.050923549 -0.044105183 0.76230007 -0.06753244251 -0.2949223816 0.9531317353
-0.19489016 -0.09500657 0.73127496 0.3468826413 -0.2229375094 0.9110276103
-0.065158166 -0.015034803 0.71462518 0.1741425097 0.004189845175 0.9847115278
-0.14278422 -0.018993942 0.73336369 0.1867133528 -0.1736359745 0.9669481516
-0.063760579 0.041501313 0.74670011 0.4310186803 -0.6868149638 0.5852419138
-0.016747575 -0.023553841 0.76109993 0.287434727 -0.3714720607 0.8828305602
-0.10813127 -0.065092348 0.73091656 0.1995834261 0.3362278938 0.9203897119
-0.001860871 0.040306211 0.70733333 0.2135762721 -0.7300968766 0.6491099596
-0.15947179 -0.12858596 0.71900004 -0.4442089796 -0.04667521268 0.8947065473
0.0036900782 -0.013352073 0.72771436 0.8125692606 -0.5652698278 0.1421309859
-0.094919004 -0.035436515 0.72181261 -0.06699745357 -0.2787549496 0.9580224752
-0.13785407 -0.050418854 0.72800004 -0.02002406679 -0.03064433113 0.9993297458
-0.065793775 0.015956495 0.72280425 0.3872058392 -0.4781050384 0.7883446217
-0.04742153 -0.069508269 0.74100006 0.6253628135 -0.7743576169 0.09639330953
-0.1090661 -0.13021831 0.75400001 -0.4515770078 0.1888189167 0.8720238805
-0.034771826 0.04674387 0.73410815 0.3272268176 -0.7300554514 0.5999513268
-0.060231384 -0.016547084 0.75500005 -0.07125043124 -0.07069216669 0.9949502349
-0.014803502 0.0047123171 0.76769632 0.01774768345 -0.1299442351 0.9913624525
-0.045041826 -0.047551826 0.71368754 -0.1940129101 0.2977946401 0.9347071052
-0.075389549 -0.084004946 0.73666668 -0.209778741 0.609893024 0.7642142177
-0.14197199 -0.037919704 0.69208336 0.152574718 -0.9847934842 0.08308281749
-0.18392117 -0.1154701 0.71780777 0.2339930832 -0.1732897758 0.9566702247
-0.16258572 -0.15439621 0.72229421 -0.2697538733 0.1530577391 0.9506872296
-0.11736485 -0.10223045 0.73878956 -0.06065364927 0.2992034256 0.9522596598
-0.16494885 -0.085078821 0.72479707 -0.2208001018 -0.1496924162 0.9637631774
-0.1381769 -0.11803595 0.73844445 -0.5162386894 -0.09188336879 0.8515016437
-0.1217877 -0.032519072 0.72733343 0.3784933388 -0.2944668531 0.87751472
-0.084840529 -0.0049887896 0.72158748 0.3044633865 -0.2531450093 0.9182699323
-0.12891909 -0.07275632 0.7280001 -0.001173704048 0.2459195256 0.9692895412
-0.051258262 0.032116245 0.72783345 0.4124674499 -0.6525429487 0.6356558204
-0.12246382 -0.008451568 0.73357147 0.2357223481 -0.214211598 0.9479179382
-0.015473251 0.044841152 0.72415614 0.210234791 -0.7861680984 0.5811548829
-0.15452527 -0.065171406 0.73097688 -0.05265140161 0.03011793457 0.9981586933
-0.095306516 -0.082435884 0.7280001 -0.02074409276 0.4756604731 0.8793843389
-0.047578111 0.0073620998 0.71305573 0.3461751342 -0.3406701982 0.874131918
-0.085121498 0.015608939 0.73252487 0.3323292136 -0.4600374401 0.8233606815
-0.074377663 -0.034688901 0.71720809 0.1457258612 -0.07625517994 0.9863818288
-0.1017582 -0.052539013 0.71214294 -0.1374664009 0.4815707207 0.8655591607
-0.16139476 -0.037136767 0.73250002 0.01261062361 -0.133974269 0.9909045696
-0.034830935 -0.014734659 0.76409364 -0.05594677851 -0.1457302719 0.9877411723
-0.16457488 -0.10476433 0.72041202 -0.3048443496 -0.1903329641 0.9331898689
0.0031910669 0.050418854 0.72799999 0.1686431915 -0.816667676 0.5519179106
-0.1823905 -0.071036302 0.73000002 0.07066009939 -0.1042037234 0.9920427203
-0.10510956 -0.015285827 0.72662514 0.2334236205 -0.2120639831 0.9489690661
-0.022984857 0.022356695 0.76660001 0.03468720615 -0.07354587317 0.9966884255
-0.034361038 -0.03540805 0.75831598 0.006957853679 -0.06115545705 0.9981039762
-0.085516348 -0.066765256 0.72254276 0.05563416705 0.4636217356 0.8842848539
-0.0048565315 0.023998884 0.76864129 0.01531975716 0.2493866235 0.9682828188
-0.12883931 -0.088130422 0.741 -0.04404092953 0.2927356958 0.9551786184
0.0039774366 0.025700359 0.69800001 0.1299293041 0.2034363002 0.9704288244
-0.038292799 -0.060630266 0.72800004 -0.2638071775 0.5597335696 0.7855597138
0.00100203 -0.00167005 0.76200002 0.5840717554 -0.4290870428 0.6890170574
-0.01296827 -0.025770135 0.73018503 0.6968402863 -0.702970624 0.142288059
-0.014434315 0.027887896 0.70690483 0.3275419176 -0.5910150409 0.7371685505
-0.14302477 -0.1349238 0.73096788 -0.5921396017 -0.03504073247 0.8050732017
-0.19838968 -0.11199417 0.73000002 0.38313061 -0.1781296432 0.9063557386
-0.024715098 0.060485069 0.74187505 0.2177634835 -0.7623566389 0.6094189286
-0.08559791 -0.049795542 0.71900004 0.06153202802 0.0411449708 0.9972566962
-0.17476304 -0.13530335 0.71451628 -0.008496388793 0.03107323498 0.9994810224
-0.11206781 -0.037693799 0.71127278 -0.4209749997 -0.6962314248 0.5814136863
-0.10844139 -0.1136842 0.74726671 -0.339114815 0.4313310385 0.8360350728
-0.057691913 -0.034750715 0.71633315 -0.03835504502 0.0245630201 0.9989622235
0.0068944474 0.0021798315 0.72261119 0.02001295984 0.493396014 0.8695745468
-0.059843019 -0.080434166 0.73400003 -0.2651077807 0.6616151333 0.7014152408
-0.12546587 -0.12506245 0.74506664 -0.4808645844 0.06321337819 0.8745132089
-0.15087584 -0.11281297 0.73057139 -0.571654439 -0.1724437773 0.8021685481
-0.10448205 -0.094094224 0.73477775 -0.07270698994 0.5041612983 0.8605434895
-0.14527243 -0.15039216 0.73000002 -0.5575690866 0.09568373859 0.8245977163
-0.067654118 -0.05027508 0.708 0.04746598378 0.06650745124 0.9966562986
-0.096056789 -0.11369905 0.75670737 -0.3276253939 0.5126757026 0.7936152816
-0.18361123 -0.085483804 0.72551364 0.1806418896 -0.1833560765 0.9663069248
-0.05303273 -0.0048819492 0.76118398 -0.1015563309 -0.09677935392 0.9901111126
-0.054061551 -0.058915064 0.72133332 -0.2563464642 0.6009958386 0.7570273876
-0.031796481 -0.039353784 0.71825004 -0.287850678 0.0777163431 0.9545167089
-0.14684269 -0.033278503 0.73299986 0.08263058215 -0.1354707778 0.9873296618
-0.12538637 -0.035837743 0.70502037 -0.3715558946 -0.7958629131 0.4780673981
-0.051788937 0.021596536 0.71750003 0.3722310364 -0.4999960959 0.7819513679
-0.036087923 0.036544789 0.72221434 0.3645093739 -0.6366673112 0.6795496345
-0.1246613 -0.055657137 0.73183703 0.06430032849 0.09856152534 0.9930514097
-0.19378325 -0.12552598 0.72185719 0.2881199121 -0.08673398942 0.9536582828
-0.044716902 -0.024693308 0.76130617 -0.02886357158 -0.0630908981 0.9975903034
-0.087750681 -0.090987332 0.73783332 -0.1207192689 0.5862707496 0.8010702133
-0.074654706 0.0050642998 0.72164053 0.3654732406 -0.3425483406 0.8654998541
-0.11500635 -0.085278861 0.73696864 0.1056542918 0.3227131963 0.9405813813
-0.062719516 0.032171529 0.73568755 0.4328789711 -0.6603099108 0.6136828661
-0.024723353 0.034571763 0.71339595 0.3386975229 -0.6316183805 0.6973823905
-0.024848914 -0.0047008996 0.76608175 -0.03557369113 -0.1476133913 0.9884051681
-0.042925455 0.053070761 0.74334782 0.3587189913 -0.7480623126 0.558322072
-0.13495624 -0.10504242 0.74183351 -0.2582567632 0.04829598218 0.9648683667
-0.1751318 -0.094836965 0.72013575 0.06394129992 -0.2405727655 0.9685227275
-0.14551055 -0.074964836 0.73391241 -0.1160199791 0.1868317127 0.9755169153
-0.073748618 0.023096198 0.73284215 0.3912371099 -0.634067893 0.6670017838
-0.084018856 -0.025377236 0.71949983 0.2139120102 -0.03628300875 0.9761788845
0.021040317 0.022720171 0.704 0.317850858 0.3622804284 0.8761984706
-0.051111419 0.040759739 0.73800004 0.4208818078 -0.686347425 0.5931152701
-0.057161849 -0.0045855423 0.71248573 0.2730240524 -0.1550959498 0.9494225383
-0.13382189 -0.030665798 0.73290914 0.2253046483 -0.1737404764 0.9586720467
-0.15291589 -0.04614282 0.72799993 -0.02419369482 -0.09234123677 0.9954334497
-0.0071579837 -0.011929679 0.76200002 0.5350273252 -0.4512082934 0.7142526507
0.01114068 0.040230233 0.70600003 -0.1522239447 -0.5750511289 0.803830862
-0.066374183 -0.070841677 0.7280001 -0.2381603569 0.6656725407 0.7072197199
-0.15413785 -0.084318355 0.73170006 -0.3381945491 0.03838692605 0.9402929544
-0.17453845 -0.15297645 0.71794868 -0.1248569489 0.0909171477 0.9880003929
-0.014890655 0.052609317 0.73592323 0.1833314151 -0.7945126891 0.5789120197
-0.12189875 -0.019784613 0.72800004 0.2886766493 -0.3407732844 0.8947286606
-0.160956 -0.14075761 0.72000003 -0.3494469225 0.07495451719 0.9339532256
-0.084166966 -0.078003012 0.73081249 -0.05379885063 0.5691542625 0.820468843
-0.028799376 -0.050319791 0.72200006 -0.411855638 0.4840726852 0.7720417976
-0.060922783 -0.024773723 0.76366669 -0.01613511331 -0.05281775817 0.9984738231
-0.12157382 -0.13490114 0.75062501 -0.526503861 0.1115107238 0.8428279757
-0.077654175 -0.092844732 0.74436373 -0.1800905466 0.6242652535 0.760171175
-0.15881923 -0.094999991 0.7272858 -0.4370330572 -0.1362903416 0.8890596628
-0.10140578 -0.12342151 0.76100004 -0.4072547555 0.3772296607 0.8317700028
-0.18575373 -0.10436226 0.72121209 0.2756443322 -0.2359262109 0.9318578243
-0.06400644 0.0046728044 0.71667379 0.3720326722 -0.325729847 0.8691902757
-0.13510311 -0.029955117 0.69733334 -0.205699414 -0.9083700776 0.3640762866
-0.13564083 -0.063546859 0.73051453 -0.02686339244 0.1915464252 0.9811158776
-0.073933102 -0.0063602654 0.71772206 0.3051583171 -0.1831295788 0.9345276952
0.0094154002 0.01129848 0.71600002 0.2388541102 0.4098201394 0.8803386688
-0.097836003 -0.059964001 0.72000003 0.2532998025 0.4387619793 0.8621641994
-0.16499183 -0.065171301 0.72632301 -0.04875937477 -0.06263180822 0.9968448877
-0.16676451 -0.11565436 0.71797472 -0.2723739743 -0.1690675467 0.9472215176
-0.10539877 -0.076093115 0.73158973 0.1547490656 0.3167678118 0.9357942343
-0.073220752 -0.046244025 0.71699995 0.05228589848 0.02829465084 0.9982312322
-0.14684038 -0.12530161 0.72676194 -0.5792732835 -0.1027174443 0.8086356521
-0.053907037 -0.068030715 0.73208338 -0.2585507035 0.6332993507 0.7294405103
-0.093730479 0.0021821156 0.72731584 0.2460808009 -0.3402557671 0.9075627923
-0.095014967 -0.015200662 0.7225312 0.2619019151 -0.1777168959 0.9485905766
-0.055536401 -0.045804262 0.71235991 -0.07808897644 0.1681412905 0.982665062
-0.11391933 -0.0059978026 0.72759998 0.2519012988 -0.2461437434 0.935926795
-0.10289285 -0.10576101 0.75173908 -0.2725019455 0.5151145458 0.8126497865
-0.10512514 -0.025535516 0.72386873 0.1750179529 -0.3451113105 0.9220991731
-0.040588789 -0.043915741 0.75900006 -0.01051911339 -0.2303266227 0.9730564952
-0.053758338 -0.0340988 0.7632916 -0.01847697422 -0.04095379263 0.9989901781
-0.12517594 -0.11474501 0.74368739 -0.331035465 0.1671451181 0.9286969304
-0.17597358 -0.10671465 0.71877766 0.03963325173 -0.2106808275 0.9767511487
-0.1627444 -0.049142428 0.72800004 0.01034202147 -0.1158209071 0.9932162762
-0.18455215 -0.13467662 0.71724987 0.07974482328 0.006710068323 0.9967927337
-0.16063163 -0.073596165 0.73000002 -0.1256949008 -0.05206652358 0.9907016754
-0.014819449 0.014821451 0.76850027 0.07740795612 -0.07348407805 0.9942877293
-0.094928041 -0.02531304 0.72187513 0.08743273467 -0.1972505748 0.9764465094
-0.0047540283 0.027583033 0.70400006 0.1425087303 -0.01699235104 0.9896476865
-0.0049979184 0.054030549 0.7344287 0.1756822169 -0.8142417073 0.5533047915
-0.034887396 -0.0046963044 0.76535708 -0.06152956933 -0.1465564221 0.9872868657
-0.044784345 -0.014703693 0.76248211 -0.06506510079 -0.1061796695 0.9922159314
-0.024782693 -0.014729986 0.76398212 -0.01706203818 -0.159145698 0.9871076345
-0.17501232 -0.075117067 0.7245332 -0.0005831005983 -0.1076325178 0.9941905737
-0.065137058 -0.025052182 0.71439087 0.2001223862 -0.00170659693 0.9797694087
-0.11503185 -0.07536155 0.73415697 0.1060685739 0.242698431 0.9642857313
-0.17492597 -0.064995095 0.72724581 -0.007002610248 -0.05713579804 0.9983418584
0.015758082 -0.00063032331 0.71900004 -0.04069343209 0.514069736 0.8567825556
-0.13457496 -0.13478488 0.73618746 -0.5935173631 -0.01609507762 0.8046602607
-0.18263429 -0.14513279 0.71853322 -0.001472016796 0.06104608998 0.9981338382
-0.0047091311 0.0047086296 0.76697952 0.141193226 -0.1289092004 0.9815533161
-0.025179593 0.043361299 0.72506058 0.2568213642 -0.7380385399 0.6239727139
-0.14509358 -0.10496395 0.7361002 -0.4451736212 -0.05445274711 0.893787086
-0.17467903 -0.1255101 0.71507245 -0.02446965687 -0.01471695304 0.9995922446
-0.10475117 -0.035101704 0.72179675 -0.05434387177 -0.3224915266 0.9450110793
-0.034944385 -0.024491375 0.76130193 -0.01079491805 -0.1153861359 0.9932620525
-0.07599555 -0.071858302 0.72665012 -0.1309551001 0.6076532602 0.7833315134
-0.08131171 -0.016023483 0.71899992 0.2581381798 -0.08894769847 0.9620046616
-0.0053924336 0.047062092 0.72506446 0.1986239254 -0.8132447004 0.546974957
-0.18511786 -0.12496427 0.71655548 0.177783072 -0.08137099445 0.980699718
-0.10803971 -0.047150221 0.7072106 -0.5778247714 -0.09296897799 0.8108485341
-0.18456703 -0.094982184 0.7228846 0.2574090362 -0.2132985443 0.9424671531
-0.074919313 -0.054940861 0.71214062 0.08071040362 0.168954581 0.9823136926
-0.10398587 -0.0058391043 0.7276926 0.2516582012 -0.2897489667 0.9234249592
-0.024904598 -0.028041441 0.75900012 0.2852129042 -0.3486365676 0.8928080201
-0.014778827 -0.0046988241 0.76619619 0.009440681897 -0.1521282345 0.9883157015
-0.085508026 -0.036109816 0.72053063 0.08857239038 -0.137720108 0.9865029454
-0.15337519 -0.10363398 0.73069566 -0.5390207767 -0.1459864527 0.8295447826
0.0046924213 0.023489507 0.76554292 0.04099330306 0.4200697839 0.9065654278
-0.0748225 -0.025147513 0.71719611 0.1646918058 0.02692699805 0.9859774709
0.0049210861 0.034460489 0.70178163 -0.08658773452 -0.359365344 0.9291712046
-0.11523491 -0.056541402 0.73150015 0.2271129638 0.2472530305 0.9419584274
-0.15513493 -0.05532819 0.72800004 -0.05791203678 -0.03763249144 0.9976121187
-0.024870086 0.0047047487 0.76671427 -0.03556354344 -0.1294472069 0.990948379
-0.034887914 0.0046964111 0.76537502 -0.0716997683 -0.1279380471 0.9891870618
-0.11482451 -0.02526675 0.72525424 0.273527503 -0.3321827352 0.9026834369
-0.1452734 -0.085126176 0.73455256 -0.2317929864 0.2067872882 0.9505319595
-0.08506003 0.0049686055 0.72525787 0.3247459531 -0.3678840697 0.8713216186
-0.036628012 -0.053291339 0.71787995 -0.2602680326 0.5093664527 0.8202477098
-0.17486204 -0.084788606 0.72239673 0.01369015221 -0.2212754041 0.9751152396
-0.14473434 -0.065115355 0.7315793 -0.05485774949 0.1058198512 0.9928709865
-0.025573863 0.025427811 0.71211118 0.3706819117 -0.5144876838 0.7732382417
-0.074097104 0.014089158 0.72644186 0.3719930947 -0.4478315711 0.8130608797
-0.11648638 -0.12383138 0.7468788 -0.4886998534 0.1974927038 0.8498053551
-0.0047182823 0.014821993 0.76850039 0.09290924668 -0.08154699951 0.9923295379
-0.044860892 -0.03455371 0.76122236 -0.008591639809 -0.03805305436 0.9992387891
-0.13492356 -0.043482248 0.69370466 0.07135937363 -0.9859409332 -0.1510903537
-0.12494273 -0.064958684 0.73047256 0.05078671128 0.255369544 0.965508759
-0.08833994 -0.10811755 0.75200003 -0.2913812399 0.5730882883 0.7659417987
