# .PCD v0.7 - Point Cloud Data file format
VERSION 0.7
FIELDS x y z normal_x normal_y normal_z
SIZE 4 4 4 4 4 4
TYPE F F F F F F
COUNT 1 1 1 1 1 1
WIDTH 206
HEIGHT 1
VIEWPOINT 0 0 0 1 0 0 0
POINTS 206
DATA ascii
-0.015112288 -0.06506896 0.90735042 -0.04800520465 0.294121474 0.9545617104
-0.19228311 -0.163159 0.8912726 0.3170702159 0.2423392087 0.9169177413
0.062414721 -0.017806195 0.8045001 0.01057937462 -0.1444373727 0.9894573689
-0.095105134 -0.075500369 0.80528575 -0.6103976369 0.4981144667 0.6158707142
-0.077071808 -0.16263682 0.90259999 -0.1769729108 0.6015456915 0.7789886594
-0.13390416 -0.07755895 0.90441179 0.4540525973 -0.8180187345 0.353102833
0.024705926 0.02667083 0.88260001 0.1445832551 -0.7600249648 0.6336069703
-0.025103826 -0.02576492 0.83440912 0.2563271523 -0.5632297993 0.7855371237
-0.027092159 -0.12340329 0.8490001 -0.1246337667 0.4141240716 0.9016472101
0.045042258 -0.082188539 0.84736371 0.5821478963 0.2123972923 0.7848510742
0.081589609 -0.02078226 0.87800002 -0.7191562653 -0.3337137997 0.6094664931
-0.078015327 -0.051943485 0.86187506 0.6218537092 -0.4312613606 0.6536907554
-0.1354053 -0.13858625 0.88082361 -0.01497762557 0.3997237682 0.9165132642
-0.01952775 -0.01015443 0.89100003 0.03180996329 0.4418817163 0.8965091705
-0.0853469 -0.11487954 0.86865848 0.1127623916 0.5263546705 0.842754662
-0.17848845 -0.11125514 0.91300005 0.6422531009 -0.60240978 0.4739340246
0.041863464 -0.068719268 0.90100002 0.3445229232 -0.08419458568 0.9349947572
0.024178291 -0.003954994 0.83579999 0.1131644621 -0.8972274065 0.4268217385
-0.047756948 -0.071346812 0.82539999 -0.6240318418 0.237125203 0.7445508242
-0.12194608 -0.18300065 0.90680009 -0.2722434103 0.4079921246 0.8714504838
0.0043791784 -0.094723567 0.86560863 0.3444698453 -0.2052163929 0.9160932302
0.023002855 -0.028112948 0.89700007 0.09084790945 0.1980630606 0.975970149
-0.039448246 -0.14290193 0.89400005 0.03738356754 0.7632793784 0.644986093
-0.12402135 -0.096094392 0.86641383 0.4066506326 -0.2905887663 0.8661370873
0.047450505 -0.053417653 0.81815803 0.1280037761 0.5026813149 0.854942441
0.054517973 0.005515052 0.86446679 -0.4126990139 -0.5797786713 0.7025213242
-0.15507829 -0.17380862 0.88788223 -0.0457874015 0.3963227868 0.9169687629
-0.05201694 -0.096131444 0.86218184 -0.06511583924 0.420438081 0.9049816132
0.010841738 -0.091768593 0.90500003 0.3176221251 -0.292293489 0.9020425081
-0.15474011 -0.10513492 0.884 0.5991031528 -0.4915786982 0.6320014596
-0.063437425 -0.10421322 0.82471442 0.4680794775 0.687476635 0.5552274585
0.0024578446 -0.0017030346 0.86362499 0.4120522738 -0.8393021822 0.3546614945
0.02755977 -0.023809182 0.80852944 0.05632964522 -0.5955055952 0.8013738394
-0.17510152 -0.13503629 0.88429737 0.4173017144 -0.2498288453 0.8737533092
-0.10510083 -0.15164979 0.8880527 -0.08047960699 0.49357301 0.8659726977
-0.024453782 -0.084481373 0.84528571 -0.2353612781 0.3586392403 0.9033177495
-0.085512899 -0.085755318 0.85310006 0.4899881184 0.08042871207 0.8680108786
-0.10384643 -0.069485478 0.87100005 0.6463398933 -0.4863732159 0.5879505277
-0.052072246 -0.036930896 0.84250003 0.6115778089 -0.4506827593 0.6502750516
0.015083049 -0.055573661 0.90557128 0.177325666 0.1146809906 0.977447629
0.0019925174 -0.12363381 0.85299999 0.473228246 -0.8502774835 0.2303979099
-0.054416079 -0.12727779 0.87431586 0.01044918597 0.7102674246 0.703854382
-0.02246511 -0.037860781 0.89600003 -0.06519829482 0.2703716457 0.9605458379
0.0030326403 -0.021646779 0.83500004 0.3525028527 -0.6867565513 0.6356942654
0.049515009 -0.01108545 0.84300005 -0.3595668972 -0.861281693 0.3590340316
-0.10801936 -0.069100618 0.90600002 0.4984929562 -0.8224759102 0.2739308774
-0.13044538 -0.16325198 0.89099997 -0.2212362289 0.2947654724 0.9296063185
-0.071974337 -0.07989151 0.82100004 -0.7793613076 -0.03003334999 0.6258546114
0.0294034 -0.098765269 0.86000001 0.3747262061 -0.3530041277 0.8573029637
-0.012025611 -0.10778066 0.88085717 -0.1510452777 -0.8644415736 0.4795060456
-0.0091940416 -0.10517984 0.83900005 -0.3064558804 -0.2135684192 0.9276170135
-0.066813238 -0.064111583 0.84230429 0.6418889761 -0.1097181514 0.7589074373
-0.11498377 -0.12500694 0.87391889 -0.002908771159 0.4723047614 0.8814305067
-0.075150564 -0.14374669 0.88631034 -0.1252430528 0.6416529417 0.7567005157
0.024472868 0.0092548905 0.86018181 0.1720308065 -0.7656623721 0.6198117137
-0.0020180866 0.010695684 0.884 0.5969719887 -0.6858589649 0.4161993563
-0.034836233 -0.10431197 0.83639544 -0.1199895367 -0.3447251022 0.9310032725
-0.03673023 -0.044841956 0.82542437 0.2212958336 -0.3002925217 0.9278213978
-0.17140323 -0.18562101 0.90100002 0.1021416113 0.4214854538 0.9010643959
0.042958539 -0.045672942 0.89772433 0.2586433291 0.08063518256 0.9626014829
0.058631465 0.022372533 0.88000005 -0.3158980012 -0.6434186697 0.6972953677
-0.11863799 -0.080638871 0.88450003 0.4914361238 -0.7880451679 0.3707766831
-0.013733762 -0.008964112 0.84433341 0.3429203629 -0.8252736926 0.4486969411
-0.13471138 -0.11482773 0.87237138 0.2906037569 0.08611226827 0.9529607296
-0.16469584 -0.15464398 0.88200009 0.1199954301 0.1473506689 0.9817784429
0.063481368 -0.038434293 0.82099998 0.2674556375 0.2079440802 0.9408649206
-0.1568184 -0.094697408 0.90307689 0.599331975 -0.6767098308 0.4276271462
-0.022553565 -0.10245969 0.86250001 -0.2360079139 -0.899200201 0.3684280217
0.073405862 0.0042836852 0.87525004 -0.6948328018 -0.3803158998 0.6103827953
0.039138198 -0.011284746 0.82166672 -0.1517838836 -0.7697255611 0.6200678945
-0.06878414 -0.095412605 0.84366673 0.5221238136 0.7001875639 0.4869538844
-0.10508103 -0.10508246 0.8623265 0.1853549033 0.3322856128 0.9247863889
0.052048285 -0.068833232 0.83233339 0.6728663445 0.362939924 0.6446126699
-0.1042007 -0.16828525 0.90122223 -0.1855845153 0.4880990982 0.8528292179
-0.0036670968 -0.028036967 0.89666671 -0.02929089591 0.3253267407 0.9451479316
0.031665199 -0.071623668 0.86000001 0.7618097663 -0.5136909485 0.3946739137
-0.13786533 -0.091993153 0.88183337 0.4972991049 -0.6822336912 0.5359578133
0.066982791 -0.013060385 0.86488891 -0.7044767737 -0.2851341069 0.64993155
-0.15660775 -0.12626338 0.88000005 0.3604757488 0.01108872518 0.9327026606
-0.094818935 -0.13497615 0.88091111 0.01384552941 0.5132049322 0.8581544161
-0.045080125 -0.083473042 0.84760022 -0.1884859204 0.5418794751 0.8190480471
-0.058192257 -0.15019667 0.89700007 -0.1977503449 0.6621664166 0.7227935195
-0.052471127 -0.11159352 0.84299999 -0.673856318 -0.737113595 -0.05080540851
-0.032001998 -0.055737507 0.9023636 -0.1161605567 0.3085638285 0.9440842867
-0.0045790104 -0.084845722 0.91502953 0.19464764 0.1556958854 0.9684374332
0.045055315 -0.034754671 0.81248939 -0.05915692076 0.121891655 0.990778923
-0.17236896 -0.11726476 0.89574999 0.6090016961 -0.5572974682 0.5643903613
-0.07721848 -0.068634473 0.80409104 -0.5721623898 0.2729011178 0.7734048963
0.006954947 -0.0025120007 0.84379995 0.3025406301 -0.8452934623 0.4403954148
-0.034499615 -0.065328985 0.83728594 -0.2160637379 0.4434690475 0.8698572516
0.019681167 -0.077150166 0.89800006 0.3155332506 -0.05943632871 0.9470512867
-0.17408176 -0.17304356 0.88780004 0.1829882711 0.3360705078 0.9238895774
-0.10818704 -0.085747637 0.86460006 0.4525192976 -0.3379984498 0.8252171278
-0.0876614 -0.070278853 0.86199999 0.5738235712 -0.2625514865 0.7757533193
-0.0047482895 -0.044870727 0.90264988 -0.05016712844 0.3059992194 0.9507091045
-0.18752994 -0.14517519 0.8921538 0.4422637522 -0.1539504677 0.8835734725
-0.064721674 -0.11708172 0.86440021 0.02068299986 0.5659456849 0.8241830468
-0.14506803 -0.15509772 0.88599974 -0.1583927423 0.2622398138 0.9519149065
-0.13545616 -0.18277273 0.89575005 -0.2413792461 0.3745803833 0.8952237368
0.014582693 -0.10430426 0.85287499 0.295457691 -0.645180583 0.7045897841
0.035124525 0.019089416 0.87100011 -0.009655623697 -0.7625476718 0.6468599439
0.014777363 0.016138624 0.87323087 0.3936266899 -0.7400419116 0.54534024
-0.056241166 -0.083631732 0.8153159 -0.7351800799 0.2283949405 0.6382366419
-0.084824517 -0.10237079 0.85624999 0.2606763542 0.5386171341 0.8012111783
-0.0113353 -0.089926712 0.86200005 -0.08891958743 0.8422791362 0.5316569805
-0.056882996 -0.053843245 0.83346164 0.5779961348 -0.2723928392 0.7692350745
0.014212229 -0.014846618 0.82469225 0.3450136185 -0.7684983015 0.538865447
-0.010519415 -0.0051314221 0.87800008 0.837344408 -0.5461927652 0.02297361009
0.033470433 0.0014880539 0.8484 -0.1475108117 -0.821015656 0.5515195727
-0.03502091 -0.094868377 0.8537662 0.2327389568 -0.5310579538 0.8147453666
-0.042858772 -0.12399235 0.84642863 0.3062745035 0.5516875386 0.7757813931
-0.14357637 -0.08817143 0.89711118 0.5309630632 -0.734179616 0.4231530726
-0.18508415 -0.123335 0.903 0.6322969794 -0.5385828018 0.5568923354
-0.06600818 -0.041867405 0.8605001 0.6633008122 -0.4330534339 0.610325098
-0.07535477 -0.12591259 0.87372404 0.07086911052 0.5860675573 0.80715698
0.0048871427 -0.074688636 0.90771472 0.2621898353 0.08497390896 0.9612678885
0.04562892 -0.057774961 0.8882001 0.5461720228 -0.1876397878 0.8163868189
-0.017512292 -0.080397345 0.90800005 0.09573589265 0.2361407876 0.9669913054
-0.062706284 -0.047295969 0.84607697 0.6968349218 -0.413720876 0.5858806372
0.014957687 -0.040936828 0.89799994 0.08107087016 0.2322543412 0.969270587
-0.041287493 -0.026541959 0.84100002 0.412251085 -0.5205881 0.7476878166
0.024354044 -0.084722102 0.85816127 0.3447029293 -0.06177022308 0.9366772771
-0.069952741 -0.1015443 0.85800004 0.008267625235 0.5343087912 0.8452489376
0.042430665 0.028544268 0.88000005 -0.08172121644 -0.7329795957 0.6753240824
0.053183679 -0.017602591 0.81620008 -0.1937685013 -0.5548378825 0.8090789318
0.039400905 -0.068394899 0.84800005 0.5814683437 0.3476146758 0.7355668545
-0.047233112 -0.13439319 0.88535726 0.0148174325 0.7647057772 0.6442092061
-0.1687912 -0.10079256 0.91250002 0.6321083307 -0.6447764039 0.4297701716
-0.11491163 -0.1372312 0.88090003 -0.04809646308 0.4772433341 0.8774540424
0.032717519 -0.054667775 0.90099996 0.2561821342 0.03087611683 0.9661352634
-0.1635586 -0.10641735 0.89587498 0.636402607 -0.5766136646 0.5123557448
-0.055373162 -0.093255326 0.8278001 -0.824426055 0.01270446181 0.5658271313
-0.10282833 -0.11886343 0.87100011 0.02298203111 0.5083435178 0.860847652
-0.077421241 -0.063829042 0.85131574 0.6539790034 -0.3202389479 0.6853893399
0.060731083 -0.050728317 0.81500006 0.1538592577 0.4331772029 0.8880792856
-0.088187583 -0.17083375 0.90300006 -0.1711526364 0.5538295507 0.8148494363
-0.085177824 -0.15455899 0.89490938 -0.1550817043 0.5891265273 0.7930192947
-0.034315404 -0.13334443 0.85513037 0.3202689886 0.6940046549 0.6448141932
0.042353518 -0.059151329 0.83300006 0.6180806756 0.437056452 0.6534202099
-0.052652597 -0.1165879 0.85800004 0.6877054572 0.1586902291 0.7084339261
-0.14429626 -0.10540847 0.87480003 0.4740266502 -0.3123688698 0.8232402205
-0.15479818 -0.14527197 0.88205409 0.04152207077 0.1776685268 0.9832140207
-0.05580743 -0.078111149 0.83400011 -0.8237299919 0.3210849762 0.4673042893
0.026383108 -0.0087458026 0.81780005 0.07460005581 -0.7756767273 0.6267060041
-0.1163381 -0.17254345 0.89706665 -0.2453709692 0.4178520441 0.8747529387
0.080709442 -0.0069147958 0.87680006 -0.7056390643 -0.3536831737 0.6139883399
-0.16371304 -0.11581562 0.88438457 0.581977725 -0.3949563503 0.710852623
0.041273467 -0.091552049 0.85600007 0.4211090505 0.07439661771 0.9039537311
0.033700053 -0.035959411 0.89765227 0.1854879111 0.09089016169 0.9784340858
0.0037144369 -0.11165585 0.84754556 0.07162074745 -0.790168047 0.6086910963
0.054768607 -0.0051443335 0.85363638 -0.5357925892 -0.5978184938 0.5962712169
-0.144582 -0.12438215 0.87502372 0.2379632741 0.1496516466 0.9596759081
0.062396754 -0.030704197 0.80699998 0.0213321913 0.1657227725 0.9859416485
-0.12472653 -0.14486568 0.88518906 -0.07828363031 0.4437877834 0.8927060366
0.044506535 0.0028647066 0.85518187 -0.3327556551 -0.7015286684 0.6301835179
-0.045154117 -0.054702509 0.82540005 0.1943708807 -0.0724927634 0.9782457352
0.0034996998 0.007849996 0.87226325 0.5168101788 -0.72485888 0.4555072486
-0.035489902 -0.077537656 0.84144437 -0.09993414581 0.6145965457 0.7824859619
0.025017753 -0.064599633 0.90300012 0.2918613553 -0.06620553136 0.9541665316
-0.11489557 -0.11359221 0.86835724 0.1150401682 0.3013252616 0.9465563297
0.040992931 -0.0065881498 0.83500004 -0.3012776971 -0.8960598707 0.3260498345
-0.094313875 -0.09431196 0.85709673 0.3527526259 0.1455500275 0.9243271947
-0.065277897 -0.13652824 0.88417387 -0.1169681624 0.6951986551 0.7092371583
-0.11527974 -0.15662065 0.89308023 -0.1403006166 0.4460484684 0.8839437366
-0.028309321 -0.036147773 0.82800007 0.2145311236 -0.4190557599 0.8822520375
-0.11534941 -0.075257681 0.89509088 0.4888232052 -0.8209344149 0.295158565
-0.047089275 -0.042431433 0.83275014 0.4453604817 -0.3992266059 0.8014188409
-0.1121451 -0.077912144 0.87416667 0.5554465055 -0.5817782879 0.5941491723
0.015491646 0.0032714743 0.85451996 0.2180894315 -0.853339076 0.473549813
-0.034655765 -0.11547698 0.84368283 0.01246144809 0.2614902258 0.96512568
-0.025577802 -0.071022451 0.90620005 -0.03426262736 0.3189598322 0.9471487403
-0.053536873 -0.10334658 0.834158 -0.6625336409 -0.3721937835 0.650016129
-0.1241583 -0.087136909 0.87447619 0.52295959 -0.6090705991 0.5962769985
-0.18342997 -0.15502812 0.88657689 0.3007898927 0.0689720884 0.9511930943
-0.0022063749 -0.0082516745 0.8387779 0.3144921958 -0.8011143804 0.5092253089
0.031943686 -0.072787009 0.89599991 0.3631157577 -0.1254696846 0.9232574105
-0.066638358 -0.15698089 0.90133333 -0.1793770343 0.625115931 0.7596406937
-0.015216941 -0.018219205 0.83745456 0.2819358408 -0.6392859221 0.7154199481
-0.10545073 -0.13120113 0.8780002 -0.0003866021871 0.4963331521 0.8681320548
-0.12489288 -0.13334839 0.87650013 -0.01876778342 0.441860497 0.8968874216
-0.017413231 -0.11288415 0.84160006 -0.08788241446 -0.09229106456 0.9918462634
0.05600322 -0.061029151 0.81900007 0.2659189701 0.5371475816 0.8004745841
-0.083859928 -0.13495594 0.87758642 0.009295511059 0.5618280768 0.8272017837
-0.14395456 -0.17668588 0.89115787 -0.1854691505 0.384119451 0.9044630527
-0.15382819 -0.11562333 0.87716013 0.4898747504 -0.1964250505 0.8493762016
-0.0094173281 -0.083866313 0.85259998 -0.006683422253 0.7905065417 0.6124171019
-0.0049448381 -0.10225156 0.87395471 0.1385480911 0.8964431882 0.4209441841
0.044783961 0.014457548 0.86776656 -0.223890245 -0.6816967726 0.6965361834
-0.18399796 -0.17378947 0.89276206 0.2557206452 0.3123906851 0.9148874283
-0.090892799 -0.059837759 0.86400002 0.5860981345 -0.3484621644 0.731480062
0.040780343 -0.025177428 0.80900002 0.07677845657 -0.1731023788 0.9819066525
0.064336814 0.013896241 0.87600005 -0.4546640813 -0.556979537 0.6950211525
-0.094817892 -0.14499673 0.88535482 -0.03607961908 0.5310198069 0.8465909362
-0.0047655599 -0.055305589 0.90599996 -0.01704938896 0.2914354205 0.9564385414
-0.076607749 -0.086928926 0.84691304 0.6709666252 0.1017778218 0.7344692349
-0.095077008 -0.12478711 0.87582761 0.04622765258 0.5064563155 0.8610255718
0.014742164 0.023161674 0.88521051 0.3362411857 -0.7156398892 0.6122102737
-0.09669283 -0.084606223 0.81100005 0.1796869785 0.9399110079 0.290310055
-0.066199735 -0.093076222 0.83340007 0.719557941 0.4989435077 0.4830028713
-0.070785575 -0.075054944 0.81150007 -0.5594428182 0.3104169071 0.7685473561
-0.16525613 -0.16506448 0.88447887 0.08962745219 0.2592145503 0.9616521001
0.0047206557 -0.034623358 0.89755589 -0.01098717283 0.272844553 0.9619953632
0.025454307 -0.042839345 0.89800018 0.1753809452 0.1388418674 0.974661231
0.035100386 0.0089927111 0.86030769 -0.06809079647 -0.7348275781 0.6748274565
0.043904342 -0.043904342 0.82100004 0.03365020826 0.3663052619 0.9298861027
-0.096494168 -0.16197941 0.89780009 -0.1468007565 0.5205283165 0.8411300778
