# .PCD v0.7 - Point Cloud Data file format
VERSION 0.7
FIELDS x y z normal_x normal_y normal_z
SIZE 4 4 4 4 4 4
TYPE F F F F F F
COUNT 1 1 1 1 1 1
WIDTH 206
HEIGHT 1
VIEWPOINT 0 0 0 1 0 0 0
POINTS 206
DATA ascii
-0.087704189 0.0010530519 0.85799998 -0.2220948488 -0.4112857878 0.8840349913
-0.27076113 0.02568195 0.83700001 0.2924782932 0.1463765055 0.9450028539
-0.027603604 -0.090271242 0.85100001 0.4093344212 -0.07649365813 0.9091721773
-0.193305 -0.040655416 0.87500006 0.3003643751 0.4860638976 0.8206845522
-0.1776123 0.067986906 0.86359996 -0.2303300202 -0.3704175949 0.8998549581
-0.015287438 -0.01751918 0.89099991 -0.6047095656 -0.5683232546 0.5579739809
-0.085584164 -0.06601271 0.89615166 -0.389914602 -0.6570991278 0.6451258063
-0.14096536 0.026086971 0.81900007 -0.9825543165 -0.07806576043 0.1687978357
-0.12814662 -0.048272625 0.85149997 0.3390473723 0.4830778539 0.8072686195
-0.21254909 0.014300897 0.85442859 -0.5088328123 0.4849868715 0.7112502456
-0.02786557 -0.072648101 0.9034546 0.3646636307 -0.002555409679 0.9311358333
-0.049867429 -0.03423734 0.84900004 -0.3157748282 -0.512820363 0.7983117104
-0.11728121 0.042132396 0.86653847 -0.3111357987 -0.3317748606 0.8905728459
-0.23486742 0.061136805 0.83620006 -0.08167873323 -0.4287349284 0.8997305036
-0.15516864 -0.0052450774 0.85506117 0.3929668665 0.01007611677 0.9194974303
-0.0091208396 -0.05168476 0.86700004 -0.7471699715 -0.4967240989 0.4415905774
-0.23281795 -0.021504315 0.86199993 -0.3197000921 0.46296224 0.8267150521
-0.053231198 0.0069431998 0.88000005 -0.4950994551 -0.544473052 0.6770713925
-0.068871811 -0.029290309 0.90300006 -0.1951745898 0.07369685918 0.9779957533
-0.15527457 0.035183992 0.85616666 -0.2005986273 0.03749176487 0.9789558649
-0.058795404 -0.078648396 0.87100005 -0.1600064188 -0.9763251543 0.1455581486
-0.10057471 -0.072528385 0.86000001 0.0842307359 0.7100781202 0.6990666986
-0.23611329 0.026447052 0.82831591 -0.1998085529 0.172149986 0.9645936489
-0.12177086 0.0085380506 0.85099995 -0.5959188938 -0.1152084395 0.7947374582
-0.19488202 0.045211364 0.84288871 -0.3189337254 0.06912701577 0.9452527165
-0.16133472 -0.050748479 0.86400002 0.3147352934 0.4840575755 0.8164741397
-0.097540855 -0.032845635 0.85149997 -0.009951046668 -0.0827197805 0.9965231419
-0.25262153 -0.0029605038 0.84327263 -0.04731735215 0.6025536656 0.7966744304
-0.10305392 -0.038546447 0.89733338 -0.125968799 -0.1417204589 0.9818590283
-0.18578847 -0.0042623528 0.85799992 0.1908486485 0.09766931087 0.9767484069
-0.052326236 -0.056495562 0.91049999 -0.1485760957 -0.09735853225 0.9840967655
-0.037130632 -0.017846303 0.86833334 -0.4930620492 -0.6172440648 0.6131064892
-0.022438344 -0.06371069 0.84507138 0.2020523399 -0.09189537913 0.9750539064
-0.095129147 0.024884148 0.86717802 -0.2986534536 -0.3950209618 0.8687718511
-0.18519385 0.024992829 0.85711122 -0.06383226812 0.2841081917 0.9566650391
-0.11983069 -0.017862961 0.84900004 -0.1783290505 -0.117194064 0.9769668579
-0.061068598 -0.011309 0.86000001 -0.3304859996 -0.5405473709 0.7736843824
-0.17515045 -0.027492039 0.86165202 0.3591601253 0.3137791455 0.8789463043
-0.25463557 0.044510756 0.83611107 0.2405686826 -0.2801997066 0.9293087721
-0.14122887 0.0072078281 0.83471435 -0.5741472244 0.5196923018 0.6326727867
-0.20279147 0.065070517 0.85449994 -0.2427954227 -0.3990556896 0.8841973543
-0.15522648 0.058890574 0.86000007 -0.2428954542 -0.2390862852 0.9401274323
-0.027627077 -0.038644638 0.85688889 -0.4915069044 -0.5753855109 0.6537219882
-0.21547113 0.034810014 0.83652961 -0.412545085 0.1439657509 0.8994889855
-0.22694059 -0.0033296179 0.84778279 -0.4228090644 0.5522224903 0.7185282111
-0.20531864 -0.021664245 0.86806679 0.08545964211 0.499215126 0.8622533679
-0.14334045 -0.024128014 0.84797001 0.2648899853 0.1167417243 0.9571858048
-0.1414452 -0.060691923 0.86900002 0.366538614 0.5652455091 0.7390176058
-0.07483051 0.015271533 0.87100011 -0.351816237 -0.4296809435 0.8316246867
-0.080175549 -0.071776211 0.87100005 -0.3253713548 -0.9312047362 0.164289996
-0.16493145 0.014961621 0.85443264 0.05573982373 0.05090041831 0.9971470237
-0.03208074 -0.0031283849 0.89250004 -0.5526047945 -0.5937914252 0.5848415494
-0.06427639 -0.073421009 0.9027037 -0.2437859029 -0.1763901412 0.9536534548
-0.075403951 -0.023423932 0.84894782 -0.09309693426 -0.3712735474 0.9238446355
-0.005446949 -0.055256963 0.88775003 0.9456506968 -0.2180075794 0.2412829548
-0.17422436 0.043532569 0.85240746 -0.259740442 0.0909011215 0.9613906145
-0.13602215 0.052125018 0.86166668 -0.2183916569 -0.1432570517 0.9652888179
-0.13049796 0.023592852 0.84100002 -0.9192575812 -0.06115753204 0.3888768554
-0.10897405 -0.053186491 0.84850001 0.004408042878 0.3670895994 0.9301751256
-0.0071592489 -0.035717055 0.88577783 -0.7421100736 -0.4829954803 0.4647451341
-0.085400812 -0.045075271 0.90200025 -0.1936652064 -0.0172100924 0.9809167385
-0.25531438 0.014905013 0.8324284 0.1411337107 0.3805063367 0.9139453769
-0.21508436 -0.0051923534 0.86283714 -0.3215628862 0.4162781239 0.8504762053
-0.21445444 0.056986451 0.84155989 -0.2716917694 -0.2888666391 0.9180085063
-0.1041628 -0.062143069 0.89587498 -0.3986642659 -0.4841075838 0.7789137363
-0.039958466 -0.079163 0.86000001 0.399238199 0.04075434804 0.915941
-0.11866911 -0.064385906 0.86000001 0.2912543416 0.6363028288 0.7143455744
-0.10485797 -0.0051410184 0.85534906 -0.161277473 -0.227023527 0.960442543
-0.11502507 -0.034876071 0.84655106 -0.07560530305 -0.002406182466 0.9971349239
-0.10594993 0.012464697 0.85799986 -0.3058288097 -0.3313496709 0.8925671577
-0.045197587 -0.07532645 0.90452367 -0.07196211815 -0.3578155339 0.9310153127
-0.22597058 0.016416555 0.83855575 -0.4476535022 0.441485703 0.7776224613
-0.15439098 -0.033976037 0.85739994 0.3469058573 0.3540969491 0.868488133
-0.18665093 0.061751008 0.84864706 -0.2210380733 -0.3580064774 0.9071788788
-0.23506372 0.044583108 0.83134037 -0.07069263607 -0.2852246761 0.9558501244
-0.021380147 -0.031306643 0.87100005 -0.6294894218 -0.5503271818 0.5485280752
-0.17687014 -0.04316707 0.87150007 0.4026772678 0.4698516726 0.7855510116
-0.13133518 0.035887226 0.86000001 -0.1869360059 -0.2892398834 0.9388265014
-0.13471295 -0.005822327 0.84285367 -0.0435692817 0.2807895541 0.9587799311
-0.12863593 0.034884319 0.82900006 -0.9482738972 -0.04434105381 0.3143413365
-0.24372503 -0.012191865 0.85392857 -0.2641997635 0.5867845416 0.7654295564
-0.19872543 0.029027309 0.84900004 -0.3399058878 0.4561867118 0.8224096894
-0.14894322 0.014731507 0.85719997 0.2533801496 -0.2094325274 0.944423914
-0.11433285 0.025788279 0.86142868 -0.3744741678 -0.3738547266 0.84852916
-0.19653761 0.013971487 0.8601175 -0.03702211753 0.2540909946 0.9664714932
-0.04574497 -0.0062058172 0.87548494 -0.5029645562 -0.5820971727 0.638897121
-0.0096985633 -0.070874117 0.85100001 -0.5127406716 -0.01170918997 0.8584637046
-0.065112196 -0.044543743 0.90429729 -0.2147337645 0.06225365028 0.974686563
-0.14628327 -0.047132693 0.86141187 0.3567328453 0.4990696013 0.7897285819
-0.036713302 -0.056523457 0.90899998 -0.05727786198 -0.2136450708 0.9752307534
-0.26459676 0.0076831067 0.84260005 0.1449390501 0.4681892395 0.8716601729
-0.10345631 -0.018607249 0.84900004 -0.04832563549 -0.1842097193 0.981698215
-0.03816152 -0.028386248 0.85774994 -0.4160275161 -0.5589497685 0.7172839642
-0.030515891 -0.052100301 0.84900004 -0.3693953156 -0.4024568498 0.8376010656
-0.21635783 -0.031234756 0.86900002 -0.1316064298 0.460262388 0.8779739738
-0.073998816 -0.0046010977 0.86089993 -0.2578186393 -0.4647752643 0.8470616937
-0.17263444 0.058639001 0.85100001 -0.255671829 -0.2491190135 0.9341154099
-0.075274423 -0.055186238 0.903409 -0.2346202731 -0.06262770295 0.9700675607
-0.088920303 -0.06881658 0.88200003 -0.4343081117 -0.8552254438 0.282782346
-0.13901274 -0.039042935 0.85100001 0.323882252 0.3614140153 0.8743456006
-0.20212427 -0.028544266 0.88000005 0.1236458495 0.441883713 0.8885102868
-0.1651914 -0.015015887 0.85650033 0.2374938875 0.08587867022 0.9675853848
-0.0087358858 -0.056980412 0.85399997 -0.6564634442 -0.3584424555 0.6637580395
-0.25218454 0.032704052 0.82900006 0.1713227779 -0.09630829096 0.9804964066
-0.18822165 -0.028252337 0.87100005 0.3566837013 0.432779938 0.8279361725
-0.066434875 0.0039747739 0.86811101 -0.4147010446 -0.4891237915 0.7673206329
-0.084895618 -0.014484528 0.8523888 -0.06325925142 -0.3238651156 0.9439860582
-0.18671957 0.036255274 0.84879345 -0.2533280551 0.2985232174 0.9201678038
-0.2454043 0.0072619738 0.83734494 -0.04188624769 0.5367282629 0.8427148461
-0.10581991 0.032825027 0.86841184 -0.3114580512 -0.3625265658 0.8783896565
-0.021998636 -0.02122717 0.88050002 -0.588419795 -0.5870476961 0.5560010076
-0.018111058 -0.0816238 0.84900004 0.2868207991 -0.07776477933 0.9548227191
-0.07342276 -0.081935547 0.86699998 -0.2420755327 -0.9653061032 0.09789593518
-0.032954972 -0.012045886 0.88344455 -0.5523427725 -0.5899770856 0.5889350176
-0.13109455 0.016481772 0.85450006 -0.4740338922 -0.3997042477 0.7845561504
-0.017360704 -0.047712803 0.85491663 -0.6006026268 -0.5608139038 0.5698809028
-0.082818344 -0.033379257 0.89800006 -0.1947627068 0.02048845775 0.9806363583
-0.21377786 0.024104971 0.84286028 -0.5320721865 0.4215108752 0.7343212962
-0.20815307 0.046534106 0.83899999 -0.3606238961 -0.0862051174 0.9287190437
-0.20485492 0.0051593352 0.86282581 -0.1038853899 0.2557015419 0.961157918
-0.24412474 0.053132813 0.83821744 0.05889042467 -0.3938515782 0.9172855616
-0.14563015 0.045506477 0.85758823 -0.178171441 -0.07772066444 0.9809253216
-0.11127821 -0.047653262 0.89599997 -0.4077347517 -0.2109209001 0.8884057403
-0.19497071 -0.015433331 0.86555564 0.2501796484 0.3465009928 0.9040725827
-0.14121154 0.014895266 0.82519996 -0.8581413627 0.342391938 0.3825717866
-0.17340787 0.0065942872 0.8571111 0.09655512869 0.03480151668 0.9947190285
-0.012131313 -0.04142851 0.87285721 -0.7287324071 -0.5032832623 0.4643867314
-0.23481494 0.0044461759 0.84275603 -0.2957451344 0.5692021847 0.7671660185
-0.18471366 0.011309 0.86000001 0.07939899713 0.1790488064 0.9806311131
-0.16530319 -0.035189349 0.86225802 0.3160392046 0.374568224 0.8716753125
-0.054931875 -0.024497934 0.85380447 -0.3066005409 -0.5185033679 0.7982169986
-0.13495144 0.036268964 0.81833339 -0.9563536048 -0.2341014296 0.1748837978
-0.042015474 -0.042015474 0.85280001 -0.3939219117 -0.5697815418 0.7212312818
-0.046425197 -0.046956748 0.9078334 -0.1312419325 -0.01343517844 0.9912593365
-0.18195917 -0.01511198 0.85799986 0.2687090635 0.2039709091 0.9413773417
-0.15195176 -0.056504674 0.87100005 0.3379357457 0.5408517122 0.7702459693
-0.17275067 -0.0065188934 0.85799998 0.1758673936 0.05192991719 0.9830431938
-0.26295552 0.033837579 0.83500004 0.3254704475 -0.03296460211 0.9449774027
-0.085368097 0.015222492 0.86662865 -0.2706227005 -0.3761997521 0.886136055
-0.03225432 -0.081026204 0.89733338 -0.2030327022 -0.8892014027 0.4099982381
-0.24525897 0.018510923 0.82900023 -0.0570907928 0.3480700552 0.93572855
-0.22431052 0.05437585 0.83689487 -0.1728513539 -0.3589063287 0.9172287583
-0.044675946 -0.064486615 0.91173685 -0.04741623625 -0.2508673966 0.9668594599
-0.14995471 -0.014174823 0.85100001 0.3031513691 0.03894410282 0.9521462917
-0.22892834 0.034884319 0.82900006 -0.3093650639 0.01400649827 0.9508401752
-0.13363509 0.015317197 0.83431417 -0.8666816354 0.1283087283 0.4820786417
-0.1226602 -0.0076930076 0.85223526 -0.3094355464 -0.08835018426 0.9468072057
-0.14686023 0.0042833588 0.85452002 0.3502465487 -0.1851053238 0.9181848168
-0.056127459 -0.066106603 0.9070347 -0.1965094656 -0.1330244988 0.9714363217
-0.038326986 0.00139653 0.88500005 -0.5212482214 -0.5929339528 0.6137830019
-0.21521747 -0.015275339 0.86650014 -0.2351302058 0.4175244272 0.8777170181
-0.12477742 -0.034703281 0.84218347 0.03838485852 0.05076935515 0.9979724884
-0.091888987 -0.053448319 0.90100002 -0.1782333702 -0.126366809 0.9758403301
-0.24491699 0.041425131 0.82900006 0.1002122611 -0.2736237943 0.9566020966
-0.11467542 -0.045133825 0.84393877 -0.008066176437 0.2323314101 0.9726032615
-0.13089889 0.0039336034 0.84200001 -0.5868439674 0.2775503695 0.7606444359
-0.065022305 -0.054913342 0.90587795 -0.2712870538 -0.03356206417 0.9619131684
-0.26488051 0.016809007 0.83622593 0.204441011 0.2686446011 0.941293776
-0.19542782 -0.0055324589 0.8622632 0.1457502693 0.195142895 0.9698845744
-0.09491545 0.015106839 0.86245948 -0.2860570848 -0.3740693629 0.882181108
-0.15546194 0.024783295 0.85669428 -0.08437095582 0.003806686494 0.9964271188
-0.21919341 0.008559335 0.84900004 -0.5414729118 0.4905403256 0.6827718019
-0.2042768 0.055687606 0.84229416 -0.281065762 -0.2189992666 0.9343668222
-0.17500882 0.024786018 0.85677564 -0.04211475328 0.2335973233 0.9714209437
-0.22855528 -0.013216877 0.85799992 -0.3328104913 0.4858914912 0.8081748486
-0.09257108 -0.024375498 0.84900004 0.003495247802 -0.2455678284 0.969373107
-0.12726279 -0.059104282 0.86066675 0.3504128754 0.5800932646 0.7353248596
-0.25539196 0.0058322786 0.83763152 0.07046756148 0.5390647054 0.8393113613
-0.07509876 -0.04502077 0.90297812 -0.2150829136 0.004028577358 0.9765874743
-0.088313647 -0.068582803 0.866 -0.3934795856 -0.9120696187 0.1153377593
-0.057782419 -0.037925914 0.90600008 -0.1826562434 0.08961182088 0.9790844917
-0.074980788 -0.014611869 0.85382348 -0.1540176272 -0.3889142275 0.908308506
-0.1253081 0.024477331 0.85613054 -0.5471486449 -0.433449626 0.716065526
-0.22507749 0.044476829 0.83165318 -0.233590275 -0.218295604 0.947513938
-0.074043065 -0.07136856 0.9022308 -0.3450681269 -0.4756934345 0.8091005683
-0.20410775 0.021943295 0.85337502 -0.3853739202 0.4856191576 0.7846406698
-0.16746525 0.049867433 0.84900004 -0.239721179 -0.1607308835 0.957444191
-0.11547691 0.014559824 0.85661113 -0.4000182748 -0.2913464904 0.8689664006
-0.20505589 -0.0055789468 0.86427283 -0.0437412411 0.3139023781 0.9484471679
-0.22527185 0.025526833 0.83504081 -0.3960725367 0.2701821327 0.877569437
-0.094830707 -0.01493163 0.85176194 0.004847916774 -0.2466131449 0.9691019058
-0.16502456 0.035386346 0.85627925 -0.2164411247 0.1042060703 0.9707184434
-0.22290771 -0.024721708 0.87211126 -0.2566875517 0.4486658275 0.8560435176
-0.1552726 0.045128867 0.85624415 -0.2342029512 -0.02341207489 0.9719057679
-0.095180579 -0.0053405073 0.85575014 -0.1026357636 -0.3293323219 0.938619256
-0.16506617 0.024760695 0.85585737 -0.03984982893 0.129604727 0.9907646775
-0.1950199 0.054666661 0.84468156 -0.2708566487 -0.2017604262 0.9412382245
-0.0059731291 -0.044576664 0.88227272 -0.7479788661 -0.4811951518 0.4571419954
-0.017352741 -0.056272358 0.84833336 -0.4489034414 -0.3316264153 0.8297647834
-0.082943186 -0.082183115 0.86800003 -0.3253713548 -0.9312047362 0.164289996
-0.12566152 0.043381911 0.86213344 -0.2842615247 -0.3163858056 0.9050388932
-0.23498414 0.015377807 0.83564162 -0.3014807105 0.4289053977 0.8515571356
-0.15536256 -0.024839005 0.85502225 0.354344219 0.1860725582 0.9164153934
-0.16473326 -0.024479439 0.85700017 0.2929944992 0.2358018905 0.9265806675
-0.015414845 -0.044180583 0.86347377 -0.6177426577 -0.5756754875 0.5357161164
-0.055958647 -0.0068330322 0.86655563 -0.3964550197 -0.568677783 0.7207142711
-0.094806775 -0.064183563 0.89560014 -0.323993057 -0.4632438719 0.8248839974
-0.25799644 0.025615457 0.83115387 0.2310487032 0.115736343 0.9660339355
-0.20471108 0.034537122 0.84429163 -0.4358530343 0.3428033292 0.8321766853
-0.14290677 -0.0077625643 0.84700006 0.2327116728 0.0596274659 0.9707161784
-0.18496969 0.045312814 0.84736753 -0.2095377296 0.101323463 0.9725366235
-0.063898429 -0.023455236 0.8514545 -0.2152867019 -0.4843666553 0.8479626179
-0.13485579 -0.014823367 0.84526098 -0.01265784632 0.03245953098 0.9993928671
-0.13458608 -0.024272228 0.84500027 0.09108202904 0.1055764183 0.9902310967
-0.043330126 -0.021712184 0.86150002 -0.4185742438 -0.5561922789 0.7179455161
-0.091099106 -0.036071036 0.90100002 -0.1867704242 -0.0007713473751 0.9824032784
