# .PCD v0.7 - Point Cloud Data file format
VERSION 0.7
FIELDS x y z normal_x normal_y normal_z
SIZE 4 4 4 4 4 4
TYPE F F F F F F
COUNT 1 1 1 1 1 1
WIDTH 206
HEIGHT 1
VIEWPOINT 0 0 0 1 0 0 0
POINTS 206
DATA ascii
-0.017521936 -0.058660399 0.86900002 -0.5601218343 -0.4561723471 0.6914986372
-0.23118512 0.022668721 0.83414298 0.04350348189 -0.1680541933 0.9848173857
-0.14429568 -0.063595794 0.86545461 0.3976590335 0.3721054196 0.8386923671
-0.12936005 0.040330172 0.86800003 -0.3515126407 -0.38301 0.8542494774
-0.073388979 -0.11071833 0.86900002 -0.4884597063 -0.8611863256 0.1405889243
-0.074974217 -0.015299745 0.86300015 -0.2780049443 -0.3259142935 0.9036000967
-0.0087079303 -0.12111939 0.90300006 0.1727488041 -0.8950631022 0.4111202657
-0.20448938 -0.034407247 0.86341947 -0.267678082 0.5076628923 0.8189181089
0.0078150444 -0.10829419 0.84900004 0.2007430792 -0.2076555789 0.9573825598
-0.17447709 0.014897426 0.84326661 -0.4032121301 0.3555890918 0.8431941271
-0.064653046 -0.068255186 0.90436369 -0.2258406281 -0.01535832882 0.9740431905
-0.1109939 0.0029928146 0.82442856 0.8097493052 0.251603812 0.5300958753
-0.09592022 -0.065355331 0.84522861 -0.1017327383 -3.239695434e-05 0.9948117733
-0.14569761 -0.018282881 0.86000007 0.09250235558 0.06270590425 0.9937360287
0.013393469 -0.084735692 0.88612002 -0.6499329209 -0.5107751489 0.5627574325
-0.032721758 -0.12357686 0.86800003 -0.2160252929 -0.9735693932 -0.07413336635
-0.051020246 -0.11129808 0.90466672 -0.4091956913 -0.4264415801 0.8066637516
-0.054637443 -0.054235142 0.85326684 -0.2147136182 -0.3787804246 0.9002352357
-0.11718724 -0.091143824 0.8736667 -0.5166989565 -0.8016073108 -0.3007455766
-0.036832646 -0.026032042 0.87534618 -0.5845780373 -0.4415654838 0.680652976
-0.1676313 0.046801854 0.86300004 -0.2351976335 -0.6432528496 0.7286342382
-0.11089921 -0.029027309 0.84900004 0.3580626547 0.07107289135 0.9309886098
-0.0287196 -0.078978896 0.91000003 -0.1832367778 0.0202288311 0.9828606844
-0.096662648 0.021735447 0.87214291 -0.3517602384 -0.2276552022 0.9079856277
-0.21893401 -0.011910217 0.83860004 -0.1281341463 0.547693193 0.8268094063
-0.090331733 -0.091117226 0.89600003 -0.5502242446 -0.5531222224 0.6255470514
-0.20430313 0.042145927 0.84338099 -0.1722875535 -0.4503742158 0.876059413
-0.17455024 -0.055100653 0.87613165 0.2624534965 0.4671875536 0.844306767
-0.14485058 0.015007637 0.85611904 -0.1867331564 0.2001484632 0.9618062973
0.0030986827 -0.055805467 0.89423805 -0.6407343745 -0.4823942184 0.5972899199
-0.17465305 -0.02518818 0.86389124 0.00885533262 0.2597309351 0.9656404257
-0.20199595 0.015100028 0.83100009 -0.2384533137 0.03607415408 0.9704837203
-0.0054190946 -0.08499305 0.86111379 -0.5159762502 -0.540289104 0.6647226214
-0.092518345 -0.092018053 0.85644448 0.2505128086 0.4404422343 0.8621217608
-0.11796243 0.0064275535 0.86019051 -0.3067082167 -0.0510363318 0.9504343271
-0.0075393333 -0.13043046 0.86000001 0.3928620219 -0.1085515022 0.9131681323
-0.01771909 -0.038469207 0.88744444 -0.6193624735 -0.541965425 0.5680348873
-0.024854446 -0.105028 0.91455138 -0.07614530623 -0.2443804443 0.9666851163
-0.19411172 -0.0061227074 0.84274352 -0.408189714 0.5319635272 0.741886735
-0.08477892 -0.045014739 0.85580981 -0.165434435 -0.1436276138 0.9757061601
-0.097648792 -0.0076007 0.85755551 -0.6103593707 -0.3119024634 0.7281333804
-0.11722988 -0.056262773 0.85299999 0.3185815513 0.182521075 0.9301568866
-0.16435747 0.00075393333 0.86000001 -0.1663185358 0.4142885804 0.8948201537
-0.15194036 -0.0413699 0.85800004 0.2681838572 0.1482624412 0.9518905878
-0.15518753 0.034458742 0.84772742 -0.2949388921 -0.4328762293 0.8518387079
-0.050259303 -0.086956568 0.91000003 -0.2579656839 -0.0006670749863 0.9661538601
-0.070299022 -0.10031433 0.90100002 -0.3527424634 -0.3785578012 0.8557258248
-0.034977492 -0.064030617 0.8570556 -0.4126205146 -0.4112866223 0.8127654195
-0.048253778 -0.10952576 0.87366676 -0.329007715 -0.9272292852 0.1788848191
-0.064209983 -0.033801347 0.86000007 -0.2295822203 -0.3223622143 0.9183542728
-0.05441168 -0.014089982 0.87144464 -0.3561871052 -0.3643952012 0.8604341149
-0.18549486 0.03238216 0.83748269 -0.2123558819 -0.305464834 0.9282220602
-0.12523282 -0.074834898 0.86302376 0.399143219 0.482920289 0.7794053555
-0.035147939 -0.044748474 0.86611784 -0.4878602028 -0.4608003497 0.7413875461
-0.12521283 -0.014864485 0.85764098 0.1089807823 -0.02824314497 0.9936425686
-0.0012863622 -0.070770964 0.88066673 -0.6347001195 -0.520614028 0.5710663795
-0.085255302 0.0051020244 0.86829996 -0.307382077 -0.3586606979 0.8814072609
-0.22271638 0.0052577201 0.82860023 0.01783128828 0.2818522155 0.9592921138
-0.11040214 -0.014623676 0.83400005 0.6893329024 -0.5051755905 -0.5192473531
-0.12535517 0.024772238 0.85624486 -0.3556624651 -0.1272353828 0.9259132743
-0.097089082 -0.00073552335 0.83900005 0.9061381817 -0.1840962321 -0.3808178306
-0.075289316 -0.061707128 0.85392857 0.01054258924 -0.2592530251 0.9657518864
-0.18213099 -0.0076502925 0.85743105 -0.372254163 0.499232024 0.7824284434
-0.20510504 -0.020308485 0.84900004 -0.2967343628 0.6104255319 0.7343904972
-0.082837105 -0.074485242 0.9011429 -0.2051932216 -0.1502869278 0.9671140313
-0.13395907 -0.035846051 0.85748571 0.1590048373 -0.06554958224 0.9850993156
-0.18390571 -0.041278522 0.86823076 -0.02019663714 0.3979665041 0.9171776175
0.0113353 -0.095972203 0.86200005 -0.670779705 -0.3564156294 0.6504018307
-0.10372357 -0.045051489 0.85366684 -0.09719343483 -0.08895426989 0.9912822843
-0.04722099 -0.068646282 0.90525001 -0.222085759 0.04197254032 0.9741232991
-0.095340498 -0.024773708 0.85636759 -0.2383687943 -0.1002637297 0.9659852386
-0.2147644 0.026932815 0.83170956 -0.05770710483 -0.2940329611 0.9540516138
-0.17642547 0.042848743 0.8475557 -0.2381043583 -0.4816004634 0.8434259295
-0.13918222 0.031260177 0.84900004 -0.2839135528 -0.3108565211 0.9070619345
-0.0085466234 -0.10629672 0.91400003 0.289249301 -0.0547866337 0.9556847215
-0.22083877 -0.023653636 0.852 -0.2508717179 0.5901818275 0.7672997117
-0.10632042 -0.075496152 0.85261899 0.3817686439 0.4053706825 0.8306186199
-0.14494845 0.043080438 0.86481816 -0.2582674325 -0.4665143788 0.8459682465
-0.024607858 -0.1214413 0.9054001 -0.2084073573 -0.8220337629 0.5299310088
-0.16074473 -0.051042162 0.86900002 0.349973917 0.4330481887 0.8306548595
-0.12015418 -0.029471779 0.86200005 0.2477843314 -0.1739367694 0.9530733824
-0.16990589 0.030156456 0.83900005 -0.3373557329 -0.176968798 0.9245935082
-0.064865917 -0.085248835 0.90492296 -0.2976647615 -0.1025292501 0.9491487741
-0.18726422 0.0073061977 0.83899999 -0.4202446938 0.3942814171 0.8172738552
-0.086702339 -0.070115797 0.85999995 -0.04822102562 0.04128412902 0.9979831576
-0.13476464 -0.054306913 0.8577221 0.3301186562 0.2053580433 0.921330452
-0.01844945 -0.089038648 0.91500002 -0.1164712384 -0.1112151816 0.9869476557
-0.072539784 -0.0027488759 0.87100017 -0.2658627629 -0.3804416656 0.8857658505
-0.23215677 -0.0043947296 0.83490908 0.01776567474 0.3808851242 0.9244517088
0.010910993 -0.069362745 0.88900006 -0.671023488 -0.4935905039 0.5532593727
-0.03524293 -0.094521664 0.91372246 -0.2240574658 -0.06504894048 0.9724026322
-0.023723768 -0.073131531 0.86000019 -0.4664096832 -0.4217049479 0.777577579
0.006891185 -0.082797512 0.8731668 -0.6182945371 -0.5250529647 0.5848343372
-0.084664896 -0.10313984 0.86407715 -0.5291541219 -0.8272445202 -0.1888448596
-0.011883049 -0.053826127 0.88138092 -0.6327803135 -0.4999907017 0.5912684202
-0.10568489 -0.08664877 0.86170018 0.3728823066 0.4784771502 0.7949958444
-0.060945865 -0.10723387 0.88000005 -0.3930598199 -0.8816472292 0.2611554563
-0.18879718 -0.02030886 0.85800004 -0.2929954231 0.4837449491 0.8247087002
-0.099085249 0.01084875 0.82500005 0.9111628532 0.4066393375 0.06653323025
-0.15656878 0.015967991 0.84804016 -0.3015805483 0.3515776396 0.8862518668
-0.0030352487 -0.11481383 0.85547829 0.3990398049 -0.227876097 0.8881664872
-0.16480321 -0.015120745 0.86233336 0.01038584672 0.174804613 0.9845483899
-0.014983987 -0.11880797 0.86320007 0.3996756673 -0.0517414026 0.9151951671
-0.13470341 -0.0051720487 0.85367411 -0.03503950685 0.1039201692 0.9939682484
-0.16470061 -0.034755155 0.86177796 0.2110969573 0.1984197795 0.9571142197
-0.028214641 -0.032133341 0.89400005 -0.6219411492 -0.5263525248 0.5797777772
-0.044722579 -0.034902535 0.86710811 -0.4292081296 -0.3901654482 0.8145865798
-0.028429423 -0.038803458 0.87650001 -0.5974773765 -0.5001941919 0.6267587543
-0.098809391 -0.01359184 0.84533334 0.6971161962 -0.4102647901 -0.5879725814
-0.10108931 0.0098809097 0.86700004 -0.2729226053 -0.2318679988 0.933675766
-0.0091418792 -0.069325924 0.86900002 -0.5432274342 -0.5182436109 0.660550952
-0.10476355 -0.055233426 0.84514999 0.03068507835 -0.03440067172 0.9989369512
-0.20574269 -0.0029380608 0.83720005 -0.2546290159 0.4826494157 0.8379818797
-0.15675138 -0.063376866 0.87100017 0.4069257975 0.3996260166 0.8214076161
-0.09425471 -0.054285664 0.85282946 -0.2198550701 -0.1419161558 0.9651547074
-0.11484952 -0.04502555 0.84682631 0.2132412046 -0.06582190096 0.9747797847
-0.12558118 -0.045208067 0.85423708 0.2814199924 -0.05950115994 0.9577381611
-0.0053636222 -0.046606224 0.89099985 -0.6150194407 -0.5382771492 0.576202035
-0.093219265 -0.08243911 0.8481251 0.1578556001 0.3879006803 0.908082962
-0.039004654 -0.10905383 0.90800005 -0.2275655419 -0.2978691757 0.9270856977
-0.05510376 -0.12015681 0.87300003 -0.3342002928 -0.927395463 0.1680709422
-0.11722358 -0.0058519356 0.86268437 0.044312682 -0.1450199187 0.9884359241
-0.19492491 0.025235644 0.83316338 -0.2047749013 -0.2609290779 0.9433892369
-0.078612201 -0.087159455 0.89800012 -0.2226720601 -0.1553706229 0.9624329209
-0.21486151 0.014924145 0.82762736 -0.03407191113 0.01746909879 0.9992666841
-0.074465819 -0.026959714 0.85799992 -0.223126322 -0.2889526188 0.9309785366
-0.11647522 0.032021832 0.86013323 -0.3985836804 -0.2808255851 0.8730796576
-0.055077545 -0.025073793 0.86690474 -0.354454875 -0.3439229131 0.869527936
-0.14470875 -0.0325482 0.86122221 0.1588227749 0.005722840317 0.9872905016
-0.085582249 -0.0055663753 0.86324996 -0.4012826681 -0.4275963902 0.8100206852
-0.065348864 -0.045065038 0.85680962 -0.1161442026 -0.3061587214 0.9448689818
-0.056326181 -0.10809334 0.89480001 -0.4782230556 -0.7774994969 0.4084081352
-0.12424894 -0.064246595 0.85761285 0.3615208864 0.342140615 0.8673191071
-0.003253544 -0.095351472 0.85646683 -0.3078651428 -0.3277220428 0.8932061791
-0.19641277 -0.040957864 0.86839998 -0.1915265322 0.4142643511 0.8897767663
-0.01579578 -0.081235439 0.85800004 -0.4879867435 -0.4831910729 0.7269080281
-0.21187139 -0.031339079 0.85519999 -0.2774188817 0.5690835714 0.774068892
-0.10580077 0.024028555 0.86566681 -0.3574361801 -0.1995173246 0.9123772383
-0.15502748 0.0054025054 0.85536194 -0.08715399355 0.3634948134 0.9275105
-0.042220265 -0.051267467 0.86000001 -0.3789680004 -0.4109611511 0.8291527033
-0.13273774 -0.024528565 0.85793531 0.07643695176 -0.01831351966 0.9969062209
-0.092620708 -0.079954632 0.90300006 -0.3183764815 -0.1913951933 0.9284418821
-0.088255785 -0.016046507 0.85799986 -0.5263600349 -0.2323664576 0.8178942204
-0.15476088 -0.02491172 0.86114299 0.1532521844 0.04579555988 0.9871253967
-0.17937389 -0.00074429001 0.84900004 -0.4287472963 0.5235977173 0.7362208366
-0.054315902 -0.044415124 0.85876656 -0.2662431896 -0.400123775 0.8769353032
-0.061740562 -0.061367545 0.84850007 -0.0417371951 -0.2686614096 0.9623300433
-0.064655334 -0.015120903 0.86718416 -0.3115821183 -0.3514584601 0.8828326464
-0.16538122 0.0092291962 0.8490001 -0.3151749671 0.48644346 0.8148849607
-0.11426298 -0.016616341 0.85799986 0.4181038141 -0.1121447161 0.9014503956
-0.16597667 0.040935948 0.84900004 -0.315775156 -0.4723082781 0.8229282498
-0.10370879 -0.021330176 0.83900005 0.7506386042 -0.4362896383 -0.4961784184
-0.13509217 0.0052540717 0.85609543 -0.1693242043 0.1466290504 0.9745918512
-0.14502774 -0.0051561431 0.85600019 0.03946364671 0.2025029808 0.9784861803
-0.15582538 0.041863244 0.85524994 -0.2930133343 -0.5412778854 0.7881379724
-0.15688667 -0.0085674245 0.86000001 0.069794029 0.2214244455 0.9726766944
-0.095206134 -0.03523542 0.85514307 -0.288565129 0.01504726987 0.9573420286
-0.055491816 -0.095497936 0.90675694 -0.3465434909 -0.1171290427 0.9306924343
-0.041327819 -0.12015681 0.87300003 -0.268494457 -0.9547628164 0.1278228015
-0.0449504 -0.062022515 0.85466665 -0.337439537 -0.367865473 0.8664926887
0.011462416 -0.092463493 0.87166673 -0.6272025108 -0.5119561553 0.586956501
-0.088717788 -0.07260076 0.84411108 -0.0846087113 0.1288966238 0.988041997
-0.11903248 0.016359914 0.85799992 -0.3566126525 0.01001385506 0.9341986775
-0.12342589 -0.083610721 0.86788893 0.4213584065 0.4982334673 0.7577733994
-0.045772959 -0.018773377 0.87400007 -0.5250878334 -0.410387516 0.7455634475
-0.19454829 0.043351516 0.84573346 -0.1654854119 -0.4702442884 0.8668822646
-0.13504457 -0.065177426 0.86172742 0.3455054462 0.3793919981 0.8583051562
-0.17477547 -0.015137906 0.86454302 -0.09556049854 0.2575010955 0.9615411758
-0.075627558 -0.068418972 0.90463638 -0.1936334968 -0.08917687088 0.9770125747
-0.20516787 0.034651104 0.83677149 -0.1432194412 -0.3966661692 0.9067216516
-0.21347876 0.002768426 0.83110011 -0.08085326105 0.3081282675 0.9479027987
-0.14510201 0.0052628266 0.85759211 -0.02731366642 0.2373357415 0.9710436463
-0.018451203 -0.047922689 0.87700003 -0.6101924181 -0.5042664409 0.6110486984
-0.023592465 -0.11896113 0.86800003 0.3493268192 0.006079789717 0.9369812012
-0.0031317775 -0.10461885 0.85311103 0.1199365109 -0.1306615472 0.9841457009
-0.10514809 -0.0055668331 0.83606666 0.7146520615 -0.540767312 -0.4436700642
-0.084926821 -0.035321787 0.85730642 -0.2206021994 -0.1238840222 0.967464447
-0.16454871 -0.024906646 0.86100006 0.1040970162 0.1335272491 0.9855629206
-0.044974551 -0.094812661 0.91238451 -0.2920097709 -0.06639821827 0.9541077614
-0.13507682 0.015008531 0.85600042 -0.2622258961 0.1054572612 0.9592269659
-0.084601842 -0.05465252 0.85402048 -0.1024627537 -0.20507586 0.9733679891
-0.075057022 -0.045034125 0.85616708 0.001154749189 -0.2351839989 0.9719501734
-0.054809529 -0.074668519 0.90609503 -0.2291942984 0.0008316869498 0.9733803272
-0.062441509 -0.11376406 0.87300009 -0.3781576455 -0.9084473252 0.1781018823
-0.16843688 -0.061460178 0.88000005 0.323277235 0.4729485512 0.8196410537
-0.23333503 0.0049417028 0.83315402 0.06749014556 0.2592763603 0.9634422064
-0.20423876 0.026151454 0.8313902 -0.1947789788 -0.2991796732 0.9341052771
-0.21256624 0.040453784 0.83900005 -0.06462160498 -0.4245317578 0.9031040072
-0.13466038 -0.015103116 0.85663164 0.0007357890136 0.05996020883 0.9982004762
0.0039478345 -0.086171746 0.8648333 -0.6009856462 -0.5483991504 0.5814418197
-0.14363873 0.038168177 0.85363156 -0.3021129668 -0.3256645203 0.8959187269
-0.17475492 -0.034532238 0.86461133 0.1613327265 0.3323102593 0.929269433
-0.13513021 -0.045043327 0.85633367 0.2122006565 -0.004670663271 0.9772149324
-0.055112358 -0.035448246 0.86122227 -0.303301692 -0.3562207222 0.8838070631
-0.19458085 0.034200873 0.83570272 -0.1463652104 -0.4234816432 0.8940024972
-0.19454437 -0.02605064 0.86255574 -0.2704502046 0.4504407644 0.8508582711
-0.025802802 -0.05580657 0.86585295 -0.4991532862 -0.4302151501 0.7521708012
-0.11089921 -0.061776072 0.84900004 0.2878982425 0.1530588418 0.9453505278
-0.015448035 -0.11200353 0.91149998 -0.07614530623 -0.2443804443 0.9666851163
-0.12564352 0.035576422 0.86093324 -0.3504717648 -0.3003043532 0.8871228099
-0.1344396 0.02440762 0.85307693 -0.3133171797 -0.08556845784 0.9457855821
-0.087537251 0.013347114 0.87176937 -0.3168122172 -0.3561029434 0.8791022301
-0.12494953 -0.035349503 0.85554564 0.2528754175 -0.1598361284 0.9542046189
-0.14671543 -0.048704088 0.86000001 0.3301610947 0.1573554724 0.9307163358
0.014867098 -0.093818061 0.8864001 -0.9573411942 -0.1070422977 0.2684023678
-0.06475547 -0.024899982 0.86214644 -0.2792923748 -0.3218325078 0.9046654701
