# .PCD v0.7 - Point Cloud Data file format
VERSION 0.7
FIELDS x y z normal_x normal_y normal_z
SIZE 4 4 4 4 4 4
TYPE F F F F F F
COUNT 1 1 1 1 1 1
WIDTH 206
HEIGHT 1
VIEWPOINT 0 0 0 1 0 0 0
POINTS 206
DATA ascii
-0.08950942 -0.056413498 0.85800004 -0.3370714188 -0.487302959 0.8055548668
-0.30103901 0.0029285052 0.8355 0.1336927861 0.1640070528 0.977357626
-0.181765 0.03635405 0.87300003 -0.30600968 -0.3463746011 0.8867822289
-0.20234782 -0.071012631 0.87100005 0.3622037768 0.4299280047 0.8270249963
-0.067166105 -0.10327835 0.91257149 -0.1488690525 -0.7125354409 0.6856611967
-0.13625373 -0.092810512 0.90100002 -0.4549840987 -0.6242907643 0.6350200772
-0.23491092 -0.0052252491 0.85568017 -0.4096265435 0.4000540376 0.819855392
-0.15544066 -0.024703002 0.85708356 -0.3282830715 -0.1034873202 0.9388932586
-0.048054479 -0.10224545 0.8538 0.2007560879 -0.0504225269 0.9783427715
-0.047370449 -0.046706222 0.89663154 -0.5978512764 -0.5885263681 0.5442522764
-0.10508713 -0.011202705 0.88141674 -0.5244224072 -0.5133829713 0.6792783737
-0.25332424 -0.052042436 0.87300009 -0.1944417059 0.4035106003 0.8940758705
-0.14439783 -0.07647147 0.85191298 0.1525608897 0.4367032051 0.8865751624
-0.17188978 0.012779462 0.82499999 -0.9013724923 -0.3005719185 -0.3117436469
-0.26193836 0.03615636 0.8416667 -0.1609899849 -0.5833539963 0.7961032391
-0.098923072 -0.059832498 0.91000003 -0.2458110899 0.02080725506 0.9690943956
-0.092978828 -0.11064804 0.87650001 0.2093120515 0.9722378254 -0.1046042517
-0.22424947 0.044146106 0.8632223 -0.2606219649 -0.5720300078 0.7777261138
-0.1460176 0.013515374 0.87255567 -0.3024054468 -0.383436352 0.8726554513
-0.19429736 -0.0045918049 0.85899991 0.02301115729 0.0712197572 0.9971951842
-0.27484569 -0.025351107 0.84458965 -0.2649183869 0.5502752662 0.7918430567
-0.21477513 -0.035095226 0.86247385 0.1772056967 0.1712260693 0.9691644907
-0.12535484 -0.045037907 0.85623842 -0.1385139227 -0.2511639297 0.9579825401
-0.056127608 -0.067271501 0.86655557 -0.5036255717 -0.5898057222 0.6312610507
-0.12572275 -0.1020087 0.86706668 0.3043732345 0.9524595737 -0.01332887076
-0.17605755 -0.055833884 0.85503238 0.3553203046 0.2779132128 0.8924750686
-0.077661753 -0.026549371 0.8931818 -0.544385612 -0.6389996409 0.5434370041
-0.26783457 0.0060541355 0.82880986 -0.2349075675 0.09626877308 0.9672387242
-0.10004959 -0.10004959 0.91300005 -0.3529504836 -0.3588965237 0.8640713096
-0.1702776 -0.083993435 0.87100005 0.3513800502 0.6141732931 0.7066280842
-0.12975018 -0.059700999 0.90800005 -0.2947606742 -0.09956773371 0.9503695965
-0.23263252 0.024420392 0.84195632 -0.3754943609 -0.1827756912 0.9086236954
-0.078008108 -0.077569611 0.92081815 -0.1486907899 -0.1093580052 0.9828183055
-0.20509166 0.024903143 0.8550756 -0.3071824312 -0.1293519437 0.9428186417
-0.17201184 -0.013635576 0.83811116 -0.9854801297 0.1446849555 -0.08885463327
-0.22603798 -0.062630825 0.88200003 0.1876255572 0.4655371606 0.864911437
-0.18277974 -0.02933502 0.85800004 0.3633670211 -0.09899219871 0.926371932
-0.25230914 -0.027469149 0.86137515 -0.4016985297 0.4390628636 0.8036554456
-0.12556966 -0.015270107 0.86482871 -0.3384803534 -0.3381600678 0.8781109452
-0.068340115 -0.10346463 0.87100005 0.4301154017 0.01953934319 0.9025624394
-0.092572898 -0.032793935 0.87273347 -0.4415480196 -0.5479554534 0.7104788423
-0.1522 -0.050649565 0.85383338 -0.1508754343 -0.128846705 0.9801199436
-0.067886733 -0.048587602 0.87666678 -0.5473958254 -0.5982952118 0.5851501226
-0.1605878 -0.0015078667 0.86000001 -0.6286547184 -0.2938057184 0.7200496197
-0.2830781 0.023482915 0.8318001 0.06841575354 -0.174334079 0.9823069572
-0.038763572 -0.082847625 0.86700004 -0.6571489573 -0.3870977163 0.6467693448
-0.24628529 0.0061424635 0.83861309 -0.4590239823 0.3433085382 0.8194121122
-0.28270835 -0.01090135 0.82900006 0.009175827727 0.3760829866 0.9265405536
-0.11860599 -0.07880532 0.90800005 -0.3310661316 -0.1740376949 0.9274190664
-0.1835075 0.014512339 0.86058819 -0.2580545545 -0.1151493713 0.9592437148
-0.19727923 -0.048167959 0.86000007 0.2905671299 0.1538751125 0.9444009662
-0.11590704 -0.095803298 0.89333344 0.3154862225 0.9062447548 -0.2814052701
-0.24487515 0.041812867 0.8538571 -0.2260604799 -0.6140976548 0.7561618686
-0.21549913 0.0027896406 0.86009997 -0.1600513607 0.2659350634 0.9506114125
-0.1653198 0.024060199 0.86765718 -0.28876248 -0.3378564715 0.8958064914
-0.26025867 -0.0095845964 0.84100002 -0.4465191662 0.4824205637 0.7535854578
-0.14480287 -0.093935244 0.86439151 0.2324007303 0.7064070106 0.6685649157
-0.23496023 -0.044483449 0.86652505 0.03476959094 0.4178984761 0.9078281522
-0.047049191 -0.064655483 0.88627785 -0.5953145027 -0.6111148596 0.5216697454
-0.26551953 -0.0451308 0.85800004 -0.3371127248 0.4754115939 0.8126123548
-0.15998903 0.0036863834 0.84100002 -0.9033787251 -0.03912549466 0.4270551503
-0.1437742 -0.075106911 0.89692611 -0.5356937647 -0.2881791592 0.7937158942
-0.10390028 -0.043670576 0.86055589 -0.2753733397 -0.4388672113 0.8553158045
-0.21383099 -0.053688902 0.86740005 0.2782669365 0.4125195444 0.8674071431
-0.19844928 0.040144321 0.86400002 -0.2947585583 -0.3728065491 0.8798481226
-0.16339622 -0.072935835 0.85769218 0.3360570371 0.5409759283 0.7709803581
-0.054805465 -0.084922224 0.85791332 -0.2252441198 -0.2172022313 0.9497832656
-0.10646883 -0.098043181 0.87483341 0.2404111773 0.9489471912 -0.2042100579
-0.16723177 -0.035543572 0.84820002 0.1334396899 -0.02633954771 0.990706861
-0.21488376 -0.014953835 0.86445475 -0.0244469028 0.1306674927 0.9911248088
-0.1262926 0.0017822633 0.87133354 -0.3773317039 -0.3801387846 0.8444615602
-0.07426393 -0.064458087 0.86268586 -0.4293931723 -0.5282227397 0.7325314283
-0.23498318 -0.024610372 0.86271793 -0.2270451933 0.2721592188 0.9350827932
-0.09479925 -0.075521976 0.91644448 -0.3138074577 -0.004996791948 0.9494735003
-0.22657362 0.0086078653 0.84857142 -0.4260813296 0.4012700915 0.8108248711
-0.18345186 -0.07434047 0.86640018 0.3258230984 0.5205792189 0.7891999483
-0.1447079 -0.0054973662 0.86423898 -0.2945729494 -0.3303644359 0.8967084885
-0.092481315 -0.01880976 0.89400005 -0.5361340642 -0.5966960192 0.5970880389
-0.29053172 -0.021330176 0.83900005 0.04328615591 0.5298255086 0.8470013142
-0.28521934 0.004952251 0.82784438 0.1139722243 0.0670176819 0.9912209511
-0.15444359 -0.064485811 0.84597301 0.05024679378 0.1646214128 0.985076189
-0.085271455 -0.094909817 0.91640013 -0.2029280216 -0.2975636423 0.9328858852
-0.17909774 -0.01435454 0.86199999 0.260538429 -0.1064686254 0.9595749974
-0.057747517 -0.11276495 0.86061537 0.3903416097 0.004471172579 0.9206592441
-0.21641676 0.033577796 0.84833348 -0.3611615002 -0.3805349171 0.8513257504
-0.24107893 -0.061991733 0.87299997 0.003726574592 0.5039459467 0.8637271523
-0.26744646 0.021802699 0.82900006 -0.1844007224 -0.1630364507 0.9692344666
-0.065300427 -0.036137555 0.89471817 -0.5457718968 -0.6334193945 0.5485553145
-0.10638899 -0.027368652 0.86847377 -0.4044316709 -0.4551835954 0.7932482958
-0.11428477 -0.064249642 0.90800005 -0.262033999 -0.06393393129 0.9629385471
-0.13163677 -0.031815983 0.86000001 -0.1718199253 -0.2506086528 0.952718854
-0.25631067 -0.023190947 0.84762079 -0.4531632364 0.5118112564 0.7298577428
-0.078180887 -0.037935872 0.87800014 -0.5140889287 -0.6333708167 0.5784063935
-0.068406299 -0.088525802 0.91800004 -0.1859368086 -0.2311562151 0.9549839497
-0.24513267 0.030818811 0.83853847 -0.2613024414 -0.439186275 0.8595559597
-0.30082905 -0.01103285 0.83900005 0.0565966703 0.389102906 0.9194540381
-0.20456345 -0.024883203 0.86369765 0.08925715089 -0.004781948403 0.9959971309
-0.16440056 -0.05443503 0.84680635 0.1444859058 0.04460577667 0.9885009527
-0.15601783 -0.085412756 0.86290497 0.3138885796 0.5997177958 0.7360791564
-0.14498553 -0.035305411 0.85689801 -0.2078289986 -0.2302961648 0.9506685734
-0.10785981 -0.089551494 0.90800005 -0.4055055976 -0.3037741482 0.8621406555
-0.19074513 0.0294034 0.86000001 -0.2662942111 -0.2139526457 0.9398466349
-0.25464332 0.015240115 0.83267999 -0.3038684726 -0.07674516737 0.9496178627
-0.059096098 -0.048989013 0.88700008 -0.5910560489 -0.594163239 0.545548141
-0.085888162 -0.045807503 0.86559379 -0.3881684542 -0.5458456874 0.7425481081
-0.11508682 -0.03515986 0.86170024 -0.2667253017 -0.3862639964 0.8829823136
-0.135346 -0.054097887 0.85638916 -0.1333150119 -0.2027694881 0.9701091051
-0.11652429 -0.0067749168 0.87495834 -0.3997373283 -0.3592585623 0.8432931304
-0.19752248 0.0084244153 0.85799992 -0.09978505224 0.06058940664 0.9931625724
-0.038403261 -0.057996757 0.89400005 -0.6027436256 -0.6030769348 0.5224924088
-0.058611654 -0.057995878 0.87740004 -0.5765969157 -0.5848796368 0.5704838634
-0.18489999 -0.045179445 0.85685724 0.3175943196 0.03396765143 0.9476180673
-0.1960395 -0.034495361 0.86131257 0.2211160958 -0.0344084017 0.9746403098
-0.21503063 0.014846696 0.85555011 -0.3063271046 0.2703896165 0.9127174616
-0.039255381 -0.076201618 0.87800002 -0.5489148498 -0.5907828808 0.5913273692
-0.27401882 0.031018723 0.83671427 -0.1340907067 -0.3483503759 0.9277239442
-0.27184302 -0.035116367 0.85218745 -0.3724097908 0.5150547028 0.7720295191
-0.24933715 -0.01265293 0.84900004 -0.4929403663 0.4881395996 0.7202287912
-0.066442557 -0.073212184 0.85799998 -0.4441527724 -0.5043250918 0.7405298948
-0.14098553 -0.023371933 0.86000001 -0.2420699298 -0.2170737684 0.9456644058
-0.14337826 -0.063474126 0.8539474 -0.1696531028 0.1580667347 0.9727449417
-0.20362587 -0.012679605 0.85799986 0.05402622744 0.09858021885 0.9936614633
-0.18713871 -0.056647569 0.86040002 0.361177206 0.3071764112 0.8804508448
-0.086859435 -0.026846686 0.88520008 -0.5306307077 -0.6149346232 0.583340764
-0.16166961 -0.091945678 0.87400007 0.4325869381 0.8618296981 0.264798224
-0.11517767 -0.051441818 0.85662496 -0.1469971985 -0.2888296545 0.946028173
-0.1426775 -0.098953746 0.87500006 0.330305934 0.9342471957 -0.1344624311
-0.066815034 -0.056871761 0.86806667 -0.4937464595 -0.5598762035 0.6653969288
-0.076612197 -0.11173671 0.87100011 0.2221661508 0.6747456193 0.7038185596
-0.16173381 -0.014995285 0.85544443 -0.5460205674 0.07720312476 0.8342069387
-0.090826169 -0.099293016 0.87800002 0.2178199291 0.9647544026 -0.1476596296
-0.27261338 -0.0057771644 0.83146149 -0.2079614252 0.3421458006 0.9163450599
-0.22548142 -0.048249975 0.87187517 0.1717374176 0.456053704 0.8732246757
-0.13675463 -0.088137031 0.85869229 0.1692834496 0.6482620835 0.7423606515
-0.12296171 -0.093505055 0.90199995 -0.3298220932 -0.3838181794 0.8624969721
-0.095733099 -0.017604781 0.88249999 -0.5245701671 -0.5889595151 0.6147786379
-0.24333745 -0.0166145 0.85782576 -0.3970668018 0.429546237 0.8110659719
-0.04850224 -0.068440706 0.87475002 -0.566637814 -0.6038026214 0.5606638789
-0.17031091 -0.00073727668 0.84100002 -0.8657158017 0.4469742775 0.2252779454
-0.16680212 -0.024487091 0.84630436 -0.04429503903 0.2673904896 0.9625695944
-0.102661 -0.10076459 0.9022001 0.3283130229 0.8815205693 -0.3393111825
-0.17264226 -0.045231055 0.84778583 0.241159752 0.06740238518 0.968141973
-0.15595911 0.014399119 0.86781478 -0.377507031 -0.4839021266 0.7895107269
-0.23435386 0.041661344 0.8571111 -0.2830311954 -0.5825033784 0.7619600892
-0.25609401 -0.044081531 0.86594117 -0.3211184144 0.429977864 0.8438020945
-0.29225391 0.012748924 0.83100003 0.1625095904 -0.03910725191 0.9859316945
-0.24465315 -0.034842245 0.86400002 -0.2063394487 0.4103666246 0.8882698417
-0.22515392 -0.0057841642 0.86047626 -0.1983008385 0.2742536366 0.9409897327
-0.17777748 -0.06770321 0.86000001 0.3672132194 0.4709834456 0.802077949
-0.087332301 -0.067745119 0.9156 -0.2522529364 0.01469712518 0.9675497413
-0.16201101 -0.043766506 0.85284615 -0.07735404372 -0.1083460003 0.9910991192
-0.22450148 0.039120372 0.85266668 -0.3026861548 -0.5000525713 0.8113744259
-0.19464219 -0.06505464 0.86655277 0.3053119779 0.3699432313 0.8774546385
-0.055446975 -0.098445728 0.86049998 0.2007560879 -0.0504225269 0.9783427715
-0.10489086 -0.075267941 0.91335726 -0.2799552977 -0.04794329777 0.9588151574
-0.25365102 0.041483168 0.84800005 -0.1862177104 -0.6023288369 0.7762234807
-0.20622267 -0.039113361 0.85799986 0.1833978891 0.1389549226 0.9731684327
-0.1642022 0.012580823 0.83200008 -0.8777042031 -0.4519647956 0.1592581272
-0.13636637 0.0026663814 0.86900014 -0.3115069568 -0.3592105806 0.8797335625
-0.17515825 0.024839191 0.86445445 -0.2704081833 -0.2206192613 0.9371267557
-0.21259612 0.037939623 0.85693479 -0.2936175168 -0.3695685565 0.8815939426
-0.29869699 -0.0094478363 0.82900006 0.05879842117 0.3082752228 0.9494783282
-0.046852618 -0.076466858 0.86625016 -0.5390104651 -0.4986406863 0.6788410544
-0.14262918 -0.084516786 0.90100002 -0.4961034358 -0.37087363 0.7850695252
-0.15525874 -0.035543017 0.85777801 -0.2550193369 -0.1839226782 0.9492826462
-0.21461147 -0.024965545 0.86682945 0.09241764992 0.1059240848 0.9900702238
-0.24596265 -0.0038233737 0.84510535 -0.5023103952 0.4585739672 0.7330717444
-0.2248662 -0.025168967 0.86184317 -0.02197221294 0.1799253821 0.9834348559
-0.2750881 0.015158881 0.82820803 -0.09020222723 -0.09010431916 0.9918391109
-0.14217779 -0.0659547 0.90100002 -0.3131626844 -0.1543427557 0.9370738864
-0.27537903 -0.014877389 0.83483005 -0.2173008472 0.4920633435 0.843002975
-0.23461169 -0.034814727 0.86327785 -0.0739042908 0.3631908596 0.9287790656
-0.2384567 0.016769934 0.83900011 -0.4116514325 0.146939382 0.8994175196
-0.23611726 0.0061820052 0.84664124 -0.4808959365 0.4154771566 0.7720866799
-0.25499913 0.02496165 0.83509088 -0.2457408905 -0.3108032644 0.9181572795
-0.23539044 0.033545651 0.84500009 -0.2547738552 -0.5027900338 0.8260099888
-0.20527561 0.01503767 0.85771441 -0.2174558789 0.1593112797 0.9629812241
-0.21461642 -0.062301349 0.87229425 0.2752216756 0.418613404 0.8654569983
-0.20582379 0.00075393333 0.86000001 -0.04080997035 0.185804531 0.9817388654
-0.15516949 0.0051060263 0.8647728 -0.5029517412 -0.4378792346 0.7451854348
-0.18680269 0.0053860075 0.86106688 0.04712533206 -0.08276798576 0.9954540133
-0.14738768 -0.016350018 0.85799992 -0.3208616376 -0.2275993228 0.919372797
-0.12506126 -0.02515186 0.86251104 -0.2764155269 -0.3396450281 0.8990193009
-0.13510475 -0.075057589 0.90124542 -0.3302869499 -0.1721629202 0.9280465841
-0.13518298 -0.015317212 0.86369234 -0.3016739786 -0.2859442234 0.9095211625
-0.14582455 0.0041969712 0.86767757 -0.2905378044 -0.3672275543 0.8835902214
-0.23481643 -0.055194914 0.8758294 0.09183523059 0.4830812216 0.8707461357
-0.22460917 -0.034790888 0.86266661 0.08247149736 0.2611716092 0.9617629051
-0.19495712 -0.024938615 0.86195236 0.1540901512 -0.05604121834 0.986466229
-0.11695161 -0.017009381 0.86877799 -0.3662706912 -0.3831598163 0.8479589224
-0.094695143 -0.08506567 0.91541702 -0.3132789731 -0.1688618958 0.9345276356
-0.21503532 -0.045072835 0.86339408 0.2368367463 0.3350051939 0.9119648337
-0.14852415 -0.05704622 0.84518188 -0.1591535509 -0.08853974938 0.9832755923
-0.14486454 -0.045035031 0.85619074 -0.1997589469 -0.2423434108 0.949402988
-0.19490735 -0.015662674 0.86011457 0.1211287528 0.02990580536 0.9921861887
-0.13551489 -0.095423751 0.86502939 0.2505910993 0.8953353167 0.3682102263
-0.25849763 -0.03319104 0.85716659 -0.3881829083 0.4779717028 0.7879448533
-0.17810805 -0.033829615 0.85124993 0.4071299732 -0.07933563739 0.9099181294
-0.22502002 -0.015030474 0.86178738 -0.1354027092 0.199937135 0.970407784
-0.26484537 -0.029095691 0.85100001 -0.4144264758 0.5022206903 0.7589631677
-0.2841357 -0.026224526 0.84363627 -0.02590664104 0.6220219135 0.782571137
-0.11441123 -0.10238343 0.87272733 0.253554523 0.9553821087 -0.1515096128
-0.25488943 0.0051253056 0.83550018 -0.3904036283 0.2717705965 0.879616797
-0.12474837 -0.084844753 0.90453488 -0.2904753983 -0.3044905066 0.9071436524
-0.09487953 -0.044685002 0.86200011 -0.3427570164 -0.4911333323 0.8008156419
-0.21512759 0.042149343 0.86469996 -0.2362636775 -0.4174019098 0.8774708509
