# .PCD v0.7 - Point Cloud Data file format
VERSION 0.7
FIELDS x y z normal_x normal_y normal_z
SIZE 4 4 4 4 4 4
TYPE F F F F F F
COUNT 1 1 1 1 1 1
WIDTH 206
HEIGHT 1
VIEWPOINT 0 0 0 1 0 0 0
POINTS 206
DATA ascii
-0.12180194 -0.028058225 0.72741681 0.2143862993 -0.2722340226 0.9380443096
-0.18056644 -0.17052336 0.71600002 0.02151497267 0.2743121982 0.9613999724
0.012238267 0.020193139 0.69800001 -0.754570961 -0.6063261628 0.2509805858
-0.098198436 -0.13159993 0.76200008 -0.4742523432 0.4824019372 0.7364598513
-0.028056504 -0.044145029 0.75507683 0.5166503191 -0.6468558908 0.5609366298
-0.18368685 -0.085256137 0.72528577 0.09172783047 -0.1358887106 0.9864685535
-0.053744491 0.032839809 0.74178582 0.3802081645 -0.739741683 0.5551792383
-0.076476716 -0.080510087 0.71860009 -0.09255368263 0.6309908628 0.7702495456
0.0023905449 0.010621193 0.764 0.1411121041 0.435541302 0.8890394568
-0.060205959 -0.022344479 0.708 0.184017539 -0.02294824831 0.9826550484
-0.14386128 -0.13426904 0.73268634 -0.5091834068 -0.1078488454 0.8538740277
-0.12790193 -0.082921393 0.73000002 -0.02196214721 0.04399499297 0.9987903237
-0.1430798 -0.05555651 0.68800008 -0.03105275519 -0.9831448197 0.180172056
0.0015101595 -0.02343991 0.72261548 0.8213060498 -0.5539089441 0.1365330666
-0.20305058 -0.12531975 0.72636676 0.5872644782 -0.2213094831 0.7785515785
-0.03041332 0.01675836 0.708 0.3693012595 -0.5960884094 0.7129482031
-0.052414261 -0.006294352 0.76099992 -0.1072228104 -0.03404078633 0.9936521053
-0.1628432 -0.047521416 0.73131251 -0.01704541035 -0.05818685889 0.9981601834
-0.091583617 0.00191464 0.72800004 0.3154085279 -0.5041666031 0.8039487004
-0.006049478 0.04101222 0.73618186 0.09694407135 -0.8316382766 0.5467903018
-0.039080046 -0.061771687 0.71900004 -0.1277367771 -0.1496854126 0.98044765
-0.10944658 -0.058550809 0.708 -0.5120772719 -0.4893630147 0.7059041858
-0.06320256 -0.043884534 0.76174986 0.1007715017 -0.02826012112 0.9945081472
-0.095045649 -0.10509662 0.73459274 -0.08824312687 0.4928837419 0.865608871
-0.16715524 -0.11623428 0.7178787 -0.3677828312 -0.1905430555 0.9101808071
-0.11945694 -0.15177847 0.74733335 -0.5646953583 0.2187950611 0.7957687378
-0.059964001 0.0094680004 0.72000003 0.4133343101 -0.5254938006 0.7436470985
-0.090136237 -0.028364548 0.71900004 0.2815251052 -0.1833313406 0.9418774843
-0.014748424 -0.014740451 0.76464057 0.003318926319 -0.1370011121 0.9905653596
-0.048879426 -0.082545623 0.7385 0.8497870564 -0.5218693614 0.07425866276
-0.14869434 -0.16330406 0.72700012 -0.5403778553 0.1238057241 0.8322643638
-0.022317596 -0.038895361 0.72733337 0.7001001239 -0.6715495586 0.2426539958
-0.066142879 -0.054533597 0.71393198 -0.2915059626 -0.3040841818 0.9069493413
-0.1172438 -0.1250176 0.73888588 -0.2911326587 0.3666590154 0.8836305737
-0.14520817 -0.10476653 0.73229611 -0.2412331998 0.1273931861 0.9620693922
-0.15676211 -0.074457958 0.72754371 -0.1389709562 -0.06190432236 0.9883596897
-0.16486664 -0.1449195 0.71492964 -0.4077143967 -0.04430199414 0.9120341539
-0.20107314 -0.15064728 0.71900004 0.4060444832 -0.04446325079 0.9127709866
-0.067870371 -0.10019132 0.73733336 -0.274998039 0.6110615134 0.7422801852
-0.023273895 0.010966077 0.7658332 -0.1087828428 0.1413535476 0.9839641452
-0.0068871905 0.028988153 0.71366674 0.1262618899 -0.8324792981 0.539477706
0.015800582 -0.0026552132 0.70740008 0.577903688 0.3168277442 0.7520954013
-0.033000469 0.031883601 0.72737503 0.2602624297 -0.766366601 0.587320745
-0.07665398 0.015590641 0.74100006 0.3771993816 -0.6349695921 0.6741915345
-0.1039116 -0.085151874 0.72629261 0.2452787161 0.2506794631 0.9364817739
-0.048608534 -0.060792796 0.75540006 -0.5792523026 -0.4690296054 0.6666918397
-0.088157602 -0.0584912 0.72000003 0.2423557937 -0.1019655541 0.9648143053
-0.18509217 -0.13506657 0.71328157 0.2586415112 -0.1399567872 0.9557806849
-0.12407551 -0.10198877 0.74100006 -0.009384118952 0.3080006838 0.9513398409
-0.14147063 -0.038505536 0.72799999 0.3521450758 -0.4348970056 0.828769207
-0.074154072 -0.0073242681 0.71767843 0.3453560174 -0.3764720857 0.8596498966
-0.19294855 -0.10530887 0.7260645 0.4166309237 -0.2576535344 0.8717988729
-0.034733567 -0.024712797 0.76192862 -0.02633212693 -0.139335379 0.9898951054
-0.1644872 -0.095210344 0.72465616 -0.3081567287 -0.1168804616 0.9441283941
-0.1076686 -0.011598981 0.73055559 0.2616702318 -0.3135962784 0.9127902389
-0.057486534 -0.072930068 0.7159 -0.3604746461 0.5080433488 0.7822723389
-0.12210476 -0.050401028 0.72166675 0.2940541506 -0.1929518431 0.9361099005
-0.020300969 0.050424989 0.74700004 0.1562784463 -0.7695636749 0.6191517115
-0.12476246 -0.060736526 0.69560003 -0.5444257855 -0.6787365675 0.4928663075
-0.17410345 -0.065693475 0.72720927 -0.1327968985 -0.126417309 0.983048141
-0.053973522 -0.025693156 0.7609998 0.001849124325 -0.01192368753 0.9999272227
-0.094731934 -0.12186816 0.74587518 -0.3468727469 0.5836461186 0.7341910601
-0.11567752 -0.069173701 0.72754556 0.3504159153 0.3269256055 0.8776835203
-0.094452709 -0.074037358 0.71274 0.2903476655 0.3523674905 0.8896827102
-0.034815196 -0.0046873167 0.76385725 -0.09633419663 -0.1030778214 0.9899973273
-0.0074321851 0.017523592 0.70000005 0.2120399773 -0.3189923465 0.9237331152
-0.10533693 -0.044592824 0.72084302 0.04593428969 -0.2998589575 0.9528770447
-0.045067862 0.0052795783 0.71133322 0.3742167652 -0.4425466359 0.8149320483
-0.13565499 -0.15409297 0.73464441 -0.5758491158 0.03446957842 0.8168290257
-0.060796835 -0.059516899 0.73000002 -0.2655831575 0.08958045393 0.9599171281
-0.11281737 -0.10313922 0.72762066 0.05898027122 0.2976648211 0.9528467655
-0.075024419 -0.035009146 0.71312535 0.228540808 0.005717813037 0.9735175371
-0.14064334 -0.068934344 0.73033333 -0.009312931448 0.01181461103 0.9998868108
0.0038240198 0.029954823 0.72700006 0.0150835067 -0.8596903682 0.5105927587
-0.087070532 -0.091446854 0.7280001 -0.03077024035 0.5593894124 0.8283336759
-0.13341099 -0.04769424 0.70230776 -0.3163338006 -0.8289812803 0.4612190425
-0.046477649 -0.040918123 0.7610001 0.08031923324 -0.07002454996 0.9943065047
-0.18485701 -0.1152271 0.71509391 0.297347784 -0.2100665718 0.9313733578
-0.16478071 -0.16462865 0.71617442 -0.3748018444 0.1994249076 0.9054023027
-0.18510915 -0.15487853 0.71189088 0.2086949944 0.1358695626 0.9684966803
-0.052833151 0.022752967 0.72694999 0.414040029 -0.6653433442 0.6211997271
-0.074873641 -0.065578528 0.70583069 0.1290151924 0.02223564871 0.9913932681
-0.034284484 0.043243788 0.74332267 0.2501851916 -0.77561903 0.5795019269
-0.13122122 -0.13901654 0.74100006 -0.4774579704 0.1053621769 0.8723145723
-0.14314771 -0.084942214 0.72621059 -0.01864712127 0.06197554246 0.9979034662
-0.10877446 -0.14129938 0.75200003 -0.4975631535 0.3625490665 0.7880285978
-0.025789337 -0.053924728 0.72149992 0.513007164 -0.8019272685 0.3061638772
-0.017083695 -0.033291329 0.75710529 0.5814795494 -0.6537979245 0.4841795266
-0.15626717 -0.12503292 0.72449166 -0.5519610047 -0.1800127625 0.8142078519
-0.011306077 -0.028371856 0.73000002 0.754278183 -0.6064103842 0.2516563237
-0.10491072 -0.025483765 0.722377 0.2657038271 -0.2601759732 0.9282833338
-0.015372197 0.033249691 0.72517639 0.1090310961 -0.8628606796 0.4935419559
-0.13482538 -0.11479603 0.73546416 -0.213473931 0.1340412498 0.9677096009
-0.058901187 -0.081441455 0.72766668 -0.3611278534 0.5753945708 0.7338308692
-0.087205268 -0.01307031 0.72030014 0.3438584805 -0.3185660243 0.8833329082
-0.05592357 -0.0042619696 0.71210432 0.3466103971 -0.3518491983 0.8695190549
-0.040971015 0.020800671 0.71900004 0.3584374785 -0.6220932603 0.6960765719
-0.085084558 -0.04503211 0.71606642 0.1857761145 -0.1164447516 0.9756678939
-0.065759607 0.01710921 0.73179168 0.4292265475 -0.6587823033 0.6178757548
-0.0046983794 -0.0046909717 0.76479596 -0.02638807707 -0.128176719 0.9914002419
-0.15939304 -0.10805143 0.72685719 -0.4422297776 -0.1170143932 0.8892359138
-0.04587331 -0.074012637 0.72318923 -0.2669012249 0.6160104871 0.7411442399
-0.061954904 -0.047020603 0.72483331 -0.2407300621 -0.1542943716 0.9582495689
-0.11911445 -0.049991041 0.70400006 -0.4549721181 -0.6375404 0.6217255592
-0.074162155 0.003819458 0.72525007 0.3849320412 -0.5574936867 0.7355461121
-0.15334977 -0.14441727 0.72181642 -0.5730904341 -0.05412404239 0.8177028298
-0.13472466 -0.096482269 0.73217243 0.00178975251 0.2139895111 0.9768342972
-0.17478502 -0.10225439 0.72000021 -0.1794789135 -0.205487445 0.9620614648
0.011073177 -0.012119916 0.71499997 0.1026799455 0.4790913463 0.8717386723
-0.19281743 -0.12518968 0.71727264 0.4627233446 -0.2256386876 0.8573064208
-0.050701141 -0.059464298 0.71400005 -0.2256849706 -0.1792151481 0.9575741291
-0.15746954 -0.058322184 0.72764295 -0.03371625394 -0.04871295765 0.9982435703
-0.10705984 -0.12380391 0.74718529 -0.4053503573 0.5067374706 0.7608602047
-0.13320813 -0.026319031 0.7322858 0.2281708717 -0.277485162 0.9332416654
-0.036514562 -0.053282335 0.75499994 0.1207293719 -0.1420064718 0.9824757576
-0.1528765 -0.037132457 0.73252934 0.1083080694 -0.1293036491 0.9856722951
-0.023302967 0.040778149 0.7383334 0.1776471883 -0.8030368686 0.5688350201
-0.17474861 -0.12527002 0.71447241 -0.1459853798 -0.2017603815 0.9684941769
-0.0095600495 -0.040152211 0.72700006 0.7329466343 -0.6457358599 0.2140431106
-0.10434948 -0.11281874 0.73651713 -0.1153079644 0.5145565867 0.8496679068
-0.058954958 -0.091995642 0.73900002 -0.4836776555 0.6524884105 0.5833650827
-0.11587305 -0.08509019 0.72623909 0.1629946083 0.1098272353 0.9804951549
0.0077730217 0.005937282 0.70552188 0.4051298499 0.3590113223 0.840821445
-0.15496583 -0.095237218 0.7315883 -0.2398737818 0.05466287211 0.9692639112
-0.1969344 -0.16158719 0.72000003 0.2684095204 0.1840592027 0.9455572367
-0.12615351 -0.017231761 0.72799999 0.2348139286 -0.2958761752 0.9259155989
-0.17630577 -0.14827718 0.70800012 -0.08551724255 0.02583401464 0.9960017204
-0.044569917 -0.014734088 0.76135188 -0.075691998 -0.04762305692 0.9959933758
-0.055646803 -0.053935431 0.76131231 -0.1657661349 -0.3807706535 0.9096896648
-0.202159 -0.11490303 0.73107147 0.4865984619 -0.2474953085 0.8378353119
-0.08375302 -0.07253395 0.7076667 0.1920664459 0.1760130227 0.9654687643
-0.19841222 -0.13444911 0.7209335 0.4591589868 -0.1685543507 0.8722169995
-0.11501667 -0.035609439 0.72222942 0.2290254831 -0.2394736856 0.9435039163
-0.15782367 -0.17050026 0.72300005 -0.4723039865 0.19957228 0.8585451841
-0.10473921 -0.055468805 0.71790498 -0.1069094688 -0.0745755285 0.9914680123
-0.11479884 -0.13470502 0.74408942 -0.4727087617 0.3288633823 0.8175544739
-0.031654678 0.0055861198 0.708 0.3775545359 -0.5171587467 0.7681142092
-0.025460105 0.024791136 0.71399999 0.310883373 -0.6788202524 0.6652477384
0.0037172593 0.024135172 0.70392698 -0.1298217326 -0.7501599193 0.6483875513
-0.15791507 -0.15391754 0.71865213 -0.5031344295 0.1269103587 0.8548388481
-0.14462738 -0.04662098 0.69416672 -0.05388334394 -0.9303455949 0.3627033234
-0.1260801 -0.067942008 0.7306155 0.05878284574 0.1517807692 0.9866646528
-0.086589612 -0.11508487 0.74419427 -0.2613562644 0.6342455745 0.7276162505
-0.0080136098 -0.022538444 0.76175004 0.5836280584 -0.5087144971 0.632920146
-0.15840456 -0.085775867 0.7280001 -0.2309944779 0.004334628116 0.9729453921
-0.18445109 -0.095321886 0.72179997 0.1692759395 -0.2396027297 0.9560000896
-0.14538652 -0.11501777 0.73635721 -0.3599587381 -0.004388416186 0.9329578876
-0.014789692 0.0047060563 0.76687473 -0.02735485695 -0.1211716011 0.9922545552
-0.04426726 0.032929599 0.73725742 0.3510450721 -0.7491042614 0.5617918968
-0.13467352 -0.12495561 0.73810923 -0.3051162958 0.06499711424 0.9500944018
-0.11535936 -0.11526308 0.73548985 -0.1182232872 0.3668000698 0.922757268
-0.1338806 -0.061982304 0.69062501 0.133647278 -0.9629458189 -0.2342515737
-0.083165646 0.0062484415 0.73231816 0.351292938 -0.5626071095 0.7483758926
-0.17172438 -0.056103747 0.73000002 -0.07712768763 -0.06536463648 0.9948762655
-0.19575933 -0.097012624 0.73140001 0.4531898499 -0.2336059958 0.8602599502
-0.042919558 0.00088952435 0.7610001 -0.1309323907 -0.04400463402 0.9904142022
-0.024845019 -0.0047002221 0.76595926 -0.06582385302 -0.1150894612 0.9911718369
-0.034838494 -0.037620082 0.75890905 0.05373693258 -0.1419405341 0.9884155393
-0.07499449 -0.094841793 0.73246539 -0.2615199685 0.6168332696 0.7423772812
-0.14159808 -0.14397773 0.73085719 -0.577547729 -0.06203372404 0.8139965534
-0.094596632 -0.045512583 0.7193799 0.1093845069 -0.123050414 0.9863536954
-0.11757287 -0.096143551 0.73600006 0.06934156269 0.2210036069 0.9728047848
-0.024799827 -0.014743338 0.76457149 -0.07196675986 -0.1360088885 0.9880902767
-0.075163454 -0.025050083 0.71445328 0.2803624868 -0.07818277925 0.9567049146
-0.03482474 -0.014733943 0.76396871 -0.07399908453 -0.117862314 0.9902689457
-0.075035021 -0.045021869 0.71323454 0.03232455254 -0.1068553627 0.9937489629
-0.085230239 -0.1051614 0.73655558 -0.1851284206 0.5286018252 0.8284368515
-0.086344503 -0.081314482 0.71716666 0.06711278111 0.5518324375 0.8312501311
-0.16491227 -0.13509998 0.71650708 -0.4191610217 -0.1578990817 0.8940759897
-0.10444248 -0.095032923 0.727 0.1069454402 0.3035443127 0.9467964768
-0.024842758 -0.024528164 0.76148927 -0.01692802832 -0.1641031355 0.9862979054
-0.10339855 -0.06465742 0.71283722 0.1976085305 0.06931374222 0.9778274298
-0.065204076 -0.063909568 0.7066614 -0.3025811911 0.03154414147 0.9526014924
-0.17508443 -0.075100407 0.72450799 -0.1434259564 -0.1021730974 0.984372735
-0.1748749 -0.13506846 0.71377969 -0.137080878 -0.1724740267 0.9754288793
-0.055132054 -0.01538514 0.7585457 -0.07888817787 -0.01118012611 0.9968207479
-0.014627759 0.022711322 0.7041316 0.3011778295 -0.65881598 0.6893862486
-0.098220415 -0.078639194 0.72050005 0.3157674372 0.4316262305 0.8449791074
-0.063212052 -0.034505218 0.75899994 0.04437641054 -0.01728924923 0.9988652468
-0.0050495542 0.033631194 0.72521061 0.07967274636 -0.8519511819 0.517524302
-0.15486284 -0.13483609 0.72270578 -0.5617335439 -0.1373670101 0.815834403
-0.061453104 0.027023777 0.74100012 0.4222534001 -0.6991901994 0.5769186616
-0.17476402 -0.084876686 0.72157574 -0.1136288494 -0.1409550607 0.9834735394
-0.15345559 -0.11479741 0.73103225 -0.4660201073 -0.07401727885 0.8816726804
-0.12493581 -0.11463216 0.73459381 -0.08492533118 0.2574576437 0.9625504017
-0.097294979 -0.034670908 0.71999997 0.2004276514 -0.1306903213 0.9709525108
-0.12545946 -0.091840044 0.72750014 -0.01273439452 0.1776839942 0.9840052128
-0.1853234 -0.14458837 0.71226323 0.2435467243 -0.04805122316 0.968698144
-0.1443907 -0.12493341 0.73460966 -0.4762141109 -0.09061066806 0.8746483922
-0.14242744 -0.02835732 0.73100001 0.2241652757 -0.2587455213 0.9395747185
-0.064986102 -0.005204224 0.7148689 0.3608263135 -0.3805962503 0.8514404893
-0.10605355 -0.075946547 0.72588241 0.363037169 0.3416050673 0.8668967485
-0.0047041392 0.0047015622 0.76602048 -0.02735485695 -0.1211716011 0.9922545552
-0.014789035 -0.004705681 0.76683903 -0.02735485695 -0.1211716011 0.9922545552
-0.064869337 -0.014966058 0.71145302 0.3386361599 -0.2793436348 0.8984946609
-0.17231759 -0.17231759 0.72000003 -0.2065052539 0.2925418317 0.9336888194
-0.085186779 -0.0050039571 0.72450793 0.3322882354 -0.428165853 0.8403918743
-0.044718411 -0.024694737 0.76134688 -0.04998136312 -0.05023096129 0.9974861741
-0.11284432 -0.018825028 0.72791672 0.2512102425 -0.3173422813 0.9144327641
-0.12496167 -0.1452332 0.74400002 -0.5145711303 0.1543399394 0.8434427977
-0.075232007 -0.055074729 0.7148096 -0.07593397796 -0.4162861705 0.9060572982
-0.16476111 -0.1249705 0.71693408 -0.4167169034 -0.1815104038 0.8907306194
-0.035423338 0.035002492 0.7355153 0.2703778446 -0.777433753 0.567884326
-0.01528727 0.038037293 0.73285007 0.09694407135 -0.8316382766 0.5467903018
-0.13442035 -0.10488563 0.73543787 -0.04728721827 0.2363530993 0.9705159068
-0.085219853 -0.035268929 0.71593523 0.2444140315 -0.04397590458 0.9686732888
