# .PCD v0.7 - Point Cloud Data file format
VERSION 0.7
FIELDS x y z normal_x normal_y normal_z
SIZE 4 4 4 4 4 4
TYPE F F F F F F
COUNT 1 1 1 1 1 1
WIDTH 206
HEIGHT 1
VIEWPOINT 0 0 0 1 0 0 0
POINTS 206
DATA ascii
-0.075075217 -0.14490183 0.856381 -0.1330768764 0.1576555371 0.9784862399
-0.28239724 -0.1446684 0.79211104 0.2737697065 -0.0715521574 0.9591300488
-0.14024869 -0.11911577 0.73049998 -0.4833195806 0.4583453238 0.7458698153
0.024096822 -0.14692986 0.77765208 0.02950943075 -0.03399989009 0.9989860654
-0.17905916 -0.19123518 0.81700003 -0.02331312001 0.6674687266 0.7442728281
-0.19534515 -0.09332855 0.82528585 -0.08477029204 -0.9462068677 0.3122603595
0.0049838494 -0.087099463 0.85283333 -0.4929746389 -0.6770250797 0.5464549661
-0.092758343 -0.18074237 0.77800006 -0.3335706294 0.1301414222 0.9336990118
-0.075665794 -0.098539874 0.78544444 -0.06947942078 -0.7329596877 0.6767145991
-0.0077170767 -0.16463807 0.84499997 0.1512489468 -0.4627054632 0.8735144138
-0.21544936 -0.14518446 0.79236853 -0.04302766174 0.3773416877 0.9250739813
-0.14130288 -0.099538483 0.79400003 0.09867800027 -0.6903398037 0.7167242169
-0.05520054 -0.088196702 0.84400004 0.2813356221 -0.04158291966 0.9587080479
-0.015802426 -0.10730115 0.79525012 -0.2189255506 -0.8566346765 0.4671708345
-0.25282803 -0.099556893 0.81700003 0.2395522743 -0.8276027441 0.5076301694
-0.047281552 -0.1912539 0.80900002 0.1086320877 -0.8278723359 0.5502967238
-0.24019001 -0.19029891 0.81300002 -0.1386981755 0.5201209784 0.8427556157
-0.14607245 -0.15447751 0.7885384 0.2561351657 0.4240259528 0.8686752915
-0.12946701 -0.19667667 0.80700004 0.452362448 0.6855536103 0.5704247952
-0.10373246 -0.13141203 0.76416665 -0.1126752421 -0.8375043273 0.5346875787
0.013865652 -0.12477116 0.82814288 -0.8383083344 -0.2239888608 0.4970594943
-0.0076182331 -0.17729706 0.79000002 0.6380418539 -0.02863784134 0.7694689035
-0.18469505 -0.11535291 0.78448153 0.08088282496 -0.4361634552 0.8962250948
-0.089967914 -0.18065557 0.82100004 -0.2957460582 -0.9552420378 -0.006851749495
-0.028516214 -0.12982382 0.85600007 -0.09311462939 0.1870801598 0.9779216051
-0.044943675 -0.17313792 0.84577411 0.06879701465 -0.803915143 0.5907515883
-0.079544351 -0.14732997 0.78900003 -0.1714515239 0.5346472859 0.8275002241
-0.15710151 -0.10177529 0.82775003 -0.02562351339 -0.9844174981 0.173970297
-0.24859338 -0.1619938 0.78900003 -0.1234418601 0.3839125335 0.9150810242
-0.24501576 -0.12443873 0.78388494 0.03451574594 -0.2567777336 0.9658539295
-0.13014467 -0.15107246 0.74600005 -0.6598973274 0.2469831258 0.7096018791
-0.11271658 -0.16380671 0.80121058 -0.1819790006 -0.2476504147 0.9516054392
-0.18430647 -0.16362914 0.79764301 0.07715643197 0.434486568 0.8973674178
-0.024695914 -0.094137378 0.82521641 -0.1611565202 -0.8916533589 0.4230636358
-0.21495645 -0.10593597 0.79414648 0.05030692741 -0.7379429936 0.6729854345
0.018488608 -0.14316405 0.85500002 -0.01520998031 0.4337760806 0.9008923173
-0.1337505 -0.12660827 0.77689654 0.2437615246 -0.5654879808 0.7879109383
-0.084619075 -0.1016869 0.84666681 0.0500196889 0.254273653 0.9658379555
-0.080713384 -0.17637262 0.85250002 -0.1801819801 -0.5669180751 0.8038272858
-0.01153518 -0.13095821 0.77400005 -0.1576488763 -0.3686897159 0.9160866141
-0.045565113 -0.097747236 0.79358333 -0.2407622933 -0.7784660459 0.5796759129
-0.10565042 -0.098845035 0.79180008 0.1642195433 -0.7018288374 0.6931581497
-0.2732535 -0.11712144 0.80126679 0.3995964527 -0.6461179852 0.650272429
-0.12299574 -0.18142442 0.77800006 0.3221181333 0.5977039337 0.7341593504
-0.21512432 -0.17551149 0.80522919 -0.1103368551 0.4087465405 0.9059536457
-0.028439067 -0.16992342 0.81100005 0.5590445995 -0.7217298746 0.4081360996
-0.072003789 -0.19095904 0.79440004 -0.3136515617 -0.7452591062 0.5883974433
-0.054829363 -0.12255976 0.84900004 -0.1034439355 0.3379950225 0.9354457259
-0.1649207 -0.13481151 0.78059167 0.08048968762 0.2646853626 0.9609698653
-0.07846982 -0.12341003 0.7743001 -0.3961783946 0.09643865377 0.9130948782
0.0067174365 -0.12267922 0.79276186 -0.660469532 -0.5925357342 0.4611739516
-0.02304396 -0.079038605 0.84788895 -0.1060120836 -0.8620063663 0.4956878722
-0.1550336 -0.18203284 0.80794126 0.03462069482 0.694337368 0.7188163996
-0.11277542 -0.11863156 0.7421667 -0.3773344755 0.6216487885 0.6864193082
0.021240316 -0.10632476 0.84516674 -0.8114188313 -0.4033107162 0.4230129719
-0.14627446 -0.20058309 0.82600003 0.100677222 0.6918385625 0.7149989605
-0.22555798 -0.0969579 0.81550008 0.06955015659 -0.8874182701 0.4556880295
-0.035777554 -0.15411085 0.86000025 0.01461011544 -0.1016379967 0.9947141409
-0.11639562 -0.15505552 0.76682526 -0.8150255084 0.1521968693 0.5590791702
-0.0014570199 -0.10126289 0.83100003 -0.5035952926 -0.6561437249 0.5620206594
-0.079448789 -0.16803771 0.80200005 0.5483067632 0.580689013 0.6017972827
-0.10646393 -0.19321229 0.7937333 -0.1592270136 0.7206373811 0.6747803688
-0.26019466 -0.18024267 0.80000001 -0.022869315 0.5324482322 0.8461535573
-0.16502157 -0.10413503 0.7933144 0.0388629809 -0.8557527065 0.5159234405
-0.10316933 -0.14544697 0.7850647 -0.3987742066 0.6113772988 0.6835180521
-0.023914151 -0.17861864 0.85250002 0.1442793757 -0.7774310708 0.6121963263
-0.0028648612 -0.15589301 0.78448397 0.2047231346 0.2226525247 0.9531601667
-0.061445564 -0.16247264 0.86000001 -0.0004371954128 -0.344415009 0.9388173819
-0.205019 -0.12450391 0.78510892 0.09154759347 -0.0538537167 0.9943434
-0.0098239267 -0.15038164 0.86200005 0.1262034774 -0.279556185 0.9517988563
-0.26466307 -0.13473304 0.78414309 0.2836042345 -0.2127702832 0.9350387454
-0.20457384 -0.19215098 0.81450003 -0.0426235199 0.504847765 0.8621554375
-0.18434042 -0.10205705 0.80288893 -0.002188488143 -0.9284638166 0.3714164197
-0.13451545 -0.17357372 0.7943334 0.5080834031 0.5243456364 0.6833102107
-0.093702696 -0.10858382 0.77640003 0.1192413867 -0.6489471197 0.7514314055
-0.18478873 -0.14454864 0.78819054 0.08648137748 0.4285360277 0.8993763328
-0.23615634 -0.1439518 0.78799999 -0.2017819136 0.2525961995 0.9462976456
-0.27286342 -0.16331409 0.79323077 0.1972624063 0.3237773776 0.9253408909
-0.063273415 -0.17822769 0.8122856 -0.334073633 -0.7362806797 0.5884603262
-0.22875191 -0.16239658 0.79675001 -0.2421154827 0.3551128507 0.9029257894
-0.11246958 -0.11702937 0.77641171 0.2574433386 -0.7100034952 0.6554524899
-0.248272 -0.11010933 0.80000001 0.2381604463 -0.7931752205 0.5604932308
-0.22463107 -0.12471884 0.78599977 -0.0448025912 -0.04341951758 0.9980518222
-0.03389281 -0.11274547 0.78900003 -0.1683358997 -0.7459765673 0.644346118
-0.044152819 -0.174049 0.82185715 0.2777214348 -0.9207789898 0.2739285231
-0.044080906 -0.096012414 0.82625926 0.227551505 -0.8766305447 0.4239566624
-0.0023006655 -0.11232954 0.81500006 -0.5539269447 -0.7944395542 0.2490596473
-0.16497657 -0.15600009 0.79180014 0.1030355021 0.4317887425 0.8960704207
-0.073560663 -0.12665334 0.84900004 -0.0488252081 0.2731854618 0.9607214928
-0.12342151 -0.12875867 0.76100004 0.5257931352 -0.6770009995 0.5149865746
0.02327661 -0.12512641 0.84553325 -0.8957292438 -0.2217424661 0.3853561282
-0.17473961 -0.09588775 0.82450008 -0.07994204015 -0.9814821482 0.1740747094
-0.054857727 -0.14504153 0.85722458 -0.09160083532 0.2166767418 0.9719364643
-0.12477827 -0.10796637 0.78718179 0.1471636295 -0.6057009101 0.7819650173
-0.055742476 -0.11159027 0.78642857 -0.2274179608 -0.4338490665 0.8718119264
-0.20490539 -0.099050529 0.80820006 -0.01640851796 -0.889629662 0.4563877881
-0.067326121 -0.10209547 0.84128571 0.1706872731 0.2632024288 0.9495211244
-0.031731699 -0.10104523 0.80442864 -0.1515412927 -0.8987135291 0.4115206301
-0.14516079 -0.11518472 0.78450882 0.05994914845 -0.4500796795 0.890973866
-0.20782845 -0.15920267 0.80000001 0.04042804241 0.4089768529 0.9116488099
-0.095220372 -0.16289204 0.79608017 -0.05813545361 0.5200428367 0.8521594405
-0.066110715 -0.18124524 0.84438473 0.1853985041 -0.853228271 0.4874719977
-0.13658829 -0.13384733 0.7386179 -0.5780639648 0.3823342919 0.7208762169
-0.16255476 -0.19184768 0.82166672 0.0008521166164 0.6911870241 0.7226754427
-0.24321301 -0.1786204 0.8009001 -0.1616438776 0.5081561208 0.8459601998
0.012482505 -0.13744642 0.78669989 -0.3064415157 -0.2117578983 0.9280367494
-0.1057371 -0.13317627 0.74740613 -0.7367733717 0.5070782304 0.4472546279
-0.00882628 -0.088262796 0.83900005 -0.3257786632 -0.7719026804 0.5459253192
-0.17517702 -0.1768222 0.80250001 0.06315308809 0.5179599524 0.8530704379
-0.10527173 -0.16565166 0.77317971 -0.5015981793 0.06911442429 0.8623355031
-0.091011442 -0.13368057 0.7766667 -0.1738909036 0.5010864735 0.8477466106
-0.087383509 -0.19175184 0.78900003 -0.20209755 0.7493463159 0.6305844188
-0.19438615 -0.18091747 0.80850005 0.03808157146 0.5003572106 0.8649811745
-0.12286413 -0.10846271 0.73445457 -0.4601971507 0.5470815301 0.6992284656
-0.23556179 -0.11142676 0.7905556 0.08796207607 -0.6033056378 0.7926443219
-0.16130666 -0.16902134 0.80000001 0.08592875302 0.505201757 0.8587126732
-0.0047350531 -0.11615553 0.7840572 -0.293194592 -0.7388000488 0.6068043113
-0.28051755 -0.12877357 0.79400003 0.3959367573 -0.4009684622 0.8261104226
-0.0257702 -0.18312694 0.80341673 0.5579107404 -0.5410196185 0.6293118596
-0.021083834 -0.12131488 0.78850007 -0.1290730685 -0.7546413541 0.643316865
-0.034300536 -0.088314615 0.83572727 0.1067956463 -0.8648087382 0.4906124473
-0.068204671 -0.10980951 0.77800006 -0.2352668345 -0.4836247265 0.8430638313
-0.26203346 -0.10729084 0.80783343 0.3165826201 -0.7731483579 0.5495608449
-0.13660328 -0.18768315 0.81677783 0.3090496659 0.6470241547 0.6970279813
-0.080745906 -0.16224505 0.85760003 -0.1813244224 -0.1399839371 0.9734094739
-0.23467611 -0.10273427 0.80267859 0.1375949532 -0.8361249566 0.5310016274
-0.025078643 -0.16296451 0.85460532 0.1480342746 -0.5572609901 0.8170349002
0.0024964958 -0.12696946 0.77609527 -0.3942866921 -0.4499202073 0.8013175726
-0.018936001 -0.170424 0.80000001 0.6542173624 -0.2654590011 0.708188653
-0.081558928 -0.18215643 0.80433339 -0.4298904538 -0.8410103321 0.3284750283
-0.13444312 -0.14101724 0.77583337 0.6025213599 0.1321151257 0.7870918512
-0.024837643 -0.14477623 0.85899991 -0.0007425226504 -0.01523268409 0.9998837113
-0.1951392 -0.15464959 0.79451168 0.06359205395 0.4410366416 0.8952333331
-0.11434171 -0.14435349 0.7574001 -0.7478387952 0.5122218728 0.4223338068
-0.013285882 -0.1030583 0.81552637 -0.4135373235 -0.8458710313 0.3368813396
-0.044969931 -0.13491291 0.85494465 -0.1125978753 0.2395832986 0.9643244147
0.0094934236 -0.11026976 0.83300006 -0.7039638758 -0.4795780182 0.5238700509
-0.045371421 -0.16436802 0.85763234 0.07784467191 -0.4535980225 0.8878000975
-0.12143967 -0.16622466 0.77388895 -0.4516716599 0.6419166327 0.6196254492
-0.19518034 -0.13449244 0.78671438 0.09228734672 0.1740328521 0.9804058671
-0.25506139 -0.14506245 0.78422463 0.008314863779 0.1359773278 0.9906770587
0.0024358809 -0.14176826 0.778 -0.08736939728 -0.02058379911 0.9959632754
-0.2249395 -0.1850993 0.80724984 -0.1536653787 0.438485384 0.8855041265
-0.17484207 -0.12513764 0.78048193 0.1194124818 -0.06966419518 0.9903976917
-0.19447204 -0.10583569 0.79428566 0.0427611284 -0.7884144187 0.6136564016
-0.15534396 -0.14481199 0.78628218 0.1692004353 0.3789759576 0.909806788
-0.15550302 -0.12504038 0.78043991 0.07603933662 -0.1784301251 0.9810100198
-0.062885061 -0.098344475 0.79000002 -0.2040042281 -0.657248795 0.7255386114
-0.053685095 -0.17644164 0.83600003 0.1750894785 -0.9474766254 0.2676409781
-0.26486987 -0.15505542 0.78620821 0.1487890631 0.2403525114 0.9592145085
-0.18530221 -0.097676255 0.81639141 -0.08312362432 -0.9578071237 0.2751289904
-0.10591526 -0.18246837 0.78569555 -0.05174758658 0.5433830023 0.8378884792
-0.16534945 -0.11493894 0.78545278 0.09397815913 -0.5025691986 0.8594139218
-0.092686459 -0.098911673 0.78900003 0.1113032401 -0.7676706314 0.6311048865
-0.26625478 -0.12177121 0.79133332 0.3834060431 -0.5765196085 0.7215434909
-0.034332898 -0.17377901 0.83842862 0.1681201458 -0.9607201219 0.2207994908
-0.12699369 -0.16780803 0.78542858 0.3169198632 -0.3733594716 0.8718741536
-0.0044572656 -0.11183608 0.80233335 -0.4350200593 -0.8449489474 0.3111572266
-0.065144248 -0.13478982 0.85416687 -0.09608601034 0.2997935116 0.9491529465
-0.10519744 -0.15616536 0.79212135 -0.5808008909 0.5436154604 0.6059311032
0.01341598 -0.096504077 0.84550017 -0.6530555487 -0.5266464949 0.5442076325
-0.054929238 -0.1708823 0.85292304 0.1411355883 -0.5853874087 0.7983747721
0.013950313 -0.15277641 0.78193581 0.2447957695 -0.005137496162 0.9695610404
-0.093924046 -0.11762122 0.76800007 -0.0489279218 -0.2725683153 0.9608915448
-0.21463545 -0.11594252 0.78723824 0.04701085016 -0.2982715368 0.953322649
-0.13636068 -0.18227997 0.80589998 0.4426136613 0.6141518354 0.6533839703
-0.085217588 -0.15764996 0.79152369 -0.5812150836 0.1718049794 0.7954068184
-0.21448602 -0.13432902 0.78734803 0.00896261353 0.1665901542 0.9859855175
-0.034666032 -0.19030944 0.80700004 0.3723236024 -0.7920333743 0.4837957025
-0.057784315 -0.10020622 0.83433342 0.2662635148 0.2736655772 0.9242352843
-0.1554141 -0.10850709 0.78790909 0.03887417912 -0.523296237 0.8512636423
-0.082512394 -0.13742118 0.85100001 -0.1162767485 0.1989330947 0.973090589
-0.25388139 -0.11772504 0.78773677 0.2305357456 -0.5837986469 0.7784808278
-0.12241565 -0.15347824 0.75447822 -0.817017138 0.2668293715 0.5111605525
-0.19543113 -0.16532217 0.8006528 0.0803899169 0.4213266671 0.9033389688
-0.094236851 -0.17157593 0.80375004 -0.6855633259 -0.05259823054 0.7261103988
-0.034676552 -0.09640108 0.81455564 -0.1040017903 -0.9422882199 0.3182396889
-0.20512637 -0.14184116 0.78854537 0.07873793691 0.3806340694 0.9213674664
-0.20588337 -0.18218695 0.80900002 -0.06315842271 0.4406567812 0.8954510689
-0.1456829 -0.17673551 0.80254829 0.1874359697 0.6272867322 0.7558962703
-0.11607014 -0.1921358 0.78779995 0.2797474265 0.6607734561 0.6965054274
-0.082903445 -0.098228753 0.79466677 0.001730044023 -0.7883793712 0.6151869297
-0.17477052 -0.10950793 0.78860009 0.0685107559 -0.6316170692 0.7722474933
-0.016526774 -0.17169239 0.84416676 0.1465464234 -0.7121662498 0.6865445375
-0.16770238 -0.10105117 0.8175 -0.07445795834 -0.9745560288 0.2114157379
-0.17520875 -0.154358 0.79588908 0.07237608731 0.4207396507 0.9042897224
-0.22419503 -0.11136529 0.79066664 0.008750649169 -0.5568239689 0.8305844069
-0.034507249 -0.084349327 0.84612006 0.1233099177 -0.8328422904 0.5396001339
-0.14487113 -0.16488677 0.79222733 0.3316218555 0.5124692917 0.7920872569
-0.094738133 -0.15297036 0.78830421 -0.3270137906 0.4909803867 0.8074653149
-0.10501001 -0.10676171 0.78415626 0.1856380701 -0.7043124437 0.6851879358
-0.084254518 -0.11259456 0.77239287 -0.04000854865 -0.448389709 0.8929423094
-0.065130204 -0.18466845 0.80355775 -0.269299984 -0.7398033738 0.6165780425
-0.20546204 -0.11083884 0.7905333 0.09154992551 -0.5753050447 0.8127993345
0.0071072718 -0.11398439 0.82292295 -0.6825291514 -0.5527784228 0.4781108499
-0.03228781 -0.16857651 0.84860009 0.06391269714 -0.6613443494 0.7473545074
-0.037394099 -0.14216204 0.85799986 -0.08350905031 0.1540245414 0.9845317006
-0.043369576 -0.18129905 0.81100005 0.3099558949 -0.8493195772 0.4272980392
-0.078637294 -0.17627896 0.81300002 -0.4204467535 -0.9071962237 0.01481705718
-0.1224322 -0.099475801 0.79350007 0.1296778321 -0.6276022196 0.767658174
0.0032968607 -0.16450237 0.78216147 0.2838610113 0.1925509125 0.9393333197
-0.024643976 -0.10044549 0.81260002 -0.3183717728 -0.8903326392 0.3254952431
-0.21488963 -0.095836818 0.81405884 -0.002739733784 -0.9030770063 0.4294699132
-0.16100685 -0.09913522 0.80200005 0.06986752152 -0.9569782019 0.2816224992
-0.23444235 -0.15526862 0.79120004 -0.2817572057 0.3210820854 0.9041676521
-0.14200191 -0.13224965 0.78062505 0.3753019571 -0.03763016686 0.9261384606
