# .PCD v0.7 - Point Cloud Data file format
VERSION 0.7
FIELDS x y z normal_x normal_y normal_z
SIZE 4 4 4 4 4 4
TYPE F F F F F F
COUNT 1 1 1 1 1 1
WIDTH 206
HEIGHT 1
VIEWPOINT 0 0 0 1 0 0 0
POINTS 206
DATA ascii
-0.17794609 0.031328853 0.85766667 -0.3075393736 -0.3557554483 0.8825290799
-0.070707552 -0.1042006 0.84900004 0.5487871766 -0.3296045065 0.7682405114
-0.3135151 -0.0057313549 0.83195251 0.1710701287 0.3829914331 0.9077734351
-0.18428366 -0.080811568 0.86150002 0.2659030259 0.6170028448 0.7406774163
-0.095385745 -0.016694697 0.88365513 -0.4747722745 -0.6872136593 0.5498442054
-0.2547127 0.045899346 0.84216648 -0.2354298532 -0.4916380346 0.8383703232
-0.25635448 -0.051473968 0.86488891 -0.08172607422 0.367867291 0.9262799025
-0.11501443 -0.084870584 0.90481591 -0.365293324 -0.2617854476 0.8933247924
-0.1448492 -0.034911178 0.84732664 -0.08051210642 -0.1000331789 0.9917213321
-0.20541224 -0.02462079 0.85250008 0.1417979747 -0.07668288052 0.9869210124
-0.05598769 -0.06172635 0.88171434 -0.6443468332 -0.57441324 0.5048431754
-0.25714514 -0.0041037416 0.84766698 -0.423124671 0.4618599117 0.7795196772
-0.15258287 -0.056214832 0.89538455 -0.5684832335 0.1451985091 0.8097803593
-0.13737454 -0.089822389 0.86100006 -0.4130885303 -0.9022949338 0.1233764663
-0.094269536 -0.052938823 0.85364521 -0.41236642 -0.533241868 0.7386521697
-0.18816476 0.0076061361 0.81860006 -0.8548499346 -0.4914481342 -0.1664640754
-0.29409069 0.032564506 0.8275882 0.05938825384 -0.3781727552 0.923828125
-0.12916718 0.0012632767 0.86500001 -0.4386320114 -0.4623375237 0.770614028
-0.21611206 0.015272829 0.84900022 -0.1599818468 0.1892885268 0.9688011408
-0.077776991 -0.0950085 0.89357144 -0.2363925874 -0.8945435286 0.3793552518
-0.18020321 -0.050751109 0.83900005 0.2011990845 0.2107441574 0.9566116333
-0.28425074 -0.032146137 0.84880006 -0.2828362584 0.4340542555 0.8553364873
-0.16482136 -0.0045916461 0.85295248 -0.2963649035 -0.3397372067 0.8926065564
-0.21785423 -0.056864806 0.86026669 0.2682434618 0.3756026328 0.8871122003
-0.10498191 -0.10363097 0.8646788 -0.1232910156 -0.9884197712 0.08846309781
-0.15606418 -0.063330404 0.86000007 -0.320189029 0.2377204895 0.9170430303
-0.063584737 -0.073705383 0.85257685 -0.4907571077 -0.4257388115 0.7601999044
-0.22356433 0.045508642 0.85100001 -0.3694913983 -0.4636641145 0.8052898049
-0.2836456 -0.0077124974 0.83152652 -0.3051231802 0.5205697417 0.7974377871
-0.23524582 -0.024461837 0.85353851 0.1811165512 0.1451888531 0.9726854563
-0.25945213 0.018895674 0.82900006 -0.4832371771 0.1057799011 0.8690755963
-0.14500847 -0.08448679 0.89141697 -0.4247698784 -0.7024258375 0.5711116195
-0.11504957 -0.024391271 0.86144197 -0.42419523 -0.514298737 0.7453557849
-0.12423453 -0.055831186 0.90224141 -0.3140820265 -0.04494724795 0.9483312964
-0.067970395 -0.035839111 0.88758826 -0.5878875852 -0.5666810274 0.5772874951
-0.087424584 -0.076471366 0.91230774 -0.01534381509 -0.2385251224 0.9710150957
-0.18348631 -0.014112972 0.83479315 -0.03140598163 0.3480610251 0.9369456768
-0.23641598 0.026046302 0.83809692 -0.3428631127 0.1614999175 0.9253986478
-0.20211375 0.039012834 0.86133337 -0.3409139216 -0.2871501148 0.8951662183
-0.11801306 -0.044259213 0.84806669 -0.2488610297 -0.3554331958 0.9009636045
-0.11455578 -0.0078461664 0.89499998 -0.5405284762 -0.6314521432 0.555965066
-0.23345895 -0.0012404834 0.84900004 -0.03158893809 0.1711270213 0.9847424626
-0.15578656 0.014555524 0.86348575 -0.2486653328 -0.3184332252 0.9147490263
-0.077315383 -0.046418671 0.8680501 -0.5321606398 -0.5884444118 0.6087185144
-0.29789025 0.0054793977 0.81900018 0.1197246164 0.2038123757 0.9716617465
-0.1979567 0.0039694211 0.85671425 -0.1433258802 -0.03276309371 0.9891331196
-0.19680113 -0.056217853 0.85299999 0.3664868772 0.3769804835 0.8506309986
-0.16597667 -0.081127606 0.84900004 0.09003838152 0.2649198174 0.9600576162
-0.14446621 -0.014260498 0.85386509 -0.2282191664 -0.3495461643 0.9086987972
-0.2646814 -0.024844997 0.85451031 -0.306707859 0.3062074184 0.9012032747
-0.27387238 0.041920554 0.83308005 -0.1936000735 -0.4189141393 0.887147069
-0.10493038 -0.065186508 0.90677804 -0.2521104515 -0.06512182206 0.9655047655
-0.16493063 -0.025567362 0.84900045 -0.1959741861 -0.1558101475 0.9681515098
-0.094972193 -0.035349935 0.86500001 -0.4512565732 -0.58733356 0.6718680859
-0.095213667 -0.095212482 0.90508336 -0.08408185095 -0.4039458334 0.9109105468
-0.2357603 -0.046393275 0.86184007 0.1704223007 0.4279591739 0.8875850439
-0.3059698 -0.022855576 0.84100002 0.02302131802 0.5824049711 0.8125727773
-0.31102642 0.021025097 0.82700002 0.3090498745 -0.148503691 0.9393800497
-0.27704152 0.018975448 0.81900012 -0.2609675229 -0.08055664599 0.9619805217
-0.16245978 -0.075098887 0.89293331 -0.5564774275 -0.458103478 0.6931623816
-0.21423297 -0.0072656288 0.85115784 -0.09761121869 0.02347508445 0.9949477315
-0.085236423 -0.098059788 0.86042863 0.2284724116 0.4428429902 0.8670008183
-0.12801525 -0.090774447 0.88500005 -0.3377006352 -0.8755964041 0.34538275
-0.1981052 0.025181813 0.84900004 -0.2970511317 -0.1155171096 0.94784832
-0.13072458 -0.073458537 0.90100002 -0.4565844238 -0.2188549191 0.862341702
-0.17807001 0.0040447647 0.83406675 -0.9379470348 -0.04926097393 0.343261838
-0.24257262 0.050856836 0.8556 -0.2443422675 -0.5150462389 0.8215985894
-0.16491196 -0.064810775 0.84182036 -0.3048700988 0.2007335275 0.9309996367
-0.18112482 0.0089825457 0.85375005 -0.4001325369 -0.5150079727 0.7580637932
-0.058660395 -0.091332011 0.84700006 -0.0724811554 -0.2160816342 0.9736812711
-0.20193987 -0.070756644 0.86166668 0.313011229 0.441878438 0.8406946063
-0.16505542 -0.045420673 0.84578264 -0.2937654555 0.05298920721 0.954407692
-0.14887232 -0.051771551 0.84766674 -0.2049134374 0.1420269012 0.9684208035
-0.11733628 -0.093410879 0.87100005 -0.232016474 -0.9573829174 0.1720067263
-0.18461576 -0.034527682 0.8421151 0.1783124357 -0.06819844991 0.9816076756
-0.11738909 -0.008549015 0.87209105 -0.5404524803 -0.5829648376 0.6066820621
-0.2732636 -0.042967066 0.85557157 -0.3084649444 0.3070653975 0.900311172
-0.22485846 -0.038199987 0.85213333 0.2037643045 0.2770463824 0.9390023351
-0.082349502 -0.030746102 0.88120002 -0.5270448327 -0.6084068418 0.5933505893
-0.16087009 -0.068504483 0.87800002 0.4400069714 -0.8961705565 -0.05720335618
-0.27225891 -0.015955698 0.84316677 -0.4542233348 0.5107697845 0.7299283147
-0.14893164 0.00075218 0.85800004 -0.2467556745 -0.3778602779 0.892375052
-0.14995471 -0.079826638 0.85100001 -0.275457859 0.1506865323 0.9494295716
-0.075906172 -0.058191001 0.85728562 -0.4787458181 -0.5483555198 0.6856446862
-0.27565527 0.0054817256 0.82756019 -0.3618818223 0.3510240316 0.8636108637
-0.19128253 -0.018607249 0.84900004 0.3158128858 -0.1094365641 0.9424892068
-0.20281902 -0.042238459 0.84900004 0.3180631101 0.1350628436 0.9383996725
-0.05795468 -0.068300754 0.86759996 -0.5657080412 -0.5855636001 0.5805942416
-0.18311866 -0.063106045 0.84766692 0.3214022219 0.4580675066 0.8287791014
-0.24389058 0.013802718 0.84312898 -0.3614074886 0.4170964956 0.8339155316
-0.17877951 0.019385729 0.81900007 -0.8844830394 -0.4597300291 0.07961186022
-0.23608668 -0.060801394 0.8648001 0.1575419009 0.4193452299 0.8940526247
-0.23659332 0.04069896 0.83900005 -0.235790208 -0.3821708262 0.8935034871
-0.25724158 0.0065986048 0.8367036 -0.4998201728 0.4374876022 0.7475188375
-0.1752563 -0.015130782 0.84675515 -0.174687624 0.07837128639 0.98149997
-0.10298695 -0.022187734 0.87280011 -0.4871305823 -0.6112698317 0.6237411499
-0.17237282 0.018105358 0.8605001 -0.28822577 -0.3001222312 0.9093143344
-0.058552392 -0.048300654 0.88580006 -0.6276254654 -0.5532029271 0.5477707386
-0.2154012 0.034574617 0.84688246 -0.3992651701 -0.1951679289 0.8958218694
-0.29435566 -0.016502701 0.83471411 -0.116095379 0.5683205724 0.8145756721
-0.1264217 -0.016974388 0.85757887 -0.4155091643 -0.4034898877 0.8151981831
-0.25479361 0.035151701 0.83323252 -0.2865640223 -0.2279076278 0.9305585027
-0.24500436 -0.034163341 0.85589486 0.07487724721 0.2481867373 0.965814054
-0.2457334 -0.0053512137 0.85540926 -0.1547146142 0.2666932046 0.951282382
-0.12458099 -0.03319937 0.85299999 -0.2892392874 -0.4271692336 0.8566604257
-0.064518645 -0.054098397 0.87410009 -0.6187015772 -0.5687161684 0.5420057774
-0.2253323 -0.014975659 0.85392863 0.05468947813 0.02495103329 0.9981915951
-0.071725294 -0.084090076 0.8488462 0.08687114716 -0.2190821916 0.9718314409
-0.23152213 0.012185375 0.85100001 -0.1622666568 0.3024248481 0.9392596483
-0.25562778 -0.014857372 0.85587531 -0.2520934045 0.2991465628 0.9203044176
-0.26627928 -0.0034824312 0.83661294 -0.5077847242 0.4774182737 0.7170958519
-0.10533888 -0.0375521 0.85674995 -0.3801541626 -0.5306389332 0.7575652599
-0.18703046 0.021870423 0.86025006 -0.2417056113 -0.2648842335 0.9334959984
-0.22459963 0.024427736 0.84456843 -0.2978717387 0.1671341509 0.93986094
-0.13515189 -0.043812536 0.84706676 -0.1118853912 -0.06592522562 0.9915319085
-0.15248016 -0.091713138 0.85575002 -0.5044498444 -0.3240341842 0.8003325462
-0.18511973 -0.0048678843 0.82577789 -0.8590342402 0.2388331592 0.4527901411
-0.084647335 -0.088160254 0.90684217 -0.04480390623 -0.310326755 0.9495735168
-0.12768695 -0.085833393 0.89671415 -0.4623186588 -0.555398941 0.6912260652
-0.26755029 0.031873472 0.82900006 -0.2898631394 -0.3405149281 0.8944433928
-0.28504202 0.0093338704 0.81900007 -0.1854874492 0.2224259973 0.9571421146
-0.2837649 -0.021330176 0.83900005 -0.2515196502 0.5492811799 0.7968864441
-0.13566038 -0.054774094 0.89763659 -0.3159042895 -0.07011400908 0.9461968541
-0.1761784 -0.075284794 0.85427999 0.2127239704 0.3598115444 0.9084514976
-0.21497168 -0.044896908 0.85388583 0.2271256298 0.2929483354 0.9287600517
-0.29368883 -0.026159924 0.84385711 -0.1874541789 0.5443344116 0.8176558018
-0.29464248 -0.005031425 0.82376963 0.002087952569 0.430043757 0.9028056264
-0.13500442 -0.024426185 0.85384107 -0.2380718887 -0.3309827149 0.9131112695
-0.21414711 -0.033969402 0.84900022 0.1752258688 0.08210799098 0.9810984731
-0.24670468 -0.054630436 0.87100023 0.06390295923 0.426245302 0.9023476839
-0.13423958 -0.089748748 0.87500006 -0.3518361449 -0.9002001882 0.2566144764
-0.30378428 -0.011628108 0.82900012 0.07411770523 0.4882773459 0.8695353866
-0.14499193 -0.065050416 0.89400059 -0.2980690897 -0.2444480062 0.9227133989
-0.31377372 0.0052253427 0.82813352 0.2416274101 0.2760593295 0.930272758
-0.10411211 -0.084646806 0.90840328 -0.1875758767 -0.213337183 0.9588026404
-0.21696056 0.0040315716 0.84900022 -0.123156853 0.1122753471 0.9860155582
-0.1371814 -0.0067684809 0.85789984 -0.3243806064 -0.3942941129 0.8598310351
-0.17590542 -0.0032960603 0.8521176 -0.4597730041 -0.3336227238 0.8229852319
-0.16801043 -0.054780658 0.83811104 -0.2997709811 0.1134492978 0.9472416043
-0.17455359 -0.034797955 0.8467201 -0.1111864299 -0.1859268099 0.9762524366
-0.15520218 -0.014647145 0.85125703 -0.1605368257 -0.2727766037 0.9485888481
-0.22606589 -0.027032649 0.84800017 0.1214359701 0.1193610132 0.9853965044
-0.25342932 -0.039527647 0.86000007 -0.08954113722 0.3398065269 0.9362232089
-0.11160317 -0.010426196 0.88100004 -0.5294598341 -0.6211467385 0.5777966976
-0.28506497 0.025335073 0.82236344 -0.05358522385 -0.3097453415 0.9493083954
-0.19483104 -0.034818225 0.84500003 0.2707340121 -0.06195639819 0.9606583714
-0.20596083 0.013434848 0.85146147 -0.2643370628 0.07407899946 0.961581111
-0.074977353 -0.074231312 0.85100001 -0.04238256812 -0.2089586854 0.9770056009
-0.09625873 -0.097683907 0.86527789 -0.01159408223 -0.9815732241 -0.1907343119
-0.28542128 0.037099753 0.8314001 -0.04552752525 -0.4514983892 0.8911096454
-0.26363665 -0.045548268 0.86020005 -0.2360222936 0.3297146857 0.9141016006
-0.16133648 -0.057867367 0.85280001 -0.3199830949 0.1934667081 0.9274596572
-0.26475501 -0.035096128 0.85647851 -0.2658859193 0.2575218976 0.9289710522
-0.29450056 0.015085302 0.82108653 0.1092292741 -0.03953573853 0.9932300448
-0.23351157 0.048492815 0.85100001 -0.2659879625 -0.4888017774 0.8308569193
-0.15460876 -0.024774602 0.84870034 -0.122176446 -0.2029223144 0.9715428352
-0.19490226 0.034191355 0.85573816 -0.3193456531 -0.2942523658 0.9007962346
-0.15513694 -0.034886159 0.84671432 -0.1051236093 -0.130511269 0.985857904
-0.11521446 -0.074692473 0.90638089 -0.3203095794 -0.0989048332 0.942135632
-0.056051873 -0.080713384 0.85250002 -0.3814540207 -0.2794577479 0.8811334968
-0.245114 0.034745865 0.83667356 -0.2604441643 -0.2340912521 0.9366803765
-0.22398064 0.03576488 0.84135878 -0.3484027982 -0.09465932101 0.9325529933
-0.27845123 -0.040839516 0.84700006 -0.3164054155 0.3272777498 0.8903802037
-0.095694698 -0.067335628 0.9102307 -0.1304035187 -0.1547493935 0.9793097377
-0.24492905 -0.01511689 0.85360014 -0.04396717995 0.1778871268 0.9830681682
-0.087079301 -0.10053701 0.90300006 -0.09020248801 -0.7835612297 0.6147319078
-0.11469226 -0.035194926 0.85435569 -0.3390529752 -0.4804245532 0.8088481426
-0.068234257 -0.094862275 0.85099989 0.3311751187 -0.2338252962 0.9141382575
-0.21247758 0.042367671 0.85214281 -0.406560719 -0.4367803335 0.8024533391
-0.19787985 -0.0057209684 0.85500014 0.07343199849 -0.0833119303 0.9938142896
-0.20520361 -0.014980434 0.85427797 0.08113173395 -0.103505604 0.9913144112
-0.22626854 -0.048270728 0.86033338 0.268047899 0.3896364272 0.881098032
-0.10468221 -0.094369218 0.90275759 -0.2036694437 -0.455635041 0.8665537834
-0.20481482 0.035594001 0.85258985 -0.3807372451 -0.2295535356 0.8957367539
-0.21504484 -0.024113148 0.85400009 0.05635040253 0.006793857086 0.9983879328
-0.16574681 0.0044539976 0.85641879 -0.2496270388 -0.3561305702 0.9004761577
-0.12085113 -0.09162569 0.90100002 -0.4563933909 -0.5077676773 0.7306689024
-0.075753994 -0.026911035 0.8872 -0.5496945977 -0.5804300904 0.6007801294
-0.23545948 -0.035406958 0.85467517 0.1870449036 0.2948702276 0.9370516539
-0.23527083 -0.014811561 0.85368419 0.08499904722 0.09656281024 0.9916908741
-0.24517378 0.045804463 0.8434999 -0.234256506 -0.453956306 0.8596787453
-0.11565594 -0.016441042 0.86684006 -0.5085171461 -0.5071092844 0.6958810687
-0.17863901 0.015653133 0.82785714 -0.9451651573 -0.2720704377 0.1806669682
-0.10307951 -0.075268388 0.91014278 -0.1980778873 -0.1261385679 0.9720361233
-0.27559525 -0.024585655 0.84568423 -0.4015050828 0.4528627694 0.7960584164
-0.1151677 -0.065129317 0.90599978 -0.3217328489 -0.04899314418 0.9455620646
-0.17485116 -0.024638578 0.845963 -0.2457795292 -0.05492766947 0.9677682519
-0.25525311 -0.024762737 0.85595375 -0.1721662134 0.2705065608 0.9471985102
-0.085194975 -0.055125415 0.85556835 -0.4513881803 -0.5617098212 0.6933475137
-0.24540447 0.02511112 0.83508682 -0.3426031768 0.01804995164 0.9393067956
-0.21521574 0.024713349 0.84869581 -0.2512410581 0.07795229554 0.9647804499
-0.26523507 0.042747438 0.83686668 -0.2257352769 -0.3728764057 0.9000037909
-0.1850425 -0.025101729 0.84158522 0.104677245 -0.01277170051 0.9944242239
-0.16498311 -0.034926232 0.84771448 -0.2051652372 -0.189046964 0.9602960348
-0.077268928 -0.037303448 0.87669241 -0.5595297813 -0.5772077441 0.5947752595
-0.14473391 -0.07510455 0.89242887 -0.3069216609 -0.4042340219 0.86162287
-0.22450519 -0.0041739559 0.84844482 -0.01691616327 0.08517067134 0.9962227941
-0.24467589 -0.024694195 0.85351032 0.04515348747 0.1907326579 0.9806029797
-0.18752764 -0.045444909 0.84149992 0.3359688222 0.1506361216 0.9297492504
-0.12514775 -0.096033499 0.86654848 -0.3065205514 -0.9453317523 0.1113238558
-0.095273696 -0.084339507 0.910923 -0.02879274637 -0.2840879261 0.958365798
-0.15489802 -0.045209326 0.84540814 -0.2797529101 0.1268067658 0.9516608119
-0.27477592 -0.0054948255 0.83374512 -0.4400735497 0.4854011238 0.7554607987
-0.14542782 -0.024723364 0.84900016 -0.1504238993 -0.2604029477 0.9537100792
-0.12507287 -0.064914837 0.90300012 -0.3549500108 -0.1028665751 0.9292087555
-0.24474554 -0.045462139 0.8630271 0.063112773 0.3872721493 0.9198027253
