# .PCD v0.7 - Point Cloud Data file format
VERSION 0.7
FIELDS x y z normal_x normal_y normal_z
SIZE 4 4 4 4 4 4
TYPE F F F F F F
COUNT 1 1 1 1 1 1
WIDTH 206
HEIGHT 1
VIEWPOINT 0 0 0 1 0 0 0
POINTS 206
DATA ascii
0.011375627 -0.050479341 0.81100005 0.1217366457 -0.2867035568 0.9502532482
-0.26128072 -0.016117955 0.76616669 0.346993953 -0.0258964207 0.9375097752
-0.10595198 -0.0074862372 0.69404352 -0.2846295536 0.6305368543 0.7220867872
-0.13114934 -0.080653332 0.80000001 0.1337007135 0.7678946257 0.6264678836
-0.15518995 0.025719119 0.78441471 -0.1437564045 -0.8989576101 0.4137744606
-0.061858647 0.012290517 0.79640001 0.1742195338 0.4255802929 0.8879915476
0.014975084 -0.025885375 0.72639668 -0.2832660377 -0.4679976702 0.8371012807
-0.054771714 -0.082348481 0.76468003 -0.519153595 -0.6083755493 0.6002988815
0.015059748 0.026933759 0.79275006 -0.2130309492 -0.7346314192 0.6441540718
-0.20527719 -0.064623483 0.7872439 -0.06772471964 0.5688480139 0.8196494579
-0.13783874 -0.029278476 0.75050002 0.3395398259 0.416038692 0.8435783982
-0.049142428 -0.0095731998 0.72800004 -0.09167458862 -0.4789584875 0.8730375171
-0.056859724 -0.051101778 0.82100004 0.06753929704 0.02105440013 0.9974944592
-0.20494258 0.0050437446 0.75581127 0.1064188406 -0.3747223616 0.9210093617
0.0022595853 -0.074837349 0.75399995 0.7553725243 -0.3950381279 0.5228357315
-0.09697336 0.011765257 0.75022227 0.1490879953 -0.5111842155 0.8464416265
0.051880591 -0.013711337 0.79723078 -0.9072776437 -0.0370499678 0.4188968241
-0.10487237 -0.074704468 0.75514579 0.4315118492 0.2854078114 0.855768621
-0.025169605 -0.015363177 0.80746502 -0.05994159356 0.3259287477 0.9434921741
-0.083657347 -0.034696162 0.74746144 -0.4760176241 0.5608998537 0.6773467064
-0.16432875 -0.053794589 0.77494133 0.1873538345 0.6445534229 0.741248548
-0.0041741021 0.0037357688 0.75200003 -0.2260603011 -0.8101850152 0.5408299565
-0.11574512 -0.042823255 0.71641183 0.43933025 0.8738654256 0.208202213
-0.22442897 -0.034888614 0.76243562 -0.2150562853 0.4399494529 0.8718917966
-0.22463533 0.025083728 0.78453863 0.1680691391 -0.7763377428 0.6074968576
0.043283332 -0.053795084 0.7304998 0.009620818309 0.2434815317 0.9698578119
-0.032665182 -0.066015929 0.79266667 0.0852098465 -0.9273815155 0.3642838895
-0.1650814 0.005330964 0.75250006 0.07091096789 -0.5086195469 0.8580663204
-0.023316573 0.023369107 0.78825915 0.184455514 -0.7712344527 0.6092401743
0.026076369 -0.013410758 0.76479411 -0.7359319925 -0.4918763041 0.465254575
-0.18564957 -0.027369434 0.76144433 0.1871300489 0.5400869846 0.820541501
-0.075489767 -0.069949232 0.79000002 0.2926175594 0.9532253146 0.07573969662
-0.085033156 -0.032482252 0.708 -0.560043931 0.7808641195 0.2767706513
-0.061599568 -0.019117471 0.80766672 0.02440181561 0.3384060264 0.9406837225
0.044107292 -0.042685334 0.81150007 0.6844581962 -0.723759532 0.08768771589
-0.16341066 -0.075042665 0.80000001 0.05729273707 0.7316536307 0.6792647243
-0.13424776 0.011734573 0.75766671 0.09327165782 -0.8020945191 0.5898684263
0.037609 -0.038976599 0.78000003 -0.7467421889 0.4358362257 0.502417028
-0.12659261 -0.058895696 0.77219999 0.3544386625 0.7395517826 0.5722205639
-0.038740776 0.011162597 0.74900001 -0.2119463831 -0.889339149 0.4051600397
-0.1848931 0.024066152 0.77478802 -0.01106279623 -0.8089596033 0.5877600908
-0.025068285 -0.04512291 0.81700009 0.03174681962 -0.1244995967 0.9917116761
-0.05801627 -0.052365273 0.75850004 -0.6164086461 0.3408287168 0.7098423839
-0.23493704 -0.0052925632 0.75489289 0.1373450905 -0.2287809253 0.9637404084
-0.09665513 -0.049341429 0.77100003 -0.2150652409 0.9587484002 0.1858720034
-0.079995833 -0.010879434 0.73000002 0.1869620979 -0.5259625912 0.8297038674
-0.25191191 -0.044257741 0.76877785 0.1422144324 0.4085697234 0.9015796185
-0.075311206 -0.073116876 0.74600005 -0.4162151814 0.153245762 0.8962592483
0.03451718 0.00449384 0.78484219 -0.6352520585 -0.4281089306 0.642788887
-0.067652807 0.011058273 0.7420001 0.0684588328 -0.6797497272 0.7302421927
-0.01516868 -0.082473271 0.77382147 0.3797987401 -0.5638169646 0.7333917022
0.017693324 -0.055168286 0.7383889 0.03000708111 0.4041808844 0.9141867161
-0.11483099 -0.025387196 0.7376523 0.355450511 -0.3240078092 0.8767405152
-0.10274462 -0.053378653 0.73619998 -0.4747390449 0.5871152282 0.6556817293
-0.13089509 0.0186993 0.79000002 -0.09422959387 -0.9132586718 0.3963324428
-0.0029385865 -0.058982134 0.77333337 0.4285234511 -0.8897516131 0.1571932435
-0.24247493 0.011400094 0.77318192 0.2883808613 -0.6591713428 0.6944995522
-0.0047556162 0.012914378 0.77505732 0.03383916244 -0.786645174 0.6164773107
-0.020787518 -0.01104337 0.74100006 -0.2331925929 -0.5881680846 0.7743897438
-0.12342422 -0.024817765 0.702079 -0.1552508473 0.7458019853 0.6478244662
-0.19440095 -0.043528721 0.7765314 0.02481188439 0.5552437305 0.8313174844
-0.11521161 -0.0026182465 0.7467187 0.1379951239 -0.3851730525 0.9124686718
-0.052417651 -0.070126325 0.80800009 -0.009402715601 -0.8625367284 0.5059070587
0.0021434501 -0.029293817 0.81500006 0.1489904672 0.01604637131 0.9887084365
-0.22548147 -0.054633781 0.77504557 -0.17723611 0.5645832419 0.806122303
-0.15617904 -0.035397634 0.76306957 0.2333669215 0.5705413818 0.7874150276
-0.14538889 -0.063960925 0.78394467 0.1308754534 0.7747950554 0.6185177565
-0.15505333 -0.015004974 0.74677992 0.1650124788 0.1383168697 0.976544559
-0.18502326 -0.0052692671 0.75107133 0.1696624905 -0.04597051069 0.9844294786
-0.21547058 -0.015206701 0.75775462 -0.02730212733 0.1699998677 0.9850658178
0.013684912 -0.008221915 0.74716657 -0.3563145101 -0.7509235144 0.5560160279
-0.1836921 -0.071156397 0.79242849 0.02742988616 0.6487272978 0.7605264783
0.016419884 0.007258717 0.77266675 -0.3492534757 -0.6755928993 0.64930439
-0.014858711 -0.063567266 0.80525005 0.05435717478 -0.8247702718 0.5628492832
-0.064137809 -0.022674983 0.73900002 -0.4920886159 0.5150482059 0.7018362284
-0.09802226 -0.034994107 0.72569233 -0.7601141334 0.3721853197 -0.5326392651
-0.24458109 -0.025058547 0.7565186 0.2178132236 0.224389255 0.9498457313
-0.20531838 0.018997027 0.77176923 0.108264707 -0.7726409435 0.6255435348
-0.057028919 -0.067422673 0.78000003 0.3286326528 0.8330851793 0.4449378252
0.031007847 -0.038111474 0.73683333 -0.3340835273 -0.01673753373 0.9423948526
-0.045031 -0.035088811 0.81533343 0.05028257519 0.2527620494 0.9662209749
-0.035070531 -0.074982971 0.77416945 -0.005091641098 -0.6300753951 0.776517272
-0.13507257 -0.005055387 0.74623328 0.09116254747 -0.3157542944 0.9444515109
-0.080955781 -0.051678624 0.75900006 0.4962492585 0.5378363729 0.6815193892
-0.00097025081 -0.021003837 0.73725003 -0.0748186484 -0.5718140602 0.8169643879
-0.22445819 0.013234563 0.76523095 0.1667763591 -0.7042809725 0.6900535822
-0.14457804 -0.052180823 0.76761544 0.2229172885 0.6555492282 0.7215005755
-0.023745218 0.00881874 0.77380008 0.01285446342 -0.9260464311 0.3771906495
-0.0054201633 0.026847726 0.79399997 0.07277937233 -0.7869893909 0.6126588583
-0.18541524 0.012056469 0.75874996 0.03494035453 -0.6560542583 0.7539044619
0.038509842 -0.013823938 0.78208333 -0.7877826095 -0.2231363207 0.574115634
-0.12737046 -0.04640346 0.75829995 0.3297370076 0.6250141263 0.7075526714
-0.069190621 -0.02612876 0.7153334 -0.6731862426 0.5349133611 0.510576129
-0.10978935 -0.05722354 0.75900006 0.2772817314 -0.3845534623 0.8804734349
0.032296401 0.021472197 0.79650009 -0.4767641723 -0.5662847161 0.6723225117
-0.20534843 -0.031050658 0.76845461 -0.09022512287 0.5291639566 0.8437090516
0.026881728 -0.021113263 0.74271435 -0.5970633626 -0.5518696308 0.5821986198
-0.10041779 -0.00971785 0.73900002 0.3033842444 -0.5237411261 0.7960233688
0.04420745 -0.031626847 0.79725003 -0.83790344 0.271496743 0.4735053778
-0.075797267 -0.062237751 0.77375001 0.2590290904 0.8163505197 0.5162128806
-0.0050244248 -0.045209106 0.81859201 0.08981953561 -0.1760145724 0.9802812338
-0.09341877 -0.020601081 0.69800001 -0.1494123638 0.7617493868 0.630407691
-0.25170925 0.0012027866 0.76240003 0.3492354155 -0.3276844025 0.8778710365
-0.15507977 0.013184775 0.76439393 -0.05400726199 -0.8300216198 0.5551102161
-0.044781275 -0.015144716 0.80747801 -0.01208031643 0.3650259376 0.9309189916
-0.17844024 -0.039878689 0.77100003 0.1818347871 0.5961555243 0.7820068002
-0.11533986 0.012516627 0.75482601 0.1092322841 -0.523104012 0.8452399373
-0.062256396 -0.035323448 0.81720018 0.1088972613 0.1457329839 0.983312428
-0.045365848 0.015896209 0.79400003 0.3129375577 0.3487947285 0.8834095001
-0.017604263 -0.066996627 0.78054559 0.3354383707 -0.7970436215 0.5021976829
-0.031205826 -0.058865536 0.80900002 0.09306340665 -0.4680069685 0.8788109422
-0.065443456 -0.040491771 0.74900001 -0.09204673767 0.5165813565 0.8512761593
-0.12242913 -0.071244068 0.78900003 0.4713620543 0.7450787425 0.4718850851
-0.09496659 -0.063912749 0.74679482 -0.2215059549 0.06830236316 0.9727640748
-0.065209888 -0.0034062197 0.73189461 0.07089759409 -0.5029358864 0.8614110351
0.013219139 -0.072605595 0.74166667 0.7019598484 0.0533917509 0.7102124691
-0.13912642 0.01475313 0.7766667 -0.06524719298 -0.899302125 0.4324332476
-0.035106033 -0.0048052482 0.73686427 -0.203078717 -0.5437085032 0.8143341541
0.0086728632 -0.00066714332 0.76100004 -0.3718519807 -0.7952334285 0.4788840413
-0.18506917 -0.055177499 0.78234905 0.07075283676 0.5637590885 0.8229032159
0.0095995003 -0.0403179 0.73000002 0.09346689284 0.1984153986 0.9756512046
0.0059874505 -0.063489847 0.80395848 0.1940760761 -0.9167866111 0.3490512967
-0.024812518 0.0039229365 0.74495834 -0.2335313112 -0.8482436538 0.4753376245
-0.20743066 -0.052369669 0.77763635 -0.1440469623 0.5434879661 0.8269651532
-0.096240841 -0.085240692 0.76280773 0.1503795832 -0.5262497663 0.8369271755
-0.14861576 0.0015321211 0.74900001 0.1171153039 -0.4195345342 0.9001526237
-0.0087903365 -0.018768556 0.81300002 -0.03844275326 0.1994258761 0.9791585803
-0.088346958 -0.00064961001 0.74100006 0.2294376045 -0.5403293967 0.8095693588
-0.085062422 -0.024457896 0.72564715 -0.4867089689 0.7954928279 -0.3609785438
-0.16510576 -0.025252936 0.75646663 0.1997245699 0.4448602498 0.8730461001
-0.23512501 -0.044455867 0.76634908 -0.08795906603 0.5272122025 0.8451689482
0.035742745 -0.025217893 0.77302146 -0.8491055369 -0.2254409492 0.4776988029
-0.12541024 -0.015280739 0.74183339 0.2391986251 -0.2630657852 0.9346552491
-0.1951654 -0.015092485 0.7552979 0.1219818518 0.2793300748 0.9524154067
0.016543284 -0.05615342 0.79733342 0.3391606212 -0.8864964843 0.314792037
-0.034570523 -0.026116626 0.81122255 -0.03438055888 0.3309103251 0.9430357218
-0.054118186 0.0064384365 0.7414515 -0.04552470148 -0.5899289846 0.8061707616
-0.014974196 -0.035178188 0.81674999 -0.06349238753 0.06502835453 0.9958614707
-0.1750748 -0.015109717 0.75314027 0.1733804196 0.2897057831 0.9412809014
-0.079239272 -0.059593171 0.74700004 -0.4959974885 -0.1043336615 0.8620330691
-0.034094445 0.013569076 0.78582764 -0.02384195663 0.8691141009 0.4940366447
0.030531669 -0.060413729 0.74100006 0.09317591786 0.381288141 0.9197486639
-0.11932836 -0.087228335 0.79600006 0.5227712989 0.7610198259 0.3841340542
-0.26122388 -0.0302187 0.76600003 0.2767246962 0.2722250521 0.9215839505
-0.16501147 0.019110791 0.77215391 -0.1241155267 -0.843416214 0.5227278471
-0.087008446 -0.074164577 0.75345457 -0.04042958096 0.3800751567 0.92407161
-0.20558177 0.027836578 0.78233331 0.08259902894 -0.8062518239 0.5857776403
0.027596716 -0.0026119656 0.77314287 -0.6093809009 -0.4390036762 0.6602504849
-0.043596171 -0.08561632 0.77185714 -0.1511464864 -0.7234427929 0.6736358404
-0.064949438 -0.015106083 0.72498381 -0.04303835332 -0.2997547984 0.9530450106
-0.014749914 -0.054098394 0.81547385 0.03274419531 -0.3430228829 0.9387561679
-0.06440828 -0.081877507 0.75523812 -0.6105307341 -0.4997121394 0.6144428253
0.025375042 0.014348596 0.78395659 -0.4314418137 -0.59870857 0.6748377681
-0.091351643 -0.043623812 0.75620008 -0.7010182738 0.6912101507 0.1755047292
-0.1652264 -0.063247547 0.78444445 0.09410556406 0.7084292769 0.6994798779
-0.010561788 -0.068988703 0.76900005 0.5010157228 -0.5944004655 0.6290240884
-0.045100261 -0.05511247 0.81655103 0.0899078846 -0.3285859823 0.9401850104
-0.17456841 0.027586069 0.78207695 -0.09419570863 -0.8543806076 0.5110391378
-0.14511551 -0.041072711 0.759 0.2553522289 0.5680167079 0.7824015617
0.0049566734 0.023636162 0.78513354 -0.08810292184 -0.756740272 0.6477515101
-0.14507079 -0.072008476 0.79408705 0.1065395698 0.7873446345 0.6072377563
-0.22466837 0.0044875699 0.75580382 0.1449069083 -0.4623590708 0.8747720122
-0.087868296 -0.058804169 0.77100003 0.2193413079 0.9708050489 -0.09709275514
0.041775167 0.011805193 0.7922858 -0.6518931985 -0.4285036922 0.6256355643
-0.10085173 -0.02458261 0.71900004 -0.6842266321 0.7202409506 -0.1143981293
-0.17528476 0.016726376 0.76522225 -0.05136516318 -0.773768425 0.6313826442
-0.22159503 -0.061248317 0.78500003 -0.1987332255 0.5259796977 0.826952517
-0.106785 -0.044845186 0.72497308 -0.02655424736 0.6561901569 0.7541282177
-0.088425152 -0.057353634 0.73839998 -0.5850870013 0.1744309366 0.7919893265
-0.0052123726 -0.0052057146 0.74332821 -0.2266050875 -0.7428863049 0.6298968792
0.0098230503 -0.059593171 0.74700004 0.7371169329 0.1877402067 0.6491627097
-0.0042856536 -0.057415806 0.80752641 0.0930794701 -0.601770103 0.7932268977
-0.074626051 0.00079163007 0.7387777 0.1831206232 -0.6047148108 0.7751044035
-0.012937263 0.0074035474 0.76755565 -0.04534672201 -0.9005261064 0.4324308336
-0.1186071 -0.034933455 0.70728588 -0.1678010523 0.7820799947 0.6001613736
-0.19487064 0.016544802 0.76508576 0.06937000155 -0.7367421985 0.6726059318
-0.042981714 -0.067696199 0.78000003 -0.1526274532 -0.5857024789 0.796026051
-0.034961384 0.021764047 0.7960909 0.3204853237 0.2365752608 0.9172356725
-0.066739209 -0.057519086 0.76512504 0.08493791521 0.758323431 0.6463212371
-0.16361341 -0.0068802685 0.74899989 0.1247298047 -0.1358425319 0.9828475118
-0.19564378 -0.071423791 0.7935555 -0.0368447341 0.5695451498 0.821133852
-0.25151861 -0.015537273 0.75824994 0.2664878368 0.04282365367 0.9628864527
-0.093649037 -0.021641979 0.73333335 0.4598509371 -0.4349224269 0.7741960883
-0.16471948 -0.042172093 0.76761121 0.2253908664 0.5747005939 0.7867135406
-0.22539844 -0.024199696 0.75756514 -0.1486366838 0.3164134026 0.9369043112
-0.21730317 -0.041572992 0.76900005 -0.2585800588 0.4933333397 0.8305170536
-0.23507918 -0.033000238 0.75788885 -0.01067000907 0.3995848596 0.9166341424
-0.15562905 -0.068139315 0.79090905 0.09653413296 0.7610312104 0.641492486
0.014559242 -0.016887343 0.73381585 -0.1647448838 -0.605547905 0.7785697579
-0.015075453 0.018502049 0.78158349 0.1319211423 -0.767308414 0.6275624037
-0.24563898 -0.036334254 0.76300001 0.1732385457 0.3857656419 0.9061861038
-0.10494266 0.0028524161 0.74705869 0.1377036422 -0.4792482853 0.8668095469
-0.12507153 0.0071768072 0.75152791 0.107677117 -0.4533951581 0.884781599
-0.11561985 -0.013507987 0.69540012 -0.168155849 0.6491084099 0.7418772578
-0.23769999 0.0069221598 0.76377785 0.217362985 -0.5262385607 0.8220865726
0.046153981 -0.0047977939 0.79297459 -0.8198467493 -0.2037208229 0.5351160169
-0.21491697 -0.024849754 0.76372737 -0.1489159316 0.4137057066 0.8981490135
0.0041141966 -0.01104337 0.74100012 -0.1816901118 -0.6959198117 0.6947548389
0.052015614 -0.02390074 0.80179995 -0.9125867486 0.009632235393 0.408769697
-0.19424921 -0.032326605 0.76651728 0.1021697819 0.5720466375 0.8138328791
-0.058279045 -0.058956709 0.77300006 0.2613531053 0.6959875226 0.6688018441
-0.11520101 -0.0054283198 0.68800002 -0.1496059895 0.6927556396 0.7054840326
-0.13467041 -0.066210754 0.78395236 0.1230187863 0.7948480844 0.5942077637
-0.086351663 0.0094241677 0.75000006 0.1938663721 -0.5456628799 0.815271616
-0.0060643414 -0.080509558 0.76850003 0.5010157228 -0.5944004655 0.6290240884
-0.20614728 -0.019347157 0.76100004 -0.0256186258 0.3872111142 0.9216350913
