# .PCD v0.7 - Point Cloud Data file format
VERSION 0.7
FIELDS x y z normal_x normal_y normal_z
SIZE 4 4 4 4 4 4
TYPE F F F F F F
COUNT 1 1 1 1 1 1
WIDTH 206
HEIGHT 1
VIEWPOINT 0 0 0 1 0 0 0
POINTS 206
DATA ascii
0.01622314 -0.036928061 0.73800009 0.6624215841 -0.7288691998 0.173053056
-0.17599083 -0.14015269 0.73000002 0.07779669762 -0.06697305292 0.9947171807
-0.11482354 -0.024530282 0.74318051 0.2000587434 -0.263179034 0.9437760711
-0.079050489 -0.12204748 0.76633334 -0.1930103302 0.4680674672 0.8623571396
0.00659867 0.05083001 0.75300002 0.234073773 -0.6368031502 0.7346367836
-0.054549031 -0.064767435 0.72543335 0.1617246419 0.2477193773 0.9552383423
-0.053283297 0.01349337 0.7420646 0.2974629104 -0.4652329087 0.8337110877
-0.16357562 -0.073091075 0.7429232 0.1028877422 -0.2385430485 0.9656662345
0.052200653 0.013559277 0.71409529 0.476310879 0.4200029373 0.7724800706
0.043141108 0.0057527991 0.77322602 0.3637152314 -0.2284348905 0.9030662775
-0.021819357 -0.018837988 0.773 -0.04973406345 -0.09342872351 0.9943830371
-0.12809494 -0.11607417 0.73755574 -0.6122347116 -0.09363767505 0.7851118445
-0.006802476 0.0076265424 0.72234774 0.3280014396 -0.5364117622 0.7776101232
-0.097428642 -0.048457894 0.70416671 -0.5314490795 -0.5554993153 0.6395173073
-0.10481603 -0.076881327 0.74233329 0.01497324742 0.240609616 0.9705064893
-0.035110835 -0.025508991 0.72283024 0.17745471 -0.02029181458 0.9839197397
-0.07472492 -0.024522291 0.73409557 0.1338452548 -0.3823993802 0.9142516851
-0.017539471 -0.07275632 0.74100006 -0.4165766537 0.6478049755 0.6378185749
-0.00067590998 -0.05204507 0.77100003 0.04823528603 -0.1298929155 0.9903540611
-0.054330543 -0.1001504 0.74666673 -0.08475622535 0.5454203486 0.8338662982
0.0054423469 0.0102044 0.77600002 -0.04434313625 -0.09272467345 0.9947038889
-0.13697828 -0.15206835 0.73457152 -0.5213348269 0.1352311373 0.8425689936
-0.10854886 -0.14098115 0.75500005 -0.5052276254 0.09167696536 0.8581027985
-0.16425987 -0.10531603 0.72705889 0.1886562556 -0.1889598072 0.9636923671
0.019392086 0.032110326 0.72525001 0.3538005948 -0.7055972815 0.61396873
0.02394638 -0.024221864 0.77261782 0.1254210621 -0.2176941335 0.9679250121
-0.025083153 0.03255989 0.7486521 0.2354075313 -0.6410209537 0.7305309772
-0.13450529 -0.054965504 0.73764306 -0.06780090928 -0.06898519397 0.9953110218
0.041874096 -0.015485676 0.73142302 0.8699371815 -0.4691880941 -0.1518939883
-0.079902031 -0.0584649 0.74100006 0.3285297453 0.2071025074 0.921507895
-0.1356525 -0.085047908 0.73620969 -0.3925288916 -0.09396458417 0.9149271846
-0.085790478 -0.10265148 0.74614823 -0.02117315307 0.4213421941 0.9066545367
-0.02567151 -0.054940466 0.72087508 -0.1834432632 0.1474705935 0.9719058275
-0.033022169 0.0024728577 0.72787493 0.3150312304 -0.417267859 0.8524335027
-0.094016775 -0.0089974049 0.74373347 0.2287795693 -0.4239840209 0.8762975931
0.031373508 0.044428036 0.74418187 0.2825534344 -0.7396027446 0.6108611822
-0.001683726 0.030951068 0.73860002 0.2747088373 -0.6616350412 0.697691977
-0.024185773 -0.044756174 0.77222228 -0.005419912282 -0.09323552996 0.9956293106
-0.10499127 -0.11642458 0.75073701 -0.3228293657 0.2041546404 0.9241764545
-0.092899777 -0.031809364 0.72088897 -0.4506353736 -0.6814383268 0.5766884089
-0.078376763 -0.052750446 0.71700001 -0.6710819006 -0.277328372 0.6875594854
-0.073140182 0.0019543404 0.74299997 0.2855679095 -0.353651166 0.890719831
-0.074945778 -0.083923765 0.73870474 0.1613637209 0.3593460023 0.9191475511
-0.15494874 -0.13494106 0.72287077 -0.08521383256 0.007113453001 0.9963372946
0.00064522668 -0.060006078 0.73600006 0.5024069548 -0.8644918203 -0.01553032734
-0.036877859 -0.088636257 0.73800004 -0.1655752659 0.610627532 0.7744151354
-0.10948778 -0.055067815 0.73900002 -0.04237630591 0.03201508895 0.9985886216
0.023363166 -0.0022793333 0.78000003 0.1200695708 -0.1014969498 0.9875634909
-0.044696245 -0.044551238 0.72715878 0.1331087351 -0.1172858402 0.9841372371
0.0047609271 -0.014961004 0.77578622 -0.05013858899 -0.1589142382 0.9860184789
0.041295093 0.031234466 0.71733338 -0.07413166016 -0.6809122562 0.7286034822
-0.11503624 -0.094778575 0.7455892 -0.2389681488 0.1059110239 0.96523422
-0.064954765 -0.044774607 0.73176366 -0.03989587724 0.002305834787 0.9992011786
-0.056982763 -0.014464809 0.73118913 0.318552494 -0.235155344 0.9182735085
-0.1453367 -0.11475479 0.72677791 -0.3103744686 -0.07056289911 0.947991848
-0.18062975 -0.1152462 0.73372728 0.2982240319 -0.1662617624 0.9399039745
-0.13256252 -0.034207158 0.74228579 -0.02857483737 -0.07643929124 0.9966647029
-0.12243422 -0.13594589 0.74196148 -0.6194424033 0.06097266823 0.7826707363
-0.035917979 -0.068633027 0.73061532 -0.1486571431 0.5997490287 0.7862582803
-0.1070673 -0.02855128 0.708 -0.2974879444 -0.8635827303 0.40709427
-0.15475816 -0.084744006 0.73086661 0.03168160841 -0.2800465226 0.9594635367
-0.056307919 -0.081725217 0.73618746 -0.01861801371 0.5616429448 0.8271701932
-0.010850064 0.0013562033 0.77350008 -0.115773946 -0.06653152406 0.991044879
0.025245 0.017975815 0.71457684 0.2704460919 -0.4256876707 0.863509655
-0.066982009 -0.11126947 0.75400001 -0.1198123172 0.5512307286 0.8257055879
0.0046584634 -0.034628436 0.77273464 0.04278709367 -0.1500861049 0.9877466559
-0.093394361 -0.026458422 0.7387144 0.1748520583 -0.6025513411 0.7786903381
0.013999171 0.039045379 0.74118191 0.2703184485 -0.7092734575 0.6510446668
-0.15135913 -0.051319189 0.74100006 0.04932692274 -0.1189289093 0.9916767478
-0.092584662 -0.13113074 0.7610001 -0.3740687072 0.2634058595 0.8892074823
0.027747627 -0.024870781 0.74100012 0.7571759224 -0.6243185401 0.1921222955
-0.1391305 -0.13274838 0.7280001 -0.5073862672 0.05320026353 0.8600749373
0.052869655 -0.0028499402 0.71747059 0.3342235982 0.4524818957 0.8267737031
-0.030449264 0.020083556 0.73900002 0.2374315113 -0.6182070971 0.7492972016
-0.094022498 -0.088762499 0.75000006 0.1295757145 0.2871064246 0.9490942955
-0.12425131 -0.074898802 0.74239582 -0.2250711173 0.1298640519 0.9656491876
-0.01890895 -0.0037992226 0.72242868 0.280800581 -0.3146596551 0.9067195654
-0.16088192 -0.15011382 0.72250009 -0.07663623989 0.005953308195 0.9970413446
-0.016000753 0.017320208 0.73159456 0.2766633034 -0.5973830223 0.7527223229
-0.13976872 -0.098284855 0.72800004 -0.4578798711 -0.1461433619 0.8769196868
-0.0098625002 0.038792498 0.75000006 0.255189538 -0.6412090063 0.7236914635
0.006662251 0.022342954 0.72594744 0.3622713983 -0.6485477686 0.6694365144
0.025240155 0.013358397 0.77700001 0.1009694487 -0.09702090174 0.990147531
-0.094576262 -0.064754561 0.74111676 0.06867858022 0.0832760781 0.9941570759
-0.17349096 -0.096973538 0.73688889 0.344840765 -0.2998188138 0.8894906044
-0.071136452 -0.061566763 0.72775006 0.2536147833 0.4223824739 0.8702141047
-0.078925721 -0.038080063 0.7280001 -0.4307242632 -0.4093537331 0.804304719
-0.14509203 -0.064909302 0.73311502 -0.05010276288 -0.1116574779 0.9924829006
-0.078974016 -0.012156987 0.74100012 0.2466120422 -0.3050196171 0.9198616743
-0.042152878 -0.056571525 0.71899992 0.05037447065 0.1337467134 0.9897344112
-0.046098426 -0.0034865285 0.73086113 0.324434787 -0.3323165178 0.8856115341
0.038275268 0.018206613 0.708 0.3886462152 0.2887558639 0.8749709725
0.031565368 0.037977967 0.731125 0.3163819909 -0.7157655358 0.6225609779
-0.11130615 -0.041832954 0.70380008 -0.2886373103 -0.9207716584 -0.2624271512
-0.014493444 -0.055463877 0.76894486 -0.0547327511 -0.37562868 0.9251526594
-0.027184362 -0.046736758 0.73255557 -0.178293094 0.09573601931 0.9793090224
0.033233505 -0.013502711 0.77366686 0.2025160193 -0.1902749687 0.9606158137
-0.17322195 -0.12541255 0.72744828 0.2310665846 -0.1284533292 0.9644210339
-0.012035845 -0.058004379 0.73030001 -0.2338994592 0.2866159379 0.9290545583
-0.085890353 -0.11403178 0.75728577 -0.163714692 0.4248266518 0.8903481364
-0.1305716 -0.10285491 0.741 -0.600302875 -0.09039376676 0.7946479917
0.0065477607 -0.047520787 0.73607153 0.5956742167 -0.7959830165 0.1076257527
-0.14565898 -0.1449817 0.72655165 -0.3529640436 0.1184699163 0.9281062484
-0.088996567 -0.077303588 0.741 0.1749772578 0.1870484352 0.9666415453
-0.12487023 -0.045289584 0.73801798 -0.03555281088 -0.03131796792 0.9988769889
-0.0047497796 -0.025105968 0.77399981 -0.03170901909 -0.1427422166 0.989251852
-0.1168187 -0.12470473 0.74664295 -0.5313100219 0.05344605818 0.8454899192
-0.014904538 -0.035228785 0.77284348 -0.02699024603 -0.1076757982 0.993819654
-0.053361721 -0.034605343 0.72800022 0.1277778149 -0.07579993457 0.9889020324
-0.070352502 -0.099282496 0.75000006 -0.00883129891 0.5164353848 0.8562806249
-0.01495658 0.028096708 0.74168426 0.2589087784 -0.6464082599 0.717720449
-0.026184663 -0.014520722 0.72140002 0.1864899248 -0.09997648746 0.9773567319
-0.064555801 -0.0053806701 0.7371667 0.3002249599 -0.3372284472 0.8922678828
-0.04389111 0.021788498 0.74400008 0.2745865881 -0.5606047511 0.7812327147
-0.11484333 -0.10870666 0.75000006 -0.333445996 0.06263870746 0.9406859875
-0.044627823 -0.015298964 0.72720337 0.2616748512 -0.1367328614 0.955421567
-0.10425787 -0.015995758 0.74300009 0.2728773654 -0.6664757133 0.693792522
-0.1021755 -0.10441101 0.75000006 -0.1557151377 0.1891930699 0.9695147276
-0.044932656 -0.075616457 0.73438001 -0.08190787584 0.5777273178 0.8121097684
-0.11578177 -0.066475555 0.74129021 -0.06892266124 0.126973778 0.9895086288
-0.1058575 -0.087447502 0.75000006 -0.01242097933 0.2504419088 0.96805197
-0.023955209 -0.068450719 0.73200005 -0.2155085355 0.5270639062 0.8220460415
-0.064546205 -0.088106796 0.74225014 -0.01223372761 0.5264834166 0.8500973582
-0.028837949 -0.035246383 0.73100001 0.04484204203 -0.01263346523 0.9989141822
-0.1019804 -0.042357903 0.71300006 -0.295505017 -0.9223425388 0.2489196062
-0.025617953 -0.028988736 0.76900005 -0.02148665488 -0.1014543548 0.9946081042
-0.065069929 -0.074821241 0.73322666 0.2233505398 0.3328799903 0.9161361456
0.028994873 0.030885844 0.71900004 0.2780898809 -0.7137565613 0.6428200006
-0.055501714 -0.053684577 0.72827005 0.1448758394 -0.006074268371 0.9894312024
-0.029311351 -0.08207266 0.74300003 -0.1877238303 0.616376996 0.7647477984
-0.12650873 -0.062606514 0.73900014 -0.123509571 0.03715812787 0.9916474223
-0.046488754 -0.092391223 0.7456668 -0.1187108234 0.580468297 0.805583179
-0.15453099 -0.095163934 0.72743154 0.007976026274 -0.1931966394 0.9811276197
0.010138649 -0.043934152 0.77100003 0.0423979871 -0.1740828156 0.9838178754
-0.14104164 -0.039465781 0.73800004 -0.02134805918 -0.06732194871 0.9975028634
-0.12944685 -0.15026242 0.74200004 -0.5968599916 0.1383772343 0.7903226614
0.014346039 0.004415846 0.77752179 0.009707742371 -0.08916690201 0.9959694147
-0.054369882 0.0036569794 0.73805428 0.3109068871 -0.3954727948 0.8642558455
-0.043293543 0.012215825 0.73853326 0.290509671 -0.5051414967 0.8126722574
-0.16475621 -0.095003128 0.731148 0.2282737345 -0.2304566801 0.9459285736
-0.05824076 -0.02496016 0.7300474 0.2373129725 -0.1312402934 0.9625271559
-0.10551474 -0.06567058 0.73876005 0.008722515777 0.1442381293 0.9895045757
0.016415583 0.050888307 0.74900001 0.2655499876 -0.6996347904 0.6633207202
-0.0077092317 -0.044225909 0.77139992 -0.001788705704 -0.09336352348 0.9956305027
-0.15494661 -0.074785665 0.73403728 -0.06070034951 -0.2305778712 0.9711587429
-0.11920563 -0.032911118 0.73899996 0.06835660338 -0.1087690294 0.9917140007
-0.065218784 -0.034495912 0.73116958 0.0197528135 -0.1791689098 0.983619988
-0.15462269 -0.064963214 0.73709321 -0.001682036789 -0.1717076749 0.9851465225
-0.13494389 -0.074798152 0.73615491 -0.2466488928 -0.04423025623 0.9680950642
-0.16449282 -0.11516412 0.72415495 0.1643365771 -0.1638679504 0.9726976752
0.014966699 -0.014965936 0.77603185 -0.009259046055 -0.1926932186 0.9812153578
0.0047648447 -0.0047633415 0.77624542 -0.06191345304 -0.108098045 0.9922104478
-0.09491954 -0.11513128 0.75265515 -0.247228846 0.3449603915 0.9054723978
0.046068754 0.0027038788 0.7226364 0.3501956165 0.4400556684 0.8268700242
-0.08515802 -0.045240644 0.71589375 -0.5476052165 -0.5172355175 0.6577202678
-0.16509964 -0.13528767 0.72338313 0.03884077445 -0.0755051747 0.9963886738
-0.14542569 -0.12492471 0.72649175 -0.3558883369 -0.008683141321 0.9344881177
0.050003313 -0.01139316 0.72200006 0.2013134956 0.4825412631 0.8524240851
-0.04482273 -0.025328767 0.72678697 0.1761985421 0.01279132999 0.9842715263
0.011935291 0.028365076 0.73199999 0.3507549465 -0.684920907 0.6386347413
-0.11484224 -0.084832892 0.74434358 -0.1545697898 0.2153336108 0.9642300606
0.0058925822 0.042873558 0.74703848 0.2471012473 -0.6650794148 0.7047058344
-0.088757239 -0.05151644 0.708 -0.5584595203 -0.4436887801 0.7009016871
-0.12512203 -0.08472053 0.74337494 -0.3182249367 0.1143513322 0.9410933256
0.042465452 -0.0056379987 0.73160702 0.2013134956 0.4825412631 0.8524240851
-0.15470862 -0.11530863 0.72380269 -0.06020312756 -0.08436402678 0.9946146607
-0.14551045 -0.074973226 0.73146021 -0.1066328734 -0.2226202935 0.9690560699
-0.13495184 -0.094839834 0.73578703 -0.468105197 -0.09623157233 0.8784173131
-0.12514904 -0.095058262 0.74323803 -0.4644114375 0.03103202023 0.885075748
-0.074838497 -0.074902937 0.73508096 0.3316093981 0.2257642597 0.9160053134
-0.11817947 -0.14339432 0.74652636 -0.5967363715 0.08180653304 0.7982565165
0.034915023 0.013347947 0.77625686 0.1200695708 -0.1014969498 0.9875634909
-0.16364685 -0.085709117 0.73451346 0.1679732502 -0.233496204 0.9577392936
-0.16474499 -0.12512515 0.72290915 0.1475810558 -0.1181582734 0.9819666147
-0.035121433 -0.044665191 0.72657877 0.05580821261 0.01406442001 0.9983424544
-0.083264999 -0.067222834 0.73900014 0.2685196996 0.1813431084 0.9460506439
-0.0047519407 -0.014941557 0.7747497 -0.06259448826 -0.1291705966 0.9896448255
-0.004896713 -0.034961097 0.77288681 -0.008567250334 -0.1142299995 0.9934173822
-0.055028684 -0.0052383221 0.73374587 0.3147885799 -0.324819237 0.8918523192
-0.045134049 -0.064749889 0.72387218 0.1044236645 0.2806029916 0.9541266561
0.0047495472 -0.025105204 0.77397943 0.02210407145 -0.1627559066 0.9864187241
0.013959375 -0.033108793 0.77172738 0.05165414512 -0.1803954691 0.9822369218
-0.12309277 -0.022674983 0.73900002 0.4227729738 -0.5025663376 0.7541154027
-0.075135708 -0.094608165 0.74332744 0.05465059727 0.4570267797 0.8877723813
-0.14531161 -0.0846617 0.73090917 -0.2291187644 -0.1987613738 0.9528895617
-0.084729217 -0.024658579 0.73545772 0.06755121797 -0.5775998235 0.8135203123
-0.15497766 -0.12551741 0.72262675 -0.102745235 -0.04274095967 0.9937890172
0.013174985 0.01718281 0.7215001 0.371373266 -0.6460008621 0.6669068933
-0.014921738 -0.025097862 0.77374971 -0.03533934802 -0.1006388217 0.9942951798
-0.021699253 0.010849627 0.72800004 0.2839689553 -0.5169916749 0.8075154424
-0.13490045 -0.1250665 0.73117322 -0.535990715 -0.01957013272 0.8439970016
-0.085725605 -0.086003922 0.74154037 0.16438739 0.297973752 0.940312922
0.023192465 0.037841946 0.73514289 0.3007466197 -0.7370479107 0.6052370071
-0.025291236 -0.063768812 0.72372729 -0.1683215946 0.4503041506 0.876865983
-0.035273273 -0.034749132 0.72364122 0.1292983592 -0.0343429558 0.9910108447
-0.126278 -0.12511934 0.73690015 -0.629147172 -0.03998587281 0.7762570381
-0.055400524 -0.044793088 0.73070377 0.162753135 -0.1065305397 0.9808989167
0.014835049 -0.0049023195 0.77781129 -0.02365438081 -0.1263625324 0.9917020798
-0.015556888 0.0054728044 0.72370672 0.3043644726 -0.5020841956 0.8094897866
0.035123806 -0.0046264627 0.77444452 0.1707625538 -0.156700775 0.9727718234
-0.14455834 -0.055534784 0.73668319 0.02445845678 -0.05392999947 0.99824512
-0.034889482 -0.015221342 0.72353554 0.2376928031 -0.1168344542 0.9642882347
-0.10492477 -0.12493262 0.75352019 -0.4166900218 0.1333704293 0.8992117643
-0.15538475 -0.10496826 0.72620291 0.05626179278 -0.1687006354 0.9840602875
-0.14179976 -0.10669574 0.73015767 -0.4157071412 -0.1434215009 0.898119092
-0.064920709 0.0049833436 0.74135548 0.3104760945 -0.3819541931 0.8704686165
