# .PCD v0.7 - Point Cloud Data file format
VERSION 0.7
FIELDS x y z normal_x normal_y normal_z
SIZE 4 4 4 4 4 4
TYPE F F F F F F
COUNT 1 1 1 1 1 1
WIDTH 206
HEIGHT 1
VIEWPOINT 0 0 0 1 0 0 0
POINTS 206
DATA ascii
-0.10947375 0.051087748 0.92500007 -0.2953805327 -0.07478767633 0.9524479508
0.020557834 -0.1110123 0.93800002 0.7987248302 -0.3791006207 0.4672486782
-0.10338752 -0.071783416 0.94115394 0.3526195586 0.5143009424 0.7817633748
-0.21315604 0.0066360286 0.9028461 0.1321398616 0.5014899373 0.8550128341
-0.0085378569 -0.016223595 0.97400004 -0.6681230068 -0.53471452 0.5173895955
-0.041963115 -0.084022075 0.98133343 -0.3720914125 -0.3501940966 0.8595999479
-0.14428589 -0.014106442 0.92593729 0.007266557775 0.217310369 0.9760755301
-0.065880768 -0.0053361128 0.92617846 -0.4856863022 -0.1858296394 0.8541523218
-0.17147163 0.058492951 0.91400003 -0.1962710023 -0.5836061239 0.7879604101
-0.024521684 -0.051290475 0.92500001 -0.3934019208 -0.2781284451 0.8762873411
0.0130448 -0.096531518 0.99200004 -0.0005434139166 -0.3545681834 0.9350299835
0.023993736 -0.057324901 0.95849979 -0.5987626314 -0.5250769258 0.6047955155
-0.085693039 0.015627712 0.88807124 -0.9347221255 -0.281958878 -0.2163186371
-0.058654513 -0.085354768 0.93485719 0.09956738353 0.682090342 0.7244578004
-0.023599317 -0.11172864 0.95287508 -0.2810015678 -0.9335544705 0.2225177586
-0.16528478 0.015305972 0.9026742 -0.4135482907 0.5134988427 0.7518621683
-0.15777962 -0.046062477 0.95100009 0.307562083 0.4712593853 0.8266317844
-0.093383417 -0.035198137 0.91667998 0.2322498411 0.00203149789 0.9726540446
-0.18466732 -0.022984974 0.9252668 -0.2284575701 0.5671626925 0.7912860513
-0.10505728 0.0050083506 0.92784208 0.04451442137 0.09641808271 0.9943450093
-0.076022089 0.032272726 0.9314211 -0.2461749613 -0.2092378139 0.9463706613
-0.031149721 -0.012031374 0.94000006 -0.4753111899 -0.3669252694 0.7996531129
-0.20270701 0.041889764 0.89671421 0.2022139728 -0.2497351915 0.9469645619
-0.012349078 -0.066615447 0.99199998 -0.277644217 0.02229061909 0.9604253173
-0.13623954 0.035911981 0.90712029 -0.4433850646 0.117308192 0.8886216879
-0.12447535 -0.044222187 0.93411106 0.2419321984 0.3112408221 0.9190201163
0.0066445628 -0.074406415 0.93575013 -0.5159205198 -0.4991721809 0.69617033
-0.071162537 -0.068590403 0.97800004 -0.457479924 -0.2900390327 0.8405887485
-0.06494642 -0.054989655 0.92439991 -0.09717787802 0.1408052891 0.9852564931
-0.0075781988 -0.035903413 0.94660002 -0.6431531906 -0.4569973052 0.6144163013
-0.04386051 -0.05418063 0.98100007 -0.276647836 0.02921271883 0.9605272412
-0.01450343 -0.10326448 0.98616672 -0.2339375019 -0.7527951002 0.6152827144
0.0059341565 -0.10766256 0.96700007 0.09590365738 -0.9661759138 0.2393879294
-0.14487226 0.013682729 0.92210728 -0.2709360719 0.4679476023 0.8412007689
-0.13872373 0.060490001 0.92000002 -0.3030869961 -0.4406018555 0.8449901342
-0.085705772 -0.0042926418 0.90605009 -0.9866905212 0.1545795947 -0.05046764761
-0.04543788 -0.034888711 0.92557114 -0.1756410897 -0.2116504461 0.9614334702
-0.045045085 -0.095719598 0.95477277 -0.440430373 -0.8561952114 0.2700942159
-0.15918127 0.041409176 0.89800006 -0.2811234295 -0.2468746305 0.9273740053
-0.19483916 0.019483916 0.88900006 0.1007375047 0.2996932268 0.9487022161
-0.1198491 -0.013860101 0.93000013 -0.0002522067807 -0.01158098225 0.9999328852
0.014620078 -0.036328644 0.96524173 -0.590143919 -0.5377002358 0.6021699309
-0.047562994 0.0041067842 0.93690914 -0.3969312906 -0.2783211172 0.8746330142
-0.17610148 -0.0040702722 0.91496545 -0.3222729862 0.6285501122 0.7078593373
-0.11502025 0.025107443 0.92395246 -0.2606749535 0.1857498884 0.9473888278
-0.080541119 -0.070778556 0.92800003 0.3164537847 0.5273174047 0.788538754
-0.094811656 -0.014519684 0.92541367 0.216406554 -0.172067374 0.9610208273
-0.0054683546 -0.05516858 0.93616652 -0.5500702858 -0.4319024086 0.7147607803
0.02684704 -0.092744321 0.92800003 0.4388516247 -0.1393929273 0.8876817226
-0.14399436 -0.033395562 0.93590003 0.2998742461 0.3273262978 0.8960652351
-0.074738771 -0.0245081 0.92427009 -0.2590468526 -0.005328844301 0.9658500552
-0.1646906 -0.017587187 0.93000025 -0.1224559322 0.5068237782 0.8533077836
-0.10087979 -0.051253438 0.92800003 0.3862875402 0.3842437565 0.8385336399
-0.17162468 -0.033833023 0.94120008 -0.09296325594 0.575646162 0.8123973012
-0.02924706 -0.097390354 0.97166663 -0.4620584548 -0.7910677791 0.4008911848
-0.065364972 0.014856844 0.93427038 -0.4403061271 -0.319439441 0.8391000628
-0.094792359 0.024606371 0.92538434 -0.1202795953 -0.01509770006 0.9926252365
-0.0045985258 -0.10752644 0.94786662 0.06964398175 0.9531602263 0.2943387926
-0.12487482 0.0048632589 0.92494422 -0.08654116094 0.194305107 0.9771162271
-0.18483114 0.04976223 0.90100002 -0.1250099987 -0.4821543992 0.8671214581
-0.0052179196 -0.085226014 0.99200028 -0.1140330434 -0.1215208024 0.9860168099
-0.19592716 -0.0018182693 0.9069286 -0.07532928139 0.6399655342 0.7647023201
-0.015074034 -0.017120175 0.95571429 -0.6664775014 -0.4980398417 0.5547648668
-0.082673095 -0.052704003 0.91718197 0.1189522073 0.1740763336 0.9775212407
-0.21335283 0.025134342 0.89764702 0.2615879774 0.1796508729 0.9483128786
-0.085079983 -0.082764529 0.94220001 0.3180863261 0.6294340491 0.708966732
-0.024727002 -0.034680497 0.93376321 -0.4365150034 -0.3780453801 0.8164168
0.023226814 -0.074736759 0.94423538 -0.566806078 -0.4803245068 0.6693423986
-0.025119537 -0.084893636 0.98813337 -0.3832625747 -0.1551209092 0.9105203152
-0.18448393 0.034137417 0.88739026 -0.134308666 -0.175954625 0.9751929045
-0.18214555 0.010900298 0.90100002 -0.280471772 0.5455907583 0.7897254825
-0.077880874 0.011125338 0.9065001 -0.9124747515 -0.3519312441 0.2086484879
-0.14499637 0.050806925 0.90711117 -0.3259880841 -0.4223775864 0.8457711935
0.01080404 -0.05900668 0.94800007 -0.5464295149 -0.5107134581 0.6637669206
-0.063185744 -0.082910746 0.97500008 -0.5134010911 -0.5561310053 0.6535576582
-0.087191515 0.042494036 0.92457151 -0.253919661 0.01536615938 0.9671032429
-0.00084335334 -0.031204073 0.96200007 -0.6393825412 -0.5382957458 0.5490242243
-0.025321452 -0.058058936 0.98635727 -0.3326956034 0.05726680532 0.9412938952
-0.046122309 -0.05097729 0.92300004 -0.09319998324 -0.1318898946 0.9868732691
-0.054738924 -0.065006286 0.97566676 -0.256169796 -0.1535418928 0.9543594122
0.0061940886 -0.04424984 0.95420009 -0.5982396603 -0.5168884993 0.6123198271
-0.12494513 0.044854771 0.91363907 -0.4116698205 -0.130717054 0.9019096494
-0.11499561 -0.034574099 0.92592287 0.2084127367 0.1304233223 0.9693058729
-0.16288005 0.0026504137 0.92042863 -0.3468813598 0.5440627337 0.7639823556
-0.044981308 -0.014721071 0.93295234 -0.3560502231 -0.2943442762 0.8868989348
-0.17520486 0.025218341 0.89563435 -0.3246285319 0.2534420788 0.9112537503
-0.13461217 -0.051087748 0.92500007 0.3106034994 0.3713600039 0.8749955297
-0.13211226 -0.030713141 0.92680007 0.1779836863 0.1469998211 0.9729917049
-0.11442424 -0.062188838 0.9375 0.2145773619 0.4270096123 0.878418684
-0.051102214 -0.091129936 0.97150004 -0.4774916172 -0.7056596875 0.523494184
-0.035275631 -0.10386541 0.94781822 -0.3518234193 -0.9009230733 0.2540825307
-0.15470612 0.025142981 0.90287185 -0.4190391898 0.4134053886 0.8083947897
-0.055431742 -0.024539659 0.9258821 -0.2657575905 -0.155025661 0.9514935613
-0.10511761 0.03546223 0.92332447 -0.2761692703 0.07435254753 0.9582287073
-0.12942843 0.028134862 0.91700006 -0.3777045608 0.3123502433 0.8716516495
-0.1320786 -0.0062506334 0.93000013 -0.02552925237 0.1243765429 0.9919066429
-0.034794018 -0.024726106 0.93310261 -0.3652160466 -0.3294924796 0.8706617951
-0.098151594 0.048257869 0.93300003 -0.2899283767 0.02659050375 0.9566788673
-0.014748284 -0.044573311 0.93491673 -0.5187306404 -0.3555336297 0.777505219
-0.064878643 -0.034871735 0.92507106 -0.2004869282 -0.0851546973 0.9759885669
-0.10516102 -0.024658028 0.92584592 0.2086445242 -0.1102648377 0.9717556834
-0.0912911 -0.0620341 0.92700005 0.4047988653 0.461648047 0.7893155217
-0.085063249 -0.014449026 0.91538894 0.248565793 0.1549046934 0.9561483264
-0.041940939 -0.067752413 0.98137504 -0.3314155042 -0.01909998991 0.9432915449
-0.00260896 -0.10001013 0.99200004 -0.04614733532 -0.4163166583 0.9080478549
-0.021629997 -0.021631049 0.9418 -0.5918081999 -0.4253059626 0.6847465634
-0.054419111 -0.094357207 0.94415629 -0.4581586123 -0.8829887509 0.1020862386
-0.067654483 -0.074559994 0.92608351 0.1088654175 0.5271113515 0.8427941203
0.014875904 -0.085160613 0.93534273 -0.1959723085 -0.1361981332 0.9711049795
0.0050948518 -0.11425891 0.94167662 0.1645784229 0.5395886302 0.8256863952
-0.14360438 0.022683354 0.91236377 -0.4191260338 0.4936677814 0.761987865
-0.074619621 -0.045255672 0.92466664 -0.1358583719 0.01524517778 0.9906109571
-0.12420363 0.055933088 0.92085713 -0.3560783565 -0.2386870384 0.903458178
-0.19549437 0.0072760037 0.89737493 0.05422123149 0.5342621803 0.8435781002
-0.1550688 -0.035785023 0.94242322 0.1966697425 0.5276395082 0.8263882995
-0.19531231 -0.011083784 0.91610014 -0.1658702493 0.6351726055 0.7543492913
-0.073947854 0.0047366009 0.92503214 -0.4686655998 -0.3143185675 0.8255642653
-0.15438949 0.05773215 0.91250008 -0.2404515892 -0.5564401746 0.7953347564
-0.082547016 -0.035309315 0.92356527 -0.03967335075 0.03522701561 0.9985915422
-0.17537852 -0.012709218 0.92512506 -0.2584456503 0.5188333988 0.8148728609
-0.15468597 0.014765726 0.91425002 -0.3927927017 0.5438345671 0.7415914536
-0.086827107 0.0049850191 0.89766669 -0.9282357097 -0.1868512779 -0.3216598928
-0.16490151 0.053912956 0.90433335 -0.2333848029 -0.5335630774 0.8129218817
-0.025310418 -0.099733107 0.95600003 -0.3186119199 -0.9049527049 0.2820409238
-0.14601377 -0.044314779 0.9414351 0.3362134397 0.42259112 0.8416514993
-0.20491119 0.014984126 0.89500016 0.1837945431 0.3558182418 0.9163039327
-0.17499755 -0.024667645 0.93362147 -0.2021746486 0.5463214517 0.8128088713
-0.1750733 0.044754285 0.8955431 -0.2317499071 -0.3622381985 0.9028152823
-0.03508427 -0.045210928 0.92427492 -0.249565348 -0.2600003779 0.932800591
-0.15512432 -0.024633225 0.93224335 0.1217478961 0.4618552625 0.8785597086
-0.095390096 -0.00179366 0.93000013 0.2478477806 -0.09348181635 0.9642782807
-0.15495656 -0.0048701749 0.92542839 -0.1592850834 0.3856483698 0.9087923765
-0.037773084 0.0019311504 0.94350004 -0.443022728 -0.3190552592 0.8378153443
-0.055398881 -0.0047880211 0.93194598 -0.3849259913 -0.2519976497 0.887879014
-0.074952744 -0.083633736 0.9365713 0.2662493289 0.6946161985 0.6682960987
-0.032574918 -0.092216477 0.98310006 -0.4886033833 -0.4582192004 0.7424970865
0.022211956 -0.046673 0.96216661 -0.6008462906 -0.5231066346 0.6044362783
-0.012886682 -0.093685381 0.99199998 -0.233632043 -0.2082552463 0.9497609138
-0.17743734 -0.029841732 0.92000002 -0.2130021006 0.562863946 0.798632741
-0.11776931 0.037040222 0.91720009 -0.348105967 0.06854540855 0.9349458814
-0.034317195 -0.074688651 0.98545432 -0.3992370963 -0.03056953289 0.9163379669
-0.0062885247 -0.018674459 0.96344441 -0.664034605 -0.531432569 0.525963366
-0.11514238 -0.0047534127 0.92585689 -0.02084761113 0.08011955023 0.9965672493
-0.075764291 -0.061278246 0.9180001 0.06246091425 0.2862341404 0.9561216831
-0.093114652 -0.072448358 0.93757147 0.379665643 0.5468416214 0.7462025285
-0.067429692 -0.09127678 0.93800002 0.2130619884 0.7276852131 0.6519806385
-0.05510664 -0.045380399 0.92438877 -0.09302774072 -0.1559711844 0.9833711386
-0.11425788 -0.046049327 0.93162084 0.1676350385 0.3263364136 0.9302704334
-0.10635291 -0.014255681 0.92749989 0.07928385586 -0.1167604402 0.9899904132
-0.11499733 0.014578187 0.92377782 -0.156013608 0.2103240639 0.9651028514
-0.082306139 0.0041318759 0.91300005 -0.9947814941 -0.09238750488 0.04329387099
-0.1352535 0.0048571075 0.92385721 -0.1420671493 0.2857090533 0.9477274418
-0.18509941 -0.01046214 0.91800004 -0.2984535396 0.5851932168 0.7539724112
0.012922505 -0.10077503 0.98250008 -0.247272566 -0.8379073739 0.4865876138
-0.13507836 0.053637203 0.91312915 -0.3456219435 -0.2910799682 0.8920862675
-0.09670455 0.014732333 0.92783356 -0.0584249869 0.003196035046 0.9982866645
-0.12921454 -0.017064316 0.92700005 0.03990670666 0.06457643956 0.9971144795
-0.047498859 -0.075963862 0.97799993 -0.2536941767 -0.1419532746 0.9568116665
-0.094901085 0.034879301 0.92524457 -0.2537483871 0.05708966032 0.9655840397
0.0022653067 -0.078632094 0.99440002 -0.09423344582 -0.08071623743 0.9922726154
0.011544297 -0.10637034 0.94060004 0.7061754465 -0.2518683672 0.6617239118
-0.073764779 -0.014429761 0.92270988 -0.3478368819 0.03692791983 0.9368275404
0.01684892 -0.094880596 0.93299997 0.3199578822 -0.001283026184 0.9474309087
-0.17444666 0.035201911 0.89234716 -0.2399559021 -0.1241843477 0.9628080726
-0.11520374 -0.024337508 0.92541641 0.06669361889 -0.02222376131 0.99752599
-0.134426 -0.044927724 0.93426812 0.3368999064 0.3512355387 0.8735743165
-0.17468414 0.053624526 0.90257698 -0.2345373631 -0.4584088326 0.8572360277
-0.044162851 -0.092549145 0.96412504 -0.4171390533 -0.8225620389 0.3865056932
-0.1250995 0.014757346 0.92442083 -0.1829768866 0.2971448898 0.9371362329
0.017092368 -0.063221574 0.95428592 -0.5652773976 -0.5054668784 0.6518931985
-0.105216 0.024826692 0.92472076 -0.2331075221 0.1647305042 0.9583969712
-0.14533952 -0.024499252 0.9313826 0.1539710909 0.3288822174 0.9317346215
-0.063970812 0.0055810059 0.93158346 -0.5141423345 -0.3034571409 0.8022290468
-0.015437774 -0.10639835 0.95288903 -0.225223586 -0.95671767 0.1842975765
-0.055142339 -0.034869418 0.92499959 -0.1226415709 -0.1382040083 0.9827811122
-0.13489577 0.020815134 0.92030001 -0.3177549839 0.4399067163 0.8399487138
-0.017620875 -0.073993124 0.98852402 -0.2861421108 0.007670420688 0.9581564665
-0.078931384 0.015217356 0.8950001 -0.9379556179 -0.3168414533 0.1408925951
-0.06797611 -0.064090729 0.92310011 -0.01946130767 0.3665263951 0.9302040935
-0.14840212 0.060490001 0.92000002 -0.278319627 -0.5126731992 0.8122218847
0.0048306491 -0.065019831 0.93712181 -0.5420609713 -0.4739127159 0.6939572692
0.0041122884 -0.10303958 0.98576492 -0.2171221972 -0.721134007 0.6578933597
-0.11516491 0.0048648426 0.92513859 -0.05061501637 0.1531316191 0.9869087338
-0.064873323 -0.04541133 0.92499965 -0.1452343017 -0.0753396675 0.9865247011
-0.16578197 0.026011935 0.89718539 -0.3924514055 0.2881014049 0.8734869361
-0.086102121 -0.023613863 0.91789633 0.1402534842 -0.03534900025 0.9894844294
-0.035282109 -0.095918946 0.96400005 -0.4238896966 -0.8367318511 0.3466949463
-0.10557161 -0.03510993 0.92489976 0.2570512891 0.04418913275 0.9653869271
-0.17526953 0.0052010976 0.90421623 -0.3507122695 0.5943864584 0.7236751318
-0.15360455 0.034525629 0.90138477 -0.379142195 0.1471595913 0.913561821
-0.06488546 -0.024332618 0.92516637 -0.2664713562 -0.04835460335 0.9626291394
-0.045514699 -0.0054139765 0.93458337 -0.3857634962 -0.2937483788 0.8745847344
-0.081442624 0.024599753 0.9321112 -0.1929539889 -0.1609593928 0.9679157138
-0.13376626 0.04487744 0.90828574 -0.3644891977 -0.2209073007 0.9046256542
-0.057227775 -0.015536932 0.92768437 -0.3091628551 -0.1844758689 0.9329453111
-0.10552293 -0.0049419114 0.92727011 0.008143865503 0.005433929153 0.9999520779
-0.10441571 -0.063839816 0.93642855 0.3663361669 0.499137193 0.7852769494
-0.14433452 -0.0048654513 0.92494416 -0.07368193567 0.2237936258 0.971847415
-0.12400991 -0.05333259 0.93588877 0.2530724108 0.3955807984 0.8828760982
-0.033574816 -0.057842065 0.98209101 -0.3336997628 0.04785892367 0.9414637685
-0.19428015 0.045162085 0.89464545 0.05638600141 -0.2635595202 0.9629938006
-0.096261635 -0.024340583 0.92330772 0.2434810698 -0.1363295466 0.9602766633
-0.0067513492 -0.026438976 0.95673692 -0.6580269337 -0.5331878066 0.5317060947
0.011950135 -0.10327864 0.97366673 -0.01509727258 -0.942281723 0.3344805241
-0.1649241 0.034939259 0.89487213 -0.3263091147 -0.0440040715 0.9442383051
-0.074226744 0.01587077 0.93212509 -0.2742628455 -0.2192391157 0.9363301396
