# .PCD v0.7 - Point Cloud Data file format
VERSION 0.7
FIELDS x y z normal_x normal_y normal_z
SIZE 4 4 4 4 4 4
TYPE F F F F F F
COUNT 1 1 1 1 1 1
WIDTH 206
HEIGHT 1
VIEWPOINT 0 0 0 1 0 0 0
POINTS 206
DATA ascii
-0.063881539 -0.067339547 0.81716681 0.4714262486 -0.6751636863 0.5673722625
-0.23036432 -0.068879701 0.87300003 0.3696977198 0.2107211351 0.9049420953
0.081086405 -0.10155482 0.89800006 -0.08900412917 0.6953058839 0.7131816149
-0.044635698 -0.14721884 0.89325005 -0.6971216798 0.6288006306 0.3444286883
-0.13508652 -0.017930727 0.88560009 -0.1699709743 -0.9024932384 0.395747155
-0.0078987665 -0.04028371 0.90100002 0.2411508113 0.2994259894 0.9231415391
-0.14385241 -0.12052852 0.88699996 0.09400559217 0.6285334229 0.7720807791
0.045859937 -0.076272875 0.82605559 0.056938719 -0.2967027724 0.9532709122
0.021114079 -0.13422687 0.86016661 0.598862648 -0.420399785 0.6816359758
0.060347978 -0.039970741 0.89400005 -0.4032967687 -0.7140160799 0.5723047853
-0.086987831 -0.10886008 0.86033338 0.7413499355 0.2775888741 0.6110194325
0.0048098522 -0.10500798 0.91438133 0.05550730973 -0.1609662473 0.9853978157
-0.0072862953 -0.048199523 0.83881831 -0.2094493657 -0.565320313 0.797837019
-0.15907994 -0.067854002 0.86000001 0.1855469346 0.3901556432 0.9018597007
-0.19560659 -0.021732742 0.8854 0.1606206 -0.8369668722 0.5231515169
-0.0859484 -0.033927001 0.86000001 0.08993509412 -0.7714074254 0.6299542189
-0.026728423 -0.10382552 0.85199994 -0.3674137592 0.4417361617 0.8184596896
-0.19383338 -0.10349288 0.88230002 0.02834483609 0.5267648101 0.8495383859
0.053053237 -0.12282187 0.82900006 0.3749911785 0.03372576088 0.9264147282
-0.11089921 -0.070707552 0.84900004 0.1006705016 0.299685657 0.9487117529
-0.10132864 -0.13117738 0.89600003 0.1891118437 0.6962448955 0.6924447417
0.028025281 -0.050748479 0.86400002 -0.2668734789 -0.8923277855 0.3640462756
0.064774424 -0.075691484 0.86736369 -0.7721614838 -0.2508222163 0.5838277936
0.041724075 -0.12044874 0.89800006 0.1175545305 -0.3308753073 0.9363238811
-0.056623459 -0.13266012 0.84616667 0.1398414671 0.6258869171 0.7672743201
-0.046353653 -0.039224207 0.85133326 0.1473201513 -0.7301100492 0.6672601104
0.031513013 -0.077122822 0.90320003 0.1003542617 0.26440382 0.9591765404
-0.022517039 -0.075630181 0.9065001 -0.01247147657 0.2280950695 0.9735589623
-0.19463116 -0.054101914 0.85800004 0.0271496214 0.01098099165 0.999571085
-0.097450361 -0.028178891 0.89566678 -0.2375837415 -0.9383698702 0.2510297894
-0.12564521 -0.037569221 0.85584629 -0.008355006576 -0.6119759083 0.7908322811
-0.16488805 -0.027289825 0.86580026 0.06125671044 -0.7608547807 0.6460244656
-0.013859515 -0.14041276 0.86266667 -0.2170964181 -0.7350004315 0.6423733234
-0.058937423 -0.088779159 0.85100001 0.3335314393 -0.3416431844 0.8786562085
0.025047941 -0.034980346 0.89473337 0.05538548529 -0.9039687514 0.4239964485
-0.13400397 -0.094211318 0.8681429 0.2204399705 0.478818953 0.8497874141
-0.027336169 -0.073831879 0.83476472 -0.2130822688 0.5044960976 0.8367076516
-0.02519615 -0.12422068 0.90493113 -0.3576101363 -0.6523022652 0.6682939529
0.072039381 -0.098315179 0.82340002 0.208472997 0.04622992873 0.9769349098
-0.036931396 -0.12228756 0.87492877 -0.1463095546 -0.4659553468 0.8726277351
-0.16497724 -0.095153093 0.8752895 0.01602115668 0.4194254279 0.9076483846
0.0023143999 -0.1226632 0.88000005 0.1543107629 -0.9470300078 0.2816422284
-0.076092996 -0.055406265 0.84271443 0.2934637368 -0.506603241 0.8106985688
-0.11314785 -0.11138851 0.87800014 0.1680011153 0.6985607743 0.6955490708
-0.21431331 -0.035371549 0.86680651 0.4025500417 -0.529512763 0.7467058897
0.080093145 -0.059097853 0.88700002 -0.763643682 -0.377355963 0.5238805413
0.0036415861 -0.068088509 0.90310001 0.0676844269 0.2993251085 0.9517474771
-0.083191112 -0.07837715 0.85799998 0.07798717916 0.4927632809 0.8666616082
-0.048460204 -0.10789786 0.83500004 -0.4118249118 -0.008938699961 0.91121912
0.015847227 -0.062803805 0.84384227 -0.2647850513 -0.7821635604 0.5640115738
-0.20409949 -0.084639557 0.86796159 0.09087754786 0.46613428 0.8800341487
-0.070495397 -0.09302485 0.82900006 0.644821167 0.4154113233 0.6415910721
-0.13471705 -0.065181062 0.85312206 0.1771577597 0.3154482245 0.9322593808
0.056526542 -0.052813172 0.87315798 -0.4696246684 -0.6549826264 0.5919885039
-0.11227294 -0.03087059 0.87600005 -0.2330607772 -0.9106585979 0.341150403
0.034405366 -0.11806098 0.84700006 0.7592152953 -0.1481421739 0.6337555051
-0.035868499 -0.051116917 0.83190918 0.06139651313 -0.637144506 0.7682951093
0.041483864 -0.099720836 0.91000003 0.1844990253 -0.1087790951 0.9767943621
-0.10510139 -0.047712903 0.84892625 0.03507711366 -0.3119256794 0.9494587779
0.014027636 -0.12268566 0.90226305 0.01702270098 -0.8137014508 0.5810337067
0.044803366 -0.0987131 0.83100003 0.06267267466 0.08364129812 0.994523108
-0.15515642 -0.044970874 0.85500008 0.1069919616 -0.1109578311 0.9880491495
-0.10543259 -0.095510714 0.86131448 0.1995512247 0.3683313131 0.9080260992
-0.023269685 -0.10282495 0.91245455 -0.0861280188 -0.1277810186 0.9880556464
-0.055587858 -0.14716481 0.87340003 -0.5890676975 0.6963415742 0.4100093544
0.045130927 -0.062672868 0.84395236 -0.3944364786 -0.7876664996 0.4732878506
-0.088718668 -0.11957733 0.88000005 0.4172029197 0.6812310815 0.6015529633
-0.1847133 -0.074840561 0.86427903 -0.103685081 0.3839907646 0.91749686
-0.032713745 -0.12693468 0.85382342 -0.2985901237 -0.1958476156 0.9340704679
-0.18546875 -0.033342265 0.86116672 0.1232144535 -0.5977461934 0.7921601534
-0.074341454 -0.11501843 0.8435716 0.5382606983 0.2715757489 0.7978233099
-0.17459659 -0.01678196 0.88484007 0.09473062307 -0.8735381365 0.4774487317
-0.045989931 -0.10932034 0.86000001 -0.6264979243 0.1278765202 0.7688614726
-0.040925428 -0.068209052 0.81900007 -0.5018476844 0.4006337225 0.7665777802
-0.17471339 -0.11247614 0.88482368 0.02766374499 0.4796589017 0.8770188689
0.0761564 -0.08470317 0.88641673 -0.8947612047 0.04681888595 0.4440838099
-0.058065139 -0.061563041 0.79800004 0.2245534807 -0.789989531 0.5705192685
-0.12407639 -0.12381513 0.89200002 0.1356764734 0.6928886175 0.7081647515
-0.070869729 -0.13796979 0.86000001 0.5183596611 0.7338961363 0.4389757812
-0.21638107 -0.055006299 0.86150002 0.4058488607 -0.08468341827 0.9100084901
-0.066254809 -0.038930431 0.85400003 0.11488083 -0.6652474403 0.7377318144
-0.14502023 -0.026645044 0.86517251 -0.05662167072 -0.7851724029 0.6166833043
0.0068145492 -0.044008229 0.88850003 0.5417400599 0.1718169451 0.8227980733
-0.054903172 -0.054895602 0.8350001 0.2038443387 -0.6615636349 0.7216516137
-0.0048014596 -0.084731899 0.90900004 0.003722153604 0.2495467812 0.9683555961
-0.08306928 -0.072673328 0.83733326 0.7542839646 0.3271403909 0.5692406297
-0.1554274 -0.016107433 0.88450009 -0.02939320542 -0.8865771294 0.4616459906
-0.0050516902 -0.12209262 0.90299994 -0.006246112287 -0.8212753534 0.5704978108
-0.17554314 -0.053887885 0.8576923 0.05379147455 0.1201797202 0.9912937284
-0.014514189 -0.12350762 0.87144458 -0.3689574301 -0.8066740036 0.4616790116
0.03526416 -0.042212233 0.88083339 -0.08641157299 -0.8699250817 0.4855547547
0.015228773 -0.084173813 0.90900004 0.07719659805 0.2615171373 0.9621067643
-0.019013321 -0.057619967 0.8278001 -0.2069128603 -0.3279522061 0.9217561483
-0.045007382 -0.077679388 0.83855563 0.122471936 0.6885229349 0.7147984505
-0.091763332 -0.06042951 0.85100001 0.3324842751 0.02138980106 0.9428662062
0.0055132401 -0.14139435 0.86620009 0.184741199 -0.7782291174 0.6001917124
0.06240759 -0.087526001 0.83390909 0.1111466661 -0.1258781254 0.9857997298
0.024820203 -0.10488501 0.91328549 0.103766039 -0.1650837213 0.9808057547
-0.12462725 -0.077598721 0.86035287 0.2280959934 0.4457813203 0.8655930161
-0.11385263 -0.022613805 0.89392853 -0.2635506094 -0.9156453609 0.3035368919
-0.16798687 -0.078648396 0.87100005 0.05494723842 0.4082901776 0.9111969471
0.049062647 -0.061895296 0.86100006 -0.4843995273 -0.796372056 0.3621444702
0.071012631 -0.090865619 0.87100005 -0.8529922962 0.04934494197 0.5195856094
-0.10465153 -0.034083255 0.86176467 -0.08165812492 -0.8864016533 0.45565781
0.025698313 -0.11868868 0.86233336 0.6135816574 -0.400608778 0.6804631948
0.017179159 -0.048549801 0.852 -0.2515729666 -0.870274961 0.4234766662
0.016895119 -0.046843808 0.87600011 -0.02178021893 -0.9578203559 0.2865409851
-0.048891701 -0.14065766 0.85800004 -0.1505553722 0.8713706136 0.4669542909
-0.14542297 -0.076464124 0.8617143 0.2081986517 0.4544676244 0.8660903573
-0.15484306 -0.10655696 0.88076907 0.05393276736 0.5210363269 0.8518288732
-0.18516734 -0.089338467 0.87100005 -0.05834276974 0.4653557241 0.8831987977
-0.0592051 -0.082035832 0.81366676 -0.3399929702 0.7228887081 0.6015286446
-0.044674799 -0.094273835 0.84712142 0.1176521555 0.4346336722 0.8928894401
0.0455596 -0.034782216 0.89499992 -0.1668305397 -0.8511768579 0.4976600409
-0.081318721 -0.12682736 0.85100001 0.6463231444 0.4934613109 0.5820329189
0.065177687 -0.11161939 0.8276667 0.270778358 -0.01200753916 0.9625668526
-0.18468304 -0.024475541 0.87382621 0.1414758563 -0.8101528287 0.5688910484
-0.06198084 -0.10194031 0.85771424 -0.05798013881 -0.5027686954 0.8624743223
-0.22678226 -0.049632482 0.87100005 0.45995754 -0.1738806516 0.870749414
-0.12492568 -0.055026218 0.84822255 0.1286344528 -0.008806355298 0.9916529655
-0.21499179 -0.075124793 0.86466694 0.3076643944 0.3306465149 0.8921970129
-0.20530255 -0.064436495 0.85899991 0.1826706678 0.2172267884 0.9588763714
0.070813626 -0.066195346 0.87800002 -0.7438231707 -0.2870258987 0.6036085486
-0.12796089 -0.029365351 0.86780006 -0.1724189073 -0.8395905495 0.5151305199
0.027860468 -0.091541536 0.90800005 0.1368112713 0.1245837212 0.9827316999
-0.028753789 -0.086998641 0.84100002 0.09337218106 0.601883471 0.7931064963
0.036040641 -0.13018763 0.83900005 0.7311910391 -0.2926902175 0.616191566
-0.087204956 -0.092231177 0.86000007 0.04519909248 0.2196291834 0.9745358229
-0.097837761 -0.032406509 0.87600005 -0.2017202675 -0.9334811568 0.2965162396
-0.20477515 -0.027736939 0.87454551 0.2471559197 -0.7521640062 0.6108708978
-0.14711578 -0.088829421 0.87100011 0.2171903104 0.4660027623 0.8577119708
-0.14471479 -0.054823816 0.8541702 0.2319353372 0.07342047989 0.969956398
-0.065036111 -0.10387326 0.83666664 -0.692266345 0.1200311556 0.711589694
0.036089726 -0.073989123 0.83630782 -0.2088870257 -0.6676901579 0.7145320773
-0.13963546 -0.1087768 0.88000005 0.1329508722 0.6097305417 0.781378746
-0.044947121 -0.12498568 0.84330761 -0.4022956789 0.2762461305 0.8728380799
0.072344676 -0.047617607 0.89377773 -0.5972613096 -0.5665216446 0.567743063
-0.12510201 -0.10603174 0.87325007 0.1902309507 0.6238291264 0.7580563426
-0.0535625 -0.072942607 0.82460004 -0.420609951 0.8567842245 0.2983421981
-0.00220657 -0.061048437 0.83900005 -0.301589638 -0.02084675245 0.953209877
0.066343263 -0.053581659 0.88279998 -0.5592937469 -0.5745791197 0.5975360274
-0.071567491 -0.072902992 0.82715392 0.7542262673 -0.04039341956 0.6553710103
-0.11334743 -0.084338963 0.85623533 0.21780321 0.4212241769 0.8804157972
0.031333819 -0.13503385 0.85100001 0.7163681984 -0.3325218856 0.6133887768
-0.05700735 -0.11605248 0.84187996 -0.2106225342 0.0307122767 0.9770848751
0.012990739 -0.12302994 0.87166673 0.2550742626 -0.928447485 0.270041436
0.0047838637 -0.046789374 0.84475762 -0.2583736479 -0.844130218 0.4697736502
0.025573798 -0.11668622 0.90590018 0.1099220738 -0.4366238713 0.8929035664
-0.095550597 -0.07708855 0.85299999 0.009299492463 0.4632974565 0.8861540556
0.035672735 -0.054255579 0.8536666 -0.3325993121 -0.8421109319 0.4245314002
0.081178896 -0.072615176 0.88824999 -0.8805637956 -0.08276616037 0.4666446149
-0.079826638 -0.10295398 0.85100001 0.6264716387 -0.2001950145 0.7532962561
-0.035802029 -0.04286119 0.84436375 0.08856719732 -0.7136360407 0.6948952675
-0.085597083 -0.044164971 0.85177767 0.1364112794 -0.4955994189 0.8577722311
-0.10473257 -0.12271383 0.88665205 0.2055245787 0.7006564736 0.6832569838
-0.13510798 -0.045656305 0.8520627 0.1153719649 -0.3143400252 0.9422736764
-0.022736348 -0.088153228 0.91000003 -0.01185670309 0.139857918 0.9901005626
0.055248957 -0.043957248 0.88277406 -0.3587833941 -0.7470192909 0.5596754551
0.052861121 -0.069193169 0.83585709 -0.4681508541 -0.6705581546 0.5754880905
-0.088058978 -0.13150658 0.88500005 0.5833717585 0.6042864919 0.5426926017
-0.16493355 -0.036665488 0.85687512 0.08226122707 -0.3456063569 0.9347670078
0.040990304 -0.087799914 0.90500003 0.1350828111 -0.02124171145 0.990606606
-0.02506776 -0.045553755 0.83635134 -0.04904896393 -0.6889295578 0.723166883
-0.20476282 -0.046174154 0.85799986 0.2331219465 -0.3099499047 0.9217294455
-0.055337425 -0.045113795 0.84466672 0.1696976423 -0.7050167322 0.6885885
-0.11400036 -0.10225203 0.8685714 0.2286617607 0.6068384647 0.7612232566
-0.15523979 -0.022436617 0.87360013 -0.01706720889 -0.8475381136 0.5304600596
0.014892709 -0.11242643 0.91105884 0.08135476708 -0.3364196718 0.9381914735
-0.17487311 -0.065015972 0.86353672 0.004190374631 0.3669222295 0.9302421808
0.044903174 -0.048276931 0.87555009 -0.2371028662 -0.813144505 0.531580925
-0.066889226 -0.12873347 0.85249996 0.1497203857 0.5782933831 0.8019729257
-0.0050005065 -0.11260883 0.91262507 0.03498726338 -0.3149866462 0.9484509826
-0.10542993 -0.028175665 0.88609099 -0.243076399 -0.9288206697 0.2796533406
-0.14499035 -0.035809044 0.85672742 0.03410485759 -0.5662370324 0.8235365748
-0.024684137 -0.12415688 0.86293751 -0.4778356254 -0.7904517055 0.3832222223
0.044678438 -0.11474349 0.83321738 0.572016716 -0.06283897907 0.8178313375
-0.18587205 -0.062765233 0.85799986 -0.02987482026 0.2511534393 0.9674861431
-0.18503632 -0.045130797 0.85799986 0.07126604766 -0.1061574668 0.991792202
-0.17530221 -0.10102488 0.87800014 0.0006031149533 0.4405805469 0.8977128863
-0.12525278 -0.11495727 0.88386494 0.1316254139 0.6688089371 0.7316893935
0.054964464 -0.084603511 0.82485723 0.08179011941 -0.1468996704 0.9857640862
-0.21188524 -0.091770694 0.8738001 0.2090866864 0.498721391 0.8411657214
-0.052179199 -0.15163703 0.88400006 -0.3658713996 0.864558816 0.3444939852
-0.015150393 -0.11684097 0.90666682 -0.05259400234 -0.4126371443 0.9093758464
-0.12433112 -0.022679785 0.88352376 -0.2379584908 -0.900423646 0.3641607165
0.054668855 -0.10501082 0.8289547 0.2308731675 0.0388809666 0.9722067118
-0.11520978 -0.041961711 0.85123068 0.02306425758 -0.4417796135 0.8968271017
-0.034490742 -0.11413416 0.86675006 0.4683431089 0.5960940123 0.6521707177
-0.19513044 -0.094684802 0.87431574 -0.01957246289 0.4877658188 0.8727550507
0.033662595 -0.062519044 0.84199989 -0.2478656322 -0.8074869514 0.5352826118
0.02474854 -0.055448607 0.84495455 -0.2495037466 -0.8104219437 0.5300605297
-0.1936837 -0.029445773 0.86866665 0.159557879 -0.751501739 0.6401455998
-0.024403945 -0.13456191 0.85535032 -0.3306165934 -0.391254425 0.8588438034
0.004943714 -0.11778795 0.9070437 0.01542760618 -0.6725444794 0.7398958802
-0.014391067 -0.067713439 0.90633339 0.01544803753 0.2856619954 0.9582059383
-0.065347388 -0.051871054 0.84224999 0.2163396776 -0.6218678355 0.7526470423
0.034303967 -0.11088957 0.91000003 0.1330035329 -0.2508951128 0.9588335156
-0.1741586 -0.031288233 0.86000007 0.05685214326 -0.6278771758 0.7762332559
-0.093704268 -0.11046438 0.86900002 0.2438597679 0.6559143662 0.7143589854
-0.11560124 -0.032688063 0.8625294 -0.1359639913 -0.8455544114 0.5162862539
-0.13525663 -0.024834367 0.87469566 -0.1824370623 -0.8708549142 0.4564301074
-0.059560735 -0.13947767 0.86000001 0.1142310947 0.7911637425 0.6008420587
-0.16468304 -0.054247044 0.85713518 0.09076368809 0.1295181066 0.9874143004
-0.085628122 -0.062585548 0.84228003 0.4644815922 -0.07225583494 0.8826301098
0.076824926 -0.10698051 0.81900007 0.2035310715 0.03897652775 0.978292346
-0.15606418 -0.031288233 0.86000007 0.04399229586 -0.655089736 0.7542693019
