# .PCD v0.7 - Point Cloud Data file format
VERSION 0.7
FIELDS x y z normal_x normal_y normal_z
SIZE 4 4 4 4 4 4
TYPE F F F F F F
COUNT 1 1 1 1 1 1
WIDTH 206
HEIGHT 1
VIEWPOINT 0 0 0 1 0 0 0
POINTS 206
DATA ascii
-0.052109074 -0.14866936 0.72783345 0.2108474076 -0.5435968637 0.8124320507
-0.1521661 -0.29130685 0.70749998 -0.1904947013 0.06304117292 0.9796620011
0.063853234 -0.13581496 0.71390241 0.2816004753 0.172275722 0.9439397454
-0.059114508 -0.25464714 0.74100006 -0.229594335 0.5326687694 0.8145860434
-0.13732283 -0.19287598 0.72010541 0.0072451788 -0.2070568055 0.9783021212
0.010340721 -0.20181087 0.76100004 0.5439312458 -0.7076181173 0.4510159194
0.0036298151 -0.10199846 0.76363164 0.2106835544 -0.8490715623 0.4844480753
0.045037348 -0.14753276 0.77553141 0.1245222017 -0.3148723841 0.9409301877
-0.027354496 -0.20198543 0.70792317 -0.1490520686 0.01945467852 0.9886379242
-0.1169524 -0.24528034 0.72539586 -0.6315467954 -0.0243028421 0.7749567628
-0.081834361 -0.19710727 0.72463638 0.2727698088 0.2005732358 0.9409394264
0.0049243411 -0.13527551 0.72243285 0.2984712124 -0.6147212386 0.7300909162
-0.1646037 -0.23558229 0.71619356 0.3007780313 -0.2757899463 0.9129471183
0.043478869 -0.17357482 0.73422217 0.7314083576 -0.6817661524 0.01538643893
-0.0013528428 -0.1572724 0.77216673 -0.0741185993 -0.2691787779 0.9602339268
-0.10252675 -0.15850893 0.73400003 0.07371624559 -0.4194419086 0.9047842026
0.044577185 -0.11151551 0.74500006 0.06089740619 -0.8965119123 0.4388141632
-0.096020378 -0.28149623 0.73864281 -0.5146548748 0.07029565424 0.8545109034
-0.032665916 -0.1245145 0.75650001 0.3163279891 -0.8293361068 0.4605846405
-0.027774455 -0.23197739 0.73300004 -0.1334457695 0.588568449 0.797357738
-0.018099494 -0.16338122 0.71666658 0.1359502077 -0.1792763025 0.9743600488
0.0064317128 -0.19855116 0.72488898 -0.3738661408 -0.08419453353 0.9236533046
-0.020681443 -0.18613298 0.76099998 -0.6097871661 -0.2437964231 0.754137218
-0.086061388 -0.23400818 0.73034132 0.05853648856 0.2563839555 0.9648008943
-0.055454131 -0.21688645 0.72091424 0.1913543791 0.3965159953 0.8978633285
-0.12392002 -0.27526605 0.7138198 -0.6550093889 0.04849139974 0.754063189
-0.090952411 -0.17637393 0.70100003 0.2886029184 -0.4780019522 0.8295917511
0.024899516 -0.1749758 0.76767856 0.02553177811 -0.3367005885 0.9412655234
-0.14492935 -0.25515744 0.70278633 -0.03074087948 -0.1399401128 0.9896826744
-0.13462332 -0.22477993 0.71159661 -0.3186677694 -0.2330836952 0.918761611
0.035604995 -0.12520707 0.71657127 0.1083592623 -0.6567832232 0.7462533712
-0.054185729 -0.18540555 0.72094744 -0.1147235334 -0.2326532602 0.9657696486
-0.10913256 -0.18510948 0.72460008 -0.08514060825 -0.1960779279 0.9768851399
-0.075129725 -0.16489688 0.7262637 0.1347070932 -0.4512685537 0.8821625113
-0.023920637 -0.13822447 0.72759998 0.2508320212 -0.585526824 0.7708706856
-0.10529016 -0.21467918 0.72385943 -0.1625100821 0.1777400374 0.9705663323
-0.17115544 -0.26182732 0.71166664 0.2631082833 -0.1392095536 0.9546699524
0.032301221 -0.098245963 0.7653572 0.1151633337 -0.8672092557 0.4844435155
-0.0062209512 -0.12087394 0.7412858 0.2802754641 -0.7865065932 0.5503208637
-0.075056694 -0.2712512 0.75099999 -0.3063081205 0.3798855841 0.8728471994
-0.018121136 -0.18836425 0.72550011 -0.1693348587 -0.1201203093 0.9782110453
0.054995496 -0.15508389 0.7248475 0.2578374147 0.2898126841 0.9216986895
-0.15569602 -0.21397683 0.72000015 0.1925226152 -0.2839088738 0.939324677
-0.071055241 -0.19091661 0.70480001 -0.2108665258 0.1156229153 0.9706526995
-0.09522254 -0.25505781 0.73452729 -0.2375907451 0.1861368567 0.9533644319
-0.011797478 -0.20717597 0.75599998 0.3587293923 -0.8531630635 0.3787163198
0.015642732 -0.11760326 0.73563164 0.2382403165 -0.8018028736 0.5480453372
0.027443172 -0.19082579 0.72800004 0.6359431744 -0.7705780268 -0.04225867987
0.019048214 -0.14898424 0.77600002 -0.0112838326 -0.3436809182 0.9390186667
-0.016453382 -0.21568531 0.7218076 -0.2731741965 0.5269809365 0.8047775626
-0.083210759 -0.14894439 0.73833328 0.1425830722 -0.4681426287 0.87207371
-0.1209537 -0.16831124 0.73000002 -0.02769064717 -0.3146684468 0.9487976432
-0.044522781 -0.13356993 0.74162948 0.2480072677 -0.7853991985 0.5671336055
-0.065346703 -0.23486151 0.72680008 -0.01174878329 0.3715487421 0.9283391237
-0.035240587 -0.17492354 0.71775007 0.115719974 -0.04588168114 0.9922216535
-0.12703344 -0.24704131 0.70796013 -0.5716441274 -0.1419615299 0.8081274033
0.051660649 -0.11862571 0.72750008 -0.2264929861 -0.7950921655 0.5626094341
-0.10817716 -0.26964512 0.72800004 -0.6287075281 -0.02338206768 0.7772902846
-0.11684319 -0.29091448 0.72360003 -0.6517754793 0.07841673493 0.7543471456
-0.074845441 -0.21518342 0.72482574 0.1707739085 0.1332848817 0.9762537479
0.0047142124 -0.17509831 0.76821464 0.002403812483 -0.2877772748 0.9576943517
0.045215204 -0.16498707 0.76751298 0.2687934339 -0.4899444878 0.8292794824
-0.13209996 -0.29237038 0.71109098 -0.4357003272 0.1952304691 0.8786638975
-0.1222342 -0.20663354 0.72126329 -0.2487679124 -0.05710690841 0.9668781161
-0.035259277 -0.15493575 0.72192305 0.204547599 -0.3436442912 0.9165527225
-0.14489636 -0.27516261 0.70121551 -0.1361652464 0.05846004933 0.9889597893
-0.012907309 -0.11037336 0.76150006 0.3365100622 -0.8085439801 0.4827190042
-0.0454918 -0.20356441 0.71170449 0.1956730038 -0.08405259997 0.9770604968
-0.047469158 -0.24227704 0.73500007 -0.1673779786 0.5294434428 0.831669569
-0.07650172 -0.25323367 0.73804772 -0.1909922659 0.4664122462 0.8637022376
-0.033646215 -0.21893299 0.72028583 -0.07187973708 0.6016843319 0.7954930663
-0.094616786 -0.17254154 0.72709364 0.1953345537 -0.5056212544 0.8403520584
-0.074520327 -0.18155451 0.72090924 -0.1575368047 -0.5015180707 0.8506831527
-0.061222456 -0.13896526 0.73900002 0.2244935036 -0.6006109715 0.7673780918
0.025693268 -0.10843474 0.74636364 0.1152724251 -0.8776370287 0.4652585387
-0.054378666 -0.16490611 0.72237319 0.1405745894 -0.2708351314 0.952306211
-0.10625511 -0.23222999 0.72794998 -0.209570393 0.1603199989 0.964560926
-0.011340853 -0.14805673 0.71866673 0.21307832 -0.4441236556 0.870259583
0.022182515 -0.19096978 0.7610001 0.5360660553 -0.7535869479 0.3804470301
-0.0065430137 -0.20397528 0.71745926 -0.3527086675 0.1932252198 0.9155657291
-0.16337864 -0.27418253 0.70553571 0.100054346 -0.01640858129 0.994846642
-0.11902516 -0.25862154 0.71728575 -0.7121546865 -0.09225974977 0.6959337592
0.021948665 -0.13185418 0.72050011 0.2819441259 -0.6997938156 0.6563506126
0.011207307 -0.11009531 0.75200003 0.1921630055 -0.8481221199 0.4937228858
-0.0369252 -0.1937784 0.72000003 -0.01168609783 -0.3675022125 0.929949224
-0.084610075 -0.27119282 0.73900008 -0.414301455 0.2665935755 0.8702195883
-0.13074869 -0.17962199 0.72400004 -0.05974341184 -0.2501657307 0.966358006
-0.0046759518 -0.19504289 0.76192856 0.009086248465 -0.2395832241 0.9708333015
-0.066482529 -0.15277459 0.7308076 0.1697471142 -0.4757417142 0.863050282
-0.14506254 -0.2349498 0.70713925 0.005964707118 -0.2430147976 0.9700042605
0.014895255 -0.16450179 0.77221423 -0.04174950346 -0.3139371276 0.9485254288
-0.00806621 -0.13097277 0.73019999 0.2722096145 -0.6513580084 0.7082617283
-0.14367908 -0.20592028 0.71625 0.06494833529 -0.2345811278 0.9699244499
-0.096503966 -0.19811012 0.72628582 -0.04423364997 0.04915605485 0.9978111386
-0.062379926 -0.20473143 0.71666652 0.2997992337 0.3639141619 0.881865561
-0.01713708 -0.12064336 0.75200003 0.3286488652 -0.8096107841 0.486333549
0.029035199 -0.17872779 0.73600006 0.6854935884 -0.7111539245 0.1560724229
-0.12287577 -0.22439159 0.72022218 -0.5206006169 -0.003348193597 0.8537937403
-0.15523008 -0.24533847 0.7061215 0.2281540185 -0.246057272 0.9420199394
-0.012919663 -0.17564861 0.76735914 -0.03050817735 -0.2574898899 0.9657992721
-0.02236608 -0.12818061 0.73792857 0.2689704001 -0.7628842592 0.5879306793
0.054226629 -0.12518811 0.71190894 0.04806568101 -0.1261142939 0.9908505678
0.035019152 -0.11362962 0.73471421 0.1220370829 -0.8694269061 0.4787523448
-0.13538964 -0.26514784 0.70497268 -0.4393831491 -0.01099710353 0.89823246
-0.044959731 -0.23092738 0.72780001 -0.1177080274 0.495043844 0.8608579636
-0.069116399 -0.20414937 0.73000002 0.2096479982 0.1611399949 0.9644073844
0.019550543 -0.10044935 0.76900005 0.1389771402 -0.8616220355 0.488152504
0.026862783 -0.11831561 0.72529173 0.2296660691 -0.7926912308 0.5647071004
0.053356871 -0.15445639 0.76775873 0.5886600614 -0.6203994751 0.5182507634
-0.1056443 -0.24502236 0.73233968 -0.255734086 0.05155093595 0.9653717279
-0.077146664 -0.17918599 0.70400006 -0.3265134096 -0.6668069959 0.6698935628
-0.095540933 -0.22335617 0.72585726 -0.01444880851 0.159361586 0.9871145487
-0.086979777 -0.16168728 0.73076922 0.1021690071 -0.4317720532 0.8961776495
-0.10719635 -0.28292719 0.7266131 -0.6119804978 0.01600812189 0.7907108665
-0.15454404 -0.22519989 0.71386153 0.1873991936 -0.3125746846 0.931224227
-0.15499967 -0.2653906 0.70138466 0.09234263748 -0.0506382063 0.994438827
-0.036295254 -0.14033554 0.73000002 0.2361527979 -0.6240383983 0.7448542714
0.034670692 -0.15499614 0.77546483 0.1432329118 -0.3294751644 0.9332365394
-0.025269184 -0.18478407 0.71579975 0.09451628476 -0.1786699593 0.9793588519
0.035133172 -0.10374971 0.75314289 0.09603527188 -0.8869481087 0.4517745972
-0.06700357 -0.26274028 0.74629426 -0.2857433856 0.486002326 0.825925231
-0.12502898 -0.19497761 0.71793097 -0.1502276957 -0.1662184745 0.9745783806
0.0046578394 -0.12283938 0.73307496 0.2618843913 -0.7628891468 0.591114819
-0.064423874 -0.17436785 0.72118342 -0.0506539084 -0.4185169041 0.9067953229
-0.12613274 -0.23520979 0.71533936 -0.6027549505 -0.1332620978 0.7867195606
-0.034336403 -0.24035482 0.73900002 -0.1709240079 0.5827932358 0.7944413424
-0.08485283 -0.24694486 0.7317574 -0.04534367844 0.3220659792 0.9456307292
-0.16214949 -0.25530294 0.70679319 0.2405336797 -0.189321816 0.9519982934
-0.016366959 -0.1975445 0.71446651 -0.2608421743 -0.1013606116 0.9600455165
-0.034589376 -0.12756519 0.74444127 0.2795960009 -0.8191743493 0.5007788539
0.015955333 -0.18827294 0.72800004 0.4431980848 -0.8961307406 -0.02291699126
-0.083729997 -0.22240151 0.72750008 0.04260665923 0.1081639156 0.993219614
-0.064741418 -0.24519144 0.73223805 -0.1078321263 0.4879084826 0.8662087321
0.045437634 -0.15935169 0.73000002 -0.0951891616 0.512588799 0.8533415198
-0.075658843 -0.24110624 0.72785717 -0.01890895329 0.373431474 0.9274650216
-0.11150087 -0.25469789 0.73043752 -0.5620462894 -0.05143314227 0.8255050778
-0.10596716 -0.17310128 0.7256152 0.09358277917 -0.3544690609 0.930373013
-0.044696145 -0.21398078 0.71636105 0.08640719205 0.3907367289 0.9164379835
-0.025014704 -0.22259596 0.72729415 -0.1939657331 0.6137146354 0.7653310895
-0.055689435 -0.19568187 0.71566659 -0.2011154592 -0.1510155201 0.9678568244
-0.0026714224 -0.21035728 0.76175004 0.3977991939 -0.7962904572 0.4557162225
0.059880711 -0.14497437 0.71899998 0.2793673873 0.2553636432 0.9256042838
-0.064276159 -0.18439387 0.71623689 -0.2904221117 -0.3196960688 0.9019142985
-0.0057151443 -0.11249516 0.75329411 0.3130815327 -0.8010759354 0.5101541877
-0.11439072 -0.19465907 0.72092599 -0.1867969036 -0.1438695639 0.9718068242
0.045955744 -0.1189891 0.71814293 -0.111166656 -0.6815772057 0.7232527137
-0.064585321 -0.22490807 0.722386 0.1754683107 0.2143489122 0.9608669877
0.045542359 -0.13175288 0.71170855 0.04043932259 -0.07068463415 0.9966786504
0.0049533662 -0.11532965 0.74481815 0.2566860318 -0.8017132282 0.5397853255
0.041230511 -0.17438477 0.77100003 0.1773376316 -0.3804782331 0.9076275229
-0.12769634 -0.21531163 0.71714705 -0.2834387124 -0.1205566153 0.9513824582
-0.11662728 -0.23395377 0.72587758 -0.5029144883 0.06033067405 0.8622280359
-0.025481723 -0.21299833 0.71694261 -0.1851400584 0.4634215236 0.8665815592
-0.045483898 -0.17516901 0.72025824 0.09711068869 -0.1181797534 0.9882323146
0.0047015632 -0.18536314 0.76610696 0.01255622692 -0.2304457128 0.9730041623
-0.16570073 -0.24501191 0.71181631 0.2852189541 -0.2403584123 0.9278351068
0.034287684 -0.14584479 0.78000009 0.1116774976 -0.308825165 0.9445396662
0.031593949 -0.1815865 0.7638182 0.5354807377 -0.7048515677 0.4652360976
-0.12910144 -0.28178871 0.708 -0.4899405539 0.1382350475 0.8607260585
-0.144999 -0.2451109 0.7041406 0.009459475987 -0.2177721411 0.9759538174
-0.055532031 -0.23249938 0.72748142 -0.1190523505 0.4589605033 0.8804441094
-0.094702736 -0.2449086 0.73081487 -0.09092061222 0.1436937004 0.9854367375
0.014731055 -0.18484674 0.76398432 0.005124888383 -0.2767732143 0.9609215856
-0.025140669 -0.17469431 0.71550757 0.06861356646 -0.06015037745 0.9958283305
-0.084963799 -0.1747476 0.72524291 0.1006007046 -0.516895175 0.8501169682
0.024898402 -0.1643444 0.77317774 0.0126799969 -0.3490390182 0.937022388
-0.064938754 -0.16504806 0.72489387 0.1594975591 -0.3541497588 0.921487093
-0.14456622 -0.22363341 0.71101838 0.03242355213 -0.2946282029 0.9550617337
0.014882694 -0.17500572 0.76776159 -0.03343053907 -0.3181352317 0.9474557638
-0.11525091 -0.21515669 0.72416657 -0.3281806409 0.09659384191 0.939663291
-0.046741452 -0.19225411 0.72050017 0.09038773179 -0.2550009489 0.9627069235
-0.010420608 -0.16605677 0.76687509 -0.05061917752 -0.2494709492 0.9670584202
0.045045193 -0.11423822 0.73340631 0.08001453429 -0.85326159 0.5153080225
-0.13513362 -0.25531173 0.70597076 -0.4256154299 -0.1268448979 0.8959698081
-0.1451256 -0.26516619 0.70159698 -0.06162325665 -0.0565848276 0.9964942336
-0.044825438 -0.15476677 0.72430491 0.2258164287 -0.4117747545 0.8828638196
-0.024464719 -0.15599929 0.71791291 0.2201566696 -0.3328210413 0.9169303179
-0.07365831 -0.14746507 0.73664701 0.1805218607 -0.5148857236 0.8380361199
-0.14496852 -0.28472033 0.70318365 -0.277628541 0.1116020158 0.9541841745
-0.045477457 -0.14238438 0.73257136 0.2187546641 -0.5792052746 0.7852818966
-0.10502245 -0.20498286 0.72440004 -0.1584760547 0.09595616162 0.982689023
-0.035132777 -0.18473047 0.71699977 0.06621909142 -0.222485438 0.9726845622
-0.065241061 -0.21530901 0.72123659 0.299557656 0.2318235785 0.9254853129
-0.044784978 -0.16483498 0.72151691 0.1974952817 -0.2136285007 0.9567436576
-0.13539165 -0.27520883 0.70490545 -0.4113798738 0.1096831635 0.9048404098
0.015504393 -0.12570673 0.72406346 0.2931973934 -0.709133029 0.6412220001
-0.11913111 -0.28175452 0.71900004 -0.6581944227 0.07155646384 0.7494396567
-0.095458306 -0.26456687 0.73415273 -0.3802119195 0.1054947451 0.9188632965
-0.10570881 -0.19551428 0.72478932 -0.1110894382 -0.09890787303 0.9888763428
-0.10274199 -0.27554047 0.7330277 -0.5006633997 -0.01630495861 0.8654884696
-0.0046960837 -0.18517216 0.76532137 0.001608183607 -0.2349798977 0.9719988704
0.014745123 -0.11250724 0.74346858 0.2037321627 -0.8314092755 0.5169640779
0.035054628 -0.16395356 0.77268761 0.1197731644 -0.347122401 0.9301400185
-0.013857813 -0.19403507 0.76356524 -0.2438293695 -0.2671099603 0.9323086739
-0.12378705 -0.26511627 0.7126382 -0.6780649424 -0.0146138519 0.7348567247
-0.094836019 -0.21505462 0.72173017 -0.06060835347 0.1294548064 0.9897313118
-0.034905303 -0.20633563 0.71106255 0.04085294157 0.0126249725 0.9990854263
-0.16090173 -0.28308469 0.70518184 -0.002636154182 0.03787364066 0.9992790818
-0.1150318 -0.17490366 0.72591019 -0.08506143838 -0.2680050433 0.9596550465
0.024596633 -0.11544849 0.73531598 0.1884030104 -0.8360459805 0.5152974129
-0.0046732174 -0.10628726 0.76199996 0.2981886864 -0.8411386609 0.4511864781
-0.075118981 -0.22514866 0.72575474 0.09423972666 0.139517799 0.985724926
-0.055263791 -0.17493495 0.72063512 0.01553797908 -0.2352748215 0.9718046784
-0.15178123 -0.20627932 0.72290003 0.1072720513 -0.228684172 0.9675723314
-0.033717804 -0.1660291 0.71852624 0.1905908585 -0.1778918207 0.9654167891
0.05332949 -0.16346043 0.72847223 0.8499116302 -0.5178368092 -0.09744375944
