# .PCD v0.7 - Point Cloud Data file format
VERSION 0.7
FIELDS x y z
SIZE 4 4 4
TYPE F F F
COUNT 1 1 1
WIDTH 528
HEIGHT 1
VIEWPOINT 0 0 0 1 0 0 0
POINTS 528
DATA ascii
-0.14048496 0.013974943 0.83900005
-0.13460077 0.014955641 0.83900005
-0.24710429 -0.01116435 0.84900004
-0.13762808 -0.012052238 0.84860003
-0.26213503 -0.0017363845 0.84866667
-0.25428769 -0.0048030415 0.84734166
-0.24492632 -0.005095616 0.84644204
-0.2366308 -0.0040772697 0.84760618
-0.1372996 -0.0047025862 0.84583336
-0.26219696 0.0049764868 0.84750003
-0.2547181 0.0051813079 0.84461892
-0.24494983 0.0051796511 0.84414274
-0.23514257 0.0051903506 0.84614301
-0.22640653 0.0065389401 0.84786689
-0.14143424 0.0057753343 0.8409999
-0.13597639 0.005792907 0.84358531
-0.12801787 0.0096757701 0.84900004
-0.26105469 0.013471737 0.84700006
-0.25484642 0.014718308 0.84539986
-0.24499021 0.014922068 0.84416276
-0.23505089 0.014830234 0.84580946
-0.22551173 0.015011209 0.84721065
-0.14131136 0.011550668 0.84100002
-0.13509932 0.012870649 0.84213042
-0.12934661 0.011623139 0.84633332
-0.25264239 0.020914856 0.84450001
-0.24474435 0.024308791 0.84623802
-0.23533268 0.024148645 0.8471778
-0.22610681 0.024184965 0.84776932
-0.24253222 0.031579159 0.84900004
-0.23705636 0.031632327 0.84900004
-0.22998561 0.030515891 0.84900004
-0.25220248 -0.021349087 0.8565715
-0.24618272 -0.02074123 0.85719997
-0.23919323 -0.02030886 0.85800004
-0.26228523 -0.012228332 0.85400003
-0.2551026 -0.014824671 0.85335141
-0.24517235 -0.015183556 0.85364109
-0.23523971 -0.014741356 0.85471445
-0.22829768 -0.012776189 0.85719997
-0.13430923 -0.014414529 0.85557145
-0.26333213 -0.0060159178 0.85194737
-0.25837967 -0.0092012016 0.85100001
-0.24395616 -0.0096985633 0.85100001
-0.23298739 -0.0067213238 0.85181808
-0.22601444 -0.0046381652 0.85550016
-0.21747908 -0.0018050568 0.85779989
-0.13256796 -0.0053766994 0.85494131
-0.12862279 -0.0045130802 0.85799998
-0.26633745 0.00223813 0.85100001
-0.23052739 0.00074604334 0.85100001
-0.22336076 0.003800455 0.85327995
-0.21565893 0.0054121679 0.85638297
-0.20740232 0.008873445 0.85779989
-0.13222352 0.0033634957 0.85393751
-0.12832172 0.004595486 0.8545714
-0.22067961 0.01432403 0.85099995
-0.21481803 0.014967956 0.85380965
-0.20605154 0.015139784 0.85737145
-0.24246408 0.029095691 0.85100001
-0.23425761 0.029095691 0.85100001
-0.22157867 0.025421426 0.85135287
-0.21486995 0.024709171 0.85402048
-0.20572518 0.025005629 0.85711634
-0.24296145 0.031582501 0.85100001
-0.23423472 0.034144603 0.85386974
-0.22520909 0.033871811 0.85440546
-0.21556343 0.032380648 0.85704756
-0.20677449 0.031869803 0.85769218
-0.11389258 -0.073287413 0.86900014
-0.13128756 -0.06170769 0.86900002
-0.12443973 -0.063955329 0.86729628
-0.11595242 -0.065370828 0.86786485
-0.13395865 -0.054000806 0.8665418
-0.12564009 -0.055186786 0.86491901
-0.11782195 -0.057430726 0.86833334
-0.14123714 -0.043400258 0.86850005
-0.13497999 -0.044654682 0.86726677
-0.12740932 -0.047123466 0.8678236
-0.24347375 -0.03172043 0.86442852
-0.23762068 -0.033947516 0.8682
-0.14207605 -0.036117658 0.86807698
-0.13458291 -0.034976456 0.86733353
-0.12874815 -0.032758404 0.86900002
-0.25075063 -0.024900256 0.86066669
-0.24452512 -0.025745558 0.86222219
-0.23484907 -0.025009016 0.86417395
-0.22685939 -0.023547107 0.86627293
-0.13457711 -0.024837205 0.86441183
-0.12826237 -0.024758821 0.86744452
-0.23221147 -0.018848334 0.86000001
-0.22486413 -0.015764095 0.86350012
-0.21870077 -0.013103342 0.86788893
-0.13320528 -0.017801242 0.86040002
-0.12750533 -0.015401127 0.86547065
-0.22261643 -0.0083156545 0.86215395
-0.21482293 -0.00540032 0.86424249
-0.20764981 -0.0024215125 0.86763632
-0.12748244 -0.0058613932 0.86175007
-0.2110952 0.0025145721 0.86100006
-0.20526873 0.0050703208 0.86442441
-0.19567418 0.0091364719 0.86850017
-0.18817036 0.009522791 0.86900002
-0.12741473 0.00075393333 0.86000001
-0.20099117 0.014464269 0.86083335
-0.19500439 0.015354888 0.86465794
-0.18579175 0.015340028 0.86800003
-0.20103368 0.0230914 0.86080009
-0.19513568 0.024975257 0.86225504
-0.1850315 0.025159512 0.86421269
-0.17694704 0.026270822 0.86804771
-0.22249596 0.037711572 0.86033338
-0.21531835 0.037135862 0.8627001
-0.20440249 0.035550557 0.8627001
-0.19477275 0.034825057 0.86482936
-0.18484908 0.034545112 0.86621237
-0.17664324 0.033449218 0.86829424
-0.22242874 0.040602818 0.86299998
-0.21474233 0.042205397 0.86668181
-0.20688592 0.041433416 0.86790907
-0.19832802 0.040884521 0.86900002
-0.013914049 -0.10284555 0.8780002
-0.021943372 -0.093038604 0.87707704
-0.015674524 -0.094820037 0.87784225
-0.11368809 -0.08270587 0.87588245
-0.10687245 -0.084819123 0.87573695
-0.030018819 -0.082359329 0.87800002
-0.024166696 -0.084563613 0.87718201
-0.018344833 -0.085309893 0.8780002
-0.14085753 -0.070043914 0.87800002
-0.13461442 -0.072467402 0.87671441
-0.12470922 -0.074708305 0.87466657
-0.11629388 -0.076637335 0.87200016
-0.10919146 -0.078648396 0.87100005
-0.023091398 -0.078510761 0.87800014
-0.019242832 -0.078510761 0.87800002
-0.14314334 -0.063542172 0.87600011
-0.1350829 -0.065416723 0.87327766
-0.12737305 -0.068030216 0.8719092
-0.11198153 -0.062872425 0.87533349
-0.10541214 -0.06266579 0.87766683
-0.16210163 -0.05064714 0.87800008
-0.1543825 -0.052340508 0.8780002
-0.14476267 -0.055270843 0.87451512
-0.13820736 -0.056046534 0.87100017
-0.12078275 -0.051982827 0.8720001
-0.11444099 -0.0547565 0.87431246
-0.10500836 -0.055152871 0.87524396
-0.095487408 -0.054138035 0.87344438
-0.085025363 -0.052599117 0.87377787
-0.074509256 -0.052615803 0.87686217
-0.064655915 -0.052890301 0.8780002
-0.05761008 -0.052636549 0.8780002
-0.23322314 -0.040794805 0.87800002
-0.18088263 -0.040794805 0.87800002
-0.1739285 -0.042999417 0.87657154
-0.16459787 -0.044242274 0.87563163
-0.15481488 -0.044915408 0.87523085
-0.14625582 -0.045524362 0.87317634
-0.12367212 -0.044214588 0.87345719
-0.11507218 -0.045261245 0.87507147
-0.10509746 -0.045260757 0.87506127
-0.095108382 -0.045250975 0.87490481
-0.085176952 -0.045272764 0.87532657
-0.075222224 -0.045206029 0.87792116
-0.065095745 -0.04739235 0.8780002
-0.059267927 -0.046952512 0.87800002
-0.23417227 -0.035392892 0.87311763
-0.22801851 -0.033232883 0.8753078
-0.18219496 -0.034380745 0.87768435
-0.17525557 -0.036092404 0.87603343
-0.16446482 -0.036300171 0.87625819
-0.15522151 -0.034822419 0.87704879
-0.14664944 -0.0348108 0.87319058
-0.1247142 -0.03508145 0.87481403
-0.11476751 -0.034535304 0.87787479
-0.10487194 -0.034955401 0.87756115
-0.094661295 -0.034631386 0.87787217
-0.085284464 -0.037063349 0.87775016
-0.076971337 -0.039255381 0.87800002
-0.22432737 -0.025747204 0.87386972
-0.21936829 -0.02078226 0.87800002
-0.19011919 -0.023091398 0.87800002
-0.18550092 -0.02540054 0.87800002
-0.16298412 -0.024123436 0.87731832
-0.15444878 -0.025005136 0.87692851
-0.1443878 -0.025268055 0.87506056
-0.13973454 -0.025198031 0.87100005
-0.12357229 -0.025466556 0.87390906
-0.11479993 -0.02468715 0.87800002
-0.10852958 -0.028479394 0.87800002
-0.093135312 -0.028479394 0.87800008
-0.22067365 -0.019089416 0.87100005
-0.21515277 -0.014915694 0.87461293
-0.20687404 -0.011920695 0.87725008
-0.19011919 -0.019242832 0.87800002
-0.1847312 -0.010006272 0.87800008
-0.1732765 -0.013068409 0.87678581
-0.16459644 -0.015286935 0.87524331
-0.15489669 -0.014657597 0.87573802
-0.14665516 -0.016144037 0.87700009
-0.12271481 -0.014794465 0.87470388
-0.11754622 -0.015504228 0.87800014
-0.21251714 -0.009428842 0.87200004
-0.20467415 -0.0056345337 0.87427491
-0.19445466 -0.0032319545 0.87728012
-0.18456064 -0.004342509 0.87629741
-0.17477928 -0.0052560228 0.87487805
-0.16492696 -0.0051587271 0.87343484
-0.15607034 -0.0053357258 0.8765406
-0.14547582 -0.0061577065 0.87800002
-0.12438338 -0.005734839 0.87476003
-0.11930557 -0.0084668463 0.87800002
-0.2020642 0.0024844734 0.87225008
-0.19491594 0.0040703635 0.8728379
-0.18449785 0.0049395766 0.87359101
-0.17508012 0.0055057653 0.8747046
-0.16479123 0.0053629638 0.87430596
-0.15513889 0.0053726528 0.87607139
-0.14958125 0.0092050005 0.87500006
-0.12601602 0.00076839828 0.87650001
-0.18169259 0.014171511 0.87122238
-0.17525963 0.015305432 0.87299991
-0.16504249 0.015141808 0.8737691
-0.15523675 0.015504839 0.87428188
-0.1468586 0.016773056 0.87533343
-0.17288305 0.024330568 0.87121445
-0.16504051 0.025425643 0.87286359
-0.15534687 0.025124688 0.87402135
-0.14614488 0.024441306 0.87605888
-0.18410508 0.038960297 0.87140006
-0.1734314 0.036228873 0.87180001
-0.16470358 0.035242293 0.87385702
-0.15560658 0.033853784 0.87680006
-0.14624554 0.030531963 0.87800008
-0.21142833 0.045361366 0.87700003
-0.203732 0.043083787 0.87392324
-0.19419494 0.041904543 0.87357152
-0.18517126 0.04195717 0.87388241
-0.1756788 0.041298967 0.87508339
-0.16532305 0.040754981 0.87714291
-0.15933067 0.040794805 0.87800002
-0.042669777 -0.11281188 0.889
-0.034390401 -0.11377157 0.88606668
-0.024983885 -0.11346804 0.88419241
-0.01844682 -0.1121169 0.88200003
-0.10108843 -0.10031083 0.88700002
-0.095098913 -0.10088541 0.88814294
-0.041825473 -0.10521316 0.88900012
-0.033602633 -0.1081486 0.88842863
-0.02465903 -0.1054235 0.88494432
-0.016902834 -0.10566325 0.8804
-0.12080028 -0.091184728 0.88900006
-0.11435615 -0.092849933 0.88504761
-0.10463807 -0.094491795 0.88381577
-0.09547355 -0.094947755 0.88543737
-0.022372533 -0.09874773 0.88000005
-0.016200799 -0.097976267 0.88000005
-0.1422326 -0.081442773 0.88900006
-0.13498493 -0.084363356 0.88789642
-0.12507841 -0.084921293 0.88518173
-0.11617854 -0.086705692 0.88216674
-0.10497689 -0.088769078 0.88050008
-0.099745378 -0.088920303 0.88200003
-0.030087199 -0.081004001 0.88000005
-0.028544266 -0.081004001 0.88000005
-0.014155344 -0.084241726 0.88234776
-0.16250207 -0.071129099 0.8832857
-0.15392579 -0.073544443 0.88755149
-0.14498615 -0.074864954 0.88561279
-0.13524815 -0.077070728 0.88204765
-0.12697947 -0.079120487 0.88050008
-0.032675881 -0.07344272 0.88104337
-0.025060236 -0.073958129 0.88041151
-0.017413426 -0.07612583 0.88511115
-0.1834086 -0.060530037 0.889
-0.17438686 -0.063706003 0.88671422
-0.16478099 -0.064945936 0.884359
-0.15489835 -0.065061614 0.88344455
-0.14752902 -0.066660173 0.88176924
-0.11031973 -0.066346139 0.88000005
-0.10723387 -0.065574668 0.88000005
-0.051473659 -0.061675251 0.88160002
-0.044267841 -0.064170316 0.88264281
-0.03471823 -0.064886555 0.88454539
-0.025954898 -0.066631883 0.88384998
-0.21640138 -0.052476685 0.889
-0.18395939 -0.054047249 0.88677776
-0.17522587 -0.055053491 0.88440478
-0.16540769 -0.055640925 0.88207495
-0.15531571 -0.056460578 0.88044429
-0.061331596 -0.057859998 0.88000005
-0.053569909 -0.055422727 0.88051397
-0.044934828 -0.055008478 0.88383311
-0.036598038 -0.056114506 0.8870644
-0.23153234 -0.041465163 0.88133335
-0.22460192 -0.043900449 0.88751602
-0.21495801 -0.044083592 0.88815391
-0.20564476 -0.042531483 0.88812506
-0.19401345 -0.043314256 0.88699996
-0.18480428 -0.0451109 0.88352937
-0.17576453 -0.047223903 0.88100004
-0.1689512 -0.048602398 0.88000005
-0.071469724 -0.041523494 0.88040006
-0.064666994 -0.043086581 0.88199997
-0.055028833 -0.044990517 0.884175
-0.046469718 -0.047470752 0.88771433
-0.23066853 -0.039344799 0.88000005
-0.22411823 -0.035449661 0.88277513
-0.21473585 -0.034808442 0.88468736
-0.20480295 -0.034911666 0.88490474
-0.19518474 -0.034858335 0.88350004
-0.18732835 -0.034942932 0.88060868
-0.17464909 -0.031313654 0.88200009
-0.16622187 -0.031544842 0.88071436
-0.10260507 -0.030087199 0.88000005
-0.099519201 -0.030087199 0.88000005
-0.084372796 -0.031888332 0.88042116
-0.074950561 -0.034616172 0.88259548
-0.065228373 -0.035035331 0.8863095
-0.057680152 -0.037898052 0.88742864
-0.22140655 -0.026402568 0.88060009
-0.21518767 -0.024656394 0.88178945
-0.20495294 -0.024749745 0.88221431
-0.19500302 -0.024895689 0.88049972
-0.18452087 -0.024676455 0.88104993
-0.17506118 -0.024789579 0.88358343
-0.16776554 -0.025480067 0.88071436
-0.15660773 -0.026229866 0.88000005
-0.14801137 -0.025678817 0.88000005
-0.11031973 -0.022372533 0.88000005
-0.10484884 -0.024585642 0.8803426
-0.095243193 -0.024200028 0.88135135
-0.085081965 -0.024686037 0.88383794
-0.075339779 -0.025046939 0.88599998
-0.068405673 -0.027250182 0.88814288
-0.21303844 -0.018168518 0.88018185
-0.20403403 -0.01551358 0.88133317
-0.19468901 -0.014558269 0.88082922
-0.18488313 -0.015607908 0.88129979
-0.17581658 -0.01661939 0.8807826
-0.15120748 -0.011572 0.88000005
-0.14760728 -0.011314844 0.88000005
-0.11284472 -0.01400093 0.88035697
-0.10470449 -0.014486761 0.88217378
-0.095021799 -0.014945123 0.88508868
-0.085330993 -0.015499913 0.88743901
-0.077303588 -0.018352266 0.88814288
-0.2013528 -0.0084861331 0.88000005
-0.19606404 -0.0073569873 0.88026679
-0.18900934 -0.0084861331 0.88000005
-0.15167037 -0.00416592 0.88
-0.14779095 -0.0048492188 0.88000005
-0.12192614 -0.0030860857 0.88025004
-0.11522768 -0.0045474828 0.88304865
-0.10535989 -0.0051463884 0.88705391
-0.09596689 -0.0070059095 0.88806665
-0.150436 0.0038573332 0.88
-0.14889306 0.0015429333 0.88000005
-0.13015257 0.0077935662 0.88900006
-0.12390531 0.0048849666 0.88467646
-0.11570197 0.0043429779 0.88732237
-0.10988929 0.00077935663 0.88900006
-0.095341295 0.0028576411 0.88900012
-0.1411784 0.018515199 0.88000005
-0.13431954 0.016981579 0.8839584
-0.1249154 0.014739127 0.88506114
-0.11771365 0.01353365 0.88850003
-0.14156412 0.025265532 0.88000005
-0.13563454 0.024688665 0.88339031
-0.12664749 0.023126118 0.88520014
-0.1539567 0.037138123 0.88250005
-0.1450495 0.032957662 0.88147068
-0.13843255 0.030734621 0.88383335
-0.062442459 -0.11132139 0.89514291
-0.054573979 -0.11149029 0.89415383
-0.046593733 -0.1127228 0.89137489
-0.039836612 -0.11013651 0.89100003
-0.09091384 -0.10266995 0.89400005
-0.084494106 -0.10402611 0.89518523
-0.074945435 -0.10438263 0.89648497
-0.064771727 -0.10554226 0.89718938
-0.054559167 -0.10608161 0.89635724
-0.045774147 -0.10594372 0.89274091
-0.036127057 -0.10570683 0.89128578
-0.12423375 -0.092135765 0.89316672
-0.090550028 -0.098901153 0.89300007
-0.084688254 -0.098728701 0.89685708
-0.075401075 -0.099268623 0.89750004
-0.065341473 -0.099980325 0.89800006
-0.14294313 -0.082016543 0.89100003
-0.13552259 -0.087874874 0.89100003
-0.12575871 -0.089827649 0.89100003
-0.010964032 -0.080680072 0.89350003
-0.008659713 -0.081086405 0.89800006
-0.014267458 -0.075206541 0.89426672
-0.008659713 -0.079511911 0.89800006
-0.19465975 -0.060437981 0.89533329
-0.1882475 -0.060145471 0.89100003
-0.024701618 -0.063515037 0.89449996
-0.018840881 -0.068296574 0.8955
-0.2135362 -0.052382763 0.89179993
-0.20459569 -0.054085139 0.89574224
-0.19525546 -0.054909173 0.8951214
-0.18891703 -0.055681985 0.89099991
-0.032622907 -0.053295355 0.89406246
-0.028685849 -0.05776488 0.89650005
-0.22105412 -0.047647707 0.89100003
-0.2142044 -0.048008218 0.89099985
-0.20471072 -0.04716127 0.8925001
-0.19664295 -0.047620922 0.89231247
-0.050772149 -0.041398831 0.89100003
-0.044127401 -0.043027706 0.89356679
-0.036775764 -0.046788905 0.89579171
-0.060733709 -0.03101822 0.89200002
-0.054347958 -0.034489296 0.89420015
-0.04681728 -0.037380137 0.89706665
-0.071081012 -0.021089969 0.89100003
-0.064757265 -0.024905305 0.89419377
-0.05672998 -0.027297018 0.89699996
-0.082509346 -0.011144295 0.89212501
-0.074728452 -0.014224992 0.89462864
-0.068362169 -0.017156953 0.89633328
-0.1027057 -0.00109408 0.89160001
-0.09402702 -0.0030357568 0.89292026
-0.085604809 -0.0064635905 0.89383346
-0.078694277 -0.0081039071 0.89466667
-0.11114801 0.0060973922 0.89159995
-0.10498395 0.004586495 0.89271468
-0.096963711 0.0023442067 0.89199996
-0.11271024 0.012349428 0.89159989
-0.10719061 0.010718711 0.89466667
-0.06555976 -0.10110421 0.90100002
-0.058450878 -0.10347384 0.90100002
-0.0873686 -0.09769398 0.90600002
-0.071088895 -0.09873458 0.90100002
-0.067363076 -0.099063329 0.90400004
-0.012081234 -0.073295146 0.90387499
-0.008283874 -0.075691529 0.90614289
-0.022395618 -0.061919257 0.9016667
-0.016839452 -0.065693945 0.90527779
-0.20457806 -0.057660997 0.90100002
-0.025243703 -0.055125032 0.90458077
-0.019369658 -0.059170324 0.90800005
-0.033729196 -0.04373325 0.90363151
-0.028565198 -0.047606617 0.90512508
-0.051341984 -0.031595066 0.90100002
-0.044265125 -0.033566345 0.90403569
-0.037900735 -0.036839381 0.90700001
-0.061249193 -0.022523319 0.90150005
-0.054188836 -0.024559073 0.90375006
-0.044532664 -0.026185974 0.90714318
-0.038961697 -0.025445249 0.90700006
-0.06421376 -0.018236261 0.90436369
-0.058840111 -0.019082403 0.90700001
-0.044528529 -0.019878417 0.90700006
-0.078063667 -0.098987937 0.91800004
-0.069787048 -0.098664448 0.91500002
-0.012956712 -0.063512601 0.91248012
-0.021558484 -0.05144706 0.91085714
-0.015393416 -0.054898128 0.91302961
-0.031678934 -0.041262653 0.91100001
-0.024165977 -0.044460803 0.91386139
-0.017398693 -0.045912419 0.9160834
-0.03450194 -0.035062246 0.91165209
-0.026566891 -0.037699237 0.91493756
-0.052179702 -0.021807458 0.91171438
-0.04671916 -0.023609109 0.91163635
-0.037862532 -0.028918076 0.91120005
-0.06271629 -0.015827997 0.91425002
-0.056527115 -0.018404741 0.91320002
-0.030692626 -0.10441749 0.92620003
-0.027871279 -0.10336631 0.92600012
-0.10227434 -0.091765739 0.92225003
-0.094523154 -0.093758605 0.92233342
-0.084782586 -0.094305478 0.92407322
-0.075250342 -0.09588258 0.92535996
-0.068927914 -0.098120913 0.92500007
-0.11203766 -0.082407892 0.92340004
-0.10450099 -0.085044503 0.92050004
-0.095226288 -0.084779851 0.92304558
-0.085759506 -0.085280053 0.92599994
-0.11277234 -0.075322174 0.92388248
-0.10525739 -0.074939169 0.92217505
-0.094791882 -0.074538574 0.92419034
-0.085829228 -0.0749771 0.92679995
-0.10312667 -0.066592969 0.92314297
-0.094723046 -0.06494952 0.92465836
-0.084739745 -0.064812087 0.9268527
-0.075659841 -0.062534623 0.92800021
-0.091876596 -0.058821358 0.92420006
-0.086497903 -0.058910947 0.92560005
-0.073952965 -0.059324909 0.92700005
-0.063674346 -0.10146705 0.93255562
-0.054483145 -0.10282428 0.93458343
-0.04437476 -0.10308941 0.93360877
-0.035178777 -0.10345682 0.9315002
-0.02649725 -0.10068955 0.93000007
-0.073653951 -0.092117362 0.93115389
-0.065345027 -0.094804637 0.93342865
-0.05534479 -0.095360838 0.93587172
-0.043972857 -0.097067475 0.93754995
-0.034579765 -0.095290378 0.93591416
-0.027686259 -0.09730085 0.93271434
-0.081366941 -0.082019188 0.93000013
-0.075208217 -0.085017234 0.93250018
-0.065545872 -0.085212037 0.93461102
-0.055421036 -0.085253321 0.93715376
-0.042657509 -0.083773166 0.9379999
-0.036264017 -0.085849509 0.9379999
-0.11532813 -0.072795771 0.93300003
-0.08175236 -0.074488766 0.93000025
-0.075242475 -0.075243205 0.93291676
-0.065373257 -0.075472355 0.93437833
-0.054879326 -0.075426422 0.93639028
-0.045493245 -0.076873861 0.93760866
-0.036181785 -0.079764396 0.93800002
-0.080714703 -0.0684852 0.93000007
-0.074504271 -0.067122735 0.93100005
-0.065915138 -0.066258796 0.93306917
-0.056857526 -0.067922369 0.93487519
-0.050268065 -0.093119532 0.94000006
-0.045014642 -0.09342856 0.9400003
-0.050268065 -0.08817514 0.94000006
-0.045900516 -0.087103859 0.94000036
-0.037083 -0.088175133 0.94000006
-0.040379267 -0.077462271 0.94000006
-0.038181752 -0.078835711 0.94000006
