# .PCD v0.7 - Point Cloud Data file format
VERSION 0.7
FIELDS x y z
SIZE 4 4 4
TYPE F F F
COUNT 1 1 1
WIDTH 540
HEIGHT 1
VIEWPOINT 0 0 0 1 0 0 0
POINTS 540
DATA ascii
-0.12134031 0.01364181 0.81900007
-0.11918634 0.01364181 0.81900007
-0.23183538 0.007994323 0.82900006
-0.22456782 0.0094478363 0.82900006
-0.12193295 0.0079364637 0.82300001
-0.11805005 0.0083800564 0.82614291
-0.23298608 0.016775966 0.82900029
-0.22487615 0.016583269 0.82900035
-0.2181308 0.017753629 0.82900006
-0.12207291 0.011294682 0.82233334
-0.1168208 0.012310152 0.82600003
-0.24146491 0.026344931 0.82900006
-0.23502621 0.025211465 0.82894909
-0.22494388 0.025265388 0.82877344
-0.218027 0.025436481 0.82900017
-0.23183538 0.03706459 0.82900006
-0.22238754 0.031977296 0.82900006
-0.218027 0.031977296 0.82900006
-0.12205629 -0.014415958 0.83429414
-0.11892685 -0.013951098 0.83740008
-0.24396333 -0.0028110575 0.83805883
-0.23500621 -0.002988056 0.83621424
-0.22563887 -0.0032163693 0.8370688
-0.21643078 -0.0012256774 0.83877784
-0.12163502 -0.0057423129 0.83666658
-0.11831786 -0.0049700183 0.83655554
-0.25021556 0.00953901 0.83700001
-0.24476075 0.0050372011 0.83482856
-0.23506188 0.0050394437 0.83141685
-0.22500925 0.0050113173 0.8322084
-0.21530311 0.0052611679 0.83611137
-0.20637213 0.0068291347 0.83818537
-0.19932683 0.0095618032 0.83900005
-0.11553676 0.0058672167 0.83678579
-0.10933173 0.0066015921 0.83700007
-0.25050905 0.013648121 0.83700001
-0.24498826 0.015456933 0.83337843
-0.23699886 0.013841691 0.83099997
-0.22447214 0.012566797 0.83100009
-0.21434768 0.014741462 0.83259982
-0.20485479 0.015549599 0.83575475
-0.19773468 0.016250508 0.83879995
-0.11296564 0.011599677 0.83442867
-0.24360253 0.022920044 0.83100003
-0.23628008 0.028411889 0.83100003
-0.21345341 0.025497844 0.83099979
-0.20529561 0.025047535 0.83363837
-0.19596423 0.025728168 0.83722234
-0.1890295 0.02868541 0.83900005
-0.2411368 0.031325929 0.83100003
-0.23418038 0.034385167 0.83331233
-0.22548369 0.035662394 0.83346677
-0.21484534 0.035478618 0.83429992
-0.2049429 0.034646854 0.83629173
-0.19491826 0.034146685 0.83758348
-0.18539058 0.03209205 0.83899993
-0.17726113 0.031627502 0.83900005
-0.2308614 0.041041151 0.83600003
-0.22448422 0.042082783 0.83681816
-0.21794878 0.04156423 0.83833337
-0.20668207 0.044866927 0.83900011
-0.11135186 -0.072416462 0.84866673
-0.1055853 -0.074704558 0.8488338
-0.12226403 -0.061256211 0.84866667
-0.11468408 -0.063975155 0.84709549
-0.10804009 -0.065496534 0.84775001
-0.093036249 -0.062520362 0.84900004
-0.044657402 -0.064753227 0.84900004
-0.12406583 -0.054706693 0.84706664
-0.11505345 -0.054966863 0.8459267
-0.10900982 -0.056957908 0.84820002
-0.13025075 -0.043913111 0.8490001
-0.12470716 -0.045278035 0.84671432
-0.11761588 -0.046778578 0.847
-0.13025075 -0.039447371 0.84900004
-0.12404811 -0.035433199 0.84790933
-0.11883209 -0.033479661 0.84863639
-0.23445135 -0.020095831 0.84900004
-0.12313246 -0.025519693 0.84566671
-0.11664937 -0.024873119 0.84687513
-0.24229489 -0.011502743 0.84650004
-0.23438184 -0.014285551 0.84663659
-0.22521225 -0.014029402 0.84735316
-0.2167538 -0.012983727 0.84900004
-0.12135346 -0.019549666 0.84150004
-0.11600295 -0.014891707 0.84378266
-0.24303816 -0.0077669732 0.84350014
-0.23503846 -0.0082061067 0.84268421
-0.22389938 -0.0078624254 0.84290904
-0.21470632 -0.0058185533 0.84486651
-0.20592457 -0.0032213994 0.84740025
-0.11491784 -0.0052969661 0.84300011
-0.21012385 0.00073727668 0.84100002
-0.20366257 0.0030760041 0.84274989
-0.19660184 0.0064834817 0.84493941
-0.18904966 0.0096757701 0.84900004
-0.11409916 0.0029983753 0.84113324
-0.19349787 0.014731726 0.84306258
-0.18627842 0.01633502 0.8462308
-0.19242921 0.022855576 0.84099996
-0.18460301 0.024544502 0.84186941
-0.17491233 0.024948224 0.8448261
-0.16577868 0.02660176 0.84800017
-0.15674748 0.028729593 0.8490001
-0.19390376 0.039075661 0.84100002
-0.18463819 0.036240343 0.84133315
-0.17469037 0.034991559 0.84231901
-0.16476579 0.034824248 0.84710914
-0.15530853 0.034609482 0.84900045
-0.22044572 0.046448428 0.84100002
-0.21404605 0.044339061 0.84166658
-0.20421468 0.044149354 0.84332258
-0.19513319 0.043715294 0.84505719
-0.18506281 0.043614797 0.84642869
-0.17490932 0.042449497 0.84661913
-0.16716753 0.041233666 0.8490001
-0.023560414 -0.12218192 0.85766655
-0.01801024 -0.12156911 0.85600007
-0.021168491 -0.11809225 0.85799992
-0.015450097 -0.1141448 0.85693753
-0.0092336377 -0.11105321 0.85400003
-0.02021418 -0.10181957 0.85400003
-0.014774568 -0.10444337 0.85276467
-0.0074101267 -0.1046719 0.85192305
-0.020952942 -0.094948046 0.85592306
-0.014969938 -0.095070146 0.85392869
-0.0074998834 -0.096452624 0.85566682
-0.11270475 -0.081849903 0.85654545
-0.10435539 -0.085111491 0.85556668
-0.096997909 -0.087976255 0.85771424
-0.02522571 -0.082466722 0.85880768
-0.016279042 -0.086281158 0.85708326
-0.0097783403 -0.08950942 0.85800004
-0.13087931 -0.071457103 0.85800004
-0.12376523 -0.073038816 0.85682344
-0.11557005 -0.074893624 0.85333329
-0.10643551 -0.07808587 0.85100001
-0.033718646 -0.073314175 0.85899991
-0.02783066 -0.075218 0.85800004
-0.0188045 -0.078978896 0.85800004
-0.14140984 -0.062430944 0.85799998
-0.13445145 -0.064640097 0.85735291
-0.12575071 -0.065726593 0.85408342
-0.11742721 -0.068785191 0.85100001
-0.10382115 -0.064854771 0.8548286
-0.09604805 -0.062785141 0.85350001
-0.088447779 -0.060713552 0.85500002
-0.051463839 -0.061230786 0.85700005
-0.044491604 -0.063331462 0.8566249
-0.038987998 -0.066818647 0.85799986
-0.14122179 -0.056037411 0.85799992
-0.13526247 -0.055018991 0.85620004
-0.12889265 -0.056485236 0.85150003
-0.11116046 -0.051476989 0.85100001
-0.10491437 -0.054416079 0.85355818
-0.095049456 -0.055045329 0.85215932
-0.084462777 -0.054649778 0.85228586
-0.074904233 -0.053181153 0.85443342
-0.065117151 -0.054099217 0.85518622
-0.054897837 -0.054898687 0.85783696
-0.046003338 -0.056654196 0.85799986
-0.15168963 -0.041871354 0.85800004
-0.14451684 -0.044399861 0.85752934
-0.13521481 -0.045371193 0.85439414
-0.1135012 -0.044658881 0.85357147
-0.1052322 -0.04517607 0.85624337
-0.094910145 -0.04546494 0.85387272
-0.084759422 -0.045369316 0.85397828
-0.075094149 -0.045055751 0.85661131
-0.065794818 -0.046250295 0.8574
-0.056529209 -0.047734499 0.85799986
-0.17074487 -0.033848099 0.85800004
-0.16479895 -0.034579873 0.85749996
-0.15509142 -0.035019565 0.857535
-0.14489484 -0.035283897 0.85636759
-0.13504145 -0.035123937 0.85517085
-0.12840235 -0.033240374 0.85099995
-0.11425638 -0.035560898 0.85411125
-0.10463122 -0.035253868 0.85787529
-0.094796762 -0.036057714 0.85784197
-0.085140258 -0.035852637 0.85772729
-0.076030359 -0.03703735 0.85799986
-0.2318836 -0.020755257 0.85159999
-0.22437938 -0.022744663 0.85386217
-0.21684264 -0.021600626 0.85699993
-0.16294955 -0.028377701 0.85799986
-0.15494907 -0.028733278 0.85799992
-0.14489585 -0.024525015 0.8589654
-0.1341015 -0.025669487 0.85764271
-0.12834722 -0.024466306 0.85450006
-0.11155465 -0.024325935 0.85204339
-0.10532914 -0.025131226 0.85700005
-0.091013782 -0.028582841 0.85800004
-0.089007966 -0.028833568 0.85800004
-0.23052739 -0.018651083 0.85100001
-0.22418602 -0.018464573 0.85099995
-0.21388376 -0.016192347 0.85328573
-0.20707484 -0.01358869 0.85668182
-0.15326624 -0.012987817 0.85699993
-0.14436162 -0.015133077 0.85879993
-0.13213295 -0.013037787 0.85799998
-0.12837206 -0.015294327 0.85799998
-0.11208346 -0.015303137 0.85480952
-0.10565275 -0.015162201 0.85787082
-0.2035342 -0.0074022501 0.85370374
-0.19585337 -0.003113888 0.85667855
-0.18604772 -0.0017190181 0.85771418
-0.17425503 -0.0015043599 0.85799998
-0.16252874 -0.0028351401 0.85799986
-0.15430021 -0.0052419878 0.85440481
-0.14539179 -0.0048965937 0.85773349
-0.13468133 -0.0050197118 0.85781407
-0.12795419 -0.0071039223 0.85799992
-0.11357918 -0.0097783403 0.85800004
-0.10380084 -0.0097783403 0.85800004
-0.19373101 0.0034988818 0.85376006
-0.18518634 0.0051544728 0.85566688
-0.17526081 0.0065566418 0.857611
-0.16512141 0.0051578064 0.8580001
-0.15441631 0.0047485777 0.85754281
-0.14505158 0.0052620047 0.85730642
-0.13649172 0.0026036999 0.85799986
-0.18267974 0.012809794 0.85286659
-0.17529567 0.014978526 0.85452527
-0.165033 0.015140331 0.85588646
-0.15573752 0.013621613 0.85876465
-0.14506608 0.015031533 0.85738099
-0.13482626 0.01554946 0.85789174
-0.1264737 0.016225597 0.85799992
-0.1738281 0.02014317 0.85100001
-0.16388467 0.022454102 0.85260862
-0.15457307 0.024210565 0.85347766
-0.14479636 0.024757601 0.85579604
-0.13457493 0.024811136 0.85759199
-0.12723415 0.024011899 0.85799986
-0.15176547 0.036773533 0.85174996
-0.14540276 0.034890879 0.85552001
-0.13445675 0.034948841 0.85800004
-0.12711842 0.037358273 0.85800004
-0.20143169 0.048492815 0.85100001
-0.19471732 0.048679326 0.85099995
-0.1849985 0.048716106 0.85229999
-0.17486051 0.0470731 0.85472733
-0.16478437 0.044239394 0.85411543
-0.15594685 0.042909458 0.85564995
-0.14968382 0.0413699 0.85800004
-0.13238367 0.0413699 0.85800004
-0.19320384 0.051493477 0.85620004
-0.18479957 0.051174548 0.85633332
-0.17776521 0.050897513 0.85799998
-0.042868249 -0.12122496 0.86657149
-0.034775421 -0.12169548 0.86222219
-0.028660864 -0.12218367 0.86033338
-0.068716466 -0.11320695 0.86900008
-0.051803984 -0.11960626 0.86900002
-0.043800674 -0.11636724 0.86867738
-0.035086423 -0.11550742 0.86734289
-0.025931157 -0.11635341 0.86300015
-0.015832599 -0.1164827 0.86000001
-0.093390949 -0.10251752 0.86706668
-0.085736059 -0.10291764 0.86888909
-0.07884872 -0.10170341 0.86900002
-0.11336671 -0.09242741 0.86621428
-0.10388149 -0.093924366 0.86118531
-0.094954088 -0.095205776 0.86167562
-0.08658471 -0.097130083 0.86511773
-0.078467801 -0.099798858 0.86900002
-0.0047029788 -0.093096867 0.86123079
-0.13149071 -0.082734011 0.86900008
-0.12438073 -0.083744757 0.86641669
-0.1158579 -0.085898004 0.86373937
-0.10745378 -0.08913146 0.86057144
-0.09801133 -0.089718066 0.86000001
-0.013414267 -0.083425842 0.86077774
-0.0068136123 -0.08696375 0.86400014
-0.14266862 -0.072920784 0.86226684
-0.13530254 -0.074724957 0.86388576
-0.12600407 -0.077554323 0.86219996
-0.11912146 -0.078409061 0.86000001
-0.024753563 -0.074614257 0.86008537
-0.015673144 -0.075870924 0.86388904
-0.0091418792 -0.079229623 0.86900002
-0.16249077 -0.060756382 0.86785716
-0.15492086 -0.062981866 0.86557901
-0.14516892 -0.064840011 0.86119998
-0.13771848 -0.068105303 0.86000007
-0.034508716 -0.064681396 0.86043769
-0.025449809 -0.064986944 0.86410016
-0.018616237 -0.0668649 0.86675006
-0.19578859 -0.051042162 0.86900002
-0.17141025 -0.051803984 0.86900002
-0.16447039 -0.05412842 0.86703467
-0.15473832 -0.054855995 0.86374414
-0.14559031 -0.054801464 0.86047083
-0.04351861 -0.052741975 0.86142111
-0.035713762 -0.05563163 0.86494613
-0.028949287 -0.057898574 0.86900002
-0.19426496 -0.04403339 0.86900008
-0.18531352 -0.040567093 0.86900002
-0.17342472 -0.043485537 0.86656016
-0.16489519 -0.045215346 0.86227024
-0.15526411 -0.045733757 0.86066675
-0.14671543 -0.048704095 0.86000001
-0.070115797 -0.042220265 0.86000001
-0.063481189 -0.042371053 0.86000001
-0.054778464 -0.043492161 0.86152941
-0.045144711 -0.045223802 0.86597371
-0.037075404 -0.049010638 0.86900002
-0.2208373 -0.032130711 0.86566669
-0.21600905 -0.032247309 0.86784619
-0.20462576 -0.031234756 0.86900008
-0.19441377 -0.034033544 0.86861551
-0.18499057 -0.03513049 0.86730021
-0.17534903 -0.034668922 0.86336684
-0.16511139 -0.038262118 0.86000007
-0.158326 -0.039958466 0.86000001
-0.095749535 -0.030911267 0.86000001
-0.083686605 -0.030911267 0.86000001
-0.073005877 -0.033675693 0.86000007
-0.064945184 -0.035510447 0.86192858
-0.055638213 -0.035212569 0.86587894
-0.048886262 -0.037616186 0.86860007
-0.22184123 -0.028364927 0.86114293
-0.21454108 -0.026044913 0.86314714
-0.20509201 -0.024939913 0.86521739
-0.19502468 -0.02518457 0.86672115
-0.18517116 -0.025151724 0.86547506
-0.17507574 -0.024849331 0.86265892
-0.16562209 -0.024062699 0.86177146
-0.1549959 -0.023704045 0.8615002
-0.13685344 -0.02293401 0.86023515
-0.10077576 -0.023371935 0.86000007
-0.095184088 -0.024691321 0.86000025
-0.084957227 -0.024623895 0.86026114
-0.074936554 -0.025082383 0.86159575
-0.064724527 -0.025392585 0.86707699
-0.057460334 -0.02801057 0.86877781
-0.20347813 -0.016452016 0.86080009
-0.19539379 -0.014986802 0.86373693
-0.18510491 -0.015173253 0.86533362
-0.17478965 -0.014989513 0.86350012
-0.16502775 -0.014955827 0.8637501
-0.15666829 -0.016424112 0.86218202
-0.13546883 -0.01542578 0.8606112
-0.1289226 -0.017340466 0.86000001
-0.10164392 -0.014735968 0.86000001
-0.094842598 -0.01493711 0.86115795
-0.085274801 -0.015449728 0.86326331
-0.075031459 -0.015043 0.86731577
-0.066747442 -0.015412273 0.86900014
-0.19412798 -0.0079905977 0.86108345
-0.18424952 -0.0064020371 0.86176461
-0.17461321 -0.0060777985 0.86095011
-0.16573042 -0.0059982627 0.86149997
-0.1424934 -0.0094241668 0.86000001
-0.13646193 -0.0098011335 0.86000001
-0.11261352 -0.0050637145 0.86270016
-0.10498919 -0.0050895526 0.86131912
-0.094765916 -0.0053063571 0.86550015
-0.08600758 -0.0067396248 0.86821431
-0.074772999 -0.0083771916 0.86853349
-0.067918882 -0.0088042375 0.86771429
-0.18019007 0.0015078667 0.86000001
-0.17456983 0.0017134849 0.86000001
-0.1627419 0.005923762 0.86000007
-0.15757206 0.0078624478 0.86000007
-0.13537668 0.0068454519 0.86064285
-0.1118453 0.0042041745 0.86363637
-0.10545909 0.0054284278 0.86578059
-0.096407756 0.0045047388 0.86865711
-0.16209567 0.011309 0.86000001
-0.13420013 0.011309 0.86000001
-0.12557179 0.017172925 0.86000007
-0.11390307 0.016120004 0.86736679
-0.10507002 0.015229214 0.86849999
-0.098158009 0.013771421 0.86900014
-0.12396178 0.025105581 0.86103231
-0.11486988 0.025022769 0.86726683
-0.10729013 0.022600761 0.86900014
-0.1447552 0.039958466 0.86000001
-0.13589647 0.037508182 0.86000007
-0.12601429 0.03320805 0.86263639
-0.11709549 0.031639274 0.8681429
-0.17002951 0.049119633 0.86200005
-0.16470526 0.048307206 0.86218184
-0.15365973 0.046091739 0.861875
-0.14625502 0.043705493 0.86438894
-0.13727936 0.042233411 0.86242861
-0.19700365 0.052460611 0.861
-0.17419699 0.051762432 0.86320001
-0.055229999 -0.12043208 0.87500006
-0.080543749 -0.11122708 0.87500006
-0.074325204 -0.11148237 0.87220013
-0.063905656 -0.11391006 0.87426937
-0.055236384 -0.1150708 0.87505555
-0.048238579 -0.11360949 0.87142879
-0.026725182 -0.11377292 0.87100005
-0.08299876 -0.10694966 0.87180018
-0.074606739 -0.10515014 0.87215793
-0.065445833 -0.10656305 0.87253129
-0.055720061 -0.10785311 0.87447375
-0.048523325 -0.10882852 0.87300003
-0.12015681 -0.091074273 0.87300003
-0.11876203 -0.091945678 0.87400007
-0.080175549 -0.098501392 0.87100005
-0.14005539 -0.080359653 0.87300003
-0.13402662 -0.083493933 0.87130791
-0.12489933 -0.088247649 0.87100017
-0.11835438 -0.089338467 0.87100005
-0.0049863704 -0.084606551 0.87537503
-0.13897096 -0.078648396 0.87100005
-0.012464118 -0.073266432 0.87512505
-0.0084340349 -0.077461764 0.87485725
-0.022439452 -0.060947623 0.87266678
-0.016988609 -0.065434463 0.8752144
-0.19312103 -0.050968666 0.87650013
-0.18164828 -0.054528341 0.8761251
-0.17485656 -0.055165503 0.87314284
-0.16771497 -0.057505701 0.87128586
-0.031330604 -0.052725952 0.87166673
-0.025789009 -0.05503577 0.875
-0.019242832 -0.059267927 0.87800002
-0.21287546 -0.041684147 0.87318188
-0.20461121 -0.042802267 0.87386954
-0.19466019 -0.044894926 0.87399995
-0.18470724 -0.045123391 0.87451857
-0.17741241 -0.046866596 0.87228584
-0.042282801 -0.04100959 0.87166673
-0.034865081 -0.044801671 0.87388575
-0.028424881 -0.047281981 0.87636369
-0.22067365 -0.035888102 0.87100005
-0.21445386 -0.036596846 0.87246144
-0.20527864 -0.035526603 0.87200004
-0.19685006 -0.037720688 0.87100017
-0.051707845 -0.031839658 0.87166673
-0.045202862 -0.034989301 0.87482858
-0.038206741 -0.038206741 0.87750006
-0.06154428 -0.021227431 0.87100011
-0.054315623 -0.024548311 0.87266654
-0.048802998 -0.026462661 0.876091
-0.064790957 -0.015925791 0.87221742
-0.057274602 -0.018196313 0.87400007
-0.083097339 -0.002855672 0.87215805
-0.076081358 -0.0049100434 0.8715716
-0.092407688 0.00741923 0.87114304
-0.085906029 0.0038284038 0.87349987
-0.079009585 0.0015341666 0.87500006
-0.094573222 0.012375203 0.87140006
-0.10562811 0.022652775 0.87100005
-0.0023188929 -0.083562776 0.88262504
0.0013997736 -0.083948277 0.88670003
-0.011057689 -0.071232088 0.88000005
-0.0045768642 -0.074964225 0.88487881
0.00077935663 -0.078715026 0.88900006
-0.012682954 -0.064260952 0.88474989
-0.0069954619 -0.066919282 0.88684618
-0.19209521 -0.052459732 0.88000005
-0.18610431 -0.053163219 0.88118172
-0.021991104 -0.05262582 0.88163638
-0.015272562 -0.055474214 0.88692486
-0.19929557 -0.047573775 0.88000005
-0.18669493 -0.048602398 0.88000005
-0.031335223 -0.041523494 0.88040006
-0.02488655 -0.04528299 0.88450003
-0.018964345 -0.048579901 0.88900012
-0.042688735 -0.031098984 0.88137507
-0.03451173 -0.034512736 0.88523793
-0.027486501 -0.036166508 0.88857144
-0.043760572 -0.026474457 0.88676476
-0.037699934 -0.027375191 0.88754553
-0.024624133 -0.11456279 0.89563632
-0.082242295 -0.10104591 0.89350003
-0.076248378 -0.10140403 0.89666671
-0.093666285 -0.092179261 0.89700001
-0.085442819 -0.095796846 0.89735502
-0.078462251 -0.098930664 0.89800006
-0.10273153 -0.084465079 0.89624995
-0.095352098 -0.085128427 0.89705008
-0.087753236 -0.087359615 0.89775014
0.0023433301 -0.080454327 0.89100003
-0.10297561 -0.078607194 0.89666677
-0.09656892 -0.079249494 0.89800006
-0.0013027267 -0.071681522 0.89200002
0.0012313409 -0.074398696 0.8934285
-0.003745245 -0.064064369 0.89350015
0.00078549335 -0.069123417 0.89600003
-0.011977021 -0.051292885 0.89099997
-0.0068192142 -0.056460451 0.89271432
-0.022282636 -0.042639945 0.89327276
-0.015420371 -0.04500315 0.89455563
-0.024031186 -0.03892488 0.89400005
-0.019637333 -0.038489174 0.89600003
-0.041127354 -0.11489125 0.90800005
-0.03512441 -0.1142632 0.90640002
-0.025756992 -0.11237786 0.90486664
-0.073519632 -0.10173722 0.90176928
-0.065047786 -0.10392281 0.90492868
-0.055234671 -0.10702296 0.90685725
-0.023084387 -0.10905383 0.90800005
-0.082937047 -0.092415571 0.90100002
-0.075063564 -0.094875105 0.90375006
-0.066817395 -0.096104115 0.90736383
-0.09162569 -0.081357293 0.90100002
-0.084113307 -0.084209695 0.90287894
-0.075124316 -0.085171275 0.90580416
-0.067384265 -0.085519508 0.90800029
-0.10207456 -0.074670434 0.90166664
-0.09471713 -0.074536473 0.90218943
-0.084988706 -0.074967273 0.90386945
-0.074777424 -0.074779868 0.90744472
-0.066012256 -0.074086085 0.90800041
-0.05704762 -0.071375862 0.90800005
-0.093539782 -0.067760035 0.90354544
-0.084859662 -0.065746017 0.90358055
-0.075396784 -0.065406293 0.9053514
-0.065505452 -0.066391081 0.90755582
-0.057710972 -0.067528479 0.90800005
-0.05185483 -0.11088958 0.91000003
-0.04483901 -0.11291383 0.9107368
-0.034474306 -0.11156432 0.91029996
-0.027921833 -0.11088958 0.91000003
-0.061428033 -0.10131636 0.91000003
-0.054187279 -0.1025188 0.91125005
-0.044810314 -0.10482541 0.91280949
-0.035256837 -0.10496614 0.91402417
-0.026930207 -0.10494068 0.91240007
-0.062187728 -0.094063729 0.91114283
-0.054858904 -0.094955012 0.91289997
-0.044917524 -0.094647728 0.91494489
-0.035294596 -0.094653726 0.9150005
-0.027648132 -0.095119908 0.91410005
-0.062326334 -0.084703259 0.91149998
-0.054567873 -0.084719539 0.9128378
-0.044859234 -0.084916264 0.91377801
-0.03606993 -0.08582899 0.91433358
-0.029614676 -0.08804363 0.91300005
-0.062536143 -0.07761734 0.9106667
-0.054621622 -0.07562349 0.9112857
-0.045523483 -0.076093622 0.91222227
-0.054407686 -0.067491062 0.91000003
