# .PCD v0.7 - Point Cloud Data file format
VERSION 0.7
FIELDS x y z
SIZE 4 4 4
TYPE F F F
COUNT 1 1 1
WIDTH 678
HEIGHT 1
VIEWPOINT 0 0 0 1 0 0 0
POINTS 678
DATA ascii
-0.10361119 -0.050743509 0.80766672
-0.10341774 -0.04887592 0.80800003
-0.072531022 -0.042647075 0.80885714
-0.093334608 -0.031541586 0.80250001
-0.084627323 -0.031197006 0.80193758
-0.074338771 -0.034091745 0.80764282
-0.092621461 -0.028259099 0.80300003
-0.085172236 -0.028155966 0.80292875
-0.077220611 -0.027780106 0.80566674
-0.10123659 -0.063901111 0.81900007
-0.098364629 -0.062305577 0.81900012
-0.10078862 -0.051643554 0.81250006
-0.097060442 -0.055954427 0.81558329
-0.073189393 -0.057403699 0.81850004
-0.069645032 -0.058157191 0.81900007
-0.10143577 -0.046947248 0.81139994
-0.098256968 -0.047919828 0.81100005
-0.073526435 -0.044768151 0.81219995
-0.069304883 -0.047877394 0.81500006
-0.080814339 -0.03436387 0.81100005
-0.077178463 -0.035645664 0.81172729
-0.10053175 -0.067262247 0.82500005
-0.095208153 -0.063473679 0.82488889
-0.052925244 -0.060175277 0.82700002
-0.094184689 -0.059016909 0.82433337
-0.073531285 -0.053208034 0.82342863
-0.05437525 -0.058725271 0.82700002
-0.081331879 -0.042844746 0.82833338
-0.079025365 -0.044225205 0.82700002
-0.081233978 -0.038441833 0.82733339
-0.078834251 -0.03977875 0.82500005
-0.093789622 -0.067138404 0.83400017
-0.088599816 -0.064077817 0.83328581
-0.091971092 -0.055136826 0.83563638
-0.085382201 -0.054572631 0.83468413
-0.073163219 -0.053597517 0.83099997
-0.065230146 -0.054801311 0.83487463
-0.054944202 -0.054213513 0.83571416
-0.047966961 -0.054573227 0.83750004
-0.09092588 -0.045628503 0.83827269
-0.08546824 -0.045095529 0.83364713
-0.078266419 -0.047835071 0.83214289
-0.064345948 -0.048284292 0.83814287
-0.056076467 -0.047832578 0.838
-0.085860439 -0.038293384 0.83466673
-0.23404352 -0.011915478 0.83900005
-0.22461048 -0.012411955 0.83899999
-0.21918595 -0.01103285 0.83900005
-0.2338341 -0.0044938913 0.83848155
-0.22490871 -0.0049813502 0.83636177
-0.21540222 -0.0045119938 0.83695239
-0.20679566 -0.0031852641 0.83804768
-0.24251258 0.0058841859 0.83900005
-0.23471703 0.0051321737 0.83666664
-0.22502504 0.0051132641 0.833381
-0.2153932 0.0050245626 0.83332002
-0.2050515 0.0052063009 0.83576363
-0.19561495 0.0071813832 0.83861542
-0.18755846 0.0085811056 0.83900005
-0.24327436 0.012687778 0.83900011
-0.23423938 0.014016181 0.83780009
-0.22489792 0.015279248 0.83548766
-0.21495323 0.015357732 0.83399999
-0.20492488 0.015234441 0.83646166
-0.19521357 0.014627449 0.83840019
-0.1866758 0.013190387 0.83899999
-0.22316851 0.022658246 0.8386364
-0.21555723 0.023253229 0.83828008
-0.20547844 0.023001822 0.83899999
-0.19932683 0.021330176 0.83900005
-0.082280248 -0.10102724 0.84860003
-0.079639032 -0.10196773 0.84900004
-0.11428235 -0.091277011 0.84900004
-0.10568918 -0.09055528 0.84900004
-0.094524823 -0.091228701 0.84900004
-0.085212462 -0.094557799 0.84876025
-0.1129219 -0.08662048 0.84812504
-0.10469979 -0.084711954 0.84760016
-0.094921269 -0.084789462 0.84588891
-0.088100202 -0.087531999 0.84669238
-0.10391676 -0.075556457 0.84492862
-0.096588723 -0.075248525 0.84229058
-0.063171498 -0.061685555 0.84775007
-0.057513427 -0.06148063 0.84833336
-0.096497156 -0.05231123 0.84280002
-0.056104034 -0.059790418 0.84200001
-0.043869585 -0.05237532 0.8414706
-0.035923559 -0.05290401 0.84600008
-0.13590735 -0.041829091 0.8490001
-0.12206356 -0.041680239 0.84900004
-0.11436991 -0.044050522 0.84665728
-0.10655445 -0.044713899 0.8453334
-0.096251808 -0.044663206 0.84191895
-0.070274472 -0.043643445 0.84380007
-0.065307587 -0.04351075 0.84224141
-0.054833319 -0.043296847 0.84267735
-0.0453013 -0.045329463 0.84423387
-0.036962096 -0.047030937 0.84790921
-0.16002235 -0.030515891 0.84900004
-0.15426651 -0.032103706 0.84900004
-0.14310309 -0.032613184 0.84888232
-0.13504423 -0.035011522 0.8471396
-0.12535138 -0.03461007 0.84695667
-0.11494515 -0.034850445 0.84589815
-0.10590944 -0.03404738 0.84668761
-0.094774127 -0.037447378 0.84518188
-0.088487603 -0.036259059 0.84414291
-0.071595818 -0.035479035 0.84730774
-0.065013461 -0.036733083 0.84738719
-0.055191386 -0.037744515 0.84773684
-0.048653074 -0.03883335 0.84860003
-0.24244744 -0.020824341 0.84833336
-0.23476419 -0.021762416 0.84757161
-0.22510582 -0.023632789 0.84686214
-0.21487226 -0.023721591 0.84751314
-0.20461373 -0.022575218 0.84893364
-0.19723685 -0.021584408 0.84900004
-0.17432967 -0.02260939 0.84893143
-0.16432039 -0.024048883 0.84833372
-0.1549568 -0.024334142 0.84788913
-0.14489079 -0.024696274 0.84700018
-0.13500346 -0.024604848 0.84670734
-0.12556033 -0.024515726 0.84748989
-0.11510427 -0.024505641 0.84708172
-0.10589992 -0.025235726 0.8480559
-0.084402487 -0.026943296 0.8490001
-0.079639032 -0.02605015 0.84900004
-0.24411854 -0.01440596 0.84637946
-0.23475428 -0.015221734 0.84216124
-0.22474824 -0.016871272 0.84168953
-0.21488115 -0.015329314 0.84295648
-0.2048877 -0.014789918 0.84630257
-0.19537783 -0.014680844 0.84842128
-0.18480144 -0.01417967 0.84858865
-0.17469722 -0.014950226 0.84743917
-0.16486792 -0.014742196 0.84640545
-0.15503362 -0.014838462 0.84614289
-0.1446808 -0.015053428 0.84289473
-0.135262 -0.014898788 0.84272081
-0.12561099 -0.014867265 0.84785736
-0.11614468 -0.016906014 0.8490001
-0.10891443 -0.018111058 0.84900004
-0.24394174 -0.0057241814 0.84421223
-0.23689269 -0.0064086351 0.8409999
-0.21274526 -0.0089292405 0.84100002
-0.20367859 -0.0066449819 0.84189653
-0.19528742 -0.0051577729 0.84425497
-0.18494652 -0.0052196537 0.84436166
-0.17502202 -0.0049898713 0.84378248
-0.1650434 -0.0053682872 0.84273905
-0.15509467 -0.0051384424 0.84185088
-0.14502113 -0.0049169301 0.84149981
-0.13512023 -0.0052594519 0.84283322
-0.12703083 -0.0064780521 0.84706926
-0.24344756 0.004026935 0.84130758
-0.19450082 0.0028531684 0.84108675
-0.18488358 0.0049367002 0.84108669
-0.1748095 0.0051624035 0.84136724
-0.1649092 0.005329554 0.84257442
-0.15493397 0.0051265345 0.84383988
-0.1453006 0.0044207796 0.84604752
-0.1352184 0.0021523093 0.84773684
-0.12876217 0.00148858 0.84900004
-0.24141714 0.015318971 0.84100002
-0.23620549 0.01769937 0.84119987
-0.22929305 0.019906471 0.84100002
-0.19341224 0.019087275 0.84100002
-0.18414567 0.016480301 0.84099972
-0.17525147 0.015102456 0.84335548
-0.16503063 0.014890671 0.84611624
-0.15611476 0.013196685 0.84800011
-0.14960229 0.01116435 0.84900004
-0.2345397 0.024869679 0.8439697
-0.22597378 0.026133895 0.84203994
-0.21430604 0.027536392 0.84133321
-0.20433396 0.027364952 0.84111094
-0.19541298 0.025007928 0.84259999
-0.18506896 0.024861166 0.84534174
-0.17541479 0.022891093 0.84751642
-0.16647287 0.020343928 0.84900004
-0.23260596 0.030742507 0.84500003
-0.22449295 0.032801181 0.84614289
-0.21520248 0.032383405 0.84636009
-0.20527896 0.03162111 0.84570605
-0.19864652 0.031053111 0.84740007
-0.12196216 -0.10217754 0.85700005
-0.11487047 -0.1027801 0.8573913
-0.10680956 -0.10079212 0.85799992
-0.092596166 -0.1033238 0.85671425
-0.085190497 -0.10523003 0.85361284
-0.078484334 -0.10654794 0.85499996
0.01730014 -0.10041603 0.85800004
0.021813219 -0.10003994 0.85800004
-0.12153555 -0.097112134 0.85469997
-0.11489045 -0.096679501 0.85348278
-0.10525568 -0.094418295 0.85303122
-0.094721615 -0.096166179 0.8526786
-0.087784432 -0.098229043 0.85100001
0.016244562 -0.094582684 0.85730773
0.021609245 -0.095411733 0.85786653
-0.11254942 -0.081783898 0.85587502
-0.10668419 -0.085048944 0.85100001
0.017300138 -0.08950942 0.85800004
-0.11244701 -0.075880677 0.85699993
-0.10755853 -0.072867945 0.85399991
-0.080483258 -0.072209284 0.85800004
-0.074908882 -0.073666461 0.85782599
-0.065631732 -0.073083095 0.85781807
-0.059283707 -0.07129053 0.85600007
-0.13336952 -0.063342378 0.85788876
-0.12780561 -0.062829569 0.8575713
-0.081536308 -0.066643134 0.85799992
-0.074928619 -0.06631171 0.85667658
-0.06538628 -0.066586405 0.85391438
-0.05754571 -0.06626752 0.85249996
-0.16196942 -0.050897513 0.85799998
-0.15482371 -0.052527238 0.85799986
-0.14486717 -0.055844046 0.85884845
-0.13496259 -0.054622609 0.8580001
-0.12655801 -0.054532338 0.85745448
-0.11594233 -0.053385247 0.85533333
-0.1015443 -0.05490914 0.85800004
-0.030972457 -0.052221108 0.85340005
-0.027683647 -0.052538898 0.85707688
-0.17382273 -0.042774215 0.85787487
-0.16478962 -0.045238674 0.85714996
-0.15731332 -0.044655818 0.85780942
-0.14633352 -0.045502856 0.85766131
-0.13458571 -0.045659456 0.85372418
-0.12571515 -0.045474902 0.85428584
-0.11601476 -0.048843384 0.85133326
-0.041778423 -0.041032381 0.85100001
-0.033561163 -0.043962065 0.85223073
-0.026963284 -0.045892276 0.8567999
-0.23340192 -0.033055507 0.85689992
-0.22472598 -0.033531751 0.85671443
-0.21479207 -0.034225672 0.85542119
-0.20510292 -0.034667965 0.85655832
-0.19484138 -0.035448764 0.85896146
-0.18422173 -0.034706507 0.85729426
-0.17502443 -0.035429642 0.85591507
-0.16509877 -0.035135601 0.85430259
-0.15541083 -0.036925733 0.8536666
-0.14650176 -0.036224049 0.85275859
-0.12682736 -0.039540295 0.85100001
-0.072963044 -0.030886194 0.85100001
-0.064292878 -0.031938039 0.85166663
-0.05460494 -0.032738648 0.85330772
-0.04554211 -0.036188133 0.85455185
-0.0340547 -0.038575828 0.85817647
-0.24118221 -0.025870433 0.85280001
-0.23592286 -0.027146261 0.85359097
-0.22572327 -0.02832382 0.85192305
-0.21411444 -0.02872267 0.85099995
-0.20516381 -0.027859896 0.85194999
-0.19456355 -0.025472036 0.8549757
-0.18518892 -0.024703773 0.85373813
-0.17594066 -0.027388819 0.852
-0.16700712 -0.028669383 0.85099995
-0.10226297 -0.022679163 0.85146147
-0.095141359 -0.02397076 0.85454768
-0.087739877 -0.023496529 0.85449994
-0.073682591 -0.025159094 0.85555178
-0.066705666 -0.026553145 0.85572016
-0.057097301 -0.029300831 0.85700005
-0.19073842 -0.018153721 0.85100001
-0.18675952 -0.01790504 0.85100001
-0.12011298 -0.011936693 0.85100001
-0.11408526 -0.01291952 0.85271424
-0.1051565 -0.015269428 0.85525721
-0.095466964 -0.01744714 0.85747355
-0.088005058 -0.018202756 0.85799998
-0.12300331 -0.0038424945 0.85188878
-0.11578995 -0.0054411776 0.85584623
-0.1090661 -0.0097783403 0.85800004
-0.14236163 0.0088244388 0.85289991
-0.13507067 0.0060292059 0.85373676
-0.12522092 0.0021540248 0.8540625
-0.11959662 0.00075218 0.85800004
-0.1543273 0.016945088 0.8533529
-0.14641276 0.012889323 0.85474998
-0.19247918 0.029095691 0.85100001
-0.18352666 0.029095691 0.85100001
-0.17467247 0.027359374 0.85429406
-0.16533597 0.023184983 0.85533333
-0.15927543 0.020285189 0.85700005
-0.22058015 0.037550848 0.85100001
-0.21474585 0.037777893 0.85508686
-0.20500627 0.036143597 0.85495651
-0.19488586 0.033219565 0.85568011
-0.18573995 0.03224621 0.85535014
-0.17912988 0.031316873 0.85733336
-0.01142735 -0.13560456 0.86900002
-0.0056177927 -0.1333276 0.86651617
0.0031538811 -0.13263945 0.86375004
0.0294034 -0.13043046 0.86000001
-0.0040845494 -0.12776636 0.86845458
0.0054768673 -0.12538688 0.86568892
0.015518171 -0.12402999 0.86718529
0.025669031 -0.12403943 0.86415792
0.032245964 -0.1252013 0.86247081
-0.1112262 -0.11046438 0.86900002
-0.10640132 -0.11071833 0.86900002
-0.092621394 -0.11239441 0.8676154
-0.084525257 -0.11477175 0.86509687
-0.076867662 -0.11526261 0.86669582
0.0082547907 -0.11542017 0.86488897
0.014864706 -0.11493621 0.86393768
0.024120959 -0.11635049 0.86706662
-0.1321011 -0.10167375 0.86766672
-0.12710701 -0.10213518 0.86300004
-0.11162948 -0.10684842 0.86233336
-0.1050164 -0.10502689 0.86519229
-0.096603014 -0.10526254 0.8631112
-0.088210203 -0.10932034 0.86000001
-0.077655129 -0.10932034 0.86000001
0.0082496963 -0.10577939 0.86370021
0.014851426 -0.10531816 0.86068422
0.021807959 -0.10443243 0.86111116
-0.13225219 -0.099569172 0.86700004
-0.12683569 -0.098145314 0.86116672
-0.1018599 -0.098841824 0.86066675
-0.07482902 -0.091576584 0.86842865
-0.06645935 -0.090964936 0.86571425
0.0088532064 -0.094582938 0.86214298
0.011912147 -0.095297173 0.86000001
0.026199905 -0.094231956 0.86054552
-0.12215298 -0.081993237 0.86760008
-0.11748306 -0.082669668 0.86333334
-0.09160202 -0.082468323 0.86833334
-0.084891498 -0.084047362 0.8671481
-0.074982345 -0.084975325 0.86519504
-0.065637723 -0.084861457 0.86511123
0.0070953639 -0.084805034 0.86542851
0.014942179 -0.085058197 0.86220521
0.022770785 -0.087295309 0.86261117
-0.14192846 -0.07134489 0.86760008
-0.13415688 -0.07258708 0.86457145
-0.12492181 -0.074574761 0.86331576
-0.11661819 -0.073455483 0.86013806
-0.10818943 -0.070492767 0.86000001
-0.091589428 -0.075783454 0.86594117
-0.084468357 -0.075348444 0.86250007
-0.07516633 -0.078182302 0.86026663
-0.066079088 -0.07756719 0.86030763
0.0078900354 -0.075764239 0.86876017
0.015005168 -0.076448701 0.86841935
0.02052189 -0.079807349 0.86700004
-0.17141025 -0.060184043 0.86900002
-0.16499248 -0.062247362 0.86776465
-0.15486512 -0.063913569 0.86564296
-0.14487235 -0.064812995 0.8635456
-0.13663341 -0.066242501 0.86059999
-0.1241087 -0.065597869 0.86008
-0.11531916 -0.065015696 0.86402327
-0.10828806 -0.064210288 0.86683327
-0.082932666 -0.06521523 0.86000001
-0.078409061 -0.062576465 0.86000001
-0.02052189 -0.060045529 0.86700004
-0.01713182 -0.060530327 0.86849999
-0.2126897 -0.052475076 0.86750001
-0.2050703 -0.053219646 0.86824989
-0.1951824 -0.053594511 0.86800003
-0.18490422 -0.05363052 0.86771441
-0.17475562 -0.054354969 0.86551446
-0.16515356 -0.055239085 0.86236376
-0.15510739 -0.056198232 0.86043757
-0.13947767 -0.058806799 0.86000001
-0.12467497 -0.055535436 0.8602401
-0.11530796 -0.05828752 0.86222237
-0.10718039 -0.056851655 0.86460006
-0.022884645 -0.054836988 0.86138475
-0.01498001 -0.054462325 0.86710727
-0.0099037029 -0.051803984 0.86900002
-0.23048443 -0.040051393 0.86200005
-0.2236637 -0.041941989 0.86528581
-0.21486294 -0.045250092 0.86551434
-0.20501256 -0.045217488 0.86358976
-0.19507426 -0.045346104 0.86407155
-0.18502499 -0.045346443 0.86316222
-0.17594048 -0.046926048 0.86133349
-0.15234275 -0.045592967 0.86027265
-0.023641115 -0.04478078 0.86115807
-0.015696904 -0.047763862 0.86478561
-0.0099037029 -0.049518518 0.86900002
-0.23145753 -0.037696667 0.86000001
-0.22651809 -0.038088534 0.86033326
-0.21612757 -0.03970715 0.86000007
-0.20506985 -0.039958466 0.86000007
-0.18829483 -0.038073633 0.86000007
-0.085194468 -0.020356201 0.86000001
-0.064706989 -0.025089104 0.86075008
-0.057230301 -0.027697658 0.86057144
-0.10203231 -0.011811621 0.86000007
-0.095032126 -0.013072562 0.86033326
-0.087627925 -0.015835581 0.86020005
-0.111527 -0.0049434258 0.86022234
-0.10516051 -0.0069926325 0.86180645
-0.097441696 -0.0086583495 0.86311108
-0.13511901 0.0087622833 0.86385715
-0.15151519 0.018515201 0.86200005
-0.14460553 0.015829092 0.86557144
-0.13835627 0.012418422 0.8671667
-0.17190452 0.029129177 0.86080009
-0.16421334 0.027583105 0.86361915
-0.15581988 0.023679312 0.86531031
-0.14973378 0.02052189 0.86700004
-0.2103474 0.039958466 0.86000001
-0.20350413 0.039071631 0.86040002
-0.1949302 0.037778944 0.86185712
-0.18474966 0.036121789 0.86281246
-0.17504598 0.033140108 0.86440909
-0.16672964 0.032269385 0.86699998
-0.21355882 0.041504908 0.86080009
-0.20514755 0.041114155 0.86409092
-0.19521919 0.041621394 0.86688226
-0.18821524 0.040930338 0.86780006
-0.020770425 -0.13385165 0.87750006
-0.015749097 -0.13443214 0.87343752
-0.11083872 -0.12084499 0.87800002
-0.10739167 -0.12043208 0.87500006
-0.073965326 -0.12353215 0.87472731
-0.065973632 -0.12397776 0.87714297
-0.057215359 -0.12289757 0.87800002
-0.02078226 -0.12854213 0.87800002
-0.014718625 -0.12736878 0.87547833
-0.005164736 -0.12338259 0.87283331
0.0012726277 -0.12191775 0.87100005
-0.11196892 -0.11518647 0.87360001
-0.10647213 -0.11580112 0.87318194
-0.072564252 -0.1142088 0.87500012
-0.067104012 -0.11713762 0.87650007
0.0038193443 -0.11890873 0.87133342
-0.10193749 -0.10728253 0.87100005
-0.083304204 -0.09189868 0.875
-0.075508013 -0.09573064 0.87481827
-0.13365956 -0.082193449 0.87621444
-0.12571163 -0.084912345 0.87460876
-0.11988153 -0.086284161 0.87100005
-0.085044555 -0.088863611 0.87133342
0.0033088319 -0.081193648 0.87100005
0.023539083 -0.082136355 0.8756668
-0.18781006 -0.070043914 0.87800002
-0.17010665 -0.070043914 0.87800002
-0.16409035 -0.071108565 0.87757152
-0.15373778 -0.072987273 0.87518758
-0.14506325 -0.074882507 0.87404007
-0.13583861 -0.077544294 0.87328583
-0.12904446 -0.078648396 0.87100005
-0.00076532998 -0.071175687 0.87300003
0.0027274766 -0.074544586 0.87147641
0.014908922 -0.072999045 0.87187517
0.020746756 -0.078375317 0.87650001
-0.2014612 -0.06169425 0.87600011
-0.19399977 -0.063176282 0.87412
-0.18521453 -0.06436637 0.87455255
-0.17501178 -0.063821875 0.87413806
-0.16555814 -0.066865273 0.8731178
-0.15579215 -0.06891565 0.8718335
-0.14813387 -0.069485478 0.87100005
-0.013937149 -0.06331481 0.87244457
-0.0050866865 -0.064750627 0.87247813
0.0049709193 -0.065451674 0.87234098
0.012878314 -0.067304008 0.87336373
-0.203418 -0.057492897 0.87150013
-0.19462204 -0.057788551 0.87116688
-0.18539642 -0.058184542 0.87100017
-0.17867693 -0.058795404 0.87100005
-0.012217226 -0.058795404 0.87100005
-0.005346837 -0.055499677 0.87175679
0.0019604214 -0.05731082 0.87422222
-0.13171841 0.008868861 0.8742857
-0.12510507 0.0046102153 0.87660009
-0.11776614 0.00076971325 0.87800002
-0.14257778 0.018144211 0.87227285
-0.13631722 0.014668988 0.8748126
-0.1538441 0.027356258 0.87371439
-0.14563657 0.022859992 0.87492007
-0.13931811 0.02078226 0.87800002
-0.17464262 0.037751138 0.87400013
-0.16521801 0.034365129 0.87407696
-0.15779123 0.030788533 0.87800002
-0.06238272 -0.13135929 0.88400006
-0.054605152 -0.13337527 0.8866666
-0.044754293 -0.13390324 0.88518512
-0.034902204 -0.13418262 0.88474303
-0.025435729 -0.13452388 0.88275862
-0.062508591 -0.12799509 0.8802858
-0.054549422 -0.12500288 0.88283718
-0.045054037 -0.12506343 0.88609517
-0.035274941 -0.12591001 0.88646334
-0.024861047 -0.12583867 0.88527268
-0.01540359 -0.12329591 0.88254547
-0.0077354871 -0.12220229 0.88225007
-0.072517872 -0.11186267 0.88000005
-0.064085461 -0.11417481 0.88385707
-0.056912143 -0.11843965 0.88613337
-0.045855183 -0.11797855 0.88871425
-0.03974719 -0.11924157 0.88900006
-0.14233734 -0.10048703 0.88400006
-0.13681632 -0.10087518 0.88175005
-0.081536137 -0.10211657 0.8876667
-0.074660078 -0.10628012 0.88708335
-0.067865618 -0.10897601 0.88475007
-0.14263269 -0.094799548 0.88752633
-0.13521092 -0.095388375 0.88569039
-0.12611113 -0.093548991 0.88630438
-0.082657397 -0.096599676 0.88325012
-0.07885398 -0.097408921 0.88183337
-0.16082975 -0.081961319 0.88200003
-0.15405902 -0.083950616 0.88458347
-0.14494856 -0.085211977 0.88471425
-0.13583463 -0.086551234 0.88218176
-0.12835452 -0.088920303 0.88200003
-0.18294996 -0.071713813 0.8811667
-0.17460635 -0.073431432 0.88168967
-0.16504939 -0.076143838 0.88163632
-0.15559167 -0.077449828 0.88080007
-0.14637791 -0.079234011 0.88033342
0.0231966 -0.079641663 0.88200003
-0.20289573 -0.064031735 0.88000005
-0.18206614 -0.068660535 0.88000005
-0.17688631 -0.068219699 0.88000005
0.007994323 -0.061621774 0.88233334
0.012058801 -0.063842244 0.88357151
0.0059461384 -0.05919838 0.88466674
-0.12407871 0.0070484518 0.88170594
-0.1187857 0.0035548832 0.88100004
-0.13327372 0.01621139 0.88367987
-0.12714021 0.012663404 0.88595009
-0.15137842 0.028576702 0.88100004
-0.13708638 0.021891857 0.88550007
-0.033963531 -0.1213463 0.89400005
-0.026034698 -0.12155499 0.89312494
-0.07915774 -0.11050734 0.89400005
-0.061367761 -0.11179276 0.89175004
-0.054318842 -0.11569053 0.89428574
-0.04493013 -0.11584965 0.89289999
-0.038421672 -0.11880148 0.89450002
-0.080634922 -0.10725403 0.89300007
-0.076910667 -0.10745813 0.89340007
-0.15092343 -0.093058169 0.89200002
-0.14738944 -0.094514325 0.89099985
-0.13096611 -0.097118013 0.89100003
-0.15153533 -0.089827649 0.89100003
-0.14919201 -0.089827649 0.89100003
0.018775696 -0.072291441 0.89771432
0.022190187 -0.077587105 0.89760005
0.0085922098 -0.060145471 0.89100003
0.014929086 -0.065796353 0.89612508
0.0064442009 -0.057995003 0.89639997
0.010234207 -0.059043501 0.89800006
-0.059536625 -0.11430813 0.90550005
-0.035732716 -0.11910415 0.90575004
0.023458723 -0.074905269 0.90193337
0.016650859 -0.064216815 0.90437502
0.022288375 -0.069253162 0.90800005
-0.0042984718 -0.051422458 0.90800005
0.0045394851 -0.053770352 0.90580016
0.012075596 -0.057719152 0.90466666
-0.023751657 -0.042616017 0.90742862
-0.014655313 -0.044220883 0.90899998
-0.0067299306 -0.047109518 0.90800005
0.0015920267 -0.048556812 0.90800005
-0.064217806 -0.11174512 0.91374999
-0.055694785 -0.1132668 0.91633344
-0.036936156 -0.11884838 0.91600001
0.028304389 -0.082902312 0.91587508
0.027845081 -0.074619792 0.91525012
0.033800758 -0.074442148 0.91800004
0.01890064 -0.062557466 0.91100001
0.023755183 -0.064780682 0.91530013
-0.010370967 -0.0502593 0.91000003
0.0075105787 -0.050964843 0.91120005
0.014969726 -0.054250363 0.91460013
0.02211879 -0.055494152 0.91743767
-0.025278831 -0.040974375 0.91049999
-0.004133903 -0.043900568 0.912
0.0049150507 -0.046099398 0.91426092
0.012736652 -0.04758985 0.91750008
-0.052310701 -0.03138642 0.91800004
-0.044447873 -0.033437185 0.91547632
-0.035110291 -0.035751801 0.9160803
-0.024908278 -0.036513649 0.91448271
-0.015021618 -0.036525857 0.91248161
-0.0070358342 -0.038047429 0.91477787
-0.047482021 -0.02977686 0.91800004
-0.031454802 -0.12098 0.92000002
-0.02474593 -0.1221301 0.92260009
-0.014595513 -0.12328515 0.92520833
-0.0048425393 -0.12400777 0.92800015
0.00302043 -0.12328167 0.92778587
-0.070974931 -0.11049507 0.92000002
-0.065329202 -0.11049507 0.92000002
-0.053856812 -0.11114501 0.92037505
-0.045098681 -0.11442612 0.92310011
-0.036618866 -0.11703588 0.92528582
-0.02481376 -0.11823907 0.92506683
-0.017047659 -0.11852183 0.92600012
-0.0040677334 -0.11959136 0.92800003
0.00424443 -0.11769932 0.92733341
-0.073093571 -0.10521418 0.92299998
-0.065178625 -0.10543498 0.92394108
-0.055478178 -0.10754772 0.92520016
-0.048261553 -0.10903595 0.92680007
-0.070549749 -0.099742748 0.92500007
-0.068927914 -0.099742748 0.92500007
0.02912988 -0.091435455 0.92300004
0.034712415 -0.094197035 0.92481828
-0.051253438 -0.080541119 0.92800003
0.029438466 -0.087508865 0.92000002
0.0347034 -0.085955523 0.92062503
-0.053506333 -0.072655961 0.92800015
-0.046254646 -0.073255002 0.92708695
-0.035199456 -0.071754813 0.92800021
-0.02558152 -0.071501702 0.92800003
-0.013830293 -0.071592107 0.92800003
0.034266215 -0.074823029 0.92040002
-0.05300492 -0.067814358 0.92700005
-0.045199566 -0.065637641 0.92509973
-0.034992889 -0.065069929 0.92389739
-0.025031922 -0.066562757 0.92639136
0.029320264 -0.062404785 0.92050004
0.033622213 -0.064732015 0.92252386
0.026637878 -0.054365709 0.92070597
0.031595442 -0.05705785 0.92414296
-0.00080653332 -0.041133199 0.92000002
0.0055041513 -0.041899674 0.92270005
0.015610332 -0.044467367 0.92230773
0.022693057 -0.047689386 0.92207706
-0.034702498 -0.031475313 0.92060006
-0.0018899472 -0.037550118 0.92449999
0.0027062697 -0.039207745 0.92533332
-0.0051635667 -0.1214797 0.93000007
-0.042258315 -0.11046263 0.93060005
-0.034311976 -0.1133737 0.93272418
-0.024696603 -0.1136644 0.93372416
-0.014366244 -0.1150804 0.93494111
-0.0049384562 -0.11540017 0.93463433
0.0029700077 -0.11352922 0.93310529
-0.062864892 -0.1013523 0.9312858
-0.055232033 -0.10266862 0.9315002
-0.044809278 -0.10456143 0.93365031
-0.034446053 -0.10498454 0.93558311
-0.024769211 -0.10521084 0.93739986
-0.016922344 -0.10547251 0.9379999
-0.0039620544 -0.10533087 0.9379999
0.0041033542 -0.10510691 0.93669993
-0.063067965 -0.095637061 0.93429416
-0.055330258 -0.095074028 0.93321067
-0.044792134 -0.094830155 0.93410015
-0.034416344 -0.095059462 0.9347499
-0.02462366 -0.095221922 0.93633324
-0.015611207 -0.094561324 0.93730748
-0.0049338806 -0.095388383 0.93799984
0.0031246587 -0.096113838 0.93784988
-0.062611528 -0.085507438 0.93271428
-0.055619542 -0.085004315 0.93102872
-0.045057803 -0.085080504 0.9320488
-0.034507923 -0.084957495 0.93302703
-0.024570476 -0.08518301 0.93427783
-0.014760994 -0.085297242 0.93552768
-0.0049223369 -0.085310161 0.93566662
0.0012295248 -0.08811596 0.93500006
-0.06134475 -0.079339206 0.93300003
-0.05570247 -0.077579431 0.93035316
-0.044339776 -0.077704355 0.93000025
-0.03494072 -0.076738246 0.93011135
-0.024109663 -0.076269768 0.931741
-0.014992985 -0.076021127 0.93306667
-0.0053621801 -0.077576429 0.9325555
-0.018751901 -0.069300503 0.93000007
0.020382499 -0.044841498 0.93000007
-0.014009133 -0.11207306 0.94000006
-0.020601667 -0.10465647 0.94000006
-0.012463209 -0.10527715 0.94035316
-0.0064748088 -0.10536282 0.94000024
-0.012690626 -0.097569495 0.94000018
