# .PCD v0.7 - Point Cloud Data file format
VERSION 0.7
FIELDS x y z
SIZE 4 4 4
TYPE F F F
COUNT 1 1 1
WIDTH 541
HEIGHT 1
VIEWPOINT 0 0 0 1 0 0 0
POINTS 541
DATA ascii
-0.25200287 0.028525196 0.82900006
-0.2467858 0.029174089 0.82900006
-0.25401053 0.035986509 0.8288424
-0.24646428 0.03636127 0.82900035
-0.14169373 0.037346292 0.82183337
-0.13815585 0.0371648 0.82376921
-0.26699573 0.045999449 0.82728583
-0.25426638 0.044657297 0.82827789
-0.24460459 0.045001801 0.82795233
-0.23515119 0.045785669 0.82900035
-0.22892834 0.045785669 0.82900006
-0.14183487 0.043385834 0.82354546
-0.13681634 0.04552399 0.82607144
-0.26246363 0.05383385 0.8267144
-0.25422245 0.052710257 0.82730776
-0.24425241 0.053701289 0.82809097
-0.23658988 0.052849405 0.82874221
-0.13635445 0.050388522 0.82820004
-0.24588601 0.06419684 0.82900006
-0.26200718 0.018359812 0.83775002
-0.25517589 0.018104346 0.83778268
-0.24505469 0.018311441 0.83871424
-0.23904508 0.019123606 0.83900005
-0.14015007 0.01981179 0.83700001
-0.27140811 0.025743317 0.83900005
-0.26514158 0.02492822 0.83711439
-0.25559756 0.024748428 0.83254266
-0.24473967 0.025040118 0.83377564
-0.23557149 0.025841365 0.83726329
-0.22801222 0.027214363 0.83900005
-0.14015007 0.021279329 0.83700001
-0.13749623 0.02422937 0.8375333
-0.27152354 0.034945689 0.83633333
-0.26494592 0.034575891 0.83419037
-0.25789252 0.032054439 0.83100003
-0.24270086 0.034243941 0.83110541
-0.23511192 0.034573063 0.8338303
-0.22601174 0.035198752 0.83778065
-0.21918595 0.037511688 0.83900005
-0.13569027 0.035781547 0.83866662
-0.27060246 0.040844776 0.83200002
-0.26391566 0.04390274 0.83161104
-0.25789255 0.048810169 0.83100003
-0.23428713 0.04161137 0.83111119
-0.22498302 0.044647951 0.83396316
-0.21609499 0.045824189 0.83835149
-0.20962414 0.048544541 0.83900005
-0.13337128 0.042921681 0.8338182
-0.12921138 0.042285666 0.83459997
-0.260928 0.053302646 0.83100003
-0.25552768 0.055924218 0.83223516
-0.24769339 0.057260882 0.83099997
-0.23365302 0.056558862 0.83100009
-0.22495234 0.054779883 0.83314276
-0.21514937 0.055074066 0.83761269
-0.20861277 0.054888438 0.83899999
-0.13768838 0.05172421 0.83100003
-0.25495052 0.062870704 0.83654541
-0.24446034 0.064747535 0.83348775
-0.23489228 0.06501241 0.83427995
-0.22544789 0.064434201 0.83565009
-0.21606874 0.062659569 0.83899999
-0.20903572 0.062225271 0.83900005
-0.2409869 0.070835546 0.83300006
-0.23495218 0.072306335 0.83649999
-0.22874776 0.071345761 0.83900005
-0.11403563 -0.0414 0.84833336
-0.13025075 -0.030515891 0.84900004
-0.12437402 -0.033540074 0.84877807
-0.11654236 -0.035358656 0.84853363
-0.13402468 -0.02351658 0.84764308
-0.12582366 -0.024705468 0.84672093
-0.14276387 -0.013912574 0.84795243
-0.13519676 -0.014996784 0.84694302
-0.12756582 -0.017321911 0.84683347
-0.14285032 -0.0059198048 0.84818542
-0.13742448 -0.0054072007 0.8481819
-0.25280622 0.0089896321 0.84677792
-0.24513198 0.0087474473 0.84792316
-0.23583731 0.0091303242 0.84863639
-0.14104295 0.0018607251 0.84900004
-0.13622057 0.0056602117 0.8488186
-0.26075017 0.013516739 0.84100002
-0.25492141 0.013192499 0.84221733
-0.24504519 0.013418909 0.84299994
-0.23488851 0.015480051 0.84446937
-0.22821684 0.016775835 0.84686673
-0.14103463 0.016282767 0.84450006
-0.13591817 0.015646463 0.84384215
-0.27205512 0.028016513 0.84100002
-0.23246694 0.022533545 0.84122223
-0.22468834 0.024204792 0.84406954
-0.21734793 0.027532766 0.8458001
-0.13428874 0.025144475 0.84590912
-0.27279237 0.030228343 0.84100002
-0.2225347 0.03158002 0.8409999
-0.21436501 0.03468696 0.84399986
-0.20803127 0.037738308 0.84825009
-0.13321601 0.03383911 0.84383345
-0.21269804 0.042383283 0.84123522
-0.20497179 0.045358464 0.84495997
-0.1975767 0.04846403 0.84833336
-0.20363894 0.055498034 0.84239978
-0.19519815 0.054921236 0.84661913
-0.18576135 0.056342993 0.84807158
-0.17769922 0.057868544 0.84900004
-0.22291316 0.06819202 0.84157139
-0.21439599 0.066928156 0.84145451
-0.20430474 0.06512551 0.84224987
-0.19489968 0.064473912 0.84532666
-0.18495992 0.064627871 0.8473267
-0.17765029 0.063578032 0.84900004
-0.2310832 0.075058445 0.84350002
-0.2249511 0.073369049 0.84531265
-0.21483214 0.074024044 0.846838
-0.20546912 0.072681859 0.84657151
-0.19515644 0.071304888 0.84792316
-0.18732752 0.071085267 0.84842861
-0.03083938 -0.067696199 0.85800004
-0.024735607 -0.064688474 0.85752386
-0.018229553 -0.062426999 0.8545
-0.11237569 -0.050696932 0.85799998
-0.10856465 -0.051398966 0.85800004
-0.031179529 -0.053339906 0.85699999
-0.025237201 -0.055221602 0.85704523
-0.018129965 -0.057390105 0.8565715
-0.1312554 -0.041745991 0.85800004
-0.12383977 -0.043419149 0.85518175
-0.11583926 -0.045845117 0.85503852
-0.031699017 -0.046957523 0.85799992
-0.026673459 -0.047618784 0.85799986
-0.14261343 -0.032431278 0.85723072
-0.13491333 -0.035130844 0.85530794
-0.1262137 -0.037808113 0.85187489
-0.11767167 -0.034735944 0.85225004
-0.05190042 -0.03083938 0.85800004
-0.042272516 -0.03866205 0.85799998
-0.15319398 -0.021938583 0.85799986
-0.14497623 -0.024857314 0.85564464
-0.13724495 -0.026825601 0.8520909
-0.12089431 -0.023506284 0.85124993
-0.11501215 -0.024376299 0.85526699
-0.10672789 -0.025369491 0.85886204
-0.095041633 -0.02066128 0.85699999
-0.074223511 -0.020242583 0.85519999
-0.068749249 -0.021211477 0.85799998
-0.054156959 -0.02933502 0.85800004
-0.16257833 -0.011712517 0.85799992
-0.15477103 -0.014929879 0.85759991
-0.1471191 -0.01630302 0.85299993
-0.13165145 -0.011967596 0.85325003
-0.12445977 -0.014291339 0.8554244
-0.11508843 -0.015119169 0.8572194
-0.10430881 -0.015438329 0.85794729
-0.094726451 -0.015035512 0.85755557
-0.085269809 -0.014939745 0.85764098
-0.075055748 -0.016037662 0.85758322
-0.068749249 -0.017901884 0.85799998
-0.24279845 -0.0010516492 0.85640013
-0.23994541 -0.00075218 0.85800004
-0.17375357 -0.0057667135 0.85800004
-0.16483028 -0.0056022946 0.85754997
-0.15517874 -0.0050949617 0.85617036
-0.14757065 -0.0039362912 0.85273331
-0.13317731 -0.0050746659 0.85400009
-0.12547764 -0.00535216 0.85687542
-0.1143662 -0.0050037932 0.85899985
-0.10171146 -0.0084411316 0.85799992
-0.095606029 -0.0077197417 0.85799992
-0.08950942 -0.0097783403 0.85800004
-0.25261027 0.0061175553 0.85100001
-0.24482936 0.0038998041 0.85261118
-0.2352552 0.005437878 0.8554194
-0.22866271 0.0090261605 0.85800004
-0.16236292 0.0035447392 0.85742849
-0.15675466 0.0021557822 0.85773319
-0.14474367 0.0042928373 0.8550455
-0.1321518 0.0042969813 0.85287493
-0.12475079 0.0050704405 0.85810614
-0.11759081 0.00075218006 0.85800004
-0.22547235 0.015036742 0.85467869
-0.21817987 0.018494863 0.85760003
-0.16222015 0.016297234 0.85800004
-0.15785035 0.016870324 0.85799992
-0.14670524 0.013341829 0.85829997
-0.13161178 0.014958125 0.85299999
-0.12563045 0.015170187 0.85660017
-0.22139183 0.021077346 0.85259998
-0.21533152 0.02465434 0.85548496
-0.20885777 0.028418729 0.85760003
-0.1842972 0.027730104 0.85764694
-0.17524332 0.022841774 0.85869777
-0.16624202 0.024533678 0.85781235
-0.15870997 0.02030886 0.85800004
-0.14802225 0.020858822 0.85999995
-0.13163731 0.024575667 0.85353851
-0.12667629 0.024167558 0.85700011
-0.21075374 0.03064169 0.85250002
-0.20508286 0.035068683 0.85478061
-0.19546813 0.03928471 0.85727268
-0.18455091 0.035573844 0.85757887
-0.17525795 0.035352457 0.85800028
-0.16597207 0.03598867 0.85777128
-0.13084564 0.031999033 0.85679996
-0.12862279 0.03083938 0.85800004
-0.20165806 0.04140795 0.85259998
-0.19430462 0.044865645 0.85480499
-0.1852406 0.045252945 0.85707718
-0.1752281 0.045122746 0.85785711
-0.16456218 0.045083709 0.85714293
-0.15577289 0.046670988 0.85799992
-0.19024105 0.051476989 0.85100001
-0.18412088 0.051856507 0.85281825
-0.17463219 0.054007988 0.85459536
-0.16502731 0.054883149 0.85566688
-0.15537444 0.05496328 0.85782623
-0.14968382 0.053404778 0.85799998
-0.17363834 0.065850362 0.85196769
-0.16513553 0.065169208 0.8551923
-0.15707318 0.062856264 0.8577646
-0.2239995 0.077588499 0.85099995
-0.21784465 0.078334548 0.85100001
-0.20414013 0.077374056 0.85374999
-0.19537629 0.076185271 0.8538847
-0.18529911 0.073317327 0.85443747
-0.17469081 0.072061732 0.85692304
-0.16516326 0.072616979 0.8570587
-0.20384078 0.080483258 0.85799998
-0.19782335 0.080483258 0.85800004
-0.043777466 -0.082225524 0.86772734
-0.034701221 -0.081181087 0.86314285
-0.042997304 -0.075653821 0.86829019
-0.034771863 -0.0753043 0.86361545
-0.026490128 -0.074049629 0.86025017
-0.11304397 -0.062549442 0.86833334
-0.10453016 -0.063450016 0.86780006
-0.098302014 -0.063070536 0.86828572
-0.0248798 -0.068607934 0.86000001
-0.13179544 -0.051042162 0.86900002
-0.12459421 -0.052471511 0.86600018
-0.11512043 -0.055229567 0.862912
-0.10612724 -0.056576524 0.86359102
-0.099224642 -0.05832288 0.86400002
-0.033927001 -0.050513532 0.86000001
-0.020959346 -0.051719826 0.86000001
-0.01672511 -0.053206336 0.86178571
-0.15459828 -0.04079869 0.86871433
-0.14462148 -0.04172045 0.86733347
-0.1346989 -0.044883873 0.86400008
-0.126313 -0.047785468 0.86128569
-0.1198754 -0.049005665 0.86000001
-0.034754787 -0.043507837 0.86104006
-0.024603931 -0.043675847 0.86241943
-0.017469425 -0.046942256 0.86650008
-0.17141025 -0.031996578 0.86900002
-0.16508658 -0.03412547 0.86851513
-0.15478045 -0.034904432 0.8654446
-0.14612043 -0.03599868 0.86243486
-0.13872373 -0.039958466 0.86000001
-0.11366582 -0.03175769 0.86250001
-0.050631005 -0.030983154 0.86200005
-0.043884303 -0.033464998 0.86200005
-0.035052206 -0.035448276 0.86234212
-0.026813183 -0.035643641 0.86690485
-0.18173718 -0.022262171 0.86900002
-0.17445193 -0.024458598 0.86788571
-0.16516103 -0.025132196 0.86483729
-0.15602785 -0.026091002 0.8617335
-0.11208884 -0.029060623 0.86100006
-0.098765269 -0.021864066 0.86000001
-0.063530914 -0.021498736 0.86181825
-0.054582544 -0.024136076 0.86174995
-0.044867937 -0.025296463 0.86481416
-0.035976555 -0.027091676 0.86736852
-0.18431331 -0.015278264 0.86703241
-0.17483349 -0.015090938 0.86389768
-0.16500251 -0.015746629 0.86073345
-0.15907994 -0.018848334 0.86000001
-0.1108282 -0.011309 0.86000001
-0.10705853 -0.011309 0.86000001
-0.080670863 -0.011309 0.86000001
-0.073956005 -0.01212295 0.86015379
-0.064744227 -0.014874276 0.86114705
-0.055372637 -0.015375735 0.86530566
-0.046867579 -0.016696323 0.86805892
-0.24050473 -0.0022618 0.86000001
-0.23425707 -0.004626954 0.86347371
-0.22543123 -0.0029439605 0.86708707
-0.21409363 -0.0038655389 0.86711997
-0.20494863 -0.005059748 0.86747515
-0.19437812 -0.0038035898 0.86713052
-0.18476896 -0.0051912712 0.86220926
-0.17533654 -0.0051712366 0.86115009
-0.16888107 -0.0037696669 0.86000001
-0.124399 -0.00075393333 0.86000001
-0.10543759 -0.0045612962 0.86000025
-0.094151229 -0.0031416807 0.86033338
-0.085372344 -0.0054538222 0.86215568
-0.075071745 -0.0053021931 0.86539119
-0.065206267 -0.0057748435 0.86742508
-0.057746209 -0.0089895148 0.86900008
-0.23297873 0.0022641376 0.86080009
-0.22493544 0.005052669 0.86286354
-0.21543242 0.0055027781 0.86386657
-0.20533687 0.0056072613 0.86356825
-0.19502994 0.0054268795 0.86279982
-0.18514478 0.0051653199 0.8627826
-0.17489849 0.0053102616 0.86490494
-0.16596736 0.0062948894 0.86181492
-0.1541907 0.0066606039 0.86094135
-0.14724764 0.0077498932 0.86054552
-0.11519351 0.0055730473 0.86004382
-0.10496753 0.005289305 0.86142856
-0.094570071 0.0051438701 0.863617
-0.084980786 0.0055226213 0.8661623
-0.077192642 0.0042405617 0.8681429
-0.069325924 0.00076182332 0.86900002
-0.22287686 0.013079721 0.86083335
-0.21519415 0.014766299 0.86273694
-0.20535302 0.014935558 0.86454076
-0.1947674 0.015056751 0.86397564
-0.18474819 0.015068046 0.86452961
-0.17499487 0.01522875 0.86262864
-0.16511272 0.015142834 0.86021644
-0.15386422 0.014715577 0.86022866
-0.12138326 0.012062933 0.86000001
-0.11559689 0.01500661 0.86102432
-0.10538934 0.014992085 0.86392111
-0.095321201 0.01519439 0.86762178
-0.085702695 0.012508154 0.86842853
-0.079991452 0.01142735 0.86900002
-0.21251935 0.0220188 0.86116672
-0.20531456 0.024785442 0.86329269
-0.19501944 0.024804981 0.86392689
-0.18521476 0.023053706 0.8623333
-0.16220634 0.025415802 0.86011755
-0.15479006 0.025030805 0.86183339
-0.12214882 0.026883861 0.86075002
-0.11491773 0.024836062 0.86519563
-0.10541403 0.023703547 0.86840004
-0.097454786 0.022092877 0.86900014
-0.20117378 0.033527765 0.86140001
-0.19462425 0.03463627 0.86131251
-0.18923727 0.033173066 0.86000001
-0.16198696 0.033841338 0.86057144
-0.15564854 0.03539836 0.86269051
-0.14973378 0.033189725 0.86700004
-0.13138102 0.036598831 0.86200005
-0.12490343 0.034799732 0.86437851
-0.11607443 0.033842191 0.86786956
-0.1534774 0.043639351 0.86063153
-0.14852487 0.049005665 0.86000001
-0.13211516 0.045713872 0.86610001
-0.12530097 0.045082118 0.8676666
-0.11960626 0.041138463 0.86900002
-0.15003273 0.058806799 0.86000001
-0.14497113 0.056044359 0.86167574
-0.13515384 0.05508459 0.86535496
-0.12647869 0.054733057 0.86748582
-0.15340815 0.065924741 0.86140752
-0.1449604 0.064699166 0.86471444
-0.13541821 0.063028321 0.86619049
-0.12952223 0.06135264 0.86400002
-0.19141051 0.079062186 0.86300004
-0.18392092 0.077362478 0.86399996
-0.17518717 0.076406136 0.86383337
-0.16360354 0.0723776 0.86000001
-0.15523154 0.071877405 0.86643767
-0.14829913 0.071108185 0.86750001
-0.20227928 0.082936175 0.86160004
-0.053125124 -0.080962509 0.87400001
-0.048868909 -0.080939129 0.87100005
-0.082620576 -0.071876734 0.87533337
-0.074511997 -0.073948815 0.87800002
-0.064510316 -0.074384086 0.87775016
-0.055492658 -0.075021319 0.8765527
-0.04850813 -0.074823096 0.87273341
-0.12140694 -0.06147318 0.87650001
-0.11896586 -0.061403923 0.87550002
-0.093102939 -0.063707143 0.87291664
-0.085178874 -0.066433668 0.87579417
-0.075617179 -0.067223385 0.87600011
-0.065644138 -0.069096014 0.87575006
-0.14304504 -0.050757028 0.87725002
-0.13468017 -0.052798379 0.87285721
-0.12489495 -0.056646768 0.87209105
-0.11988153 -0.058795404 0.87100005
-0.15278475 -0.043544561 0.87140018
-0.14490703 -0.046530832 0.87280965
-0.13768838 -0.048371833 0.87185723
-0.02061657 -0.040469564 0.87100005
-0.015858838 -0.044613633 0.87321442
-0.1927273 -0.031479724 0.87585723
-0.18509188 -0.032450322 0.87242872
-0.17676799 -0.032579269 0.87100023
-0.023254637 -0.033879019 0.87446678
-0.019209959 -0.038418602 0.87650001
-0.21398032 -0.02078226 0.87800002
-0.19256891 -0.02434708 0.87700009
-0.18584073 -0.026033519 0.87257564
-0.17840855 -0.028480271 0.87128586
-0.040469564 -0.02061657 0.87100005
-0.033835899 -0.023101613 0.87469572
-0.028150441 -0.027678929 0.87523091
-0.2312694 -0.012687996 0.87180007
-0.22468455 -0.014304184 0.87491179
-0.21438852 -0.015407607 0.87499988
-0.20585823 -0.014109648 0.87519234
-0.19450149 -0.01508207 0.87460613
-0.18860343 -0.019089416 0.87100005
-0.051159635 -0.01145365 0.87100005
-0.043707971 -0.014213473 0.8734349
-0.037175119 -0.017434472 0.87646163
-0.23136373 -0.009926497 0.87100005
-0.2250029 -0.0079667093 0.87225002
-0.21663059 -0.0084090447 0.87193352
-0.20352022 -0.0091705183 0.87166673
-0.19666937 -0.0074737784 0.87177795
-0.06184971 -0.0016362356 0.87100017
-0.054567501 -0.0049524517 0.87350005
-0.047816351 -0.0085848784 0.87590909
-0.07320071 0.0068093203 0.87195253
-0.065335475 0.0049761627 0.87395346
-0.057623174 0.0016472565 0.8764286
-0.090865619 0.017562263 0.87100005
-0.084374912 0.016842682 0.87174082
-0.074799515 0.015334275 0.87551284
-0.066171415 0.011387812 0.87770015
-0.10365386 0.028677577 0.87153351
-0.09426862 0.026158432 0.87209082
-0.085557379 0.024330357 0.87361526
-0.077296585 0.022175284 0.87772745
-0.11341432 0.037086658 0.87170607
-0.10500287 0.035260882 0.87430942
-0.096225314 0.033983819 0.8755455
-0.089748748 0.031450417 0.87500006
-0.11572504 0.044856522 0.87285703
-0.10700262 0.041917007 0.8742308
-0.12146374 0.053016417 0.87140006
-0.11853439 0.052257221 0.87233335
-0.071746401 -0.073289335 0.88000005
-0.013919713 -0.042151231 0.88225007
-0.196724 -0.030087199 0.88000005
-0.021380002 -0.031939156 0.88150007
-0.016698878 -0.035100117 0.88540739
-0.21138187 -0.021601066 0.88000005
-0.20484923 -0.023663444 0.88204002
-0.19767652 -0.025112994 0.88018173
-0.030087199 -0.020829599 0.88000005
-0.024309905 -0.024427572 0.88414806
-0.018323688 -0.026388226 0.88772732
-0.20351291 -0.017309157 0.8802858
-0.19878125 -0.018258044 0.88000005
-0.042092271 -0.010426197 0.88100004
-0.034608506 -0.014188155 0.88413787
-0.028251752 -0.018921681 0.88700008
-0.050697636 -0.0012863622 0.88066673
-0.044632342 -0.0043562772 0.88472414
-0.038266793 -0.006354956 0.88783336
-0.060945865 0.0084861331 0.88000005
-0.054422691 0.0052542645 0.88442844
-0.048005685 0.0018170377 0.88800001
-0.070203468 0.016200799 0.88000005
-0.064608932 0.014529082 0.88160002
-0.056943063 0.011655972 0.88635725
-0.1147412 -0.044282626 0.89800012
-0.012741393 -0.033384979 0.8931818
-0.021906585 -0.021125475 0.89250004
-0.014961839 -0.025108838 0.89347368
-0.031385291 -0.01172717 0.89185715
-0.024818724 -0.014567122 0.8940773
-0.018983692 -0.016314065 0.89480007
-0.043742158 -0.00078111002 0.89100003
-0.033960667 -0.0040203352 0.89400023
-0.026221929 -0.006481797 0.89494735
-0.044992674 0.0044783982 0.89292008
-0.037600238 0.0014585229 0.89628571
-0.052162893 0.01112227 0.89340001
-0.048428819 0.01015443 0.89100003
-0.045351367 -0.072723009 0.90760005
-0.036833707 -0.072292477 0.90800005
-0.10053701 -0.06095551 0.90300006
-0.094333708 -0.061435703 0.90425003
-0.086690061 -0.062587127 0.90723079
-0.037014619 -0.068855152 0.90800005
-0.11161982 -0.052360665 0.903
-0.10407295 -0.054728016 0.90299994
-0.095054157 -0.054986455 0.90509999
-0.087789223 -0.056340784 0.90761918
-0.11218866 -0.044795696 0.90175009
-0.10467322 -0.045217115 0.90344179
-0.095624246 -0.044902544 0.90635157
-0.089949504 -0.045372758 0.90800011
-0.11294463 -0.035639055 0.90516669
-0.10480271 -0.034933262 0.90566677
-0.095419846 -0.034988008 0.90705585
-0.089225844 -0.034662757 0.90800005
-0.11064585 -0.029452493 0.90800005
-0.10417498 -0.027632438 0.90633339
-0.095207267 -0.026250003 0.90737969
-0.087351978 -0.024508832 0.90800017
-0.08352121 -0.019885721 0.90733337
-0.036414981 0.00237489 0.90300006
-0.06415008 -0.071365342 0.91466665
-0.054411918 -0.07200896 0.91266662
-0.044674933 -0.071400113 0.90999997
-0.081816375 -0.064051405 0.912
-0.074918985 -0.064347908 0.91271061
-0.064933471 -0.06493558 0.91448975
-0.054794282 -0.065316066 0.916475
-0.044981766 -0.066113889 0.91472715
-0.036051616 -0.064882852 0.91381496
-0.083491825 -0.054044656 0.91139281
-0.075313799 -0.054481193 0.91394466
-0.065037519 -0.054602265 0.91595256
-0.056435205 -0.05442325 0.91800016
-0.0362151 -0.057599247 0.9180001
-0.090945393 -0.040686101 0.91000003
-0.084691465 -0.044744406 0.91141671
-0.075345136 -0.044888545 0.91433364
-0.065206803 -0.044904873 0.91668284
-0.056173645 -0.044906724 0.91800016
-0.048555061 -0.041580301 0.91800004
-0.084086619 -0.03530141 0.91183877
-0.075263888 -0.035231482 0.91333348
-0.064960219 -0.035290025 0.91483361
-0.055510968 -0.036845863 0.91850001
-0.094136462 -0.023135234 0.91000003
-0.083765507 -0.026782166 0.90999997
-0.075479642 -0.026761062 0.91274083
-0.066424064 -0.027869914 0.91411114
-0.0508116 -0.060490001 0.92000002
-0.0447626 -0.060893267 0.92000002
-0.039520133 -0.060490001 0.92000002
-0.053000756 -0.055189926 0.92000002
-0.04520604 -0.054892197 0.92083335
-0.039180644 -0.054930396 0.92149997
-0.053913649 -0.045103826 0.92000002
-0.045353096 -0.046898089 0.92026091
-0.039649002 -0.049358964 0.92300004
-0.049198534 -0.039520133 0.92000002
