# .PCD v0.7 - Point Cloud Data file format
VERSION 0.7
FIELDS x y z
SIZE 4 4 4
TYPE F F F
COUNT 1 1 1
WIDTH 542
HEIGHT 1
VIEWPOINT 0 0 0 1 0 0 0
POINTS 542
DATA ascii
-0.28303134 -0.0020187683 0.82900006
-0.27670047 -0.001986468 0.82900023
-0.16759714 -0.0015270559 0.82522225
-0.28302851 0.0043912237 0.82882631
-0.27526307 0.0050838273 0.82846928
-0.26805207 0.0071464404 0.82900017
-0.17120248 0.0072228569 0.824
-0.16790785 0.0050666328 0.82557148
-0.28125483 0.011628106 0.82900006
-0.27495629 0.013108538 0.82900035
-0.26754126 0.014629927 0.82900029
-0.16755256 0.01204312 0.82740009
-0.12185755 -0.091209866 0.83233339
-0.11747713 -0.091209866 0.83233339
-0.12279404 -0.088490963 0.8325001
-0.11791635 -0.088742636 0.83200002
-0.28268614 -0.021330176 0.83900005
-0.27876335 -0.021330176 0.83900005
-0.29247695 -0.0135037 0.83776921
-0.28488037 -0.015413179 0.836905
-0.2754848 -0.014344898 0.83576202
-0.26717368 -0.012592732 0.83833331
-0.16622826 -0.01103285 0.83900005
-0.29401165 -0.0049388283 0.8349998
-0.28539103 -0.0059205927 0.83170575
-0.27412406 -0.0061269267 0.83132416
-0.26506421 -0.0050471597 0.83496362
-0.25684613 -0.003293256 0.83865213
-0.1652744 -0.0022030631 0.83790916
-0.29342616 0.0049464907 0.83307701
-0.28787115 0.0059465226 0.83131588
-0.2702772 0.0043710601 0.83100003
-0.26390886 0.0043905983 0.83206666
-0.25500929 0.0052138371 0.83653873
-0.24587798 0.0061510177 0.83837163
-0.16406259 0.0057078516 0.83707154
-0.15922809 0.0080691325 0.83700007
-0.2925154 0.013469713 0.8356154
-0.28534976 0.01550325 0.83357888
-0.27544391 0.018385161 0.83144462
-0.2628555 0.015617435 0.83099985
-0.25488314 0.015336462 0.8330816
-0.24509251 0.015322906 0.83674574
-0.23832208 0.017026551 0.83884615
-0.16402647 0.012184287 0.83157152
-0.15973568 0.01166931 0.83200002
-0.2827332 0.023463571 0.83488238
-0.27512833 0.025015946 0.83544987
-0.26505169 0.024873445 0.83480489
-0.25507033 0.024834534 0.83485365
-0.2450974 0.024924593 0.836689
-0.23697466 0.024574058 0.83883339
-0.2750217 0.030681141 0.8382501
-0.26258183 0.034961876 0.83899999
-0.25687027 0.032627221 0.83890915
-0.24492928 0.03015646 0.83900011
-0.23463194 0.030156456 0.83900005
-0.14475001 -0.072561331 0.84891695
-0.13918222 -0.072940417 0.84900004
-0.16076663 -0.06028749 0.84900004
-0.1535634 -0.062887438 0.84845471
-0.14618923 -0.066025488 0.8486253
-0.1704424 -0.05135601 0.84900004
-0.16399287 -0.054132223 0.84761536
-0.15543592 -0.055318892 0.84700006
-0.14960229 -0.058054619 0.84900004
-0.17099571 -0.044763621 0.84866667
-0.16562879 -0.045774564 0.84675759
-0.15964538 -0.049749956 0.84700006
-0.28042462 -0.031075204 0.84400004
-0.27558482 -0.031942226 0.84733343
-0.26496723 -0.030515892 0.84900004
-0.17118669 -0.039447371 0.84900004
-0.16677056 -0.034783151 0.84900004
-0.29082873 -0.023857431 0.84500009
-0.28445038 -0.024729015 0.84371424
-0.27486557 -0.025210641 0.84619164
-0.2647129 -0.024307108 0.84673923
-0.25605309 -0.023943419 0.84755576
-0.16460769 -0.023086336 0.84764528
-0.29210901 -0.018726828 0.84099996
-0.28974974 -0.019169193 0.84100002
-0.27303585 -0.018846978 0.84154552
-0.26406029 -0.01574292 0.84317636
-0.25482109 -0.014596022 0.8457728
-0.24814956 -0.01214797 0.84833336
-0.16434726 -0.015220907 0.84351164
-0.15964538 -0.014108196 0.84700006
-0.26099592 -0.0095845964 0.84100002
-0.25384751 -0.0067995782 0.84217238
-0.24550568 -0.0047730277 0.84443998
-0.23831278 -0.0018991522 0.84744453
-0.16371146 -0.006373337 0.84403235
-0.15950862 -0.0029643022 0.84366673
-0.24265715 0.0032484885 0.84209996
-0.23572069 0.0058112666 0.84562242
-0.22826533 0.0088158855 0.84814292
-0.16278236 0.0028440319 0.84128577
-0.15941092 0.0028440319 0.84128571
-0.23384702 0.015032204 0.84272075
-0.22528632 0.015017907 0.84684628
-0.21844913 0.018235104 0.84900004
-0.23259968 0.024913257 0.84208328
-0.22484607 0.024619937 0.84519237
-0.21604794 0.02489581 0.84842128
-0.27131781 0.031702895 0.84100002
-0.26594362 0.032958739 0.84131563
-0.25411582 0.036313836 0.84524995
-0.24522413 0.034809463 0.84566665
-0.2352507 0.033520695 0.84511769
-0.22494598 0.033829994 0.84615004
-0.21735016 0.031998936 0.8488462
-0.050396059 -0.1015443 0.85800004
-0.045611672 -0.10373636 0.85899991
-0.053190224 -0.094798341 0.85899985
-0.045128122 -0.094768472 0.85794425
-0.15118818 -0.080483258 0.85800004
-0.14415395 -0.082313292 0.85660875
-0.13603094 -0.086608984 0.85729402
-0.051900424 -0.086774223 0.85799986
-0.047537774 -0.087704197 0.85799992
-0.16071579 -0.071958549 0.85800004
-0.15430224 -0.074234828 0.85530436
-0.14578874 -0.077194832 0.85281253
-0.17187312 -0.061302669 0.85800004
-0.16697538 -0.066451423 0.85804546
-0.15678732 -0.067067847 0.85284996
-0.14315213 -0.063244484 0.85573912
-0.13713311 -0.064054169 0.85759991
-0.12862279 -0.060926579 0.85800004
-0.17483503 -0.055034846 0.85636371
-0.167404 -0.057572648 0.85288882
-0.15326111 -0.051443428 0.85400003
-0.14514233 -0.05488212 0.85714018
-0.13466115 -0.054944173 0.85754204
-0.12521578 -0.053884685 0.85674304
-0.11543401 -0.052376974 0.85791987
-0.10646766 -0.052310705 0.85799986
-0.093521051 -0.05490914 0.85800004
-0.26387739 -0.044748325 0.85685718
-0.20083205 -0.0413699 0.85800004
-0.19299352 -0.043507684 0.85799992
-0.18506418 -0.044100031 0.85799986
-0.17650755 -0.045291867 0.85450006
-0.16199799 -0.044010106 0.85435295
-0.15577054 -0.045748562 0.85705405
-0.14506061 -0.045222528 0.85800004
-0.13461706 -0.045122914 0.85785723
-0.1251514 -0.04531575 0.85763633
-0.11520389 -0.046905946 0.85799986
-0.10846436 -0.047688216 0.85799998
-0.27217525 -0.034729384 0.85246664
-0.26470345 -0.036671035 0.85794121
-0.25731841 -0.032041807 0.8565833
-0.20083205 -0.039113358 0.85800004
-0.19361112 -0.038962923 0.85799992
-0.1847042 -0.037801955 0.85772723
-0.17521355 -0.035354111 0.85511118
-0.16400579 -0.035447944 0.85319442
-0.15689021 -0.034734938 0.85759997
-0.14639646 -0.03603477 0.85899997
-0.13386218 -0.034543686 0.85899991
-0.12380882 -0.039263792 0.85799998
-0.25238848 -0.025241161 0.8542999
-0.24744016 -0.020961292 0.8573333
-0.17306066 -0.02298655 0.85679996
-0.16420239 -0.027566886 0.85252935
-0.15557282 -0.024656435 0.85661715
-0.14495584 -0.028690295 0.85799992
-0.25111109 -0.018683959 0.85250002
-0.2451259 -0.015306276 0.85509771
-0.23652387 -0.013656348 0.85741669
-0.20158422 -0.01278706 0.85799998
-0.19752246 -0.012636624 0.85799992
-0.17450576 -0.018052321 0.85800004
-0.16021433 -0.01203488 0.85800004
-0.15594479 -0.016166849 0.85599995
-0.14968382 -0.0112827 0.85800004
-0.24170293 -0.0085585071 0.85299999
-0.23461506 -0.0054139704 0.85515231
-0.22790176 -0.0026660231 0.85745448
-0.20233642 -0.0082739796 0.85799992
-0.19612855 -0.0052203429 0.85794109
-0.16083501 -0.0097251562 0.85333329
-0.15118818 -0.0075218002 0.85800004
-0.14968382 -0.0097783403 0.85800004
-0.23234506 0.00224076 0.85219991
-0.22512452 0.0048834337 0.8548916
-0.21697576 0.0071244943 0.85735995
-0.20474339 0.0085748527 0.85799992
-0.19541636 0.0055661323 0.85799998
-0.22112866 0.013131967 0.85257137
-0.21492274 0.014798902 0.85497504
-0.20526423 0.015036623 0.85766673
-0.19707116 0.0188045 0.85800004
-0.18779427 0.018303046 0.85800004
-0.21166126 0.023053454 0.85228568
-0.20493327 0.024885297 0.8544153
-0.19491298 0.024818022 0.85787261
-0.18707791 0.024320487 0.85799992
-0.24432099 0.039600037 0.85228568
-0.23480232 0.038703892 0.8527692
-0.22392474 0.038670085 0.85272729
-0.21486937 0.035442919 0.85437506
-0.20532247 0.032873817 0.85635716
-0.19707118 0.031591561 0.85799992
-0.24534525 0.041140869 0.85325003
-0.23500548 0.041795962 0.85644448
-0.22504912 0.041903414 0.85571432
-0.064680405 -0.11338512 0.8672415
-0.056271698 -0.11272836 0.86300015
-0.13179544 -0.1013225 0.86900002
-0.12543477 -0.10174212 0.8671667
-0.063203633 -0.10660617 0.86860007
-0.054314338 -0.10523996 0.86231595
-0.15084103 -0.090656973 0.86900002
-0.14443946 -0.092264041 0.8653847
-0.13469602 -0.094114855 0.86357695
-0.12589583 -0.097475655 0.86638087
-0.17376707 -0.081782304 0.86860001
-0.16379201 -0.081515096 0.86900002
-0.15411034 -0.084524192 0.86496168
-0.14502132 -0.087616317 0.86156243
-0.13918179 -0.088639334 0.86049998
-0.06135264 -0.081046082 0.86400002
-0.055394016 -0.084423803 0.86054552
-0.04418382 -0.084638909 0.86114722
-0.039560169 -0.086925298 0.8623333
-0.1823612 -0.073511884 0.86828572
-0.17490017 -0.075091012 0.86692309
-0.16547406 -0.075348847 0.86397076
-0.15764959 -0.078112163 0.86133337
-0.062961414 -0.073588274 0.86636847
-0.055102769 -0.07515505 0.86481804
-0.047212202 -0.075754941 0.86682612
-0.2354034 -0.06170769 0.86900002
-0.19261818 -0.062731877 0.86781824
-0.18475302 -0.065051936 0.86420006
-0.17555012 -0.065378718 0.8615002
-0.13254149 -0.061973322 0.86000001
-0.081946857 -0.060699083 0.86550003
-0.074433379 -0.061479058 0.86580008
-0.064508244 -0.064542219 0.86831909
-0.055738624 -0.067557938 0.86817664
-0.049518518 -0.069325924 0.86900002
-0.21187834 -0.052018773 0.86833334
-0.20498292 -0.053598326 0.86807138
-0.1941424 -0.054833695 0.8646667
-0.18445407 -0.055015612 0.86074442
-0.17868219 -0.058806799 0.86000001
-0.10268573 -0.051569037 0.86000001
-0.094650179 -0.052265663 0.86010522
-0.085465483 -0.054426283 0.86367655
-0.075123057 -0.054593068 0.86735022
-0.066816099 -0.057212949 0.86838472
-0.27066207 -0.041466333 0.86000001
-0.26352 -0.04339822 0.86052632
-0.25624064 -0.04285774 0.86576915
-0.24501747 -0.041889351 0.86876488
-0.2355462 -0.043144215 0.86812526
-0.22727232 -0.041686155 0.86849999
-0.2133024 -0.044394493 0.86710006
-0.20562404 -0.044934604 0.86338472
-0.19658834 -0.046506595 0.86115009
-0.18538383 -0.048335504 0.86000007
-0.15214373 -0.041767906 0.86000001
-0.12145384 -0.042243499 0.86049998
-0.11482359 -0.042349085 0.86021042
-0.10450465 -0.044166312 0.86127275
-0.094845802 -0.04469889 0.86297679
-0.085907228 -0.045814808 0.86723322
-0.077708736 -0.047960076 0.86838472
-0.27066207 -0.039958466 0.86000001
-0.25391626 -0.035367619 0.86264724
-0.24510312 -0.034779027 0.86544454
-0.23484947 -0.034993742 0.86502868
-0.22534397 -0.034810133 0.86582869
-0.21507443 -0.034798633 0.86689496
-0.20510277 -0.034807846 0.86385727
-0.19574907 -0.034890629 0.86268586
-0.18519269 -0.032707293 0.86069566
-0.17868219 -0.030911267 0.86000001
-0.15331772 -0.035865691 0.86000013
-0.12481015 -0.034806456 0.86138099
-0.11517499 -0.035535026 0.86349994
-0.1051266 -0.03495552 0.86688894
-0.096437268 -0.036581505 0.8685652
-0.25169075 -0.028589603 0.86142862
-0.24448809 -0.025596278 0.86209071
-0.23487827 -0.024538692 0.86385012
-0.22472388 -0.024971049 0.8631019
-0.21455032 -0.025105774 0.86785728
-0.20481169 -0.025242412 0.86744159
-0.1946159 -0.024920188 0.86468887
-0.18472032 -0.024861209 0.86297667
-0.17666537 -0.025635909 0.86104017
-0.15089439 -0.0248798 0.86000007
-0.14494349 -0.02422834 0.86089474
-0.13516618 -0.025027556 0.86195844
-0.12544337 -0.024971707 0.863262
-0.11495307 -0.025194267 0.86766672
-0.10657106 -0.027873848 0.86873347
-0.24050473 -0.018848334 0.86000001
-0.23325138 -0.016382918 0.8613044
-0.2248785 -0.015293012 0.86370003
-0.21482751 -0.015232009 0.86591196
-0.20557792 -0.015491986 0.86189282
-0.19397262 -0.01578458 0.861889
-0.18478628 -0.015030759 0.86318928
-0.17719424 -0.014510499 0.8623001
-0.15381728 -0.014394028 0.8602609
-0.14442627 -0.015123753 0.86257136
-0.13494745 -0.015530152 0.86418772
-0.12548886 -0.015203657 0.86605734
-0.11766708 -0.01766045 0.86900008
-0.23097098 -0.0098125301 0.86100006
-0.22452793 -0.0058048144 0.86325651
-0.21501988 -0.0052631302 0.86347616
-0.20584325 -0.0045718164 0.861
-0.19234172 -0.0053819143 0.86040002
-0.18544301 -0.0050975257 0.86311102
-0.17715126 -0.0065128021 0.86610514
-0.1610235 -0.0045332434 0.86233336
-0.15503819 -0.0051413998 0.8616668
-0.14503755 -0.005295692 0.86385715
-0.13547045 -0.0056084162 0.86748672
-0.12725797 -0.0091331126 0.8682
-0.2216564 0.00075393333 0.86000001
-0.21358328 0.0037157685 0.86088896
-0.20530142 0.0044110678 0.86048508
-0.19522062 0.0052443007 0.86009121
-0.18501663 0.0052852267 0.86142862
-0.17943017 0.0043885941 0.86360008
-0.16109481 0.0066682184 0.86633337
-0.15491882 0.0053517655 0.86555809
-0.14680758 0.00356448 0.86815792
-0.19507788 0.014684812 0.86021072
-0.18452933 0.014834552 0.86041045
-0.1760435 0.016203228 0.86415398
-0.16425131 0.016245088 0.8681035
-0.15588962 0.013979292 0.86843985
-0.19225299 0.0248798 0.86000001
-0.18274836 0.025275365 0.86064291
-0.17534931 0.025037142 0.86538112
-0.16608644 0.024108971 0.86838883
-0.15871321 0.022854699 0.86900002
-0.21294202 0.038465504 0.86033338
-0.20462625 0.037519075 0.86085719
-0.19457337 0.035160962 0.86131251
-0.18498193 0.033156618 0.86400008
-0.17699173 0.032552149 0.86718184
-0.16734719 0.031234756 0.86900002
-0.24106404 0.043074138 0.86200005
-0.23406787 0.044221945 0.86328572
-0.21518463 0.041947912 0.86573344
-0.20630983 0.04080813 0.86519992
-0.19837826 0.04028371 0.86700004
-0.093355238 -0.11028893 0.87800014
-0.083865345 -0.11204659 0.87685728
-0.075189874 -0.11316076 0.87335992
-0.068976432 -0.11122766 0.87100005
-0.1147844 -0.101888 0.87384212
-0.10575851 -0.10444809 0.87677789
-0.094846189 -0.10715672 0.87757158
-0.083898745 -0.10391131 0.87800014
-0.075286612 -0.10652033 0.87626672
-0.068930455 -0.10666374 0.87255573
-0.16154775 -0.091896579 0.87500012
-0.15448493 -0.092454545 0.87269241
-0.14889745 -0.093156353 0.87100005
-0.1369964 -0.098727576 0.87300009
-0.12078275 -0.097850904 0.87200004
-0.11509057 -0.097227119 0.87465012
-0.1061326 -0.097755402 0.87433338
-0.094505101 -0.099123381 0.87650001
-0.17207876 -0.081730008 0.87128586
-0.16494182 -0.085210226 0.87329632
-0.15853377 -0.087862164 0.87150013
-0.041040566 -0.080807336 0.87233335
-0.038429782 -0.08147236 0.87674999
-0.18377511 -0.075833604 0.8720001
-0.042995241 -0.074345894 0.87430018
-0.039255381 -0.079280473 0.87800002
-0.24127576 -0.061470553 0.87650001
-0.23525044 -0.061647203 0.87625003
-0.21347225 -0.062693499 0.87450004
-0.20520031 -0.062971361 0.87299991
-0.19687498 -0.064247131 0.87182373
-0.054985497 -0.063861892 0.87436855
-0.047540672 -0.068244904 0.87470007
-0.25294155 -0.05165977 0.87300003
-0.24390334 -0.054399591 0.87318736
-0.2356772 -0.054509491 0.87568754
-0.22426917 -0.051818177 0.8774547
-0.21564257 -0.055718802 0.87373918
-0.20520291 -0.057866 0.87115407
-0.19929351 -0.058795404 0.87100005
-0.064010121 -0.053668037 0.87384379
-0.058230504 -0.057460785 0.87687516
-0.25398001 -0.046944536 0.87210006
-0.24561718 -0.047256913 0.87100023
-0.23421888 -0.048428047 0.87194133
-0.22518441 -0.045313612 0.87352777
-0.21797496 -0.0460958 0.87205899
-0.082611874 -0.042040151 0.87192321
-0.074237362 -0.04448865 0.87459999
-0.067141011 -0.048857421 0.87630004
-0.22296438 -0.038942412 0.87100005
-0.094020426 -0.03327065 0.87194753
-0.085588746 -0.035351679 0.87485009
-0.077333622 -0.037576493 0.87775016
-0.20922001 -0.026725182 0.87100005
-0.11071862 -0.02061657 0.87100005
-0.10389244 -0.024044493 0.87329417
-0.095459931 -0.026919508 0.87580007
-0.08913289 -0.029197821 0.87650001
-0.12140869 -0.012217226 0.87100005
-0.11442249 -0.014282294 0.87394118
-0.10585065 -0.01752465 0.87647629
-0.099293016 -0.019242832 0.87800002
-0.13213624 -0.0019091606 0.87125015
-0.1242393 -0.0046081236 0.87285352
-0.11704431 -0.0063729719 0.87605011
-0.1435689 0.006832995 0.87216121
-0.13530919 0.0048238575 0.87299979
-0.12614127 0.0021056435 0.87337512
-0.16512105 0.013759283 0.87200004
-0.1531529 0.017128363 0.87170607
-0.14593895 0.014326924 0.87321419
-0.13827896 0.012015008 0.87466669
-0.16371083 0.027641475 0.87100017
-0.15603542 0.022435799 0.87250012
-0.18402198 0.035888102 0.87100005
-0.1745299 0.034017451 0.87281823
-0.16913792 0.032145612 0.87300003
-0.10245915 -0.10297385 0.88022226
-0.094981983 -0.10392183 0.88034463
-0.086463608 -0.10675912 0.88000005
-0.092786402 -0.099745378 0.88200003
-0.041659199 -0.072517872 0.88000005
-0.038618796 -0.077122495 0.88357145
-0.23169914 -0.061899327 0.88040006
-0.2264289 -0.063223287 0.88409531
-0.219868 -0.062488798 0.88000005
-0.052249242 -0.062299181 0.88170004
-0.046052221 -0.064586625 0.88466674
-0.23225515 -0.057099495 0.88016671
-0.22590092 -0.056477662 0.88160706
-0.219868 -0.059402931 0.88000005
-0.054610386 -0.054870449 0.88424301
-0.049062651 -0.058406744 0.88833338
-0.070770964 -0.041433021 0.88066673
-0.065470859 -0.044934869 0.88383335
-0.058656186 -0.048388321 0.88740003
-0.082631975 -0.031040136 0.88277787
-0.075169072 -0.035005607 0.88399994
-0.068505362 -0.039702483 0.88800001
-0.093977116 -0.022730831 0.88341188
-0.08609014 -0.02651538 0.88557893
-0.11147694 -0.0104148 0.88000005
-0.10472327 -0.012888868 0.88317388
-0.097929545 -0.017813241 0.88357151
-0.11244828 -0.0076139751 0.88114291
-0.10784315 -0.0085343495 0.88500005
-0.1417399 0.013942945 0.88350004
-0.11625301 -0.09661568 0.89600003
-0.041398831 -0.071862116 0.89100003
-0.038587362 -0.07266932 0.89375007
-0.042023059 -0.063916937 0.89485711
-0.037548818 -0.064982712 0.89558822
-0.051986553 -0.051205441 0.89175004
-0.046515819 -0.055119433 0.89543486
-0.037746638 -0.058977749 0.89700007
-0.061924789 -0.043154236 0.89209086
-0.054645415 -0.04463502 0.89500016
-0.047794022 -0.046044968 0.89700001
-0.072995655 -0.032555152 0.89238459
-0.065148585 -0.035405993 0.89488655
-0.05691883 -0.036933593 0.89642853
-0.091389872 -0.021089969 0.89100003
-0.083901413 -0.023429358 0.89368176
-0.076369926 -0.026285971 0.89390922
-0.069123417 -0.029063253 0.89600003
-0.09091384 -0.0195935 0.89400005
-0.084235393 -0.019681167 0.89800006
-0.10291155 -0.10132303 0.90720004
-0.13364924 -0.092040218 0.90207696
-0.12408102 -0.093335912 0.90261906
-0.11489086 -0.094115607 0.90503144
-0.10657374 -0.096940726 0.90722233
-0.14319336 -0.083614089 0.90100002
-0.13506891 -0.085306659 0.9010005
-0.12504518 -0.085072815 0.9049024
-0.11601081 -0.087207906 0.90728605
-0.10905383 -0.089949504 0.90800005
-0.14286895 -0.07632184 0.90100002
-0.13519484 -0.075108506 0.9018575
-0.12576611 -0.074981034 0.90600032
-0.13394845 -0.066766061 0.90309525
-0.12554537 -0.065391287 0.90641201
-0.042161066 -0.054830246 0.90341181
-0.038330495 -0.056506425 0.90150005
-0.044233091 -0.04976223 0.90100002
-0.088466182 -0.019746916 0.90100002
-0.10004959 -0.10004959 0.91300005
-0.094988696 -0.10149354 0.91329408
-0.08465226 -0.10264939 0.91508716
-0.075162612 -0.10361112 0.91575032
-0.065651223 -0.10407301 0.91320616
-0.059832498 -0.1029119 0.91000003
-0.10318661 -0.093654566 0.91148275
-0.094623268 -0.094622925 0.91472256
-0.085752338 -0.095291637 0.91693538
-0.077741757 -0.098666027 0.91800004
-0.06394995 -0.098160245 0.91671431
-0.12046277 -0.081372201 0.91000003
-0.11389653 -0.082672797 0.9106667
-0.10491344 -0.084893525 0.91357148
-0.094832353 -0.085188113 0.91675007
-0.088086918 -0.087282129 0.91762507
-0.1206907 -0.074876107 0.90999997
-0.11516003 -0.075174414 0.91224998
-0.10505313 -0.075382456 0.91476238
-0.095530882 -0.074793905 0.91674209
-0.12191644 -0.063095294 0.91109091
-0.11535341 -0.065152653 0.91230756
-0.10490617 -0.064867258 0.91348958
-0.095246665 -0.065372385 0.91581845
-0.086179465 -0.066962175 0.91900003
-0.12365383 -0.059832498 0.91000003
-0.11412416 -0.058790147 0.91033334
-0.1055137 -0.058354292 0.91183335
-0.081459865 -0.091944799 0.92000002
-0.074481897 -0.094527327 0.92114717
-0.066454932 -0.094263226 0.92220008
-0.08330708 -0.084114902 0.92150015
-0.07466194 -0.085179433 0.9228574
-0.067501508 -0.086459056 0.92292869
-0.091138266 -0.079040267 0.92000002
-0.084915601 -0.074697152 0.9204284
-0.075354308 -0.075015679 0.92217261
-0.07840205 -0.068704367 0.92199999
