# .PCD v0.7 - Point Cloud Data file format
VERSION 0.7
FIELDS x y z
SIZE 4 4 4
TYPE F F F
COUNT 1 1 1
WIDTH 688
HEIGHT 1
VIEWPOINT 0 0 0 1 0 0 0
POINTS 688
DATA ascii
-0.11702185 -0.15248302 0.80900002
-0.11844029 -0.14680924 0.80900002
-0.13570011 -0.18021549 0.81900007
-0.13705128 -0.17824058 0.81772733
-0.11737395 -0.17302747 0.81772733
-0.12089584 -0.15309231 0.81600004
-0.11856513 -0.15272778 0.81180012
-0.12015506 -0.14788315 0.81100005
-0.1187331 -0.14859413 0.81100005
-0.14026403 -0.18677646 0.82900006
-0.13375682 -0.1838524 0.82715404
-0.12668534 -0.18192983 0.82733345
-0.13201153 -0.17546967 0.82625008
-0.12535995 -0.17504738 0.82570595
-0.11788975 -0.17141025 0.82500005
-0.13157515 -0.16533925 0.82754552
-0.12580498 -0.1651058 0.8264634
-0.11948089 -0.16220525 0.82600003
-0.13008945 -0.15915971 0.82900006
-0.12580341 -0.15615931 0.82454836
-0.11832546 -0.15872927 0.82300001
-0.13376017 -0.20121817 0.83900011
-0.12798107 -0.20079787 0.83900005
-0.13453904 -0.19447631 0.83631259
-0.12654045 -0.19526753 0.83566654
-0.13345735 -0.18846242 0.83185714
-0.12696327 -0.18728493 0.83233339
-0.12821776 -0.17374963 0.83100003
-0.14085272 -0.1621829 0.83900005
-0.13624136 -0.16297311 0.83629405
-0.11302952 -0.16361216 0.83449978
-0.10495225 -0.16373724 0.83454973
-0.095212221 -0.16253899 0.83630431
-0.27189848 -0.15127264 0.83900005
-0.141956 -0.15960856 0.83900005
-0.13486737 -0.15679607 0.83671433
-0.11372419 -0.15868315 0.838
-0.1046277 -0.15692426 0.83741391
-0.096272156 -0.15733673 0.83763158
-0.27301925 -0.14447781 0.83899999
-0.26993707 -0.14489809 0.83900011
-0.27229074 -0.13724865 0.83900005
-0.26715839 -0.1357449 0.83900011
-0.14322266 -0.22169207 0.84900004
-0.13868602 -0.22155033 0.84900004
-0.11238779 -0.22105412 0.84900004
-0.14427426 -0.21582882 0.84717172
-0.13492501 -0.21493141 0.84615809
-0.12500529 -0.21335919 0.84750009
-0.11517677 -0.21533076 0.84672987
-0.10776228 -0.21775764 0.84775001
-0.14364134 -0.20432556 0.84271431
-0.13527112 -0.20589787 0.8421427
-0.1247167 -0.20554332 0.84336835
-0.11720373 -0.20642328 0.84363174
-0.15158707 -0.1947559 0.84900004
-0.14417979 -0.19596609 0.84486204
-0.13875547 -0.19862233 0.84099996
-0.12165066 -0.19980198 0.84100002
-0.097501986 -0.18235105 0.84900004
-0.020095831 -0.18458392 0.84900004
-0.017805705 -0.1849847 0.84900004
-0.28305358 -0.17137815 0.847
-0.2753374 -0.17255898 0.84793353
-0.26648617 -0.17128016 0.84845454
-0.25623876 -0.17125435 0.84900004
-0.24933715 -0.1704424 0.84900004
-0.17639673 -0.17100063 0.84900004
-0.16374379 -0.1704424 0.84900004
-0.15778947 -0.1704424 0.84900004
-0.10464682 -0.17276138 0.84820002
-0.098106638 -0.17527559 0.84871429
-0.020095831 -0.17937389 0.84900004
-0.017862961 -0.17862961 0.84900004
-0.29250598 -0.16051854 0.84900004
-0.28483522 -0.16455227 0.84724259
-0.27501893 -0.16459373 0.84524387
-0.26479864 -0.16449814 0.84565121
-0.25477514 -0.16490123 0.84728587
-0.24757028 -0.16378042 0.84833336
-0.21212265 -0.16039449 0.84900004
-0.20251451 -0.16137561 0.84900004
-0.19566993 -0.16182433 0.84900004
-0.18264875 -0.16180865 0.8490001
-0.17466229 -0.16500267 0.84780985
-0.16470522 -0.16494791 0.84700018
-0.15741506 -0.16400699 0.84522235
-0.14338811 -0.16479394 0.84185708
-0.13750209 -0.16773044 0.84100002
-0.10264277 -0.16910402 0.84233338
-0.095976591 -0.16693507 0.84154546
-0.089210473 -0.16146359 0.84100002
-0.29330415 -0.15475067 0.84687507
-0.28485778 -0.15505013 0.84555554
-0.2749902 -0.15509319 0.84185714
-0.26469931 -0.1549895 0.84239119
-0.25498372 -0.15473334 0.84431911
-0.24627823 -0.15415481 0.84748667
-0.23747934 -0.15205194 0.84842861
-0.22368778 -0.15235043 0.84900004
-0.21467252 -0.15430623 0.8489449
-0.20457597 -0.15473577 0.84857166
-0.1947486 -0.15461223 0.84788918
-0.18499869 -0.15444918 0.84748805
-0.17501311 -0.15520054 0.84648854
-0.16497369 -0.15460771 0.84433347
-0.15477569 -0.15462117 0.84425014
-0.14487487 -0.1547481 0.84553331
-0.13755162 -0.15312144 0.84326667
-0.12075995 -0.15288627 0.84250003
-0.11502641 -0.15370768 0.84226823
-0.10539126 -0.15205938 0.84166652
-0.094402283 -0.15335943 0.84181076
-0.08559262 -0.15443368 0.84360868
-0.07811293 -0.15399544 0.84860003
-0.29273713 -0.14551876 0.84812009
-0.2851387 -0.14468585 0.84516656
-0.2777321 -0.14590704 0.84099978
-0.26507768 -0.14518675 0.84176594
-0.25507209 -0.14453106 0.84366649
-0.24539845 -0.14457297 0.84569395
-0.23576729 -0.14482325 0.84827667
-0.22519271 -0.14483412 0.84873927
-0.21467642 -0.1448518 0.84732664
-0.20489486 -0.14476259 0.84680957
-0.19525212 -0.14465964 0.84602129
-0.18451743 -0.14442281 0.84448022
-0.1744274 -0.14473793 0.84667361
-0.16479535 -0.14488739 0.84755814
-0.1552051 -0.1458647 0.84792328
-0.1456012 -0.14715883 0.84880966
-0.13846862 -0.14738256 0.84766674
-0.12154852 -0.14830965 0.84799999
-0.11491778 -0.14725813 0.84738457
-0.10464539 -0.14649858 0.84614295
-0.094827995 -0.14650927 0.84593773
-0.087003686 -0.14891192 0.84825003
-0.045897882 -0.14166319 0.84900004
-0.29126549 -0.13645317 0.84900004
-0.28471243 -0.13493772 0.84573674
-0.27501869 -0.13457568 0.84166646
-0.26457793 -0.13499723 0.8419047
-0.25519946 -0.13477518 0.84322721
-0.24519928 -0.13482259 0.84499997
-0.23528822 -0.13508946 0.84666669
-0.22504936 -0.13494171 0.84722733
-0.21459307 -0.13514169 0.847
-0.2046911 -0.13476545 0.8471539
-0.1952991 -0.13456251 0.84745836
-0.18518916 -0.13529058 0.84741879
-0.17543839 -0.13617133 0.84851551
-0.16682731 -0.13854425 0.84900004
-0.15481231 -0.13918222 0.84900004
-0.049867429 -0.13918222 0.84900004
-0.2830866 -0.12637825 0.84734803
-0.27501538 -0.125715 0.84612209
-0.2647748 -0.12514216 0.84426057
-0.25500497 -0.12520166 0.84487504
-0.24544041 -0.12556793 0.84648937
-0.23567456 -0.12596789 0.84757793
-0.22554061 -0.12678719 0.84860027
-0.21518175 -0.12712634 0.84831458
-0.20525633 -0.12828988 0.84847373
-0.19693914 -0.12846446 0.8490001
-0.26205364 -0.1193174 0.84800005
-0.25489771 -0.11866637 0.84800005
-0.2459347 -0.11961804 0.84900004
-0.14176928 -0.23210391 0.85866666
-0.11347537 -0.23145542 0.85719997
-0.10662151 -0.23203832 0.8574999
-0.031441126 -0.23212275 0.85799998
-0.027372539 -0.23133281 0.85714287
-0.15162475 -0.221837 0.852
-0.14438434 -0.22507782 0.85294998
-0.13575822 -0.22366498 0.85285711
-0.12322335 -0.22498713 0.85766661
-0.11500059 -0.22557877 0.85448402
-0.10553661 -0.22505662 0.85493946
-0.03213837 -0.22586933 0.85786653
-0.025504449 -0.22430629 0.8555792
-0.016919522 -0.22070944 0.85149997
-0.13204966 -0.21859069 0.85100001
-0.12634958 -0.21775174 0.85179996
-0.023921251 -0.2155591 0.85660017
-0.015493235 -0.21519692 0.85483795
-0.0097783403 -0.21738002 0.85800004
0.0024176522 -0.2121475 0.85644448
-0.1541969 -0.20083205 0.85800004
-0.096529774 -0.20267071 0.85799992
-0.02245093 -0.20646022 0.85771418
-0.015190828 -0.2052926 0.85629427
-0.005514916 -0.20601757 0.85870826
0.0033749477 -0.20650764 0.85595
-0.19448031 -0.19097014 0.85799992
-0.18127538 -0.19030154 0.85800004
-0.17497142 -0.19230734 0.85799992
-0.16445294 -0.19393927 0.85565388
-0.15510425 -0.19410585 0.8538422
-0.14892016 -0.19408716 0.85363632
-0.12185316 -0.19030154 0.85800004
-0.11362355 -0.19266228 0.85762489
-0.10474263 -0.19602263 0.85879159
-0.097493805 -0.19423866 0.85766667
-0.021102916 -0.19407508 0.85269231
-0.014887661 -0.19528602 0.85347509
-0.0074089561 -0.19577783 0.85512006
-0.27297276 -0.1815684 0.85622227
-0.26448125 -0.18211126 0.85626668
-0.2550872 -0.18285181 0.85672724
-0.24544516 -0.18376911 0.85668778
-0.23994541 -0.18127538 0.85800004
-0.22038874 -0.18127538 0.85800004
-0.21437129 -0.18177682 0.85799992
-0.20384075 -0.18319763 0.85799986
-0.19481461 -0.18503627 0.8580001
-0.18490982 -0.18469019 0.8574118
-0.17480145 -0.18497229 0.85659128
-0.1647528 -0.18497351 0.85423821
-0.15666749 -0.18565178 0.85676485
-0.14310235 -0.1825332 0.85738456
-0.137382 -0.18229757 0.85749996
-0.12193534 -0.18581411 0.85724998
-0.11490839 -0.18527237 0.85428566
-0.10479168 -0.18535389 0.85347217
-0.098893844 -0.18608457 0.85244441
-0.023823719 -0.18447669 0.85256517
-0.013347145 -0.18493974 0.85159993
-0.0092056571 -0.18356019 0.85724998
-0.27357021 -0.17761418 0.85228568
-0.2646741 -0.17589019 0.85240734
-0.25509095 -0.17603371 0.85331255
-0.24507877 -0.17512232 0.85504466
-0.23956932 -0.17469381 0.85799992
-0.22362339 -0.1747113 0.85793537
-0.21520276 -0.17499354 0.85736394
-0.20539936 -0.17547008 0.85646534
-0.19474134 -0.17528892 0.8566668
-0.18516153 -0.17528206 0.85566688
-0.17450148 -0.17578535 0.85323542
-0.16509517 -0.17517456 0.85381097
-0.15531351 -0.17613806 0.85590315
-0.14485931 -0.17574713 0.85613173
-0.13835388 -0.17596754 0.85411108
-0.12011298 -0.17681228 0.85100001
-0.11385246 -0.17702003 0.85199994
-0.10530264 -0.1775859 0.85099989
-0.097944833 -0.17595966 0.85099995
-0.023356054 -0.17658015 0.85532135
-0.014866295 -0.17652893 0.85403579
-0.0097555462 -0.17860155 0.85600007
-0.29259819 -0.16323428 0.85099995
-0.24333724 -0.16532321 0.8524285
-0.23525985 -0.16515778 0.85710019
-0.22512314 -0.16509214 0.85597241
-0.21538965 -0.16526268 0.85385734
-0.20559977 -0.16557728 0.85261285
-0.19441405 -0.16680592 0.8521111
-0.18612657 -0.16562967 0.85333341
-0.24304859 -0.15792777 0.85174996
-0.23474929 -0.15577167 0.85263884
-0.22563712 -0.15683879 0.85224992
-0.21709861 -0.15816119 0.85100001
-0.18576479 -0.15890723 0.85100001
-0.080108047 -0.15048334 0.85400003
-0.074418195 -0.1529434 0.85336
-0.06839402 -0.15407708 0.85733324
-0.23313855 -0.14958169 0.85100001
-0.2290353 -0.14995471 0.85100001
-0.16114536 -0.14100219 0.85100001
-0.15485729 -0.14164165 0.85099995
-0.14486568 -0.14310765 0.851794
-0.13482714 -0.14116408 0.85500008
-0.1251587 -0.14441724 0.85512507
-0.11474603 -0.14221433 0.85350001
-0.10510769 -0.14211883 0.85437506
-0.095132999 -0.14242728 0.85509092
-0.084126793 -0.14430988 0.85745311
-0.075156361 -0.14492756 0.85837996
-0.069576643 -0.14554682 0.85799992
-0.052294046 -0.14219901 0.85460007
-0.048535556 -0.14150079 0.85175002
-0.29319504 -0.1395101 0.85100001
-0.18491217 -0.13077074 0.85099995
-0.17370139 -0.13198093 0.85310525
-0.16481058 -0.13436888 0.85573471
-0.15544118 -0.135757 0.85512531
-0.14535603 -0.13690469 0.85556674
-0.13558382 -0.13613567 0.85647362
-0.11583573 -0.1391533 0.85800004
-0.10271437 -0.1384847 0.85799992
-0.097783402 -0.13840112 0.85800004
-0.072209284 -0.1391533 0.85800004
-0.051476989 -0.1395101 0.85100001
-0.28075251 -0.12053641 0.85400003
-0.27553001 -0.12087917 0.85219991
-0.26782957 -0.12011298 0.85100001
-0.24246408 -0.12011298 0.85100001
-0.2349745 -0.1209111 0.85225004
-0.22525857 -0.12173939 0.85305262
-0.21460359 -0.12191238 0.85266668
-0.20511229 -0.12342447 0.85391188
-0.19498414 -0.1253313 0.85476321
-0.18543312 -0.12726903 0.8556667
-0.17543815 -0.1284714 0.85644442
-0.16673322 -0.12862279 0.85800004
-0.27443984 -0.11749787 0.85618186
-0.26489276 -0.11696051 0.85525006
-0.25458863 -0.11548829 0.8549
-0.24505891 -0.11596188 0.85558343
-0.23526876 -0.11652697 0.85631442
-0.22557889 -0.11791056 0.85726309
-0.21557282 -0.11842668 0.85679996
-0.2073534 -0.11924 0.85760003
-0.13947767 -0.23145753 0.86000001
-0.11836753 -0.23145753 0.86000001
-0.10253742 -0.23355174 0.8621667
-0.094630443 -0.23322272 0.86676925
-0.087524503 -0.23289396 0.86816669
-0.041595556 -0.23144193 0.86900008
-0.03644779 -0.23216213 0.86342859
-0.0248798 -0.23296539 0.86000001
-0.16163717 -0.22710256 0.86833334
-0.15981984 -0.22647455 0.86400002
-0.1198754 -0.22994967 0.86000001
-0.10189645 -0.22419822 0.86256254
-0.095642775 -0.22565974 0.86634374
-0.088523872 -0.2280899 0.86900008
-0.041658726 -0.22657306 0.86884624
-0.036159772 -0.22473793 0.86251855
-0.16150655 -0.21102506 0.86900002
-0.15546894 -0.21179476 0.86825007
-0.040051393 -0.21461502 0.86200005
-0.033318508 -0.21622741 0.86180007
-0.027680125 -0.21465561 0.86000007
-0.011912147 -0.21336313 0.86000001
-0.0055825636 -0.21372175 0.86040014
-0.24479924 -0.20086741 0.86900002
-0.23235612 -0.20035954 0.86900002
-0.22569019 -0.20074046 0.86900002
-0.21483417 -0.20035954 0.86900002
-0.20340684 -0.20066425 0.86900008
-0.19461767 -0.2035199 0.86785001
-0.18487909 -0.20259668 0.8678571
-0.17412025 -0.20308408 0.86688894
-0.16500857 -0.20482703 0.86583871
-0.15526558 -0.20579758 0.86362988
-0.12281654 -0.20293847 0.86818182
-0.11501042 -0.20369425 0.86540753
-0.10461783 -0.20471984 0.86365521
-0.099033237 -0.20437585 0.8623333
-0.022254184 -0.20613106 0.86050004
-0.012816867 -0.20883954 0.86000001
0.00075393333 -0.20883954 0.86000001
-0.26240349 -0.1924613 0.86160004
-0.2549358 -0.19374646 0.8632859
-0.24471661 -0.19468242 0.86569697
-0.23478425 -0.19466561 0.86613172
-0.2247068 -0.19474722 0.86702657
-0.21532406 -0.19478947 0.86685717
-0.20525093 -0.19479595 0.86456668
-0.194998 -0.19602813 0.86267734
-0.18525526 -0.19500402 0.86213893
-0.17563865 -0.19738512 0.86133331
-0.16687059 -0.19828446 0.86000007
-0.14921568 -0.19011743 0.86400002
-0.12420798 -0.19501384 0.86255562
-0.11593029 -0.19648564 0.86055553
-0.096515827 -0.19638276 0.860111
-0.0082932664 -0.19225299 0.86000001
-0.27173248 -0.18492845 0.86100006
-0.26481444 -0.18742885 0.86081833
-0.25548065 -0.18817742 0.86066663
-0.24362248 -0.18780908 0.86036372
-0.23536877 -0.18451884 0.86260015
-0.22564006 -0.18456925 0.86199999
-0.21518405 -0.18636873 0.86170357
-0.2062145 -0.18715337 0.86063153
-0.19225299 -0.18019007 0.86000001
-0.1854676 -0.18923727 0.86000001
-0.15263891 -0.18483201 0.8611818
-0.1482612 -0.18509084 0.86175007
-0.12550263 -0.18821079 0.86066669
-0.031055041 -0.18102816 0.86400002
-0.028683655 -0.1811544 0.861
-0.0076538012 -0.18446593 0.86085719
-0.23519365 -0.17504358 0.86011446
-0.22912721 -0.17566647 0.86000001
-0.1560642 -0.17868219 0.86000001
-0.041090243 -0.171213 0.86800003
-0.033873275 -0.17382453 0.86616004
-0.025912318 -0.1726606 0.86088896
-0.015153842 -0.17260328 0.86450011
-0.0099037029 -0.17369571 0.86900002
-0.23447326 -0.16888106 0.86000001
-0.05500637 -0.16212708 0.86381817
-0.044078905 -0.16412398 0.86563659
-0.034871362 -0.1649655 0.86697572
-0.025535828 -0.16515984 0.86562788
-0.017146587 -0.16730355 0.8677693
-0.063529789 -0.15457278 0.86096561
-0.055212896 -0.15512958 0.86546665
-0.045672975 -0.15645994 0.86787093
-0.036101487 -0.15827024 0.86880004
-0.028187463 -0.15769742 0.86900002
-0.12816867 -0.14098553 0.86000001
-0.065137431 -0.1460465 0.861893
-0.056014862 -0.14709885 0.86738896
-0.15341543 -0.13149963 0.86208338
-0.14501755 -0.13236974 0.86178952
-0.13454002 -0.1343831 0.86185724
-0.12517871 -0.13615489 0.86328596
-0.11533363 -0.13739128 0.86168015
-0.10682695 -0.13711455 0.86046153
-0.080670863 -0.13947767 0.86000001
-0.076901197 -0.13947767 0.86000001
-0.20025696 -0.12015418 0.86200005
-0.19427402 -0.12123404 0.86278582
-0.18450066 -0.12338253 0.86347359
-0.17518516 -0.12533206 0.86300009
-0.16527846 -0.12694503 0.86195451
-0.15698119 -0.12897636 0.866
-0.14591718 -0.12893838 0.86563641
-0.13947767 -0.1289226 0.86000001
-0.27322429 -0.11275545 0.86380941
-0.26486197 -0.11232686 0.86383343
-0.25559804 -0.1118896 0.86400008
-0.24502014 -0.11148434 0.86190909
-0.23502076 -0.11183464 0.86300015
-0.22511041 -0.11434752 0.86434805
-0.21480693 -0.11489218 0.86488461
-0.20512824 -0.11771624 0.86343473
-0.19755968 -0.11891566 0.86675006
-0.26411143 -0.10884045 0.8682
-0.25521082 -0.10894073 0.86900002
-0.24589261 -0.10928448 0.86570007
-0.07235305 -0.24092028 0.87800002
-0.16607662 -0.23036432 0.87300003
-0.10120094 -0.23885632 0.87233335
-0.082376868 -0.23367289 0.87250006
-0.074698716 -0.2347036 0.87728244
-0.064844713 -0.23452693 0.8772499
-0.055585098 -0.23448746 0.87653857
-0.046689007 -0.23350601 0.87300009
-0.16590418 -0.22784367 0.8745001
-0.10319006 -0.22117285 0.87557155
-0.093953304 -0.222848 0.87353861
-0.084847972 -0.22706984 0.87438464
-0.077650756 -0.22834361 0.87700003
-0.065205716 -0.22838494 0.87800014
-0.053637493 -0.22818197 0.8774547
-0.04544545 -0.22569165 0.87407696
-0.037445065 -0.22084256 0.87166673
-0.22015291 -0.21094792 0.87500006
-0.21572576 -0.21112324 0.87466669
-0.20405039 -0.21157849 0.8757
-0.19456591 -0.21156429 0.87409097
-0.18452813 -0.21320562 0.8761251
-0.17457496 -0.21325268 0.875
-0.16531983 -0.213974 0.87440008
-0.1575347 -0.21534386 0.87337506
-0.11324635 -0.21207044 0.87611115
-0.10378349 -0.21447928 0.87531263
-0.097962238 -0.2196497 0.87300003
-0.037109826 -0.21853563 0.87100011
-0.24258564 -0.20232619 0.87200004
-0.23573962 -0.20369139 0.87250006
-0.224535 -0.20553099 0.87299991
-0.2149297 -0.20565264 0.87342417
-0.20552002 -0.20542836 0.87231243
-0.19500174 -0.20805314 0.87176937
-0.18523312 -0.20743257 0.87311125
-0.17627724 -0.20766363 0.87161553
-0.16722329 -0.20998359 0.87100005
-0.12795651 -0.20227943 0.87400007
-0.11460356 -0.20857608 0.87150007
-0.10613716 -0.20998359 0.87100005
-0.034360949 -0.17791337 0.87100005
-0.012980803 -0.17485906 0.87100005
-0.024329428 -0.16140783 0.87259996
-0.044114657 -0.15234353 0.87370002
-0.035504825 -0.15547581 0.87280005
-0.02916863 -0.15806036 0.87100011
-0.051923212 -0.14889745 0.87100005
-0.04835299 -0.14889877 0.87550002
-0.19034888 -0.12078275 0.87200004
-0.18404388 -0.12112904 0.87371445
-0.17798732 -0.1229399 0.87512505
-0.15372209 -0.12733483 0.87237513
-0.23486601 -0.11093048 0.87266678
-0.2243786 -0.11152835 0.8719092
-0.21459936 -0.11143998 0.87166685
-0.20515892 -0.11400089 0.87407404
-0.19510101 -0.1175176 0.87475014
-0.18697472 -0.11884516 0.87649995
-0.27214625 -0.10931683 0.87200004
-0.26404482 -0.10796974 0.87100011
-0.25487918 -0.10710876 0.87271446
-0.24475811 -0.10722663 0.87422746
-0.23466337 -0.10871943 0.87600011
-0.22462228 -0.1080863 0.87573695
-0.21650501 -0.10878757 0.87390012
-0.076375201 -0.24146907 0.88000005
-0.18067575 -0.22088318 0.88200003
-0.17476659 -0.2245183 0.88339406
-0.16597754 -0.2232967 0.8818149
-0.1133652 -0.22241473 0.88736367
-0.10773496 -0.22307923 0.88540012
-0.092575915 -0.22239672 0.88336372
-0.085281581 -0.22366062 0.88363642
-0.074391335 -0.22626412 0.8823446
-0.064696528 -0.22684434 0.8847369
-0.05448794 -0.22548082 0.88432127
-0.046055742 -0.2221159 0.8824001
-0.18206614 -0.21832506 0.88000005
-0.17555386 -0.21843535 0.88044447
-0.16558655 -0.2183173 0.88085717
-0.1596936 -0.219868 0.88000005
-0.11468723 -0.21622507 0.88243753
-0.10677123 -0.21754621 0.88081831
-0.02443568 -0.16235605 0.88780004
-0.018684397 -0.16659385 0.88800001
-0.042539153 -0.15043096 0.88225007
-0.033555541 -0.15543126 0.88457149
-0.026916647 -0.15854675 0.88740003
-0.044921715 -0.14948526 0.88350004
-0.17403942 -0.12330741 0.88413638
-0.16453934 -0.1256144 0.88495833
-0.1585101 -0.1275813 0.88200003
-0.21186228 -0.11057046 0.88200003
-0.2040837 -0.11145771 0.88291669
-0.19431707 -0.11312945 0.88286215
-0.1856678 -0.11646789 0.88407999
-0.17933063 -0.11946658 0.88300008
-0.23564009 -0.10561373 0.88370824
-0.22582391 -0.10554962 0.88400012
-0.21497652 -0.10768275 0.88625002
-0.20612742 -0.10883612 0.88783336
-0.09190271 -0.22229461 0.89600009
-0.088760749 -0.22229461 0.89600003
-0.063552 -0.22622919 0.89500004
-0.055876613 -0.22349863 0.89558333
-0.013956095 -0.1724136 0.89700007
-0.022279387 -0.16182521 0.89174998
-0.016697433 -0.16500257 0.8955
-0.041284863 -0.15176854 0.89700001
-0.034013938 -0.15319976 0.8950001
-0.025771722 -0.15567505 0.89524001
-0.018479256 -0.15923949 0.89700001
-0.044648193 -0.14882512 0.89350003
-0.17429034 -0.12126427 0.89663637
-0.16780803 -0.123116 0.89450002
-0.20074527 -0.11013651 0.89100003
-0.17887419 -0.11950983 0.89100003
-0.09659113 -0.22432718 0.90499997
-0.081563897 -0.22648974 0.90333337
-0.074115068 -0.22693141 0.90510005
-0.06565062 -0.22569501 0.90378571
-0.0062772832 -0.18331729 0.90640008
-0.010902578 -0.17412651 0.9012
-0.0067712194 -0.17587104 0.90582353
-0.012444593 -0.16496718 0.90394115
-0.0087561468 -0.16795881 0.90800005
-0.06274654 -0.15011513 0.90599996
-0.041073587 -0.15086645 0.90100002
-0.035149515 -0.15086645 0.90100002
-0.024468878 -0.15287808 0.90419996
-0.017885685 -0.15707959 0.90530771
-0.064740732 -0.14728023 0.90750003
-0.055586483 -0.14623159 0.90700012
-0.044495527 -0.14693959 0.90560889
-0.035225671 -0.14864059 0.90549999
-0.10224581 -0.22306328 0.91118741
-0.094893031 -0.22245444 0.91309077
-0.084888011 -0.22346893 0.91243762
-0.075254083 -0.2237225 0.91351533
-0.065010011 -0.22396979 0.91439992
-0.056257233 -0.22503 0.91675013
-0.044496868 -0.22470856 0.91544449
-0.036547728 -0.22195788 0.91794735
-0.02869102 -0.22135885 0.91420001
-0.10123527 -0.21934594 0.91650003
-0.09094014 -0.21970494 0.91800004
-0.084632523 -0.21840747 0.91650009
-0.077057689 -0.21910137 0.9180001
-0.03245946 -0.21916842 0.91800004
-0.027783057 -0.217435 0.91590005
-0.0038713596 -0.19211529 0.91690922
0.00080477999 -0.19073285 0.91800004
-0.0017342657 -0.18474238 0.91425008
0.0033784974 -0.18578297 0.91740006
-0.0032882297 -0.17431267 0.91394454
-0.011452626 -0.16167998 0.91150004
-0.005355048 -0.16523989 0.91545159
0.0018751901 -0.16408658 0.91700006
-0.094964042 -0.15049386 0.91800004
-0.022894735 -0.15120952 0.91100001
-0.014977918 -0.15480484 0.91423076
-0.00080390339 -0.1583672 0.91700006
0.00080215 -0.15802355 0.91500002
-0.093098179 -0.14556035 0.91785002
-0.085294157 -0.14399077 0.9156875
-0.075149596 -0.14377697 0.91434383
-0.065509379 -0.14267692 0.91289294
-0.054241166 -0.14214174 0.91231823
-0.044575658 -0.14249465 0.9134286
-0.035224661 -0.14436014 0.91392589
-0.025155192 -0.1464071 0.91451359
-0.018155767 -0.14797923 0.91640007
-0.071625419 -0.13922694 0.91800004
-0.068406299 -0.13922694 0.91800004
-0.052310698 -0.13922694 0.91800004
-0.049091581 -0.13922694 0.91800004
-0.09517093 -0.2201836 0.92000002
-0.070168398 -0.2201836 0.92000002
-0.064627863 -0.22134914 0.92149997
-0.054022208 -0.22231051 0.92135304
-0.046157535 -0.22230232 0.9216876
-0.093737036 -0.21492925 0.9251712
-0.084675565 -0.21396281 0.9243055
-0.07499028 -0.21562165 0.9252758
-0.065423273 -0.21815114 0.92615801
-0.055299088 -0.21855907 0.92593771
-0.045322068 -0.21847951 0.92605907
-0.034584768 -0.21597491 0.92486197
-0.027098492 -0.21321386 0.92352957
-0.10136458 -0.20191824 0.92500001
-0.094690032 -0.20418207 0.92514962
-0.084386252 -0.20448051 0.92558312
-0.076066613 -0.20243752 0.92800015
-0.067524374 -0.20094602 0.92800003
-0.030722871 -0.20448872 0.92710006
-0.027661268 -0.20552233 0.92500007
-0.002839962 -0.20386107 0.92583352
0.0022300207 -0.2029319 0.92500013
-0.10132074 -0.19534642 0.92460001
-0.094866984 -0.19459997 0.92490441
-0.084335335 -0.19462 0.92499965
-0.074572138 -0.19453889 0.92461085
-0.067065269 -0.19444799 0.92642123
-0.030866118 -0.19899675 0.92650008
-0.0014543899 -0.19831198 0.92180002
0.0023092651 -0.19566262 0.92171437
-0.10136458 -0.18651083 0.92500007
-0.094686002 -0.18546373 0.92452931
-0.08468122 -0.18450922 0.9240256
-0.074585438 -0.18484491 0.92477757
-0.065132245 -0.18518522 0.92705697
-0.057761807 -0.18372595 0.92800015
-0.043117974 -0.18630219 0.92800003
0.0058404505 -0.18156944 0.9223333
-0.09226317 -0.17726536 0.92050004
-0.08430846 -0.1754422 0.92345732
-0.074810959 -0.17549686 0.92484826
-0.065304786 -0.17639107 0.92492294
-0.056552593 -0.17805435 0.92600012
0.0041692574 -0.17494386 0.9218846
-0.081902586 -0.16948158 0.92500007
-0.0032261335 -0.1621132 0.92000002
0.0037137356 -0.16835278 0.92060006
-0.010814385 -0.15285578 0.92060006
-0.0055648824 -0.1552601 0.92383856
-0.033158537 -0.14084277 0.92257154
-0.0247622 -0.1414067 0.92400008
-0.014659522 -0.14616634 0.92344451
-0.0089490134 -0.14887904 0.92800003
-0.04539704 -0.13854624 0.92338473
-0.036074836 -0.13873473 0.92546684
-0.028474133 -0.13911648 0.92800003
-0.073236808 -0.21269837 0.93030012
-0.064861052 -0.21319211 0.93150014
-0.055587936 -0.21367706 0.93203247
-0.045076206 -0.21361522 0.93300015
-0.036299448 -0.21241665 0.93192863
-0.074396126 -0.20674652 0.93000025
-0.065368384 -0.20520094 0.9313001
-0.055471536 -0.20520492 0.93183887
-0.044837024 -0.20496494 0.93267584
-0.035453774 -0.20529735 0.93104368
-0.0040835133 -0.20780508 0.9320001
-0.062874019 -0.19619954 0.93000025
-0.0554404 -0.19567202 0.93000019
-0.04586944 -0.19552529 0.93044138
-0.036930077 -0.19618532 0.93000025
-0.0611475 -0.18996491 0.93000007
-0.054109935 -0.18653148 0.93012023
-0.046621483 -0.18631816 0.9308002
-0.039134398 -0.1891496 0.93000007
-0.073376998 -0.1720283 0.93000007
