# .PCD v0.7 - Point Cloud Data file format
VERSION 0.7
FIELDS x y z
SIZE 4 4 4
TYPE F F F
COUNT 1 1 1
WIDTH 700
HEIGHT 1
VIEWPOINT 0 0 0 1 0 0 0
POINTS 700
DATA ascii
-0.16232185 -0.12428153 0.75772727
-0.15873986 -0.12328165 0.75833333
-0.16284445 -0.11641809 0.75650001
-0.15691887 -0.11386358 0.7569412
-0.14276549 -0.11321163 0.75584602
-0.13530135 -0.11478312 0.75702554
-0.12958011 -0.11828425 0.75800002
-0.15415932 -0.10761233 0.75438088
-0.14481384 -0.106796 0.75468427
-0.1373414 -0.10790356 0.75681818
-0.14260367 -0.15201597 0.76688892
-0.13910098 -0.15168525 0.76900005
-0.14393853 -0.14718384 0.76637954
-0.13774501 -0.14488751 0.76346672
-0.12466375 -0.13095413 0.76866674
-0.15944725 -0.1247558 0.76100004
-0.13274075 -0.12255073 0.76470006
-0.12679192 -0.12814549 0.76642865
-0.13476294 -0.11941866 0.76100004
-0.14266172 -0.10649396 0.76400006
-0.13778424 -0.15418763 0.77255559
-0.13374339 -0.14562091 0.77450007
-0.12642802 -0.14336215 0.77575004
-0.14118366 -0.13027091 0.77800006
-0.13470456 -0.13426101 0.77741176
-0.12613268 -0.13618074 0.77258074
-0.14210583 -0.12418187 0.77460009
-0.13567856 -0.12673047 0.77425945
-0.12462705 -0.12674697 0.77516001
-0.11708468 -0.12481454 0.77800006
-0.13171753 -0.16234954 0.78900003
-0.12595044 -0.16191834 0.78900009
-0.11551223 -0.16116376 0.78900003
-0.13409916 -0.15509807 0.78500003
-0.1275259 -0.15592183 0.78589988
-0.114176 -0.15880786 0.78722227
-0.15286349 -0.14179645 0.78900003
-0.13335559 -0.14518206 0.78081822
-0.12840901 -0.14825179 0.78049999
-0.14461349 -0.13332543 0.78435004
-0.13759835 -0.13718788 0.78010011
-0.14592001 -0.12765959 0.78290009
-0.13075711 -0.12222924 0.78420001
-0.12529081 -0.1224992 0.78206462
-0.11605415 -0.12274668 0.78092605
-0.123342 -0.11638869 0.78692859
-0.11453695 -0.11532784 0.78371698
-0.10579091 -0.11386663 0.7844739
-0.098366968 -0.11172912 0.78833342
-0.025911769 -0.11221342 0.78899997
-0.00069169002 -0.11274547 0.78900003
0.0024542909 -0.11130974 0.78442866
-0.11336659 -0.10990901 0.78850007
-0.10422952 -0.10798217 0.78849989
-0.098318778 -0.10820008 0.78900003
-0.025012402 -0.10703345 0.78899974
0.0022818174 -0.1083842 0.78083342
-0.1322629 -0.18228315 0.7973333
-0.1276827 -0.18302171 0.7973333
-0.13400921 -0.1744865 0.79313511
-0.12516108 -0.17466155 0.7943334
-0.11535348 -0.17324923 0.79674095
-0.10490102 -0.17446874 0.79452181
-0.095900074 -0.17353843 0.79733354
-0.088846661 -0.1713971 0.79800004
-0.14026316 -0.16259362 0.79600006
-0.13534814 -0.16585797 0.79227602
-0.12457928 -0.16605887 0.79144454
-0.11492667 -0.16557038 0.79312229
-0.1057344 -0.16727145 0.79391664
-0.094811723 -0.16941211 0.79525006
-0.088623986 -0.16957188 0.79600006
-0.022895906 -0.15188786 0.79677796
-0.018315142 -0.15351433 0.79739994
-0.15364674 -0.14129312 0.79222226
-0.14890184 -0.14059103 0.79000002
-0.030661127 -0.14430089 0.79688895
-0.024367321 -0.14446616 0.7950666
-0.015874678 -0.14443004 0.79612505
-0.15439309 -0.134995 0.7938605
-0.14873381 -0.13672465 0.79033333
-0.02192688 -0.13607682 0.79565221
-0.014885905 -0.13493666 0.79652017
-0.0073455893 -0.13245381 0.79800004
-0.15270574 -0.12711865 0.79494125
-0.14946729 -0.12513453 0.79300004
-0.13392004 -0.12073497 0.79150003
-0.11142083 -0.12444809 0.796
-0.10703991 -0.12223516 0.79675007
-0.09978921 -0.12072401 0.79600006
-0.021510357 -0.1242671 0.79421061
-0.014636541 -0.12478434 0.7951836
-0.0048895446 -0.12503445 0.79677582
0.0040352717 -0.12380669 0.79302704
-0.13392816 -0.11538231 0.79411435
-0.12663378 -0.11332286 0.79125935
-0.11842891 -0.11057981 0.79000002
-0.10303382 -0.11759458 0.79369229
-0.099225074 -0.11657519 0.79150009
-0.033021025 -0.1109517 0.79171431
-0.022820918 -0.11549509 0.79069245
-0.01463135 -0.11501741 0.79514307
-0.0053201974 -0.11647275 0.79688901
0.0036821752 -0.11718246 0.79279989
-0.13158971 -0.10876423 0.79700011
-0.12433299 -0.10635558 0.79527801
-0.11485604 -0.10512642 0.79442555
-0.10541536 -0.10314107 0.79246688
-0.094943225 -0.10248463 0.79379332
-0.041171774 -0.10258052 0.79600006
-0.035233233 -0.10468002 0.79400015
-0.024834441 -0.10311602 0.79045177
-0.017203121 -0.10592829 0.79419053
-0.11095444 -0.09978921 0.79600006
-0.10391255 -0.098826133 0.79628581
-0.096096903 -0.098644197 0.79670608
-0.033384122 -0.096714973 0.79608339
-0.025561122 -0.097162925 0.79435301
-0.018253369 -0.098197185 0.79066664
-0.1237933 -0.19217388 0.80541676
-0.11900587 -0.19415799 0.80871433
-0.28099886 -0.18124048 0.80820006
-0.27428895 -0.18243931 0.80865222
-0.26496726 -0.18156761 0.80850005
-0.2553204 -0.18085195 0.80900002
-0.132552 -0.18515199 0.80000001
-0.1241826 -0.1861767 0.80138224
-0.11788273 -0.18316263 0.80255568
-0.10165699 -0.18303208 0.80272728
-0.09547548 -0.18265371 0.80195999
-0.086752065 -0.18197682 0.80457151
-0.28353545 -0.17473453 0.80758053
-0.27483132 -0.17466724 0.8062399
-0.26525414 -0.17468435 0.80712461
-0.25595737 -0.17505507 0.80799979
-0.15457787 -0.17158219 0.80828577
-0.1448468 -0.17309354 0.80560881
-0.13956533 -0.17322934 0.80000001
-0.1165173 -0.17838852 0.80330783
-0.093274921 -0.17742769 0.80075008
-0.087151743 -0.1772707 0.80590916
-0.29858303 -0.16524903 0.80900002
-0.28363153 -0.16503139 0.80730277
-0.27495456 -0.16468918 0.80626518
-0.26526037 -0.16481516 0.80687714
-0.25770339 -0.16489102 0.80796546
-0.18180124 -0.16215265 0.80871433
-0.17855957 -0.16235529 0.80871433
-0.16334276 -0.1643412 0.80892593
-0.15536563 -0.16604532 0.8082819
-0.14536867 -0.16646041 0.80424136
-0.030496603 -0.1609937 0.80900002
-0.027627273 -0.1618581 0.80800009
-0.28253645 -0.15634957 0.80815798
-0.27503243 -0.15517716 0.80730402
-0.26528773 -0.15492789 0.80695879
-0.25584716 -0.15451732 0.80793303
-0.2445256 -0.15366758 0.80848372
-0.23516919 -0.15343267 0.80858618
-0.22561815 -0.1540837 0.80846661
-0.21584028 -0.15224664 0.80900002
-0.20394538 -0.1533816 0.80884618
-0.19539826 -0.1534635 0.80893338
-0.18439943 -0.15469916 0.80759984
-0.17607424 -0.15354873 0.80813336
-0.16569696 -0.1561566 0.80693555
-0.15957525 -0.15957525 0.80900002
-0.12474514 -0.15190873 0.80884618
-0.11497971 -0.15295719 0.8082
-0.10478523 -0.15324356 0.80778784
-0.096467301 -0.1525434 0.80837506
-0.030970322 -0.15434124 0.80790907
-0.025819771 -0.15624768 0.80312496
-0.01585101 -0.15344304 0.80166674
-0.27276728 -0.14879504 0.80900002
-0.26462501 -0.14558241 0.80799985
-0.255321 -0.14513759 0.80711961
-0.24540363 -0.14494292 0.80699962
-0.23565908 -0.14507572 0.8072446
-0.22517173 -0.14516148 0.80771381
-0.21460234 -0.14519484 0.80789763
-0.20474705 -0.14505839 0.80622709
-0.19492 -0.14536825 0.80610853
-0.18498157 -0.14473133 0.80345243
-0.17507824 -0.14518957 0.80322748
-0.16708016 -0.143153 0.80280012
-0.12375197 -0.1451786 0.80531436
-0.11493567 -0.14501844 0.80362791
-0.10483254 -0.14493808 0.80379558
-0.096145138 -0.14530194 0.80628198
-0.032486197 -0.14899871 0.80550003
-0.028754666 -0.14938399 0.80000001
-0.011935815 -0.14448014 0.80100012
-0.0080230776 -0.14121328 0.80300009
-0.26201859 -0.13861376 0.80900002
-0.25440076 -0.13608173 0.80879486
-0.24528448 -0.13608932 0.80852628
-0.23526908 -0.13605264 0.80776912
-0.22489436 -0.13542695 0.80752796
-0.21437448 -0.13513353 0.80704045
-0.20462552 -0.13476551 0.80485708
-0.19499792 -0.13488643 0.80246341
-0.18493113 -0.13484266 0.80277395
-0.17599759 -0.13573779 0.80226189
-0.16426963 -0.13588838 0.80151218
-0.15920267 -0.13886401 0.80000001
-0.12287138 -0.13553439 0.80243331
-0.11464396 -0.13510124 0.80209482
-0.10470973 -0.13516305 0.80184007
-0.099308282 -0.13480766 0.80340004
-0.01052 -0.13816267 0.80000001
-0.0056966282 -0.13557519 0.80127788
-0.25319272 -0.12978786 0.80900002
-0.2461005 -0.12978786 0.80900002
-0.23049758 -0.12978786 0.80900002
-0.22343032 -0.12875652 0.80869234
-0.2143297 -0.12714267 0.80790323
-0.20426184 -0.12584785 0.8076511
-0.19476077 -0.12491895 0.8062889
-0.18507303 -0.12495668 0.80532664
-0.17785658 -0.12484807 0.80461919
-0.16213468 -0.12548691 0.8021667
-0.15716881 -0.12411251 0.80106658
-0.11228507 -0.12795638 0.80050009
-0.10454716 -0.12585144 0.8003844
-0.099258833 -0.12530547 0.80300003
-0.20071021 -0.11985874 0.80900002
-0.19470908 -0.11920406 0.80900002
-0.18451627 -0.11926772 0.80900002
-0.17607827 -0.11815228 0.80825007
-0.16879515 -0.11347573 0.80900002
-0.15678833 -0.11882164 0.80200005
-0.14326134 -0.11184196 0.80340016
-0.1380135 -0.11190781 0.80116671
-0.011922668 -0.11010933 0.80000001
-0.0086497776 -0.11104444 0.80000001
-0.14372009 -0.10589119 0.80665702
-0.13512407 -0.10458609 0.8042326
-0.12601125 -0.10190649 0.80347383
-0.1172302 -0.1010519 0.80233335
-0.091874667 -0.10449867 0.80000001
-0.08705081 -0.10139728 0.8021
-0.053191751 -0.10000049 0.80900002
-0.044836067 -0.10107195 0.80400008
-0.039274666 -0.10029066 0.80000001
-0.013351986 -0.10484212 0.80176002
-0.0091477241 -0.10766109 0.80266666
-0.14361641 -0.099753268 0.80700004
-0.12418644 -0.098029017 0.80752641
-0.1144505 -0.096968554 0.80386668
-0.10525805 -0.095024377 0.80221212
-0.094422035 -0.093802758 0.80248779
-0.085203737 -0.094583809 0.80445486
-0.075530909 -0.094556995 0.80756509
-0.06580846 -0.094326697 0.80900002
-0.053546369 -0.09645436 0.80900002
-0.044454414 -0.095316023 0.80595452
-0.036142591 -0.093764581 0.80381477
-0.027438262 -0.092988744 0.80239999
-0.092844382 -0.089007847 0.80671436
-0.27068222 -0.2010372 0.81900007
-0.26757094 -0.20079787 0.81900007
-0.28337637 -0.1933655 0.81833357
-0.27452871 -0.19393957 0.81570977
-0.26501656 -0.19441615 0.81554049
-0.255009 -0.19328344 0.8157202
-0.24494192 -0.19366556 0.81790912
-0.23819318 -0.19206232 0.81900012
-0.12110303 -0.19646657 0.81100005
-0.11766664 -0.19587407 0.81100005
-0.29150921 -0.18219325 0.81500006
-0.2847344 -0.18542013 0.81323081
-0.27438894 -0.18728276 0.8116315
-0.26431814 -0.18606153 0.81199998
-0.25454658 -0.18494658 0.81265002
-0.24474129 -0.18520778 0.81468201
-0.23655632 -0.18348682 0.81809694
-0.20405276 -0.18021549 0.81900007
-0.19435263 -0.18171762 0.81886685
-0.18496026 -0.18277791 0.81700015
-0.17520359 -0.18214163 0.81833345
-0.16528131 -0.18208227 0.81900012
-0.15436785 -0.18062577 0.81900012
-0.14557664 -0.18142968 0.81800002
-0.081762314 -0.182721 0.81099999
-0.075047582 -0.18249552 0.81379998
-0.067644648 -0.18215574 0.8174001
-0.29315013 -0.17399375 0.81326079
-0.28873551 -0.1764012 0.81099999
-0.25145605 -0.17441206 0.81157142
-0.24528123 -0.17490163 0.81431919
-0.23570251 -0.17529634 0.81742561
-0.22553971 -0.17334051 0.81728572
-0.21428768 -0.17355053 0.81708014
-0.20529667 -0.1747908 0.81695002
-0.19525869 -0.17473714 0.81671435
-0.18536194 -0.17534393 0.81595826
-0.1747414 -0.17537302 0.81470734
-0.16518021 -0.17561024 0.81460011
-0.15586632 -0.17685141 0.81490916
-0.14696176 -0.17838809 0.81475002
-0.083471239 -0.17481658 0.81376487
-0.075162828 -0.17491074 0.81526095
-0.065268271 -0.17620516 0.81816673
-0.056392983 -0.17430742 0.81900018
-0.044012785 -0.1737536 0.81900012
-0.03709615 -0.1712805 0.81900012
-0.2943061 -0.16468152 0.81376922
-0.2889612 -0.16565756 0.81099999
-0.25282288 -0.16549262 0.81237501
-0.24451256 -0.16503437 0.8133902
-0.23490234 -0.16559474 0.81443584
-0.22509459 -0.16590531 0.81483787
-0.21489014 -0.16502275 0.8145833
-0.20512395 -0.16521852 0.81285018
-0.19508798 -0.16474248 0.81317794
-0.18624 -0.16596068 0.81371433
-0.17495508 -0.16592996 0.81182933
-0.16742401 -0.16653466 0.81137496
-0.15634187 -0.16245697 0.81328583
-0.12456117 -0.16280837 0.81584215
-0.11342809 -0.16265659 0.81199998
-0.10560521 -0.16293141 0.81277776
-0.098601766 -0.16170949 0.81800002
-0.080934741 -0.16974808 0.81700003
-0.07878603 -0.16974808 0.81700003
-0.042230863 -0.16690002 0.81900018
-0.035315115 -0.16496615 0.81602222
-0.028439065 -0.16636854 0.81100005
-0.29345822 -0.15454978 0.8184402
-0.2859365 -0.15365371 0.81281817
-0.27531761 -0.15010856 0.81150007
-0.25253886 -0.15797901 0.81099999
-0.24595052 -0.15864259 0.81099993
-0.23536739 -0.15848717 0.81111759
-0.22466862 -0.15684143 0.81099999
-0.21501161 -0.15612577 0.8115164
-0.20614581 -0.15750006 0.81099993
-0.19542424 -0.15834136 0.8114
-0.18861195 -0.15895405 0.81099999
-0.17436142 -0.15781981 0.81110519
-0.16992342 -0.15996975 0.81100005
-0.13026917 -0.15518489 0.81200004
-0.12455389 -0.15664011 0.8126002
-0.11455297 -0.15814075 0.81109989
-0.10532888 -0.15848337 0.81112492
-0.093508385 -0.15579605 0.81323999
-0.088680968 -0.15136263 0.8125
-0.035437874 -0.15601148 0.81528586
-0.29222149 -0.14748296 0.81466675
-0.28501549 -0.14473873 0.81533343
-0.27515501 -0.14444356 0.81261909
-0.26814839 -0.14154191 0.81133336
-0.091779605 -0.14646283 0.81157148
-0.087405123 -0.1483732 0.81500006
-0.033663124 -0.14969346 0.81700003
-0.28339097 -0.13966615 0.81700009
-0.2735872 -0.13786402 0.81582361
-0.2650356 -0.13521549 0.81457132
-0.25550404 -0.13178289 0.81183332
-0.24456844 -0.13145728 0.81113327
-0.23598412 -0.13124888 0.81114286
-0.2282235 -0.13081971 0.81100005
-0.26134837 -0.12995619 0.81900007
-0.2544823 -0.12836392 0.81671441
-0.24452163 -0.12695767 0.81538475
-0.23477145 -0.12534083 0.81444186
-0.22522862 -0.12402802 0.81416672
-0.21545497 -0.1222685 0.81273925
-0.2069409 -0.12121615 0.81118184
-0.23262875 -0.11990433 0.81900007
-0.22506323 -0.11965736 0.81871432
-0.21498458 -0.11885446 0.81742871
-0.20442289 -0.11718294 0.81508332
-0.19489697 -0.11450297 0.81510007
-0.18556437 -0.11473868 0.81475002
-0.17545393 -0.11339787 0.81356251
-0.16730489 -0.11190114 0.81209093
-0.19026735 -0.10985247 0.81900007
-0.17380577 -0.10833524 0.81766683
-0.16814004 -0.10844654 0.81614292
-0.15020105 -0.10606439 0.81200004
-0.14677963 -0.10352937 0.81322223
-0.13542162 -0.10049493 0.81300002
-0.071808644 -0.10024771 0.81100005
-0.068253756 -0.10024771 0.81100005
-0.14145981 -0.098998167 0.81633335
-0.13513978 -0.098106161 0.8140589
-0.12299896 -0.095981851 0.81100005
-0.083184272 -0.090294033 0.81100005
-0.073088408 -0.093706727 0.81099999
-0.063893095 -0.094559893 0.81100023
-0.055779248 -0.092530109 0.81116015
-0.045581505 -0.090610012 0.81099999
-0.035040993 -0.090700306 0.81099999
-0.021566682 -0.095256358 0.81700009
-0.018410238 -0.096600145 0.8162728
-0.090294033 -0.087450132 0.81100005
-0.084012739 -0.086229995 0.8134445
-0.075032108 -0.08574184 0.81509537
-0.065343328 -0.085942723 0.81361115
-0.054991517 -0.085808679 0.81621963
-0.045654505 -0.08698336 0.81507415
-0.037536062 -0.087912306 0.81400001
-0.24200998 -0.21075945 0.82900006
-0.23740716 -0.21051718 0.82900006
-0.27588317 -0.20191568 0.82100004
-0.26387578 -0.20351975 0.82547051
-0.25444102 -0.20474535 0.82506472
-0.24517334 -0.20446338 0.82575005
-0.2352514 -0.20474398 0.82651365
-0.22610246 -0.2026298 0.82736361
-0.21520527 -0.20110345 0.82814294
-0.28525826 -0.19409078 0.82100004
-0.27566168 -0.19792941 0.82100004
-0.2614778 -0.1995308 0.82166672
-0.25467396 -0.19831446 0.82140005
-0.24434805 -0.19885683 0.82185715
-0.23415858 -0.19535778 0.82242227
-0.22484379 -0.1948881 0.82431853
-0.21455637 -0.19508983 0.82526106
-0.20507069 -0.19442567 0.82658154
-0.19518895 -0.19334699 0.82675773
-0.18506715 -0.1938729 0.82692856
-0.1751779 -0.19258448 0.82709998
-0.16560556 -0.19125503 0.82811117
-0.15497743 -0.19106014 0.82866669
-0.14607808 -0.191137 0.82900012
-0.23275074 -0.18638942 0.82138449
-0.22443829 -0.18517317 0.82308364
-0.2149217 -0.1851978 0.8226099
-0.20551667 -0.1850443 0.82272214
-0.19594836 -0.18621869 0.82224983
-0.18447556 -0.18795344 0.82217646
-0.17497569 -0.18715836 0.82299995
-0.16476436 -0.18642448 0.82341665
-0.1547939 -0.18575038 0.82329398
-0.14649354 -0.18625 0.82439995
-0.062693946 -0.1815971 0.82200003
-0.057408225 -0.18111612 0.82200003
-0.22467126 -0.17847413 0.82200003
-0.21669492 -0.17768894 0.82161534
-0.10319944 -0.17078781 0.82900006
-0.072694078 -0.17093903 0.82100004
-0.066107348 -0.17184082 0.82187504
-0.052762721 -0.17500836 0.82100004
-0.047545396 -0.17320414 0.82100004
-0.033827938 -0.17201866 0.82100004
-0.297254 -0.16050276 0.82100004
-0.15800777 -0.16233675 0.82300001
-0.1305909 -0.16089375 0.82300001
-0.10287724 -0.16743129 0.82481825
-0.095703147 -0.1652918 0.82456529
-0.072781876 -0.16875409 0.82453847
-0.064356498 -0.16723529 0.82606667
-0.054709099 -0.16521123 0.82534605
-0.046095572 -0.16452675 0.82294434
-0.297254 -0.1587034 0.82100004
-0.050025228 -0.15877573 0.82700002
-0.043775596 -0.15724348 0.82366669
-0.038626228 -0.15402506 0.82100004
-0.28459141 -0.13847266 0.82700002
-0.27542093 -0.13329156 0.82618529
-0.26768985 -0.13180031 0.8225556
-0.27187625 -0.1297756 0.82699996
-0.26390308 -0.12752284 0.82600009
-0.25517166 -0.12398496 0.82499993
-0.24574953 -0.12260546 0.82247818
-0.23852293 -0.12077292 0.82099998
-0.25145781 -0.11991485 0.82900006
-0.24355422 -0.11851248 0.82683343
-0.23458688 -0.1176519 0.82480955
-0.22469597 -0.11743807 0.82463628
-0.21519415 -0.11587439 0.82510006
-0.20699036 -0.11449808 0.82316667
-0.19357589 -0.11092551 0.82700002
-0.18446131 -0.11083909 0.82328576
-0.18313245 -0.109299 0.82566667
-0.17700024 -0.10758259 0.82140005
-0.1677002 -0.10580227 0.82100004
-0.01962243 -0.093751609 0.82900006
-0.045343831 -0.084929712 0.82100004
-0.24623637 -0.2112679 0.83100003
-0.23222373 -0.2110461 0.83300006
-0.22470108 -0.21124879 0.83380014
-0.20079787 -0.2110952 0.83900005
-0.19563779 -0.21029004 0.83579999
-0.24915043 -0.20908237 0.83100003
-0.23107575 -0.2088439 0.83150005
-0.22393826 -0.20721158 0.83128583
-0.21512724 -0.20593683 0.83166659
-0.20502238 -0.20479476 0.83273685
-0.19509955 -0.20439841 0.83304894
-0.18532762 -0.20338526 0.83485192
-0.17649862 -0.20179585 0.83400011
-0.16088763 -0.20129406 0.83800006
-0.15456691 -0.20184162 0.83794111
-0.14654797 -0.20289092 0.83649999
-0.20434704 -0.19888324 0.83100003
-0.19363795 -0.19844615 0.83099997
-0.18472932 -0.19867508 0.83099997
-0.17489472 -0.19749662 0.83160019
-0.16499044 -0.19585548 0.83250016
-0.15502983 -0.19611445 0.83480644
-0.1459109 -0.1965259 0.83308703
-0.11000501 -0.17119984 0.83100003
-0.10387985 -0.17396091 0.83375007
-0.094938748 -0.1734391 0.83350009
-0.089196451 -0.17265511 0.83300012
-0.093249276 -0.16865006 0.83100003
-0.065149486 -0.16616778 0.83500004
-0.28342485 -0.13479091 0.83110011
-0.28047636 -0.12894627 0.83100003
-0.27409381 -0.12760024 0.83510005
-0.26585943 -0.12435867 0.83442849
-0.25643551 -0.12020415 0.83100003
-0.25373513 -0.11842901 0.8368572
-0.24487883 -0.11612796 0.8350001
-0.23471837 -0.11409011 0.83516651
-0.22510728 -0.11294015 0.83341366
-0.21530358 -0.11219332 0.83466667
-0.20520584 -0.11221901 0.83552629
-0.19489492 -0.11145116 0.83640003
-0.18857889 -0.11079927 0.83700001
-0.0058841864 -0.11106402 0.83900005
-0.22543789 -0.10959297 0.83900005
-0.21992147 -0.10959297 0.83900005
-0.20300443 -0.10959297 0.83900005
-0.19123606 -0.10959297 0.83900005
-0.18829396 -0.10959297 0.83900005
-0.013070107 -0.10305549 0.83766657
-0.007393945 -0.1061089 0.83899993
-0.031425286 -0.090867959 0.83366674
-0.025165725 -0.092347533 0.83299994
-0.016591355 -0.095347896 0.83662504
-0.054428726 -0.08311414 0.83900005
-0.044075761 -0.084081501 0.83684629
-0.034497146 -0.08610595 0.8361764
-0.026094362 -0.087825589 0.83685714
-0.16184756 -0.2047113 0.84300005
-0.15493342 -0.20506825 0.84100002
-0.14966716 -0.20717475 0.84100002
-0.28124571 -0.12767652 0.84379995
-0.2749598 -0.12404893 0.84468418
-0.26890084 -0.12321228 0.84500003
-0.26087758 -0.11898383 0.84300005
-0.25510824 -0.11565629 0.84511119
-0.24507216 -0.11338369 0.84457147
-0.2363469 -0.11106947 0.84277779
-0.21875289 -0.11011547 0.84300005
-0.20864929 -0.11132877 0.84100002
-0.19685286 -0.11132877 0.84100002
-0.18830536 -0.11089921 0.84900004
-0.0048458767 -0.11550037 0.84576929
-0.23368983 -0.10942963 0.84533334
-0.22474654 -0.10868535 0.84646672
-0.21436547 -0.10803027 0.84482616
-0.20520048 -0.10733657 0.8433637
-0.19587517 -0.10818856 0.84372729
-0.1889569 -0.10850661 0.84660006
-0.01105915 -0.1010069 0.84100002
-0.0051791715 -0.10431989 0.84473336
-0.014001548 -0.094283707 0.84456521
-0.0088127395 -0.097773753 0.84566665
-0.072010055 -0.082802258 0.84900004
-0.064716622 -0.083103962 0.8485201
-0.05486476 -0.082100824 0.84562504
-0.045586847 -0.080843747 0.84140003
-0.033852808 -0.081540734 0.84175014
-0.024142686 -0.083699182 0.84403038
-0.018048083 -0.087528586 0.84616667
-0.063264646 -0.079639032 0.8490001
-0.054318044 -0.079243436 0.84875005
-0.044946879 -0.07750234 0.8471601
-0.035447538 -0.077777863 0.84718192
-0.026567385 -0.078963555 0.84775007
-0.086500697 -0.17713839 0.85800004
-0.072209284 -0.17074487 0.85800004
-0.071457103 -0.16848832 0.85800004
-0.069316573 -0.16865867 0.85633332
-0.0014973467 -0.12053641 0.85400003
-0.0014379357 -0.11492109 0.85423076
0.0011819971 -0.11293446 0.85799992
-0.0024636837 -0.10405958 0.85571426
0.0017550866 -0.10856465 0.85800004
-0.012191948 -0.091319002 0.85149997
-0.0066807191 -0.095004559 0.85577273
-0.075619832 -0.082141913 0.85254538
-0.020178676 -0.080713384 0.85250002
-0.014870897 -0.08479552 0.85484612
-0.0097669438 -0.088652916 0.85700005
-0.072057612 -0.077657543 0.85174996
-0.065431647 -0.077323154 0.8525908
-0.054692093 -0.075982735 0.85359097
-0.045478083 -0.073082052 0.85442859
-0.034927007 -0.073482946 0.85469234
-0.025325524 -0.076298058 0.85513037
-0.018303046 -0.078477442 0.85800004
-0.042498171 -0.069576651 0.85800004
-0.037609 -0.069952741 0.85800004
-0.091993332 -0.17288721 0.86463636
-0.085078873 -0.17342369 0.86136121
-0.077260368 -0.17257261 0.86076927
-0.092289768 -0.16878814 0.86825001
-0.084588178 -0.16661601 0.86757147
-0.075271979 -0.16531011 0.86495566
-0.064935163 -0.16466488 0.86511123
-0.0553228 -0.16282047 0.86357152
-0.048212811 -0.16186807 0.86200011
-0.1013225 -0.15007919 0.86900002
-0.097894304 -0.15046011 0.86900002
-0.063231334 -0.15922108 0.86900002
-0.053556439 -0.15843637 0.8679232
-0.044656567 -0.15632109 0.8656314
-0.035905752 -0.15317865 0.86520702
-0.029642729 -0.15125392 0.86700004
-0.096751563 -0.1470319 0.86900002
-0.031742636 -0.14804767 0.86900002
-0.027616352 -0.14721568 0.86845458
-0.10183039 -0.13077967 0.86900002
-0.095397204 -0.1325855 0.86899996
-0.08913333 -0.13103361 0.86900002
-0.1022113 -0.1245581 0.86900014
-0.095186427 -0.12488557 0.86861885
-0.08623115 -0.12388697 0.86900014
-0.075725242 -0.12265356 0.86900008
-0.10162723 -0.11777788 0.86900008
-0.094595872 -0.1164958 0.86784858
-0.085121609 -0.11500081 0.86787808
-0.075471804 -0.1147746 0.86848927
-0.065262862 -0.11315613 0.8689999
-0.054681983 -0.11215733 0.8690002
-0.049213789 -0.11259749 0.86900008
0.0054804091 -0.11456156 0.86208349
-0.083189182 -0.10843543 0.86740005
-0.075902462 -0.10862493 0.86800003
-0.064754978 -0.10830588 0.86900014
-0.056374922 -0.10894074 0.86900002
-0.00075393333 -0.10253493 0.86000001
0.0045837252 -0.1050643 0.86291671
-0.096423477 -0.091511473 0.86599994
-0.0024406398 -0.094167188 0.86094129
0.0030321707 -0.096244626 0.8637501
-0.08499714 -0.085270338 0.86636358
-0.012635396 -0.082037151 0.86050004
-0.0054625715 -0.08549881 0.86167437
0.00075568666 -0.089171022 0.86200005
-0.063364267 -0.074258208 0.86518186
-0.055534933 -0.072443396 0.86383343
-0.047535788 -0.070170157 0.86066675
-0.032042168 -0.070492767 0.86000001
-0.023924423 -0.072500072 0.86108696
-0.015172126 -0.075810529 0.86232144
-0.0081827193 -0.078042887 0.86429995
-0.051803984 -0.069325924 0.86900002
-0.045089208 -0.068087287 0.86188889
-0.035726618 -0.067777894 0.86226678
-0.027503228 -0.068381317 0.86350006
-0.091750175 -0.16557708 0.87360001
-0.086564146 -0.16242169 0.87187517
-0.07597588 -0.16111468 0.87100005
-0.10267257 -0.15170804 0.87400007
-0.093463972 -0.15348075 0.87388897
-0.084934182 -0.1554049 0.87379169
-0.075020298 -0.15539157 0.87319058
-0.065174915 -0.15491854 0.87282217
-0.055421375 -0.15406314 0.87293547
-0.045970209 -0.15176491 0.87212515
-0.037415255 -0.1504246 0.87100005
-0.10205059 -0.14527312 0.87384212
-0.094703816 -0.1451495 0.87180007
-0.085034907 -0.14479236 0.87385702
-0.075084083 -0.14480639 0.87395233
-0.065169945 -0.14491047 0.87459189
-0.055230003 -0.14497873 0.87500012
-0.045219153 -0.1448482 0.87422454
-0.035469558 -0.14436442 0.87320513
-0.027650427 -0.14238279 0.87182373
-0.10267587 -0.13601755 0.87135315
-0.094759867 -0.13782558 0.87100017
-0.084552184 -0.13458185 0.87125003
-0.07490956 -0.13453639 0.87194437
-0.065142713 -0.13488984 0.87423807
-0.055191871 -0.13491434 0.87438869
-0.045247898 -0.13497762 0.87480956
-0.035456836 -0.13497992 0.87364686
-0.028803412 -0.13650806 0.8738001
-0.10422821 -0.1278991 0.87100005
-0.083229855 -0.12652467 0.87100017
-0.074867189 -0.12552904 0.87143767
-0.065075018 -0.12536398 0.87281394
-0.055072159 -0.12544399 0.8724997
-0.045286536 -0.12513551 0.87360865
-0.037104681 -0.12693074 0.87326676
-0.1032012 -0.11772494 0.87200004
-0.073303357 -0.11988153 0.87100005
-0.06397076 -0.11818469 0.87100023
-0.055104781 -0.11746354 0.87100023
-0.046347927 -0.11669488 0.87121069
-0.025535109 -0.067924276 0.87383336
