# .PCD v0.7 - Point Cloud Data file format
VERSION 0.7
FIELDS x y z
SIZE 4 4 4
TYPE F F F
COUNT 1 1 1
WIDTH 524
HEIGHT 1
VIEWPOINT 0 0 0 1 0 0 0
POINTS 524
DATA ascii
-0.21399838 -0.061634753 0.72780001
-0.20845836 -0.06159528 0.7276668
-0.22098136 -0.054248136 0.7280001
-0.21501452 -0.054691665 0.72638977
-0.20528558 -0.054415397 0.72601628
-0.19776909 -0.051662777 0.72753847
-0.22082181 -0.04531315 0.72800004
-0.21499474 -0.044587068 0.72548211
-0.20497501 -0.044635862 0.72494096
-0.19579758 -0.044329904 0.72688675
-0.21259807 -0.038330998 0.72700006
-0.20494239 -0.03705249 0.7270667
-0.19676532 -0.037912946 0.72771436
-0.10477609 -0.16261202 0.73899996
-0.11070853 -0.10229254 0.7385
-0.10869308 -0.10092975 0.73800004
-0.1057621 -0.093778297 0.73117369
-0.10341204 -0.0855783 0.73176676
-0.096694887 -0.082385771 0.73643488
-0.22324151 -0.072422773 0.73790485
-0.21457079 -0.073441178 0.73814654
-0.20518413 -0.074170455 0.73824012
-0.19743425 -0.071590886 0.73876923
-0.10136195 -0.078646354 0.73333335
-0.09672562 -0.077948667 0.73411781
-0.22392593 -0.065061629 0.73430306
-0.21534154 -0.066129386 0.73191655
-0.20453496 -0.065460861 0.7335
-0.19562289 -0.064852446 0.73607838
-0.18536671 -0.06305474 0.73785734
-0.17867886 -0.062453378 0.73899996
-0.23129535 -0.05208189 0.73800004
-0.22533348 -0.055335391 0.7324062
-0.2015245 -0.058088306 0.73042858
-0.19460036 -0.055819206 0.73181635
-0.185013 -0.055065982 0.73496938
-0.17531924 -0.054565623 0.73853213
-0.16857229 -0.052217245 0.73900002
-0.23114808 -0.047780525 0.73650002
-0.22511041 -0.045098413 0.73241168
-0.21950856 -0.0403179 0.73000002
-0.19121656 -0.045589577 0.73026305
-0.18449529 -0.045129705 0.73320717
-0.17497081 -0.045125462 0.73712838
-0.16859223 -0.045798484 0.73900002
-0.22217646 -0.037563063 0.73119998
-0.21514834 -0.034162741 0.7317391
-0.2049145 -0.032345682 0.73159367
-0.19448911 -0.033910241 0.73265398
-0.1848222 -0.035070356 0.73493451
-0.17548074 -0.037037607 0.73833358
-0.16909058 -0.039519258 0.73900002
-0.21292421 -0.02851855 0.73377782
-0.20463479 -0.026564538 0.73624325
-0.19649069 -0.025810599 0.73829299
-0.18852629 -0.02915355 0.73900002
-0.12016207 -0.17072207 0.74900001
-0.11401056 -0.17455781 0.74751228
-0.10950969 -0.17377567 0.74800003
-0.12275498 -0.16340904 0.74794734
-0.1153513 -0.1646529 0.74436003
-0.10862231 -0.16387352 0.74144447
-0.12400351 -0.15471259 0.74667567
-0.11473626 -0.15465748 0.74317247
-0.10774889 -0.15604529 0.74458617
-0.13066804 -0.14511375 0.74900001
-0.12495802 -0.14526218 0.74594325
-0.11516149 -0.14534219 0.74440336
-0.10799507 -0.14875342 0.74750006
-0.13099635 -0.13624933 0.74900001
-0.12417606 -0.13515703 0.74523544
-0.11751713 -0.1346574 0.74461287
-0.12233041 -0.12527618 0.74739993
-0.11644413 -0.12438649 0.74734718
-0.11305625 -0.11575394 0.74783337
-0.10738646 -0.11236162 0.74660003
-0.1111255 -0.10787395 0.74237508
-0.10529173 -0.10445878 0.74425536
-0.098885372 -0.10019511 0.74700004
-0.10259219 -0.096723936 0.74747825
-0.097326823 -0.094412945 0.7464546
-0.22229263 -0.081202127 0.74250007
-0.21477783 -0.084294982 0.74423808
-0.20491359 -0.084625125 0.74562269
-0.19662221 -0.082382895 0.74679166
-0.10049697 -0.089161091 0.74600005
-0.096286446 -0.08744213 0.74433351
-0.22210744 -0.077939615 0.74210006
-0.21568413 -0.078468584 0.74117655
-0.20439439 -0.078873269 0.74110013
-0.19442099 -0.075670682 0.74257451
-0.18580672 -0.073681638 0.7447691
-0.17746978 -0.070071086 0.74700004
-0.19204286 -0.068964861 0.74114293
-0.18463857 -0.068315417 0.74147618
-0.17483681 -0.064583004 0.74287748
-0.16616464 -0.062084563 0.74794728
-0.17247514 -0.057839226 0.74130011
-0.16456933 -0.055085916 0.74468756
-0.15540972 -0.054410163 0.74736017
-0.14919977 -0.051606987 0.74785721
-0.16388096 -0.044893958 0.7434231
-0.15511338 -0.045248218 0.74719602
-0.14935742 -0.048765168 0.74833339
-0.18218857 -0.030978477 0.74133343
-0.17406043 -0.032533463 0.74274176
-0.16512923 -0.035757627 0.74481946
-0.15761618 -0.03777726 0.74726671
-0.19194004 -0.024895143 0.74250001
-0.18517122 -0.024976911 0.74406999
-0.17606412 -0.027177591 0.7467714
-0.16809557 -0.029548049 0.74900001
-0.04191957 -0.23798782 0.75900006
-0.035470404 -0.2363158 0.75899994
-0.029110812 -0.23238747 0.75900006
-0.031878229 -0.22375251 0.759
-0.027725011 -0.22438107 0.75784862
-0.031805642 -0.21784869 0.75900006
-0.02683989 -0.21740055 0.75836831
-0.11289674 -0.19389358 0.75665003
-0.10649054 -0.19353309 0.75790906
-0.12401967 -0.18319173 0.75686365
-0.11467081 -0.18556176 0.75345308
-0.10719361 -0.18688001 0.75417393
-0.13289241 -0.17393892 0.75824994
-0.1250194 -0.17541678 0.75399995
-0.11867496 -0.17702588 0.75066668
-0.10936417 -0.17905916 0.75000006
-0.14128448 -0.16191156 0.75900006
-0.13467911 -0.1647301 0.75507504
-0.12687899 -0.16586669 0.75068969
-0.10284352 -0.16019855 0.75200003
-0.073320016 -0.16139154 0.75759995
-0.068313368 -0.16324235 0.759
-0.15354887 -0.1528499 0.75857884
-0.14426248 -0.15420736 0.75763416
-0.13506699 -0.15478465 0.75313038
-0.12884597 -0.15666869 0.7501539
-0.10335945 -0.15485822 0.75150019
-0.095404498 -0.15389426 0.75401866
-0.084992297 -0.15462127 0.75698018
-0.075722657 -0.15704739 0.75825727
-0.069865949 -0.1590282 0.75900006
-0.1541972 -0.14516173 0.75813651
-0.14496869 -0.1449669 0.75506115
-0.135616 -0.14475203 0.75156534
-0.11195571 -0.14189991 0.75185716
-0.10468496 -0.1444923 0.75390023
-0.095298983 -0.14478487 0.75675434
-0.088482946 -0.14694968 0.75888228
-0.16279963 -0.13372613 0.75889993
-0.15461007 -0.13456485 0.75626922
-0.1445853 -0.13516031 0.75266016
-0.13552207 -0.13473752 0.7507621
-0.12920113 -0.13295878 0.75028574
-0.11302645 -0.13519052 0.75376904
-0.10523123 -0.13533737 0.75769633
-0.095771804 -0.1365824 0.75900012
-0.16472036 -0.12524454 0.75734097
-0.15528283 -0.12505311 0.7542401
-0.14486724 -0.12508474 0.75219679
-0.1351752 -0.12528537 0.75266671
-0.12713335 -0.12471446 0.75138903
-0.11210749 -0.12646496 0.75572228
-0.10896485 -0.12636799 0.75866657
-0.17100523 -0.11178552 0.75900006
-0.16457888 -0.11483711 0.75682604
-0.15471619 -0.11493118 0.75348395
-0.14466996 -0.11618562 0.75547832
-0.13518782 -0.11541511 0.75506693
-0.12584698 -0.1185796 0.75647622
-0.11440025 -0.11722561 0.75242853
-0.10670114 -0.11690101 0.75652629
-0.21200459 -0.10267933 0.75842851
-0.20566255 -0.10316426 0.75894624
-0.19565359 -0.10226753 0.75899994
-0.18452767 -0.10304957 0.75900018
-0.17480755 -0.10415546 0.75854176
-0.16514631 -0.10498887 0.75890315
-0.15628348 -0.1067301 0.75841188
-0.14053456 -0.10575569 0.75871438
-0.13563669 -0.10497223 0.75886077
-0.21343893 -0.09466204 0.75537509
-0.20466399 -0.09471184 0.75467861
-0.19515455 -0.09490338 0.75820756
-0.18623528 -0.09581615 0.75900024
-0.17433839 -0.096433423 0.75893956
-0.16580755 -0.095544897 0.75891328
-0.1590282 -0.09914311 0.75900006
-0.14400008 -0.094560839 0.75811118
-0.1355648 -0.094862103 0.75712514
-0.1032275 -0.093834646 0.75000006
-0.2110575 -0.088762499 0.75000006
-0.201195 -0.088762499 0.75000006
-0.19431584 -0.08654733 0.7538718
-0.18550323 -0.084693082 0.75676364
-0.17661028 -0.081374243 0.75793332
-0.16302055 -0.086623915 0.75900006
-0.15575673 -0.082841054 0.759
-0.14366379 -0.087498322 0.75831032
-0.13564788 -0.086200051 0.75802588
-0.18391164 -0.077624038 0.75286949
-0.17500658 -0.074752077 0.7552678
-0.16560563 -0.072983071 0.7577858
-0.15681024 -0.07918141 0.75900006
-0.17263827 -0.068318464 0.75220001
-0.16444534 -0.066832669 0.7523948
-0.15508686 -0.065084547 0.75479978
-0.14559233 -0.064220041 0.75693172
-0.13707033 -0.060550489 0.75900006
-0.15287538 -0.059010193 0.75018191
-0.14480622 -0.055289354 0.75205374
-0.13523944 -0.054991852 0.75670922
-0.12847844 -0.054670844 0.75888228
-0.15159029 -0.04171472 0.75000006
-0.14481562 -0.044678185 0.75164521
-0.13576016 -0.045575403 0.75585467
-0.12918071 -0.048193246 0.75900012
-0.16233785 -0.031478904 0.75200003
-0.15440774 -0.034381125 0.75402129
-0.14531018 -0.036951203 0.75650001
-0.13825372 -0.037912454 0.75871426
-0.17201996 -0.025466872 0.7513333
-0.1647695 -0.026712015 0.755279
-0.15665293 -0.028643234 0.75788885
-0.070786446 -0.23123574 0.76900005
-0.064454064 -0.23332237 0.7681073
-0.055065226 -0.2348754 0.76598364
-0.044824336 -0.23404166 0.76396143
-0.0359817 -0.23301499 0.76133317
-0.071460605 -0.22988743 0.76900005
-0.063250877 -0.22749163 0.76871437
-0.055690769 -0.22741283 0.76724154
-0.047959454 -0.22851315 0.76620001
-0.036002658 -0.22531623 0.76132339
-0.1001881 -0.21046224 0.76700002
-0.094742142 -0.21152663 0.76793343
-0.088507138 -0.21235934 0.76900005
-0.033844121 -0.21485443 0.76228184
-0.025272761 -0.21245751 0.76368964
-0.1105126 -0.20160177 0.76400006
-0.10370409 -0.20440853 0.76554781
-0.095327541 -0.2058088 0.76674372
-0.087974153 -0.2082447 0.76750004
-0.033234555 -0.20500828 0.76513648
-0.025506789 -0.20549034 0.7666741
-0.11007865 -0.19947585 0.76100004
-0.10432964 -0.19743437 0.76154542
-0.099262632 -0.19830376 0.76333338
-0.042145617 -0.19252783 0.76684624
-0.035193309 -0.19525518 0.76693088
-0.025946373 -0.19732617 0.76712507
-0.05101119 -0.18292117 0.76900005
-0.044805296 -0.1847311 0.76719064
-0.038419247 -0.18722203 0.76884621
-0.14230682 -0.17194375 0.76209092
-0.13701326 -0.17529055 0.76155549
-0.060949374 -0.17079219 0.76400006
-0.053839453 -0.1742156 0.76571065
-0.047198106 -0.17591642 0.76757145
-0.1522319 -0.16254577 0.76722229
-0.14550307 -0.16509062 0.76320499
-0.13943295 -0.16812012 0.76100004
-0.06344571 -0.16364641 0.76228553
-0.055356592 -0.16529585 0.76465517
-0.04884436 -0.16809207 0.76850003
-0.1522326 -0.1575757 0.76162511
-0.14698674 -0.15799834 0.76125008
-0.082058623 -0.1508697 0.7610001
-0.073868319 -0.15265326 0.7616058
-0.065169252 -0.15514199 0.76524526
-0.058441542 -0.1573467 0.76750004
-0.17168114 -0.14095221 0.76200002
-0.16412497 -0.14399798 0.76374179
-0.15830594 -0.14379317 0.76112509
-0.090064347 -0.14076725 0.76100004
-0.08422792 -0.14439695 0.76138067
-0.075037219 -0.14493592 0.76503152
-0.066654235 -0.14628738 0.76757145
-0.18249375 -0.13300075 0.76647055
-0.17436764 -0.13415372 0.76385707
-0.16629094 -0.13672602 0.76133323
-0.10340721 -0.13059331 0.7610001
-0.093599744 -0.13284504 0.76102924
-0.084932432 -0.13509093 0.76287514
-0.076048404 -0.13542019 0.76717639
-0.069438137 -0.13955043 0.76900005
-0.19641903 -0.12078373 0.76862502
-0.18289827 -0.12399549 0.76805264
-0.17475563 -0.12489865 0.76315683
-0.16878726 -0.12075295 0.76100004
-0.11052341 -0.12253199 0.76099998
-0.10438568 -0.12466684 0.76099992
-0.094788931 -0.1247824 0.76284736
-0.085302807 -0.12532589 0.76683921
-0.078174315 -0.12844531 0.76800007
-0.20342289 -0.11387118 0.76455551
-0.19500151 -0.11493092 0.76559615
-0.18475996 -0.1145112 0.76434624
-0.1749454 -0.11519431 0.76234031
-0.16878726 -0.11808437 0.76100004
-0.15044083 -0.11141293 0.76100004
-0.14684282 -0.11176753 0.76160008
-0.13098247 -0.11185769 0.7610001
-0.12479369 -0.11401356 0.76230425
-0.11825417 -0.11332334 0.76300001
-0.10262758 -0.11452214 0.76306909
-0.095266797 -0.11513332 0.76459986
-0.087311603 -0.11563689 0.76796573
-0.2041105 -0.10730714 0.76126307
-0.19420294 -0.10665191 0.76141918
-0.18546586 -0.10703944 0.76099992
-0.17705984 -0.1084775 0.76100004
-0.1532578 -0.10378626 0.76190311
-0.14541747 -0.10490945 0.76199973
-0.13231677 -0.10496389 0.76099992
-0.12447243 -0.10460289 0.76353437
-0.11722054 -0.10456041 0.76523334
-0.10178028 -0.10700628 0.76661116
-0.094778448 -0.10552911 0.76675522
-0.088636488 -0.10723203 0.76754552
-0.18286975 -0.093439482 0.76210696
-0.17580736 -0.09198004 0.76249999
-0.16143677 -0.093033046 0.76200002
-0.15482505 -0.094977155 0.76276684
-0.14763339 -0.098348171 0.76200008
-0.13076137 -0.094618291 0.76130772
-0.12490806 -0.094914056 0.76496667
-0.11635526 -0.094831951 0.76720017
-0.18164393 -0.087952808 0.76120007
-0.17468891 -0.085875802 0.76320916
-0.16668311 -0.083747514 0.76244438
-0.15375414 -0.085989028 0.76109356
-0.14544785 -0.082819611 0.76118505
-0.13265745 -0.083342172 0.76104158
-0.12458787 -0.084983006 0.76496553
-0.11515359 -0.084706858 0.76765454
-0.10868695 -0.082439251 0.76766676
-0.17064083 -0.078980066 0.76133329
-0.16436045 -0.077479832 0.76188445
-0.15482542 -0.07494463 0.76158941
-0.14475872 -0.074951179 0.76159257
-0.13491969 -0.074805394 0.76189083
-0.12473599 -0.074883074 0.76420981
-0.11559547 -0.075055704 0.76845491
-0.1094381 -0.077078581 0.76900005
-0.14246677 -0.06710121 0.76130772
-0.1348232 -0.064940676 0.76190734
-0.12456722 -0.06496644 0.76396435
-0.11572589 -0.065434441 0.76717091
-0.12363972 -0.055011164 0.76332092
-0.11636971 -0.05510848 0.7675252
-0.10719091 -0.055955004 0.76900005
-0.13180129 -0.042358916 0.76138461
-0.12495446 -0.046515692 0.76306653
-0.11886022 -0.048349917 0.76600003
-0.15010725 -0.031355735 0.76100004
-0.14622843 -0.032949451 0.76264286
-0.13515159 -0.038196806 0.76170003
-0.069618732 -0.23318894 0.77100003
-0.083524317 -0.22146519 0.77224994
-0.074770883 -0.22422217 0.7732175
-0.066294663 -0.22485691 0.77182931
-0.058804169 -0.22372621 0.77100003
-0.091145717 -0.21752992 0.77300006
-0.084283598 -0.21566013 0.77246368
-0.075884983 -0.2165748 0.77329999
-0.067590997 -0.21933278 0.77100003
-0.018249569 -0.21020801 0.77100003
-0.083352588 -0.20939797 0.77300006
-0.02095321 -0.20480072 0.77100009
-0.018906035 -0.20488562 0.77272725
-0.030972341 -0.19126208 0.77366668
-0.025135612 -0.19522755 0.77486676
-0.019779352 -0.19779354 0.77800006
-0.041230511 -0.1818198 0.77100003
-0.035694491 -0.18489119 0.77457148
-0.04230313 -0.17410825 0.77362072
-0.038623851 -0.17814952 0.77637506
-0.051353734 -0.16164753 0.77280009
-0.046502072 -0.16577536 0.77573079
-0.060155991 -0.15207975 0.77100003
-0.05415706 -0.15467618 0.77343917
-0.049498063 -0.15757586 0.77700001
-0.062133826 -0.14331101 0.77221739
-0.056657661 -0.14579441 0.77497154
-0.1913683 -0.13172019 0.77316666
-0.18789133 -0.1318032 0.77214289
-0.071584918 -0.13166814 0.77180004
-0.065246433 -0.1352019 0.7741785
-0.058352981 -0.13873105 0.77700001
-0.19340473 -0.12577219 0.77251625
-0.18682586 -0.12594029 0.7723462
-0.080433287 -0.1223397 0.77100009
-0.074175552 -0.12413974 0.77289122
-0.067516625 -0.1260601 0.77593565
-0.082156159 -0.11434048 0.77291673
-0.075762354 -0.11630971 0.77548897
-0.068204664 -0.11799407 0.77800006
-0.094051078 -0.10081508 0.77180004
-0.085132897 -0.10537353 0.77547061
-0.079799458 -0.10912746 0.77800006
-0.093262732 -0.095393695 0.77464312
-0.085940517 -0.093717992 0.77699995
-0.079662703 -0.096004941 0.7766667
-0.093112998 -0.084698573 0.77630329
-0.087107144 -0.085972436 0.77575016
-0.11071406 -0.072592735 0.77100003
-0.10455889 -0.075035028 0.77283335
-0.096377626 -0.075544521 0.7753492
-0.11057888 -0.063670717 0.77099997
-0.10512187 -0.065441094 0.77309251
-0.09919396 -0.067264006 0.77500004
-0.11103359 -0.055977639 0.77099997
-0.10762496 -0.057686515 0.77211118
-0.042193089 -0.23586629 0.78900003
-0.025728364 -0.19273935 0.7844736
-0.032466229 -0.18357986 0.78268003
-0.027436383 -0.18559113 0.78686112
-0.040344201 -0.17095 0.78000003
-0.035257019 -0.17498484 0.78337514
-0.029281542 -0.17868657 0.78900003
-0.043023132 -0.1638571 0.78127295
-0.037454456 -0.16614152 0.78484011
-0.051968798 -0.1511198 0.78000003
-0.045095723 -0.15506014 0.78464282
-0.03942633 -0.15701362 0.78900003
-0.052221395 -0.14438018 0.78206909
-0.047260009 -0.14653563 0.78771991
-0.061200101 -0.13163149 0.78000003
-0.055623576 -0.13516662 0.78148812
-0.063240029 -0.12508316 0.78004348
-0.058189012 -0.12801918 0.78090012
-0.073481515 -0.11190102 0.78004545
-0.067214988 -0.11596101 0.78018188
-0.082266271 -0.10271337 0.78004992
-0.075733446 -0.10562692 0.78039414
-0.085133106 -0.096757688 0.78000003
-0.078247756 -0.09877988 0.78066665
-0.043242812 -0.23574372 0.7956
-0.10155571 -0.20287819 0.79800004
-0.098640777 -0.20287819 0.79800004
-0.11123252 -0.19114174 0.79400003
-0.10450073 -0.19463161 0.79660404
-0.098640777 -0.19938029 0.79800004
-0.021492999 -0.19522615 0.79327279
-0.01880976 -0.19575791 0.79466677
-0.11201145 -0.18469045 0.79409993
-0.10648278 -0.18540101 0.79663157
-0.022527702 -0.18474072 0.79361558
-0.11241409 -0.17923799 0.79400003
-0.10804496 -0.17933269 0.79720008
-0.031676073 -0.17241299 0.7924
-0.026310729 -0.17539443 0.79556113
-0.033099797 -0.16453761 0.7936843
-0.027772801 -0.16746883 0.7974546
-0.04132314 -0.15074869 0.79000002
-0.037200827 -0.15631546 0.79320002
-0.042526141 -0.14755304 0.7929092
-0.060508061 -0.23196828 0.80820006
-0.054113522 -0.23416668 0.80665517
-0.045202836 -0.2337023 0.80457145
-0.082086332 -0.22074309 0.80860007
-0.077305347 -0.22230209 0.80900002
-0.093216889 -0.2120637 0.8021667
-0.084524959 -0.21436881 0.80669373
-0.077423543 -0.21714054 0.80900002
-0.10262844 -0.20455556 0.80000001
-0.094656937 -0.20490609 0.80189133
-0.086056776 -0.20487925 0.80606967
-0.10099199 -0.19006133 0.80000001
-0.094842248 -0.19477876 0.80255783
-0.086879946 -0.19567004 0.80747366
-0.1018648 -0.18386082 0.80080003
-0.094982654 -0.18532759 0.80380023
-0.08732523 -0.18437642 0.80827993
-0.077305347 -0.18132477 0.80900002
-0.022676444 -0.18258043 0.80000001
-0.11038461 -0.17788093 0.80200005
-0.10442329 -0.1753647 0.80206674
-0.094941504 -0.17515095 0.80339235
-0.087042004 -0.17512454 0.80688572
-0.075414076 -0.17754224 0.80900002
-0.10194757 -0.16944389 0.80200005
-0.095604777 -0.16920553 0.80337507
-0.08984869 -0.16908532 0.80700004
-0.032261334 -0.16060533 0.80000001
-0.034860358 -0.15653001 0.80066663
-0.039976001 -0.14938399 0.80000001
-0.064359814 -0.23163575 0.81223077
-0.054160289 -0.23121808 0.81220001
-0.046146058 -0.23085956 0.81209087
-0.080340363 -0.2225357 0.81100005
-0.072321467 -0.22450024 0.81144458
-0.064747639 -0.22492863 0.81355304
-0.054956947 -0.22515759 0.81668645
-0.045159407 -0.22507031 0.81764305
-0.039431591 -0.22583337 0.81780005
-0.080340363 -0.21116006 0.81100005
-0.074276015 -0.21429177 0.81241202
-0.064955324 -0.2151005 0.81712013
-0.05548992 -0.21504036 0.81838489
-0.04653259 -0.2143371 0.81900012
-0.081106029 -0.20558164 0.81099993
-0.075188257 -0.20489267 0.8129071
-0.065263934 -0.20524061 0.81775016
-0.056381114 -0.20462717 0.81900018
-0.047489908 -0.20770426 0.81900012
-0.081904516 -0.1946654 0.81099999
-0.075145967 -0.19453293 0.81295556
-0.065079302 -0.1953098 0.8162002
-0.057481285 -0.19553308 0.81875014
-0.082499616 -0.18614425 0.81100017
-0.074447326 -0.18512662 0.81115413
-0.065667301 -0.1859884 0.81366664
-0.059447642 -0.18837024 0.81700003
-0.082236297 -0.17741236 0.81099993
-0.074652553 -0.17845514 0.81100005
-0.067542784 -0.1798771 0.81100005
-0.039585885 -0.22168094 0.82100004
-0.051101778 -0.21088479 0.82100004
-0.045021217 -0.21647044 0.82109088
-0.051625226 -0.20512687 0.82100004
-0.048942547 -0.20632643 0.82100004
