# .PCD v0.7 - Point Cloud Data file format
VERSION 0.7
FIELDS x y z
SIZE 4 4 4
TYPE F F F
COUNT 1 1 1
WIDTH 516
HEIGHT 1
VIEWPOINT 0 0 0 1 0 0 0
POINTS 516
DATA ascii
-0.27340585 -0.0010174593 0.82900012
-0.2744025 0.0053364695 0.82900035
-0.2687183 0.0076309447 0.82900006
-0.17051311 0.0050779455 0.8276667
-0.16645266 0.0067205639 0.82786977
-0.27296978 0.012064161 0.82900012
-0.26933601 0.012645567 0.82900012
-0.16470726 0.010883817 0.82766676
-0.1577062 0.012839367 0.82900006
-0.28464752 -0.021330176 0.83900005
-0.29061061 -0.01098025 0.83500004
-0.28472546 -0.015282628 0.83665961
-0.27533025 -0.014841745 0.83751172
-0.2675879 -0.013314909 0.83855551
-0.1669638 -0.01103285 0.83900005
-0.29238802 -0.0051350491 0.83688229
-0.28511548 -0.0051188148 0.83390462
-0.27508119 -0.0056642592 0.83251113
-0.2650747 -0.0050527388 0.83558202
-0.25584427 -0.0025390664 0.83818185
-0.24934241 -0.00073552335 0.83900005
-0.17119984 -0.00072850997 0.83100003
-0.16583802 -0.004388635 0.83374995
-0.29205412 0.0037759382 0.8362307
-0.28520977 0.0052207671 0.83299989
-0.2762174 0.0036425502 0.83100003
-0.26418233 0.0046808496 0.83237511
-0.2547814 0.0052947188 0.83609432
-0.2458345 0.0055726483 0.83878976
-0.17119984 0.00218553 0.83100003
-0.16397439 0.0039589969 0.83389652
-0.15828967 0.0082343351 0.83722228
-0.28388241 0.014069804 0.83258629
-0.27574268 0.016484862 0.83191431
-0.26470098 0.015410888 0.83208328
-0.25492331 0.015383524 0.83560717
-0.24470441 0.015418273 0.83759606
-0.23875305 0.018381322 0.83871442
-0.16255505 0.012391244 0.83149999
-0.15873629 0.01131163 0.83250004
-0.28129923 0.021750391 0.83633333
-0.27539381 0.023574958 0.83737028
-0.26478502 0.023836439 0.83650005
-0.25499472 0.024828397 0.83736384
-0.24500762 0.025125684 0.83768421
-0.2379007 0.024187494 0.83859998
-0.25287291 0.030450666 0.83900005
-0.24713583 0.030156456 0.83900005
-0.15274483 -0.061445277 0.84900004
-0.14824905 -0.062317371 0.84900004
-0.16002235 -0.05135601 0.84900004
-0.15420079 -0.055499408 0.84846175
-0.14790694 -0.056420889 0.84842861
-0.1649134 -0.042849839 0.84900004
-0.16564587 -0.03779339 0.84900004
-0.28362101 -0.023771871 0.84206682
-0.27504474 -0.024462551 0.84419996
-0.26480541 -0.022921275 0.84652942
-0.25588182 -0.022205546 0.8479566
-0.16230607 -0.023496509 0.84810007
-0.15839285 -0.021566218 0.84825003
-0.27352962 -0.019906471 0.84099996
-0.26401189 -0.015872154 0.84257579
-0.25489682 -0.014614831 0.84562236
-0.24741606 -0.013534623 0.84820002
-0.16364768 -0.014586555 0.84493107
-0.15802959 -0.014717218 0.84790009
-0.26025867 -0.0088473205 0.84100002
-0.25455296 -0.0072108852 0.84265518
-0.24518168 -0.0049482919 0.84403992
-0.237756 -0.0024411411 0.84714288
-0.16171338 -0.0062161344 0.84276474
-0.15854856 -0.0046094256 0.84750003
-0.24204487 0.0034409165 0.84133321
-0.23577777 0.0054388568 0.8455283
-0.22774009 0.0086269267 0.8484
-0.16146359 0.0022118299 0.84100002
-0.15776092 0.0036892439 0.84236848
-0.24108946 0.01105915 0.84100002
-0.23490645 0.015013096 0.84408313
-0.22546563 0.015030088 0.84751296
-0.21807696 0.018607249 0.84900004
-0.2737754 0.027524998 0.8409999
-0.26600942 0.028163966 0.84099996
-0.23302911 0.025118979 0.84276462
-0.22482145 0.02448442 0.84638792
-0.21654588 0.024731686 0.84900045
-0.27378979 0.030872473 0.84350008
-0.26438239 0.032821037 0.84231055
-0.25490862 0.034231611 0.84266663
-0.24508058 0.034536812 0.84555823
-0.23467161 0.032137636 0.84560883
-0.22535832 0.033286273 0.84746683
-0.21733269 0.030515891 0.84900004
-0.0413699 -0.095526852 0.85800004
-0.039865538 -0.094774678 0.85800004
-0.14160593 -0.081454895 0.85766667
-0.13715625 -0.08202479 0.85679996
-0.15194713 -0.072913364 0.85742855
-0.14618662 -0.076630555 0.85789198
-0.13772975 -0.074853897 0.85383338
-0.16303435 -0.063523255 0.8574999
-0.15565626 -0.065954141 0.85454851
-0.14399487 -0.065581873 0.85397696
-0.13465692 -0.064926609 0.85738456
-0.12907338 -0.06078456 0.85600007
-0.17241944 -0.052344963 0.85769218
-0.16508381 -0.054924179 0.85510534
-0.1553971 -0.052529149 0.85247058
-0.14518347 -0.055469148 0.85557139
-0.13313587 -0.05770294 0.85799986
-0.12547256 -0.05473322 0.85752368
-0.26100644 -0.0413699 0.85800004
-0.1735528 -0.04535196 0.85699999
-0.16445383 -0.045212109 0.85247213
-0.15685478 -0.04650639 0.85673082
-0.14968382 -0.048891701 0.85800004
-0.12441057 -0.048289955 0.85799998
-0.27239123 -0.03314583 0.85533333
-0.26481819 -0.03476765 0.8561821
-0.25843513 -0.033424754 0.85763627
-0.17245801 -0.036819857 0.85716659
-0.16426907 -0.034730103 0.85267568
-0.15900767 -0.034871671 0.85671425
-0.27255449 -0.028598329 0.85100001
-0.26491937 -0.028241463 0.85219997
-0.25516492 -0.026344178 0.85421747
-0.24789582 -0.02172024 0.85431248
-0.16735084 -0.026879083 0.85657692
-0.15638447 -0.024842873 0.85452002
-0.25141659 -0.018651083 0.85100001
-0.24264601 -0.016924381 0.85739064
-0.23642865 -0.012606982 0.8577646
-0.15499303 -0.015433775 0.85466665
-0.24173747 -0.0092212185 0.85283333
-0.23436612 -0.0059626065 0.85464299
-0.22853985 -0.0032945131 0.85646152
-0.20083205 -0.00601744 0.85800004
-0.19763531 -0.0066755963 0.85799986
-0.15634356 -0.0080723464 0.85422218
-0.23127343 0.00223813 0.85100001
-0.22534049 0.0050804024 0.85459465
-0.21634111 0.0087695885 0.85746658
-0.22109556 0.013640276 0.85275
-0.21485999 0.014794384 0.85472524
-0.20704301 0.016432654 0.85761899
-0.21155401 0.024375049 0.85242856
-0.20512597 0.024877355 0.85670859
-0.19932769 0.02783066 0.85800004
-0.24175026 0.038547032 0.85374999
-0.23551446 0.037623141 0.85359097
-0.22387393 0.037311967 0.85334784
-0.21514145 0.033897631 0.85410011
-0.2065419 0.032217171 0.85712492
-0.24400124 0.041292757 0.85640001
-0.23487625 0.04202687 0.85723072
-0.22551389 0.041965399 0.85618186
-0.061369102 -0.11486602 0.86900002
-0.055248946 -0.11264827 0.86847836
-0.046972327 -0.11081819 0.86699998
-0.053003311 -0.10580549 0.86826324
-0.045444664 -0.10429547 0.86391199
-0.039958466 -0.10027313 0.86000001
-0.14354539 -0.091513872 0.86492312
-0.13459687 -0.092939459 0.86617392
-0.12893294 -0.091182277 0.8682
-0.052087523 -0.093691126 0.86285728
-0.045614775 -0.095002562 0.86066681
-0.039958466 -0.091979861 0.86000001
-0.15219019 -0.083662927 0.86681819
-0.14543006 -0.085024901 0.86207157
-0.13651122 -0.087201841 0.86244464
-0.1292119 -0.088928193 0.86700004
-0.053083606 -0.084831469 0.86235726
-0.044979416 -0.085758232 0.86290705
-0.037876207 -0.088377818 0.86760008
-0.18474215 -0.071801849 0.86900002
-0.17497958 -0.071210101 0.86874998
-0.1646598 -0.07315772 0.86620849
-0.1558411 -0.075870432 0.86292851
-0.061925352 -0.073243864 0.86900014
-0.054689229 -0.075058475 0.86705017
-0.046525065 -0.076950736 0.8676669
-0.19148855 -0.061292149 0.86849999
-0.18484011 -0.065164022 0.86747378
-0.17475028 -0.065136984 0.86472994
-0.16658151 -0.066128097 0.86117649
-0.13769029 -0.064697348 0.86073697
-0.082276918 -0.060184043 0.86900002
-0.074743338 -0.061538398 0.8690002
-0.06409236 -0.064256519 0.8689459
-0.056627735 -0.067000777 0.86849999
-0.20271888 -0.051965076 0.86849999
-0.19430016 -0.054232195 0.86651623
-0.18468967 -0.055030715 0.8632381
-0.17610611 -0.056273416 0.86137938
-0.169635 -0.059560735 0.86000001
-0.14348976 -0.053096935 0.86073673
-0.13557565 -0.053923719 0.86011451
-0.12488785 -0.053914234 0.86012495
-0.11559695 -0.053354349 0.86012137
-0.1052432 -0.052278817 0.86200023
-0.094458677 -0.052317157 0.86263651
-0.08412113 -0.054383036 0.86737031
-0.076403514 -0.055613119 0.8689999
-0.06780228 -0.058279485 0.86900002
-0.26010701 -0.041466333 0.86000001
-0.25490421 -0.041878525 0.86563629
-0.24825884 -0.041884795 0.86866665
-0.23997435 -0.041900285 0.86900002
-0.22092876 -0.040376637 0.86900002
-0.21360366 -0.041959785 0.86825007
-0.20488182 -0.044631075 0.86572522
-0.19504161 -0.044484634 0.86338639
-0.18510115 -0.04486116 0.86226076
-0.17816217 -0.045256339 0.86040002
-0.1530477 -0.043160826 0.86136019
-0.14511634 -0.044591486 0.86214268
-0.13514437 -0.044628087 0.861
-0.12497662 -0.043947913 0.86140001
-0.11523437 -0.0448872 0.86195463
-0.10526203 -0.044925041 0.86411101
-0.095155068 -0.044881448 0.86584109
-0.085601963 -0.046952855 0.86813051
-0.079229623 -0.048756696 0.86900002
-0.26010701 -0.039958466 0.86000001
-0.25400189 -0.035097681 0.8617028
-0.24515253 -0.034870494 0.86731434
-0.23560315 -0.03464197 0.8688401
-0.22530411 -0.034711242 0.86815155
-0.21574032 -0.034969758 0.86660028
-0.2055358 -0.034794491 0.86497241
-0.19531494 -0.035068769 0.86739022
-0.18440305 -0.034925308 0.86254048
-0.17641236 -0.034475211 0.86118519
-0.15427642 -0.035162441 0.86232436
-0.14505918 -0.034685336 0.86264861
-0.13515261 -0.034983091 0.86219054
-0.12551111 -0.034850184 0.86422235
-0.11480738 -0.034973741 0.86728585
-0.10559937 -0.035722807 0.86831039
-0.097484678 -0.038079992 0.86875004
-0.25195384 -0.028380683 0.86100006
-0.24430831 -0.025603119 0.86210263
-0.23520842 -0.024868069 0.86644423
-0.22502525 -0.02484175 0.86724329
-0.21536505 -0.025004664 0.86768764
-0.20479999 -0.025076838 0.86676204
-0.19480163 -0.024881119 0.86546803
-0.18477495 -0.024989512 0.86380947
-0.17519584 -0.024853649 0.86365211
-0.15229489 -0.02545917 0.86120003
-0.14451823 -0.024968328 0.86310178
-0.13472609 -0.025363652 0.86439496
-0.12528545 -0.025041189 0.86566669
-0.11577448 -0.026234882 0.8688333
-0.10894074 -0.028949287 0.86900002
-0.23416966 -0.016339829 0.86196566
-0.22518767 -0.015200865 0.86683345
-0.21531376 -0.01541589 0.86676943
-0.20503056 -0.015154208 0.86405557
-0.1946979 -0.014995662 0.8629545
-0.18439789 -0.015171524 0.86541694
-0.17513417 -0.015329334 0.86507159
-0.1519957 -0.014909054 0.86168438
-0.14498077 -0.015046457 0.86434299
-0.13529249 -0.0152014 0.86700022
-0.12631761 -0.01574978 0.867706
-0.22477524 -0.0057845926 0.86455286
-0.21550037 -0.0054195956 0.86517084
-0.20555915 -0.0051396186 0.86180484
-0.19372524 -0.0050311149 0.86177152
-0.18494157 -0.0051107006 0.86430442
-0.17798944 -0.0062949052 0.86607152
-0.15353581 -0.0050174827 0.86300009
-0.14496601 -0.0053067347 0.86535728
-0.13550545 -0.0074913874 0.86800009
-0.12864821 -0.0098961052 0.86833334
-0.22237892 0.0023902317 0.86183339
-0.21456924 0.0041751512 0.86217642
-0.20498593 0.0052918117 0.86281615
-0.19459467 0.0053288275 0.8628509
-0.18489666 0.005265398 0.86374992
-0.17896186 0.0065706172 0.86500001
-0.15463978 0.0053262534 0.86739421
-0.14621541 0.0033697817 0.86771446
-0.20348142 0.0136699 0.86056006
-0.19515912 0.015173259 0.86225635
-0.18513538 0.015213246 0.86248767
-0.17554869 0.015700057 0.86616147
-0.1698866 0.017521936 0.86900002
-0.1566091 0.012080342 0.86900002
-0.2013002 0.020356201 0.86000001
-0.19531484 0.024835786 0.86062509
-0.18508027 0.024930676 0.86171412
-0.1756447 0.024812277 0.86564106
-0.16893433 0.023426069 0.86900002
-0.21426867 0.037853666 0.86199993
-0.20434347 0.035698656 0.8623929
-0.19509891 0.034435395 0.86402875
-0.1853013 0.033248495 0.86613041
-0.17780729 0.032213993 0.86800003
-0.1668393 0.031234756 0.86900002
-0.23150751 0.044637237 0.86300004
-0.22334206 0.042851813 0.86360008
-0.21520333 0.04099432 0.86591673
-0.20506278 0.041036699 0.86807698
-0.19735257 0.040687852 0.86750007
-0.073770814 -0.11311356 0.87773931
-0.065948121 -0.1135219 0.87300009
-0.1240656 -0.10091442 0.87470007
-0.11370678 -0.10327778 0.87682158
-0.10590207 -0.1082112 0.87750006
-0.071070202 -0.10750329 0.87800008
-0.064461373 -0.1074312 0.87533337
-0.057526767 -0.10663745 0.87233341
-0.13191466 -0.097674869 0.87180007
-0.12513822 -0.096173093 0.87279326
-0.11490142 -0.097606629 0.87594748
-0.10716943 -0.097652853 0.87570012
-0.18138321 -0.080359653 0.87300003
-0.17518477 -0.081759892 0.87433338
-0.16500899 -0.084016174 0.87468749
-0.15666609 -0.08563444 0.87247831
-0.040469564 -0.080939129 0.87100005
-0.037588768 -0.084678993 0.87507701
-0.18246019 -0.073942013 0.87175012
-0.17554228 -0.07611087 0.87293535
-0.16659941 -0.077635609 0.87209105
-0.066546455 -0.071517594 0.87250006
-0.044072919 -0.073602125 0.87328583
-0.039255381 -0.079280473 0.87800002
-0.21090145 -0.063116491 0.87800002
-0.20493394 -0.064169019 0.87486666
-0.19615607 -0.0652899 0.87337822
-0.18860343 -0.069485478 0.87100005
-0.071094155 -0.065743864 0.87200004
-0.067032717 -0.066522792 0.87216681
-0.054355666 -0.064502448 0.87447631
-0.048324201 -0.069035746 0.87500006
-0.25236207 -0.051541425 0.87100005
-0.24449533 -0.05287927 0.87308699
-0.23650424 -0.053614747 0.87620008
-0.22347343 -0.050544512 0.87800002
-0.21405277 -0.054178871 0.87600017
-0.2057697 -0.055912931 0.87278569
-0.19846874 -0.057906114 0.87140006
-0.072847418 -0.052846972 0.87136382
-0.065049522 -0.054556187 0.87405121
-0.058832441 -0.058062728 0.87725002
-0.25406006 -0.047066253 0.87110549
-0.24483247 -0.045621857 0.87165004
-0.23521961 -0.045213439 0.87204534
-0.22558928 -0.044422146 0.8735525
-0.21585074 -0.046662569 0.87254548
-0.20998359 -0.049632482 0.87100005
-0.091629192 -0.040469564 0.87100005
-0.083950557 -0.042523485 0.87230444
-0.075225122 -0.045937683 0.87511766
-0.068386137 -0.049176179 0.87650001
-0.24510811 -0.038942412 0.87100005
-0.23558588 -0.035708439 0.87100023
-0.22593658 -0.038463164 0.87166673
-0.10201427 -0.032708038 0.87136382
-0.093987532 -0.034084857 0.87411433
-0.085580103 -0.03683443 0.87667865
-0.23289087 -0.027488761 0.87100005
-0.22983657 -0.024434453 0.87100005
-0.11320511 -0.022147365 0.87115407
-0.10502707 -0.025294775 0.87451094
-0.096411072 -0.028240297 0.87700009
-0.12200132 -0.012998814 0.87227285
-0.11559431 -0.015587377 0.87474364
-0.10687785 -0.018453922 0.87710011
-0.13454196 -0.0025707053 0.87199998
-0.12474005 -0.0051668114 0.87412757
-0.11853585 -0.0084668463 0.87800002
-0.15195176 0.0095447078 0.87100005
-0.1433789 0.0076513998 0.87266666
-0.13560525 0.0044559082 0.87418914
-0.12625107 0.0021082738 0.87412506
-0.16441683 0.016711058 0.87160879
-0.15476453 0.01592169 0.87185717
-0.14574157 0.014553261 0.87364501
-0.13765004 0.01150077 0.87475008
-0.17104119 0.028252335 0.87100011
-0.1650074 0.024864122 0.87188244
-0.15737456 0.022782724 0.87389487
-0.19297054 0.039054189 0.87349999
-0.18397006 0.036244381 0.87220001
-0.17467076 0.03360974 0.87344456
-0.16894418 0.032107916 0.87200004
-0.10106213 -0.11031973 0.88000005
-0.095106058 -0.11057045 0.88200003
-0.083847977 -0.11201537 0.8820715
-0.07860519 -0.11189849 0.88028574
-0.10428056 -0.10410646 0.88265705
-0.094871998 -0.10478612 0.88366657
-0.085132614 -0.1053389 0.88257146
-0.07614468 -0.10579704 0.88087988
-0.10349313 -0.099632293 0.88100004
-0.093102001 -0.098532952 0.88500005
-0.036022056 -0.081787564 0.88180006
-0.041916411 -0.072235756 0.88220006
-0.038040049 -0.076850899 0.88553852
-0.23362015 -0.061707363 0.88537502
-0.22363621 -0.062624484 0.88677788
-0.21629195 -0.062893204 0.88058829
-0.051809859 -0.062636167 0.88210011
-0.046087459 -0.065077879 0.88507998
-0.23416324 -0.056778491 0.88233316
-0.22548725 -0.055300839 0.88325638
-0.21771394 -0.057042632 0.8803637
-0.061366227 -0.051331025 0.88050008
-0.055482715 -0.055574231 0.88505703
-0.048543081 -0.058926318 0.88833338
-0.2268112 -0.048602398 0.88000005
-0.072286643 -0.04264991 0.88191676
-0.065393865 -0.045901079 0.88511992
-0.059097853 -0.048989009 0.88700002
-0.084214352 -0.031735949 0.88300002
-0.076377682 -0.036490791 0.88441378
-0.069362745 -0.03974719 0.88900006
-0.10106213 -0.021601066 0.88000005
-0.094816931 -0.023803426 0.88366663
-0.086759716 -0.027443778 0.8866924
-0.11279735 -0.011159489 0.88072735
-0.10437586 -0.013981294 0.88229722
-0.097471304 -0.01703375 0.88573343
-0.11564197 -0.0059748339 0.88252008
-0.10764919 -0.0075645372 0.88500011
-0.14130288 0.014209013 0.88400006
-0.038161673 -0.07240428 0.89357144
-0.23094469 -0.063413687 0.89300007
-0.2288547 -0.063754879 0.89340001
-0.041889343 -0.064090058 0.89519054
-0.037567057 -0.066240259 0.8970769
-0.052404325 -0.052403279 0.89219999
-0.046817828 -0.055168558 0.89554554
-0.062782131 -0.042742934 0.89299995
-0.055759802 -0.045737755 0.89586216
-0.048205487 -0.048205048 0.89775014
-0.073482305 -0.033043906 0.89277774
-0.06561555 -0.035552949 0.89564294
-0.058413703 -0.037315492 0.89800006
-0.091389872 -0.021089969 0.89100003
-0.084503628 -0.023914041 0.8939656
-0.075762101 -0.026065385 0.89541382
-0.069908909 -0.026706774 0.89600003
-0.092124827 -0.017855547 0.8926363
-0.08552409 -0.018581016 0.89753848
-0.079334825 -0.019637333 0.89600003
-0.10466743 -0.10070401 0.90450001
-0.13220219 -0.091942176 0.903
-0.12485782 -0.094031945 0.90418518
-0.11578679 -0.095259063 0.90553582
-0.1078129 -0.098276526 0.90650004
-0.14113106 -0.083092973 0.9051429
-0.13439482 -0.085255601 0.90324998
-0.12550426 -0.086083829 0.9062705
-0.11860599 -0.089949504 0.90800005
-0.14085375 -0.076369643 0.90433341
-0.13495496 -0.075244226 0.90490246
-0.12874068 -0.074702956 0.9065001
-0.1335661 -0.066946447 0.90594125
-0.12869871 -0.06593743 0.90620005
-0.035745502 -0.063501939 0.90166664
-0.042140737 -0.054060146 0.90376192
-0.037759043 -0.056297041 0.90453845
-0.053072378 -0.042274762 0.90133333
-0.046352345 -0.045830324 0.90233332
-0.061795354 -0.03176742 0.90139997
-0.055662349 -0.036412667 0.90118182
-0.066752024 -0.028574701 0.9018572
-0.10160339 -0.10096482 0.91260004
-0.098235756 -0.1009131 0.91600007
-0.085910961 -0.10244456 0.91870004
-0.072721727 -0.10577031 0.91776937
-0.064104266 -0.10503253 0.91553342
-0.057534758 -0.10443607 0.91406667
-0.11327814 -0.091788881 0.91046149
-0.10448642 -0.094490729 0.91326821
-0.095274821 -0.095517218 0.91869998
-0.086111456 -0.098987937 0.91800004
-0.12292225 -0.08208172 0.91049999
-0.11516738 -0.084775008 0.91230553
-0.10526653 -0.084986992 0.91563416
-0.098528065 -0.08473184 0.9180001
-0.12382803 -0.075096413 0.91129994
-0.11532518 -0.075283475 0.91355568
-0.10568409 -0.075148895 0.91669232
-0.098987937 -0.070820644 0.91800004
-0.12390955 -0.06555073 0.9119001
-0.1151595 -0.064949259 0.91299981
-0.10515549 -0.064713165 0.91417044
-0.095747828 -0.063969456 0.91617864
-0.11205553 -0.058428958 0.91300005
-0.10485196 -0.058428951 0.91300005
-0.094549373 -0.058492951 0.91400003
-0.092213638 -0.10189205 0.92000002
-0.074912719 -0.10261952 0.92000002
-0.066709809 -0.10140914 0.92050004
-0.084963925 -0.094421178 0.92150009
-0.074592412 -0.095139608 0.92345238
-0.064812578 -0.094783768 0.92411894
-0.058972925 -0.098556183 0.92150003
-0.093736321 -0.08524324 0.92088896
-0.08494208 -0.084942065 0.92279607
-0.074796706 -0.084658653 0.92528915
-0.06646508 -0.085168809 0.92604345
-0.095095754 -0.075124629 0.92085725
-0.084991172 -0.074470028 0.92333347
-0.076062389 -0.075642511 0.92604345
-0.091944799 -0.068555333 0.92000002
-0.086236723 -0.067214385 0.92241186
-0.077848002 -0.068927914 0.92500007
