# .PCD v0.7 - Point Cloud Data file format
VERSION 0.7
FIELDS x y z
SIZE 4 4 4
TYPE F F F
COUNT 1 1 1
WIDTH 704
HEIGHT 1
VIEWPOINT 0 0 0 1 0 0 0
POINTS 704
DATA ascii
0.069258422 -0.030081939 0.79800004
0.071317881 -0.031123068 0.79600006
0.067230731 -0.023790417 0.79720014
0.072680168 -0.024208562 0.79513341
0.066439323 -0.015889246 0.79584628
0.071876153 -0.016801519 0.79600012
-0.060283981 -0.10000049 0.80900002
-0.052908063 -0.080425926 0.80900002
-0.046666898 -0.083262816 0.80900002
-0.061206676 -0.074574083 0.80250001
-0.056332007 -0.076022275 0.80403858
0.058239948 -0.051439118 0.80820006
0.062597215 -0.052519251 0.8083334
0.05612658 -0.043961558 0.80667436
0.063523211 -0.044839442 0.80635726
0.047412023 -0.032214034 0.80342126
0.055373229 -0.034712497 0.80423099
0.064723827 -0.034075249 0.80526322
0.071513496 -0.034224194 0.80766672
0.028262857 -0.020491207 0.80600005
0.035593439 -0.022652015 0.80240005
0.045113344 -0.024546687 0.80245477
0.0555632 -0.024740994 0.80354184
0.062903292 -0.025111031 0.80191994
0.027573375 -0.014843762 0.80652392
0.034483947 -0.014775945 0.80281657
0.044338848 -0.015263777 0.80331922
0.053995568 -0.017265422 0.80720007
0.061589342 -0.017823728 0.80525005
0.028368933 -0.0092199035 0.80900002
0.034844991 -0.008346159 0.80686677
0.041766591 -0.0088481968 0.8075
-0.055060849 -0.10445659 0.8157649
-0.048583984 -0.10506586 0.81900012
-0.051488291 -0.096526563 0.81700009
-0.044886373 -0.091654614 0.81736374
-0.062117625 -0.081915207 0.81819999
-0.05456825 -0.084276065 0.81569248
-0.046591435 -0.085804388 0.81260002
-0.06129653 -0.079113036 0.81300008
-0.051190317 -0.078207433 0.81100005
-0.044179838 -0.07519038 0.81787515
-0.038895771 -0.072195075 0.81860006
-0.041958034 -0.065486841 0.81770605
-0.037019875 -0.064319484 0.81453854
0.058371536 -0.061239108 0.81700003
0.061642818 -0.062052101 0.81357145
-0.041387431 -0.057893604 0.8186667
-0.035131097 -0.055204805 0.81784457
-0.02943759 -0.05097729 0.81900007
0.055375725 -0.054878611 0.81294131
0.065306097 -0.05546182 0.81147993
0.070560269 -0.050603829 0.81300002
-0.032763019 -0.046820506 0.81900018
-0.027917013 -0.044566143 0.81860018
0.051834136 -0.04742258 0.81220007
0.067955986 -0.044527825 0.8114
0.07269305 -0.044134948 0.81415784
-0.02491161 -0.038135625 0.81857157
0.068547443 -0.037476331 0.81166673
0.074567258 -0.037996482 0.81557149
0.019385729 -0.020821709 0.81900007
0.022844616 -0.020707306 0.81450003
0.019385727 -0.015077791 0.81900012
0.022839982 -0.014989933 0.81435728
0.048050538 -0.011033288 0.81200004
0.055456519 -0.013108112 0.81326085
0.061182737 -0.014687498 0.81340009
0.025832385 -0.0072089173 0.81420004
0.033361871 -0.0053745243 0.81281817
0.045465752 -0.0076393406 0.81515402
0.052649967 -0.0090375571 0.81819999
-0.052541263 -0.10580227 0.82100004
-0.044759739 -0.10330468 0.82403219
-0.036930516 -0.10268442 0.82794124
-0.028551156 -0.10205739 0.82900006
-0.054443628 -0.09193252 0.82250005
-0.045693506 -0.096441202 0.82299995
-0.038121577 -0.097232237 0.82530761
-0.061897926 -0.084209971 0.82100004
-0.055950444 -0.087957904 0.82240009
-0.052747939 -0.073370636 0.825625
-0.047285751 -0.073994137 0.82268012
-0.05232925 -0.064420812 0.82774079
-0.046616938 -0.06506598 0.82366669
-0.031250536 -0.061774317 0.82900006
-0.024330787 -0.061556246 0.82850021
-0.018399626 -0.064159878 0.82850003
0.056025635 -0.063059509 0.82542855
0.06167379 -0.066028483 0.8276667
-0.051008847 -0.057179268 0.82825005
-0.045279831 -0.054671172 0.82483321
-0.035286274 -0.055456616 0.82150006
-0.026431775 -0.055800714 0.82582766
0.049813516 -0.053426258 0.82350004
0.051691867 -0.056504581 0.82277787
-0.043229226 -0.046518959 0.82681829
-0.03687745 -0.044419996 0.82259977
-0.027350247 -0.049662288 0.82100004
0.049662288 -0.049662288 0.82100004
-0.041425131 -0.039971616 0.82900006
-0.034623347 -0.037266225 0.82686222
-0.025623932 -0.033889934 0.82366675
-0.016114142 -0.033548959 0.82596296
-0.0094250431 -0.031175144 0.82700002
-0.023365537 -0.027353227 0.82770002
-0.015148682 -0.025658125 0.82808691
-0.005696442 -0.024469519 0.82868445
0.0040490725 -0.022321811 0.82900017
0.01514858 -0.021289632 0.82325006
-0.017442159 -0.01962243 0.82900006
-0.0035482824 -0.017997917 0.82900023
0.0054441397 -0.015679702 0.82836348
0.014445586 -0.015175684 0.82428563
0.0087210797 -0.0094478363 0.82900006
0.015883408 -0.0075816037 0.82552171
0.024741692 -0.0042854389 0.82499999
0.036142338 -0.0023254275 0.82721061
0.045370482 -0.0043839756 0.82500005
0.053570647 -0.0069268942 0.82359999
-0.034119338 -0.12206795 0.83880013
-0.02647884 -0.12136135 0.83900005
-0.041096002 -0.11200256 0.8350001
-0.034247506 -0.11488078 0.83576602
-0.02519425 -0.114913 0.83705151
-0.015939714 -0.11292983 0.83625907
-0.0053460891 -0.11210059 0.83630008
0.0054880879 -0.11233892 0.83817643
0.012480665 -0.11123234 0.83750004
-0.041184921 -0.10824905 0.83150005
-0.034302175 -0.1065328 0.83256531
-0.024678295 -0.10541593 0.83288574
-0.01553246 -0.10514789 0.83477271
-0.0051166532 -0.10599187 0.83379996
0.005137892 -0.10635335 0.83665717
0.01186919 -0.10808461 0.83871442
-0.063297205 -0.090797238 0.83814293
-0.059293348 -0.091502085 0.83500004
-0.063841939 -0.08823628 0.83700013
-0.05900931 -0.089606732 0.83100003
-0.031921715 -0.081348881 0.83900005
-0.024978863 -0.083016247 0.838
-0.016789854 -0.082148463 0.83838463
-0.057618566 -0.072673567 0.83399999
-0.043188982 -0.078325786 0.83500004
-0.033844303 -0.075302646 0.8361665
-0.025086571 -0.075128555 0.8338182
-0.015996097 -0.075470135 0.83535016
-0.00882628 -0.077965468 0.83900005
0.056392115 -0.073211059 0.83759993
0.061431013 -0.072281688 0.83619994
-0.061048437 -0.069874719 0.83900005
-0.05785311 -0.065170102 0.83528572
-0.032632161 -0.0667817 0.83284634
-0.026041755 -0.066373572 0.83142418
-0.018504154 -0.068625644 0.83100003
0.047999602 -0.06312158 0.83720005
0.053690977 -0.066524625 0.83446681
0.062073547 -0.068645336 0.833
-0.05471484 -0.054707941 0.83487511
-0.048810169 -0.05026719 0.83100003
0.048254363 -0.059222341 0.83400005
0.05026719 -0.05900931 0.83100003
-0.051999163 -0.047323979 0.83754545
-0.046929315 -0.043267962 0.83400005
-0.042746354 -0.036167674 0.83340007
-0.036241885 -0.032346766 0.83233339
-0.03418608 -0.027172435 0.83578259
-0.02663482 -0.024335457 0.83146155
-0.01675573 -0.021612464 0.83100003
0.0058280798 -0.02112679 0.83100003
-0.022583811 -0.019669769 0.83100003
-0.013656755 -0.017270457 0.83252388
-0.0058180406 -0.013960917 0.83267742
0.0018941259 -0.011510459 0.83100003
-0.0032671774 -0.0085989051 0.83645445
0.0052610952 -0.0064475536 0.83531249
0.014713493 -0.0032567373 0.83527279
0.024765154 -0.0018668129 0.83366662
0.045188803 -0.0013415924 0.83583337
0.055072661 -0.0045250962 0.83629411
0.061783962 -0.00882628 0.83900005
0.028579334 0.0011006549 0.83600003
0.034420852 0.001466371 0.83533335
0.042873383 0.00073493895 0.83833337
-0.03103926 -0.13080831 0.84300005
-0.024371203 -0.13332342 0.84453845
-0.018011818 -0.13293019 0.8490001
-0.031359684 -0.12605225 0.8416667
-0.02460693 -0.12564528 0.84252638
-0.017549653 -0.12481938 0.84515381
-0.042203173 -0.11586201 0.84450006
-0.021381022 -0.11870154 0.84100002
-0.015520108 -0.11780048 0.84318197
-0.0016223593 -0.1158082 0.84140003
0.0027502626 -0.11545071 0.84172726
-0.081127606 -0.10047915 0.84900004
-0.075437345 -0.10087838 0.84860003
-0.066348977 -0.10129116 0.84800005
-0.036470208 -0.10047915 0.84900004
-0.022576796 -0.10147154 0.84900004
-0.015267502 -0.10123764 0.84540004
0.0091006765 -0.10207 0.8416667
0.015499631 -0.10394756 0.84191889
0.024895236 -0.10294738 0.8448261
0.031577535 -0.10067289 0.84750009
-0.081127606 -0.094524823 0.84900004
-0.075045615 -0.094847023 0.84630239
-0.065370098 -0.095397733 0.84306902
-0.059790418 -0.094484508 0.84200001
-0.041928336 -0.091051482 0.84900004
-0.034835741 -0.093034953 0.84841686
-0.024191666 -0.094710805 0.8479718
-0.016424738 -0.093363918 0.84744453
-0.0064826994 -0.091304205 0.84871429
0.016306741 -0.097099192 0.84553874
0.024750428 -0.095324554 0.8457619
0.034431685 -0.094667047 0.84605259
0.041711275 -0.092179924 0.84660006
-0.081127606 -0.086337641 0.84900004
-0.075003102 -0.085411243 0.84626096
-0.067705847 -0.086706057 0.84175009
-0.042785496 -0.084224939 0.84391683
-0.035083331 -0.085435286 0.84334981
-0.02509468 -0.087829821 0.84188873
-0.014706826 -0.086311206 0.84275746
-0.0053694691 -0.084763639 0.84356505
0.0016277947 -0.083465502 0.84400004
0.028620975 -0.088465311 0.84800005
0.035572372 -0.085987061 0.84630001
0.045078997 -0.085069977 0.8447082
0.053012673 -0.082606122 0.84380013
-0.07431405 -0.075894125 0.84875005
-0.065687478 -0.072307236 0.84478951
-0.041075047 -0.07845962 0.8416667
-0.038338386 -0.078888603 0.84100002
-0.0034100143 -0.077149287 0.84112489
0.00073990668 -0.07842923 0.84400004
0.038084332 -0.076224118 0.84740007
0.045130216 -0.07472948 0.84397966
0.053546011 -0.076631181 0.84129989
-0.071079701 -0.068102539 0.84900004
-0.065110914 -0.064981967 0.84570283
0.046272513 -0.06769152 0.84233338
-0.063597456 -0.05517621 0.84677786
-0.059034951 -0.053867877 0.84175003
-0.062609732 -0.047819532 0.8484118
-0.055293858 -0.044810954 0.84438473
-0.051794343 -0.039215051 0.84400004
-0.049397536 -0.039075661 0.84100002
0.065752134 -0.012243026 0.84271443
0.071528986 -0.011488717 0.84550005
0.0063623204 -0.0022160378 0.84340012
0.015131705 -0.00073815335 0.84200001
0.022855578 -0.00073727668 0.84100002
0.057308581 -0.0023364627 0.84166664
0.064841338 -0.0052565634 0.84435141
0.071390092 -0.0081664007 0.84700006
0.01689093 0.001402764 0.84588885
0.024670346 0.0037095668 0.84522235
0.035120644 0.0057183714 0.84471434
0.045094896 0.0051907827 0.84453493
0.054330856 0.0032356363 0.84524
0.061392438 0.0013386699 0.84780008
-0.02014317 -0.13577989 0.85100001
-0.01400442 -0.1316634 0.85212499
-0.0082354061 -0.13101783 0.85400003
-0.045169175 -0.12147697 0.8571111
-0.039772615 -0.12081869 0.85600007
-0.012703777 -0.12747404 0.85255551
-0.00749024 -0.12807252 0.8543334
-0.10254721 -0.11082119 0.85799998
-0.094667412 -0.11120739 0.85763627
-0.085530877 -0.11158774 0.85733324
-0.072209284 -0.11132264 0.85800004
-0.06625469 -0.11277929 0.85594118
-0.054407828 -0.11698005 0.85899985
-0.046474542 -0.11639601 0.85426319
-0.11057046 -0.10079212 0.85800004
-0.1038192 -0.10407601 0.85800004
-0.094734661 -0.10451296 0.85678065
-0.085168459 -0.10500397 0.85402715
-0.074083284 -0.10517417 0.85444993
-0.065122388 -0.10543688 0.85261285
-0.059422221 -0.10079212 0.85800004
-0.032563455 -0.10199064 0.85387504
-0.026133724 -0.10129211 0.85166663
-0.013973773 -0.1013605 0.85433334
-0.11057046 -0.097783402 0.85800004
-0.10367952 -0.095623903 0.85799986
-0.094557308 -0.094798923 0.85691893
-0.085818835 -0.094773702 0.85122842
-0.06078456 -0.099056318 0.85600007
-0.059422221 -0.098535582 0.85800004
-0.041032381 -0.094001457 0.85100001
-0.03517352 -0.097560734 0.85166663
-0.02735492 -0.098726399 0.85100001
-0.013739583 -0.097217724 0.85336846
-0.0054666335 -0.095262699 0.85459262
0.0019535639 -0.091445096 0.85640001
0.016898979 -0.092851624 0.85280001
0.022595096 -0.090950772 0.85212493
-0.10104284 -0.088506512 0.85799998
-0.093895316 -0.08573138 0.85549998
-0.085755259 -0.084512338 0.85185719
0.0025546066 -0.088741466 0.85640013
0.018716833 -0.089092128 0.85400003
0.025668902 -0.085814841 0.85350001
0.031848744 -0.082371525 0.85209084
-0.091013782 -0.078978896 0.85800004
-0.084530443 -0.079036467 0.85322219
-0.078334555 -0.077588506 0.85100001
0.033972587 -0.078403585 0.85175002
-0.073144816 -0.064548664 0.85224998
-0.069382027 -0.061921597 0.85100001
-0.072904684 -0.056409627 0.85523534
-0.068697132 -0.055256519 0.85174996
0.076545276 -0.012008579 0.85600007
0.0082064765 -0.00074604334 0.85100001
0.068858877 -0.0014958124 0.85374999
0.074158281 -0.0060478314 0.8556
0.0097555462 0.00075042667 0.85600007
0.015825355 0.0050941249 0.85542107
0.023928812 0.0083946688 0.85311109
0.034504503 0.0095120519 0.85099995
0.048492815 0.0096985633 0.85100001
0.056128379 0.0081446972 0.85358822
0.064977996 0.0039841803 0.85569227
0.026749255 0.012538895 0.8567692
0.035338644 0.013628027 0.85513806
0.044959847 0.013492997 0.8547501
0.052473761 0.012758872 0.85600001
-0.13027179 -0.13027179 0.86900002
-0.12417721 -0.1306527 0.86900002
-0.1112262 -0.13027179 0.86900002
-0.10894074 -0.13027179 0.86900002
-0.09446609 -0.13027179 0.86900002
-0.08913333 -0.13027179 0.86900002
-0.072808541 -0.13092479 0.86900002
-0.065669172 -0.13103361 0.86900008
-0.054851279 -0.13027179 0.86900002
-0.044947576 -0.13027179 0.86900002
-0.037329342 -0.13027179 0.86900002
-0.13281119 -0.12487554 0.86900002
-0.12473193 -0.12473258 0.86755562
-0.11473409 -0.12462814 0.86815006
-0.10525098 -0.12462914 0.8682726
-0.095123298 -0.12480468 0.86804754
-0.085425213 -0.12419395 0.86651731
-0.075091831 -0.12455346 0.86473513
-0.065226316 -0.12469853 0.8656317
-0.05506245 -0.12470396 0.86337513
-0.045002501 -0.12630723 0.8649565
-0.038884901 -0.1260473 0.86300004
-0.011317767 -0.12449426 0.86066675
-0.0087958891 -0.12490162 0.86000007
-0.13339162 -0.11619618 0.86900014
-0.12579852 -0.11500408 0.86634237
-0.11541013 -0.1151631 0.8652975
-0.10536015 -0.11528816 0.86142874
-0.09485361 -0.11641856 0.86340022
-0.084297866 -0.11631619 0.86051863
-0.075745746 -0.11538228 0.86085731
-0.065296516 -0.11741798 0.86171436
-0.13154149 -0.10741708 0.86900002
-0.12517163 -0.10533208 0.86596894
-0.11489642 -0.10505682 0.86148715
-0.1085664 -0.10724702 0.86000007
-0.080670863 -0.10932034 0.86000001
-0.077249609 -0.10871042 0.86028576
-0.057379428 -0.10235116 0.86018187
-0.0051507233 -0.10330486 0.86514997
0.0048713735 -0.10276401 0.86830014
-0.12327883 -0.097415529 0.8676154
-0.11498824 -0.094858944 0.8641668
-0.10749906 -0.09240929 0.86050004
-0.057320848 -0.098049037 0.86033338
-0.0025145721 -0.098377496 0.861
0.0053045964 -0.095878504 0.86332262
0.012149548 -0.09582895 0.86620009
-0.11132773 -0.088178113 0.86860001
-0.10455845 -0.085303344 0.86306256
-0.097023681 -0.082084224 0.86059999
0.0052775331 -0.088964134 0.86000001
-0.10249478 -0.079345167 0.86860001
-0.094424732 -0.075511217 0.86560017
-0.088314287 -0.074015044 0.86236364
-0.091051914 -0.069046706 0.86550003
-0.088620476 -0.068927042 0.86400002
0.086339973 -0.033266284 0.86900002
0.088062719 -0.0243161 0.86884624
0.091037884 -0.023997435 0.86900002
0.078832053 -0.012448228 0.86049998
0.085245438 -0.014423678 0.86604553
-0.0014143139 -0.0027177918 0.86842859
0.0029390736 -0.001600501 0.86411119
0.07694824 -0.0038593784 0.86144459
0.083937027 -0.0056137973 0.86776197
-0.0017775878 0.0017775878 0.86900002
0.0059601958 0.0044948361 0.86545944
0.013135388 0.0075006429 0.86120009
0.066067852 0.0084072333 0.86057144
0.074979953 0.0055382862 0.8638463
0.083298713 0.0045706215 0.86881828
0.0091418792 0.01142735 0.86900002
0.016017161 0.013307706 0.86589479
0.024058454 0.016245235 0.86234498
0.035220288 0.018162509 0.86046147
0.045245495 0.018098051 0.86016661
0.056163922 0.016119242 0.86131042
0.065346718 0.015051381 0.86506456
0.074482448 0.014460353 0.86810005
0.082022972 0.011935233 0.86900002
0.027260093 0.021811029 0.86783338
0.035118192 0.023166439 0.86462963
0.044632819 0.023206268 0.86483341
0.05403633 0.02254506 0.86570013
0.064523421 0.02167687 0.86860007
0.070849568 0.020569229 0.86900002
-0.16259477 -0.16346069 0.87743765
-0.15445501 -0.16364309 0.87790644
-0.14485563 -0.16430151 0.87763655
-0.13874082 -0.16337165 0.87800014
-0.1636627 -0.15443802 0.87645173
-0.15462235 -0.15509056 0.87730229
-0.14478774 -0.15481175 0.87792683
-0.13835597 -0.15759881 0.87800014
-0.16174215 -0.14596015 0.87660009
-0.15496418 -0.14476129 0.87507504
-0.14511947 -0.14437184 0.87520939
-0.13457976 -0.14449942 0.87672502
-0.12570001 -0.14288063 0.87622738
-0.11364212 -0.14311381 0.8768751
-0.1057263 -0.14219317 0.87729424
-0.094319493 -0.14156806 0.8780002
-0.084357761 -0.14216484 0.87711775
-0.075286016 -0.14320737 0.87596297
-0.067177154 -0.14204411 0.87650013
-0.059267927 -0.14085753 0.87800002
-0.16087009 -0.13623926 0.87800008
-0.15500733 -0.13495593 0.87589192
-0.14506133 -0.13493021 0.87335879
-0.135123 -0.13452327 0.87236834
-0.12515619 -0.13577184 0.872742
-0.11534165 -0.13465612 0.87256765
-0.10469735 -0.13474345 0.87265849
-0.094971187 -0.13556646 0.87363338
-0.084875807 -0.13485485 0.8733902
-0.075440578 -0.13544336 0.87286198
-0.064679116 -0.135969 0.87400013
-0.05519693 -0.13560531 0.87489676
-0.045339283 -0.13421556 0.87390924
-0.03683326 -0.13353136 0.87537503
-0.15306123 -0.12596436 0.87642115
-0.14556859 -0.1249788 0.87299979
-0.137868 -0.12531143 0.87100023
-0.11911796 -0.12904446 0.87100005
-0.10308286 -0.1275173 0.87100005
-0.083993435 -0.12904446 0.87100011
-0.15060724 -0.11776614 0.87800002
-0.14412014 -0.11527181 0.87388223
-0.13687083 -0.11468209 0.87128592
-0.14097577 -0.10740144 0.87599999
-0.13524207 -0.1043772 0.87358814
-0.12904446 -0.10079212 0.87100005
-0.0038178833 -0.10613716 0.87100005
0.0047341753 -0.10583173 0.87100011
-0.13335201 -0.097983174 0.87700009
-0.12571263 -0.09481585 0.87410533
-0.11937249 -0.092392772 0.87100005
0.01301061 -0.09413559 0.87300003
-0.11449818 -0.087270275 0.87384629
-0.10766432 -0.082084492 0.87100005
-0.10232979 -0.076937318 0.8724001
-0.096974239 -0.074066937 0.87100005
0.087047733 -0.031306643 0.87100005
0.091374665 -0.031815693 0.87100005
0.087302268 -0.027743287 0.87100011
0.092201874 -0.028061442 0.87100017
0.08552058 -0.019089416 0.87100005
-0.0044287448 -0.0022907299 0.87100011
0.088193104 -0.0044860132 0.87100023
0.091074273 -0.00688797 0.87300003
0.003140707 0.0084044086 0.87144458
0.087811314 0.00076357665 0.87100005
0.0076502324 0.0133142 0.8727001
0.014878114 0.016997892 0.872154
0.018367043 0.021430116 0.87300003
0.025181327 0.024540069 0.87321073
0.034723364 0.027993018 0.8724001
0.04561165 0.028784912 0.87262511
0.055014182 0.027396195 0.87229425
0.063221477 0.024831144 0.87150013
0.035791673 0.030018819 0.87800002
0.052597076 0.031045103 0.87800002
-0.16295217 -0.18230569 0.88814294
-0.15475096 -0.18380556 0.88603711
-0.14532408 -0.18346982 0.88553339
-0.1349593 -0.18329835 0.88799989
-0.12708531 -0.18158068 0.88800007
-0.17330211 -0.17423895 0.88806665
-0.16472602 -0.17494383 0.88285714
-0.15497878 -0.17448154 0.88153851
-0.14511986 -0.17473745 0.88140541
-0.13535516 -0.17486034 0.88302428
-0.12517564 -0.17475954 0.88576907
-0.116519 -0.172916 0.88826311
-0.18016025 -0.16082975 0.88200003
-0.17490137 -0.16466263 0.88421059
-0.16687679 -0.16618089 0.88085002
-0.15583627 -0.16848829 0.88
-0.14272134 -0.1689512 0.88000005
-0.13415067 -0.16553414 0.88064688
-0.12489001 -0.16481976 0.88372332
-0.11511323 -0.1648939 0.88722193
-0.10597219 -0.16337489 0.88883334
-0.095435761 -0.16203536 0.889
-0.088067301 -0.16132683 0.88900012
-0.18056877 -0.15499818 0.88400006
-0.17521569 -0.15451059 0.88435
-0.16843687 -0.15609343 0.88000005
-0.15506481 -0.15660773 0.88000005
-0.1411784 -0.150436 0.88000005
-0.13429888 -0.1545091 0.88004863
-0.12466156 -0.15486588 0.88326192
-0.11491039 -0.1552857 0.88563877
-0.10476191 -0.15520747 0.88519031
-0.094783925 -0.15538806 0.88622212
-0.085179716 -0.15543368 0.88671052
-0.075366564 -0.15327702 0.88627279
-0.065634571 -0.15253469 0.88500005
-0.054840058 -0.15097131 0.88859999
-0.047333471 -0.15151498 0.88833338
-0.18036453 -0.14785247 0.88300008
-0.17522289 -0.14487186 0.88527775
-0.16709931 -0.14467023 0.88208336
-0.13654959 -0.14889306 0.88000005
-0.12321974 -0.14740604 0.88141185
-0.11628392 -0.14740245 0.88153338
-0.10429493 -0.14698808 0.88059998
-0.095187403 -0.14666058 0.88127583
-0.08512526 -0.14729457 0.88063169
-0.074255347 -0.14837708 0.88075
-0.064061329 -0.14633034 0.88127989
-0.055012897 -0.1451281 0.88388556
-0.044914301 -0.14506993 0.88580626
-0.036158834 -0.14272331 0.88609099
-0.17414384 -0.13663463 0.88742107
-0.16588922 -0.13510498 0.88268566
-0.15917929 -0.13089217 0.88000005
-0.052202579 -0.13963546 0.88000005
-0.044745065 -0.138864 0.88
-0.036191255 -0.1378199 0.88220006
-0.16328482 -0.12578462 0.88571435
-0.15721861 -0.12338815 0.88226676
-0.1618464 -0.118722 0.88900012
-0.15450008 -0.11550801 0.88432133
-0.14811766 -0.11153698 0.88150007
-0.15160635 -0.10867047 0.88814288
-0.14502487 -0.10488407 0.88462502
-0.13963546 -0.10106213 0.88000005
-0.14105304 -0.098089941 0.88566667
-0.13481525 -0.095012791 0.88381821
-0.12649989 -0.091478325 0.88227272
0.013249063 -0.094302155 0.88900006
-0.12404401 -0.088053338 0.88646162
-0.11508954 -0.083940685 0.88572222
-0.10902402 -0.081188098 0.88200003
0.0271025 -0.083334878 0.88840008
0.032208554 -0.080440305 0.88740003
-0.10666695 -0.0781864 0.8860001
0.028836196 -0.078715026 0.88900006
0.035371266 -0.074840844 0.88777405
0.042711578 -0.071558915 0.88585722
0.038168605 -0.06794294 0.88855553
0.044729013 -0.064622439 0.88691157
0.051263083 -0.061361406 0.88600004
0.047355659 -0.055514507 0.88833326
0.051620532 -0.054730952 0.88712502
0.048579901 -0.047021184 0.88900012
0.052474193 -0.045310605 0.88810003
-0.010131637 -0.035071049 0.88900006
-0.0059724376 -0.03349977 0.88866669
0.007904903 -0.032398969 0.889
0.015197456 -0.033268794 0.889
0.023800351 -0.031713821 0.889
0.03850022 -0.032421239 0.88900006
0.044834893 -0.03536487 0.88884616
0.051177751 -0.03922762 0.88900012
0.0077935667 -0.027277483 0.889
0.014669265 -0.026753092 0.88811994
0.025108835 -0.026599776 0.889
0.032538142 -0.025718769 0.889
-0.017145846 -0.017145846 0.88900006
-0.16247088 -0.18590419 0.89099997
-0.15778422 -0.1882475 0.89100003
-0.12397194 -0.18361433 0.8934285
-0.11505715 -0.18260339 0.89587504
-0.1056997 -0.18141408 0.89755565
-0.097356163 -0.18027948 0.89800006
-0.17340642 -0.17731197 0.89100003
-0.12107205 -0.17887419 0.89100003
-0.11330681 -0.17651168 0.8924349
-0.10514949 -0.17450657 0.89456785
-0.094822757 -0.17441991 0.8949095
-0.08541441 -0.17312329 0.89583999
-0.077449642 -0.17076626 0.89600003
-0.11013651 -0.16950087 0.89100003
-0.10417759 -0.16733485 0.8912499
-0.094529249 -0.16651593 0.8925001
-0.084360503 -0.16511419 0.89341956
-0.075272456 -0.1646312 0.89494473
-0.069199681 -0.16199222 0.89700001
-0.074385606 -0.15799382 0.8912999
-0.065324612 -0.1572531 0.89446157
-0.055560157 -0.15562825 0.89376205
-0.17430362 -0.13233127 0.89320004
-0.17207155 -0.12759259 0.89533341
-0.16765434 -0.12354805 0.89133328
-0.16334337 -0.11642929 0.89415383
-0.15782516 -0.11180544 0.89185715
-0.16138557 -0.10942729 0.89800006
-0.15458728 -0.10524657 0.89391309
-0.14857747 -0.1024385 0.89200002
-0.1430359 -0.097012371 0.89483339
-0.13656083 -0.091769293 0.89320004
0.016019067 -0.092833653 0.89590013
0.02194472 -0.090130098 0.89400005
-0.13246137 -0.088107735 0.89537507
-0.12483291 -0.084525436 0.89445001
-0.11778871 -0.081980608 0.89275002
0.018485976 -0.086138338 0.89733332
0.023143079 -0.08426331 0.89495009
-0.11333913 -0.077325866 0.89523536
-0.10495486 -0.073576152 0.89466679
-0.099367976 -0.073546633 0.89250004
0.008659713 -0.070852205 0.89800006
0.016415549 -0.073155612 0.89800024
0.024892885 -0.074808672 0.89682066
0.031385291 -0.072712362 0.89185715
-0.02174893 -0.061051652 0.89666671
-0.015686838 -0.061754622 0.89773333
-0.0039362335 -0.061667655 0.898
0.0053217858 -0.063326105 0.89800018
0.014955597 -0.064547718 0.89790481
0.025326157 -0.064769521 0.89694738
0.034574382 -0.064332694 0.8944
0.041398831 -0.060926579 0.89100003
-0.023298128 -0.05448943 0.89580953
-0.014923538 -0.054992881 0.89609516
-0.0047174403 -0.055041615 0.89688897
0.0047187558 -0.055051889 0.89705563
0.014943199 -0.055059638 0.89719057
0.025135785 -0.054984525 0.89600003
0.035221346 -0.055065148 0.89575613
0.042847231 -0.053971153 0.89227772
-0.02307995 -0.046573579 0.89329416
-0.01487668 -0.045426968 0.8933574
-0.0047072135 -0.045515567 0.89511132
0.004709064 -0.045526955 0.89533341
0.014907924 -0.045512702 0.89504784
0.025090342 -0.045478314 0.89438939
0.035293099 -0.045493335 0.89466703
0.045062423 -0.045209233 0.89236391
-0.011739944 -0.039019804 0.89271438
-0.0038565444 -0.036230266 0.89190012
0.0040434375 -0.03572683 0.89194328
0.014111187 -0.038565855 0.89135283
0.025534397 -0.036699027 0.8919313
0.03431483 -0.035883527 0.89223099
0.04296105 -0.0390555 0.89099997
-0.00078111002 -0.02890107 0.89100003
0.0034592017 -0.028231546 0.89099991
0.034056399 -0.027963737 0.89099991
-0.12177514 -0.18582703 0.90200007
-0.11690174 -0.18562101 0.90100002
-0.10412411 -0.18335351 0.90150005
-0.098208003 -0.18193494 0.90100002
-0.070825607 -0.16824372 0.90100002
-0.064977892 -0.16367008 0.90190905
-0.058548622 -0.16298592 0.90250009
-0.061610378 -0.15876521 0.90100002
-0.16443177 -0.11383626 0.90175003
-0.16350447 -0.10979286 0.90100002
-0.15224674 -0.10070401 0.90450001
-0.14928669 -0.10031433 0.90100002
-0.15044652 -0.099501669 0.90800005
-0.14434958 -0.095491707 0.90469998
0.0083180321 -0.092300512 0.90375006
0.010913974 -0.092222705 0.90220004
-0.13443969 -0.085443601 0.9052667
-0.12754372 -0.081592128 0.90362501
-0.0074692005 -0.080891781 0.90640008
0.0064964178 -0.085233994 0.90554547
0.013626934 -0.085117571 0.90403336
-0.10510163 -0.070962138 0.90139997
-0.097643308 -0.071056463 0.90260011
-0.012435391 -0.074123673 0.90542859
-0.0047635143 -0.074593514 0.90516675
0.0045481897 -0.07535959 0.90245008
0.013221169 -0.077104755 0.90163648
-0.013587296 -0.066143855 0.90209097
-0.005141357 -0.066305369 0.90216666
0.0033749274 -0.067570359 0.90100002
