# .PCD v0.7 - Point Cloud Data file format
VERSION 0.7
FIELDS x y z
SIZE 4 4 4
TYPE F F F
COUNT 1 1 1
WIDTH 694
HEIGHT 1
VIEWPOINT 0 0 0 1 0 0 0
POINTS 694
DATA ascii
-0.091844425 -0.11276651 0.80900002
-0.084397592 -0.11205728 0.80900002
-0.085613385 -0.10952433 0.80900002
-0.08344157 -0.14086236 0.81875014
-0.076948166 -0.14170627 0.81814295
-0.092774391 -0.13365707 0.81735307
-0.086303458 -0.13675362 0.81595671
-0.078280546 -0.1389571 0.81620008
-0.10049493 -0.12187683 0.81300002
-0.095882609 -0.12501353 0.81419998
-0.054108743 -0.12608482 0.81566668
-0.094471797 -0.115376 0.81174999
-0.081051335 -0.11020138 0.81100005
-0.074298389 -0.11442237 0.81422591
-0.065779388 -0.11623809 0.81788898
-0.090294033 -0.10877943 0.81100005
-0.084290236 -0.1072785 0.81099993
-0.077116981 -0.10820835 0.81128567
0.069645032 -0.081132866 0.81900007
0.068600684 -0.077216558 0.81900018
0.071655408 -0.076537728 0.81900012
-0.071222156 -0.15043862 0.82900006
-0.067534015 -0.15031765 0.82833338
-0.073087826 -0.14599486 0.82721072
-0.067879073 -0.14709556 0.82900012
-0.060320802 -0.13008945 0.82900006
-0.056008261 -0.1319506 0.82700008
-0.071948908 -0.12282187 0.82900006
-0.06394241 -0.12337126 0.82507402
-0.056926861 -0.1256268 0.82441175
-0.042878643 -0.10755999 0.82900006
0.053325772 -0.10347196 0.82900023
0.047862116 -0.092298098 0.82900006
0.053760629 -0.094953611 0.82870024
0.037662696 -0.08227735 0.82412499
0.044957429 -0.08484339 0.82714283
0.054392431 -0.084851369 0.82724476
0.06359157 -0.083957545 0.82414275
0.018895674 -0.070495397 0.82900006
0.025912365 -0.072864987 0.82520688
0.035247479 -0.075069346 0.82206964
0.044761512 -0.074605726 0.82509774
0.054991335 -0.07578747 0.82802713
0.063943028 -0.074625291 0.8229109
0.071254589 -0.072694078 0.82100004
0.01962243 -0.069041885 0.82900006
0.026041787 -0.066073298 0.82722867
0.035162434 -0.066361398 0.82476765
0.042821039 -0.06811662 0.82785714
0.056548506 -0.068875313 0.82700002
0.065601848 -0.069928482 0.82233334
-0.070665471 -0.14497349 0.83100003
-0.063457169 -0.14578195 0.83400011
-0.056635298 -0.14048496 0.83900005
-0.071175687 -0.13134483 0.83700001
-0.064680524 -0.13395564 0.83586663
-0.057461251 -0.13695186 0.8372857
-0.071879432 -0.12674649 0.83450001
-0.065949872 -0.12697169 0.83237511
-0.057409018 -0.12140769 0.83500004
-0.061048437 -0.11841925 0.83900005
-0.055005524 -0.1150014 0.83650011
-0.047234394 -0.11265443 0.83406675
0.047037069 -0.11202565 0.83718187
0.053516645 -0.11245485 0.8351
-0.05331767 -0.10500348 0.83584839
-0.044950038 -0.10393728 0.83214295
-0.038247038 -0.101555 0.83579999
0.045303058 -0.10495161 0.83425009
0.055564143 -0.10553136 0.83188891
0.061323207 -0.10471646 0.83700001
-0.051640268 -0.097581983 0.83850008
-0.044516504 -0.09475854 0.8352499
-0.037386876 -0.094570339 0.83623815
0.045585025 -0.09577693 0.83230442
0.057734415 -0.095981196 0.83099997
0.062105518 -0.093306951 0.83539999
-0.042077567 -0.087830603 0.83877784
-0.034508411 -0.08524362 0.83873349
-0.027214363 -0.082378618 0.83900005
0.062728129 -0.089714557 0.83200002
0.018212751 -0.071636818 0.83100003
0.048810169 -0.070665471 0.83100003
0.053012177 -0.071979158 0.83216673
0.017663114 -0.065007329 0.83547997
0.024264788 -0.061709795 0.83206677
0.035639659 -0.061195008 0.833
0.045302458 -0.064372659 0.83527029
0.052348282 -0.067401931 0.83633333
0.01985913 -0.059577391 0.83900005
0.02541833 -0.057958242 0.83688229
0.032803115 -0.058502596 0.83766669
-0.054120515 -0.16193625 0.84900004
-0.02753873 -0.16002235 0.84900004
-0.060145471 -0.15073495 0.84700006
-0.054612473 -0.15438125 0.84887135
-0.045641348 -0.15365478 0.84825045
-0.034696128 -0.15340446 0.84806687
-0.025054585 -0.15366374 0.84675002
-0.018174397 -0.15283127 0.84625
-0.062086545 -0.14435104 0.84238458
-0.055104543 -0.14495952 0.84405255
-0.045546558 -0.14633122 0.84403461
-0.034890704 -0.14773023 0.84680969
-0.026813025 -0.14782371 0.8448
-0.075174026 -0.13278447 0.84616679
-0.063405797 -0.13934529 0.84100002
-0.076555349 -0.12845446 0.84575009
-0.053083919 -0.1201761 0.84100002
-0.033493049 -0.12131927 0.84900004
0.048262548 -0.12103348 0.84700006
-0.070707552 -0.1123878 0.84900004
-0.064893275 -0.11378213 0.8434999
-0.05971941 -0.11206605 0.84100002
-0.043037802 -0.11483048 0.84811115
-0.034789279 -0.11480634 0.84836388
-0.028390851 -0.11609644 0.84780008
0.039215051 -0.11098512 0.84400004
0.045105893 -0.11576616 0.84466672
0.050932579 -0.11810541 0.84200001
-0.070707552 -0.10941063 0.84900004
-0.064731307 -0.10510399 0.84557903
-0.058740944 -0.10503048 0.84149992
-0.040598433 -0.10777126 0.84200001
-0.035823081 -0.10660851 0.84691668
0.064446226 -0.10168948 0.84300005
-0.062265713 -0.096440874 0.8475334
-0.05570649 -0.094635874 0.84305263
-0.04866026 -0.090685032 0.84100002
0.064609013 -0.097096756 0.84224999
-0.053303439 -0.086926669 0.84680015
-0.045743067 -0.084300138 0.84355003
-0.03601313 -0.081383996 0.8409999
-0.025804684 -0.081205763 0.84100002
-0.043540966 -0.076733321 0.84775019
-0.034786936 -0.074743569 0.84422445
-0.024502942 -0.074616574 0.84383321
-0.015205607 -0.073820539 0.8477335
-0.0076076458 -0.072231606 0.84807694
0.0096073896 -0.070207849 0.84300005
0.013718607 -0.070369504 0.84140003
-0.03299598 -0.067688562 0.84714299
-0.024584131 -0.066668861 0.8481335
-0.015411424 -0.067494437 0.84871429
-0.0046968032 -0.06601242 0.84825742
0.0051833359 -0.064475916 0.8454082
0.012621108 -0.064513028 0.84200013
0.0064771888 -0.057676785 0.84814292
0.01549988 -0.056655511 0.84452945
0.023756571 -0.054633211 0.84362507
0.035559274 -0.056098059 0.84509093
0.042694192 -0.058796633 0.84260005
-0.045715451 -0.17145656 0.85745448
-0.033057347 -0.17054588 0.85700005
-0.053164236 -0.1640615 0.85149992
-0.045472808 -0.16479507 0.85462505
-0.035219334 -0.16485238 0.85471433
-0.026057515 -0.1620883 0.85439998
-0.016096653 -0.16081607 0.85799998
-0.005297279 -0.16218939 0.85899997
0.00075218 -0.16096652 0.85800004
-0.06042951 -0.15293889 0.85100001
-0.058042176 -0.15771356 0.85100001
-0.044613391 -0.15845959 0.85099995
-0.03568574 -0.1582855 0.85099989
-0.023168059 -0.15853454 0.85255551
-0.01399257 -0.1550694 0.85303563
-0.0060252561 -0.15548518 0.8565715
0.00075218006 -0.15720563 0.85800004
-0.081987619 -0.14065766 0.85800004
-0.078226715 -0.14065766 0.85800004
-0.0067696199 -0.14968382 0.85800004
-0.083954059 -0.13439737 0.85610718
-0.076700568 -0.13631703 0.85299999
-0.044808436 -0.13055696 0.85799992
-0.034911122 -0.13233984 0.85771418
-0.025292052 -0.1312554 0.85799986
-0.018303046 -0.13062859 0.85800004
-0.085530192 -0.12512553 0.85861534
-0.079026684 -0.12771894 0.85450006
-0.053869851 -0.12727013 0.85872215
-0.044823013 -0.12442753 0.85400003
-0.035484463 -0.12525879 0.85261935
-0.024961356 -0.12479737 0.85481584
-0.018039171 -0.12552729 0.85739994
0.039865538 -0.12185316 0.85800004
0.043898128 -0.12407256 0.85536361
-0.075070813 -0.11308298 0.85539991
-0.045210224 -0.11832247 0.85100001
-0.036556125 -0.11862089 0.85100001
-0.029095691 -0.11862089 0.85100001
0.039055277 -0.11716978 0.85675001
0.041706365 -0.11764918 0.85259998
-0.073702149 -0.10547429 0.85555547
-0.068834111 -0.10198053 0.85159999
-0.071903028 -0.097706258 0.85733336
-0.06617786 -0.094195835 0.85432261
-0.063521318 -0.088725299 0.85688889
-0.057173155 -0.083161354 0.85680556
-0.051974352 -0.079329275 0.85100001
-0.049238861 -0.078334548 0.85100001
-0.01566691 -0.076842457 0.85100001
-0.021933671 -0.061921597 0.85099995
-0.014666537 -0.063574068 0.8517499
-0.0065036775 -0.06161708 0.85121423
0.053404778 -0.065439656 0.85800004
-0.02021418 -0.059145194 0.85400003
-0.014647027 -0.05852659 0.85490918
-0.0049183504 -0.056769494 0.85285711
0.0048331986 -0.054163225 0.85269231
0.013887277 -0.053280294 0.85600001
0.026166746 -0.053081114 0.85280001
0.035414897 -0.053244352 0.85544449
0.043241937 -0.056706131 0.85340005
-0.042121693 -0.18235487 0.86311114
-0.037271883 -0.18224034 0.86127275
-0.042243987 -0.1761339 0.86141181
-0.035891458 -0.17508431 0.86096561
-0.025105979 -0.17349321 0.86800003
-0.01900175 -0.17101575 0.86700004
-0.063840792 -0.16104946 0.86900008
-0.021278078 -0.16623041 0.86242861
-0.014956657 -0.16416079 0.86058819
-0.12411486 -0.15135604 0.86855555
-0.11554321 -0.15041777 0.86900002
-0.10396511 -0.1530464 0.86800009
-0.097853474 -0.15313581 0.86838472
-0.072881103 -0.15617378 0.86900002
-0.064296819 -0.15565251 0.86662495
-0.0035556348 -0.15150766 0.86042863
0.0050235577 -0.15339474 0.86170596
0.014726423 -0.15191898 0.86559999
0.022449244 -0.15066656 0.86800003
-0.13027179 -0.14246096 0.86900002
-0.12455127 -0.14445595 0.86752945
-0.11497404 -0.14466825 0.86852372
-0.10515164 -0.14520679 0.8667438
-0.097477183 -0.14720188 0.86730003
-0.084003411 -0.14314644 0.86323076
-0.07485532 -0.14480564 0.86577791
-0.068564102 -0.14627008 0.86900002
-0.052329987 -0.14214887 0.86825001
-0.045287557 -0.14244075 0.86709529
-0.035128377 -0.14359124 0.8670001
-0.025897203 -0.14196518 0.86720002
-0.01828376 -0.14093731 0.86900002
-0.0037915832 -0.14908366 0.86500007
0.0062172883 -0.14692572 0.86640745
0.015612367 -0.14547448 0.86808097
0.024889771 -0.1448898 0.86890686
0.033193734 -0.14289629 0.86900014
-0.13027179 -0.13789003 0.86900002
-0.1246905 -0.13498566 0.86766678
-0.11499345 -0.13479172 0.86867338
-0.10677987 -0.1358389 0.86795235
-0.093401663 -0.13430631 0.8613044
-0.088562883 -0.13650826 0.86028564
-0.052657694 -0.13408023 0.86219054
-0.045200001 -0.13559778 0.86120015
-0.035400793 -0.13652207 0.86078268
-0.02479578 -0.13594252 0.86128014
-0.015266206 -0.1346308 0.86423081
-0.0098771108 -0.13397862 0.86666673
0.00457094 -0.13941367 0.86900002
0.019045584 -0.13941367 0.86900002
0.026529374 -0.13560456 0.8689999
0.034911666 -0.13511124 0.86580557
0.04166485 -0.13170554 0.86066669
-0.12144113 -0.1286732 0.86849999
-0.11187919 -0.12591852 0.86900014
-0.10655489 -0.12414845 0.86880016
-0.09423729 -0.12587915 0.86099994
-0.079163 -0.12515293 0.86000001
-0.013878839 -0.12680535 0.86162519
-0.0098239267 -0.12922242 0.86200005
0.02940638 -0.12691978 0.86900008
0.03512717 -0.12520793 0.86275023
0.043728132 -0.1289226 0.86000001
-0.1043698 -0.11960626 0.86900002
-0.082643516 -0.11161003 0.8621667
0.034804609 -0.11755466 0.86169231
-0.083478421 -0.10604294 0.86500007
-0.077917308 -0.10336731 0.86066669
-0.082286328 -0.095671587 0.86545461
-0.075582005 -0.094169587 0.86235142
-0.070656702 -0.088415332 0.86200005
-0.064964026 -0.086112916 0.86166674
0.058945313 -0.070278853 0.86199999
0.063920394 -0.071528986 0.86800003
0.049005665 -0.061068598 0.86000001
0.055453848 -0.063645996 0.86350006
0.061854277 -0.065302953 0.8682
0.015160051 -0.051543031 0.86466676
0.024901593 -0.051318057 0.86085731
0.034589935 -0.051350743 0.86140001
0.045670945 -0.054214768 0.86406463
0.053742941 -0.05611895 0.86765212
0.017515676 -0.048631586 0.86871433
0.025176713 -0.047224235 0.86611992
0.034317322 -0.047646578 0.86758846
0.043576293 -0.048909061 0.86900008
-0.13431498 -0.17068394 0.87800014
-0.12607905 -0.17041454 0.87800008
-0.11391757 -0.17010665 0.87800002
-0.091595881 -0.17098631 0.87800014
-0.085900001 -0.1710303 0.87800014
-0.074854627 -0.17029908 0.87800014
-0.02061657 -0.1733319 0.87100005
-0.16240951 -0.16202465 0.87800014
-0.15451996 -0.16106252 0.87800014
-0.14391191 -0.16367109 0.87650013
-0.13496149 -0.16438386 0.87564868
-0.12520365 -0.16427569 0.87563163
-0.11524788 -0.16450167 0.87783802
-0.10420424 -0.16212574 0.87646163
-0.094094485 -0.16457295 0.87600011
-0.0850126 -0.16464162 0.87722874
-0.075044893 -0.16463789 0.87346661
-0.066130966 -0.1651379 0.87352008
-0.16333658 -0.15584411 0.87721759
-0.1551664 -0.15499134 0.87779528
-0.14461412 -0.15476166 0.87492311
-0.13469857 -0.15459715 0.87299973
-0.12505649 -0.15605766 0.8727417
-0.11487605 -0.15561259 0.87379318
-0.10562384 -0.15724303 0.87194133
-0.094077908 -0.15574428 0.87299997
-0.0853348 -0.15636036 0.87373334
-0.07601884 -0.15776756 0.87150013
-0.069029607 -0.15664834 0.87166673
-0.026939966 -0.15009409 0.87800002
-0.15277641 -0.14545354 0.87623537
-0.14473757 -0.14473489 0.87353063
-0.13459629 -0.14525169 0.87162858
-0.12919262 -0.14830482 0.87200004
-0.071012631 -0.1463522 0.87100005
-0.068937041 -0.14597639 0.87180007
-0.043599412 -0.14686051 0.87250012
-0.033875864 -0.14799292 0.87166679
-0.025270576 -0.14650288 0.87355012
-0.015594976 -0.14362544 0.87505567
-0.0021949855 -0.14624034 0.87535721
0.0048882067 -0.14329581 0.87130022
0.011962701 -0.14177074 0.87100005
-0.15009409 -0.13931811 0.87800002
-0.1432568 -0.13641371 0.8755455
-0.13512623 -0.13493101 0.87297559
-0.12828088 -0.1305716 0.87100005
-0.012980804 -0.13897096 0.87100005
-0.0092080683 -0.13892141 0.87550002
0.0089224214 -0.13841778 0.87233335
0.01573668 -0.13651337 0.87196565
0.022051614 -0.13348247 0.87140018
-0.13259162 -0.12685612 0.87560004
-0.12481326 -0.12469915 0.87345243
-0.11634454 -0.12421175 0.87203705
-0.10919146 -0.12140869 0.87100005
0.025932677 -0.12670468 0.87158841
-0.12238442 -0.11930557 0.87800002
-0.11369634 -0.11663052 0.87529176
-0.10499112 -0.115003 0.87300014
-0.095774472 -0.11277148 0.87244457
-0.088574894 -0.11148219 0.87100005
-0.10306168 -0.10821135 0.87542862
-0.094799221 -0.10625727 0.87322581
-0.087799624 -0.1035205 0.87255567
-0.086639501 -0.098105431 0.87200004
0.068090118 -0.071913257 0.87266666
0.071418524 -0.071929909 0.87599999
0.065585539 -0.065131538 0.87405896
0.070043914 -0.068504483 0.87800002
0.0053654928 -0.051262688 0.87566686
0.057117876 -0.052619517 0.87333351
0.061888956 -0.056456454 0.87484634
0.0073504122 -0.04796074 0.8763572
0.014728175 -0.044667743 0.87385726
0.024913682 -0.042339832 0.87265229
0.035721425 -0.042988777 0.87312508
0.045065317 -0.044688195 0.87396967
0.053533208 -0.047381546 0.87650013
0.019242832 -0.039255381 0.87800002
0.025229491 -0.038742237 0.87800014
0.034077305 -0.038695585 0.8780002
0.041564517 -0.039255381 0.87800002
-0.18292615 -0.211651 0.889
-0.17646863 -0.2118737 0.889
-0.19413808 -0.20391557 0.88707131
-0.18485188 -0.20506056 0.88648558
-0.17502479 -0.20524852 0.8861497
-0.16556856 -0.20428845 0.88667738
-0.15655507 -0.20308247 0.88846672
-0.20125811 -0.1945066 0.88866669
-0.19439356 -0.19450012 0.88588357
-0.18423662 -0.19507451 0.88300008
-0.17494424 -0.19507486 0.88300008
-0.16509996 -0.19476731 0.88468719
-0.15486838 -0.19493333 0.88678718
-0.14788839 -0.19354923 0.88880002
-0.20029466 -0.18782496 0.88900012
-0.19488539 -0.18502301 0.88613802
-0.18470293 -0.18470299 0.88200003
-0.17474772 -0.18479961 0.88200009
-0.16515209 -0.18454422 0.88388371
-0.15513682 -0.18489389 0.88564867
-0.14575738 -0.18429382 0.88614279
-0.13459268 -0.18355142 0.88700002
-0.12609749 -0.1839522 0.8872962
-0.11473862 -0.18107052 0.88900006
-0.1059925 -0.18262924 0.88900006
-0.094787024 -0.18319346 0.88770008
-0.085938901 -0.18213715 0.88850003
-0.074818246 -0.1800314 0.889
-0.065985531 -0.18029119 0.889
-0.19244903 -0.17548127 0.88656527
-0.18407962 -0.1747966 0.88225001
-0.1748462 -0.17484751 0.88249999
-0.16478935 -0.17484882 0.88249999
-0.15484796 -0.17498177 0.88316673
-0.14531308 -0.17468446 0.88166648
-0.13530454 -0.17539619 0.88135272
-0.12472087 -0.17568538 0.88302928
-0.11499104 -0.17454852 0.88321215
-0.10483182 -0.17540027 0.88640457
-0.095069759 -0.17579441 0.88362068
-0.084475763 -0.17609741 0.88285178
-0.074844107 -0.17494324 0.88296133
-0.064991035 -0.17461446 0.88496768
-0.058346193 -0.17426273 0.88740003
-0.19117558 -0.16808681 0.8876667
-0.18435313 -0.16534796 0.88447493
-0.17482597 -0.16495769 0.88148713
-0.16531298 -0.16616249 0.88077402
-0.15487023 -0.16603649 0.88116115
-0.14700669 -0.16784199 0.8802501
-0.12112027 -0.1689512 0.88000005
-0.11062832 -0.16648249 0.88
-0.10547081 -0.1674833 0.88309526
-0.09874773 -0.16817974 0.88000005
-0.087175734 -0.16432241 0.88000005
-0.061786588 -0.16914319 0.88100004
-0.05974045 -0.16991115 0.88500005
-0.18274619 -0.15755685 0.88772732
-0.17459579 -0.15541761 0.88389468
-0.1666366 -0.15355803 0.88021058
-0.02288034 -0.15292932 0.88475013
-0.015364118 -0.15341447 0.88595659
-0.0073337546 -0.15090722 0.88050008
-0.17155732 -0.14702073 0.88849998
-0.16473144 -0.14522392 0.88413149
-0.1572535 -0.14471038 0.88037509
-0.02087694 -0.14923146 0.88200003
-0.012703484 -0.14695591 0.88122231
-0.0067874305 -0.14513446 0.88084221
-0.16242091 -0.13839531 0.88645458
-0.15457591 -0.13596123 0.88430548
-0.14652005 -0.13298485 0.88195008
-0.15024665 -0.1292268 0.88800001
-0.1443329 -0.12748772 0.88589489
-0.13673741 -0.12563238 0.88344455
-0.12052852 -0.1174181 0.88700002
-0.11508091 -0.1141534 0.88100004
-0.10569093 -0.10723387 0.88000005
0.072601154 -0.071055584 0.88100004
0.06806615 -0.062990509 0.88085717
0.074247442 -0.064051978 0.88722569
-0.011439218 -0.055036251 0.8880769
-0.0048228479 -0.052567486 0.8835218
0.0011572 -0.05130253 0.88000005
0.066275552 -0.054129552 0.88431031
0.073383212 -0.055307876 0.88859993
-0.0033712422 -0.046376497 0.88666672
0.0040377965 -0.04392593 0.88259244
0.011191965 -0.041296698 0.88050008
0.047059465 -0.040887732 0.88000005
0.056114629 -0.043418668 0.88259995
0.064709894 -0.046341125 0.88755995
0.073433109 -0.048111469 0.88875002
0.006286981 -0.038147751 0.8880769
0.015166812 -0.035362739 0.88626182
0.024643233 -0.033750579 0.88433313
0.035031669 -0.033678241 0.88386828
0.045131322 -0.034652181 0.88449973
0.053929809 -0.035372477 0.88794434
0.060010463 -0.03974719 0.88900006
0.01870456 -0.028836196 0.88900006
0.025293667 -0.028127687 0.889
0.035476901 -0.02743814 0.88889474
0.044161275 -0.027622215 0.88853842
0.051177751 -0.028316624 0.88900012
-0.16335368 -0.22160994 0.89800006
-0.15863021 -0.22160994 0.89800006
-0.18395141 -0.21285246 0.89100003
-0.17400996 -0.21582958 0.89276195
-0.16483723 -0.21457832 0.89287186
-0.15511411 -0.21465501 0.89361137
-0.14545703 -0.21375318 0.89415669
-0.13591568 -0.21143681 0.89733344
-0.20149307 -0.20149131 0.89200002
-0.16247088 -0.20855637 0.89100003
-0.15372989 -0.20610142 0.89100003
-0.14469802 -0.20493056 0.89221436
-0.1351794 -0.20523533 0.89509118
-0.12810598 -0.20329536 0.89650005
-0.20261994 -0.19574615 0.89099997
-0.14357154 -0.19599661 0.89250034
-0.13474126 -0.19584517 0.89358371
-0.12481891 -0.19521037 0.89367592
-0.11528599 -0.19419833 0.89561146
-0.10561663 -0.19369681 0.89585197
-0.09558779 -0.19206317 0.89649993
-0.084818617 -0.19286138 0.89715785
-0.075610965 -0.19241975 0.89725
-0.069908909 -0.19087487 0.89600003
-0.20362709 -0.18484493 0.89250022
-0.1986623 -0.18095715 0.89100003
-0.14242239 -0.18876825 0.89099997
-0.13627765 -0.18866411 0.89099985
-0.12367265 -0.18782358 0.89236361
-0.1156632 -0.18605079 0.8921113
-0.10438749 -0.18707864 0.89193743
-0.095284894 -0.1880828 0.89290911
-0.084373444 -0.18648529 0.89295667
-0.075214051 -0.18568772 0.89370042
-0.065862752 -0.18503985 0.89523101
-0.05763758 -0.18235469 0.89714295
-0.20287128 -0.17522657 0.89421064
-0.19817838 -0.1742714 0.89233333
-0.060145471 -0.17887419 0.89100003
-0.05647333 -0.17884153 0.89475006
-0.20119791 -0.16718559 0.89533335
-0.19541337 -0.16502422 0.89420712
-0.18928897 -0.16168977 0.89100003
-0.19246416 -0.15654165 0.895625
-0.18567459 -0.15382068 0.89337057
-0.17762442 -0.15137912 0.89099997
-0.01484109 -0.15544088 0.89100003
-0.18194383 -0.14853933 0.89650005
-0.17557982 -0.14490302 0.8938216
-0.16950087 -0.14138091 0.89100003
-0.17123054 -0.13871437 0.89733338
-0.16432749 -0.13515833 0.8943001
-0.15728201 -0.13156888 0.89257145
-0.1546535 -0.12777308 0.8954705
-0.14463206 -0.12360582 0.8955555
-0.1352835 -0.12160883 0.89564699
-0.12853336 -0.1214797 0.89400005
-0.13225743 -0.11887424 0.89800006
-0.12542723 -0.11757033 0.89572734
-0.11764165 -0.11503503 0.89266664
-0.10942729 -0.10942729 0.89800006
0.077619188 -0.073699914 0.89433336
0.080725223 -0.072104082 0.89400005
0.077948928 -0.067400001 0.89137495
-0.014637559 -0.05448848 0.8943333
0.075142778 -0.054209035 0.89099997
-0.011250409 -0.048392732 0.8951667
-0.0054804818 -0.043851655 0.89329994
0.067188613 -0.042586628 0.89209086
0.072335899 -0.045277696 0.8927142
-0.00078549335 -0.039272912 0.89600003
0.0048260498 -0.034776207 0.89415789
0.011208183 -0.03153896 0.89200002
0.058062509 -0.033066988 0.89099997
0.063336723 -0.03611017 0.89341408
0.015719663 -0.027151503 0.89399999
0.025203759 -0.024888974 0.89286655
0.034365628 -0.02383172 0.89233321
0.046085488 -0.025581352 0.89099991
0.05493807 -0.027859589 0.89099991
-0.16540018 -0.22290318 0.90100002
-0.13586029 -0.22098711 0.90628576
-0.14011851 -0.21769825 0.90300006
-0.13441315 -0.2158298 0.90352172
-0.12523364 -0.21399628 0.90222222
-0.11508932 -0.21264409 0.90434796
-0.10513179 -0.21164843 0.9050625
-0.1241835 -0.20629823 0.90185738
-0.11519635 -0.2055537 0.9032163
-0.10463794 -0.20489679 0.90464717
-0.095611297 -0.20365794 0.9052223
-0.087669291 -0.20244688 0.90500003
-0.11295236 -0.1998388 0.90100002
-0.10420069 -0.198659 0.90122223
-0.094639003 -0.19695306 0.90182352
-0.085643403 -0.19782071 0.90227264
-0.079076216 -0.19689758 0.90200007
-0.068003908 -0.19215307 0.90200007
-0.057170287 -0.19136386 0.90575004
-0.061781328 -0.18851446 0.90350002
-0.054754153 -0.18605676 0.90312004
-0.19904892 -0.16350447 0.90100002
-0.19263524 -0.15203854 0.90800005
-0.18840793 -0.15120132 0.90300006
-0.18341228 -0.14529794 0.90569234
-0.17787795 -0.14144507 0.90340006
-0.17416763 -0.13731715 0.90461546
-0.1667365 -0.13284788 0.90310001
0.0087561468 -0.13611828 0.90800005
0.0152696 -0.1348228 0.90703475
0.022635182 -0.13122192 0.90279996
-0.16246518 -0.12838565 0.90400004
-0.15471777 -0.12373793 0.9036501
-0.14689839 -0.12137913 0.90157139
0.018831676 -0.1286412 0.90766668
0.025669154 -0.1250205 0.90566689
0.031792942 -0.12276013 0.90342855
-0.15090939 -0.11993326 0.90600002
-0.14388384 -0.11793172 0.90500003
-0.13456187 -0.1150761 0.90306085
-0.12519109 -0.11245855 0.90287513
-0.11641465 -0.1119233 0.9040556
0.035971157 -0.11661974 0.90588915
0.041695632 -0.11379708 0.90381247
-0.12493427 -0.10901952 0.90771431
-0.11478512 -0.10905383 0.90800011
0.0438531 -0.10757577 0.90654546
-0.013532226 -0.084112071 0.90800005
-0.0041923369 -0.082095504 0.90800005
0.0015920267 -0.081193358 0.90800005
0.018308306 -0.080397345 0.90800005
0.032636546 -0.086765453 0.90800005
-0.0023864119 -0.077787511 0.90671438
0.0043730321 -0.076899335 0.90662503
0.013532227 -0.077213295 0.90800005
-0.031653978 -0.0663286 0.90720004
-0.026505413 -0.063229635 0.90581256
-0.01979075 -0.06095551 0.90300006
-0.023063598 -0.058735412 0.90714294
-0.018129842 -0.055515546 0.90471423
-0.19230691 -0.15063719 0.91400003
-0.1890707 -0.15077791 0.91000003
-0.19122466 -0.14703278 0.91650003
-0.18656413 -0.14403589 0.91278571
-0.0040148734 -0.14377521 0.91585213
0.0035790107 -0.14347337 0.9129566
0.010370967 -0.1412047 0.91000003
-0.18108894 -0.13841514 0.91266674
-0.17511681 -0.13393676 0.91358823
-0.16846749 -0.13094091 0.91075003
-0.0013413 -0.13869043 0.91800004
0.0052392106 -0.13528523 0.91440004
0.011833326 -0.13308032 0.91100001
-0.16464305 -0.12633622 0.91500008
-0.158181 -0.12171236 0.91220009
-0.017705159 -0.12152178 0.91800004
0.0038698497 -0.12563702 0.91899991
0.014488889 -0.1251279 0.91563916
0.022317462 -0.12207193 0.91227269
-0.1383473 -0.11179306 0.91220009
-0.032536108 -0.11324404 0.9180001
-0.024812015 -0.1145135 0.91674227
-0.014661941 -0.11461677 0.91729409
-0.0049313903 -0.11545296 0.91899991
0.0050404649 -0.1147023 0.91799968
0.014486039 -0.11508352 0.91799963
0.024672428 -0.11511259 0.91576105
0.033301644 -0.11323097 0.91173333
-0.1151086 -0.10576144 0.91260004
-0.10750709 -0.10740085 0.91473335
-0.033653103 -0.10496919 0.91400021
-0.024848474 -0.10500921 0.91434729
-0.014623747 -0.10471799 0.91623676
-0.004823274 -0.10451078 0.91699994
0.0048271464 -0.10459279 0.91774982
0.014475446 -0.10455641 0.91741645
0.025096336 -0.10473155 0.91566688
0.035272155 -0.10501654 0.91445279
0.042996619 -0.10305014 0.91273689
-0.033296503 -0.097168162 0.91299999
-0.02448627 -0.094818346 0.91218919
-0.01456821 -0.094421886 0.91378415
-0.0048095882 -0.094598278 0.91444463
0.0048135091 -0.094669558 0.91513932
0.014427425 -0.094584659 0.91430581
0.024845362 -0.094577231 0.91423833
0.035040956 -0.094719537 0.9133237
0.041861415 -0.096258789 0.91244441
-0.023184327 -0.088746727 0.912
-0.014536713 -0.086992249 0.91119993
-0.0049160235 -0.08686544 0.91078937
0.0051950989 -0.085126624 0.91171873
0.014580224 -0.084660165 0.91170263
0.024330579 -0.08584635 0.9124195
0.03211125 -0.087709449 0.91120005
0.0079776663 -0.078978896 0.91000003
0.013739314 -0.078447051 0.90999997
-0.021863187 -0.13036938 0.92366672
-0.013776816 -0.13089247 0.92450011
-0.0045366162 -0.13416468 0.92278808
0.00080653332 -0.13307799 0.92000002
-0.023562552 -0.12412461 0.92256683
-0.014256069 -0.12542661 0.92175007
-0.0049650893 -0.12457218 0.92182869
-0.025002532 -0.1185604 0.92000002
