# .PCD v0.7 - Point Cloud Data file format
VERSION 0.7
FIELDS x y z
SIZE 4 4 4
TYPE F F F
COUNT 1 1 1
WIDTH 703
HEIGHT 1
VIEWPOINT 0 0 0 1 0 0 0
POINTS 703
DATA ascii
-0.12382641 -0.17144345 0.79542869
-0.12293087 -0.16857444 0.7942223
-0.11902854 -0.16914582 0.79400003
-0.12363038 -0.14091955 0.79675001
-0.11486688 -0.14328523 0.79660881
-0.10928351 -0.14687148 0.79400003
-0.13111602 -0.13666473 0.79133338
-0.12501875 -0.13554904 0.7939024
-0.11721476 -0.13638945 0.79447061
-0.13088195 -0.18040484 0.80700004
-0.12946701 -0.18040484 0.80700004
-0.13307318 -0.17471191 0.80168968
-0.12809505 -0.17435323 0.80163646
-0.13535734 -0.16902134 0.80000001
-0.11234078 -0.16466309 0.80363649
-0.10748135 -0.16396217 0.80360883
-0.11460909 -0.15489087 0.80487102
-0.12210867 -0.14580847 0.80345464
-0.11667269 -0.14749642 0.80171436
-0.13081971 -0.182721 0.81100005
-0.124984 -0.18296717 0.81750011
-0.11859133 -0.18234479 0.81842864
-0.12327723 -0.17609659 0.81676483
-0.11759604 -0.17514391 0.81651992
-0.12299524 -0.16489914 0.81740004
-0.11725289 -0.16510448 0.81333333
-0.10666191 -0.16178896 0.81814295
-0.12245937 -0.15495434 0.81450003
-0.11845081 -0.15793458 0.81150007
-0.10900123 -0.15919828 0.81800002
-0.13590349 -0.21003267 0.82900006
-0.10465296 -0.21003267 0.82900006
-0.13380335 -0.20426437 0.82860011
-0.12702091 -0.20292661 0.82900006
-0.11258022 -0.20155355 0.82850003
-0.10517529 -0.20513834 0.82790911
-0.099325456 -0.20952596 0.82700002
-0.13084768 -0.1957975 0.82884628
-0.12513588 -0.19453284 0.82700008
-0.11537153 -0.19543916 0.82706064
-0.108882 -0.19889024 0.82800007
-0.13147283 -0.1878197 0.82400006
-0.12360529 -0.18721096 0.82212502
-0.1175087 -0.18767904 0.82233334
-0.12674527 -0.1709912 0.82300001
-0.14746113 -0.16198853 0.82860005
-0.13441232 -0.16233552 0.82682604
-0.12784043 -0.16415747 0.82385713
-0.10255769 -0.16262947 0.82147068
-0.095270634 -0.16293138 0.82499999
-0.086922593 -0.1609641 0.82800007
-0.27137095 -0.15305494 0.82900012
-0.26533395 -0.15374629 0.82874388
-0.25813076 -0.15268499 0.82900012
-0.1475316 -0.15915971 0.82900006
-0.13493414 -0.1565329 0.82847846
-0.12804681 -0.15607472 0.82466662
-0.11124013 -0.15573174 0.82455552
-0.10444385 -0.15521893 0.82512254
-0.094795652 -0.15485154 0.8254289
-0.085107625 -0.15422851 0.82730424
-0.078853093 -0.15189214 0.82900006
-0.27108023 -0.14898512 0.82900006
-0.26523867 -0.14726318 0.82891333
-0.25756258 -0.14665951 0.82900012
-0.10189128 -0.14811301 0.82900012
-0.09471041 -0.14755134 0.82868433
-0.086880445 -0.14806017 0.82900012
-0.25945213 -0.13735701 0.82900006
-0.13198856 -0.22334076 0.8384285
-0.12847142 -0.22384427 0.83900005
-0.13372956 -0.21545297 0.83559257
-0.12573464 -0.21452728 0.83532435
-0.1150631 -0.2118075 0.83599997
-0.1045388 -0.21509843 0.83514279
-0.098004751 -0.21542668 0.83533335
-0.13271631 -0.20537019 0.8311429
-0.12389492 -0.20556308 0.83260006
-0.11509026 -0.20521948 0.83233339
-0.10781948 -0.20762533 0.83100003
-0.14277266 -0.19446018 0.83885711
-0.13622898 -0.19512746 0.8354286
-0.12238967 -0.19888324 0.83100003
-0.11874713 -0.19888324 0.83100003
0.01544599 -0.19785577 0.83900005
-0.26405287 -0.18020321 0.83900005
-0.15813752 -0.18020321 0.83900005
-0.013212329 -0.18439028 0.83729994
-0.0070219049 -0.18316381 0.83833331
-0.28199092 -0.17183954 0.83766669
-0.2744036 -0.17373896 0.83771425
-0.26499468 -0.17470983 0.83733338
-0.25521547 -0.17488508 0.83860999
-0.24514303 -0.17414822 0.83881843
-0.23904508 -0.17211246 0.83900005
-0.17309169 -0.17183231 0.83814287
-0.16523971 -0.17161305 0.83855569
-0.15723856 -0.17391041 0.83899999
-0.13221185 -0.17102714 0.8355
-0.10357048 -0.17304721 0.83862495
-0.095971204 -0.17241552 0.83842856
-0.088998325 -0.17211246 0.83900005
-0.014207936 -0.17570452 0.83780009
-0.0069995984 -0.17560737 0.83766669
-0.29053172 -0.16107962 0.83900005
-0.28433046 -0.16483219 0.83805895
-0.27483886 -0.16519798 0.83377773
-0.264799 -0.16503637 0.83253485
-0.25479874 -0.16529959 0.83402324
-0.24477179 -0.16543056 0.83602226
-0.23812766 -0.16456677 0.83836365
-0.20226891 -0.16107962 0.83900005
-0.19405557 -0.16310231 0.83900005
-0.18829396 -0.16107962 0.83900005
-0.1738358 -0.1649157 0.83541173
-0.16477837 -0.16512898 0.83619153
-0.15542436 -0.16485006 0.83427781
-0.14934455 -0.16245773 0.83100003
-0.13286217 -0.16786501 0.8318001
-0.10311546 -0.16893384 0.83420008
-0.093823247 -0.1684427 0.83660007
-0.087285317 -0.16578424 0.8355
-0.01103285 -0.16990589 0.83900005
-0.0080907568 -0.16990589 0.83900005
-0.28519368 -0.15455592 0.83656543
-0.27518341 -0.15565267 0.83137488
-0.26359919 -0.15881519 0.83100003
-0.25437486 -0.15558888 0.83099979
-0.24530853 -0.15514736 0.83282167
-0.23707803 -0.15433721 0.83772731
-0.22359909 -0.15115005 0.83900005
-0.21508366 -0.15243763 0.83890915
-0.2047984 -0.15474732 0.83851141
-0.19483799 -0.1551002 0.83743513
-0.18503755 -0.15497202 0.83668178
-0.17439559 -0.15522388 0.8347072
-0.16497838 -0.15526488 0.83325016
-0.15477075 -0.15483098 0.83325011
-0.14613503 -0.15328385 0.83425927
-0.13493001 -0.15250795 0.83194751
-0.12925661 -0.1511645 0.83300006
-0.11195647 -0.1515297 0.83157146
-0.10781948 -0.15153009 0.83100003
-0.075765043 -0.15080157 0.83100003
-0.2841076 -0.14517875 0.83754551
-0.27468467 -0.14484675 0.83226311
-0.26450741 -0.14270054 0.83099997
-0.25465474 -0.1445283 0.83099979
-0.2452756 -0.14501081 0.83214831
-0.23491105 -0.1452038 0.83572733
-0.22520469 -0.14468478 0.83813667
-0.21525605 -0.14488626 0.83726102
-0.20482172 -0.14528905 0.83602542
-0.19512615 -0.14454059 0.83571404
-0.18475202 -0.14507931 0.8338443
-0.17454284 -0.14522004 0.83374512
-0.16509447 -0.14475511 0.83526933
-0.1548496 -0.14498872 0.83464921
-0.14509754 -0.14478843 0.83779091
-0.13622414 -0.1473158 0.83418196
-0.11337772 -0.14550529 0.83528572
-0.10521079 -0.14414845 0.8345322
-0.095155932 -0.14276303 0.83368564
-0.084923938 -0.14431588 0.83440006
-0.075421944 -0.14610052 0.83526671
-0.068190984 -0.14737959 0.83640003
-0.28242207 -0.13542688 0.83836836
-0.27486706 -0.13528211 0.83523822
-0.26469401 -0.13492736 0.83176607
-0.25464812 -0.13498268 0.83230633
-0.24494939 -0.13504148 0.83342558
-0.23457234 -0.13517331 0.8327648
-0.22489461 -0.13492471 0.83499968
-0.21446857 -0.13514689 0.83571082
-0.20463958 -0.13491234 0.83593869
-0.19484159 -0.13527411 0.83729637
-0.18467252 -0.13499083 0.83633351
-0.17538098 -0.13574587 0.8372224
-0.16601861 -0.13671876 0.83862978
-0.15545227 -0.13807023 0.83852929
-0.14784019 -0.1384255 0.83900005
-0.1320444 -0.13694322 0.83833337
-0.12914351 -0.13648123 0.83700001
-0.094882511 -0.13901392 0.83900005
-0.2714515 -0.12892917 0.838
-0.26447204 -0.12668802 0.83676469
-0.25489059 -0.1260858 0.83700031
-0.24489118 -0.12550981 0.83704567
-0.23549499 -0.1261332 0.83709317
-0.22516297 -0.12716477 0.83760607
-0.21518829 -0.12766294 0.8377586
-0.20700674 -0.12812325 0.83833325
-0.18755844 -0.12871659 0.83900005
-0.23757404 -0.1198903 0.83900005
-0.12607712 -0.23122382 0.847
-0.10172752 -0.2309289 0.84700006
-0.078150451 -0.23147419 0.84900004
-0.13713345 -0.22155166 0.84100002
-0.12402005 -0.22502479 0.84425712
-0.11481503 -0.22467697 0.847049
-0.10490626 -0.22504738 0.8437646
-0.094127297 -0.22453249 0.84485018
-0.087056965 -0.22694618 0.84876478
-0.02461154 -0.22230218 0.84737509
-0.01554856 -0.22115989 0.84466678
-0.12147075 -0.21770422 0.84180003
-0.11567415 -0.21678014 0.84271419
-0.10837966 -0.21897118 0.84100002
-0.094215363 -0.21811378 0.84125006
-0.02430675 -0.21579596 0.84686679
-0.015717598 -0.21469826 0.84313345
-0.0064944816 -0.21361239 0.84469235
-0.16151093 -0.20021401 0.84900004
-0.1533792 -0.20099676 0.84871435
-0.14491124 -0.2035571 0.84680021
-0.13934529 -0.20201381 0.84100002
-0.021799779 -0.20931089 0.84766674
-0.01420723 -0.20684054 0.84672409
-0.0051796134 -0.20485963 0.84361213
0.0050056055 -0.20424074 0.84313637
0.013752168 -0.20306823 0.84123516
-0.26137292 -0.19083193 0.84700006
-0.25558543 -0.19300805 0.8480435
-0.24451451 -0.19322163 0.84800017
-0.23636301 -0.19281061 0.84823829
-0.22785906 -0.19192049 0.84900004
-0.20095831 -0.19128253 0.84900004
-0.19406101 -0.19257352 0.84812504
-0.18512982 -0.19420935 0.84754068
-0.17457406 -0.19276308 0.84836382
-0.16450492 -0.19380024 0.84724015
-0.15474187 -0.19463684 0.84373337
-0.14576986 -0.19462356 0.84168947
-0.13934529 -0.19095466 0.84100002
-0.1127313 -0.19311461 0.84900004
-0.10502134 -0.19364473 0.84760004
-0.094051652 -0.19447348 0.84768754
-0.088163018 -0.19381213 0.84866673
-0.012081226 -0.19531251 0.84366679
-0.0051742946 -0.1950831 0.84290475
0.0042678677 -0.19582444 0.84312934
0.013167532 -0.197834 0.84114277
-0.27247545 -0.18309475 0.84383339
-0.2647979 -0.18556964 0.84555554
-0.25471255 -0.18498676 0.84384227
-0.24493173 -0.18479943 0.84358543
-0.23516227 -0.1848719 0.84633356
-0.22625045 -0.18449438 0.84894782
-0.21515034 -0.18305704 0.84857166
-0.20456806 -0.18440138 0.84835327
-0.19484502 -0.18449475 0.84589368
-0.18476592 -0.18476567 0.84642869
-0.17441025 -0.18516146 0.84474361
-0.16536799 -0.18482248 0.84442848
-0.15460761 -0.18492326 0.84216964
-0.14637175 -0.18597537 0.84538883
-0.13830556 -0.18661575 0.84366673
-0.11351734 -0.18525647 0.8459335
-0.10493007 -0.1847356 0.84288889
-0.095534004 -0.18511476 0.84304434
-0.089361504 -0.18560675 0.8444286
-0.01105915 -0.18800555 0.84100002
-0.0036362258 -0.18653131 0.8417142
0.0036612893 -0.18434662 0.84493744
-0.27494749 -0.17895074 0.84233332
-0.25141135 -0.17915823 0.84100002
-0.2445301 -0.1786667 0.84100002
-0.23502763 -0.17506604 0.84408331
-0.22511949 -0.17459863 0.84748989
-0.21483484 -0.17521267 0.84610528
-0.20486589 -0.1745868 0.84455013
-0.19478311 -0.17452681 0.84278941
-0.18509239 -0.17473495 0.84454542
-0.17489845 -0.17612065 0.84203452
-0.16510074 -0.17617421 0.84200001
-0.15433556 -0.17709871 0.84236354
-0.14507781 -0.17855917 0.84866673
-0.13517234 -0.17631496 0.84447378
-0.11345608 -0.17889048 0.84271431
-0.10571144 -0.17754324 0.84099978
-0.094537221 -0.17675093 0.84107119
-0.088272117 -0.17553887 0.84099996
-0.023331404 -0.1720718 0.84576929
-0.017359344 -0.1724572 0.84139991
-0.0022178073 -0.17372815 0.84363645
0.0030218028 -0.17574948 0.84507698
-0.23315015 -0.1650604 0.84322858
-0.22509538 -0.16473489 0.84563154
-0.21460079 -0.16528443 0.84253848
-0.2051214 -0.1656778 0.84147036
-0.19633245 -0.16727506 0.84099984
-0.1850355 -0.16548297 0.84174985
-0.17915823 -0.16588724 0.84099996
-0.021880038 -0.16529988 0.84786963
-0.015168648 -0.16561736 0.84448719
-0.0077637602 -0.16773379 0.84350008
-0.23317328 -0.15606529 0.84169996
-0.22548077 -0.1555578 0.8420555
-0.21497758 -0.15808439 0.84099978
-0.20791203 -0.15998903 0.84100002
-0.18358189 -0.15998903 0.84100002
-0.062331438 -0.15064597 0.84650004
-0.058054619 -0.15109088 0.84900004
-0.28748268 -0.14115474 0.84300005
-0.22634393 -0.14966716 0.84100002
-0.14376895 -0.14081985 0.84100002
-0.13934529 -0.14081985 0.84100002
-0.12190115 -0.14113478 0.8440001
-0.11674417 -0.14164084 0.84149998
-0.083351888 -0.14088681 0.84140003
-0.073364429 -0.14126962 0.84193319
-0.064190097 -0.1442066 0.84508699
-0.056980714 -0.14492738 0.84891319
-0.28298274 -0.13111866 0.84500003
-0.2779533 -0.13049796 0.84100002
-0.19832742 -0.13049796 0.84100002
-0.18210733 -0.13049796 0.84100002
-0.17418161 -0.13068227 0.84100002
-0.16445805 -0.13243876 0.8422727
-0.15488924 -0.13357088 0.84259987
-0.1446687 -0.1344644 0.84382612
-0.13583913 -0.13460584 0.84358543
-0.12569928 -0.13544396 0.84689772
-0.11491667 -0.13584037 0.84617388
-0.10507357 -0.1360006 0.84568161
-0.095577806 -0.13645107 0.84356004
-0.084547631 -0.13742854 0.84424144
-0.075571179 -0.13669108 0.84512508
-0.064816549 -0.1378141 0.84758824
-0.056850605 -0.13795891 0.8488
-0.28216454 -0.12845825 0.84700006
-0.27532858 -0.12479464 0.84505403
-0.26590097 -0.12202268 0.84487498
-0.25511819 -0.12095059 0.84172726
-0.24606608 -0.12036041 0.84100002
-0.23387502 -0.12152166 0.84157133
-0.22486244 -0.12188864 0.84172726
-0.21471874 -0.12243355 0.84188879
-0.20457569 -0.1238118 0.84327024
-0.19514675 -0.12498508 0.84365302
-0.18536216 -0.12554871 0.84490693
-0.1750721 -0.12706853 0.84448403
-0.16509621 -0.1278045 0.84684628
-0.15600877 -0.12855335 0.84763163
-0.13486044 -0.12789667 0.84742117
-0.12890156 -0.12865639 0.84666663
-0.27206719 -0.118704 0.8484
-0.26189977 -0.11924683 0.84750009
-0.25482169 -0.11812801 0.84688902
-0.24525976 -0.11849715 0.84557146
-0.23447557 -0.11830431 0.84675002
-0.2251284 -0.11753193 0.84730786
-0.21490017 -0.11849082 0.84675008
-0.20450629 -0.11898559 0.84828573
-0.19760899 -0.11945855 0.84900004
-0.1218859 -0.24100734 0.85999995
-0.12369723 -0.23384561 0.85221422
-0.11709871 -0.23307878 0.85349995
-0.097801462 -0.23199387 0.85420007
-0.084377199 -0.2311049 0.85175002
-0.077726252 -0.23150784 0.85462493
-0.035352461 -0.23091926 0.85800004
-0.12011298 -0.22605112 0.85100001
-0.1171288 -0.22605112 0.85100001
-0.094000764 -0.22372499 0.8524
-0.083806299 -0.22435409 0.85397381
-0.07805533 -0.22689873 0.8574999
-0.033493049 -0.22461277 0.8562308
-0.028498858 -0.22485745 0.85100001
-0.014224793 -0.22535068 0.85400003
-0.14450301 -0.21136637 0.85700005
-0.032059152 -0.21840034 0.85537505
-0.027798809 -0.21433654 0.85188884
-0.252345 -0.20094566 0.85720003
-0.24513316 -0.20154671 0.85720003
-0.23412021 -0.2035227 0.85686684
-0.22597429 -0.2036294 0.85778558
-0.21518908 -0.20205989 0.85715789
-0.2052884 -0.20221701 0.85690916
-0.19533429 -0.20254959 0.85719991
-0.18474706 -0.20442063 0.85606897
-0.17501304 -0.20527516 0.85680002
-0.16534062 -0.20548494 0.85605723
-0.15576909 -0.20547368 0.85443491
-0.14687103 -0.20831594 0.85475004
-0.11240818 -0.20286393 0.85624999
-0.10567643 -0.20304446 0.85494995
-0.094015487 -0.20304745 0.85431582
-0.087585486 -0.2012825 0.85100001
-0.021308258 -0.20708203 0.85274994
-0.016364062 -0.20401023 0.85146147
-0.26186121 -0.19322522 0.85100001
-0.25357386 -0.19754548 0.8540833
-0.24583296 -0.19809431 0.85327268
-0.23463075 -0.19702876 0.85188228
-0.22465959 -0.19502899 0.85365725
-0.21512532 -0.19488215 0.85458553
-0.20538945 -0.19491775 0.85358846
-0.19572344 -0.1973113 0.85293746
-0.18303521 -0.19917604 0.85220003
-0.17561211 -0.19803329 0.85242099
-0.16601501 -0.19857918 0.85127264
-0.12011298 -0.1909871 0.85100001
-0.1161079 -0.19510996 0.85099995
-0.10495358 -0.19871484 0.85127264
-0.09673696 -0.19894491 0.85100001
-0.086434446 -0.19706202 0.85099995
-0.22240382 -0.18775423 0.85099995
-0.21461372 -0.18798946 0.85149997
-0.20784768 -0.18815212 0.85100001
-0.12061033 -0.1882516 0.85100001
-0.11862089 -0.18800291 0.85100001
0.0062170275 -0.18675952 0.85100001
-0.027603604 -0.17084393 0.85100001
0.0014920867 -0.17084393 0.85100001
-0.032684438 -0.16135871 0.85212499
-0.026488597 -0.16378118 0.85112494
-0.014048494 -0.16142862 0.85249996
-0.005780342 -0.16605724 0.85290909
-0.06042951 -0.15293889 0.85100001
-0.054182909 -0.1531989 0.85133326
-0.044939101 -0.15427721 0.85327029
-0.035150986 -0.15479915 0.85304087
-0.024864461 -0.15504484 0.85280454
-0.016542232 -0.15778948 0.85519999
-0.05289055 -0.14571403 0.85099995
-0.046007164 -0.14565904 0.85327929
-0.036211424 -0.14785561 0.85699999
-0.028582841 -0.14968382 0.85800004
-0.14498109 -0.13055758 0.85100001
-0.12331031 -0.13183652 0.85099995
-0.11862089 -0.13204966 0.85100001
-0.10295398 -0.13204966 0.85100001
-0.052223034 -0.13876405 0.85100001
-0.049984902 -0.1395101 0.85100001
-0.26782957 -0.12011298 0.85100001
-0.19264683 -0.12021884 0.85175002
-0.18475041 -0.12171875 0.85389996
-0.17459147 -0.12426174 0.85474992
-0.1652486 -0.12458922 0.85099995
-0.1532159 -0.1267793 0.85481817
-0.14587249 -0.12720123 0.85430771
-0.1395101 -0.12608132 0.85100001
-0.27101976 -0.11604436 0.85400003
-0.26526853 -0.11656687 0.85236359
-0.25543225 -0.11432239 0.85407692
-0.24494629 -0.11451193 0.85505724
-0.23585173 -0.11379591 0.85535288
-0.22576971 -0.11400566 0.85458815
-0.21503928 -0.11594059 0.85499996
-0.20605789 -0.11631277 0.85393745
-0.19615144 -0.11869424 0.85511112
-0.11622715 -0.24164744 0.86183327
-0.12258955 -0.23839371 0.86000001
-0.11616044 -0.23850489 0.86040008
-0.072706014 -0.23320696 0.86046153
-0.064897873 -0.23250996 0.86258841
-0.055323713 -0.23234209 0.86447364
-0.044639494 -0.23150878 0.86300009
-0.038036231 -0.23149203 0.86200005
-0.16220945 -0.22492655 0.86777782
-0.15550062 -0.22368392 0.8655163
-0.14810425 -0.22147703 0.8646
-0.095488764 -0.22050285 0.86381811
-0.084687904 -0.22068091 0.86181813
-0.073978543 -0.22440064 0.86276597
-0.065181248 -0.2252669 0.86314291
-0.055107739 -0.22530025 0.86575615
-0.045167912 -0.22464144 0.86344433
-0.038456187 -0.22498807 0.86012495
-0.22302961 -0.21123739 0.86240005
-0.2153707 -0.21083656 0.86200005
-0.20405555 -0.21235058 0.86484623
-0.19554429 -0.21290089 0.86684209
-0.18361999 -0.21240833 0.86155576
-0.17504948 -0.21388787 0.86326927
-0.16484988 -0.21432321 0.86517411
-0.15478526 -0.21499267 0.86443752
-0.14713642 -0.21643141 0.86449993
-0.10344184 -0.21386385 0.86866683
-0.094786555 -0.21558698 0.86707687
-0.085295118 -0.21631798 0.86560017
-0.07524693 -0.21966022 0.86700004
-0.041037206 -0.21860139 0.86683339
-0.035254396 -0.21689038 0.8626191
-0.02805947 -0.21460362 0.86500001
-0.2506361 -0.20378351 0.86200005
-0.24515153 -0.20466962 0.8609091
-0.22341783 -0.20740639 0.86030769
-0.21517213 -0.20747991 0.86029989
-0.20501265 -0.20763734 0.8612631
-0.19535978 -0.20714685 0.8617335
-0.18787611 -0.20900142 0.86066675
-0.10418965 -0.20819345 0.86200011
-0.096242659 -0.20835958 0.8621667
-0.089718066 -0.20883954 0.86000001
-0.011309 -0.1605878 0.86000001
-0.0098011335 -0.1605878 0.86000001
-0.022698434 -0.15097558 0.86325002
-0.015393917 -0.15605858 0.86080009
-0.042220265 -0.1424934 0.86000001
-0.034647491 -0.14475758 0.86195248
-0.026275294 -0.14728406 0.86523533
-0.18265735 -0.12141832 0.86240005
-0.17521578 -0.12218065 0.86566669
-0.16533923 -0.12485871 0.86712503
-0.15680636 -0.12586926 0.86408347
-0.25306463 -0.11167035 0.86362499
-0.24672848 -0.11091411 0.86066675
-0.23296539 -0.1108282 0.86000001
-0.22445643 -0.11180423 0.8627646
-0.21584144 -0.11231562 0.86250001
-0.20486602 -0.11352149 0.86446679
-0.1952671 -0.11694461 0.86552179
-0.1854475 -0.11850662 0.86568421
-0.17623058 -0.11805241 0.86792302
-0.25117204 -0.10923675 0.86733335
-0.2452413 -0.1089542 0.86363637
-0.23525622 -0.10949533 0.86287504
-0.22846925 -0.10906961 0.86200005
-0.21344027 -0.10937329 0.86520004
-0.20842808 -0.10915318 0.86666673
-0.16517299 -0.22242337 0.87225014
-0.10079212 -0.22067365 0.87100005
-0.071481429 -0.22097588 0.87675005
-0.064893901 -0.22133039 0.87360013
-0.054584157 -0.22094516 0.8745001
-0.047397859 -0.220927 0.87200004
-0.16520619 -0.21914399 0.87185723
-0.15958752 -0.2191465 0.87100005
-0.1039265 -0.21778591 0.87166673
-0.063886203 -0.21936829 0.87800002
-0.055811089 -0.21916534 0.87616676
-0.045783147 -0.21817562 0.87400013
-0.038942412 -0.2160922 0.87100005
-0.016387383 -0.15390687 0.87633342
-0.022159502 -0.14748426 0.87166673
-0.17052811 -0.12147509 0.87425005
-0.16539487 -0.12317812 0.8746472
-0.15818252 -0.12354016 0.87166673
-0.22271103 -0.11097285 0.87300003
-0.20338175 -0.11094496 0.87280005
-0.19420494 -0.11273055 0.87296164
-0.18573628 -0.11522056 0.87428582
-0.17531559 -0.11750686 0.87325007
-0.21866801 -0.10848856 0.87520009
-0.20281245 -0.10944219 0.87300003
-0.19560625 -0.10969292 0.87500012
-0.071146183 -0.22068095 0.88533336
-0.063289195 -0.22091277 0.88575011
-0.059639193 -0.22073634 0.88350004
-0.066959806 -0.21974702 0.88200009
-0.054856319 -0.21902093 0.88125008
-0.0038880166 -0.17029513 0.88700002
-0.010029066 -0.16123654 0.88000005
-0.0041885376 -0.1645648 0.88599992
-0.012689954 -0.15383378 0.88353831
-0.0069873836 -0.15705006 0.88600004
-0.051767603 -0.14285152 0.88800007
-0.044927713 -0.14315781 0.88686949
-0.035464786 -0.1434115 0.88587505
-0.024167404 -0.14562589 0.88652384
-0.017762788 -0.1471291 0.88613337
-0.045202687 -0.13898526 0.889
-0.03974719 -0.13950484 0.88900006
-0.17301455 -0.12025675 0.88500005
-0.16582879 -0.12141921 0.88344455
-0.19055226 -0.11031973 0.88000005
-0.083710559 -0.22121631 0.89800006
-0.075159252 -0.22127408 0.89611119
-0.064625524 -0.2205594 0.89533335
-0.054592226 -0.2211155 0.89600003
-0.045636199 -0.22109315 0.89750004
-0.03761952 -0.22023094 0.89400005
-0.02834088 -0.22121631 0.89800006
-0.084235393 -0.21964182 0.89800006
-0.074472249 -0.21921635 0.89733344
-0.067060836 -0.21923745 0.89475
-0.041642763 -0.21960434 0.89625007
-0.039205849 -0.21956687 0.89450002
-0.02834088 -0.21964182 0.89800006
0.006297973 -0.18185398 0.89800006
-0.0015633159 -0.17208639 0.89225
0.0035230562 -0.17429437 0.8967827
-0.0013027267 -0.16082801 0.89200002
0.0022540269 -0.16598381 0.8962
-0.010171525 -0.15178913 0.89250004
-0.0045640059 -0.15461498 0.89527279
-0.061405241 -0.14091715 0.89800006
-0.055352572 -0.14154245 0.89381814
-0.04920993 -0.14138091 0.89100003
-0.031870667 -0.14136216 0.89212501
-0.025085248 -0.14153919 0.8925882
-0.014449751 -0.14507566 0.89453572
-0.0077034459 -0.14858939 0.89680004
-0.061142828 -0.13881783 0.89800006
-0.054469611 -0.13792005 0.89631581
-0.045236878 -0.13711777 0.8943001
-0.03514469 -0.13704291 0.89506906
-0.025474591 -0.13754971 0.89658821
-0.018489338 -0.13887145 0.89750004
-0.083173171 -0.22264849 0.90166664
-0.078267924 -0.22499947 0.90180004
-0.064374946 -0.22037558 0.90100002
-0.055404205 -0.22082691 0.90100002
-0.047888618 -0.22079007 0.90139997
-0.033613641 -0.22107768 0.90100002
-0.026065931 -0.22037558 0.90100002
-0.091854319 -0.21781345 0.90480006
-0.085087739 -0.21515091 0.90352648
-0.075262234 -0.2157636 0.90370291
-0.065499999 -0.21739624 0.90491319
-0.054541122 -0.21757136 0.90495843
-0.044390079 -0.2171234 0.90477788
-0.034704402 -0.21656261 0.9028461
-0.025416201 -0.21512803 0.90420002
-0.017948085 -0.21188429 0.90590012
-0.02149236 -0.20855549 0.90800005
-0.017013647 -0.2076441 0.90680009
0.0071313907 -0.18081951 0.90333337
-0.083183393 -0.17193888 0.90800005
-0.077213295 -0.17193888 0.90800005
0.0080021331 -0.17505175 0.90427279
0.011405725 -0.17214137 0.90766668
-0.080397345 -0.16636679 0.90800005
-0.074472025 -0.16696696 0.90892303
-0.066061392 -0.16578406 0.90900004
-0.05492492 -0.16716279 0.90800005
-0.048556812 -0.16795881 0.90800005
0.006039727 -0.16443239 0.90411538
0.011581517 -0.16610503 0.90657151
-0.0017988402 -0.15272865 0.90354544
0.0044334037 -0.15571515 0.90717173
0.010348173 -0.15999869 0.90800005
-0.095265403 -0.14241745 0.90555012
-0.085471496 -0.14124693 0.90654558
-0.074112751 -0.14167908 0.90412503
-0.066166528 -0.14260942 0.90206665
-0.059240751 -0.14296767 0.90100002
-0.012483059 -0.14195527 0.90307689
-0.0054945755 -0.14548606 0.9057309
0.0053014955 -0.14768444 0.90733337
-0.074765109 -0.13713288 0.90630007
-0.065238722 -0.13743801 0.90457904
-0.05469979 -0.13405347 0.90430009
-0.044687305 -0.13397147 0.90364707
-0.034894641 -0.1324425 0.90466666
-0.025425378 -0.1347395 0.90446663
-0.015482239 -0.13715954 0.90594995
-0.083591618 -0.21110688 0.91100001
-0.073887222 -0.21164232 0.91163635
-0.064484425 -0.21304704 0.91279328
-0.054772329 -0.21320704 0.91372424
-0.045186725 -0.21251281 0.91362518
-0.035630904 -0.21235043 0.91407716
-0.027402848 -0.21172518 0.91200006
-0.091880903 -0.20309795 0.91488892
-0.084902093 -0.20550403 0.91320002
-0.075436689 -0.2053756 0.91320497
-0.065023854 -0.20550868 0.91571474
-0.054860901 -0.2050934 0.91744715
-0.04499916 -0.20484094 0.9173997
-0.035325516 -0.20469964 0.91743231
-0.025132392 -0.2051287 0.91437531
-0.018392686 -0.20453116 0.91225004
-0.091853574 -0.19562581 0.91406256
-0.084842049 -0.19529684 0.91299999
-0.075230211 -0.19527937 0.91291672
-0.064784139 -0.19507328 0.91474515
-0.054466818 -0.1944329 0.91507941
-0.044994686 -0.19445759 0.9165836
-0.035296019 -0.19487379 0.9178375
-0.025424479 -0.19568424 0.91613972
-0.018409124 -0.19849837 0.91300005
0.00882365 -0.19010955 0.91500002
0.012646659 -0.19228104 0.91476923
-0.091154285 -0.18544202 0.91427273
-0.084945425 -0.18525508 0.91228944
-0.075002626 -0.18523891 0.91221046
-0.065108463 -0.18462087 0.9143638
-0.0545462 -0.1844945 0.9150005
-0.044983659 -0.1847619 0.91633344
-0.035355214 -0.18480577 0.91652775
-0.028687602 -0.187949 0.91750008
0.0088091847 -0.18579504 0.91350007
0.011894262 -0.1847194 0.91266668
-0.084127687 -0.17589153 0.91021425
-0.074756064 -0.17603245 0.9106428
-0.064844787 -0.17532633 0.91320008
-0.054554142 -0.17529501 0.9138388
-0.044932462 -0.17573047 0.91530019
-0.036268964 -0.17687608 0.91477787
0.012900964 -0.1769397 0.91150004
-0.082476042 -0.16894318 0.91085714
-0.055843662 -0.16928609 0.90999997
-0.047866002 -0.1699243 0.91000003
0.0034569886 -0.15130974 0.91000003
-0.0026308142 -0.14245187 0.91364288
0.002397222 -0.14471444 0.91205263
-0.035196852 -0.13039321 0.91250008
-0.024745103 -0.13220657 0.91400003
-0.014865011 -0.13434842 0.91299999
-0.0067907698 -0.1383346 0.91212505
