# .PCD v0.7 - Point Cloud Data file format
VERSION 0.7
FIELDS x y z
SIZE 4 4 4
TYPE F F F
COUNT 1 1 1
WIDTH 701
HEIGHT 1
VIEWPOINT 0 0 0 1 0 0 0
POINTS 701
DATA ascii
-0.072696425 -0.052425545 0.7973333
-0.067270629 -0.054472256 0.79655576
-0.082959287 -0.044169012 0.79399991
-0.074753366 -0.045928985 0.79517657
-0.067983158 -0.048493113 0.79400009
-0.081440583 -0.039676178 0.79400003
-0.085816026 -0.080142237 0.80900002
-0.062198386 -0.072116286 0.80806673
-0.058865536 -0.070213109 0.80900002
-0.063266724 -0.065387696 0.80672741
-0.058615558 -0.066688411 0.80557156
-0.072356567 -0.056274988 0.80440009
-0.069431998 -0.056807999 0.80000001
-0.08445216 -0.084355086 0.81141394
-0.075995088 -0.084006481 0.81735313
-0.068209052 -0.081132866 0.81900007
-0.087450132 -0.078918412 0.81100005
-0.0730929 -0.07528282 0.8186844
-0.066900045 -0.075243272 0.81541675
0.038187422 -0.072929025 0.81880009
0.045053042 -0.073854767 0.81887895
0.05097729 -0.073952973 0.81900007
-0.073229849 -0.064979851 0.81835729
-0.068115607 -0.065092653 0.81382352
-0.051551681 -0.062177934 0.81900007
-0.046310354 -0.062554874 0.81900018
0.03887403 -0.067798771 0.81900012
0.044073537 -0.066993997 0.81900018
-0.0743898 -0.059037864 0.81700003
-0.05097729 -0.059593171 0.81900007
-0.043576464 -0.058488581 0.81900018
-0.036617495 -0.055847138 0.81900018
0.039971616 -0.11119377 0.82900006
0.043605402 -0.11119377 0.82900006
0.039310928 -0.10643682 0.82900012
0.044916481 -0.10514997 0.82802445
0.051932193 -0.10350166 0.82850003
-0.073402427 -0.090844579 0.82900006
-0.065139078 -0.093262106 0.82787508
-0.058725271 -0.094975434 0.82700002
0.045672696 -0.0953096 0.82774287
0.054290626 -0.094894938 0.82708317
0.06439589 -0.093053147 0.82487094
0.071974337 -0.091407403 0.82100004
-0.072891086 -0.086227342 0.824
-0.067651883 -0.084648691 0.82288885
0.04631247 -0.084972672 0.8243714
0.055101603 -0.084791973 0.82563418
0.06452138 -0.085905001 0.82413632
0.071734421 -0.088288516 0.82100004
-0.073339306 -0.074785098 0.82180005
-0.069815099 -0.078452021 0.82100004
0.035267424 -0.071254589 0.82100004
0.046672586 -0.078673474 0.82100004
0.055038605 -0.074830562 0.82458985
0.061395247 -0.075330734 0.8278001
-0.080685422 -0.064743765 0.82620013
-0.077936105 -0.066325642 0.82125002
-0.062203608 -0.061644297 0.82576913
-0.055478361 -0.064472012 0.82346147
-0.045786671 -0.063896604 0.82157147
-0.038035061 -0.061588023 0.82650006
0.035472702 -0.06408184 0.82330751
0.04665722 -0.0634657 0.82191658
0.05442033 -0.066201746 0.82511759
-0.078452021 -0.059738696 0.82100004
-0.061138973 -0.056124114 0.82754552
-0.05487331 -0.054648031 0.82517034
-0.046086345 -0.054225646 0.82240534
-0.034459215 -0.053938422 0.82138097
-0.028102428 -0.051883761 0.82200003
0.036932927 -0.05711212 0.82766676
0.043962095 -0.058171216 0.82523531
-0.053161241 -0.048076048 0.82840002
-0.0443017 -0.047087554 0.82640749
-0.035314459 -0.045779552 0.82568097
-0.025434075 -0.045527417 0.826042
-0.018932253 -0.045318011 0.82772732
-0.027616754 -0.039971616 0.82900006
0.0087210797 -0.032704052 0.82900006
0.011870358 -0.033188555 0.82900006
-0.051927947 -0.11224087 0.83900005
-0.044561975 -0.11276131 0.8364616
-0.038216822 -0.11391669 0.83833337
0.034012165 -0.11340947 0.83618516
0.045386687 -0.11260131 0.83344442
0.05063013 -0.11079927 0.83700001
-0.08017204 -0.10370879 0.83900005
-0.074136622 -0.10219771 0.83866668
-0.06458316 -0.10184625 0.83711106
-0.055547323 -0.10412122 0.83693558
-0.045606833 -0.10852519 0.83455563
0.035396572 -0.10497579 0.83481252
0.053181231 -0.10563394 0.83100003
-0.07456518 -0.095756881 0.83546656
-0.065986648 -0.097367704 0.8335883
-0.057376955 -0.09798152 0.83200002
0.037825532 -0.09771134 0.83300006
0.040796559 -0.097620338 0.83100003
0.062221415 -0.097358219 0.83500004
-0.044035606 -0.074116886 0.8375808
-0.036833469 -0.074466616 0.83572716
0.05900931 -0.076493546 0.83100003
0.063172229 -0.078366861 0.83099997
-0.090469368 -0.064726055 0.83900005
-0.085367769 -0.065141931 0.83617258
-0.053693205 -0.069874719 0.83900005
-0.043905858 -0.067785218 0.83463633
-0.036905218 -0.065693662 0.83405268
0.029406032 -0.061000511 0.83166671
0.031325929 -0.06046633 0.83100003
0.053472631 -0.061049141 0.83100003
-0.082449622 -0.057817824 0.83722234
-0.079281345 -0.057722799 0.83350003
-0.064489566 -0.053595603 0.83275008
-0.032092135 -0.059080318 0.83200002
-0.00220657 -0.050751109 0.83900005
0.015936339 -0.051976979 0.83900005
0.026191076 -0.054348804 0.83570272
0.034017861 -0.053006086 0.83321422
0.044711888 -0.053771161 0.8350001
0.051739287 -0.0574371 0.83360004
-0.071345761 -0.047809016 0.83900005
-0.064391978 -0.046850346 0.83607697
-0.054987114 -0.043925926 0.8344444
-0.045405194 -0.041950181 0.83290905
-0.035538938 -0.0403313 0.83214295
-0.024633806 -0.040087335 0.83140004
-0.014267934 -0.044268854 0.83363146
-0.0051311278 -0.044738527 0.83663279
0.004529275 -0.046879929 0.83899993
0.015151781 -0.048691642 0.83900005
0.02564236 -0.047456592 0.83826303
0.032844067 -0.04795279 0.83785713
-0.051456388 -0.038223982 0.83850002
-0.043783907 -0.035794742 0.83762503
-0.035126317 -0.03608007 0.83527583
-0.024906715 -0.035721749 0.83570582
-0.016060641 -0.03607187 0.83762497
-0.0070568165 -0.038081527 0.83860016
0.0058789267 -0.033023156 0.83700001
0.01103285 -0.034569595 0.83900005
-0.072196126 -0.12131927 0.84900004
-0.067305081 -0.12195724 0.84900004
-0.05135601 -0.12206356 0.84900004
-0.04507184 -0.12233676 0.84395659
-0.034644909 -0.1225886 0.84569573
-0.029027309 -0.12429643 0.84900004
0.025944365 -0.12084294 0.84566671
-0.080779575 -0.11176273 0.84150004
-0.074387893 -0.11408969 0.84589499
-0.065519921 -0.1143336 0.84500015
-0.055057507 -0.114535 0.84372002
-0.045279503 -0.11775813 0.84149998
-0.03546039 -0.11736075 0.84382367
0.02667555 -0.11521573 0.84538472
0.030596983 -0.11575244 0.84100002
-0.08125443 -0.10507308 0.84344447
-0.075004056 -0.10603398 0.84134465
-0.06523414 -0.10675567 0.84147608
-0.054590914 -0.10755957 0.8423332
-0.048520427 -0.10666885 0.84500003
0.028844962 -0.10871982 0.84366673
0.031805642 -0.10504185 0.84380007
-0.082203805 -0.096619889 0.84780008
-0.078888603 -0.098057799 0.84100002
-0.05135601 -0.090059087 0.84900004
-0.044845708 -0.092588268 0.84829998
-0.034916703 -0.093970887 0.84745181
-0.02828302 -0.092291966 0.84900004
-0.061962146 -0.082430117 0.84900004
-0.05458549 -0.084173642 0.84637505
-0.044964999 -0.084883325 0.84376597
-0.035391826 -0.085879356 0.84619051
-0.028485529 -0.087936379 0.84766674
-0.090685032 -0.070041284 0.84100002
-0.086959191 -0.070700534 0.84300011
-0.060180973 -0.077272467 0.84750003
-0.054457799 -0.075302802 0.8425554
-0.047118679 -0.077414043 0.84099996
-0.13302223 -0.062976666 0.84887505
-0.12532811 -0.063015021 0.84812516
-0.11508571 -0.06455759 0.84762502
-0.10712529 -0.064450316 0.84723103
-0.092524007 -0.064232901 0.8422308
-0.088473201 -0.061931238 0.84100002
-0.13363777 -0.054827675 0.8486926
-0.12609918 -0.055560879 0.84778816
-0.11456677 -0.055401202 0.84842891
-0.10528398 -0.054680035 0.84605557
-0.095003359 -0.05507528 0.84341872
-0.08605516 -0.054617465 0.84225702
0.0057191537 -0.051147141 0.84250003
0.016072631 -0.051756822 0.84099996
0.047298796 -0.051732101 0.84300005
-0.13207014 -0.048709642 0.84900004
-0.12583463 -0.045699414 0.84900033
-0.11503603 -0.04640431 0.84894639
-0.10466308 -0.045955252 0.84839553
-0.095082298 -0.044822223 0.84800035
-0.087968238 -0.043110084 0.84800005
-0.072373584 -0.043779481 0.84194744
-0.065670609 -0.042303063 0.84166658
-0.058244858 -0.040550217 0.84100002
0.0055572479 -0.043719131 0.84146661
0.015525171 -0.044560377 0.84145445
0.024567975 -0.042866454 0.84247822
0.034368794 -0.044870678 0.84442866
0.042669468 -0.048445482 0.84500009
-0.094524838 -0.039447371 0.84900004
-0.086188778 -0.038851939 0.8490001
-0.072157428 -0.036923699 0.84728575
-0.064354867 -0.035363287 0.84670007
-0.055596136 -0.035327345 0.84488249
-0.048427694 -0.034498211 0.84242862
-0.012718023 -0.03299313 0.84100002
-0.0048816688 -0.034091614 0.84238893
0.0046898732 -0.036363687 0.84445453
0.014828816 -0.038182121 0.84575015
0.023659771 -0.037983455 0.84513348
-0.021813219 -0.13012713 0.85800004
-0.081133924 -0.12267389 0.85220003
-0.075776689 -0.12382187 0.85099989
-0.068262964 -0.12496226 0.85100001
-0.053664148 -0.12236626 0.85185713
-0.047000729 -0.12608132 0.85100001
-0.030587776 -0.12309715 0.85100001
-0.024128135 -0.12391678 0.85436136
-0.014760939 -0.12496929 0.85863626
0.017858798 -0.12275809 0.85774994
0.021708898 -0.12184658 0.85400003
-0.076842465 -0.11862089 0.85100001
-0.055953249 -0.11862089 0.85100001
-0.031474527 -0.1176532 0.85483336
-0.025248984 -0.11837137 0.85662496
-0.0188045 -0.11884444 0.85800004
0.018295741 -0.11779507 0.85766667
0.021610001 -0.11296346 0.85719049
-0.091013782 -0.10003994 0.85800004
-0.085371487 -0.10282687 0.8536666
-0.052774563 -0.10105303 0.85387498
-0.046590835 -0.10292505 0.85422218
-0.039865538 -0.1015443 0.85800004
0.026549246 -0.1070785 0.85415375
0.031333819 -0.10295398 0.85100001
-0.1023042 -0.092840746 0.85679996
-0.095187955 -0.094372384 0.85660619
-0.086585559 -0.096160419 0.85360003
-0.063459508 -0.091874339 0.85709089
-0.054687247 -0.094583549 0.85448581
-0.045829874 -0.097400755 0.85304767
-0.035080377 -0.098734185 0.8514545
-0.026111517 -0.091763332 0.85100001
-0.12160244 -0.080984712 0.85800004
-0.11525391 -0.081567451 0.85729402
-0.1042364 -0.084309608 0.85612142
-0.097891062 -0.086609051 0.85413337
-0.083614491 -0.083352402 0.8579129
-0.063887037 -0.086313166 0.85257137
-0.057870302 -0.088484377 0.85175002
-0.14373139 -0.072472945 0.85769218
-0.1348585 -0.073566809 0.85699993
-0.12442331 -0.074094512 0.85600013
-0.11476679 -0.075020753 0.8539753
-0.10650754 -0.075118646 0.8541925
-0.08428207 -0.07601162 0.85774988
-0.078978896 -0.076722361 0.85800004
-0.062667638 -0.079826638 0.85100001
-0.20421687 -0.060926579 0.85800004
-0.16303502 -0.063183114 0.85799986
-0.15476464 -0.064624324 0.85687214
-0.14494503 -0.065339714 0.85665309
-0.13563052 -0.0666328 0.85230428
-0.1253455 -0.068544373 0.8524999
-0.10519211 -0.069382027 0.85100001
-0.20487699 -0.054931052 0.85899991
-0.19323108 -0.053008895 0.85799992
-0.18478557 -0.054574825 0.85799986
-0.17535566 -0.053754888 0.85789472
-0.16527919 -0.054844934 0.85695249
-0.15514632 -0.054716114 0.85493892
-0.14531296 -0.055003155 0.85429269
-0.13869622 -0.054868098 0.85099989
-0.12175427 -0.05326749 0.85099995
-0.11862089 -0.053715117 0.85100001
0.04835343 -0.050858352 0.85733336
0.050396059 -0.05114824 0.85800004
-0.19597137 -0.044975027 0.85899991
-0.18503626 -0.045130797 0.85799986
-0.1751436 -0.045101158 0.85742861
-0.16503094 -0.045007769 0.85566705
-0.15509687 -0.044953302 0.85466683
-0.14442967 -0.045042653 0.8529762
-0.13526572 -0.04486559 0.85141653
-0.12269926 -0.044712856 0.85099989
-0.11547092 -0.041695524 0.85099995
-0.1066842 -0.041281063 0.85100001
0.037419353 -0.043298274 0.85649991
0.043250352 -0.046259068 0.85800004
-0.1918059 -0.039865538 0.85800004
-0.18428411 -0.039364085 0.85799992
-0.17502923 -0.037868641 0.85775983
-0.1651729 -0.038080834 0.85679996
-0.15486935 -0.037617777 0.8569231
-0.14484276 -0.036435366 0.85652655
-0.13489626 -0.035944644 0.85575676
-0.12511587 -0.036985878 0.85459381
-0.1146981 -0.035977155 0.85512507
-0.10481676 -0.03667932 0.85403126
-0.094470859 -0.03497836 0.85428572
-0.086466968 -0.03474614 0.85199994
-0.073803939 -0.032612745 0.85299993
-0.066994682 -0.031483032 0.85100001
-0.058191381 -0.030587776 0.85100001
0.016683551 -0.036599081 0.852
0.03083938 -0.039865538 0.85800004
-0.091765955 -0.02933502 0.85800004
-0.08950942 -0.02933502 0.85800004
-0.014324733 -0.13099591 0.86000007
-0.0062938822 -0.13116939 0.86155558
-0.0052896636 -0.12468802 0.86199981
0.0050818212 -0.12496329 0.86111122
0.013699085 -0.12530358 0.86016679
-0.087509744 -0.11071818 0.86800003
-0.031067021 -0.11441231 0.86433339
-0.024867646 -0.11440483 0.86310345
-0.015113021 -0.1164917 0.86468768
-0.0047930088 -0.11633611 0.86620706
0.0055761174 -0.11577718 0.86427271
0.014561766 -0.11501502 0.86210829
-0.13103361 -0.1013225 0.86900002
-0.12490781 -0.10218811 0.86838472
-0.11420426 -0.10187656 0.86900008
-0.10480989 -0.10335545 0.86769563
-0.095133588 -0.10442412 0.86465639
-0.08829812 -0.10641156 0.86085713
-0.057298936 -0.10027313 0.86000001
-0.042285141 -0.10420468 0.86133337
-0.034995046 -0.1054551 0.86699992
-0.029642729 -0.10716987 0.86700004
0.00228547 -0.10894074 0.86900002
0.017422875 -0.10834119 0.86422223
0.02217984 -0.10743532 0.86060011
-0.18512307 -0.090656973 0.86900002
-0.14246096 -0.090656973 0.86900002
-0.13465747 -0.094151832 0.8677932
-0.12545474 -0.095014043 0.86611122
-0.11492312 -0.095412552 0.86391431
-0.1061841 -0.096030638 0.86250019
-0.09733396 -0.098841824 0.86066675
-0.06459523 -0.095121846 0.86061543
-0.058429834 -0.098388299 0.86000001
-0.22169061 -0.08303874 0.86900002
-0.21463686 -0.084654979 0.86790311
-0.20511244 -0.085203461 0.86712831
-0.19536448 -0.084879227 0.86731434
-0.18482144 -0.085067391 0.86830008
-0.17798397 -0.084112413 0.86863649
-0.16216217 -0.082332149 0.86842865
-0.15472542 -0.084082611 0.8675186
-0.14498138 -0.084944546 0.86662853
-0.1351047 -0.084680296 0.8639999
-0.12568721 -0.084938385 0.86280662
-0.1152185 -0.086991593 0.86006266
-0.10867842 -0.087060601 0.86022234
-0.093659811 -0.085447706 0.86257142
-0.088964134 -0.082178734 0.86000007
-0.079163 -0.080670863 0.86000001
-0.22421826 -0.07389906 0.86765391
-0.21495049 -0.074877053 0.86356103
-0.20497367 -0.074883282 0.86277539
-0.19488037 -0.074773468 0.86380422
-0.18460631 -0.075351387 0.86577284
-0.17503646 -0.075058721 0.86710531
-0.16512716 -0.074868016 0.8661539
-0.15517996 -0.075120069 0.8623184
-0.14557432 -0.076849341 0.8615002
-0.13497303 -0.078137845 0.86012495
-0.12707524 -0.078243598 0.86025006
-0.091296643 -0.0777165 0.86066675
-0.088712819 -0.07815776 0.86000007
-0.079163 -0.079163 0.86000001
0.065516807 -0.072373211 0.86900002
-0.23083247 -0.064754985 0.86900002
-0.22525014 -0.065206327 0.86655569
-0.21472479 -0.064779431 0.86131579
-0.20452425 -0.065389574 0.86054069
-0.19495431 -0.06498652 0.8619473
-0.18498947 -0.064885341 0.86180496
-0.17502275 -0.065120175 0.86292315
-0.1661711 -0.066108033 0.86079997
-0.15907994 -0.068607934 0.86000001
0.063376442 -0.064319663 0.86900014
-0.23083247 -0.058660395 0.86900002
-0.22425938 -0.055157539 0.86624247
-0.21457456 -0.055262148 0.86086375
-0.19631906 -0.056257289 0.86020011
-0.18600614 -0.057406642 0.86000007
-0.17476174 -0.058957588 0.86000001
0.055281833 -0.05357993 0.86179161
0.06208241 -0.055232752 0.86814278
-0.22412606 -0.046262998 0.86851996
-0.21452001 -0.045608874 0.86503035
-0.20523557 -0.044654109 0.86200005
0.036967862 -0.040994685 0.86066669
0.045587823 -0.04363472 0.86158079
0.053417414 -0.045547996 0.86448151
0.060495697 -0.048319675 0.86800003
-0.22016694 -0.03885299 0.86900002
-0.21549158 -0.035371646 0.86655551
-0.20432107 -0.036786988 0.86704999
-0.19483413 -0.036558993 0.86337942
-0.18507493 -0.034550436 0.86278123
-0.17486997 -0.032828614 0.86181831
-0.16495524 -0.033288892 0.86312509
-0.15573476 -0.03248078 0.8616842
-0.1454609 -0.031535976 0.86060011
-0.13442653 -0.031108735 0.86025012
-0.12486338 -0.032050431 0.8617143
-0.1153518 -0.031126676 0.86000007
-0.10490294 -0.03169601 0.86085713
-0.098068759 -0.031683173 0.8605001
0.017496221 -0.035750758 0.86766672
0.025947394 -0.035703767 0.86663169
0.034720384 -0.03740219 0.86445451
0.044139288 -0.037702806 0.86684632
-0.1828272 -0.029256245 0.86842865
-0.17501773 -0.028915098 0.86799997
-0.16466136 -0.028415196 0.86822242
-0.15440521 -0.028213559 0.8671177
-0.14501208 -0.027360724 0.86604345
-0.13640091 -0.028945427 0.86440003
-0.12783729 -0.02967692 0.86800003
-0.11414551 -0.02967692 0.86800003
-0.10450238 -0.028009187 0.86635315
-0.097368628 -0.028545912 0.862625
-0.11263472 -0.11058215 0.87800008
-0.10083245 -0.11006901 0.87800002
-0.094274573 -0.11259622 0.87646163
-0.087303728 -0.11436249 0.87550002
-0.042334232 -0.11186501 0.87800008
-0.035497669 -0.11384494 0.87484002
-0.027960584 -0.1110756 0.87140006
-0.014353858 -0.11235915 0.871889
-0.0059241853 -0.11216653 0.87187517
0.0050056688 -0.11122767 0.87100017
0.012217226 -0.11071862 0.87100005
-0.2052462 -0.10089567 0.87687504
-0.19427077 -0.10117425 0.87762511
-0.1852355 -0.10133032 0.87675005
-0.17692411 -0.10127228 0.87800014
-0.1627174 -0.1017561 0.87800008
-0.15455629 -0.10227054 0.87711775
-0.14442249 -0.10400227 0.87614292
-0.1353441 -0.10478266 0.87445158
-0.12476842 -0.10654585 0.87370014
-0.1153417 -0.10594048 0.87295258
-0.10498714 -0.10789224 0.87160015
-0.097737819 -0.10919146 0.87100005
-0.04188275 -0.10877242 0.87500012
-0.035570748 -0.10937952 0.8725
-0.029015914 -0.10919146 0.87100005
0.0058540874 -0.10919147 0.87100011
0.012980804 -0.10842789 0.87100011
-0.22220081 -0.091178596 0.87400007
-0.214247 -0.093993098 0.87270385
-0.20510678 -0.094905466 0.87300003
-0.19506371 -0.094817355 0.87360001
-0.18473266 -0.095169343 0.87284207
-0.17499956 -0.095181584 0.87554753
-0.16489872 -0.094967969 0.87580013
-0.15494515 -0.094783194 0.87336832
-0.14532138 -0.095263757 0.87217647
-0.13820738 -0.096974239 0.87100017
-0.23067045 -0.082196437 0.87300003
-0.22543517 -0.085478097 0.87189656
-0.21670306 -0.089033045 0.87100011
-0.19242132 -0.089338467 0.87100005
-0.18707629 -0.089338467 0.87100005
-0.17372464 -0.085583821 0.87252933
-0.16589382 -0.085969865 0.87229031
-0.15583906 -0.088783145 0.87100023
-0.14813387 -0.089338467 0.87100005
0.071689412 -0.081470914 0.87180007
-0.23129623 -0.077014871 0.87266666
-0.22719255 -0.077004299 0.87140018
-0.17180476 -0.078648396 0.87100005
0.068417199 -0.074419983 0.87128592
0.071886957 -0.074942432 0.87233347
0.058795404 -0.061086133 0.87100005
0.067090727 -0.064627752 0.87178278
0.071914196 -0.066223577 0.87640011
-0.22983657 -0.054722995 0.87100005
0.067105524 -0.055196092 0.87340921
0.070813626 -0.056189071 0.87800002
-0.22245534 -0.042760294 0.87100011
-0.21718301 -0.041124057 0.87100017
0.0573489 -0.042053875 0.87220013
0.06332463 -0.046207856 0.87468439
-0.21418446 -0.03622511 0.87142122
-0.20541272 -0.032374736 0.87372738
-0.19585194 -0.031617172 0.87364298
-0.11622671 -0.030018819 0.87800002
0.0084554506 -0.033059977 0.87700003
0.015100496 -0.032049265 0.87470019
0.02522696 -0.032106157 0.87200016
0.035235159 -0.032168929 0.8738001
0.045632921 -0.033368114 0.87406904
0.054104879 -0.035666581 0.87603456
0.060807355 -0.039255381 0.87800002
-0.20787959 -0.029916249 0.87500006
-0.19206291 -0.028897414 0.87516671
-0.18553935 -0.026502049 0.87436855
-0.17525336 -0.02592447 0.87350017
-0.16501205 -0.024680387 0.87440008
-0.15560874 -0.023956751 0.87400013
-0.14521497 -0.023641137 0.87430775
-0.13478263 -0.026323084 0.87466681
-0.12500256 -0.027726155 0.8747896
-0.11802931 -0.028699437 0.87539995
-0.10931683 -0.027521197 0.87200004
0.017673928 -0.02843304 0.87662506
0.024742955 -0.028351922 0.87650013
0.036026325 -0.028334014 0.87750012
0.043242134 -0.029018216 0.87687504
-0.095860869 -0.13015257 0.88900006
-0.1445749 -0.12048322 0.88666677
-0.13950484 -0.12157963 0.88900006
-0.11331846 -0.12111203 0.88900006
-0.1050948 -0.12144376 0.88799995
-0.094558239 -0.12464818 0.88772213
-0.087373495 -0.12465388 0.88591671
-0.19008325 -0.11094655 0.88500005
-0.18339303 -0.11207781 0.88428581
-0.17440198 -0.11300838 0.88345468
-0.16508932 -0.11324469 0.88273329
-0.1543417 -0.11406534 0.88470978
-0.14499204 -0.11495129 0.88517946
-0.13519925 -0.11467763 0.88547218
-0.12508592 -0.11493435 0.88459986
-0.11527602 -0.11513931 0.88399976
-0.10507818 -0.11508092 0.88299984
-0.095485091 -0.11657365 0.88129413
-0.088337608 -0.11769893 0.88133335
-0.043973599 -0.11263414 0.88000005
-0.20190926 -0.10404477 0.88075006
-0.19475852 -0.10536453 0.88173914
-0.1849582 -0.1064976 0.88076901
-0.17460291 -0.10555305 0.88035274
-0.16542931 -0.10540025 0.88006419
-0.15554391 -0.1069522 0.88043469
-0.14837874 -0.10826249 0.88000005
-0.16663679 -0.099519201 0.88000005
0.077558994 -0.084302902 0.8876667
0.076805569 -0.073178224 0.88641667
0.080201492 -0.073974356 0.88819999
0.076630838 -0.064718552 0.8843199
0.080797732 -0.064843155 0.88500005
0.075840741 -0.05479997 0.88468289
0.080778696 -0.055142336 0.88600004
0.066701919 -0.043576024 0.88238895
0.0743903 -0.045263056 0.8866173
0.080093145 -0.048211407 0.88700002
-0.0020259768 -0.031004017 0.88859999
0.0046919873 -0.031098129 0.8817693
0.010029066 -0.030087199 0.88000005
0.057175264 -0.032060046 0.88053334
0.064973615 -0.035092205 0.88444722
0.072578043 -0.037881963 0.8884545
-0.2041177 -0.026850238 0.88411772
-0.19548127 -0.024857199 0.88435715
-0.18471062 -0.022260992 0.88288248
-0.17478149 -0.022424988 0.88216674
-0.16565078 -0.021557074 0.88109094
-0.15435089 -0.020837491 0.88033342
-0.14448401 -0.021375474 0.88133335
-0.13508816 -0.022344965 0.88205004
-0.12533137 -0.023404414 0.88415003
-0.11535343 -0.026167208 0.88423818
0.0056214435 -0.027019843 0.88664705
0.013846458 -0.025431642 0.88355994
0.025432318 -0.023879085 0.88237506
0.034540556 -0.023697235 0.88287479
0.044863377 -0.024648165 0.88399988
0.054323465 -0.026280133 0.88474071
0.061429784 -0.027603162 0.88700002
-0.19094238 -0.019483916 0.88900006
-0.18528086 -0.019462001 0.88800001
-0.17444387 -0.018205503 0.88753337
-0.16522497 -0.018378966 0.88593346
-0.15472499 -0.01855519 0.88484615
-0.14495286 -0.018707998 0.88638467
-0.13540061 -0.018877581 0.88718188
0.035071049 -0.019483916 0.88900012
-0.099200971 -0.13044538 0.89100003
-0.13555171 -0.12169461 0.89228576
-0.12371454 -0.12176111 0.89174998
-0.11744186 -0.12291595 0.89189994
-0.10372667 -0.12571137 0.89139992
-0.099200971 -0.12810203 0.89100003
-0.13669425 -0.11950983 0.89100003
-0.023062997 -0.11437099 0.89480001
-0.014161236 -0.11290634 0.89750004
-0.0047208499 -0.11170574 0.89733338
0.0047164666 -0.11083696 0.89666671
0.010211414 -0.11075456 0.89600003
-0.0043298565 -0.10942729 0.89800006
0.00472348 -0.10903366 0.89800012
0.015733926 -0.10796024 0.89744443
0.025163842 -0.10589608 0.89700007
0.034403287 -0.10459726 0.89788228
0.040149581 -0.10391656 0.89800006
0.077492625 -0.081991896 0.89287508
0.080725223 -0.081508964 0.89400005
0.077632777 -0.077894904 0.8915
0.080725223 -0.07915774 0.89400005
-0.02120832 -0.05419904 0.89600003
-0.015143979 -0.054880209 0.8975001
-0.0070852195 -0.05471364 0.89800006
-0.021780491 -0.031752285 0.89800006
-0.015278817 -0.031337731 0.89538467
-0.007039634 -0.030497478 0.89200002
0.072847053 -0.036029685 0.89350003
-0.20298676 -0.022437846 0.89283341
-0.19762082 -0.021089969 0.89100003
-0.12311083 -0.021430818 0.89220011
-0.11623828 -0.022306941 0.8942728
-0.021255659 -0.029128127 0.89800006
-0.014671481 -0.027905229 0.89741176
-0.0043862192 -0.026624331 0.89554167
0.0038084278 -0.023842392 0.89392853
0.01533848 -0.021752171 0.89490908
0.023886284 -0.021647528 0.89557141
0.046866603 -0.021089969 0.89100003
0.052471418 -0.02166594 0.89333338
0.034982745 -0.018453274 0.89409089
0.044746436 -0.018346826 0.89543748
-0.030976139 -0.11040214 0.90600002
-0.025114954 -0.11157604 0.90341175
-0.015915634 -0.11118174 0.90128571
-0.031575195 -0.10799248 0.90800005
-0.025438566 -0.1054161 0.9066878
-0.015118515 -0.10702051 0.90472752
-0.0046968479 -0.10516066 0.90529746
0.0047568711 -0.10442769 0.90450019
0.014585584 -0.10337472 0.90329051
0.024857195 -0.10157819 0.90221423
0.034456305 -0.10166819 0.90115386
0.040810294 -0.10084092 0.90100002
-0.0029187156 -0.098440312 0.90800005
0.0034493913 -0.098970987 0.90800005
0.014545414 -0.094030388 0.90900016
0.025456451 -0.095461115 0.90744483
0.034948997 -0.095313393 0.90605569
0.041057806 -0.094558433 0.90644443
-0.032636546 -0.080397345 0.90800005
-0.025968341 -0.085141629 0.90900016
-0.015191718 -0.083435267 0.90791327
-0.0051878104 -0.083636306 0.90800041
0.0047760801 -0.081989378 0.90800011
0.015248953 -0.084286541 0.90900004
0.025463494 -0.085147798 0.90771466
0.034974031 -0.085054658 0.9067145
0.041704144 -0.087095402 0.90690917
-0.033155207 -0.074403033 0.90636373
-0.025425678 -0.074689351 0.90633339
-0.015072735 -0.074518003 0.90748751
-0.0047757402 -0.074802406 0.90772259
0.0047686286 -0.074703537 0.9065001
0.015101002 -0.07471367 0.90661895
0.025423191 -0.074684165 0.90627789
0.033314548 -0.075088784 0.90573919
-0.032149117 -0.066284321 0.90550011
-0.025356121 -0.064976647 0.90383339
-0.015079586 -0.065090977 0.90542859
-0.0047590579 -0.065036155 0.90463895
0.0047596423 -0.065054737 0.90491676
0.015063953 -0.065019026 0.90440476
0.024826443 -0.065692559 0.90573335
0.031401325 -0.068344057 0.90300006
-0.024836842 -0.058054674 0.90219998
-0.014943135 -0.057640135 0.90190011
-0.0045637316 -0.057573233 0.90100002
0.0047410131 -0.057675608 0.90122223
0.014367983 -0.05865835 0.90216666
0.022203775 -0.059470877 0.90450001
0.029614676 -0.11125514 0.91300005
0.03121547 -0.11125514 0.91300005
-0.02157389 -0.10068297 0.91150004
-0.014804604 -0.10180444 0.91166657
-0.0087754335 -0.10131636 0.91000003
-0.03121547 -0.090444826 0.91300005
-0.024169475 -0.094431072 0.9112857
-0.014699738 -0.09426707 0.91286838
-0.0048287259 -0.094782636 0.91015786
0.0048944079 -0.09473414 0.91123062
-0.033050288 -0.0847883 0.91015786
-0.015081481 -0.085743032 0.91047364
-0.0037893916 -0.087953784 0.90999997
0.0047887913 -0.08700522 0.91049999
-0.01568941 -0.078447051 0.91000003
