# .PCD v0.7 - Point Cloud Data file format
VERSION 0.7
FIELDS x y z
SIZE 4 4 4
TYPE F F F
COUNT 1 1 1
WIDTH 536
HEIGHT 1
VIEWPOINT 0 0 0 1 0 0 0
POINTS 536
DATA ascii
-0.12119216 0.0086044837 0.81800008
-0.11990433 0.0093338704 0.81900007
-0.12064891 0.013084251 0.81433338
-0.11833985 0.013168159 0.81528574
-0.12185287 -0.011870358 0.82900006
-0.12203474 -0.0046221153 0.82674992
-0.11807678 -0.003388609 0.82800001
-0.23242067 0.0070504108 0.82864714
-0.22532919 0.0075790323 0.82900029
-0.21875376 0.0094478363 0.82900006
-0.12155731 0.0036057304 0.82346147
-0.1177844 0.0053823907 0.82604343
-0.23264031 0.015108211 0.82850009
-0.22511511 0.015283423 0.82869798
-0.21810174 0.01554628 0.8287335
-0.11640766 0.012163225 0.82580006
-0.23151237 0.02398297 0.82900006
-0.22488655 0.024980577 0.82886672
-0.21663475 0.025165971 0.82864302
-0.22207607 0.031873472 0.82900006
-0.21817236 0.032413349 0.82900012
-0.12144274 -0.01446836 0.83200008
-0.11721637 -0.013855798 0.83595246
-0.24335316 -0.0031234538 0.83737499
-0.23455058 -0.0042350413 0.83602566
-0.22518776 -0.0043461756 0.83587188
-0.21709161 -0.0019107241 0.83793336
-0.12020415 -0.0080136098 0.83100003
-0.11614337 -0.0056541138 0.83579999
-0.2440843 0.0052065798 0.83319354
-0.23648098 0.0041598403 0.83132249
-0.22457562 0.0032263843 0.83114284
-0.21511047 0.0049535888 0.83462971
-0.20622 0.0068032849 0.83773345
-0.19859129 0.0095618032 0.83900005
-0.11343081 0.0049049491 0.83609086
-0.10898598 0.0054260409 0.83660001
-0.25058243 0.015776055 0.83700001
-0.24486619 0.015370178 0.83494741
-0.23762564 0.015161197 0.83109528
-0.21367192 0.015312988 0.83185709
-0.20515907 0.015297849 0.83543634
-0.1966507 0.016539384 0.83857155
-0.1890295 0.019123606 0.83900005
-0.11269487 0.011570872 0.83242851
-0.24278972 0.024479551 0.8322224
-0.23627575 0.025938692 0.83121604
-0.22802363 0.02986891 0.83100003
-0.21290702 0.02580139 0.83100003
-0.20532702 0.025368333 0.83287245
-0.1952154 0.025019828 0.83682984
-0.18766351 0.026163617 0.83900005
-0.23270965 0.033920176 0.83300012
-0.22572151 0.035563625 0.83325797
-0.21474211 0.035570361 0.83389997
-0.20503728 0.034928657 0.83673924
-0.19502722 0.033800092 0.83766681
-0.18608738 0.032289471 0.83899993
-0.22433746 0.042349208 0.83649993
-0.21661282 0.042048246 0.83822215
-0.20741758 0.043395877 0.83900005
-0.098990567 -0.082616188 0.84900004
-0.11114468 -0.072460532 0.84860003
-0.1049198 -0.074264251 0.84817982
-0.098990567 -0.07666187 0.84900004
-0.12227519 -0.062328555 0.8484
-0.11487109 -0.064303309 0.846591
-0.10502884 -0.064826086 0.84634888
-0.065497518 -0.06028749 0.84900004
-0.12359416 -0.054740425 0.84730774
-0.11495656 -0.055091016 0.84600002
-0.10814049 -0.056664661 0.84683341
-0.066241808 -0.058798909 0.84900004
-0.13025075 -0.041680239 0.84900004
-0.12469389 -0.045274623 0.84661901
-0.11785137 -0.046820316 0.84773684
-0.13025075 -0.03870308 0.84900004
-0.12352498 -0.035646629 0.84651732
-0.11911493 -0.03392515 0.84744453
-0.23237453 -0.021080328 0.84866667
-0.22719452 -0.020654047 0.84900004
-0.1219445 -0.024210554 0.8471334
-0.11642883 -0.024773214 0.84629041
-0.24075457 -0.01111175 0.84500003
-0.23391402 -0.014422042 0.84410352
-0.22507285 -0.014686326 0.84584463
-0.21518849 -0.013851991 0.84825033
-0.20786956 -0.01222762 0.84900004
-0.12074769 -0.018519584 0.84500003
-0.11526396 -0.016719026 0.84393334
-0.24201727 -0.0081176413 0.8416667
-0.23673661 -0.0088501694 0.84125
-0.22309723 -0.0089247059 0.84190917
-0.21425772 -0.0061425837 0.84335005
-0.20542836 -0.0047365515 0.84624475
-0.19899896 -0.0014859501 0.84700006
-0.11258801 -0.0047782422 0.84233338
-0.21012385 0.00073727668 0.84100002
-0.20343605 0.0028847114 0.8421818
-0.19562474 0.0057552364 0.84513628
-0.18843555 0.0083704125 0.84875
-0.11037672 0.0022223501 0.84500003
-0.19320935 0.014083575 0.84199995
-0.18499474 0.015689956 0.84424996
-0.17533368 0.017802333 0.8488462
-0.19242921 0.021381022 0.84100002
-0.1834079 0.024333397 0.84113771
-0.17472123 0.024355307 0.84405643
-0.16561413 0.025933275 0.84802866
-0.15564416 0.027363602 0.84900004
-0.19414951 0.0388299 0.84100002
-0.18410987 0.036372259 0.84206665
-0.17482509 0.034716055 0.84246927
-0.16475107 0.03482068 0.8470363
-0.1555566 0.03359938 0.84900033
-0.21169868 0.04293089 0.84140003
-0.20414054 0.044138245 0.8425625
-0.1954769 0.043438058 0.84545738
-0.18493076 0.043424539 0.84741384
-0.17503574 0.042089745 0.84722233
-0.16662148 0.040911838 0.84850007
-0.02106104 -0.12260533 0.85799998
-0.01577715 -0.12246202 0.85699993
-0.02106104 -0.11884444 0.85800004
-0.014661522 -0.11566223 0.85685718
-0.008115449 -0.11349165 0.85450006
-0.01420428 -0.10424154 0.85259998
-0.0062645706 -0.10476516 0.85287189
-0.10124342 -0.09161552 0.85799998
-0.095025398 -0.091013782 0.85800004
-0.021042105 -0.093934134 0.85719997
-0.015078881 -0.09527842 0.85482949
-0.0078571029 -0.09679687 0.85594738
-0.11220679 -0.081884332 0.85690904
-0.10648683 -0.087175906 0.85737872
-0.097848713 -0.087248184 0.85578567
-0.025228646 -0.082478479 0.85892296
-0.016790504 -0.086175092 0.85761899
-0.13062859 -0.071958557 0.85800004
-0.1241902 -0.073889188 0.85687995
-0.11555972 -0.074951731 0.85344833
-0.10481909 -0.079453617 0.85099995
-0.03459911 -0.072625406 0.85883331
-0.024220195 -0.07837715 0.85799998
-0.0188045 -0.078226715 0.85800004
-0.14065766 -0.065439656 0.85800004
-0.13473284 -0.064713836 0.85748577
-0.12636973 -0.065899961 0.85418761
-0.11812353 -0.068884663 0.85100001
-0.10052274 -0.064637259 0.85299999
-0.096139424 -0.063587539 0.85606897
-0.085537434 -0.061047852 0.85500008
-0.062045794 -0.060547858 0.85266668
-0.053968418 -0.061951246 0.85656244
-0.044840861 -0.063929044 0.85726666
-0.037979286 -0.066557728 0.85787487
-0.14274062 -0.052479025 0.85799986
-0.13531804 -0.054951482 0.85692692
-0.12855968 -0.055845071 0.85159987
-0.11116046 -0.051476989 0.85100001
-0.10438204 -0.054098193 0.85362172
-0.09511289 -0.055082891 0.85272735
-0.084355466 -0.054791193 0.85317028
-0.075046293 -0.054310285 0.85407698
-0.064940587 -0.054254808 0.85408884
-0.05499744 -0.054967742 0.85644686
-0.045632262 -0.057040315 0.85799986
-0.038737267 -0.059046131 0.85800004
-0.15231645 -0.041745991 0.85800004
-0.14469817 -0.04486987 0.85702574
-0.1349905 -0.045280479 0.854743
-0.1135316 -0.044713803 0.8532778
-0.10525035 -0.045185596 0.85640574
-0.094887197 -0.045454461 0.85365963
-0.084841445 -0.045194697 0.85475028
-0.075037263 -0.045021553 0.85594481
-0.06581036 -0.047272626 0.85723805
-0.057729814 -0.047951471 0.85799992
-0.16552517 -0.034923963 0.85893321
-0.15525952 -0.035342906 0.85777783
-0.14475577 -0.035364073 0.85608345
-0.13548599 -0.035269111 0.85607898
-0.12811343 -0.033860374 0.85460007
-0.11439905 -0.035385117 0.85414904
-0.10474508 -0.035192415 0.85800022
-0.094948366 -0.035496432 0.85740942
-0.084939152 -0.035326906 0.85742873
-0.076361313 -0.036676098 0.85784602
-0.22439708 -0.023778034 0.85456681
-0.2159553 -0.022273615 0.85633343
-0.20985822 -0.02106104 0.85800004
-0.17525794 -0.025681574 0.85799992
-0.16272162 -0.028332114 0.85799998
-0.15870997 -0.02933502 0.85800004
-0.14515978 -0.024983384 0.85896659
-0.13295887 -0.023229085 0.85799986
-0.12675178 -0.02496168 0.85500002
-0.11156501 -0.025020897 0.85247612
-0.10257389 -0.024102394 0.8586278
-0.094022498 -0.027329206 0.85799986
-0.08706484 -0.028770886 0.85799992
-0.22008277 -0.018651083 0.85100001
-0.21374071 -0.018210031 0.85129994
-0.20573185 -0.014622766 0.85539287
-0.153374 -0.013436377 0.85666662
-0.14631329 -0.015275749 0.85781235
-0.13520199 -0.015223065 0.85899991
-0.12782247 -0.016111381 0.8571111
-0.11203203 -0.014994155 0.85539997
-0.1060605 -0.01331987 0.85894871
-0.2014544 -0.0079662697 0.85427266
-0.19520754 -0.0043417658 0.85625005
-0.1876471 -0.0025561261 0.85733324
-0.16267602 -0.0036241403 0.85799986
-0.15441269 -0.005205797 0.85451227
-0.14508417 -0.0051940884 0.85624492
-0.13480602 -0.0054250006 0.85783005
-0.12882295 -0.0060165632 0.85766667
-0.11331443 -0.0097555462 0.85600007
-0.19232345 0.0021036812 0.85181814
-0.184824 0.005026307 0.85471451
-0.17583987 0.0083465111 0.85736835
-0.1639349 0.005579567 0.8577894
-0.15486334 0.0052643409 0.85752404
-0.14512835 0.0052647591 0.8577553
-0.13403013 0.0047505181 0.8578946
-0.12862279 0.0067696199 0.85799998
-0.18178588 0.011688013 0.85100001
-0.17521657 0.013534403 0.85332274
-0.16509721 0.015024439 0.85404897
-0.15533301 0.015107316 0.85658562
-0.14504878 0.015029944 0.8572858
-0.13489072 0.01493458 0.85738468
-0.12804404 0.01636103 0.85723072
-0.16287273 0.022026688 0.8517499
-0.15443757 0.022598097 0.85196292
-0.1451526 0.024861304 0.85464835
-0.1345679 0.024886848 0.85695857
-0.1273523 0.023649249 0.85788876
-0.15322483 0.037923668 0.8521176
-0.14539401 0.034596357 0.85547924
-0.13508187 0.034512617 0.85788882
-0.12741929 0.035954207 0.85799998
-0.20068565 0.048492815 0.85100001
-0.19425365 0.048153456 0.85290003
-0.18447508 0.047614641 0.8524285
-0.175015 0.046515014 0.8545
-0.16521554 0.043820512 0.85437506
-0.1564597 0.041502152 0.85628575
-0.19454074 0.050325572 0.85679996
-0.18609254 0.050577402 0.85742855
-0.17901884 0.050396059 0.85800004
-0.043578845 -0.12203649 0.86771429
-0.034231581 -0.12253129 0.8625654
-0.026753029 -0.12320491 0.86019045
-0.071459025 -0.1147306 0.86900008
-0.043900073 -0.1163685 0.8689999
-0.035413794 -0.11659266 0.86759263
-0.025912514 -0.11780729 0.86176467
-0.09350574 -0.10242201 0.86626655
-0.085943297 -0.10352205 0.86827272
-0.078606315 -0.10367724 0.86900008
-0.064754978 -0.1043698 0.86900002
-0.11476704 -0.092531078 0.86558837
-0.10470054 -0.094860107 0.86089671
-0.09486343 -0.09571477 0.86164719
-0.086571939 -0.097513452 0.86580002
-0.079229623 -0.099798858 0.86900002
-0.011309 -0.09122593 0.86000001
-0.0043417648 -0.093801506 0.86175007
-0.13341902 -0.081929177 0.86800003
-0.12421957 -0.084082954 0.86642325
-0.11557105 -0.086040772 0.8628518
-0.013327338 -0.084028587 0.86057144
-0.0065720892 -0.087007724 0.86427999
-0.14118925 -0.074393168 0.86587507
-0.13537563 -0.075098194 0.86375016
-0.12653361 -0.078336701 0.86145455
-0.1198754 -0.078409061 0.86000001
-0.024949418 -0.074197605 0.86004567
-0.01582616 -0.0756642 0.86311555
-0.0093882233 -0.078407608 0.86833334
-0.170424 -0.06135264 0.86400002
-0.16322306 -0.061944723 0.86699998
-0.15519974 -0.062717088 0.86609995
-0.14433089 -0.063979812 0.86092311
-0.13796979 -0.068230964 0.86000001
-0.034348853 -0.064575255 0.86053342
-0.025342882 -0.065079026 0.86407703
-0.018029818 -0.06780228 0.86900002
-0.17141025 -0.052565809 0.86900002
-0.16496706 -0.054296281 0.86615634
-0.15476604 -0.054852534 0.86284441
-0.14561465 -0.056170333 0.86062086
-0.050513532 -0.051267467 0.86000001
-0.043972429 -0.052244652 0.86133331
-0.035419662 -0.05536044 0.86440629
-0.029203229 -0.058152512 0.86900002
-0.19121766 -0.040376637 0.86900002
-0.18444563 -0.040543862 0.86849999
-0.1737152 -0.043647718 0.86606902
-0.16481851 -0.045194704 0.86186492
-0.15538593 -0.04583478 0.86041182
-0.14852487 -0.047497801 0.86000001
-0.070115797 -0.042220265 0.86000001
-0.064573355 -0.042502984 0.86066669
-0.054697335 -0.04396737 0.86180007
-0.045069255 -0.045188893 0.86605275
-0.037648451 -0.04780025 0.86855555
-0.22200941 -0.031536039 0.86333328
-0.21513323 -0.033052418 0.86714274
-0.20530032 -0.032665774 0.86877799
-0.19482893 -0.034498613 0.86822593
-0.18508944 -0.035028085 0.86594605
-0.17529449 -0.034672115 0.86240017
-0.15003273 -0.030911267 0.86000001
-0.13115494 -0.032147016 0.86080009
-0.072490126 -0.033933405 0.86017394
-0.065013126 -0.03494934 0.86318916
-0.055360086 -0.035162251 0.8665002
-0.048446354 -0.0377931 0.86800003
-0.22275455 -0.028695054 0.86133331
-0.21455234 -0.027222387 0.86246175
-0.20505132 -0.024850456 0.86453331
-0.19519766 -0.025157275 0.8659333
-0.18440711 -0.024939271 0.86207145
-0.17476176 -0.024707472 0.86000025
-0.16563071 -0.024420794 0.86125571
-0.15493152 -0.024985498 0.86152184
-0.13589862 -0.025737777 0.86031258
-0.09556105 -0.022994971 0.86000007
-0.084846623 -0.02412211 0.86058557
-0.074949481 -0.025098147 0.8621276
-0.06443508 -0.025134912 0.86766678
-0.05789857 -0.027616097 0.86900002
-0.20266207 -0.017253853 0.86066681
-0.19479832 -0.014954829 0.8618139
-0.18458122 -0.01509012 0.86506468
-0.17463532 -0.01501576 0.86180496
-0.16496594 -0.015222675 0.86243248
-0.15693462 -0.01670284 0.86155564
-0.14173946 -0.014324734 0.86000001
-0.094922349 -0.015026922 0.86064893
-0.085289776 -0.015352411 0.8637436
-0.075182937 -0.015139939 0.86724329
-0.06665156 -0.015615186 0.86890012
-0.19444627 -0.0089786611 0.86000001
-0.18433173 -0.0062413248 0.8638531
-0.17471755 -0.005400796 0.86274409
-0.16637555 -0.006462405 0.86043471
-0.14098553 -0.0098011335 0.86000001
-0.11171125 -0.0052819168 0.86100006
-0.10507391 -0.0053768889 0.86150002
-0.094850838 -0.0051985919 0.8653025
-0.086157247 -0.0069684875 0.86853844
-0.074587539 -0.0081447046 0.86884624
-0.068257563 -0.0088820932 0.86833334
-0.18104465 0.00196198 0.86120003
-0.17494898 0.0034382869 0.86140752
-0.16771592 0.0041809026 0.86000001
-0.13701025 0.0070595574 0.86000001
-0.11126533 0.0055033844 0.86487502
-0.1054249 0.0053179236 0.8657856
-0.096920498 0.0041347351 0.86857134
-0.12310036 0.017223382 0.86266673
-0.11390232 0.016076313 0.86773324
-0.10509042 0.015231793 0.86866659
-0.098040804 0.01400583 0.86900014
-0.12288935 0.025427606 0.86100012
-0.11442691 0.0248558 0.8670252
-0.10645479 0.022894796 0.8690002
-0.14400128 0.039958466 0.86000001
-0.13461898 0.036942732 0.86000007
-0.12571093 0.03227821 0.86125004
-0.11781085 0.031162867 0.86700004
-0.17209494 0.049062647 0.86100006
-0.16465509 0.047046755 0.86550003
-0.15366608 0.044818506 0.86504561
-0.14530668 0.042804688 0.86521435
-0.13825054 0.041930746 0.86175001
-0.19459106 0.05204156 0.86033344
-0.18471366 0.052021399 0.86000001
-0.055229999 -0.12043208 0.87500006
-0.081974469 -0.11122358 0.87800002
-0.075005896 -0.11239582 0.87147081
-0.065132804 -0.1141853 0.87414283
-0.054930855 -0.11518007 0.87448645
-0.048366573 -0.11347944 0.87146175
-0.034360949 -0.11530007 0.87100005
-0.08329162 -0.10706875 0.87166679
-0.074419186 -0.1059779 0.87141401
-0.065837182 -0.10722449 0.87287992
-0.055324674 -0.10911125 0.87650007
-0.049093336 -0.10969292 0.87500006
-0.13214989 -0.084534921 0.87133342
-0.12690644 -0.08658959 0.87100011
-0.0041647302 -0.083878025 0.87550008
-0.012193874 -0.072265156 0.87445468
-0.0076734084 -0.075987548 0.87556267
-0.17276821 -0.060391814 0.8720001
-0.16818061 -0.060391814 0.87200004
-0.022439452 -0.060947623 0.87266678
-0.016742686 -0.065663874 0.87517655
-0.19456643 -0.050886601 0.87800014
-0.18289606 -0.05363993 0.87635303
-0.17553408 -0.055712596 0.87287092
-0.16824138 -0.058286354 0.87100005
-0.031330604 -0.052725945 0.87166673
-0.026263695 -0.055258635 0.87506902
-0.019242832 -0.059267927 0.87800002
-0.2128313 -0.041675694 0.87300009
-0.20430401 -0.04279403 0.87369573
-0.19539151 -0.044963658 0.87369984
-0.18522808 -0.045601398 0.87390327
-0.17773612 -0.047524244 0.87200016
-0.04170987 -0.041099012 0.87140006
-0.034442931 -0.044614654 0.87433344
-0.028594626 -0.047886167 0.87633336
-0.21441659 -0.037683282 0.8724668
-0.20499381 -0.036840845 0.87152189
-0.19562835 -0.038331546 0.87100011
-0.051923212 -0.031306643 0.87100005
-0.045185179 -0.035143275 0.87461293
-0.037997015 -0.038612787 0.87740004
-0.061086133 -0.02061657 0.87100005
-0.054313272 -0.024637375 0.87188238
-0.048529029 -0.026833687 0.87446159
-0.071012631 -0.01145365 0.87100005
-0.063889168 -0.015853858 0.87150019
-0.056552574 -0.018016059 0.87281823
-0.083114929 -0.0031956092 0.8720001
-0.076052815 -0.005668574 0.87163174
-0.093129933 0.0069458298 0.87109548
-0.085955918 0.0035601438 0.87251723
-0.079009585 0.00076708331 0.87500006
-0.094880059 0.01176434 0.87140006
-0.082546934 -0.11186267 0.88000005
-0.0016536437 -0.082600042 0.88057148
0.0018116025 -0.084602013 0.88540006
-0.010029066 -0.070203468 0.88000005
-0.0041608266 -0.075000755 0.8828572
0.00077935663 -0.078715026 0.88900006
-0.012581752 -0.063942075 0.88457686
-0.007306315 -0.067166522 0.88679999
-0.19247454 -0.053578995 0.88109094
-0.1871537 -0.054697804 0.88023531
-0.022311753 -0.053127397 0.88173336
-0.014990779 -0.055115484 0.88727897
-0.008572923 -0.052996252 0.88900006
-0.030892856 -0.04170654 0.88100004
-0.024704328 -0.045120284 0.88507688
-0.018539922 -0.048142154 0.88860005
-0.042853747 -0.031559121 0.88240004
-0.035060667 -0.034978624 0.88573676
-0.027426865 -0.037711922 0.88880002
-0.04350261 -0.028746996 0.88625002
-0.038967833 -0.028836196 0.88900006
-0.02592128 -0.12018047 0.89600003
-0.030702619 -0.11572526 0.89800006
-0.024438323 -0.11647958 0.89675015
-0.019042734 -0.11543311 0.89574999
-0.083215386 -0.1012721 0.89550006
-0.07807944 -0.10226983 0.89600009
-0.09303645 -0.092772871 0.89766663
-0.08608301 -0.095768303 0.89769238
-0.077937417 -0.099980325 0.89800006
-0.10197186 -0.083983667 0.89771444
-0.095079198 -0.084871389 0.89741468
-0.088565245 -0.087778002 0.89800006
0.0048985942 -0.082462773 0.89375007
-0.10200301 -0.076847069 0.89675003
-0.097071558 -0.076781966 0.89676195
-0.0017623191 -0.073040582 0.89350009
0.0035079815 -0.075036496 0.89665383
-0.0039656153 -0.064341813 0.89396781
0.0017872843 -0.066925853 0.89618182
-0.012758131 -0.052334368 0.89100003
-0.0065697404 -0.05741027 0.89219999
-0.022385508 -0.042107351 0.89280003
-0.016003724 -0.046449311 0.89199996
-0.043148547 -0.026475882 0.89487499
-0.037553772 -0.028168615 0.89250004
-0.061848395 -0.11021935 0.90450001
-0.055412348 -0.11056461 0.90733337
-0.044008162 -0.11246531 0.90800005
-0.034977369 -0.11537956 0.90486372
-0.026033014 -0.11329529 0.90490919
-0.018219763 -0.11286645 0.90350002
-0.082937047 -0.10031433 0.90100002
-0.073477328 -0.10239673 0.90233338
-0.065016158 -0.10457354 0.90584391
-0.055728961 -0.10731518 0.9074738
-0.048556812 -0.10825782 0.90800005
-0.10053701 -0.091037452 0.90300006
-0.09873458 -0.090835817 0.90100002
-0.082872167 -0.09345004 0.90161538
-0.0752092 -0.095004663 0.90309513
-0.066821061 -0.095584869 0.90695673
-0.10031433 -0.089256063 0.90100002
-0.084262066 -0.084630847 0.9031027
-0.074933156 -0.085188955 0.90627271
-0.066830777 -0.086576328 0.90754563
-0.093577042 -0.073889084 0.90244013
-0.0852741 -0.075038008 0.90320927
-0.075129859 -0.074605092 0.90653855
-0.065206215 -0.075225353 0.90866673
-0.053730898 -0.074825257 0.90800005
-0.046530601 -0.075621255 0.90800005
-0.093608603 -0.068221867 0.90487504
-0.085303351 -0.067133375 0.90315789
-0.075535432 -0.066334829 0.90509999
-0.065362923 -0.06760554 0.90600008
-0.059126493 -0.068142138 0.90733337
-0.051435202 -0.11220048 0.912
-0.044720192 -0.11349314 0.91087496
-0.034758236 -0.11168127 0.91054541
-0.026349971 -0.11137985 0.91074997
-0.061428033 -0.10131636 0.91000003
-0.054164298 -0.10297614 0.91111106
-0.044613719 -0.10463329 0.91287506
-0.035267524 -0.10499939 0.91430998
-0.026141249 -0.1053619 0.91280556
-0.062198918 -0.095294707 0.91039997
-0.055186819 -0.094772093 0.91237187
-0.044908717 -0.094631121 0.91477817
-0.0352946 -0.094653718 0.9150005
-0.027626481 -0.095048994 0.91340005
-0.063661776 -0.083765507 0.90999997
-0.055112522 -0.084672086 0.91114271
-0.044846293 -0.08489418 0.91352791
-0.036009025 -0.085533053 0.91417271
-0.029614676 -0.08804363 0.91300005
-0.055486221 -0.075118028 0.9100908
-0.044564325 -0.076894484 0.91049999
-0.039219435 -0.079239272 0.91300005
-0.055843666 -0.069405697 0.91000003
