# .PCD v0.7 - Point Cloud Data file format
VERSION 0.7
FIELDS x y z
SIZE 4 4 4
TYPE F F F
COUNT 1 1 1
WIDTH 671
HEIGHT 1
VIEWPOINT 0 0 0 1 0 0 0
POINTS 671
DATA ascii
-0.15341054 -0.084962152 0.81900007
-0.161681 -0.084449299 0.82333332
-0.15717743 -0.086056508 0.82342106
-0.15482546 -0.10052649 0.83700001
-0.16031165 -0.092966117 0.83500004
-0.15638679 -0.094015785 0.83488894
-0.16039449 -0.1157371 0.84900004
-0.15532114 -0.11444309 0.84700012
-0.16198821 -0.10427285 0.84871435
-0.15765728 -0.1048333 0.84523535
-0.16251493 -0.097287424 0.84549999
-0.15814863 -0.098135531 0.8416667
-0.30725646 -0.065294534 0.84900004
-0.17407595 -0.13130914 0.85799986
-0.16873904 -0.13113004 0.85800004
-0.17357248 -0.12520541 0.85586679
-0.1668866 -0.12397721 0.8565715
-0.17139401 -0.11454824 0.85661536
-0.16569109 -0.11477755 0.85474294
-0.15291263 -0.11298257 0.85526317
-0.14583933 -0.11291057 0.85799986
-0.13561361 -0.11216331 0.85799986
-0.17134662 -0.10590695 0.85799992
-0.16646925 -0.10568725 0.8538
-0.15372527 -0.10845469 0.8565715
-0.14454392 -0.1084393 0.85799986
-0.13532822 -0.10841385 0.85759991
-0.16771509 -0.09922874 0.85533333
-0.32388872 -0.082087912 0.85799986
-0.31505033 -0.084922254 0.8572275
-0.30515823 -0.083948351 0.85610026
-0.29662195 -0.081609905 0.85628563
-0.32380009 -0.074997537 0.85770363
-0.31474093 -0.07506413 0.85420609
-0.30491474 -0.074716263 0.85381818
-0.29473326 -0.074997619 0.85547626
-0.28831109 -0.073735632 0.85745448
-0.32446328 -0.065472201 0.85697585
-0.31502622 -0.065097064 0.85354292
-0.30407172 -0.064974576 0.85231841
-0.2948218 -0.065151565 0.85538018
-0.28593847 -0.064679198 0.85733336
-0.27621719 -0.061595187 0.85799992
-0.32193303 -0.05867004 0.85800004
-0.31403339 -0.05554885 0.85674083
-0.30519298 -0.054898322 0.85544682
-0.2948693 -0.054947015 0.85577565
-0.28521901 -0.055452887 0.85678071
-0.27533081 -0.056259919 0.8578124
-0.26702389 -0.057165679 0.85800004
-0.31065035 -0.048891701 0.85800004
-0.29289889 -0.048590828 0.85799998
-0.28808495 -0.048891705 0.85800004
-0.16074473 -0.16074473 0.86900002
-0.15605398 -0.16146788 0.86833334
-0.19055752 -0.15259962 0.866
-0.18560189 -0.15225895 0.86839998
-0.17483845 -0.15084103 0.86900002
-0.16353558 -0.15365316 0.86712509
-0.15831409 -0.15491088 0.86474997
-0.18457744 -0.14584231 0.86678082
-0.17473495 -0.14493139 0.86526483
-0.16585118 -0.14547963 0.86358082
-0.15932657 -0.14724727 0.86133337
-0.1817748 -0.13597907 0.86433339
-0.17456561 -0.13676554 0.86129022
-0.16812348 -0.13652813 0.86516672
-0.14821365 -0.12085113 0.86700004
-0.17545606 -0.11243308 0.86266667
-0.15003273 -0.11836753 0.86000001
-0.14378153 -0.11723207 0.86192858
-0.1339412 -0.11505704 0.86178559
-0.12804642 -0.11180981 0.86428577
-0.31215414 -0.10289986 0.86827278
-0.30584085 -0.10160927 0.86855561
-0.29521486 -0.10175627 0.86879998
-0.28873104 -0.1013225 0.86900002
-0.21305658 -0.10233826 0.86900002
-0.20174466 -0.10464683 0.86900008
-0.19546044 -0.10433508 0.86754555
-0.18483067 -0.10347319 0.86724985
-0.17640349 -0.10466703 0.86243767
-0.15415743 -0.10428911 0.86348397
-0.14495678 -0.1035763 0.86242443
-0.13480829 -0.10417273 0.86194611
-0.12498 -0.10498218 0.86659479
-0.11779828 -0.1053583 0.86877793
-0.32091025 -0.093022518 0.86266667
-0.31468195 -0.095114239 0.86317152
-0.30523568 -0.09544678 0.86500013
-0.29465806 -0.094910353 0.86513323
-0.28514117 -0.094696753 0.86672974
-0.27783644 -0.093084589 0.86828578
-0.2620672 -0.090656973 0.86900002
-0.25419965 -0.093069188 0.86814302
-0.24540484 -0.093027264 0.86800003
-0.23427859 -0.093517624 0.86872405
-0.22744356 -0.092399798 0.86866671
-0.2132353 -0.094958983 0.86869216
-0.20537801 -0.095083475 0.86766678
-0.19547787 -0.094781116 0.86673945
-0.18521121 -0.095606923 0.86727506
-0.17496911 -0.094896622 0.86707699
-0.16880947 -0.095314212 0.86522222
-0.15323532 -0.097494654 0.86799997
-0.14539547 -0.097160995 0.86724007
-0.13488749 -0.097573318 0.86685002
-0.12729424 -0.099045508 0.86833334
-0.32336903 -0.087269299 0.86018181
-0.31740594 -0.089718066 0.86000001
-0.30286101 -0.088959016 0.86116678
-0.29394898 -0.085777313 0.86169714
-0.28488025 -0.084551983 0.86265004
-0.27545297 -0.084924601 0.8653335
-0.2651383 -0.084539197 0.86710352
-0.25517365 -0.084750064 0.86489773
-0.24522762 -0.084777862 0.86451435
-0.23501717 -0.085185684 0.86757159
-0.22474766 -0.085409373 0.86713535
-0.21506913 -0.085056558 0.86780006
-0.20526266 -0.085261382 0.86836845
-0.1953741 -0.086347118 0.86806679
-0.189694 -0.08913333 0.86900002
-0.17674302 -0.08913333 0.86900002
-0.32846361 -0.075142018 0.86000007
-0.29026434 -0.079163 0.86000001
-0.28383332 -0.07524313 0.86084998
-0.27491954 -0.074931525 0.86259568
-0.26507524 -0.074713111 0.86275542
-0.25464264 -0.07480742 0.86191821
-0.24440767 -0.074702024 0.86257422
-0.23470807 -0.075552493 0.86600006
-0.2247735 -0.075154632 0.8671366
-0.21485485 -0.07595031 0.8676191
-0.20771344 -0.077091739 0.86864722
-0.28246257 -0.066447631 0.86022228
-0.27490106 -0.065725826 0.86054546
-0.2650269 -0.064936236 0.86128569
-0.25432619 -0.064902797 0.86085719
-0.24427661 -0.06501285 0.86280942
-0.23502973 -0.064760402 0.86644745
-0.22601144 -0.066800065 0.86804366
-0.2125487 -0.069325924 0.86900002
-0.32329297 -0.054030724 0.86114281
-0.31781718 -0.052843872 0.86000001
-0.30383512 -0.050513532 0.86000001
-0.2828885 -0.051108345 0.86050004
-0.27375373 -0.052833498 0.86023515
-0.26474935 -0.054990377 0.86080867
-0.25475276 -0.055406388 0.86285102
-0.24558155 -0.055813733 0.86545724
-0.23946647 -0.058152515 0.86900002
-0.32116684 -0.049119633 0.86200005
-0.31417805 -0.046463627 0.86183339
-0.3048493 -0.044737268 0.86250001
-0.2948612 -0.044044815 0.8626501
-0.28492847 -0.044696391 0.86360443
-0.27499133 -0.045345996 0.864375
-0.26561248 -0.047174241 0.86566687
-0.25748414 -0.048800405 0.86785716
-0.30278444 -0.038204256 0.86725003
-0.2947408 -0.038651355 0.86874998
-0.28873104 -0.03885299 0.86900002
-0.18333292 -0.17144313 0.87500006
-0.1629035 -0.17135195 0.87650007
-0.15632866 -0.17260426 0.87700009
-0.19210038 -0.16351596 0.87650001
-0.18529077 -0.16456647 0.8757354
-0.17460482 -0.16209432 0.87740016
-0.16521235 -0.16510224 0.87535721
-0.1565412 -0.16673589 0.87365216
-0.19205575 -0.15802881 0.87420005
-0.18485916 -0.15688504 0.8726427
-0.17526929 -0.1558056 0.87332135
-0.16655658 -0.15718654 0.87250012
-0.19227438 -0.14208908 0.87800008
-0.18876298 -0.14166628 0.87350005
-0.16416898 -0.14278884 0.87100005
-0.068504483 -0.14624554 0.87800002
-0.20435891 -0.1304664 0.87800014
-0.19165862 -0.13726555 0.87800014
-0.18660083 -0.13540895 0.8743335
-0.16875044 -0.13668022 0.87100005
-0.15107371 -0.13288051 0.8780002
-0.14463973 -0.13416702 0.87637049
-0.13852473 -0.13087143 0.87300003
-0.21249186 -0.123128 0.87781268
-0.20486218 -0.12456962 0.87741685
-0.17842162 -0.12151148 0.87725002
-0.15258646 -0.12449118 0.8753078
-0.14455912 -0.12563945 0.87384987
-0.13653004 -0.12383721 0.87376183
-0.30180609 -0.11212392 0.87600005
-0.2948513 -0.11110847 0.87770015
-0.28633335 -0.11122358 0.87800002
-0.26170254 -0.11083872 0.87800002
-0.25464684 -0.11160844 0.8780002
-0.24528198 -0.11186501 0.87800008
-0.23630199 -0.11083872 0.87800002
-0.22235708 -0.11381915 0.87650007
-0.21437076 -0.1152137 0.8759743
-0.20458752 -0.11512686 0.87513882
-0.19562796 -0.11252661 0.87615013
-0.18426162 -0.11482088 0.87492305
-0.17829272 -0.11664175 0.87285721
-0.14126168 -0.11988153 0.87100005
-0.13456438 -0.11902196 0.87216681
-0.3107757 -0.10613716 0.87100005
-0.30422178 -0.10606467 0.87168968
-0.29465991 -0.10656035 0.87221426
-0.28468797 -0.10447292 0.87237501
-0.27496535 -0.10354725 0.87451422
-0.26452568 -0.10427637 0.87337816
-0.25503701 -0.10453685 0.87362796
-0.24482916 -0.10502145 0.8735652
-0.23489508 -0.10464025 0.87381822
-0.22489865 -0.10452095 0.87448698
-0.21530433 -0.10548794 0.87227774
-0.20679659 -0.10566378 0.87192315
-0.19182047 -0.10805607 0.87262511
-0.186629 -0.10799394 0.87366676
-0.12140869 -0.10002854 0.87100005
-0.11346687 -0.10377852 0.87516147
-0.10852958 -0.10775986 0.87800002
-0.2817598 -0.098501392 0.87100005
-0.273294 -0.095189758 0.87160611
-0.26470283 -0.095176168 0.87156248
-0.25610361 -0.097737812 0.87100017
-0.24403223 -0.097097747 0.87125021
-0.23730265 -0.096974231 0.87100017
-0.22434095 -0.095587514 0.87180001
-0.2178003 -0.095260978 0.87128592
-0.18293115 -0.091520123 0.87100017
-0.16032042 -0.092050001 0.87500006
-0.15551504 -0.093560725 0.87241673
-0.14405094 -0.092509009 0.87277281
-0.13490941 -0.092764385 0.87403578
-0.12468942 -0.095061429 0.87507689
-0.11634649 -0.096302263 0.87639135
-0.27127603 -0.089406848 0.87166673
-0.26725185 -0.088574886 0.87100011
-0.20173696 -0.081091836 0.87100011
-0.19372071 -0.08214964 0.87170017
-0.18486828 -0.084730282 0.87254524
-0.17556675 -0.08477246 0.87397498
-0.16565377 -0.08660122 0.87550002
-0.15463695 -0.087566197 0.8765201
-0.14558436 -0.088488512 0.87594128
-0.13528058 -0.088619694 0.8773334
-0.22067365 -0.071012631 0.87100005
-0.21685578 -0.071012631 0.87100005
-0.20404114 -0.074081816 0.87235481
-0.1951153 -0.074847639 0.87476069
-0.18586698 -0.076782651 0.87626094
-0.17860489 -0.077994756 0.87740004
-0.23230381 -0.060877781 0.87166673
-0.22378498 -0.063105881 0.87277782
-0.21560337 -0.066321544 0.87376475
-0.20533019 -0.067195006 0.87570006
-0.19473746 -0.067478195 0.87800014
-0.18627062 -0.06773477 0.87800014
-0.25274387 -0.051159635 0.87100005
-0.24220167 -0.052471567 0.87383342
-0.2352284 -0.056552134 0.87462068
-0.22719093 -0.058977604 0.87750006
-0.2809962 -0.040469564 0.87100005
-0.27321053 -0.040714275 0.87157154
-0.26475656 -0.042953085 0.87295657
-0.2549496 -0.04627201 0.87424153
-0.2473914 -0.049170479 0.87488896
-0.30008563 -0.037415255 0.87100005
-0.29397038 -0.036296494 0.87238473
-0.28505492 -0.03693882 0.87487501
-0.27612647 -0.037691679 0.87557906
-0.14736913 -0.18052582 0.88633341
-0.081404753 -0.18384877 0.88886666
-0.074942626 -0.18432316 0.88624233
-0.06717518 -0.18156791 0.88300002
-0.18232661 -0.17200181 0.88422227
-0.17537904 -0.17245907 0.88712502
-0.16846685 -0.17155798 0.88150001
-0.15241626 -0.17483166 0.88165009
-0.1469463 -0.17522065 0.88596666
-0.080273733 -0.17847268 0.88900006
-0.073726878 -0.1773895 0.88710004
-0.064488105 -0.1752959 0.88628566
-0.054798141 -0.17384751 0.8884837
-0.045299582 -0.17461486 0.88716185
-0.03800755 -0.17368603 0.88476938
-0.19479534 -0.16393667 0.88000005
-0.18216828 -0.16808242 0.88050002
-0.17511249 -0.1667475 0.88091666
-0.15161362 -0.16790996 0.88510007
-0.14885712 -0.16834104 0.88900006
-0.063707106 -0.1651351 0.88760865
-0.055216651 -0.16487999 0.88714284
-0.045596398 -0.16704342 0.88750011
-0.038326986 -0.16929047 0.88500005
-0.16096389 -0.15007745 0.88700002
-0.15587133 -0.15041584 0.88900006
-0.14759588 -0.15070981 0.8876667
-0.0636594 -0.15434566 0.88255996
-0.05510249 -0.15523605 0.88535702
-0.049016625 -0.15405531 0.88750005
-0.21369961 -0.1413753 0.88900006
-0.20444372 -0.14271308 0.88670594
-0.19692211 -0.14418299 0.8828572
-0.1636264 -0.14452504 0.88424009
-0.15492181 -0.14512008 0.88458055
-0.14510962 -0.14511324 0.88372731
-0.13995282 -0.14304569 0.88200003
-0.070482686 -0.14096406 0.88350004
-0.064679772 -0.14459248 0.8803997
-0.054700818 -0.14507462 0.88172746
-0.048160035 -0.14618224 0.88320005
-0.27527878 -0.13189937 0.88886666
-0.26887804 -0.13015257 0.88900006
-0.25142044 -0.13077605 0.88900006
-0.24413347 -0.13073708 0.889
-0.23411734 -0.13224587 0.88840008
-0.22440316 -0.13427509 0.88685197
-0.21469502 -0.13486865 0.88411117
-0.20483261 -0.13557439 0.88144422
-0.19591354 -0.13412057 0.88048625
-0.18710485 -0.13086423 0.88120002
-0.17088161 -0.13685994 0.88200003
-0.16482766 -0.13548474 0.88288629
-0.15569806 -0.13553113 0.88066638
-0.14488298 -0.13928939 0.8802501
-0.071711339 -0.13564262 0.8872
-0.06467893 -0.135758 0.88494742
-0.055287678 -0.13584873 0.88553315
-0.048989009 -0.13530298 0.88700002
-0.29475281 -0.12284467 0.88247371
-0.28423777 -0.12503447 0.88418186
-0.27506521 -0.12511374 0.88506061
-0.26540178 -0.12503603 0.88618761
-0.25532037 -0.12470035 0.88503569
-0.2452898 -0.12477112 0.88429403
-0.23485428 -0.12551017 0.8844595
-0.22492911 -0.12536718 0.88316214
-0.21628471 -0.12625106 0.88080007
-0.2013528 -0.12420613 0.88000005
-0.19505344 -0.12540571 0.88242549
-0.18527064 -0.12498137 0.8824482
-0.17975174 -0.12420613 0.88000005
-0.16372049 -0.12699972 0.88431835
-0.15689506 -0.12684737 0.88081831
-0.30063882 -0.11630987 0.88028574
-0.29479167 -0.11642935 0.88064498
-0.28447628 -0.11571234 0.88076174
-0.27501327 -0.11510688 0.88119054
-0.26561031 -0.11562809 0.88123804
-0.25523406 -0.11662582 0.88099986
-0.24486008 -0.11666289 0.88094109
-0.23499124 -0.11548712 0.88174999
-0.2272041 -0.11613804 0.88086951
-0.219868 -0.11957733 0.88000005
-0.1944173 -0.11718592 0.8803075
-0.18794611 -0.11906888 0.88080007
-0.10355905 -0.11134771 0.8882001
-0.09845873 -0.11196759 0.88900012
-0.28158534 -0.1087768 0.88000005
-0.275105 -0.10877679 0.88
-0.11031973 -0.10106213 0.88000005
-0.10438754 -0.10480981 0.88528883
-0.098198943 -0.10521316 0.889
-0.13037786 -0.090261601 0.88000005
-0.1249776 -0.090261601 0.88000005
-0.11325526 -0.094400465 0.88073689
-0.10569106 -0.097276077 0.88433349
-0.09845873 -0.097939156 0.88900012
-0.1712656 -0.081775472 0.88000005
-0.16416645 -0.083610862 0.88015985
-0.15524706 -0.082864963 0.88104767
-0.14524156 -0.083867185 0.88269234
-0.13646692 -0.085843466 0.88123536
-0.12912774 -0.088920303 0.88200003
-0.19178662 -0.070820644 0.88
-0.1841314 -0.07274814 0.88057137
-0.17588975 -0.075807065 0.88144821
-0.16494626 -0.078997225 0.88109094
-0.15480803 -0.078987986 0.88254547
-0.14818734 -0.079912551 0.88500005
-0.2141818 -0.061904311 0.88272232
-0.20498714 -0.063509397 0.88054556
-0.1966382 -0.065922067 0.88053334
-0.18260032 -0.068249084 0.88133335
-0.24210639 -0.050278295 0.88233334
-0.23494826 -0.052339591 0.88426095
-0.22577938 -0.05675517 0.88478261
-0.21788375 -0.059563715 0.88700008
-0.26244637 -0.040910963 0.88050008
-0.25406912 -0.042320821 0.88152945
-0.24588698 -0.045787305 0.88424128
-0.23752435 -0.049062651 0.88833332
-0.29199663 -0.03368767 0.88350004
-0.2848987 -0.032665119 0.88352948
-0.2743147 -0.034796696 0.88404763
-0.26589265 -0.037434764 0.88574988
-0.25558847 -0.03871429 0.88578576
-0.0837221 -0.19091038 0.89250004
-0.17887419 -0.1804364 0.89100003
-0.14191744 -0.18285251 0.8944
-0.13525768 -0.18522334 0.89553565
-0.12827297 -0.18729486 0.89766675
-0.091022983 -0.18636881 0.89700001
-0.0861938 -0.18515126 0.89376932
-0.18147786 -0.17679124 0.89099997
-0.17696482 -0.17644408 0.89099991
-0.14237483 -0.17429887 0.89358348
-0.13695355 -0.17610109 0.8962608
-0.082266562 -0.17701574 0.89527279
-0.075582452 -0.17289773 0.89303869
-0.069253162 -0.17180212 0.89160001
-0.055654094 -0.17711671 0.89099991
-0.15151791 -0.16445313 0.89437497
-0.14570279 -0.16703027 0.89290482
-0.074100547 -0.16861981 0.89599997
-0.068555333 -0.16734515 0.89200002
-0.047647707 -0.163252 0.89100003
-0.21334383 -0.15067902 0.89800006
-0.20473117 -0.15289484 0.89744443
-0.1985013 -0.15366389 0.89733338
-0.16113332 -0.15331344 0.89225
-0.15504819 -0.15348303 0.89493746
-0.14952689 -0.15422583 0.89300007
-0.04937562 -0.15909922 0.89400005
-0.25495869 -0.14042397 0.89485711
-0.24392232 -0.14328563 0.89685714
-0.23499168 -0.14423816 0.89633346
-0.22530749 -0.14358464 0.89638102
-0.21524636 -0.14562646 0.89452189
-0.20603682 -0.14735891 0.89249998
-0.1998537 -0.14969434 0.89400005
-0.27270821 -0.13344678 0.89133328
-0.26463962 -0.13396633 0.8932814
-0.25516328 -0.13527998 0.89257604
-0.24529463 -0.13568501 0.89355189
-0.23574348 -0.1362866 0.89189994
-0.22626154 -0.13851684 0.89099997
-0.074092895 -0.13173565 0.89340001
-0.065769456 -0.13091405 0.89099991
-0.056289233 -0.13055517 0.89175004
-0.26010963 -0.12888315 0.89100003
-0.25698519 -0.12888315 0.89100003
-0.090331733 -0.12096597 0.89600003
-0.084309615 -0.12266787 0.89599997
-0.075120501 -0.12483633 0.89474392
-0.065839998 -0.12528577 0.89561915
-0.057770137 -0.12834153 0.89450002
-0.093060218 -0.11390242 0.89374077
-0.085059211 -0.11505404 0.89612114
-0.075028002 -0.11663055 0.89599997
-0.06841331 -0.11834825 0.89700001
-0.09314733 -0.10489147 0.89290035
-0.087121971 -0.10563288 0.89622223
-0.094237573 -0.098938853 0.89333332
-0.21286869 -0.060482986 0.89600003
-0.23120856 -0.050772149 0.89100003
-0.22475106 -0.053914119 0.89458328
-0.2173872 -0.057286311 0.89520007
-0.24398826 -0.042303879 0.89370841
-0.23504527 -0.046142749 0.89400005
-0.22878125 -0.048585568 0.89680004
-0.28562778 -0.030491782 0.89183331
-0.27508873 -0.031348098 0.89399999
-0.26521853 -0.033120822 0.89335293
-0.25450805 -0.037239108 0.89564276
-0.24719545 -0.038575087 0.89800006
-0.1124626 -0.19070743 0.90766674
-0.10480057 -0.19173455 0.90562505
-0.098953746 -0.19078283 0.90300006
-0.13197368 -0.18255112 0.90144444
-0.12502083 -0.18384017 0.904737
-0.11524595 -0.18487175 0.9069289
-0.10481437 -0.18500669 0.905738
-0.095848508 -0.18414101 0.90355885
-0.13348106 -0.17438532 0.90374082
-0.12605588 -0.17711507 0.90720016
-0.11568727 -0.17883767 0.90800005
-0.10268572 -0.179103 0.90800005
-0.093838491 -0.17828777 0.90710002
-0.086399771 -0.17481861 0.90412521
-0.079777546 -0.17140323 0.90100002
-0.22049569 -0.16159071 0.90800005
-0.21446016 -0.16228585 0.90364277
-0.2056154 -0.16191556 0.9014706
-0.16200274 -0.16200274 0.90733337
-0.15594783 -0.16292635 0.90539998
-0.1410694 -0.1674372 0.90233344
-0.1377366 -0.16871898 0.90355557
-0.082239226 -0.16922033 0.90200007
-0.079777546 -0.16982348 0.90100002
-0.23102753 -0.15190923 0.90250009
-0.22430728 -0.15497366 0.90496665
-0.21517043 -0.15561691 0.9023571
-0.20597811 -0.15720895 0.90113336
-0.1992069 -0.15528974 0.90100002
-0.16162819 -0.15845904 0.90375006
-0.15581304 -0.15850265 0.90310001
-0.23143387 -0.14849681 0.90100002
-0.22577305 -0.14862847 0.90100002
-0.061644129 -0.12407945 0.90150005
-0.059700999 -0.12656611 0.90800005
-0.082937054 -0.11137261 0.90100002
-0.077359438 -0.11224789 0.90442854
-0.082926802 -0.10702123 0.90223086
-0.078599893 -0.10877359 0.90566665
-0.21184278 -0.061606653 0.90675002
-0.22197299 -0.051623397 0.90200001
-0.2155866 -0.055482734 0.90412521
-0.24091238 -0.04028371 0.90100002
-0.23557806 -0.042330027 0.90420008
-0.2250641 -0.047661781 0.90340906
-0.13061348 -0.17215213 0.91125005
-0.1241306 -0.17433655 0.91289479
-0.11538674 -0.17675912 0.91433322
-0.10500119 -0.17693602 0.91383332
-0.095416196 -0.17494328 0.91195643
-0.16179572 -0.16589928 0.91042852
-0.15848622 -0.16727084 0.91075003
-0.13242927 -0.1699243 0.91000003
-0.062671587 -0.1237323 0.91650003
-0.076037683 -0.11125514 0.91300005
-0.080574431 -0.10610297 0.91000003
-0.078978896 -0.1076985 0.91000003
-0.21050432 -0.060029749 0.91300005
-0.20748135 -0.062515646 0.91425008
-0.21442384 -0.054156188 0.91405886
-0.20889959 -0.058652945 0.91650003
-0.1367486 -0.17073347 0.92300004
-0.12017347 -0.17340466 0.92000002
-0.11408736 -0.17450899 0.92300004
-0.1098288 -0.17491253 0.92800003
-0.054178327 -0.13210282 0.92587507
-0.063256845 -0.1214961 0.92270005
-0.056426942 -0.12549885 0.92508334
-0.071822152 -0.11305296 0.92225009
-0.065441541 -0.11619359 0.92496294
-0.058718547 -0.11879301 0.92600012
-0.082935534 -0.10519987 0.92614287
-0.075916223 -0.10808288 0.92572743
-0.15157975 -0.17076707 0.93800002
-0.14537539 -0.17141914 0.93685722
-0.13467117 -0.17173246 0.93453848
-0.12896556 -0.17332138 0.93700004
-0.11229662 -0.17459255 0.93500006
-0.15204687 -0.16738708 0.93750006
-0.14303413 -0.16812719 0.93718183
-0.13792904 -0.16871318 0.93650001
-0.050000682 -0.14016585 0.93500006
-0.048438899 -0.14203534 0.93650007
-0.051116835 -0.13415678 0.93363649
-0.048206463 -0.13523379 0.93490922
-0.051980294 -0.12431066 0.93252951
-0.048477691 -0.12653303 0.93725002
-0.064303555 -0.11178605 0.93166673
-0.057030804 -0.11634791 0.93335009
-0.10405664 -0.10077791 0.9346
-0.093734771 -0.10142331 0.93299997
-0.08482042 -0.10194843 0.93033355
-0.074773945 -0.10421853 0.93306887
-0.066602491 -0.10668235 0.93576193
-0.12088006 -0.096210659 0.93800002
-0.11301331 -0.096372999 0.93640012
-0.10498406 -0.095958441 0.9355666
-0.095057957 -0.095687814 0.93448383
-0.085479073 -0.096248455 0.93411529
-0.077819183 -0.098353341 0.93687505
-0.14805731 -0.17113118 0.94000006
-0.13226271 -0.1718179 0.94000006
-0.12439935 -0.17275696 0.94289297
-0.11525816 -0.17314957 0.94437039
-0.10530998 -0.1763204 0.94515008
-0.094746098 -0.17588255 0.9473846
-0.083903313 -0.17578219 0.94760001
-0.075033776 -0.1738203 0.94746673
-0.1525791 -0.1643696 0.94000024
-0.1450517 -0.16348001 0.94120032
-0.13524079 -0.1660848 0.9441334
-0.12624685 -0.16772334 0.94620001
-0.11801336 -0.16870923 0.94800007
-0.14480709 -0.15748353 0.94500017
-0.050588928 -0.15010813 0.94600004
-0.047631342 -0.15175772 0.94766665
-0.050588928 -0.14762014 0.94600004
-0.046069376 -0.14498489 0.94753844
-0.044514287 -0.13405332 0.94564992
-0.13267352 -0.12322117 0.94723076
-0.12351432 -0.12335602 0.94800007
-0.11657784 -0.12201767 0.94800001
-0.050268065 -0.1211378 0.94000006
-0.04494708 -0.12484386 0.94578564
-0.03906076 -0.12881739 0.94800007
-0.12299984 -0.11884444 0.94800007
-0.11718228 -0.11884444 0.94800013
-0.05314555 -0.11437234 0.94276929
-0.046971597 -0.11531593 0.94633323
-0.070669562 -0.1009169 0.94100004
-0.063440278 -0.1032315 0.94265407
-0.05593447 -0.10657462 0.9458077
-0.04903372 -0.10887148 0.94800007
-0.12514322 -0.093045302 0.94275016
-0.11613644 -0.092246503 0.94259107
-0.10461226 -0.091224842 0.94458342
-0.094089366 -0.090929054 0.94372731
-0.084318675 -0.091972522 0.94412506
-0.074818231 -0.095928088 0.94367999
-0.065396614 -0.098098382 0.9467001
-0.11143923 -0.17146635 0.95100003
-0.10479654 -0.17249954 0.95211124
-0.095384382 -0.17231372 0.95478272
-0.085802883 -0.17251395 0.95285732
-0.076919608 -0.17174612 0.95255554
-0.13451681 -0.16225603 0.95215392
-0.12486677 -0.16326541 0.95372427
-0.11511619 -0.16439825 0.95407301
-0.10582142 -0.16614762 0.9565143
-0.09626282 -0.16856502 0.95900005
-0.083854087 -0.16745551 0.95705885
-0.076516114 -0.1657811 0.95600009
-0.14432447 -0.1527542 0.95100009
-0.13545647 -0.15549733 0.95459461
-0.12511384 -0.15429838 0.95630956
-0.11463588 -0.15487228 0.95848554
-0.10607126 -0.15231103 0.95899993
-0.095338024 -0.15082577 0.95899999
-0.077346548 -0.15889671 0.95900005
-0.045515656 -0.15378866 0.95166671
-0.15090151 -0.14756668 0.95100003
-0.14492971 -0.14536798 0.95170605
-0.13563801 -0.14543854 0.95422876
-0.1255108 -0.14508453 0.95590311
-0.11507496 -0.14517264 0.9568435
-0.10433327 -0.14467001 0.95849979
-0.095405273 -0.1447053 0.95899981
-0.086183548 -0.143243 0.9588235
-0.079868719 -0.14712659 0.95900005
-0.043718956 -0.14499778 0.95152956
-0.039307978 -0.14301413 0.95400006
-0.14259729 -0.13652161 0.95121443
-0.13544062 -0.13544106 0.95366693
-0.12535244 -0.13538337 0.95325017
-0.11553424 -0.13563085 0.95500004
-0.10536961 -0.13556027 0.9564721
-0.0957653 -0.1355948 0.95860857
-0.087757587 -0.13793673 0.95857149
-0.041145224 -0.13584252 0.95228577
-0.038642678 -0.13617273 0.95410001
-0.13517937 -0.12760812 0.95220017
-0.12666835 -0.12689064 0.95100015
-0.11430307 -0.12632069 0.95172018
-0.1058259 -0.12618142 0.95403355
-0.098895013 -0.12906636 0.95600003
-0.05403905 -0.10416948 0.95316672
-0.080869868 -0.090874389 0.95100003
-0.074410297 -0.093078323 0.95366669
-0.067091592 -0.0957653 0.9526667
-0.059504624 -0.099733107 0.95600003
-0.10256299 -0.16270548 0.96254545
-0.094458453 -0.16491257 0.96341956
-0.085511915 -0.16351306 0.96273673
-0.11132264 -0.15264696 0.96200007
-0.10367971 -0.15639938 0.96216661
-0.094303146 -0.15586688 0.96238703
-0.084392704 -0.15528405 0.96266681
-0.077973239 -0.15510188 0.96228582
-0.09276887 -0.14477567 0.96200007
-0.085600376 -0.147376 0.96199995
-0.09023881 -0.13577989 0.96200007
