# .PCD v0.7 - Point Cloud Data file format
VERSION 0.7
FIELDS x y z
SIZE 4 4 4
TYPE F F F
COUNT 1 1 1
WIDTH 714
HEIGHT 1
VIEWPOINT 0 0 0 1 0 0 0
POINTS 714
DATA ascii
-0.090770513 -0.073630795 0.79799998
-0.086480416 -0.073741637 0.79700005
-0.073526524 -0.071114235 0.79600006
-0.065894783 -0.072290957 0.79652649
-0.090245821 -0.069258422 0.79800004
-0.083400205 -0.066685945 0.79684633
-0.07484547 -0.066424094 0.79658836
-0.065751873 -0.068248875 0.79671437
0.066285826 -0.020977233 0.79759997
0.07099773 -0.020186126 0.79400003
0.028158097 -0.013816706 0.79799998
0.033294816 -0.013136555 0.79800022
0.059464298 -0.01119328 0.79800004
0.06488318 -0.014653538 0.79587758
0.071332611 -0.013856697 0.79270589
0.0279832 -0.00909454 0.79800004
0.031880863 -0.0084949005 0.79799998
0.058617443 -0.0090717468 0.79600006
0.065730318 -0.0083167339 0.79569244
0.071118705 -0.0076684956 0.79533339
-0.071631551 -0.10106432 0.80900002
-0.064330585 -0.10210521 0.80881822
-0.058392718 -0.10189176 0.80900002
-0.080922179 -0.093587674 0.80266666
-0.074956089 -0.095531113 0.80576479
-0.06504979 -0.096850172 0.80721426
-0.091173336 -0.08135467 0.80000001
-0.089069329 -0.080653332 0.80000001
-0.051689144 -0.081426263 0.80766672
-0.047729764 -0.082290769 0.80779999
-0.091173336 -0.075042665 0.80000001
-0.061502844 -0.073245496 0.80333334
-0.055029079 -0.07508371 0.8047632
-0.048975732 -0.077737667 0.80300003
-0.090471998 -0.068029329 0.80000001
-0.08801733 -0.066977337 0.80000001
-0.058757957 -0.068400286 0.80200005
0.056737863 -0.050354857 0.80900002
0.060283981 -0.050354857 0.80900002
0.047753535 -0.044315998 0.80785722
0.055066306 -0.044324853 0.80533332
0.06334088 -0.043516189 0.80747622
0.048113525 -0.033252187 0.80355012
0.055409852 -0.03464555 0.80325526
0.064141899 -0.034596942 0.80753326
0.037498418 -0.021414084 0.80271435
0.045491111 -0.024223771 0.80228025
0.055544648 -0.024608715 0.80200022
0.063498363 -0.025592567 0.80440009
0.018770749 -0.012041016 0.80800003
0.023628462 -0.01308634 0.8019231
0.037228055 -0.015862746 0.80007684
0.045498792 -0.014903164 0.80155331
0.055171791 -0.014769916 0.80251026
0.01914903 -0.0092199035 0.80900002
0.025232365 -0.0055990266 0.80461103
0.034643281 -0.0047723595 0.80381072
0.043227326 -0.0075430241 0.8054738
0.051773302 -0.0092199035 0.80900002
0.029078156 0.00070922333 0.80900002
-0.066831812 -0.10451357 0.81100005
-0.053401452 -0.10039604 0.81220007
-0.047032874 -0.10146686 0.81700009
-0.053114891 -0.096287519 0.81633335
-0.049181525 -0.097070321 0.81780005
-0.061418142 -0.084181666 0.81871432
-0.055265535 -0.085274927 0.81700009
-0.046881814 -0.087504379 0.81535304
-0.062497944 -0.078248635 0.81671435
-0.055826571 -0.075868048 0.81650007
-0.05097729 -0.066055082 0.81900007
-0.045120358 -0.064595081 0.81682861
-0.039200149 -0.061294779 0.81300002
-0.043684542 -0.05517976 0.81681824
-0.037340842 -0.054913796 0.81604028
0.047825497 -0.051250808 0.81420004
0.055430964 -0.053550478 0.81436014
0.061241649 -0.053826451 0.8142001
-0.0424827 -0.046783216 0.81805903
-0.03616849 -0.044444617 0.81700003
0.046782263 -0.048204221 0.81100005
0.050479341 -0.049057391 0.81100005
0.065409854 -0.044791531 0.81100005
-0.033717606 -0.036584675 0.81828588
-0.027132053 -0.032938801 0.81688905
0.067136519 -0.036259808 0.81099999
-0.02728362 -0.02943759 0.81900007
0.016364736 -0.010673416 0.81166673
0.016652167 -0.0053407699 0.81660002
0.0225226 -0.0020086027 0.81445462
0.037416659 -0.00099571806 0.81140006
0.045587689 -0.0036882891 0.81413043
0.054280963 -0.0067566293 0.8156364
0.025872672 0.0013532811 0.81744456
0.035120305 0.0026000338 0.81445479
0.042977061 0.0026302922 0.81793344
-0.043954484 -0.10276105 0.82740003
-0.036337834 -0.10138254 0.82900006
-0.026308591 -0.10101917 0.82900012
-0.016715404 -0.10174593 0.82900006
-0.0075098183 -0.10214967 0.82900006
-0.051965468 -0.093134783 0.82099998
-0.045247629 -0.095333524 0.82347357
-0.035857987 -0.097674891 0.82743478
-0.024973486 -0.096993282 0.82813346
-0.01783349 -0.097776718 0.82900017
-0.0072675664 -0.099565662 0.82900006
-0.063493453 -0.082250625 0.82300007
-0.064057156 -0.07989151 0.82100004
-0.052854054 -0.071577899 0.82140005
-0.046969976 -0.072437145 0.82438463
-0.054270606 -0.065324917 0.82408577
-0.047608748 -0.066331819 0.82144451
-0.031977296 -0.060320802 0.82900006
-0.023975557 -0.062613375 0.82872748
-0.018069416 -0.064926155 0.82862508
0.056353878 -0.061982747 0.82812512
0.060574159 -0.061300918 0.82749999
-0.053610489 -0.054704215 0.82672423
-0.048910808 -0.055255536 0.82286668
-0.032704044 -0.054792725 0.82521039
-0.026748724 -0.055235613 0.82736343
0.048942544 -0.053980749 0.82100004
0.053788632 -0.057304565 0.82442856
0.061327215 -0.058441229 0.82300001
-0.052091736 -0.046172079 0.82792312
-0.04654054 -0.044832479 0.82392865
-0.032361068 -0.04735221 0.82315385
-0.02914373 -0.047130127 0.82700002
-0.04334737 -0.036458667 0.82633328
-0.037258204 -0.033407886 0.82252383
-0.042006537 -0.028634211 0.82900012
-0.034948267 -0.02636504 0.8262434
-0.025086675 -0.024887342 0.82384449
-0.016127013 -0.024414929 0.82588893
-0.0089417072 -0.021508433 0.82699996
-0.031250536 -0.018168917 0.82900006
-0.025194718 -0.017286083 0.8280372
-0.014792677 -0.016444854 0.82772231
-0.0053734402 -0.01489291 0.82815546
0.0041825771 -0.01275104 0.82586962
0.012235637 -0.010796149 0.82100004
-0.0035654032 -0.0071932897 0.82818186
0.0050610313 -0.0050628204 0.82565331
0.012160048 -0.004239365 0.82133341
0.049222786 -0.0012001566 0.82166672
0.053173967 -0.0021662435 0.82442856
0.0079802964 0.00072558777 0.82766676
0.015695602 0.0023679563 0.82427287
0.024609203 0.0037696671 0.82288885
0.031977296 0.0050872965 0.82900006
0.047562674 0.0014403632 0.82200003
0.051599722 0.00072675664 0.82900006
-0.026037525 -0.12194977 0.83900005
-0.040357351 -0.11226681 0.83700007
-0.034084309 -0.11446225 0.83680493
-0.024935447 -0.11514755 0.8365714
-0.018348694 -0.11357656 0.83726662
-0.0080714701 -0.11079927 0.83700001
-0.041263346 -0.10664992 0.8337273
-0.034509253 -0.1060805 0.83299994
-0.025187811 -0.10553821 0.83317131
-0.015266274 -0.10533526 0.83319986
-0.0045896629 -0.10538147 0.83350003
0.00490931 -0.10385977 0.83653867
0.014335577 -0.10212313 0.83742094
-0.065951921 -0.093901813 0.83900005
-0.014498813 -0.097174361 0.83257145
-0.0050995699 -0.099077359 0.83100003
0.0069052265 -0.096914433 0.83584207
0.014939017 -0.096940927 0.83796299
-0.071713522 -0.082378611 0.83900005
-0.067195117 -0.084980085 0.83688235
-0.031259742 -0.0805398 0.83900005
-0.025323017 -0.081853248 0.83900011
-0.01765256 -0.08017204 0.83900005
0.044980571 -0.082275413 0.8386364
-0.071608178 -0.078940034 0.83633333
-0.067262247 -0.07704585 0.83700007
-0.043514706 -0.075282566 0.83736366
-0.034652416 -0.074780807 0.83536828
-0.025201842 -0.075123787 0.83406663
-0.015837388 -0.074554354 0.83602571
-0.008300906 -0.073657408 0.83900011
0.046437133 -0.074789956 0.83868003
0.052302226 -0.072375745 0.83766663
-0.063629813 -0.065042935 0.83613342
-0.058698311 -0.063436255 0.83175004
-0.040787265 -0.068272516 0.83380014
-0.034838732 -0.065581486 0.83272237
-0.026692646 -0.066528775 0.83122218
-0.016043877 -0.069291733 0.83200002
-0.00882628 -0.069874719 0.83900005
0.047462307 -0.065660156 0.83743477
0.053068142 -0.066027775 0.83414286
-0.062185891 -0.055388119 0.83657891
-0.058277924 -0.05441796 0.83242863
0.047106721 -0.058039237 0.83609086
0.050327681 -0.058351807 0.83200002
-0.061490279 -0.048750553 0.83833337
-0.055422768 -0.044197604 0.83462971
-0.048810169 -0.040068049 0.83100003
-0.02986891 -0.045896132 0.83100003
-0.051475082 -0.036156844 0.83554548
-0.047276832 -0.034134772 0.8326472
-0.043629773 -0.027871514 0.83220005
-0.035711307 -0.022592286 0.83133334
-0.03278295 -0.018941261 0.83100003
-0.024632799 -0.01313619 0.83250016
-0.016537238 -0.011940672 0.83130777
-0.022675566 -0.0095086191 0.83433342
-0.014679491 -0.0069225696 0.83440006
-0.006234921 -0.003479288 0.83269238
0.057956435 -0.0022007837 0.8368001
0.061012052 -0.0044091949 0.83850002
-0.0021954654 0.00073143217 0.83433342
0.0059303576 0.0028468294 0.83400011
0.015207208 0.0062318947 0.83587509
0.024792761 0.0077447244 0.83528566
0.034471996 0.0069284914 0.83655566
0.043278407 0.0056337523 0.83700007
0.053812928 0.001573867 0.8375715
-0.02433013 -0.13049796 0.84100002
-0.031537864 -0.12209161 0.84150004
-0.024397973 -0.1255088 0.84138453
-0.017452033 -0.12335284 0.84343469
-0.043018911 -0.11199066 0.84600008
-0.014531 -0.11538415 0.84290475
-0.003604094 -0.11227862 0.84593338
0.0020865463 -0.11277864 0.84481817
0.0051609366 -0.1093627 0.84100002
0.014008257 -0.10543057 0.84100002
0.021381022 -0.1010069 0.84100002
-0.091547668 -0.090059079 0.84900004
-0.08454074 -0.092953578 0.84876949
-0.074418053 -0.093547538 0.84364522
-0.066128939 -0.09269128 0.84162486
-0.033244953 -0.09055528 0.84900004
-0.024727833 -0.09318123 0.84795672
-0.017756633 -0.09261094 0.84900004
0.0096301837 -0.092597917 0.84500003
0.016118793 -0.092634805 0.8429091
0.024688713 -0.094629772 0.84311444
0.032659162 -0.092939682 0.84540015
-0.091216877 -0.086916529 0.84900004
-0.084717497 -0.084957257 0.84867609
-0.075451314 -0.085572168 0.84329998
-0.068566732 -0.088473201 0.84100002
-0.043777622 -0.083961613 0.84541386
-0.035024833 -0.084873587 0.84443599
-0.024591872 -0.086773567 0.84368753
-0.015497197 -0.084296763 0.84429407
-0.0064408695 -0.082606316 0.84647381
0.015973972 -0.087373361 0.84682631
0.024620404 -0.085139677 0.84453201
0.0346573 -0.084938519 0.84341645
0.041704636 -0.083657674 0.84200001
-0.083557732 -0.078179985 0.84807694
-0.076717392 -0.077372357 0.84411114
-0.044728119 -0.078642838 0.84100002
-0.039075661 -0.078888603 0.84100002
-0.012165065 -0.078519963 0.84100002
-0.0045224088 -0.075039499 0.84233326
0.00074429001 -0.079639032 0.84900004
0.026876114 -0.078149714 0.84766674
0.035218731 -0.075330131 0.84586376
0.042585492 -0.074765809 0.84189987
0.051403936 -0.076492377 0.8416667
-0.081127606 -0.061776068 0.84900004
-0.074292056 -0.063735977 0.84647387
-0.068238862 -0.06417989 0.84150004
0.03799789 -0.067242958 0.84660006
0.042716805 -0.064801164 0.84204352
-0.072683543 -0.055687744 0.84804779
-0.066968895 -0.055080928 0.8426522
0.043499324 -0.058244854 0.84099996
-0.071410194 -0.047605626 0.84850001
-0.064983502 -0.045888063 0.84613335
-0.058806214 -0.042319328 0.84200001
-0.058660395 -0.039354444 0.84700006
-0.027279237 -0.01105915 0.84100002
0.065463029 -0.0041765659 0.84435719
0.0096757701 0.0081871897 0.84900004
0.01472282 0.0090799555 0.8439092
0.025436044 0.0092159584 0.84100002
0.034775991 0.0084291501 0.84142846
0.046065405 0.0074429722 0.84183329
0.055311989 0.0056624929 0.84388232
0.06298925 0.0028655729 0.84671444
0.017220363 0.012176724 0.84680003
0.024815639 0.013988695 0.84506255
0.034811683 0.014820554 0.84485716
0.044813421 0.013761261 0.84603238
0.052913945 0.0123009 0.84744447
-0.012185375 -0.1211077 0.85100001
-0.10455302 -0.11057045 0.85799992
-0.093915991 -0.11081724 0.85699999
-0.084899321 -0.11195157 0.85704756
-0.064070776 -0.11345963 0.85709095
-0.054015286 -0.11599774 0.85733324
-0.046228483 -0.11504899 0.85547996
-0.012682737 -0.11862089 0.85100001
-0.11184338 -0.10258579 0.85799986
-0.1050234 -0.10517464 0.85784996
-0.094954237 -0.10476702 0.85482532
-0.085518308 -0.10562652 0.8532666
-0.063935295 -0.10003994 0.85799998
-0.11207481 -0.096336909 0.85799986
-0.10468744 -0.095128402 0.85773361
-0.094813287 -0.095647611 0.85448802
-0.088352844 -0.09687905 0.85099995
-0.06325157 -0.096571632 0.85724992
-0.042344823 -0.092792451 0.85241657
-0.035419423 -0.094694555 0.85208821
-0.029095691 -0.096239589 0.85100001
-0.013485524 -0.09407533 0.85472733
-0.006158174 -0.091989197 0.85679996
0.0097441496 -0.091444224 0.85500002
0.0112301 -0.090589471 0.85400003
-0.10094255 -0.088606805 0.85799998
-0.097184315 -0.084768295 0.85762501
-0.045508642 -0.088779159 0.85100001
-0.012319577 -0.088484377 0.85175002
-0.0041951551 -0.086962856 0.85352182
0.0018013746 -0.083899811 0.85600007
0.0112564 -0.089300774 0.85600007
-0.087287068 -0.078334548 0.85100001
0.026111517 -0.076842465 0.85100001
0.032577228 -0.071371473 0.85100001
-0.082064763 -0.061175555 0.85100001
-0.079826638 -0.06042951 0.85100001
0.034566674 -0.068884663 0.85100001
-0.081449591 -0.057195988 0.85685718
-0.077186376 -0.054339621 0.85188234
-0.074928261 -0.048788983 0.85183334
-0.065651812 -0.042151447 0.85100001
-0.061921597 -0.039540295 0.85100001
0.069382027 -0.00074604334 0.85100001
0.072598077 -0.0042454042 0.85516667
0.0057722311 0.007452751 0.85523528
0.058191381 0.0096985633 0.85100001
0.06692639 0.0076746494 0.85721153
0.071457103 0.00075218 0.85800004
0.0085618775 0.011868664 0.85679996
0.014710108 0.015328398 0.85468191
0.023817087 0.018341424 0.852
0.046437554 0.017918188 0.85159999
0.055738129 0.015737917 0.85469234
0.062550358 0.0124436 0.8573333
0.018288435 0.020794533 0.85733336
0.025335344 0.021991899 0.85690916
0.035494398 0.02295072 0.85465634
0.044373479 0.022427883 0.85522723
0.052153599 0.020590795 0.85720003
-0.14093731 -0.13179544 0.86900002
-0.13636638 -0.13146894 0.86900014
-0.12430417 -0.13116057 0.86900014
-0.11198803 -0.13027179 0.86900002
-0.10386191 -0.13052572 0.86900002
-0.094889328 -0.13061038 0.86900002
-0.085324213 -0.13179544 0.86900002
-0.074457601 -0.13291922 0.86887515
-0.06780228 -0.13154149 0.86900002
-0.1414452 -0.1241772 0.86900002
-0.13537808 -0.12496452 0.86845952
-0.12532189 -0.12458036 0.86714655
-0.11500568 -0.12487951 0.86792684
-0.10513677 -0.12482508 0.86742866
-0.095064998 -0.12472831 0.86752403
-0.085243411 -0.12461773 0.86748564
-0.075040035 -0.12502478 0.86504894
-0.065059207 -0.12517302 0.86645949
-0.05525782 -0.12493563 0.86510348
-0.044718605 -0.12442681 0.86677778
-0.03830098 -0.12479671 0.86800003
-0.0113616 -0.1211904 0.86400002
-0.0090908138 -0.12198094 0.86425
-0.14093731 -0.11884443 0.86900002
-0.13557798 -0.11504374 0.86821961
-0.12574832 -0.11516991 0.86505425
-0.11516415 -0.11516459 0.86422229
-0.10496475 -0.11553927 0.86137146
-0.095145948 -0.11595673 0.8628574
-0.084814541 -0.11690978 0.86094743
-0.075241275 -0.11503067 0.86055285
-0.065328792 -0.11793527 0.86107695
-0.055806309 -0.11352279 0.86309516
-0.04637216 -0.11665366 0.86233336
-0.0093817944 -0.11891486 0.86766672
-0.13384564 -0.10583052 0.8674584
-0.12489859 -0.10521483 0.86342847
-0.11581947 -0.10577551 0.86075872
-0.080670863 -0.1063046 0.86000001
-0.078409061 -0.1085664 0.86000001
-0.060847461 -0.10470183 0.86224997
-0.056421392 -0.10575019 0.86520004
-0.0030472933 -0.1013225 0.86900002
-0.13179544 -0.099417947 0.86900002
-0.12369715 -0.095937721 0.86490005
-0.11616334 -0.093874484 0.86108011
-0.061068598 -0.096503466 0.86000001
-0.058806803 -0.096503459 0.86000007
-0.0113616 -0.099224642 0.86400002
-0.004866973 -0.09664388 0.86256003
0.0043150438 -0.095045142 0.86534482
-0.12163779 -0.088625453 0.86900002
-0.11417923 -0.087013312 0.86431998
-0.10525932 -0.084822483 0.86040932
0.0060647153 -0.087281071 0.86074078
0.011309 -0.087456271 0.86000001
-0.10371175 -0.076770611 0.86504012
-0.098259427 -0.072080404 0.86550003
-0.094358183 -0.066120736 0.86343491
-0.089822389 -0.063404918 0.86100006
-0.081801765 -0.054283198 0.86000001
0.076290682 -0.002264956 0.86160004
0.081744783 -0.0031954502 0.8682
-0.0042569339 0.0050792466 0.86472738
0.0015085678 0.0067910105 0.86079997
0.075325154 0.0056723417 0.86402726
0.082276918 0.0053327633 0.86900014
-0.00076182332 0.01142735 0.86900002
0.0055333208 0.015247582 0.86248386
0.012520554 0.018253954 0.86040002
0.058806799 0.018848334 0.86000001
0.065646298 0.015971633 0.86140752
0.074835405 0.014490423 0.86657155
0.081515096 0.012189174 0.86900002
0.0083617717 0.021398807 0.86728567
0.01556896 0.023972549 0.86465383
0.024506273 0.0272594 0.86274076
0.034616936 0.028203903 0.86074996
0.045706648 0.02758386 0.86142868
0.055080839 0.025125924 0.86185014
0.064566106 0.024699645 0.86585295
0.071446583 0.022042032 0.86700004
0.025723957 0.031812411 0.8674168
0.035194952 0.033003382 0.86644453
0.045282125 0.033425141 0.86646163
0.053810779 0.033125672 0.86452943
0.062018469 0.031578846 0.86800003
-0.1624095 -0.17164606 0.87800014
-0.15565971 -0.17140923 0.8780002
-0.14778495 -0.17010665 0.87800002
-0.16312341 -0.16401966 0.87700009
-0.15480012 -0.1647675 0.87595117
-0.14498669 -0.16396245 0.87605411
-0.13645448 -0.16359386 0.87759107
-0.16464366 -0.15459132 0.87572736
-0.1553494 -0.15511404 0.87492311
-0.14497873 -0.15495083 0.87500012
-0.13502721 -0.1545856 0.87728572
-0.12854213 -0.15009409 0.87800002
-0.16333295 -0.14569725 0.87582767
-0.15507367 -0.14469418 0.87431806
-0.14484325 -0.14484641 0.8741836
-0.13461368 -0.14470683 0.87554777
-0.12554678 -0.14364001 0.87680012
-0.11447357 -0.14225796 0.87766683
-0.10508773 -0.14219917 0.87783355
-0.094874091 -0.14242581 0.87770015
-0.084428377 -0.14246148 0.87622738
-0.075260408 -0.14280625 0.87552643
-0.066886596 -0.14172296 0.87700009
-0.059267927 -0.14085753 0.87800002
-0.16305995 -0.1349173 0.87626326
-0.15518634 -0.13489637 0.87329978
-0.14560077 -0.13475701 0.87203026
-0.13449833 -0.13581094 0.87171429
-0.12514821 -0.13620169 0.87262958
-0.11523711 -0.13456993 0.87265795
-0.10510255 -0.13546884 0.87328571
-0.095047168 -0.13581391 0.87382144
-0.084783927 -0.13460645 0.87164992
-0.075352967 -0.13700174 0.87100017
-0.064484283 -0.13543932 0.87422854
-0.055325303 -0.13423054 0.87489998
-0.045502596 -0.13267659 0.87530005
-0.036645833 -0.1312145 0.87700003
-0.16059525 -0.12908959 0.87650001
-0.15439373 -0.12561965 0.87542862
-0.14649284 -0.12524308 0.87203449
-0.083229855 -0.12904446 0.87100005
-0.051159635 -0.12904446 0.87100005
-0.044860132 -0.12885357 0.87100017
-0.036600452 -0.12816378 0.8724286
-0.15284909 -0.11624375 0.87668759
-0.14534035 -0.11504976 0.87278926
-0.057268251 -0.11071862 0.87100005
-0.14282154 -0.10575072 0.87540007
-0.13788341 -0.10354237 0.87192321
-0.0051753526 -0.10274348 0.87100017
0.0012726277 -0.10206475 0.87100005
-0.14085753 -0.099293016 0.87800002
-0.13389608 -0.095899738 0.87400007
-0.12751977 -0.092592411 0.87290919
-0.12314282 -0.087348528 0.87488896
-0.11546773 -0.083349742 0.87225008
-0.10461 -0.074066937 0.87100005
0.085241362 -0.021119777 0.87600005
0.086046867 -0.015324814 0.87377787
-0.009926497 -0.00076357665 0.87100005
0.085216559 -0.0060117203 0.87271434
-0.01145365 0.0030543064 0.87100005
-0.0087626884 0.0070013967 0.87207705
0.084757008 0.00076357665 0.87100005
-0.0035780659 0.013798442 0.87422234
0.0012743809 0.017336374 0.87233335
0.07559409 0.019089416 0.87100005
0.006080268 0.023562519 0.87446678
0.013646924 0.028068384 0.8731668
0.074066937 0.02061657 0.87100005
0.016681323 0.031838011 0.87512505
0.025708163 0.034429595 0.8727001
0.034854352 0.037081886 0.87290919
0.042962804 0.036471527 0.87125015
0.063376866 0.031306643 0.87100005
-0.16235533 -0.18196848 0.8878001
-0.15485269 -0.18284363 0.88477272
-0.14508887 -0.18324356 0.88220006
-0.13576365 -0.18258657 0.8849566
-0.12673639 -0.18217693 0.88776928
-0.17254058 -0.17305487 0.88433343
-0.16578218 -0.17535877 0.88176924
-0.15431531 -0.175869 0.88046134
-0.14491157 -0.17464963 0.88035262
-0.13525712 -0.17467971 0.88164282
-0.12499841 -0.17504716 0.88512176
-0.11553846 -0.17288886 0.88799995
-0.10936972 -0.17119868 0.88900012
-0.17442292 -0.16443974 0.88316673
-0.16798656 -0.16618618 0.88033342
-0.14194986 -0.1689512 0.88000005
-0.13300084 -0.16625105 0.88
-0.12441359 -0.16494694 0.88224435
-0.11500487 -0.16474006 0.8863886
-0.10538474 -0.16461253 0.88768399
-0.096083552 -0.16261783 0.88884616
-0.086508587 -0.16132683 0.88900006
-0.18085475 -0.15446535 0.88540012
-0.17497537 -0.15463917 0.88281077
-0.1689512 -0.1596936 0.88000005
-0.13068645 -0.15691632 0.88
-0.12459397 -0.15510841 0.88204569
-0.11476224 -0.15508406 0.88450021
-0.1048791 -0.15519381 0.88422501
-0.095023438 -0.15515445 0.8858158
-0.085010536 -0.1555602 0.88719988
-0.075668409 -0.15315199 0.88677788
-0.065599568 -0.15187567 0.88660014
-0.058406744 -0.15030305 0.88833332
-0.18036453 -0.14785421 0.88300008
-0.17485712 -0.14545196 0.88400006
-0.16833401 -0.14441852 0.88
-0.12215184 -0.14797895 0.88190001
-0.1150072 -0.14715116 0.88099998
-0.1048224 -0.14722334 0.88021058
-0.094981313 -0.14749515 0.88085711
-0.085440986 -0.14786175 0.88120008
-0.074435771 -0.14784151 0.8813889
-0.064419143 -0.14631481 0.8819201
-0.055181649 -0.14492266 0.88428116
-0.045517057 -0.14292033 0.88600004
-0.037621897 -0.14127673 0.88614291
-0.17376237 -0.13568366 0.88444835
-0.16772377 -0.13463897 0.88117653
-0.053427957 -0.13919128 0.88044447
-0.044817202 -0.13754475 0.8814286
-0.035507776 -0.13587306 0.88300002
-0.02870645 -0.13732545 0.88500005
-0.17087489 -0.12672655 0.88866669
-0.16519488 -0.12466888 0.88488561
-0.15892214 -0.12343466 0.88000005
-0.1632141 -0.11760689 0.88592857
-0.1562123 -0.11390281 0.88326323
-0.14889306 -0.11031973 0.88000005
-0.15311065 -0.1065046 0.88745004
-0.14679871 -0.10370632 0.88323539
-0.1422613 -0.097558752 0.88674998
-0.13621013 -0.09257406 0.88421434
-0.13239127 -0.088259876 0.88833332
-0.12554535 -0.085246146 0.88565004
-0.11702163 -0.081950583 0.88400006
0.024660341 -0.080733113 0.88833338
-0.11273383 -0.078522526 0.88685715
-0.1069124 -0.073306724 0.88800001
0.026727518 -0.075220212 0.88804764
0.031708818 -0.072860129 0.88575006
0.028316624 -0.068843178 0.88900012
0.035368979 -0.065174364 0.88705391
0.041977931 -0.062805779 0.88442862
0.038678534 -0.05684891 0.88833332
0.044756725 -0.054892879 0.885921
0.05097378 -0.057154283 0.88100004
-0.025941441 -0.041751247 0.889
0.03974719 -0.04208526 0.88900006
0.045282867 -0.045105938 0.88842845
0.051260572 -0.043252856 0.88785714
-0.023405813 -0.037513755 0.88817644
-0.014937365 -0.034669477 0.88839382
-0.0056388741 -0.032137003 0.889
0.0059231105 -0.031330138 0.88900006
0.01526962 -0.032704119 0.889
0.024874466 -0.032797933 0.889
0.035569839 -0.032577109 0.889
0.044833511 -0.035440221 0.88900006
0.050582204 -0.038130034 0.8876667
-0.011066864 -0.027900968 0.88900006
-0.0041077868 -0.025634792 0.88789642
0.0046699052 -0.024907565 0.88777757
0.014791538 -0.024916155 0.88809514
0.024917401 -0.024919543 0.8882221
0.034587268 -0.02520504 0.88815761
0.042345047 -0.027797053 0.889
0.005711922 -0.018434109 0.88850003
0.014874624 -0.016625766 0.88724971
0.023774125 -0.018758621 0.88744444
0.031104133 -0.019440083 0.88700002
-0.016531305 -0.0022280777 0.88660008
-0.16302523 -0.18561049 0.89166665
-0.15856533 -0.18668529 0.89100003
-0.13200758 -0.18668529 0.89100003
-0.12295448 -0.18404703 0.8933636
-0.1153946 -0.18251437 0.89543742
-0.10636497 -0.1820714 0.8968572
-0.11393982 -0.17790537 0.89249998
-0.10489687 -0.17565726 0.89391446
-0.094858997 -0.17417699 0.8938337
-0.085506022 -0.17218766 0.89400005
-0.078635246 -0.17059405 0.89400005
-0.10232541 -0.16911033 0.89100003
-0.094418146 -0.1669254 0.8913914
-0.084787138 -0.1648628 0.89227295
-0.075669281 -0.16422668 0.89390647
-0.069908909 -0.16102614 0.89600003
-0.074039958 -0.15752748 0.89192301
-0.065244578 -0.15648887 0.89557898
-0.055029381 -0.15383486 0.89599991
-0.048819371 -0.15192589 0.89100003
-0.050772149 -0.14841089 0.89100003
-0.048689187 -0.14815052 0.89100003
-0.17340642 -0.13044538 0.89100003
-0.17314605 -0.12836242 0.89100003
-0.16272713 -0.11272033 0.89338464
-0.16143887 -0.10778266 0.89480001
-0.15606542 -0.10402476 0.89219987
-0.14919201 -0.10076319 0.89100003
-0.15142067 -0.099216923 0.89680004
-0.1438809 -0.094994023 0.89553338
-0.13872197 -0.090130098 0.89400005
-0.14091715 -0.088958874 0.89800006
-0.13454087 -0.085395172 0.89447612
-0.12599693 -0.081563964 0.89174992
-0.11872872 -0.080454327 0.89100003
0.016165277 -0.084326312 0.89711118
0.021867573 -0.082875066 0.8954286
-0.13147019 -0.079511911 0.89800006
-0.1241217 -0.077377662 0.89610004
-0.11532813 -0.075809665 0.89429998
-0.1062783 -0.070379861 0.89800006
0.008659713 -0.070064954 0.89800006
0.015240335 -0.07480219 0.89680499
0.02246353 -0.074374124 0.89179993
-0.10234207 -0.068490461 0.89800006
-0.02174776 -0.061052818 0.89666671
-0.015835559 -0.061970141 0.89762497
-0.0040486967 -0.061855096 0.89799994
0.0053675901 -0.062979743 0.89800012
0.0151488 -0.064853698 0.89706659
0.024836505 -0.064782955 0.89476931
0.031452499 -0.06192828 0.89137495
-0.023671985 -0.054279234 0.89617389
-0.014926501 -0.055001434 0.89623815
-0.0047177323 -0.055048428 0.89700019
0.0047163693 -0.055034608 0.89677787
0.014927504 -0.054999929 0.89623803
0.025093412 -0.054896489 0.89455593
0.034070913 -0.054213434 0.89221895
-0.030497482 -0.044574991 0.89200002
-0.024817554 -0.046261672 0.89327615
-0.01488774 -0.045463372 0.89407158
-0.0045471773 -0.045266766 0.89594728
0.0046058642 -0.045404986 0.89589185
0.014901225 -0.0454964 0.89473832
0.025054911 -0.045416683 0.8931393
0.034967888 -0.045534581 0.89242518
0.041398831 -0.047647711 0.89100003
-0.012664765 -0.038938992 0.89189994
-0.0042541581 -0.036997892 0.89291322
0.0044152611 -0.03626626 0.89235514
0.014276358 -0.038073547 0.89127278
0.025082311 -0.038187604 0.89099991
0.034629211 -0.037753653 0.89100009
-0.1050536 -0.18246152 0.90100002
-0.070851617 -0.16646236 0.90133333
-0.066078261 -0.16282269 0.90268749
-0.058450874 -0.16034496 0.90100002
-0.061610378 -0.15876521 0.90100002
-0.058450874 -0.15876521 0.90100002
-0.16808943 -0.1153141 0.90300006
-0.15639558 -0.10031433 0.90100002
-0.15279835 -0.096568599 0.9059
-0.1475973 -0.094230667 0.9033078
-0.14281151 -0.087768607 0.90428573
0.0057150386 -0.083067328 0.90338886
0.012166732 -0.085168168 0.9012
-0.10979286 -0.070299022 0.90100002
-0.012191102 -0.071880005 0.903
-0.0047527021 -0.072092399 0.90366662
0.0050521567 -0.074762255 0.90241688
0.010584348 -0.076933995 0.90100002
-0.013363865 -0.066143289 0.90176189
-0.0051737675 -0.066534691 0.90154558
0.0037237045 -0.067252345 0.90100002
