# .PCD v0.7 - Point Cloud Data file format
VERSION 0.7
FIELDS x y z
SIZE 4 4 4
TYPE F F F
COUNT 1 1 1
WIDTH 688
HEIGHT 1
VIEWPOINT 0 0 0 1 0 0 0
POINTS 688
DATA ascii
-0.031321548 -0.068795539 0.63800001
-0.046085488 -0.093877852 0.64900005
-0.052475549 -0.085611448 0.64929163
-0.048225541 -0.08373864 0.64812499
-0.024904897 -0.083680786 0.6473704
-0.043997619 -0.075500973 0.64410454
-0.034767188 -0.073831357 0.64253587
-0.027635291 -0.076507755 0.64420599
-0.035426978 -0.06916216 0.64139998
-0.051678751 -0.093005054 0.65085709
-0.047812708 -0.094198272 0.65092856
-0.021023167 -0.091788404 0.6552
-0.017980058 -0.091052987 0.65557146
-0.048309203 -0.08857742 0.65000004
-0.021388711 -0.087976538 0.6513077
-0.018609222 -0.087480374 0.65325004
-0.028491667 -0.073508501 0.65000004
-0.03689364 -0.11068092 0.66800004
-0.037069846 -0.10847932 0.66766673
-0.0013249662 -0.085181005 0.66768432
0.0034950557 -0.084040157 0.66719508
0.0026352599 -0.07876499 0.66800004
-0.032343842 -0.11197913 0.6708234
-0.027662689 -0.11125602 0.67720002
0.10725469 -0.11082556 0.67874998
0.11510511 -0.11095953 0.67540008
-0.03271785 -0.10626829 0.67089456
-0.026560899 -0.1053031 0.67497373
-0.019643471 -0.10893197 0.67900002
0.089288503 -0.10059837 0.67900002
0.095512144 -0.10233457 0.67866689
0.10829257 -0.10694043 0.67872727
0.1148932 -0.10535693 0.67723185
0.12048118 -0.10801849 0.67700005
-0.030018294 -0.096883759 0.67139995
-0.026998281 -0.096642211 0.67111105
-0.012899587 -0.091206327 0.67307138
-0.0064777872 -0.090468094 0.67155552
0.087160997 -0.094272196 0.67535138
0.0948819 -0.094880745 0.6764062
0.10059837 -0.097026832 0.67900008
-0.022145107 -0.08291962 0.67689478
-0.014721686 -0.084561288 0.6744265
-0.0059255585 -0.084608182 0.67131913
0.0065930197 -0.081004694 0.67011112
0.010000137 -0.080589339 0.671
0.0795312 -0.08129856 0.67200005
0.084907465 -0.084663182 0.67154872
0.094734564 -0.084823921 0.67483824
-0.020833984 -0.079169139 0.67900002
-0.013187113 -0.07626576 0.67744458
-0.0047367299 -0.075114042 0.67472208
0.0048333085 -0.074570246 0.67216182
0.013025908 -0.073199347 0.67235726
0.079031788 -0.07556399 0.67699999
0.084742874 -0.075505801 0.6750434
0.093338899 -0.07657373 0.67714292
-0.0031230703 -0.068533033 0.6783126
0.0050413525 -0.066697635 0.67686373
0.014990536 -0.064900972 0.67615801
0.023608124 -0.065220647 0.67770743
0.030358089 -0.062501952 0.67900002
0.081550166 -0.069645032 0.67900002
-0.021713279 -0.12002619 0.68800002
-0.015362499 -0.12137441 0.68800002
-0.0090472 -0.12002619 0.68800002
0.087265082 -0.1240668 0.68679422
0.092490003 -0.12286682 0.68427271
-0.031102382 -0.11698475 0.68666673
-0.02461547 -0.11491324 0.68480003
-0.016153298 -0.11699864 0.68660539
0.088516563 -0.11591259 0.68687505
0.094505399 -0.11453139 0.68388861
0.10268501 -0.11166543 0.68260008
-0.024441466 -0.1090924 0.68000001
0.089000843 -0.10647325 0.68712509
0.094677269 -0.10694874 0.68192315
0.10407185 -0.10446978 0.68095833
0.11068209 -0.10114396 0.68000001
0.10405716 -0.095794827 0.6817112
0.11028466 -0.099554263 0.68000001
-0.031828083 -0.072697058 0.68760008
-0.024810167 -0.074266255 0.68404913
-0.017283324 -0.073268734 0.68118191
0.065777309 -0.071492903 0.68645012
0.074588358 -0.072504699 0.6832
0.086254902 -0.07073155 0.68087494
0.093107849 -0.073329851 0.6813333
-0.024593802 -0.066085622 0.68704265
-0.01485424 -0.065153472 0.68384606
-0.0052525629 -0.06408903 0.68191069
0.0043088482 -0.061922815 0.68153566
0.012280347 -0.06044792 0.68000001
0.026746932 -0.062160924 0.6808573
0.034590043 -0.063175909 0.68269753
0.045412052 -0.063517287 0.68586016
0.055645276 -0.064613402 0.6877017
0.065040126 -0.065039814 0.68695337
0.074698813 -0.065817513 0.68559676
0.084063239 -0.067678668 0.6839999
-0.011158213 -0.059409946 0.68800002
-0.0037341616 -0.057560679 0.68683326
0.0050321533 -0.05560299 0.68623358
0.014855266 -0.054891884 0.68506491
0.025091453 -0.055349834 0.68378675
0.034694538 -0.056197975 0.68594241
0.044160381 -0.057621866 0.68734288
0.054608796 -0.05866579 0.68795449
0.064938791 -0.059148587 0.68800002
0.071171306 -0.05971152 0.68800002
0.0042833933 -0.14012815 0.69800001
-0.031796701 -0.1308561 0.69749999
-0.024090469 -0.130926 0.69787502
-0.014865285 -0.13134027 0.69779998
-0.0045039761 -0.13277034 0.69546163
0.003014168 -0.13496421 0.69728571
0.010402527 -0.13278519 0.69800001
0.082426175 -0.13097313 0.69649994
-0.041215606 -0.12364419 0.6965
-0.034226306 -0.12441659 0.69488257
-0.025228331 -0.12506609 0.69450921
-0.014333742 -0.12575454 0.69238919
-0.0067347093 -0.12639786 0.69410717
0.078936823 -0.12727797 0.69800001
0.082270384 -0.12502155 0.69319528
-0.031454802 -0.1191653 0.69000006
-0.026817234 -0.1191653 0.69000006
0.085104644 -0.11548025 0.69200003
-0.0033626738 -0.10224953 0.69715011
0.0039790696 -0.10302837 0.69651729
0.01037272 -0.10128656 0.69600004
0.087152392 -0.10863884 0.69037503
0.090130098 -0.1070673 0.69000006
-0.07279183 -0.092519008 0.69774997
-0.064576782 -0.091496974 0.69790906
-0.059270557 -0.091044463 0.69700003
-0.010398801 -0.097871721 0.69774997
-0.0046327328 -0.097086549 0.69508117
0.0048571727 -0.09498658 0.69272268
0.01037272 -0.099456079 0.69600004
-0.084672764 -0.084076934 0.69664103
-0.074742742 -0.084852576 0.69713497
-0.064776674 -0.085241228 0.69584846
-0.057765082 -0.084080167 0.69438893
-0.11289801 -0.072307765 0.69800001
-0.093733996 -0.072483912 0.69800001
-0.085414268 -0.074869052 0.69649976
-0.075019278 -0.074505284 0.69636571
-0.06448327 -0.075124681 0.69387525
-0.054800346 -0.075203188 0.69306493
-0.045409512 -0.073493592 0.69253874
-0.036684174 -0.072074756 0.69306254
0.097460255 -0.07200443 0.69566673
0.10067639 -0.073829353 0.69600004
-0.11198014 -0.069146208 0.69800001
-0.092704862 -0.067616418 0.69800001
-0.084904268 -0.065177232 0.69740975
-0.074766241 -0.064881898 0.69676101
-0.064654775 -0.065162554 0.69679689
-0.054870453 -0.065179624 0.69623178
-0.045203224 -0.065218069 0.69515705
-0.034651294 -0.064542204 0.69325602
-0.027571581 -0.062247347 0.69078958
0.077824034 -0.061469823 0.69083333
0.085283577 -0.063057512 0.69256765
0.09312804 -0.067340359 0.69520009
-0.074041516 -0.059355598 0.69800001
-0.063638985 -0.05935559 0.69800001
-0.054571543 -0.059021827 0.69800001
-0.045166276 -0.058625799 0.69788229
-0.03455789 -0.056871109 0.69714296
-0.025020186 -0.055801697 0.69450033
-0.014954277 -0.055218413 0.69337177
-0.0058478974 -0.053503301 0.69234228
0.00060490001 -0.052626301 0.69000006
0.018225901 -0.050424989 0.69300002
0.025485797 -0.050673306 0.69225001
0.035635538 -0.051269662 0.69130003
0.045399219 -0.052701794 0.69144756
0.054889578 -0.053882238 0.69184631
0.065120094 -0.054190423 0.6935519
0.074280396 -0.056151323 0.69450003
0.083065838 -0.058267556 0.69670004
-0.013939613 -0.049148828 0.69730002
-0.0091786999 -0.04956498 0.69800001
0.017618369 -0.048602402 0.69300002
0.024031563 -0.048756447 0.69271427
0.035839394 -0.048541084 0.69431257
0.044011414 -0.048402235 0.6954
0.053914487 -0.04884604 0.69358331
0.067922384 -0.049564976 0.69800001
-0.030356044 -0.14186864 0.70666671
-0.026074193 -0.14230742 0.70738095
0.0066201966 -0.14148308 0.70066667
0.014584101 -0.1405874 0.70557147
-0.030468659 -0.1352654 0.70212507
-0.024947839 -0.13615759 0.70336604
-0.014932555 -0.13275655 0.70000005
0.0073644808 -0.13685727 0.70004994
0.013152016 -0.13754961 0.70390004
0.076757498 -0.13150431 0.70425004
-0.043256585 -0.12173411 0.704889
-0.037413847 -0.12227921 0.70660001
0.076506749 -0.12484372 0.70436358
0.080390334 -0.12089233 0.70000005
-0.045227569 -0.11709894 0.70767516
-0.039102841 -0.11979124 0.708
-0.0039491523 -0.1121121 0.70694739
0.0056337817 -0.11236269 0.70396674
0.014414784 -0.11317137 0.70346516
0.020366719 -0.1110912 0.70400006
0.079390585 -0.11852884 0.70640004
0.082180776 -0.11692088 0.70133328
-0.072141454 -0.10409875 0.70718181
-0.065955132 -0.10283233 0.70675868
-0.059865814 -0.10059925 0.70400006
-0.011736353 -0.10538873 0.70452392
-0.0057863402 -0.10658175 0.70250016
0.0058482043 -0.10731208 0.70052183
0.014338539 -0.10720747 0.70331264
-0.17180422 -0.092729598 0.70800006
-0.16581953 -0.093914896 0.70779425
-0.15951476 -0.091860637 0.708
-0.11406513 -0.091971889 0.70790005
-0.10512768 -0.091938213 0.70800012
-0.094447978 -0.093166053 0.70680654
-0.085848287 -0.093134344 0.70540005
-0.075212039 -0.095980093 0.7033872
-0.065447733 -0.096428767 0.70355576
-0.059535969 -0.098096147 0.70375007
-0.012273334 -0.098186664 0.70000005
-0.17233279 -0.084979989 0.70755899
-0.16492555 -0.085404336 0.70733362
-0.15514085 -0.08537399 0.70744288
-0.14551346 -0.084983781 0.70720023
-0.1349989 -0.083959348 0.70720941
-0.12464874 -0.084044479 0.70738113
-0.11494891 -0.085288554 0.70493758
-0.10497092 -0.085215501 0.70434386
-0.095054001 -0.085186146 0.70352393
-0.086249463 -0.088505559 0.70108336
-0.17181551 -0.077133596 0.70800012
-0.16447829 -0.07563851 0.70762098
-0.15502618 -0.075472042 0.70618761
-0.14493406 -0.075395443 0.70535409
-0.13458104 -0.075203307 0.70373803
-0.12485501 -0.075402036 0.70341671
-0.11489774 -0.075305894 0.70100015
-0.10463365 -0.075093992 0.70207798
-0.095914088 -0.076334238 0.70052946
-0.16199748 -0.067081183 0.70800012
-0.15483794 -0.065466926 0.7065264
-0.14512256 -0.064999387 0.70543671
-0.13474323 -0.064991087 0.70372933
-0.12488792 -0.064737789 0.70292276
-0.11472103 -0.065253928 0.7013582
-0.10452919 -0.065172628 0.70137495
-0.095572241 -0.064237177 0.70078272
-0.086936109 -0.060957551 0.70000005
0.088981666 -0.060752999 0.70000005
0.095418125 -0.063627169 0.70375872
0.10059925 -0.069740586 0.70400006
-0.14208554 -0.058633436 0.70775002
-0.13453232 -0.057880882 0.70718181
-0.12486318 -0.056782741 0.7068783
-0.11487704 -0.056378927 0.70562977
-0.10495131 -0.056622792 0.70527464
-0.095304102 -0.055718254 0.70541292
-0.085005589 -0.056400515 0.70447189
-0.075005516 -0.055420212 0.70372903
-0.065058731 -0.054898098 0.70373768
-0.055437114 -0.054600026 0.70321149
-0.04503544 -0.053723857 0.7026667
-0.036257088 -0.052996907 0.70182163
-0.024900742 -0.05109496 0.70033336
0.076941311 -0.052754808 0.70411772
0.084763996 -0.055593997 0.70514715
0.092279688 -0.057920843 0.70740002
-0.053165074 -0.049638368 0.70400006
-0.04568994 -0.048783787 0.70530009
-0.034992285 -0.048410341 0.70592314
-0.024624579 -0.049241606 0.70212507
-0.015587134 -0.047988735 0.69999999
-0.0073639997 -0.049706999 0.70000005
0.068274796 -0.04903372 0.708
0.071378201 -0.04903372 0.708
-0.021903597 -0.14404541 0.71018183
-0.019295434 -0.14378209 0.71000004
0.018465521 -0.14046246 0.71000004
0.02466963 -0.14097175 0.71173346
0.036126949 -0.14119233 0.71722233
0.043339182 -0.14121863 0.71877778
0.016437873 -0.1352355 0.71587497
0.024774494 -0.13608509 0.71399999
0.034055226 -0.13763194 0.71753323
0.04244177 -0.13846101 0.71900004
0.057412725 -0.13438706 0.71799999
0.064512417 -0.13254729 0.71543336
0.071888775 -0.13156889 0.71060002
-0.048332386 -0.1224002 0.71600002
-0.036225621 -0.12112553 0.71000004
-0.0021385406 -0.12119863 0.71780002
0.0036810255 -0.12127455 0.71511108
0.059628587 -0.1277035 0.71900004
0.065682687 -0.12626094 0.71627444
0.072606809 -0.12392444 0.71222585
-0.17289947 -0.1142791 0.71753311
-0.16488482 -0.11256132 0.71695822
-0.15441012 -0.11316701 0.71828562
-0.14564613 -0.1124996 0.71836358
-0.13930145 -0.11030658 0.71900004
-0.091144755 -0.11081084 0.71900004
-0.088875592 -0.11093691 0.71900004
-0.073945075 -0.11347477 0.71535492
-0.065579727 -0.11387184 0.7172249
-0.055157922 -0.11470972 0.71222228
-0.045437634 -0.1139053 0.71000004
-0.038590867 -0.11888476 0.71000004
-0.012565208 -0.11277609 0.71218753
-0.0053360439 -0.11643381 0.71241957
0.0036089316 -0.11750942 0.71247828
0.077580325 -0.11803499 0.71366668
0.083543479 -0.11413804 0.71523994
-0.18247181 -0.1036593 0.71855545
-0.17459974 -0.10526677 0.71419299
-0.16486448 -0.10504614 0.71273029
-0.15497649 -0.10515996 0.7139107
-0.14491586 -0.10516398 0.71493751
-0.13613082 -0.1032628 0.718108
-0.1244646 -0.10109416 0.71899992
-0.11466078 -0.10246001 0.7174499
-0.1044502 -0.10311427 0.71629995
-0.094875418 -0.10433961 0.71464717
-0.085638426 -0.10381261 0.7150231
-0.076624148 -0.10568594 0.71334481
-0.065109946 -0.1085694 0.71420002
-0.05791406 -0.10897697 0.71033335
-0.015560833 -0.10892583 0.71000004
-0.18249288 -0.097284958 0.71689469
-0.17566912 -0.095386229 0.71136576
-0.16413754 -0.096727461 0.71009529
-0.1548636 -0.095153823 0.7104215
-0.1444753 -0.094975047 0.71111476
-0.13514537 -0.095002688 0.71387321
-0.12501085 -0.094722904 0.71447289
-0.1148117 -0.09612684 0.71156806
-0.10470194 -0.096651345 0.71079469
-0.09609428 -0.097636856 0.71066678
-0.084115654 -0.097670309 0.7107501
-0.078671187 -0.098598398 0.71033335
0.10808876 -0.092378594 0.71683335
-0.18457106 -0.084500238 0.71672076
-0.17766531 -0.08465194 0.7114802
-0.14203213 -0.088670202 0.71014291
-0.13437064 -0.0883945 0.71007144
-0.12695263 -0.0881254 0.71018183
0.10789838 -0.084527053 0.71849996
0.11201534 -0.083089955 0.71889466
-0.18281758 -0.076849006 0.71726078
-0.17541707 -0.074348174 0.71270001
-0.16800362 -0.071858704 0.71030003
0.10611501 -0.074420013 0.71453327
0.11153237 -0.077505812 0.71877778
-0.17332235 -0.066564664 0.71658623
-0.16577747 -0.064246193 0.71222514
-0.1558158 -0.060790997 0.71000004
-0.14627184 -0.060376033 0.71000004
0.098453291 -0.062344398 0.71014291
0.10385932 -0.065354496 0.71499991
-0.16278209 -0.058687862 0.71600008
-0.15420239 -0.057086855 0.71520591
-0.14496429 -0.054682367 0.71385705
-0.13526925 -0.053423844 0.71358979
-0.12492847 -0.051931247 0.71236008
-0.11485419 -0.051468372 0.7111668
-0.10543794 -0.051486216 0.71121067
-0.093569905 -0.050889146 0.71027279
-0.08499597 -0.051364273 0.7104212
-0.076412775 -0.050615225 0.71028572
-0.065129898 -0.050766598 0.71200007
0.064936228 -0.050576873 0.71225005
0.076043822 -0.050488111 0.71100003
0.086416066 -0.05226703 0.71054554
0.095187031 -0.054519638 0.71347815
0.10190043 -0.058117349 0.71799999
-0.14434405 -0.049795542 0.71899998
-0.13349549 -0.049084764 0.7185384
-0.12451635 -0.047262769 0.71722835
-0.11535639 -0.047348984 0.71637148
-0.10555068 -0.048136275 0.7159999
-0.095137112 -0.048334654 0.71440905
-0.084402889 -0.048870187 0.71533334
-0.077099249 -0.04890772 0.71609092
-0.065033436 -0.049352277 0.71487498
-0.036723565 -0.047927365 0.71000004
0.048563246 -0.047051635 0.71693331
0.055639654 -0.045321494 0.717094
0.065080121 -0.044992693 0.71514511
0.074932545 -0.045425285 0.71510535
0.084605053 -0.046514962 0.71604437
0.092916846 -0.048300888 0.71821421
0.059880715 -0.039710369 0.71900004
0.064292975 -0.039710369 0.71900004
0.037661601 -0.14159919 0.72000003
0.046077602 -0.14075761 0.72000003
0.0077121342 -0.13505325 0.72666669
0.013979154 -0.13184242 0.72348005
0.025989223 -0.13196823 0.72130013
0.036098104 -0.13337669 0.7217499
0.045356654 -0.13472538 0.72130007
0.052824434 -0.13427253 0.72038704
-0.16438372 -0.12223686 0.72423816
-0.15486911 -0.12341093 0.72541189
-0.14513768 -0.12366632 0.72659177
-0.13718569 -0.12343782 0.72759271
-0.09445557 -0.12062233 0.7280001
-0.084136978 -0.12258797 0.72554553
-0.075784028 -0.12290043 0.72541666
-0.064275086 -0.12297612 0.72485191
-0.054908182 -0.12419035 0.72579408
-0.048939917 -0.12584549 0.72500002
-0.012665422 -0.12093595 0.72225004
-0.0094680004 -0.1211904 0.72000003
0.0095731998 -0.12317517 0.72800004
0.015358659 -0.12690088 0.72769231
0.026222257 -0.12786567 0.7243824
0.034472112 -0.12837397 0.72652006
0.04567422 -0.12799305 0.72566682
0.054736566 -0.12579904 0.72355002
0.063797854 -0.12173531 0.72243494
0.071058653 -0.12095852 0.72050005
-0.1649579 -0.11754607 0.72145444
-0.15508573 -0.11773916 0.72115397
-0.1438745 -0.11648086 0.72196776
-0.13497888 -0.11484481 0.72387266
-0.12533616 -0.11435156 0.72621733
-0.11487506 -0.11377911 0.72481585
-0.10454998 -0.11414122 0.72525573
-0.095190711 -0.11507537 0.72397864
-0.084371284 -0.11491926 0.72084755
-0.07620547 -0.11759887 0.7208001
-0.064906411 -0.11856566 0.72066683
-0.058070403 -0.1192968 0.72000003
-0.015044324 -0.11757064 0.72152179
-0.0094680004 -0.1192968 0.72000003
0.0670157 -0.11910089 0.72592312
0.075045787 -0.11650457 0.7236501
0.081773423 -0.11237419 0.72216678
-0.18541263 -0.104211 0.72042876
-0.13341342 -0.10708226 0.72046173
-0.1254628 -0.10610761 0.72138757
-0.11505127 -0.10714314 0.72097141
-0.10558566 -0.10794578 0.72043496
-0.098467201 -0.1091976 0.72000003
-0.083785549 -0.10834514 0.72062516
-0.18872879 -0.086474396 0.72000003
0.1079352 -0.085212 0.71999997
0.11046001 -0.084791206 0.72000003
-0.18234503 -0.071689665 0.72185719
-0.17926079 -0.070694402 0.72000003
0.10934927 -0.070791706 0.72100008
0.11269038 -0.072867997 0.72350007
-0.18236403 -0.06613525 0.72543764
-0.1760089 -0.062780254 0.72182149
0.10878804 -0.064151689 0.72216672
0.11203085 -0.065511599 0.72485006
-0.17264649 -0.057187323 0.72669232
-0.16473404 -0.055314701 0.72480643
-0.15620355 -0.052485727 0.72317249
-0.072106272 -0.050917234 0.7215001
0.032325331 -0.050072569 0.72300005
0.099236041 -0.050565258 0.72100008
0.10485255 -0.054570902 0.72422737
0.11041091 -0.058715627 0.72800004
-0.167419 -0.047814496 0.72475004
-0.15340593 -0.048344728 0.72564286
-0.1445435 -0.046984632 0.72292858
-0.13502422 -0.044695169 0.72253174
-0.12519515 -0.042113308 0.72325724
-0.11468839 -0.042340904 0.72350001
-0.10480846 -0.043030798 0.72477543
-0.094840027 -0.043706 0.72483331
-0.085444532 -0.044050008 0.72439623
-0.075003691 -0.045631085 0.72462225
-0.067199901 -0.048135024 0.72487503
0.036761995 -0.046334643 0.72648001
0.044280067 -0.043837648 0.72470838
0.05281115 -0.041257184 0.7208572
0.078058399 -0.041448802 0.72000003
0.085683241 -0.041966654 0.72082365
0.095303245 -0.04415486 0.72367394
0.10221714 -0.046964597 0.72678578
-0.1244516 -0.038931012 0.72800004
-0.11666539 -0.038165152 0.7280001
-0.10275234 -0.038931012 0.72800004
-0.095075883 -0.038923375 0.72785723
-0.08867044 -0.038913187 0.72766668
0.047943022 -0.038481288 0.72642863
0.055059008 -0.037388273 0.72353649
0.065265834 -0.035417322 0.72395927
0.074714594 -0.035650346 0.72341931
0.0848822 -0.036885973 0.72474462
0.093364805 -0.037583869 0.72666675
0.074670956 -0.029996026 0.72800004
-0.043406397 -0.1509506 0.73900002
-0.042274699 -0.14698321 0.73772734
-0.037396163 -0.14477766 0.73709387
-0.13330208 -0.13022391 0.73319995
-0.12290628 -0.13215362 0.73842859
-0.11603124 -0.13241868 0.73869574
-0.10539044 -0.13070402 0.73892307
-0.097826362 -0.13021919 0.73900002
-0.082971238 -0.13162373 0.73857147
-0.075143889 -0.13250276 0.73700017
-0.063858934 -0.132311 0.73861915
-0.055634677 -0.13219067 0.73794448
-0.044863123 -0.13251565 0.73880005
-0.038242903 -0.13648364 0.73725003
-0.0011891357 -0.13474555 0.73042858
0.0040494981 -0.13308822 0.73159993
-0.14015269 -0.12735337 0.73000002
-0.13352093 -0.12594987 0.7305882
-0.12463173 -0.12499963 0.73208022
-0.11494868 -0.12528272 0.73434007
-0.10492142 -0.12498732 0.73444432
-0.095012128 -0.1251242 0.73307914
-0.085803054 -0.12730438 0.73357898
-0.074353777 -0.12763765 0.73266667
-0.065496825 -0.1274478 0.73200005
-0.057596747 -0.12846899 0.73114288
0.0069073755 -0.12792429 0.73495466
0.012704141 -0.12759088 0.73074991
0.0360297 -0.12454057 0.73124009
0.044413134 -0.12382279 0.73205262
0.054782961 -0.12151577 0.73393339
0.060971111 -0.12104172 0.73520005
-0.13119316 -0.11967377 0.73000002
-0.12460645 -0.11936942 0.73027271
-0.11574582 -0.11899906 0.73069227
-0.10652127 -0.11900881 0.73049992
0.065664522 -0.11747685 0.73175001
0.071036302 -0.11583397 0.73000002
0.11917889 -0.073493443 0.73750001
0.12236273 -0.071539506 0.73849994
0.11709631 -0.064095207 0.73313642
0.12232336 -0.065198682 0.73826092
-0.1740308 -0.055002976 0.73031807
-0.16721126 -0.052417804 0.73016655
-0.057717979 -0.050661251 0.73150003
0.016130669 -0.051618129 0.73600006
0.020002026 -0.051618133 0.73600006
0.030718399 -0.050557368 0.73000002
0.10924596 -0.052702133 0.73016667
0.11545949 -0.055054717 0.73388892
0.12221692 -0.056251261 0.73866665
-0.16298044 -0.047590245 0.73164999
-0.15482911 -0.044242743 0.73266661
-0.14541581 -0.042511437 0.73154843
-0.13677125 -0.040540423 0.73016667
-0.11455403 -0.0403179 0.73000002
-0.08197096 -0.040345512 0.73049998
-0.07349845 -0.041516364 0.73159999
-0.06470032 -0.044303071 0.73338008
-0.055957425 -0.046747062 0.73470598
0.016602069 -0.04736001 0.73783332
0.024865475 -0.046245307 0.73641998
0.033120401 -0.043780439 0.73202556
0.041597832 -0.0403179 0.73000002
0.099194832 -0.040957868 0.73000002
0.10552515 -0.044087905 0.73122227
0.11447278 -0.045231026 0.73600012
-0.12542483 -0.036178365 0.73271799
-0.094895862 -0.035409328 0.73455274
-0.084993958 -0.035702936 0.73586673
-0.07593175 -0.037155028 0.73715651
-0.068794958 -0.039033879 0.73800009
0.03634448 -0.038115893 0.73694748
0.045158006 -0.034764212 0.7350769
0.054711599 -0.032323577 0.73422575
0.063994795 -0.030876528 0.73187506
0.077115983 -0.030718399 0.73000002
0.085496828 -0.031489432 0.73159999
0.09564358 -0.03328475 0.73197556
0.10457896 -0.034664795 0.73257142
0.11242519 -0.037602507 0.73576474
0.057647847 -0.028407509 0.73885715
0.065080509 -0.027624961 0.73670387
0.075032033 -0.026429167 0.73550016
0.08580254 -0.027243635 0.73746449
0.094057538 -0.026843078 0.73817259
0.1002819 -0.029114099 0.73800004
-0.034475792 -0.1509129 0.74200004
-0.051389545 -0.14107737 0.74675
-0.044911802 -0.14163728 0.74368751
-0.035752218 -0.14739943 0.74150008
-0.13183773 -0.13515693 0.74476933
-0.125793 -0.13506477 0.74284005
-0.11390035 -0.13478705 0.74121439
-0.10472445 -0.13363385 0.74105012
-0.094763838 -0.13415341 0.74283326
-0.086228818 -0.13419476 0.74291313
-0.070807487 -0.13446927 0.74100006
-0.066592403 -0.13415973 0.74108344
-0.053411096 -0.13658041 0.74272418
-0.045633424 -0.13676351 0.74286669
0.038740776 -0.12278856 0.74900001
0.045490816 -0.12133096 0.74722219
0.053584937 -0.12111545 0.7467857
0.061065968 -0.12016207 0.74900001
0.056064587 -0.11923558 0.74800009
0.065743245 -0.11758818 0.74688238
0.075162716 -0.1138171 0.7452051
0.081918679 -0.11213738 0.7464546
0.075511687 -0.1096561 0.74900001
0.08339116 -0.1096561 0.74900001
0.11935992 -0.080877759 0.74400002
0.12308177 -0.081543729 0.74811113
0.11903906 -0.078708887 0.74200004
0.12384415 -0.076244868 0.74383336
0.12485506 -0.064831078 0.74100006
-0.04512554 -0.050357487 0.74600005
0.0063172597 -0.052072801 0.74135995
0.012156987 -0.051690392 0.74100012
0.0065290541 -0.045005593 0.74513644
0.014230077 -0.044410292 0.74240535
0.023491662 -0.041691635 0.74142867
0.12017785 -0.04742153 0.74100006
0.019245462 -0.13073643 0.75700003
0.023129204 -0.13085708 0.75387508
0.017888382 -0.12668605 0.75580007
0.02568635 -0.12536407 0.75507843
0.03445261 -0.12331244 0.75422204
0.041465983 -0.12097685 0.75080001
0.02994255 -0.11777403 0.75900006
0.035325468 -0.11848883 0.75731575
0.045317341 -0.11725246 0.755
0.055298917 -0.11581168 0.75471067
0.064400375 -0.11371141 0.75406384
0.071858615 -0.11141171 0.75200009
0.085474998 -0.1111175 0.75000006
0.067420632 -0.10906932 0.75811112
0.075787373 -0.10815402 0.75518519
0.084999643 -0.10638118 0.75442874
0.07918141 -0.091158427 0.75900006
0.080512188 -0.092489213 0.75900006
0.026393803 -0.080955781 0.75900006
0.035440464 -0.081061117 0.75838459
0.045765854 -0.081688687 0.75879991
0.055031583 -0.081550464 0.75833327
0.065447763 -0.081247494 0.75887495
0.074969992 -0.084749125 0.75879991
0.124925 -0.082187496 0.75000006
0.02861177 -0.078649096 0.75900006
0.035680339 -0.077284455 0.75725001
0.045317616 -0.07651037 0.75823092
0.054894444 -0.07718087 0.75660002
0.063177861 -0.078091845 0.75857145
0.025224507 -0.12131839 0.76120007
0.017014723 -0.11227845 0.76757151
0.02539341 -0.11472839 0.76459569
0.034662116 -0.11355548 0.76158315
0.044388726 -0.11246356 0.76179975
0.054068055 -0.11158463 0.76141661
0.062044334 -0.11007866 0.76099998
0.016551448 -0.10517772 0.76802355
0.024892699 -0.1049642 0.76749998
0.034699168 -0.10500604 0.76427573
0.04506056 -0.10479788 0.765037
0.054997355 -0.10462522 0.76506245
0.064559564 -0.1045166 0.7628333
0.074552372 -0.1035314 0.76167464
0.083732761 -0.10210439 0.76123524
0.016521296 -0.094943978 0.76413876
0.024763348 -0.094375327 0.76344913
0.034894619 -0.094790734 0.76264507
0.044716939 -0.094594501 0.76352954
0.054891828 -0.094392255 0.76358932
0.064954937 -0.09473753 0.76240736
0.074630059 -0.094942875 0.76162922
0.082910754 -0.097519726 0.76133329
0.018042302 -0.088116527 0.76228577
0.025006671 -0.085235573 0.76137167
0.034554359 -0.085925728 0.76147586
0.044282719 -0.086349666 0.76125795
0.054720681 -0.086380363 0.76119423
0.064780042 -0.085991971 0.76136088
0.072866872 -0.087025143 0.76099992
0.027352877 -0.079390056 0.76100004
