# .PCD v0.7 - Point Cloud Data file format
VERSION 0.7
FIELDS x y z
SIZE 4 4 4
TYPE F F F
COUNT 1 1 1
WIDTH 558
HEIGHT 1
VIEWPOINT 0 0 0 1 0 0 0
POINTS 558
DATA ascii
-0.23138952 -0.05326689 0.75814289
-0.22455466 -0.054943733 0.75717652
-0.21755123 -0.053442128 0.75819993
-0.23205641 -0.045146689 0.757375
-0.22443439 -0.045043882 0.75346804
-0.21497414 -0.045180447 0.75660324
-0.20599842 -0.04414548 0.75860018
-0.23136415 -0.03544734 0.75853837
-0.22471151 -0.035029598 0.75682372
-0.21482846 -0.035290286 0.75694442
-0.20593767 -0.036594804 0.75815165
-0.23222111 -0.02994255 0.75900006
-0.22373524 -0.029316204 0.7586922
-0.21691713 -0.029277157 0.75900006
-0.13259354 -0.11136805 0.76620001
-0.13191181 -0.10706093 0.76624995
-0.12604895 -0.10443782 0.76726663
-0.1177527 -0.10179766 0.76900005
-0.12193017 -0.098064303 0.76842862
-0.11865157 -0.098089799 0.76900005
-0.23219411 -0.071288958 0.76860005
-0.22811568 -0.071174525 0.76833338
-0.24103424 -0.061942637 0.76800001
-0.23394628 -0.064554222 0.76600009
-0.22498076 -0.064890109 0.76418889
-0.21524572 -0.0637362 0.76645023
-0.20690244 -0.062336054 0.76838464
-0.24138506 -0.05462712 0.7633847
-0.23625033 -0.055183832 0.76228541
-0.22816302 -0.059375755 0.76100004
-0.21349744 -0.056052838 0.7618047
-0.20480205 -0.055067666 0.76417202
-0.19571857 -0.053395785 0.76732576
-0.18749045 -0.051310819 0.76900005
-0.24297844 -0.044435166 0.76449996
-0.23714289 -0.044787183 0.76165378
-0.20158847 -0.045921698 0.7610001
-0.19509453 -0.044921607 0.76477802
-0.1857028 -0.045207944 0.7686367
-0.24288778 -0.037542116 0.76547062
-0.236347 -0.034528393 0.76199985
-0.21186212 -0.030304085 0.76140004
-0.20363306 -0.032541383 0.76158035
-0.19540609 -0.035307139 0.76527697
-0.18825823 -0.038089853 0.76900005
-0.23083159 -0.028687162 0.76100004
-0.22340113 -0.025851972 0.76272219
-0.21429498 -0.025249016 0.76378578
-0.20493536 -0.024907554 0.76569819
-0.1977904 -0.026360657 0.76728565
-0.20438837 -0.018475439 0.76835722
-0.19822107 -0.018611634 0.76733333
-0.15174608 -0.18146789 0.77760011
-0.15296642 -0.17487936 0.77771419
-0.14836322 -0.17719081 0.77560008
-0.15251155 -0.16413598 0.77799994
-0.15455177 -0.15652971 0.77799994
-0.14082071 -0.12449368 0.77600002
-0.13779812 -0.12280362 0.77749997
-0.13585003 -0.11844432 0.77560008
-0.12993602 -0.1122484 0.77600002
-0.124715 -0.1050136 0.77281821
-0.11793358 -0.10305071 0.77166671
-0.12233971 -0.098006949 0.77100003
-0.11532871 -0.098627038 0.77233338
-0.22416599 -0.081163555 0.77800006
-0.21893698 -0.081163555 0.77800006
-0.2408817 -0.071246698 0.77400005
-0.23516107 -0.075422652 0.77461779
-0.22484715 -0.075755678 0.77420938
-0.21540441 -0.07460437 0.77329165
-0.20535854 -0.072713032 0.77652377
-0.19690809 -0.070996322 0.7772001
-0.24071637 -0.067055359 0.77260005
-0.23832139 -0.067825943 0.77174997
-0.22102256 -0.069618732 0.77100003
-0.21411958 -0.068909787 0.7711333
-0.20448652 -0.066847749 0.77229738
-0.19514304 -0.064709105 0.77333891
-0.18601018 -0.062194746 0.77675003
-0.19260103 -0.057971332 0.77136368
-0.18444662 -0.055702798 0.77257156
-0.1764171 -0.054185849 0.77550018
-0.16982962 -0.0511535 0.77800006
-0.1810087 -0.044745244 0.77100003
-0.17501429 -0.045049164 0.77455735
-0.16937493 -0.045015078 0.77799994
-0.19195843 -0.03041595 0.77100003
-0.18432295 -0.034223534 0.77205884
-0.1770052 -0.036656857 0.77528119
-0.19314039 -0.024250612 0.77223539
-0.18567699 -0.026975252 0.7753126
-0.17937827 -0.029328007 0.77800006
-0.19398618 -0.01960139 0.77100003
-0.16378832 -0.194061 0.78735703
-0.1580025 -0.19446477 0.7867142
-0.17084743 -0.18053108 0.78900003
-0.16444832 -0.18476547 0.78465724
-0.15701559 -0.18478505 0.78143346
-0.17237709 -0.17395508 0.78785717
-0.1649725 -0.17490338 0.78353506
-0.15745346 -0.17506228 0.78004169
-0.14611256 -0.17348991 0.78541929
-0.13799214 -0.17378713 0.78900003
-0.17393154 -0.16505051 0.78774285
-0.16521166 -0.16493765 0.78350008
-0.15664181 -0.16539767 0.78026682
-0.14842997 -0.16616315 0.78322721
-0.1809922 -0.15378574 0.78900003
-0.17491806 -0.15511782 0.78780001
-0.16522133 -0.15533532 0.78438777
-0.15453362 -0.15404627 0.78155577
-0.14971626 -0.15247601 0.78700006
-0.18086676 -0.14515744 0.78881818
-0.17461808 -0.14493854 0.78728569
-0.16526651 -0.14494343 0.78539997
-0.15479189 -0.14520262 0.78129005
-0.14841859 -0.14381784 0.78744435
-0.18328236 -0.13445301 0.7889331
-0.17471816 -0.13466322 0.78773457
-0.16480362 -0.13510114 0.78681117
-0.15496208 -0.13599594 0.78513658
-0.14482766 -0.13523124 0.78510523
-0.13793495 -0.13209152 0.78475004
-0.19367321 -0.12187578 0.78900003
-0.18574506 -0.12382034 0.78857881
-0.17382771 -0.12768203 0.78822213
-0.16793807 -0.1283145 0.78833342
-0.14193451 -0.12842488 0.78025007
-0.13455062 -0.12479737 0.78300011
-0.12804329 -0.1214143 0.78780001
-0.19258623 -0.11758729 0.78899997
-0.18701799 -0.11872959 0.7881667
-0.13249773 -0.11703442 0.78222221
-0.12576397 -0.11475258 0.78525639
-0.21476975 -0.10237013 0.78900003
-0.19216776 -0.10436381 0.78899992
-0.18928199 -0.10224213 0.78800005
-0.17084743 -0.10167843 0.78900003
-0.16521341 -0.10201065 0.78771996
-0.15937537 -0.10211062 0.78700006
-0.12416186 -0.10838852 0.78250015
-0.23475532 -0.093566321 0.78626305
-0.22477409 -0.092270672 0.78755987
-0.21577863 -0.093696669 0.78777778
-0.16508336 -0.098681115 0.78900003
-0.2349963 -0.08449506 0.78160012
-0.22526883 -0.085410558 0.78151238
-0.21481884 -0.084788077 0.78514284
-0.20656605 -0.08250425 0.7880525
-0.21200791 -0.077920653 0.78137505
-0.20463942 -0.077218421 0.78303719
-0.19484875 -0.075088523 0.78478259
-0.18492132 -0.073216669 0.78600007
-0.17595312 -0.072013892 0.78833324
-0.19123606 -0.068607934 0.78000003
-0.18418299 -0.066848338 0.78121233
-0.17530456 -0.065224729 0.78373075
-0.16539562 -0.064856946 0.78577566
-0.15737258 -0.062643282 0.78811103
-0.17277329 -0.057180706 0.78133339
-0.16491859 -0.055193901 0.78171152
-0.15612742 -0.054401491 0.78628308
-0.16464961 -0.045193523 0.78265429
-0.15618487 -0.046652317 0.78757137
-0.17365958 -0.033803932 0.78226489
-0.16824761 -0.036838233 0.78400004
-0.18166287 -0.025756465 0.78000003
-0.17714643 -0.027786111 0.78018755
-0.090019636 -0.26028934 0.79600006
-0.090245821 -0.25954416 0.79800004
-0.088735327 -0.25851935 0.79700005
-0.1645707 -0.21204667 0.79752398
-0.15724359 -0.21167468 0.79600006
-0.17210917 -0.20338818 0.79725003
-0.1652244 -0.20484081 0.79420012
-0.15722978 -0.20568927 0.79241663
-0.17221406 -0.19577692 0.79530007
-0.16758777 -0.19739576 0.79075003
-0.15594551 -0.19642259 0.7906
-0.18119122 -0.18119122 0.79800004
-0.17426951 -0.18480793 0.79421437
-0.16967885 -0.18353017 0.79000002
-0.12187731 -0.18239032 0.79644448
-0.11586551 -0.18425696 0.79742867
-0.18315813 -0.17433228 0.79632002
-0.17691942 -0.17539065 0.7913999
-0.14446943 -0.17411128 0.79000002
-0.13435419 -0.17439424 0.79057169
-0.12529679 -0.17464031 0.79415685
-0.1169144 -0.17785659 0.79757911
-0.19204785 -0.16208638 0.79742861
-0.18502198 -0.16502623 0.79271805
-0.17901319 -0.16561693 0.79044449
-0.15028697 -0.16206059 0.79000002
-0.14444387 -0.16475812 0.79157454
-0.13547523 -0.16501079 0.79174083
-0.12647928 -0.16515486 0.79413629
-0.19303818 -0.1541854 0.7960667
-0.18526636 -0.15544647 0.79148585
-0.17937477 -0.1599829 0.79000002
-0.15084103 -0.15887479 0.79000002
-0.14528729 -0.15504509 0.79252005
-0.13504216 -0.1548457 0.79483879
-0.12826398 -0.15612441 0.79694128
-0.20299347 -0.14273667 0.79616672
-0.19502997 -0.14472504 0.79459471
-0.18615404 -0.14492665 0.7911796
-0.14414118 -0.14556985 0.79189479
-0.13577741 -0.14508444 0.79588252
-0.12886263 -0.14789121 0.79800004
-0.21663661 -0.1368845 0.79800004
-0.2043215 -0.13492806 0.79605716
-0.19540168 -0.13518432 0.79265392
-0.18717793 -0.13576172 0.79031581
-0.16136803 -0.13089509 0.79000002
-0.15591834 -0.13184485 0.79312497
-0.14330623 -0.13802661 0.79120004
-0.13487637 -0.1351804 0.79561913
-0.12826236 -0.13230324 0.79755557
-0.20477314 -0.12477905 0.79515004
-0.19510254 -0.12633082 0.79100007
-0.18425453 -0.12549488 0.79040033
-0.17548288 -0.12350372 0.7926001
-0.16463715 -0.12484735 0.79266673
-0.15747783 -0.12547328 0.79587114
-0.1318201 -0.12765719 0.79200011
-0.12718505 -0.12566683 0.79361904
-0.23435929 -0.11123322 0.79800004
-0.22276625 -0.11203275 0.79799998
-0.21517834 -0.11200686 0.79647076
-0.20320247 -0.11567074 0.79600018
-0.1954568 -0.11389531 0.79128581
-0.18472512 -0.11474697 0.79391676
-0.17488003 -0.11517124 0.79540437
-0.1644458 -0.11499273 0.7944364
-0.15775928 -0.11442615 0.79729426
-0.23399109 -0.10459321 0.79468292
-0.22476088 -0.10507289 0.79439992
-0.21437643 -0.10483754 0.79126108
-0.20536023 -0.10512076 0.79408181
-0.19651741 -0.10505615 0.79153335
-0.18552031 -0.1051429 0.79488015
-0.17495814 -0.10536543 0.79540002
-0.16419755 -0.10724912 0.79224992
-0.15809673 -0.10539988 0.79533345
-0.23360758 -0.098246448 0.79072726
-0.22557986 -0.097217359 0.79095995
-0.21261182 -0.096718833 0.79055554
-0.20492327 -0.094839178 0.79359311
-0.19494864 -0.0952885 0.79407704
-0.18500929 -0.095288455 0.79490566
-0.17476389 -0.095141105 0.79340434
-0.16480766 -0.094535775 0.79208511
-0.1564796 -0.093859963 0.79641032
-0.14901054 -0.0909454 0.79800004
-0.20441556 -0.086601876 0.79232448
-0.19446133 -0.085192911 0.79392004
-0.18475722 -0.084977783 0.7953819
-0.17460631 -0.085061222 0.79362947
-0.1650136 -0.084920079 0.79530931
-0.15614031 -0.084834568 0.79711133
-0.14901054 -0.088147081 0.79800004
-0.19221443 -0.079408459 0.79039997
-0.18507227 -0.078022167 0.79226667
-0.17439063 -0.076399595 0.79157585
-0.16496545 -0.074876599 0.79324448
-0.15496649 -0.074380204 0.79494125
-0.14559624 -0.07322403 0.79764307
-0.16483086 -0.069949232 0.79000002
-0.15405568 -0.065531164 0.79121065
-0.14505893 -0.064653821 0.79455543
-0.13921642 -0.062262621 0.79800004
-0.15116841 -0.056349743 0.79000002
-0.14508282 -0.05573605 0.79271114
-0.13904196 -0.058691956 0.79700005
-0.16206059 -0.040861432 0.79000002
-0.15667623 -0.042737629 0.79323077
-0.17010839 -0.034715999 0.79200006
-0.16486557 -0.036555253 0.79173344
-0.15844488 -0.039159294 0.79480004
-0.10616609 -0.27068835 0.80200005
-0.12390388 -0.26317129 0.80625927
-0.11445196 -0.26374722 0.80415231
-0.10510835 -0.26538357 0.80405796
-0.096694902 -0.26314032 0.80377775
-0.14113544 -0.25035584 0.80900002
-0.13387169 -0.25316072 0.8079654
-0.12639366 -0.25640839 0.8080284
-0.11633874 -0.25879851 0.80820006
-0.093828842 -0.25530526 0.80365717
-0.087505206 -0.25480866 0.80243486
-0.15106457 -0.2404267 0.80900002
-0.14468156 -0.24370687 0.80900002
-0.13658132 -0.24665309 0.80884618
-0.12907864 -0.24822816 0.80900002
-0.093669653 -0.24522129 0.80458969
-0.086425304 -0.24495085 0.80442214
-0.15194392 -0.23439713 0.80713344
-0.14510688 -0.23472339 0.80827641
-0.139717 -0.23581676 0.80900002
-0.093117714 -0.23569146 0.80864698
-0.088404648 -0.23667552 0.80846673
-0.16173503 -0.2222099 0.80212504
-0.15499219 -0.22460246 0.80419159
-0.14667763 -0.22555105 0.80587488
-0.093075126 -0.22599193 0.80900002
-0.088369228 -0.22680962 0.80900002
-0.16315565 -0.21696702 0.80000013
-0.15527533 -0.21656869 0.80146158
-0.14905436 -0.21795687 0.80200005
-0.10094612 -0.21205778 0.80900002
-0.095567852 -0.21391951 0.80900002
-0.10304344 -0.20359875 0.80594754
-0.096886232 -0.20435934 0.80822569
-0.18312036 -0.19232696 0.80361551
-0.17717449 -0.19403809 0.80152392
-0.11170398 -0.19232243 0.80239999
-0.10469165 -0.19499643 0.80400014
-0.097559474 -0.19694948 0.80857897
-0.19100681 -0.18186186 0.80250001
-0.18514189 -0.18513989 0.80267489
-0.17837244 -0.18819112 0.80000001
-0.11107003 -0.18505195 0.80042869
-0.10494159 -0.18533275 0.80407864
-0.099753268 -0.1888945 0.80700004
-0.19110833 -0.17458573 0.80076927
-0.18756825 -0.1770386 0.8008334
-0.12105496 -0.17158251 0.80049998
-0.1142321 -0.17405584 0.80104756
-0.10726606 -0.17504433 0.80534369
-0.19533794 -0.16504639 0.80061531
-0.12185337 -0.16460393 0.80177289
-0.11467099 -0.16523363 0.80363476
-0.10815842 -0.1655193 0.80781823
-0.20046298 -0.15263321 0.80233335
-0.19718376 -0.15679748 0.80044448
-0.12378537 -0.15505317 0.80185711
-0.11538139 -0.15542753 0.80543756
-0.21415894 -0.14066051 0.80225003
-0.20123328 -0.14922766 0.80166668
-0.19988 -0.14798133 0.80000001
-0.13171041 -0.14237067 0.80000001
-0.12459183 -0.14478831 0.8021608
-0.11697545 -0.14563096 0.80641168
-0.22211014 -0.13233572 0.80357158
-0.2148207 -0.13432285 0.80157501
-0.20885706 -0.13619894 0.80000007
-0.152014 -0.13237667 0.80000007
-0.14884724 -0.13138202 0.80142868
-0.13185067 -0.13886401 0.80000001
-0.12448049 -0.1353765 0.80265218
-0.11800617 -0.13612948 0.80750006
-0.22466388 -0.12445606 0.80499995
-0.21500856 -0.12454432 0.80179065
-0.20969866 -0.12553866 0.80000001
-0.15283515 -0.12496625 0.80066657
-0.1468368 -0.12435491 0.80139995
-0.12316462 -0.12507474 0.80403221
-0.2323509 -0.11395327 0.80072236
-0.22540055 -0.11592343 0.80138874
-0.2143821 -0.11659238 0.80136001
-0.20810997 -0.1151892 0.80042118
-0.18209946 -0.11319695 0.80200005
-0.17928711 -0.11319695 0.80200005
-0.15366524 -0.11543322 0.80099994
-0.14533015 -0.11510868 0.80127263
-0.13956533 -0.11852533 0.80000001
-0.23354399 -0.107304 0.80000001
-0.18124457 -0.10730399 0.80000007
-0.17884 -0.10800533 0.80000001
-0.15413466 -0.10435904 0.80161113
-0.14501329 -0.10488915 0.80300045
-0.13531893 -0.1039962 0.8035714
-0.12820053 -0.10091397 0.80500001
-0.15239891 -0.096194252 0.80023539
-0.14476141 -0.095123626 0.80262983
-0.1349287 -0.095368929 0.80581635
-0.12813234 -0.095456578 0.80657911
-0.15142424 -0.083968714 0.80000013
-0.14506508 -0.084754094 0.80038273
-0.13510069 -0.085147321 0.80267876
-0.1264703 -0.084707864 0.80796289
-0.11985874 -0.084397577 0.80900002
-0.15148801 -0.078549333 0.80000001
-0.14404051 -0.077180065 0.80000007
-0.13504842 -0.075266197 0.80237502
-0.12783755 -0.076268777 0.80700004
-0.14096799 -0.068730667 0.80000001
-0.13553056 -0.06647528 0.80126303
-0.12882529 -0.069692373 0.80300003
-0.13746133 -0.059613332 0.80000001
-0.11047315 -0.26157191 0.81300002
-0.10499317 -0.26196346 0.81393331
-0.099069469 -0.26014644 0.81300002
-0.12332126 -0.2531977 0.81178576
-0.11536152 -0.25597918 0.81371993
-0.10049493 -0.25872099 0.81300002
-0.098825753 -0.25737357 0.81100005
-0.14101037 -0.24149507 0.81100005
-0.13381828 -0.24349895 0.81164294
-0.1283443 -0.24646372 0.81333345
-0.082856044 -0.24173084 0.81339997
-0.14006241 -0.23391132 0.81100005
-0.13673024 -0.23704067 0.81121045
-0.095744856 -0.23201537 0.81100005
-0.084116615 -0.23481667 0.81384861
-0.079185791 -0.23612081 0.81866676
-0.10049493 -0.22165903 0.81300002
-0.095141791 -0.2246708 0.81125832
-0.086770706 -0.22489588 0.8135556
-0.1003466 -0.21706247 0.81180012
-0.094055206 -0.21585454 0.81148505
-0.087946236 -0.21484363 0.81563169
-0.092229486 -0.20520726 0.81219995
-0.088217981 -0.20564644 0.81735307
-0.09443035 -0.19518501 0.81436014
-0.10140775 -0.18288867 0.81174999
-0.096522644 -0.18473232 0.81644827
-0.10304935 -0.17507158 0.81179988
-0.096994378 -0.17550825 0.81693763
-0.10349084 -0.16501692 0.81341386
-0.098875843 -0.16619195 0.81814301
-0.11067536 -0.15416344 0.81099993
-0.10503883 -0.1550532 0.81444687
-0.099800609 -0.15723981 0.81900007
-0.11264067 -0.14453772 0.81181818
-0.1056309 -0.14457944 0.81665021
-0.098340608 -0.14313266 0.81880015
-0.12015506 -0.13010873 0.81100005
-0.11420058 -0.13412155 0.81325018
-0.10705077 -0.13544001 0.81803453
-0.099800609 -0.13785407 0.81900007
-0.12203918 -0.12232778 0.81220007
-0.11518532 -0.12521128 0.81674987
-0.10859614 -0.12714614 0.81869251
-0.12227453 -0.11530076 0.81355572
-0.11555255 -0.11555716 0.81735557
-0.10976305 -0.11837309 0.81833339
-0.12328932 -0.10147434 0.81860006
-0.11678358 -0.1059505 0.81492305
-0.12349667 -0.094309859 0.81287897
-0.11843853 -0.095801391 0.81500012
-0.12418651 -0.085666768 0.81108701
-0.11902591 -0.089091249 0.81300002
-0.10592992 -0.26224646 0.82499999
-0.11084047 -0.25910759 0.82100004
-0.10148381 -0.25910759 0.82100004
-0.081529118 -0.23087893 0.82300001
-0.078796312 -0.23401876 0.82463646
-0.082628168 -0.22509785 0.82506901
-0.079216473 -0.22602133 0.82900012
-0.084213406 -0.21543238 0.82387996
-0.086293906 -0.20412189 0.82566667
-0.091760993 -0.19337986 0.82246673
-0.08803989 -0.19616586 0.82627279
-0.091821253 -0.18550879 0.82258338
-0.089229323 -0.18716262 0.82749999
-0.092784271 -0.17454506 0.82290488
-0.089175411 -0.17182578 0.82700002
-0.094600506 -0.16467425 0.82314998
-0.10033222 -0.15215375 0.82099998
-0.096960589 -0.15574886 0.82299995
-0.10122208 -0.145061 0.82100004
-0.097360261 -0.14856841 0.8226667
-0.10373671 -0.13586208 0.82130778
-0.10868124 -0.12523535 0.82100004
-0.12091687 -0.1029233 0.82100004
-0.1117608 -0.26203936 0.83539999
-0.1068808 -0.26234666 0.83650011
-0.076980978 -0.2304631 0.83633345
-0.1532995 -0.22361903 0.83709514
-0.081059232 -0.22273031 0.83300006
-0.077674627 -0.22560109 0.83530772
-0.16138819 -0.2132369 0.83300006
-0.15530328 -0.21513373 0.83545619
-0.081921406 -0.21402794 0.83286679
-0.078357033 -0.21488515 0.83534789
-0.16092682 -0.20499685 0.83385718
-0.15509674 -0.20510821 0.83570856
-0.14857571 -0.20079787 0.83900005
-0.082534015 -0.20481454 0.83441663
-0.078708597 -0.20579569 0.83699995
-0.16187502 -0.19887505 0.833
-0.15487663 -0.19560553 0.83569407
-0.14670756 -0.19444634 0.83883339
-0.084108606 -0.19521199 0.83609098
-0.078918755 -0.19619468 0.83819997
-0.090181828 -0.18109448 0.83633333
-0.088503301 -0.18591702 0.8355
-0.091134325 -0.17788005 0.83500004
-0.087631598 -0.17599346 0.83300006
-0.1232681 -0.2602306 0.84450006
-0.11372944 -0.26123735 0.84353346
-0.1059478 -0.26213649 0.84737509
-0.13131401 -0.25614208 0.84900004
-0.12503991 -0.25627807 0.84719366
-0.11692341 -0.25864869 0.84642875
-0.10524261 -0.2594595 0.8490001
-0.14178725 -0.24226639 0.84900004
-0.13620508 -0.24561569 0.8490001
-0.15076037 -0.23205717 0.84300005
-0.14392644 -0.23467146 0.84534156
-0.13841619 -0.23497829 0.84845454
-0.15187898 -0.22781849 0.84100002
-0.14512788 -0.22484949 0.84437919
-0.13872811 -0.22668736 0.84850001
-0.076464109 -0.22389266 0.84328574
-0.15114172 -0.21749662 0.84100002
-0.14523636 -0.21490556 0.84530771
-0.13646792 -0.21426103 0.84872437
-0.15114172 -0.20864929 0.84100002
-0.14513214 -0.20548427 0.84246331
-0.13544992 -0.20407549 0.84532428
-0.1270255 -0.2012064 0.84900004
-0.15261626 -0.19095464 0.84100002
-0.14350152 -0.19582753 0.84115982
-0.1358975 -0.19521821 0.8438096
-0.12964849 -0.19837433 0.84750003
-0.082001545 -0.19259305 0.84100002
-0.078888603 -0.19242921 0.84100002
-0.15261626 -0.18948011 0.84100002
-0.14966716 -0.1894801 0.84100002
-0.13524249 -0.18993071 0.84300005
-0.085206762 -0.18549931 0.84280652
-0.088577524 -0.17937127 0.84200001
-0.11265254 -0.26036912 0.85100001
-0.10593815 -0.26036912 0.85100001
-0.13204966 -0.25350553 0.85099995
-0.12385671 -0.25283286 0.85447824
-0.11474111 -0.25659692 0.85545158
-0.10630857 -0.25536567 0.85559994
-0.14174823 -0.24470222 0.85100001
-0.13402051 -0.24475907 0.85322744
-0.12716666 -0.24703361 0.85671991
-0.10395128 -0.24716635 0.85799998
-0.13342915 -0.23508956 0.85475612
-0.12515518 -0.23506917 0.8589443
-0.13460125 -0.22466332 0.85241026
-0.12592264 -0.22493121 0.85723084
-0.11692221 -0.22264528 0.85799986
-0.13214242 -0.21575995 0.85159993
-0.12524173 -0.21502699 0.85502285
-0.11693285 -0.21581154 0.85669565
-0.13122073 -0.20698558 0.85099995
-0.12506159 -0.20639832 0.85219997
-0.11862089 -0.20665401 0.85100001
-0.12076873 -0.25135171 0.86100006
-0.11495906 -0.25217044 0.86112022
-0.10846646 -0.25117585 0.86040008
-0.12351942 -0.24402304 0.86000007
-0.11564804 -0.24480756 0.86144179
-0.10772527 -0.2450445 0.86191303
-0.1154841 -0.23550156 0.86100006
-0.10826044 -0.23571825 0.86100012
-0.12163457 -0.22693394 0.86000007
-0.11528325 -0.22823615 0.86000001
-0.10862909 -0.22932854 0.8605001
