# .PCD v0.7 - Point Cloud Data file format
VERSION 0.7
FIELDS x y z
SIZE 4 4 4
TYPE F F F
COUNT 1 1 1
WIDTH 713
HEIGHT 1
VIEWPOINT 0 0 0 1 0 0 0
POINTS 713
DATA ascii
-0.095007867 -0.035906903 0.79622233
-0.066460103 -0.030081939 0.79800004
0.070657581 -0.031481098 0.79800004
-0.090714306 -0.025580082 0.79720008
-0.088386409 -0.025503986 0.79700005
-0.072784379 -0.022671269 0.79504764
-0.065537959 -0.026117109 0.79620695
-0.059464298 -0.025884461 0.79800004
-0.080715291 -0.01674784 0.79600006
-0.076491795 -0.017074399 0.79500014
0.075980075 -0.013321199 0.79671443
0.080098845 -0.012538524 0.79450011
0.038943287 -0.0016323533 0.79800004
0.045418885 -0.0026368781 0.79800022
0.051768918 -0.0020987401 0.79800004
0.075217269 -0.0051111458 0.79583681
0.081203178 -0.0041781939 0.7944001
0.03859349 0.0026817231 0.79800004
0.044396423 0.0030673891 0.79800022
0.051069338 0.00069958001 0.79800004
0.076953799 0.0011659667 0.79800004
-0.083119147 -0.050801199 0.80642861
-0.075112633 -0.053489897 0.80763632
-0.06879466 -0.058156312 0.80900002
-0.091317981 -0.041786898 0.80333334
-0.086031087 -0.044998255 0.80356252
-0.078882903 -0.048461694 0.80700004
-0.052583847 -0.041236274 0.80900002
-0.048936408 -0.043262623 0.80900002
-0.092573166 -0.034153584 0.80138457
-0.087909006 -0.035275221 0.80221063
-0.070834666 -0.030157333 0.80000001
-0.064190276 -0.032011438 0.80378962
-0.055764277 -0.034633256 0.80522209
0.055255257 -0.032872993 0.80777413
0.064454488 -0.032854166 0.80792302
0.070523448 -0.03154159 0.80850005
-0.092692591 -0.028323054 0.80100006
-0.089292005 -0.028826553 0.80200005
-0.070834666 -0.028754666 0.80000001
-0.062418666 -0.028754666 0.80000001
-0.058562912 -0.028229544 0.801
0.055449091 -0.024878312 0.80538464
0.065009713 -0.024731608 0.80599993
0.071831115 -0.025062473 0.80825007
0.048573967 -0.011565863 0.80300003
0.055310186 -0.014790619 0.80334634
0.065239437 -0.014613189 0.80356538
0.072182193 -0.016360968 0.80410022
0.047398735 -0.0071151522 0.80014294
0.055808622 -0.0051665478 0.80126679
0.065410756 -0.0050137662 0.80341667
0.071536005 -0.0014026667 0.80000001
0.035051502 0.0058352267 0.80421197
0.046597425 0.0070849634 0.80129164
0.054907385 0.0045678481 0.80400002
0.060880557 0.0021237251 0.8075
0.036568165 0.012128918 0.80740005
0.044345684 0.01245207 0.80500007
0.052032795 0.011214695 0.80671442
-0.063467599 -0.06061931 0.81350005
-0.058658645 -0.061520081 0.81600004
-0.070386693 -0.054745205 0.81100005
-0.063936599 -0.056228023 0.81444001
-0.056400295 -0.054574374 0.81815171
-0.048734337 -0.051601917 0.81750005
-0.062948741 -0.043132871 0.81758839
-0.055484381 -0.04572729 0.8151952
-0.048584864 -0.048584867 0.81500006
0.056601375 -0.043179076 0.81552184
0.062024072 -0.041904956 0.81322229
-0.0652854 -0.036606584 0.81595671
-0.053521965 -0.033534743 0.81411111
-0.047195185 -0.031832483 0.81681824
0.048079252 -0.034637209 0.8125
0.053900838 -0.037647158 0.81184208
0.064382359 -0.037043363 0.8117367
-0.051999006 -0.027075052 0.81863648
-0.045119703 -0.02495341 0.81520826
-0.037665594 -0.022284379 0.81411117
0.04866289 -0.028722813 0.81233335
0.073101327 -0.023720765 0.81099993
-0.044042177 -0.01572589 0.81755561
-0.035530943 -0.014462758 0.81417084
-0.029317779 -0.012159658 0.81566668
-0.041404087 -0.0088552097 0.81900007
-0.034372594 -0.0057465495 0.81720519
-0.026302146 -0.0036183661 0.81548285
-0.018600237 -0.00071535999 0.81600004
-0.030873571 0.00071798998 0.81900007
-0.024065727 0.0017706915 0.81860012
-0.017931515 0.0021525673 0.81819999
0.026377536 0.0077110627 0.81588894
0.030927487 0.0081762318 0.81100005
0.058336467 0.0085374182 0.81150007
0.063947447 0.0041745622 0.81261909
0.026210394 0.01341594 0.81764299
0.034244001 0.016122991 0.81427282
0.04436148 0.017571811 0.81611115
0.055265881 0.014332622 0.81559259
0.060731083 0.012149723 0.81500006
0.038771458 0.020821709 0.81900007
-0.053623457 -0.061025254 0.82544452
-0.044528704 -0.06077053 0.82720006
-0.037559029 -0.061589263 0.82827282
-0.052993502 -0.056402862 0.8232857
-0.047703087 -0.056864548 0.82449991
-0.03688575 -0.058583248 0.82500005
0.053053237 -0.050146211 0.82900006
0.049298473 -0.043865331 0.82700002
0.053466324 -0.046481952 0.82379991
-0.067951314 -0.039137032 0.82166672
-0.026889997 -0.031250536 0.82900006
-0.060756799 -0.023720846 0.82833338
-0.055545907 -0.024081346 0.8235715
-0.034023706 -0.025215225 0.82715404
-0.025790382 -0.025502255 0.82788903
-0.01962243 -0.029797023 0.82900006
-0.060320802 -0.018895674 0.82900006
-0.05412868 -0.016123712 0.82613337
-0.04850914 -0.013248252 0.82207692
-0.031403955 -0.018410876 0.82350004
-0.027157241 -0.017333869 0.8255263
-0.050590385 -0.0089557348 0.82833338
-0.044664394 -0.0053234645 0.82530302
-0.038194265 -0.0021611587 0.82200003
-0.041425131 0.00072675664 0.82900006
-0.034576446 0.0039428086 0.82593757
-0.025742594 0.006503318 0.82364702
-0.014714248 0.0063401773 0.82402861
-0.0057624131 0.0078350203 0.8267141
0.0049102101 0.0082118325 0.82655543
0.014359896 0.0090681426 0.8238889
0.020872556 0.0086369198 0.82100004
0.065496646 0.0079171769 0.82100004
-0.031250536 0.01090135 0.82900006
-0.024308719 0.012402666 0.82699996
-0.014673801 0.014418218 0.82746154
-0.0050847917 0.015253589 0.82842863
0.0050762389 0.015234876 0.8273263
0.015172719 0.015180952 0.82442862
0.023700016 0.017321635 0.82157147
0.030948963 0.01943307 0.82100004
0.049222786 0.01896902 0.82166672
0.052932255 0.018895146 0.82260001
-0.013808376 0.021075943 0.82900006
-0.0029070266 0.021075943 0.82900006
0.005995742 0.021439323 0.82900006
0.015254584 0.0216731 0.82866675
0.025501093 0.022390941 0.82650006
0.034961604 0.022514416 0.82278943
0.044137884 0.022191066 0.8235333
0.050025228 0.021025097 0.82700002
-0.050751109 -0.08017204 0.83900005
-0.048789714 -0.080662392 0.83900005
-0.030891979 -0.080907568 0.83900005
-0.052537855 -0.073635221 0.83622223
-0.044736657 -0.074719854 0.8365609
-0.034443449 -0.074733339 0.83592314
-0.025278598 -0.072396189 0.83329999
-0.015375925 -0.073069364 0.83538461
-0.0046358383 -0.074278742 0.83745724
0.0032046153 -0.074074991 0.8373636
-0.053464711 -0.066207305 0.83378583
-0.044722345 -0.06624639 0.83332419
-0.034162924 -0.065473109 0.83219999
-0.025849411 -0.065673605 0.83309758
-0.015761063 -0.06875854 0.8326
-0.0046347422 -0.068376295 0.83566672
0.0014710466 -0.069139197 0.83900005
0.046317842 -0.053154089 0.83752173
0.051429063 -0.052572038 0.83411115
-0.073993646 -0.040747993 0.83900005
-0.040944133 -0.040944133 0.83900005
-0.033763751 -0.04278177 0.83721435
-0.024986459 -0.044393599 0.83638442
-0.016366037 -0.043327603 0.83764517
0.046770833 -0.045129713 0.83627993
0.05026719 -0.048810169 0.83100003
-0.073307157 -0.038982738 0.83900005
-0.042485133 -0.035156585 0.8361305
-0.035068229 -0.035070077 0.83333325
-0.025507854 -0.035123825 0.8325122
-0.017316556 -0.03611118 0.83590913
-0.071175687 -0.021279329 0.83700001
-0.065194666 -0.022330116 0.83407694
-0.040068049 -0.02986891 0.83100003
-0.035344351 -0.029513642 0.83125001
-0.02112679 -0.02986891 0.83100003
-0.071345761 -0.019123606 0.83900005
-0.06449528 -0.016314261 0.83566684
-0.057802428 -0.013018207 0.83283335
-0.061048437 -0.0095618032 0.83900005
-0.054520678 -0.0053949598 0.83557892
-0.04789697 -0.0017013177 0.83200002
-0.051903747 0.0013235913 0.83860004
-0.044263087 0.0031501683 0.83473921
-0.036653653 0.0076585598 0.83200002
0.068771869 0.0078860549 0.83675003
0.072038762 0.0051464722 0.83850002
-0.03278295 0.01092765 0.83100003
-0.015881518 0.018504154 0.83100003
0.058038838 0.019099936 0.83800006
0.064263694 0.014461785 0.83873338
-0.01529871 0.02112679 0.83100003
0.0064166738 0.023475382 0.83160001
0.016051767 0.025335185 0.83209097
0.024787093 0.026435228 0.83462507
0.034856185 0.026327973 0.83627266
0.0445842 0.025530139 0.83600003
0.05301664 0.022197857 0.83700007
-0.043204587 -0.092201486 0.84680003
-0.036448769 -0.091726102 0.84853846
-0.02307299 -0.091547668 0.84900004
-0.044265274 -0.08513198 0.84329259
-0.036095306 -0.085194752 0.84541178
-0.020095831 -0.084104769 0.84900004
-0.018607249 -0.08484906 0.84900004
-0.0066512697 -0.080554269 0.84300005
-0.044973876 -0.078888603 0.84100002
-0.036126554 -0.078888603 0.84100002
-0.01105915 -0.076676771 0.84100002
-0.0076919985 -0.078283451 0.84128571
0.0079160491 -0.072390005 0.84257156
0.015398443 -0.0731242 0.84352958
0.024753386 -0.07158234 0.84526688
0.030444004 -0.07054098 0.84700006
-0.032615066 -0.060038954 0.84550005
-0.024501957 -0.060516737 0.84700006
-0.00074078335 -0.065929718 0.84500003
0.0063038673 -0.065801114 0.84403461
0.01515022 -0.06459339 0.84437782
0.024734616 -0.064250663 0.84495652
0.034267586 -0.064385965 0.84514987
0.042775549 -0.062464606 0.84420002
-0.077222064 -0.051235028 0.847
-0.044272065 -0.051977646 0.84809095
-0.034477405 -0.05458422 0.84615797
-0.025068458 -0.055147428 0.84484994
-0.016073074 -0.053001698 0.84526098
-0.0085488148 -0.051667668 0.84800005
0.017586226 -0.057716519 0.84766674
0.024949508 -0.056307547 0.84722239
0.035003014 -0.055262376 0.8449567
0.043396793 -0.056910142 0.84131986
0.050872091 -0.057507582 0.84100002
-0.096013412 -0.047634557 0.84900004
-0.083473988 -0.04410411 0.84313357
-0.07540331 -0.045100741 0.84327775
-0.05099307 -0.04138568 0.84300005
-0.045092862 -0.045234263 0.8438372
-0.035681374 -0.047702476 0.84204763
-0.02433013 -0.049397539 0.84100002
-0.013853672 -0.04754601 0.84155548
-0.008189382 -0.045229945 0.84159994
0.0380225 -0.045862328 0.84677786
0.042333759 -0.044550531 0.84318185
-0.090307184 -0.032996856 0.84900004
-0.084402494 -0.034721065 0.84539032
-0.076545022 -0.034948379 0.84185702
-0.051485758 -0.038675901 0.84300011
-0.04768692 -0.037491444 0.84154546
-0.0095845964 -0.039075661 0.84100002
0.04507662 -0.039168589 0.84300005
-0.090803385 -0.02828302 0.84900004
-0.085006729 -0.025877358 0.84648389
-0.077496208 -0.026538581 0.84414285
-0.068566732 -0.023592852 0.84100002
-0.074343912 -0.014505174 0.84500009
-0.067173004 -0.012547555 0.84200001
-0.072134919 -0.0079088872 0.84827274
-0.064756736 -0.005420051 0.84478378
-0.058746308 -0.0026361367 0.84214288
0.07446494 -0.00073727668 0.84100002
-0.061782032 0.0013327086 0.84500009
-0.056164119 0.0026091354 0.84219998
-0.047968566 0.0051665474 0.84180003
0.076730378 0.0054997052 0.84385711
0.081032053 0.0044613564 0.84800005
0.058982134 0.019169193 0.84100002
0.066039249 0.017199786 0.84142089
0.073370263 0.014276697 0.84472418
0.026221976 0.028805075 0.84249997
0.034697007 0.028463321 0.84211117
0.046089578 0.028022209 0.84116656
0.055732783 0.025567589 0.84254843
0.064022332 0.024362626 0.8456431
0.071367681 0.020816451 0.84800005
0.027225757 0.030940196 0.84700012
0.035065964 0.031808447 0.84570014
0.045237057 0.032634608 0.84592867
0.054417066 0.032294907 0.84680015
0.06028749 0.030515891 0.84900004
-0.033571951 -0.091763332 0.85100001
-0.023547677 -0.091665603 0.8519333
-0.017597038 -0.092494763 0.85622227
-0.024395294 -0.088883482 0.852
-0.018683959 -0.088189602 0.85250002
-0.072585374 -0.071833193 0.85800004
-0.065148517 -0.072741367 0.85726309
-0.05921445 -0.071957678 0.85500002
-0.10003994 -0.060926579 0.85800004
-0.094147868 -0.062305573 0.85799986
-0.083125338 -0.063105419 0.85747355
-0.07519298 -0.065914758 0.85642433
-0.065672852 -0.068199553 0.85745448
-0.059352964 -0.068366848 0.85700005
-0.042874262 -0.060926575 0.85800004
-0.021456242 -0.063024975 0.85579997
-0.017665271 -0.061267167 0.85750002
-0.11393455 -0.051566307 0.85712492
-0.1045921 -0.05357888 0.85575873
-0.095522277 -0.055737037 0.85523099
-0.085759237 -0.058159091 0.85764694
-0.073897496 -0.053919174 0.85476196
-0.067762479 -0.053389344 0.8565715
-0.044804905 -0.05652152 0.8536523
-0.038794253 -0.058191381 0.85100001
-0.02014317 -0.058937423 0.85100001
-0.014137564 -0.057684332 0.8545
-0.0059268801 -0.05597806 0.85589999
0.024755074 -0.053104721 0.85099989
-0.12354556 -0.044096556 0.85799986
-0.11473342 -0.044992384 0.85535741
-0.1047611 -0.045233645 0.85302854
-0.098179303 -0.047895983 0.85099995
-0.072664626 -0.048791237 0.85100001
-0.068137847 -0.047624234 0.85622215
-0.049984902 -0.048492815 0.85100001
0.027941998 -0.049456447 0.85220003
0.033461493 -0.047821991 0.85326666
-0.12400226 -0.037931371 0.85799986
-0.11699454 -0.03348048 0.85821742
-0.10592754 -0.034939464 0.85290009
-0.11221332 -0.028157366 0.85777771
-0.10479476 -0.027246729 0.85741681
-0.095526859 -0.02030886 0.85800004
-0.091389872 -0.01241097 0.85800004
-0.087868303 -0.013334099 0.85799986
-0.093228601 -0.0091599245 0.85874999
-0.087650597 -0.0092666587 0.85700005
-0.075093888 -0.005466524 0.85252631
-0.068262964 -0.0018651083 0.85100001
0.083441138 0.0070927734 0.85507685
0.07793545 0.016449334 0.85275
0.081770062 0.014275102 0.85692304
0.016547959 0.02933502 0.85800004
0.067578062 0.027503589 0.85174996
0.074711628 0.02455125 0.85522586
0.080483258 0.02030886 0.85800004
0.026434403 0.03421877 0.85543746
0.035177659 0.037216224 0.85382146
0.045116037 0.038039774 0.85252631
0.055413734 0.037694037 0.85416675
0.06450887 0.033681355 0.85493338
0.071903028 0.031316873 0.85733336
0.037609 0.0413699 0.85800004
0.045434441 0.04201863 0.85727268
0.053602904 0.041571032 0.85771424
-0.014726684 -0.094973683 0.86150002
-0.084977932 -0.08220765 0.86900008
-0.079991452 -0.081515096 0.86900002
-0.063993163 -0.081515096 0.86900002
-0.058660395 -0.081515096 0.86900002
-0.13255726 -0.070849568 0.86900002
-0.12874815 -0.070849568 0.86900002
-0.11267169 -0.07236068 0.8688463
-0.10672452 -0.072096184 0.86900008
-0.092409618 -0.074057572 0.86515808
-0.085170776 -0.074845284 0.86474442
-0.07567589 -0.075927578 0.86297297
-0.065132536 -0.077757716 0.8634761
-0.057618335 -0.077875763 0.86611116
-0.014982526 -0.070849568 0.86900002
-0.15160285 -0.060184043 0.86900002
-0.14189734 -0.062474526 0.86809099
-0.13526322 -0.064973637 0.86717945
-0.12513311 -0.064953752 0.86714649
-0.11499273 -0.065152712 0.86736375
-0.10487767 -0.065485477 0.86614722
-0.095484376 -0.066153891 0.86154157
-0.086737715 -0.066144407 0.86034781
-0.06600818 -0.066007301 0.86049998
-0.020450881 -0.06741216 0.86400002
-0.014800945 -0.065352872 0.8636207
-0.0055690878 -0.064500742 0.86491424
0.00076006999 -0.066126093 0.86700004
-0.1526694 -0.054089457 0.86900014
-0.14430554 -0.05458976 0.86767644
-0.13448916 -0.054954611 0.8638109
-0.12532127 -0.054911077 0.86256093
-0.11539511 -0.056456372 0.86200005
-0.10712121 -0.058406901 0.86150002
-0.005655596 -0.059201084 0.86025006
-0.15051453 -0.047124214 0.86900002
-0.14398533 -0.045034904 0.8661539
-0.13478209 -0.044755325 0.86312199
-0.12622342 -0.04607103 0.86009991
-0.14308517 -0.036379036 0.86742109
-0.13479352 -0.034997907 0.86443263
-0.12565771 -0.034160756 0.86049998
-0.13228287 -0.0290743 0.8682
-0.1241834 -0.026728755 0.86600006
-0.11533256 -0.024260705 0.86238724
-0.1047027 -0.022247093 0.86025
-0.097120315 -0.022960698 0.86000001
-0.089718066 -0.020356201 0.86000001
-0.11134368 -0.018936001 0.86400002
-0.10314564 -0.016745809 0.86210531
-0.095341295 -0.015545506 0.86025822
-0.089718066 -0.018848334 0.86000001
0.092942446 -0.00076182332 0.86900002
0.087718859 0.0056353486 0.86200011
0.093839109 0.0054767872 0.86890495
0.08614637 0.015718633 0.86127287
0.09338817 0.014816597 0.86693746
0.0090682395 0.028716093 0.86200005
0.012825633 0.028671674 0.86066669
0.078353964 0.027914569 0.86057144
0.084772676 0.024728961 0.86313534
0.091535002 0.024725992 0.8661111
0.0086763697 0.032777686 0.86500001
0.01530722 0.034585889 0.86299998
0.02326243 0.036304519 0.8610909
0.030911267 0.039958466 0.86000001
0.066060521 0.037856393 0.86020005
0.075421557 0.03515866 0.86350018
0.083315387 0.034410041 0.86605263
0.025817614 0.04232911 0.86375016
0.034914471 0.045620527 0.86409092
0.044566564 0.04681978 0.86368966
0.055255637 0.045869991 0.86196971
0.065289423 0.044983048 0.86489487
0.074032359 0.043666869 0.86772013
0.081515096 0.040376637 0.86900002
0.038091168 0.051042162 0.86900002
0.044947583 0.051042166 0.86900002
0.054089457 0.051042162 0.86900008
0.063918643 0.050983425 0.86800003
-0.18165234 -0.090056457 0.87800002
-0.17831694 -0.090569593 0.87800002
-0.16548836 -0.090056457 0.87800002
-0.093135312 -0.090056457 0.87800008
-0.084668465 -0.090056457 0.87800008
-0.074662194 -0.090056464 0.87800014
-0.06773477 -0.090056457 0.87800002
-0.18380679 -0.083915077 0.87753862
-0.17471917 -0.084519312 0.87741458
-0.16592818 -0.083825432 0.87800014
-0.13290383 -0.081333049 0.87800008
-0.12537543 -0.081790954 0.87740016
-0.11416107 -0.08291354 0.87718195
-0.10456481 -0.083641402 0.87527281
-0.095167436 -0.084438056 0.87442857
-0.085001789 -0.086269759 0.87352175
-0.074955478 -0.085200205 0.87448382
-0.065153867 -0.085635744 0.87435716
-0.056330655 -0.084502667 0.87425011
-0.19050404 -0.075431913 0.87800014
-0.18452528 -0.074745491 0.87627506
-0.17458399 -0.075273246 0.87657148
-0.16468909 -0.074952006 0.87711781
-0.15492101 -0.073810518 0.87700009
-0.14488174 -0.073655643 0.87551999
-0.13509259 -0.075333558 0.87400001
-0.1248403 -0.075254038 0.87364978
-0.11586835 -0.076078765 0.87287498
-0.10393997 -0.075866766 0.87241918
-0.097074948 -0.076033406 0.8727501
-0.01603511 -0.071012631 0.87100005
-0.18334486 -0.065581121 0.87714297
-0.17486675 -0.065086462 0.87495124
-0.16531847 -0.065327287 0.87431812
-0.15521289 -0.064984806 0.872913
-0.14630093 -0.065812483 0.87254834
-0.13973454 -0.069485478 0.87100005
-0.124463 -0.069485478 0.87100005
-0.0076357666 -0.069485478 0.87100005
-0.18153185 -0.056978557 0.87700009
-0.17478013 -0.055318654 0.87540001
-0.16533518 -0.055111274 0.87311095
-0.15681089 -0.055671688 0.87100023
-0.14889745 -0.058031827 0.87100005
-0.17162104 -0.047238208 0.87700009
-0.1648896 -0.045526747 0.8748157
-0.15569982 -0.044913776 0.8721
-0.14889745 -0.041996717 0.87100005
-0.16163981 -0.039255381 0.87800002
-0.15393223 -0.036700301 0.87554556
-0.14645103 -0.033714965 0.87280011
-0.14163673 -0.029308369 0.87519997
-0.13470806 -0.026733316 0.87416679
-0.12537377 -0.022348251 0.8731001
-0.11835438 -0.02061657 0.87100005
-0.11431174 -0.018412299 0.87512505
0.095447086 -0.00076357665 0.87100005
0.096407913 0.0062644845 0.87140006
0.0049883067 0.027891515 0.87575012
0.0044592428 0.033598296 0.87458837
0.012217226 0.038942412 0.87100005
0.017287515 0.040842496 0.8724001
0.0252608 0.045931201 0.87320012
0.031306643 0.049632482 0.87100005
0.073303357 0.048105329 0.87100005
0.080175549 0.041233141 0.87100005
0.035184581 0.052013073 0.87250006
0.044939127 0.053444542 0.87427288
0.054900043 0.052801743 0.87287509
0.061086133 0.051159635 0.87100005
-0.1815901 -0.11144801 0.88900012
-0.17469196 -0.11220229 0.88880002
-0.16671892 -0.11192519 0.88866669
-0.15041584 -0.111448 0.88900006
-0.14807776 -0.111448 0.88900006
-0.19201154 -0.10219313 0.88833332
-0.18481059 -0.1050016 0.88641179
-0.17504765 -0.10531472 0.88616258
-0.16519815 -0.1049765 0.88604629
-0.15498424 -0.10524082 0.88669044
-0.14506303 -0.10458946 0.88714266
-0.13529152 -0.10452375 0.88799989
-0.12613019 -0.10265774 0.88766664
-0.11591532 -0.10111525 0.88860005
-0.10560283 -0.10073184 0.889
-0.098198935 -0.10053701 0.88900006
-0.20029466 -0.092743441 0.88900006
-0.19418597 -0.094570123 0.88575
-0.18471143 -0.095000893 0.8809998
-0.17494082 -0.094612889 0.88107681
-0.16455626 -0.094812639 0.88125587
-0.15469463 -0.09462665 0.88185006
-0.14505771 -0.094640709 0.88485706
-0.13518396 -0.094786853 0.88622212
-0.12517789 -0.094865307 0.88607311
-0.11491285 -0.094504766 0.88454044
-0.10495158 -0.094795793 0.88482493
-0.095014162 -0.094976656 0.88421196
-0.085075788 -0.094911069 0.88492584
-0.075126022 -0.094419338 0.88419992
-0.064837359 -0.093771972 0.88512003
-0.055653431 -0.094183691 0.88556242
-0.2028001 -0.084056668 0.88675004
-0.19519502 -0.085203156 0.88352776
-0.1873121 -0.086712852 0.88
-0.17049414 -0.088718668 0.88000005
-0.16339663 -0.086044244 0.88000005
-0.15522993 -0.084954001 0.8809523
-0.14518186 -0.085280932 0.8826316
-0.13552007 -0.085608788 0.88212109
-0.12501825 -0.086841099 0.88227278
-0.11606578 -0.087328464 0.88066673
-0.10569093 -0.088718668 0.88
-0.054819498 -0.088408545 0.88075006
-0.20206013 -0.075229399 0.8860001
-0.19600743 -0.07494837 0.88350004
-0.16535102 -0.078946762 0.88000005
-0.15508617 -0.078315154 0.88012505
-0.14509124 -0.07871969 0.88033342
-0.13963546 -0.079461068 0.88000005
-0.20217687 -0.0692067 0.88700002
-0.19477317 -0.065422185 0.88400006
-0.18805817 -0.06314858 0.88060009
-0.19326882 -0.057177655 0.88538104
-0.18564674 -0.054292083 0.8839286
-0.1778295 -0.050697636 0.88066673
0.016366489 -0.058451753 0.88900012
0.023477132 -0.052279133 0.88783336
-0.18352862 -0.048265323 0.88800001
-0.17538789 -0.04511733 0.88336855
-0.16817974 -0.040887732 0.88000005
0.026724715 -0.046963446 0.88793337
0.034003146 -0.04407981 0.88677776
0.0418959 -0.041120049 0.88500005
-0.17236991 -0.039139371 0.88700008
-0.16477591 -0.036855184 0.88431817
-0.15551402 -0.032174133 0.8825295
-0.14849155 -0.030624306 0.88066673
0.038298305 -0.037731495 0.8882727
0.045186032 -0.035096493 0.88685358
0.050740588 -0.032120191 0.88500005
-0.1535729 -0.026981859 0.88664293
-0.14511621 -0.02504818 0.88455182
-0.13611394 -0.02271088 0.88327777
-0.12738959 -0.020845378 0.88066673
0.046596833 -0.025090093 0.88883996
0.052790619 -0.024720132 0.88726085
-0.14106356 -0.019483916 0.88900006
-0.13362339 -0.018766804 0.88788885
-0.1246997 -0.018192336 0.88585722
-0.11497466 -0.015714964 0.88543761
-0.10834385 -0.014333876 0.88728571
-0.023046689 -0.010799656 0.889
-0.018444775 -0.010651208 0.88900012
-0.00233807 -0.010131637 0.88900006
0.026710676 -0.011548648 0.889
0.035655569 -0.012274869 0.889
0.045358554 -0.014573966 0.88900006
0.05197797 -0.016356906 0.88846666
-0.022403853 -0.0064327405 0.88681829
-0.014602634 -0.0048686559 0.88844985
-0.0047923112 -0.0043215672 0.88863635
0.004750316 -0.0040473994 0.88874185
0.014897781 -0.0037076345 0.88875747
0.024918133 -0.0046744337 0.88827759
0.035029881 -0.0046733837 0.88795215
0.043953747 -0.0066466285 0.88876474
-0.011275249 0.001166405 0.88700002
-0.0042261048 0.0030766041 0.88699991
0.0045100986 0.0032659334 0.88699985
0.015009039 0.0042512799 0.88636822
0.024519611 0.0038303987 0.88644809
0.032768924 0.0020728784 0.88650006
0.0012897227 0.026309788 0.88283342
-0.0025251289 0.031195635 0.88412505
0.0023143999 0.033173066 0.88000005
-0.18121752 -0.11326095 0.89100003
-0.17427056 -0.11420888 0.89142853
-0.16279095 -0.11322019 0.89189994
-0.15431674 -0.11388298 0.89279175
-0.14497682 -0.11475703 0.89465398
-0.13484025 -0.11228839 0.89427769
-0.12479986 -0.11301073 0.89675003
-0.11559599 -0.11280176 0.89700001
-0.10494708 -0.11189962 0.89783335
-0.097024456 -0.11141632 0.89771444
-0.18980972 -0.10701207 0.89100003
-0.13513203 -0.10857429 0.89100003
-0.12400649 -0.10681022 0.89174992
-0.11470338 -0.10602476 0.8924197
-0.10492948 -0.10596182 0.89437944
-0.09487877 -0.10546909 0.8952052
-0.084994167 -0.10435395 0.89583886
-0.075397372 -0.10317954 0.8945238
-0.068224393 -0.10233593 0.89450002
-0.20152637 -0.091389872 0.89100003
-0.084405906 -0.099256642 0.8915
-0.074051403 -0.098850057 0.89185715
-0.065971218 -0.098828681 0.89233333
-0.20386972 -0.089046538 0.89100003
0.0051675118 -0.063547961 0.89583331
0.012943691 -0.060908463 0.89199996
0.0068530277 -0.056738876 0.89714283
0.014628244 -0.054407269 0.89336866
0.021089969 -0.050772149 0.89100003
-0.18358505 -0.044797312 0.89340001
-0.17796659 -0.041549243 0.89428574
-0.0059605814 -0.04104929 0.89800012
0.0077600023 -0.041724078 0.89800012
0.014943696 -0.044836521 0.89730597
0.02371713 -0.043454193 0.89352006
0.030463289 -0.041398831 0.89100003
-0.17294918 -0.036474217 0.8961429
-0.16506208 -0.03244089 0.89463639
-0.014943855 -0.031029323 0.89733338
-0.0058256248 -0.03353671 0.89800006
0.0058135125 -0.034093834 0.89800018
0.01493114 -0.034580909 0.89647621
0.025296124 -0.034844134 0.89584208
0.03431059 -0.034476925 0.89386863
0.041398831 -0.030463289 0.89100003
-0.16137008 -0.028505987 0.89500004
-0.15413247 -0.023725666 0.89475006
-0.14727473 -0.021634379 0.89200002
-0.021494113 -0.023060892 0.89480001
-0.014939276 -0.025167134 0.89709538
-0.0047202162 -0.02517694 0.89738911
0.0047159302 -0.025161065 0.89683342
0.014917026 -0.025126429 0.89561915
0.025117079 -0.025119416 0.89533353
0.035279766 -0.025090927 0.8943575
0.042108931 -0.024640469 0.89099985
-0.14371547 -0.018186372 0.89490908
-0.13464977 -0.015091341 0.89345455
-0.12538797 -0.013875881 0.89450008
-0.11521803 -0.011963402 0.89406663
-0.10546045 -0.010908762 0.89472729
-0.023392048 -0.015392857 0.89272225
-0.014648072 -0.015166604 0.89382619
-0.0047572847 -0.015002653 0.89343911
0.0047006449 -0.014889481 0.89352381
0.014867193 -0.014874239 0.89277565
0.024376109 -0.01600864 0.89138722
0.034600489 -0.017286045 0.89136016
0.042179942 -0.01952775 0.89100003
-0.10549106 -0.008659713 0.89800006
-0.0033848099 -0.0085922098 0.89100003
0.0042179944 -0.0085922098 0.89099997
0.014493929 -0.00824505 0.89099991
-0.14153871 -0.12171771 0.90450001
-0.13856827 -0.12214188 0.90666676
-0.14196622 -0.11826234 0.90133333
-0.13601357 -0.11722389 0.90144444
-0.12748609 -0.11547997 0.90100002
-0.11154868 -0.11516657 0.90242863
-0.1075812 -0.11453211 0.90100002
-0.090835817 -0.11137261 0.90100002
-0.089454189 -0.11161983 0.90300006
-0.087676309 -0.10979286 0.90100002
-0.0021169307 -0.054108817 0.90541673
0.0033775577 -0.054296985 0.90236354
-0.18355779 -0.041141238 0.90249997
-0.011848149 -0.04028371 0.90100002
-0.0023717342 -0.045302887 0.90179998
0.0041330829 -0.045700312 0.90185732
-0.1818454 -0.037320226 0.90580004
-0.17535882 -0.03470717 0.90278572
-0.16836822 -0.031354565 0.9016667
-0.013056528 -0.035480995 0.90128583
-0.0033569755 -0.036136854 0.90100002
0.0018957041 -0.03617635 0.90100002
-0.17076589 -0.029387619 0.90600002
-0.1647145 -0.027097547 0.90475005
-0.15665524 -0.022650436 0.90340006
