# .PCD v0.7 - Point Cloud Data file format
VERSION 0.7
FIELDS x y z
SIZE 4 4 4
TYPE F F F
COUNT 1 1 1
WIDTH 684
HEIGHT 1
VIEWPOINT 0 0 0 1 0 0 0
POINTS 684
DATA ascii
-0.15261102 -0.11562286 0.82572728
-0.15813752 -0.14048496 0.83900005
-0.1546981 -0.1347166 0.83864701
-0.14931123 -0.13460077 0.83900005
-0.15641867 -0.12190401 0.83766675
-0.16107962 -0.11547716 0.83900005
-0.15761043 -0.11701856 0.83425009
-0.17633687 -0.14572568 0.84871429
-0.16572757 -0.1440042 0.84804362
-0.15949751 -0.14180288 0.84100002
-0.1704424 -0.13769364 0.84900004
-0.16488931 -0.13605838 0.84707421
-0.15593261 -0.13304625 0.84211087
-0.14966716 -0.1327098 0.84100002
-0.16405593 -0.12440497 0.84708703
-0.15716431 -0.12662534 0.84299999
-0.16505077 -0.11810118 0.84549999
-0.16873904 -0.16071579 0.85800004
-0.1820841 -0.15280168 0.85650003
-0.17495714 -0.15389031 0.85627609
-0.16785003 -0.15511687 0.85474998
-0.17388479 -0.14530359 0.85153568
-0.16849922 -0.14739685 0.85099995
-0.1727214 -0.13500592 0.85339993
-0.16647968 -0.13199916 0.85215378
-0.15076138 -0.13353956 0.85416675
-0.14489089 -0.13340388 0.85600019
-0.13547279 -0.13215598 0.85514295
-0.17260838 -0.12541944 0.85666662
-0.16821247 -0.12732907 0.8520909
-0.15393905 -0.12783679 0.85611111
-0.14477965 -0.12617347 0.85695249
-0.13489291 -0.12599035 0.8565855
-0.17224921 -0.11884444 0.85800004
-0.16935183 -0.11787485 0.85100001
-0.31445143 -0.10417809 0.85688001
-0.30541587 -0.10475744 0.85642141
-0.29606479 -0.10324009 0.85686964
-0.32118085 -0.09492512 0.85799998
-0.31499797 -0.095393576 0.85471803
-0.30513471 -0.094939239 0.85423076
-0.29523668 -0.095164716 0.85646814
-0.28556269 -0.092703983 0.85781807
-0.27785531 -0.09161552 0.85799998
-0.32350352 -0.083867833 0.85763627
-0.31502473 -0.084754072 0.85557157
-0.30449 -0.084451839 0.85285121
-0.29495993 -0.08477293 0.85545117
-0.28489929 -0.084942691 0.8574695
-0.27616957 -0.085872479 0.85785174
-0.32336771 -0.076436564 0.85871422
-0.31414345 -0.077834606 0.85745448
-0.30487078 -0.076298967 0.8564828
-0.29615325 -0.076349452 0.85707688
-0.28532693 -0.078728169 0.85799998
-0.19201161 -0.18136011 0.86800003
-0.18623775 -0.18212217 0.8679412
-0.17902848 -0.18055212 0.86900002
-0.16334251 -0.18246427 0.86812496
-0.15607621 -0.18335898 0.86785716
-0.19136643 -0.17638996 0.8667143
-0.18476203 -0.17500201 0.86782932
-0.17562309 -0.17426407 0.86857128
-0.16552454 -0.17465179 0.86766666
-0.1584644 -0.17536728 0.86400014
-0.18303126 -0.16517811 0.86499995
-0.17497803 -0.16509095 0.86425018
-0.1651769 -0.16602404 0.86472428
-0.15842879 -0.16792484 0.86675
-0.18322024 -0.15753363 0.86169231
-0.17590557 -0.15856071 0.86025006
-0.14459407 -0.14093731 0.86900008
-0.13731866 -0.14227051 0.86900002
-0.20035954 -0.13027179 0.86900002
-0.19700752 -0.13088125 0.86900008
-0.18055212 -0.13027179 0.86900002
-0.1767474 -0.13282184 0.86380005
-0.15038164 -0.13829066 0.86200005
-0.14507857 -0.13795152 0.86257142
-0.13676889 -0.13698855 0.86328584
-0.12702593 -0.13080962 0.86250007
-0.3237749 -0.12112991 0.86900002
-0.31374916 -0.12227781 0.86740005
-0.30487236 -0.12343432 0.86696666
-0.29528111 -0.12416338 0.86857575
-0.28822318 -0.12163779 0.86900002
-0.21407892 -0.12254859 0.86825013
-0.20481613 -0.12391899 0.86717248
-0.19496064 -0.12435655 0.86415005
-0.18481074 -0.12373316 0.86588478
-0.17737541 -0.12422837 0.86263651
-0.15380086 -0.12274852 0.86190897
-0.14567833 -0.12076871 0.86100006
-0.13319854 -0.12112246 0.86083341
-0.12563707 -0.12466422 0.86402577
-0.11732845 -0.12392179 0.86793321
-0.33100128 -0.11134368 0.86400002
-0.32419735 -0.11459664 0.86470848
-0.315029 -0.11485863 0.86208117
-0.30496389 -0.11479974 0.86252272
-0.29483056 -0.11552256 0.86558974
-0.28660876 -0.11372741 0.86782753
-0.26282904 -0.11046437 0.86900002
-0.25454074 -0.11166346 0.8684445
-0.24602479 -0.11291874 0.86833328
-0.23377819 -0.11280062 0.8690002
-0.22527631 -0.11420019 0.86782765
-0.21489616 -0.11512636 0.86502713
-0.20523934 -0.11467652 0.86685383
-0.19527763 -0.11465832 0.86687523
-0.18574826 -0.1154168 0.86691916
-0.17708315 -0.1173863 0.86490911
-0.15382974 -0.11524827 0.8659631
-0.14479187 -0.11503459 0.8657335
-0.13635352 -0.11597017 0.86612922
-0.12763244 -0.11926115 0.86833334
-0.33128679 -0.10480496 0.8629232
-0.32545099 -0.1053437 0.86256421
-0.31681815 -0.10834333 0.86022228
-0.30246648 -0.10906961 0.86040008
-0.2932578 -0.10655381 0.86200005
-0.28498462 -0.10429037 0.86489207
-0.27503088 -0.10349871 0.86606908
-0.26491827 -0.1043525 0.86586678
-0.25534615 -0.10437497 0.86430013
-0.24529706 -0.10458723 0.86450022
-0.23491304 -0.10491345 0.86719066
-0.22456853 -0.10518441 0.86607701
-0.21487699 -0.1052122 0.86640501
-0.20517576 -0.10484854 0.86799991
-0.19596475 -0.10606813 0.86753362
-0.18822472 -0.10837266 0.86750001
-0.33116567 -0.096096687 0.86311108
-0.32612506 -0.095133267 0.86151999
-0.29026434 -0.09801133 0.86000001
-0.28441101 -0.097371563 0.86100018
-0.27478236 -0.095541142 0.86149997
-0.26537433 -0.095212594 0.86278039
-0.25492045 -0.095313348 0.8628571
-0.24448702 -0.094914556 0.86302501
-0.23474716 -0.09541288 0.86671448
-0.22501513 -0.094993725 0.86685735
-0.21614826 -0.095699087 0.86761552
-0.20899354 -0.099290974 0.86900002
-0.3306129 -0.08765965 0.86200005
-0.32592434 -0.085597791 0.86066663
-0.27321538 -0.084124528 0.86027265
-0.26509345 -0.085345291 0.86151022
-0.25471422 -0.085407913 0.86216301
-0.24520282 -0.08554256 0.86355019
-0.23527147 -0.086594254 0.86788887
-0.22529948 -0.087782443 0.86805886
-0.21788147 -0.08913333 0.86900002
-0.31547129 -0.073027417 0.86109692
-0.3055664 -0.071511865 0.86188233
-0.29352546 -0.073009871 0.86072028
-0.28498551 -0.073977031 0.86087215
-0.27527928 -0.074878097 0.86210001
-0.26511094 -0.075116463 0.8636443
-0.25551477 -0.075551465 0.8648836
-0.24637496 -0.078357033 0.86778581
-0.31384534 -0.068493091 0.86650008
-0.30363795 -0.067674614 0.86738467
-0.29475528 -0.066567019 0.86519235
-0.28500676 -0.067357413 0.86624992
-0.27543667 -0.06806048 0.86713344
-0.26435271 -0.069325924 0.86900002
-0.2582581 -0.069325924 0.86900002
-0.16145569 -0.19297975 0.87700003
-0.15428801 -0.19459186 0.87559372
-0.14831878 -0.19348505 0.87661546
-0.060807358 -0.19165862 0.87800002
-0.059267927 -0.19165862 0.87800002
-0.04387366 -0.19088891 0.87800002
-0.1962392 -0.18096767 0.87100005
-0.18419082 -0.1855284 0.87225014
-0.17533289 -0.18235749 0.87400007
-0.16520151 -0.18567555 0.87160015
-0.15435897 -0.18738993 0.87166685
-0.14868596 -0.18700725 0.87425005
-0.19383948 -0.17651653 0.87166673
-0.18783987 -0.1702776 0.87100005
-0.17337888 -0.17888296 0.8720001
-0.16875044 -0.17944051 0.87100005
-0.064765878 -0.17164607 0.87800014
-0.057112731 -0.17041454 0.87800008
-0.20089518 -0.16087009 0.87800002
-0.19425327 -0.16329606 0.87615013
-0.18838404 -0.16583924 0.87175012
-0.14513373 -0.16155428 0.87800014
-0.06388621 -0.16471863 0.8780002
-0.056934122 -0.16464928 0.87762523
-0.21192773 -0.15112038 0.87800008
-0.2034431 -0.15389799 0.87737519
-0.19487363 -0.15471523 0.87514293
-0.18881996 -0.15594469 0.87200004
-0.16138323 -0.15060724 0.87800002
-0.1528568 -0.15414026 0.87716681
-0.14550415 -0.15501751 0.8764376
-0.070043914 -0.15471238 0.87800002
-0.064267978 -0.15626907 0.87777793
-0.057728499 -0.1568016 0.8780002
-0.30334243 -0.14053668 0.87599999
-0.22538605 -0.14183718 0.8780002
-0.21441062 -0.14432289 0.87755013
-0.20500273 -0.14480385 0.87512767
-0.19785437 -0.1448178 0.87680018
-0.18211173 -0.14292078 0.87650001
-0.15391743 -0.14586461 0.87471431
-0.14515562 -0.14601813 0.87231261
-0.13949256 -0.14560539 0.87140006
-0.31328058 -0.13269056 0.87658352
-0.30412811 -0.13461952 0.87454838
-0.2949284 -0.13426651 0.87458336
-0.28504887 -0.13388173 0.87610358
-0.27530795 -0.13437098 0.87899995
-0.26471141 -0.13106118 0.8780002
-0.25507134 -0.1352694 0.87883335
-0.24477452 -0.13367544 0.87677282
-0.2360138 -0.13237888 0.8774547
-0.22445387 -0.13518824 0.87535489
-0.21507053 -0.13470441 0.87399989
-0.20547432 -0.13497768 0.87408561
-0.19778366 -0.13568459 0.87300009
-0.18314885 -0.13484888 0.87541187
-0.17934115 -0.13597713 0.87299997
-0.3226321 -0.12369815 0.87277788
-0.3160924 -0.12680477 0.87247825
-0.30548924 -0.12867519 0.87160015
-0.29244986 -0.1277082 0.87100017
-0.28481498 -0.12530772 0.87257123
-0.27517796 -0.12448775 0.87424445
-0.26475045 -0.1247069 0.87366647
-0.25493807 -0.12532228 0.87369221
-0.24475479 -0.12546283 0.87314987
-0.23499815 -0.12554005 0.87315768
-0.22520953 -0.12530932 0.87268418
-0.21581106 -0.12707397 0.87110025
-0.2080885 -0.1284323 0.87128586
-0.18652749 -0.12868355 0.87200004
-0.12015681 -0.12015681 0.87300003
-0.11373772 -0.12175126 0.87346166
-0.10906489 -0.12289014 0.8761251
-0.3275744 -0.11835438 0.87100005
-0.28257909 -0.11584777 0.87128586
-0.27482495 -0.11488833 0.87249994
-0.2647714 -0.11550367 0.87159473
-0.25537059 -0.11719377 0.87100023
-0.2440936 -0.11696534 0.87115407
-0.23583613 -0.11633638 0.87100023
-0.22594927 -0.11877086 0.87100023
-0.18314931 -0.11180944 0.87100017
-0.16148463 -0.11097285 0.87300003
-0.15552045 -0.11100484 0.87175012
-0.14770867 -0.11097285 0.87299997
-0.13306789 -0.11231393 0.87372726
-0.12519509 -0.11513566 0.8761366
-0.11583707 -0.11773951 0.87619066
-0.10852958 -0.11930557 0.87800002
-0.2809962 -0.10919146 0.87100005
-0.27523467 -0.10849731 0.87100023
-0.26801541 -0.10919145 0.87100005
-0.20387498 -0.10002854 0.87100011
-0.19361396 -0.10210223 0.87195241
-0.18435511 -0.10469624 0.87336165
-0.17494741 -0.10436168 0.87465781
-0.16453519 -0.10343703 0.87399983
-0.15501365 -0.10514975 0.87472337
-0.14539081 -0.10686998 0.87546885
-0.13510452 -0.10896583 0.87687504
-0.1259031 -0.10786982 0.87800014
-0.21224158 -0.092976652 0.87207705
-0.20504475 -0.094653703 0.87388372
-0.19533721 -0.095725983 0.87513882
-0.1857346 -0.097310245 0.87600011
-0.17818864 -0.098908156 0.87800002
-0.16467735 -0.098533429 0.8773334
-0.15856095 -0.099293016 0.87800002
-0.24142832 -0.080985151 0.87150002
-0.23461966 -0.08195997 0.87227285
-0.2251161 -0.0837593 0.87428576
-0.21459498 -0.086631663 0.87454838
-0.2074666 -0.087924846 0.87650007
-0.25211841 -0.071955167 0.87185723
-0.2444285 -0.074298963 0.87375671
-0.23538469 -0.077320799 0.87563646
-0.22860485 -0.079280473 0.87800002
-0.31191275 -0.065437324 0.87133342
-0.30565619 -0.063196197 0.87217253
-0.29442066 -0.061932858 0.87447375
-0.28466773 -0.062815323 0.87387508
-0.27489027 -0.064451292 0.87488902
-0.26476455 -0.066290729 0.87377435
-0.25543857 -0.067675859 0.87479168
-0.24703388 -0.069247395 0.87628573
-0.30095792 -0.059267927 0.87800002
-0.29377392 -0.059267927 0.87800002
-0.14208633 -0.20109652 0.88566667
-0.13856962 -0.20154163 0.88900006
-0.083684772 -0.20259395 0.88700008
-0.075408272 -0.20276135 0.88445848
-0.066883534 -0.2012305 0.88200003
-0.16141887 -0.19772077 0.88100004
-0.15815067 -0.19826692 0.88000005
-0.14426178 -0.19575472 0.88426298
-0.13950484 -0.19795659 0.88900006
-0.082473144 -0.19710256 0.88750005
-0.074752949 -0.1950158 0.88484073
-0.065756768 -0.19473432 0.88306069
-0.05490382 -0.19234085 0.88206673
-0.044266846 -0.19156526 0.88200003
-0.038918737 -0.19150083 0.88200003
-0.14731133 -0.18929008 0.8867501
-0.071847655 -0.18835577 0.88600004
-0.064678617 -0.18494079 0.88326311
-0.054797743 -0.18499464 0.88199997
-0.044913262 -0.18506366 0.88328552
-0.037618205 -0.18622586 0.88290006
-0.196242 -0.17130259 0.88900006
-0.16132683 -0.17067911 0.88900006
-0.15393887 -0.17159025 0.88833332
-0.14593026 -0.17272368 0.88407153
-0.063080035 -0.17510568 0.8803159
-0.054615401 -0.17521566 0.88066649
-0.047019489 -0.17567526 0.88510007
-0.27121612 -0.16132683 0.88900006
-0.21382093 -0.16196068 0.88819999
-0.20517731 -0.16443488 0.88491309
-0.19802366 -0.16704343 0.88350004
-0.1640003 -0.16350323 0.88309681
-0.15516856 -0.16476138 0.88387501
-0.14498609 -0.16625735 0.88055539
-0.13866763 -0.16525391 0.88085717
-0.051757999 -0.16502754 0.88255006
-0.046976406 -0.16619149 0.88604349
-0.29225874 -0.15130652 0.889
-0.28431767 -0.15289794 0.88833332
-0.27471983 -0.15453625 0.88857132
-0.26553929 -0.15379213 0.88857561
-0.25520974 -0.1527461 0.88844448
-0.24469885 -0.15394893 0.88708687
-0.23504284 -0.15392712 0.88659257
-0.2248089 -0.15511769 0.88623524
-0.21532686 -0.15550061 0.88307142
-0.20638487 -0.15698788 0.88040006
-0.16448604 -0.15548614 0.88135278
-0.15612556 -0.15651128 0.88000005
-0.1411784 -0.15892214 0.88000005
-0.13963546 -0.1596936 0.88000005
-0.072386526 -0.15174159 0.88436371
-0.065287121 -0.15174602 0.88057148
-0.053807829 -0.15424335 0.88285267
-0.048308097 -0.1551743 0.88590002
-0.300872 -0.14194986 0.88000005
-0.29450881 -0.14443643 0.88277775
-0.28509355 -0.1448478 0.88405704
-0.27477461 -0.14482638 0.8833999
-0.26506177 -0.14460331 0.88293755
-0.25467661 -0.14505315 0.88173527
-0.24486995 -0.14521006 0.88197482
-0.2348437 -0.14523396 0.88119423
-0.22517422 -0.14642233 0.88071996
-0.21726429 -0.14542145 0.88000005
-0.19782715 -0.14663391 0.88033336
-0.18406093 -0.14193133 0.88057148
-0.16176534 -0.14677748 0.88120002
-0.15917929 -0.14632151 0.88000005
-0.072823524 -0.14642105 0.88758826
-0.065278113 -0.14696869 0.88606882
-0.056589648 -0.14806291 0.88426673
-0.31167254 -0.13654959 0.88000005
-0.29436964 -0.13941504 0.88000005
-0.2841101 -0.13879384 0.88000005
-0.2656197 -0.13654049 0.88026643
-0.2452087 -0.13790795 0.88013345
-0.2349195 -0.13691933 0.88045144
-0.2291256 -0.13809253 0.88000005
-0.19290543 -0.13579467 0.8851335
-0.18771552 -0.13660263 0.8811667
-0.1008605 -0.13111866 0.88500005
-0.095115378 -0.13217574 0.88736367
-0.089626014 -0.1348287 0.88900012
-0.10345308 -0.1246568 0.88472223
-0.096179061 -0.1257443 0.88748246
-0.12112027 -0.11263414 0.88000005
-0.11422607 -0.11345421 0.88167858
-0.10577699 -0.11560744 0.88635129
-0.098978296 -0.11924157 0.88900006
-0.15396678 -0.10057339 0.88250005
-0.14466596 -0.10248028 0.88178581
-0.13512398 -0.10566329 0.88076907
-0.1268753 -0.1073151 0.88066673
-0.10653166 -0.10964207 0.88700002
-0.20080839 -0.090364173 0.88100004
-0.19407552 -0.091408812 0.88307703
-0.1841128 -0.093041852 0.88200003
-0.17496122 -0.09585166 0.88261771
-0.16718784 -0.096653752 0.88000005
-0.15441677 -0.099391557 0.88160002
-0.14923146 -0.099745378 0.88200003
-0.22199003 -0.08144924 0.88300008
-0.21560499 -0.082228705 0.88387507
-0.20413911 -0.086824901 0.88331258
-0.19475845 -0.088271737 0.88793337
-0.18694238 -0.087990634 0.88681817
-0.2417426 -0.07066898 0.88100004
-0.23516852 -0.073540062 0.88376933
-0.22623172 -0.077970915 0.88500011
-0.29701465 -0.060945865 0.88000005
-0.28004241 -0.060945865 0.88000005
-0.27402496 -0.06136623 0.88050008
-0.2653496 -0.061669558 0.8811667
-0.25511494 -0.063477382 0.88453329
-0.24536559 -0.067295887 0.88557905
-0.23926249 -0.069362745 0.88900006
-0.30317938 -0.058929097 0.88450003
-0.29473907 -0.057907343 0.88242859
-0.28550389 -0.058311518 0.88477284
-0.2749092 -0.059018511 0.88583344
-0.26503414 -0.058928989 0.88538462
-0.25942582 -0.059807952 0.88600004
-0.1340473 -0.20295145 0.89422226
-0.12819193 -0.20426208 0.89709091
-0.093733527 -0.20447215 0.89651614
-0.087876186 -0.20522092 0.89233333
-0.14165218 -0.19129154 0.89271438
-0.13527966 -0.19486263 0.89369786
-0.12909947 -0.19622761 0.89733344
-0.091635413 -0.19675502 0.89692307
-0.085846782 -0.19482405 0.89408708
-0.07915774 -0.1920163 0.89400005
-0.21401246 -0.18624248 0.89639992
-0.20632645 -0.18507354 0.89292848
-0.15066451 -0.18734775 0.89666671
-0.14548095 -0.18623772 0.89534497
-0.13575009 -0.18920019 0.89657152
-0.090533368 -0.18972644 0.89800006
-0.084866293 -0.18937431 0.89633328
-0.22262657 -0.17070569 0.89733338
-0.21436019 -0.17130594 0.89566666
-0.20503557 -0.1737946 0.89540005
-0.19825333 -0.17402579 0.8915
-0.16120586 -0.17457502 0.89700007
-0.15569729 -0.17391229 0.89546669
-0.14688726 -0.17987797 0.89600003
-0.26544622 -0.16114934 0.89272726
-0.25447756 -0.1621552 0.89500004
-0.24402581 -0.1634516 0.89504355
-0.23482554 -0.16380103 0.89451623
-0.2251039 -0.16457002 0.89403456
-0.21573086 -0.1661728 0.89210528
-0.20543192 -0.16950087 0.89100003
-0.29447848 -0.15231645 0.89100003
-0.28979182 -0.15387867 0.89100003
-0.26236916 -0.15804835 0.89185715
-0.25532565 -0.15746891 0.8925882
-0.24592823 -0.15813358 0.8915
-0.23636389 -0.15856533 0.89099997
-0.081111394 -0.14240091 0.8925001
-0.076143764 -0.1431693 0.89133328
-0.064612649 -0.14241019 0.89390928
-0.057661433 -0.14532198 0.89283341
-0.091389872 -0.13356981 0.89099997
-0.084525503 -0.13458452 0.89152515
-0.07512176 -0.1353616 0.89329308
-0.067844003 -0.13665153 0.89527786
-0.09202078 -0.12327356 0.89377773
-0.085521832 -0.12644303 0.89553148
-0.076489165 -0.12826961 0.89685714
-0.10098936 -0.11664488 0.89300007
-0.09662094 -0.11783908 0.89413333
-0.2136016 -0.082209505 0.89688897
-0.20498493 -0.08569967 0.89685726
-0.19624262 -0.086057164 0.89241666
-0.23271851 -0.071917586 0.89436358
-0.22444412 -0.075827897 0.89499998
-0.21884741 -0.078270987 0.89583331
-0.25229448 -0.061019395 0.89237499
-0.24558063 -0.064337336 0.8950001
-0.23756886 -0.068538599 0.89490908
-0.27488688 -0.056385148 0.89333326
-0.26482952 -0.057069406 0.89400005
-0.2563307 -0.058387168 0.89600015
-0.10404806 -0.2104789 0.90600002
-0.1319094 -0.20734262 0.90100002
-0.12386362 -0.20392664 0.90215391
-0.1148528 -0.20435694 0.90352374
-0.10450221 -0.20435937 0.90286481
-0.098462462 -0.20656601 0.90139997
-0.13032965 -0.19115016 0.90100002
-0.1248118 -0.19552912 0.90488595
-0.11454394 -0.19742095 0.90683347
-0.10432974 -0.19757508 0.90626323
-0.095989816 -0.19560464 0.90366679
-0.085369796 -0.19287193 0.9016667
-0.23004785 -0.18069503 0.90800005
-0.22383203 -0.18211965 0.90618759
-0.21546338 -0.18277451 0.90131581
-0.2066505 -0.18240015 0.90199995
-0.16141275 -0.18288231 0.90700006
-0.15495817 -0.18428326 0.90333343
-0.14928669 -0.18088175 0.90100002
-0.24329428 -0.1720476 0.90300006
-0.23398998 -0.17338033 0.90265006
-0.22489753 -0.17588311 0.90526938
-0.21466741 -0.17710933 0.90190011
-0.20641336 -0.17875934 0.90125
-0.16111994 -0.17819738 0.90180004
-0.15568362 -0.17886385 0.90144455
-0.24343999 -0.16919157 0.90100002
-0.23538326 -0.16982348 0.90100002
-0.22827435 -0.16982348 0.90100002
-0.060820501 -0.14138792 0.90100002
-0.070299022 -0.1319094 0.90100002
-0.064027347 -0.1383307 0.9016667
-0.084068216 -0.12260501 0.90407693
-0.077407911 -0.12717015 0.90100002
-0.090835817 -0.11927138 0.90100002
-0.088957116 -0.11993326 0.90600002
-0.21145709 -0.081254549 0.90340006
-0.20614843 -0.08328782 0.90382349
-0.23160394 -0.070351034 0.9016667
-0.22494064 -0.072515033 0.90333337
-0.21566273 -0.077727526 0.90426326
-0.20935151 -0.07880532 0.90800005
-0.24483818 -0.062474232 0.90384614
-0.23524296 -0.066418603 0.90430444
-0.22845583 -0.069253162 0.90800005
-0.16212109 -0.19106162 0.91700006
-0.15795779 -0.19066623 0.91000003
-0.13075045 -0.19171385 0.91500002
-0.12427522 -0.19201738 0.91339999
-0.11668137 -0.19339791 0.91372228
-0.10582958 -0.19507201 0.91357148
-0.097701289 -0.19300489 0.91100001
-0.22895904 -0.18268856 0.91000003
-0.16171139 -0.18728667 0.91166669
-0.15875557 -0.1890707 0.91000003
-0.23055457 -0.1794975 0.91000003
-0.060828567 -0.14172 0.91540003
-0.058923833 -0.14510849 0.9145
-0.071414441 -0.13186938 0.91533333
-0.064899258 -0.13713647 0.91557151
-0.076386012 -0.12767014 0.91400003
-0.20464975 -0.082345001 0.91388893
-0.2151576 -0.075241372 0.91373336
-0.20867077 -0.079456247 0.91550004
-0.13851431 -0.19197753 0.92400002
-0.12244841 -0.19218725 0.92500007
-0.10396697 -0.19574782 0.92650008
-0.14074357 -0.18955638 0.92800003
-0.052184239 -0.15249747 0.92650008
-0.053986855 -0.14487474 0.92364007
-0.049626347 -0.14725195 0.92800003
-0.070282802 -0.1308701 0.92150003
-0.063971281 -0.13276079 0.92269576
-0.057424173 -0.13672569 0.92433345
-0.092954718 -0.12043471 0.92199999
-0.083910592 -0.12176531 0.92421442
-0.074524656 -0.12587497 0.92400008
-0.065799683 -0.12862629 0.9266668
-0.095311813 -0.11849107 0.92450011
-0.087578997 -0.11920475 0.92500007
-0.14518565 -0.19200754 0.93300003
-0.1334824 -0.1924136 0.93211764
-0.125259 -0.19215481 0.93385732
-0.11434718 -0.1939788 0.93538898
-0.10485091 -0.19473711 0.93531245
-0.095037736 -0.19513744 0.93591672
-0.089345485 -0.19590431 0.93500006
-0.1505485 -0.18661457 0.93500012
-0.14434896 -0.18645197 0.93420833
-0.1362001 -0.18772355 0.93473917
-0.12581395 -0.18995439 0.93800002
-0.047694173 -0.1611734 0.93800002
-0.051453028 -0.15654783 0.93166667
-0.048120294 -0.1542989 0.93264294
-0.050964724 -0.14144842 0.93266672
-0.048187245 -0.14520161 0.93344444
-0.054263551 -0.13483603 0.9342593
-0.048516486 -0.13814864 0.93800002
-0.081792995 -0.12023571 0.93300003
-0.074121118 -0.12210712 0.93168753
-0.065482393 -0.12433483 0.93409681
-0.058730677 -0.12839179 0.93483335
-0.13292897 -0.11159617 0.93600005
-0.12464038 -0.1134145 0.93691659
-0.11602677 -0.11355919 0.93781245
-0.10449009 -0.1139297 0.93325812
-0.094677553 -0.11415856 0.93321228
-0.085038543 -0.11560641 0.93409097
-0.076037772 -0.11640672 0.93488908
-0.068536222 -0.11850132 0.93740004
-0.13458528 -0.10881946 0.93800002
-0.12322952 -0.10866284 0.93800008
-0.11841312 -0.10936768 0.93800002
-0.10311814 -0.10851294 0.93671429
-0.097697489 -0.10878162 0.93650007
-0.12449851 -0.19073534 0.94050002
-0.11476299 -0.1911758 0.94181824
-0.10487017 -0.191827 0.94338107
-0.09496206 -0.19218862 0.94408697
-0.085712075 -0.19268912 0.9449048
-0.075382225 -0.1918468 0.94666672
-0.15080419 -0.185415 0.94000006
-0.14477581 -0.18244851 0.94099998
-0.13427593 -0.18367109 0.94433337
-0.12533489 -0.18723814 0.94538486
-0.1162063 -0.18917528 0.94585717
-0.10781246 -0.18991581 0.94600004
-0.082160033 -0.18949561 0.94666672
-0.07695847 -0.18907537 0.94733334
-0.14306544 -0.17387901 0.94533312
-0.13738109 -0.17713481 0.94705886
-0.044741295 -0.17283264 0.94510001
-0.15018746 -0.16595168 0.94650006
-0.14421095 -0.16435425 0.94617105
-0.13498348 -0.16420528 0.94800001
-0.12715523 -0.16261464 0.94800013
-0.043836161 -0.16570617 0.94464511
-0.038978353 -0.16337736 0.94599998
-0.14297417 -0.15465868 0.94663978
-0.13462691 -0.15457205 0.94794452
-0.12826334 -0.15374979 0.94800007
-0.043294724 -0.15500702 0.94553816
-0.038937151 -0.15657879 0.94499999
-0.1425069 -0.14713115 0.9418
-0.13419971 -0.14608511 0.94545823
-0.12470949 -0.14419547 0.94688201
-0.1169976 -0.14211467 0.94800007
-0.043219626 -0.14420404 0.94486368
-0.12362677 -0.13812551 0.944875
-0.11731157 -0.13751495 0.94683331
-0.051491894 -0.13255878 0.94085723
-0.0448118 -0.13482426 0.94352949
-0.038854744 -0.13723165 0.94300002
-0.061448328 -0.12253445 0.94171435
-0.054189555 -0.12466174 0.94339472
-0.04756844 -0.12680259 0.94641668
-0.1310266 -0.111249 0.94000006
-0.11399589 -0.11262244 0.94000006
-0.092118956 -0.11037818 0.94666672
-0.086083762 -0.11091568 0.94420004
-0.074570231 -0.11374496 0.94400001
-0.064446762 -0.11753737 0.94458824
-0.056436386 -0.11812762 0.9452222
-0.10614338 -0.10796877 0.94450009
-0.095591582 -0.10885993 0.94550008
-0.088925563 -0.10887148 0.94800007
-0.092833742 -0.19152185 0.95400006
-0.13089247 -0.18091507 0.95100003
-0.12439463 -0.1831158 0.95233345
-0.11516114 -0.1848509 0.95456403
-0.10531907 -0.18484347 0.95469809
-0.09534017 -0.18514277 0.95499998
-0.085472658 -0.18484026 0.95470756
-0.076616414 -0.18423229 0.95392323
-0.13387929 -0.17433833 0.95150018
-0.12543967 -0.17561646 0.95391685
-0.1156337 -0.17508765 0.95470983
-0.10492191 -0.17459776 0.9574998
-0.094943874 -0.17476198 0.95839977
-0.085537605 -0.17443104 0.95658326
-0.077867135 -0.17543128 0.95850003
-0.13289337 -0.16724223 0.95100003
-0.12493598 -0.16539635 0.95181841
-0.1152208 -0.16532257 0.95241672
-0.10516093 -0.16469392 0.95561743
-0.095540285 -0.16435519 0.95719987
-0.08579699 -0.16458492 0.95670563
-0.079743788 -0.16788036 0.95750004
-0.12386637 -0.15536635 0.95111126
-0.1153119 -0.15542275 0.95316696
-0.10561979 -0.15519907 0.95412153
-0.09535782 -0.15471868 0.95496774
-0.088067226 -0.15611953 0.95509094
-0.12172166 -0.14923409 0.95100003
-0.11437188 -0.14602034 0.95177799
-0.10571874 -0.14683384 0.95316023
-0.097316235 -0.14862423 0.95422226
-0.11532988 -0.13867377 0.95100003
-0.058666535 -0.11649498 0.95600003
-0.076404124 -0.17433043 0.96300006
-0.07843186 -0.16951402 0.96200007
