# .PCD v0.7 - Point Cloud Data file format
VERSION 0.7
FIELDS x y z
SIZE 4 4 4
TYPE F F F
COUNT 1 1 1
WIDTH 697
HEIGHT 1
VIEWPOINT 0 0 0 1 0 0 0
POINTS 697
DATA ascii
-0.10469671 -0.022134079 0.7889998
-0.097389951 -0.021442387 0.78900003
-0.10322311 -0.018471742 0.78871435
-0.097547829 -0.017655691 0.78757149
-0.10703574 -0.051069338 0.79800004
-0.1122373 -0.043770324 0.79586685
-0.10668538 -0.045525089 0.79666668
-0.11311246 -0.038053367 0.79462492
-0.10813254 -0.038525604 0.79577786
-0.090636812 -0.030522026 0.79733342
-0.08561153 -0.031144345 0.79653347
0.056614194 -0.031618267 0.7972942
0.060710918 -0.030704373 0.79600006
-0.11081067 -0.023547268 0.79000002
-0.10621455 -0.023358386 0.79000002
-0.092892259 -0.024604455 0.79225022
-0.086810946 -0.026350658 0.79421067
0.056035213 -0.02551052 0.79690927
0.06173224 -0.026975911 0.7930001
0.025744537 -0.013991596 0.79800022
0.031050583 -0.013937785 0.79800004
0.025884461 -0.00909454 0.79800004
0.030781519 -0.00909454 0.79800004
-0.092294239 -0.061105244 0.80860007
-0.08631134 -0.060606599 0.8070001
-0.10303083 -0.053089824 0.80313343
-0.095740706 -0.055758264 0.80503702
-0.086947583 -0.057375643 0.80800009
-0.072935715 -0.051950064 0.8077274
0.036383566 -0.051505778 0.80850005
0.040898547 -0.050827671 0.80900002
-0.1033337 -0.049411688 0.80028576
-0.098308526 -0.049856909 0.801
-0.081510276 -0.041464582 0.80850005
-0.075041458 -0.043720219 0.80428946
-0.069605581 -0.040779024 0.80200005
0.028723545 -0.046099517 0.80900002
0.034790847 -0.044709533 0.80791634
0.042971686 -0.043838795 0.80693549
-0.090071365 -0.034751944 0.80900002
-0.084061451 -0.035825789 0.80516672
-0.075750589 -0.036845095 0.80425936
-0.063097827 -0.032510176 0.80871433
-0.058392722 -0.031442236 0.80900002
0.035497285 -0.034725554 0.80584991
0.044768658 -0.034306522 0.80423075
0.052989788 -0.034898389 0.80290484
-0.061960336 -0.02753076 0.80900002
-0.058298159 -0.02737602 0.80900002
0.026973749 -0.022284398 0.80266678
0.034568608 -0.024544539 0.80270833
0.044913348 -0.024787677 0.80374092
0.052132092 -0.022528348 0.80146682
0.017575277 -0.012599184 0.80200011
0.022679269 -0.015664574 0.80011123
0.035620231 -0.015030403 0.80183327
0.043448728 -0.01708686 0.80738103
0.053409662 -0.017972294 0.80171436
0.017149583 -0.0066571762 0.80636859
0.024572581 -0.0045323069 0.8040697
0.033082407 -0.0060476866 0.80425006
-0.081132866 -0.061029151 0.81900007
-0.078978896 -0.061029151 0.81900007
0.036551502 -0.061703388 0.81754565
0.04082549 -0.061596353 0.81700003
-0.082560383 -0.05427726 0.81344444
-0.076156586 -0.056114033 0.81512141
0.027656829 -0.053073268 0.81485713
0.034281947 -0.055618823 0.81270599
0.042922568 -0.054476678 0.81329995
-0.084526166 -0.045021486 0.8143332
-0.078444429 -0.048583407 0.81100005
0.02772809 -0.049057391 0.81100005
0.047391135 -0.045586728 0.81166661
0.053090192 -0.042435728 0.81407702
-0.087860405 -0.038772337 0.81150007
-0.073767044 -0.033069257 0.81424999
-0.067612402 -0.034035966 0.81182343
-0.05758911 -0.030571997 0.81100005
0.049057391 -0.039103717 0.81100005
0.052678898 -0.039151933 0.81200004
-0.072444372 -0.027493874 0.81816673
-0.065718114 -0.024193598 0.81426316
-0.055309992 -0.023743529 0.81150025
-0.048624609 -0.022170605 0.81566674
-0.063489594 -0.016704081 0.81675011
-0.054922801 -0.014969834 0.81357169
-0.047142051 -0.014422813 0.81132013
0.04487139 -0.013512461 0.8112728
-0.052395485 -0.0085100541 0.81871432
-0.044491656 -0.005936115 0.81700003
-0.035339497 -0.0040218094 0.81756413
-0.028799376 -0.003909057 0.81900012
0.0086956574 -0.0032708433 0.81900012
0.013649575 -0.0035148698 0.81371433
0.022040276 -0.00071097666 0.81100005
0.036834348 -0.0035615277 0.81373692
0.042415764 -0.0073626856 0.81316668
-0.035181511 0.00071798998 0.81900007
0.0086158803 0.00143598 0.81900007
0.015345364 0.002399513 0.81682611
0.024820901 0.0025381893 0.81527275
0.03443196 0.001434928 0.81820011
-0.034829382 -0.091424055 0.8276667
-0.050146211 -0.081396744 0.82900006
-0.044674162 -0.081904672 0.82862508
-0.037791349 -0.085030526 0.82900006
-0.072835222 -0.071019202 0.82875001
-0.06459301 -0.071850881 0.82785714
-0.053718172 -0.072938219 0.82768965
-0.045804765 -0.076247692 0.82833356
-0.038304586 -0.077821009 0.82788897
-0.081069313 -0.0644968 0.82200003
-0.074649528 -0.064971767 0.82413524
-0.06562198 -0.066325843 0.82462955
-0.054755546 -0.068373688 0.82620001
0.028606158 -0.061424702 0.82820004
0.033373088 -0.064104497 0.82466668
0.026895259 -0.057269298 0.82480001
0.030948963 -0.059738696 0.82100004
-0.091742977 -0.04434916 0.82660007
-0.051821809 -0.041892976 0.82866669
-0.044757053 -0.043144956 0.82788891
-0.039971616 -0.045785669 0.82900006
-0.092298098 -0.03924486 0.82900006
-0.081048124 -0.031505357 0.82300001
-0.078452021 -0.030948963 0.82100004
-0.05329366 -0.03540631 0.82724249
-0.046978477 -0.035334252 0.8263846
-0.082369849 -0.026091196 0.82681811
-0.075941905 -0.024300326 0.82340008
-0.052209008 -0.028631933 0.82333332
-0.046002861 -0.025689401 0.82393771
-0.074098602 -0.015793452 0.82654291
-0.066756293 -0.013636882 0.82299995
-0.044011295 -0.019480409 0.82300001
-0.070923209 -0.0089557348 0.82833338
-0.063967131 -0.006123994 0.8265757
-0.05555705 -0.0045811981 0.82359445
-0.047280185 -0.0019391192 0.82192314
-0.023911435 -0.0033754117 0.82259995
-0.015310756 -0.0032388312 0.82416129
-0.0054144394 -0.0025243617 0.8228333
0.0037786528 -0.0023391659 0.82100004
0.041952007 -0.0036162499 0.82500005
-0.053718247 0.0011382891 0.82642871
-0.044862121 0.0030338187 0.82588893
-0.035241723 0.0049707782 0.82495457
-0.025295109 0.005062928 0.82438803
-0.015505444 0.0046464126 0.82631814
-0.0050747003 0.0050765611 0.82638806
0.0047299666 0.0053789336 0.82326663
0.014871434 0.0073836911 0.82292295
0.024434403 0.0070156539 0.82405889
0.03293499 0.0042366791 0.82442862
-0.016715404 0.01090135 0.82900006
-0.0043605398 0.01090135 0.82900006
0.0056838687 0.011489153 0.8276667
0.013794351 0.011374165 0.82811117
-0.075116254 -0.09155526 0.83726668
-0.06592305 -0.090296842 0.83740008
-0.041692805 -0.090941012 0.83433342
-0.036161624 -0.091335952 0.83350003
-0.074877165 -0.084696777 0.83537805
-0.065188222 -0.084964767 0.8354761
-0.055878293 -0.083161823 0.83430004
-0.043866049 -0.086586431 0.83332002
-0.034654669 -0.085367084 0.83227277
-0.02539495 -0.084202766 0.83602864
-0.019438831 -0.083744586 0.83900011
-0.081531882 -0.075651206 0.83785719
-0.075638041 -0.075992912 0.83329272
-0.064989366 -0.077403329 0.83292866
-0.05573969 -0.077772245 0.83220017
-0.032697562 -0.078244604 0.8326
-0.025644114 -0.078413188 0.83594733
-0.01985913 -0.078700997 0.83900005
0.019353 -0.071779422 0.83833337
0.024629472 -0.071890093 0.83754539
0.030084569 -0.071175687 0.83700001
-0.08164309 -0.069874719 0.83900005
-0.078985617 -0.068778299 0.83166671
-0.043395877 -0.061048437 0.83900005
0.01828973 -0.065504573 0.83776182
0.024895046 -0.065451607 0.83470738
0.03160746 -0.068124637 0.833
-0.10150222 -0.050751109 0.83900005
-0.062243335 -0.051962223 0.83775008
-0.054610599 -0.0534513 0.8358233
-0.044680707 -0.054939035 0.83548993
-0.034420818 -0.054932956 0.83540779
-0.028571447 -0.054210141 0.83566666
0.01985913 -0.058841869 0.83900005
0.022837883 -0.057331525 0.83554554
-0.10368198 -0.044135273 0.83705717
-0.096554674 -0.04410642 0.8338334
-0.06463372 -0.044401143 0.83532536
-0.055355996 -0.045329984 0.83223081
-0.045093291 -0.047472745 0.83173698
-0.035146121 -0.048439261 0.83372742
-0.10325255 -0.035148837 0.83766669
-0.096792847 -0.035185095 0.83483344
-0.063014217 -0.037539598 0.83416677
-0.057801008 -0.037596349 0.83157152
-0.091597013 -0.022296514 0.83585709
-0.086325422 -0.022521095 0.83284628
-0.091514699 -0.019242307 0.83780003
-0.084338069 -0.016303752 0.83606255
-0.078155868 -0.012679868 0.8331818
-0.08017204 -0.0095618032 0.83900005
-0.074501112 -0.0074292016 0.83724993
-0.067876354 -0.0031082216 0.83475
0.04421784 -0.0036751621 0.83780003
-0.045896132 0.0050995699 0.83100003
-0.012676073 0.0088878218 0.83100003
0.027445102 0.0089519946 0.83700007
0.032856084 0.0064027975 0.83814287
0.040797438 0.00183837 0.83850002
-0.012632475 0.01141829 0.83133334
-0.0056459527 0.012202541 0.83099997
0.0014570199 0.01238467 0.83100003
0.01792608 0.012072576 0.83450001
0.023984473 0.011415577 0.83614296
-0.07373137 -0.095141225 0.84200001
-0.064759344 -0.09511362 0.84378785
-0.056021247 -0.094708025 0.84643751
-0.049867429 -0.097501986 0.84900004
-0.027279235 -0.090685032 0.84100002
-0.054809898 -0.08768288 0.84260005
-0.049456272 -0.088579275 0.84200001
-0.025313167 -0.088718951 0.84100002
-0.014521985 -0.083401956 0.84350014
-0.0053436463 -0.08319854 0.84603441
0.0045396728 -0.082257345 0.84700006
0.01111175 -0.080745384 0.84500003
-0.090059087 -0.074428998 0.84900004
-0.085962713 -0.074272737 0.84650016
-0.021444144 -0.075187899 0.84366673
-0.015129679 -0.076308943 0.844625
-0.0047852406 -0.075774536 0.84620011
0.0051849824 -0.074825346 0.84508193
0.014183004 -0.074290074 0.84354556
0.021381022 -0.07446494 0.84100002
-0.12429643 -0.06028749 0.84900004
-0.0844528 -0.068892851 0.84500003
-0.070707552 -0.06028749 0.84900004
-0.064292721 -0.061912566 0.84780014
-0.054730643 -0.063699253 0.84613055
-0.04537385 -0.063991301 0.84516013
-0.035569552 -0.062985867 0.84626317
0.0066231438 -0.066694684 0.84766668
0.013388838 -0.064708903 0.84300011
-0.13273172 -0.051604107 0.84900004
-0.12536159 -0.054161072 0.84807712
-0.11983069 -0.052100301 0.84900004
-0.1003608 -0.053526636 0.84800005
-0.096238837 -0.052315328 0.84728575
-0.071338475 -0.054578908 0.84561545
-0.06574443 -0.055397876 0.84328562
-0.056137346 -0.058792714 0.84179997
0.0166787 -0.057917211 0.84193337
0.021381022 -0.05529575 0.84100002
-0.14239685 -0.043435875 0.84875
-0.13497634 -0.045019321 0.84751296
-0.12624201 -0.045860387 0.84617949
-0.1076424 -0.045711152 0.84100002
-0.094375037 -0.04968283 0.8458572
-0.071504734 -0.047860447 0.84277779
-0.068566732 -0.04866026 0.84100002
-0.14269941 -0.035130665 0.84846175
-0.13514169 -0.034899224 0.847
-0.1252771 -0.034606565 0.8444894
-0.11482183 -0.033828814 0.84211767
-0.10822447 -0.033643097 0.84099978
-0.141167 -0.028531117 0.84900004
-0.13398351 -0.027227337 0.84860009
-0.12488551 -0.02554349 0.84780031
-0.11484771 -0.026804082 0.84375006
-0.10551444 -0.02816131 0.8416667
-0.094031096 -0.013944576 0.84452021
-0.087799221 -0.012541944 0.84160006
0.055242162 -0.013625608 0.84284002
0.060482107 -0.014471137 0.84650004
-0.094403692 -0.007291873 0.84727281
-0.08474914 -0.0066038757 0.84281826
-0.076114565 -0.0033922612 0.84129983
0.047565114 -0.0036096058 0.84152627
0.05407409 -0.005660791 0.84488243
0.03632284 0.0075313547 0.84210002
0.045104366 0.0051130271 0.84475005
0.05226716 0.0017349232 0.84766674
0.0069726557 0.014828818 0.84560001
0.01549805 0.015961064 0.8450771
0.025041081 0.015737157 0.84416127
0.034343097 0.013996728 0.84542435
0.042639896 0.011651777 0.84833336
0.018607249 0.020095831 0.84900004
0.021584412 0.020095831 0.84900004
-0.053772159 -0.10232087 0.85193747
-0.045324896 -0.10289726 0.85609996
-0.052969079 -0.099223763 0.85100001
-0.047746774 -0.099223763 0.85100001
-0.10003994 -0.080483258 0.85800004
-0.094020575 -0.08095368 0.85659993
-0.088140413 -0.081235789 0.85640013
-0.11203185 -0.072181515 0.85766667
-0.10391268 -0.074260235 0.85557693
-0.095268115 -0.074626371 0.85237837
-0.086541027 -0.079080597 0.85100001
-0.050278585 -0.07129053 0.85600007
-0.045087699 -0.072139882 0.85716659
-0.034595121 -0.07286863 0.85788876
-0.025977351 -0.074549459 0.85619998
-0.01347612 -0.071872637 0.85400003
-0.007052978 -0.071592785 0.85166669
-0.16021433 -0.060926579 0.85800004
-0.15494907 -0.061678756 0.85799986
-0.14420313 -0.062928811 0.85708332
-0.13500519 -0.064124703 0.85684872
-0.12573636 -0.066404313 0.85738891
-0.11469111 -0.065199137 0.85437512
-0.10494736 -0.065395847 0.85123676
-0.094731063 -0.067498155 0.85316658
-0.088457547 -0.067653731 0.85614288
-0.071682625 -0.061977483 0.85175002
-0.064545281 -0.066048823 0.85286659
-0.054545008 -0.068398885 0.85227275
-0.045237143 -0.068691485 0.85238457
-0.03459689 -0.067802884 0.85395658
-0.028706629 -0.068686128 0.85720003
-0.012303391 -0.06836547 0.85428578
-0.0052328235 -0.067228995 0.8520714
0.0029841734 -0.065204188 0.85099995
-0.17124633 -0.050897513 0.85800004
-0.16411594 -0.053954016 0.85774988
-0.15499505 -0.054602262 0.85631144
-0.14497365 -0.055010159 0.85547847
-0.13507529 -0.055921413 0.85338712
-0.12302308 -0.057247024 0.85121423
-0.11624283 -0.056844585 0.85257894
-0.10817628 -0.058937423 0.85100001
-0.093735918 -0.055376671 0.85129994
-0.088779159 -0.052969076 0.85100001
-0.17303412 -0.044640254 0.85799986
-0.16509464 -0.045026287 0.85600036
-0.1552107 -0.044988573 0.85528594
-0.14633997 -0.046005707 0.85228568
-0.13901274 -0.049487542 0.85100001
-0.17282782 -0.038129743 0.85799986
-0.16430147 -0.036218133 0.85696989
-0.15503086 -0.035460319 0.85591322
-0.14753984 -0.034830295 0.85212499
-0.15344903 -0.028228825 0.85763627
-0.1446798 -0.025295585 0.85509384
-0.13541877 -0.022627937 0.85341668
-0.12530294 -0.020648422 0.85133326
-0.11787485 -0.02014317 0.85100001
-0.13436675 -0.017153604 0.85872722
-0.12464206 -0.016615681 0.85736108
-0.1145969 -0.015294649 0.85436851
-0.10774305 -0.013702885 0.85249996
0.061766867 -0.012352233 0.85400003
0.058618974 -0.0031801083 0.8545
0.061363243 -0.0060698004 0.85645449
0.049238861 0.0082064765 0.85100001
0.054899253 0.0054043368 0.85442865
-0.0031314532 0.015519485 0.85649991
0.0042417515 0.017308857 0.85416663
0.01119065 0.018651083 0.85100001
0.036903188 0.017995238 0.85133326
0.045172546 0.015506629 0.8533448
0.051676631 0.013176937 0.85654545
0.006530493 0.021216409 0.85723072
0.015069199 0.022271015 0.85519999
0.025154676 0.023419894 0.85445178
0.035243783 0.022497991 0.85532153
0.043506805 0.021783279 0.8567692
-0.040051393 -0.10352907 0.86200005
-0.037544675 -0.10393289 0.86537504
-0.092942446 -0.090656973 0.86900002
-0.088371508 -0.090656973 0.86900002
-0.2117869 -0.082276918 0.86900002
-0.20447338 -0.081972197 0.86900008
-0.19655041 -0.081515096 0.86900002
-0.14093731 -0.081515096 0.86900002
-0.1343222 -0.083830319 0.86786366
-0.12517312 -0.084360965 0.86638713
-0.11496284 -0.085150763 0.86634225
-0.10516893 -0.084320702 0.86414719
-0.095371403 -0.086281821 0.8648929
-0.08633782 -0.086196139 0.86470002
-0.21251011 -0.075426169 0.86827278
-0.20485809 -0.075319149 0.86743486
-0.19549595 -0.075097471 0.86819029
-0.18603727 -0.071459025 0.86900008
-0.17369571 -0.070849568 0.86900002
-0.16410813 -0.072136 0.86829424
-0.15462489 -0.074040458 0.86671871
-0.14490236 -0.074707218 0.86582935
-0.13515122 -0.074650392 0.86378568
-0.12531203 -0.074990921 0.86273164
-0.11550546 -0.07574717 0.86012149
-0.10767539 -0.077518053 0.86000001
-0.04337794 -0.076223798 0.86346155
-0.035999931 -0.076864481 0.86144453
-0.21309735 -0.06450884 0.86884618
-0.20474194 -0.0647965 0.86738312
-0.19510092 -0.064684302 0.86754763
-0.18469387 -0.065461822 0.86589748
-0.17488909 -0.0652413 0.86664879
-0.16512305 -0.065210171 0.86342877
-0.15492848 -0.066508755 0.86207139
-0.14578727 -0.067394502 0.86100012
-0.13420013 -0.068607934 0.86000007
-0.21204083 -0.05739069 0.86900002
-0.20523386 -0.054865938 0.86751455
-0.19475953 -0.054872219 0.86473811
-0.18476003 -0.055136632 0.86316276
-0.17529255 -0.055644639 0.86195129
-0.16702855 -0.057687443 0.86016661
-0.20377627 -0.046584405 0.86830008
-0.19523539 -0.044650346 0.86465108
-0.18500799 -0.04483914 0.86182588
-0.17755426 -0.046114687 0.86015385
-0.19400916 -0.037747111 0.86784619
-0.18424793 -0.035562266 0.8644194
-0.17581841 -0.034142427 0.86173332
-0.16717173 -0.032308515 0.86072725
-0.18148622 -0.029296009 0.86800003
-0.17441511 -0.028433863 0.86726665
-0.16456318 -0.026733844 0.86414832
-0.15558602 -0.023845445 0.86329037
-0.14670885 -0.021146078 0.86149997
-0.15312649 -0.018740855 0.86900008
-0.14530793 -0.018398605 0.86549997
0.066623352 -0.014194297 0.8649286
0.073199689 -0.013897687 0.86862516
0.065710269 -0.0047486927 0.86228013
0.073605277 -0.0051118108 0.86810732
0.058784202 0.0076320651 0.86088896
0.065088533 0.0051836092 0.86436123
0.072081059 0.0046547712 0.86662483
-0.011913315 0.017494176 0.86733335
-0.0068915854 0.017363369 0.86112505
0.049005665 0.018848334 0.86000001
0.05592877 0.015601223 0.86207151
0.065121986 0.01483755 0.86711109
0.070849568 0.01142735 0.86900002
-0.01142735 0.020569229 0.86900002
-0.0047601806 0.022195965 0.86477286
0.0051964284 0.025793007 0.86270958
0.014852737 0.027515145 0.86152393
0.024605228 0.028530594 0.86093348
0.035002623 0.027851798 0.86105275
0.045809217 0.026343705 0.86364299
0.054118972 0.023649938 0.86585194
0.062203534 0.021443442 0.86740005
0.0099037029 0.031234756 0.86900002
0.015189271 0.031906139 0.86650008
0.025606915 0.032312594 0.86658841
0.034808926 0.033366285 0.86690009
0.043547362 0.031822648 0.8684001
0.051042162 0.031234756 0.86900002
-0.20705289 -0.10083245 0.87800002
-0.086464465 -0.10134559 0.87800002
-0.032474451 -0.10587573 0.87580013
-0.027966252 -0.10622045 0.87800008
-0.22332682 -0.091375969 0.87800014
-0.21438047 -0.09480945 0.8760938
-0.20469551 -0.094830602 0.87505549
-0.19495681 -0.095199227 0.87607896
-0.18493475 -0.094855234 0.87589484
-0.17514028 -0.09367808 0.87666678
-0.16518046 -0.091287993 0.8780002
-0.1538561 -0.092293404 0.87780017
-0.1459495 -0.092424802 0.8780002
-0.13438407 -0.09272673 0.87593764
-0.12453373 -0.09335205 0.87540913
-0.11492523 -0.093477793 0.87396169
-0.10506339 -0.093063809 0.87478274
-0.094488204 -0.094027378 0.87504351
-0.085957445 -0.093876787 0.87505269
-0.23076005 -0.082667209 0.87800008
-0.22429501 -0.084392771 0.87435478
-0.21568188 -0.085651308 0.87251335
-0.20529649 -0.086533129 0.87189668
-0.19454746 -0.085750528 0.87215012
-0.18518952 -0.08494278 0.87290454
-0.17547899 -0.085059673 0.87410212
-0.16524234 -0.084580243 0.87547505
-0.15481608 -0.084614925 0.87361896
-0.14526422 -0.085400328 0.87334156
-0.13626267 -0.087920696 0.87207705
-0.1252742 -0.089372657 0.87133342
-0.11835438 -0.089338467 0.87100005
-0.10499179 -0.089338467 0.87100005
-0.23129886 -0.073764198 0.8780002
-0.2246913 -0.075075775 0.87416124
-0.21776818 -0.074715361 0.87123549
-0.19071241 -0.076896816 0.87133342
-0.18477865 -0.075846389 0.87200004
-0.17528272 -0.075241618 0.87233323
-0.16573429 -0.076864466 0.8724001
-0.15714407 -0.078342959 0.87100011
-0.2320396 -0.064831406 0.87643766
-0.22522406 -0.06516961 0.87457484
-0.21815951 -0.065303348 0.87125021
-0.23080121 -0.05776298 0.87466669
-0.22459966 -0.05492691 0.8764866
-0.21563666 -0.054687209 0.87199998
-0.20998359 -0.051159635 0.87100005
-0.22110388 -0.048449203 0.87725002
-0.21460463 -0.04598365 0.87477428
-0.20713744 -0.044082362 0.87268764
-0.20262791 -0.039143607 0.87550002
-0.19369555 -0.034450281 0.87330008
-0.18823874 -0.031839658 0.87166673
-0.18483332 -0.027514372 0.87535721
-0.17434923 -0.024332367 0.87355566
-0.16582209 -0.021810444 0.87300009
-0.15958752 -0.02061657 0.87100005
0.068636678 -0.02282998 0.8738001
0.073031843 -0.02321426 0.87428576
-0.16342534 -0.018841539 0.87725002
-0.15527774 -0.017265148 0.87541676
-0.14430393 -0.017222773 0.87325007
0.068378255 -0.018718585 0.87150002
0.074066937 -0.016340543 0.87100017
0.076815814 -0.0076357676 0.87100017
-0.021602103 0.014473369 0.87718195
-0.016081573 0.015960189 0.87338459
-0.014378417 0.022761205 0.87394124
-0.0056157322 0.026629046 0.87333345
0.0025979136 0.029515088 0.87220001
0.055741098 0.028082652 0.87100017
-0.0015394266 0.030018819 0.87800002
0.0064739441 0.03240256 0.87436372
0.015893791 0.034996532 0.87160015
0.025601298 0.035568997 0.87440014
0.034668785 0.037077118 0.87328583
0.045089457 0.034157429 0.87176937
0.052113667 0.032575838 0.87425005
-0.18418415 -0.11082119 0.88400006
-0.17512907 -0.1123148 0.88737506
-0.16463362 -0.11213834 0.88772732
-0.15471615 -0.11195721 0.88685715
-0.14468713 -0.11201813 0.88733339
-0.13615379 -0.11164876 0.88749999
-0.21229008 -0.10201093 0.88057148
-0.20415558 -0.10342349 0.8819524
-0.19432841 -0.10474978 0.88273543
-0.18460147 -0.10507578 0.88276917
-0.1751924 -0.10543007 0.88425004
-0.16504304 -0.1053827 0.88385701
-0.15499467 -0.10539989 0.88400012
-0.14505589 -0.10521638 0.88484079
-0.13516013 -0.10542611 0.88510811
-0.12607567 -0.10432414 0.88633341
-0.11489023 -0.10206239 0.88700002
-0.10568109 -0.10156684 0.88676482
-0.095250651 -0.10228138 0.88520008
-0.084637783 -0.10187188 0.88033342
-0.03012139 -0.10349313 0.88100004
-0.027772799 -0.10337654 0.88000005
-0.22401915 -0.094815142 0.88166672
-0.2155478 -0.098593444 0.88
-0.20366719 -0.099519201 0.88000005
-0.19518107 -0.099519201 0.88000005
-0.18360907 -0.099519201 0.88000005
-0.17379971 -0.098143369 0.88062507
-0.16467446 -0.097027943 0.88103437
-0.15556924 -0.09684296 0.88059247
-0.14495082 -0.096843854 0.88104767
-0.13555889 -0.097712159 0.88108331
-0.12570313 -0.098226987 0.88040006
-0.11567055 -0.098529272 0.88080007
-0.10488492 -0.09747044 0.88100004
-0.095231347 -0.098317854 0.88054556
-0.08651448 -0.098857939 0.88000005
-0.23066853 -0.087175734 0.88000005
-0.22938597 -0.088048019 0.88100004
-0.23221147 -0.078689605 0.88000005
-0.01169035 -0.067804031 0.88900006
-0.0031173294 -0.063379973 0.88888884
0.0046608951 -0.062974535 0.88683343
0.011249825 -0.061680079 0.88500005
-0.22603974 -0.050145332 0.88000005
-0.00077935663 -0.058451749 0.88900006
0.0051991586 -0.057322729 0.88796008
0.014800427 -0.055397149 0.8862564
0.023564626 -0.052672639 0.88620007
-0.22333959 -0.047059465 0.88000005
-0.21410267 -0.041214902 0.88040006
-0.20906746 -0.040887732 0.88000005
0.019483916 -0.048320115 0.88900006
0.025268057 -0.045369554 0.88815141
0.031543594 -0.044313494 0.88685721
-0.2127247 -0.036598098 0.8860001
-0.20538981 -0.035507217 0.88482136
-0.19684267 -0.032048494 0.88250005
0.016095411 -0.032631326 0.889
0.025306169 -0.034520913 0.889
0.032155577 -0.035343055 0.88872725
-0.20029466 -0.028836196 0.88900006
-0.19380045 -0.025523381 0.88454169
-0.18562299 -0.023162609 0.88359094
-0.17638096 -0.021612901 0.88050008
-0.04208526 -0.021821987 0.88900006
-0.034500498 -0.022811742 0.8889091
-0.024768181 -0.02352318 0.88844001
-0.01578337 -0.023165273 0.88857901
-0.0046761404 -0.021821985 0.889
0.0058656833 -0.02342172 0.88900006
0.014807775 -0.024939407 0.88900006
0.024029704 -0.025828216 0.88861531
0.03039491 -0.028836196 0.88900006
-0.18226734 -0.01908328 0.88850009
-0.17402728 -0.017398618 0.88444448
-0.16502319 -0.014567014 0.883515
-0.15505694 -0.012870174 0.88403833
-0.14521037 -0.013046494 0.88282758
-0.13569641 -0.012741259 0.88382763
-0.12691113 -0.012171153 0.88633347
-0.043097727 -0.01582521 0.88766658
-0.034992136 -0.014774458 0.88699996
-0.024872418 -0.014768826 0.88657123
-0.014776285 -0.014782151 0.88728559
-0.0046699201 -0.014791118 0.88780946
0.0046688761 -0.014788242 0.88766634
0.013731208 -0.015584813 0.88740528
0.02104263 -0.019483916 0.88900006
-0.15041584 -0.008572923 0.88900006
-0.14393228 -0.0074800574 0.8874616
-0.13610813 -0.0079417229 0.88819999
-0.12844832 -0.0081736017 0.88800001
-0.032659337 -0.0085536363 0.88700002
-0.024857884 -0.0085439933 0.8860001
-0.014430811 -0.0080688391 0.88500011
-0.0041935644 -0.0073037427 0.88633341
0.0042768181 -0.0071928315 0.88700002
0.01008605 -0.0085343495 0.88500005
-0.026147356 0.015911955 0.88435996
-0.019286666 0.022372533 0.88000005
-0.1726253 -0.11482317 0.89100003
-0.16729628 -0.1141374 0.89175004
-0.12473677 -0.1110899 0.89490002
-0.11712442 -0.11083696 0.89666671
-0.12351152 -0.10786828 0.89233333
-0.11583357 -0.1072211 0.89344436
-0.10506262 -0.10623789 0.89300001
-0.099200971 -0.10623096 0.89100003
-0.023393244 -0.072954588 0.89630771
-0.018033113 -0.073197126 0.89427274
-0.022892788 -0.066402927 0.8969999
-0.015292475 -0.064611584 0.89438665
-0.0070343725 -0.062913105 0.89149994
0.00156222 -0.066394351 0.89100003
-0.032205228 -0.051057067 0.89600009
-0.024711393 -0.053122051 0.89770001
-0.014944287 -0.05505278 0.8970952
-0.0048207385 -0.054790299 0.89471447
0.0039127697 -0.052535076 0.89288229
0.011982718 -0.051321384 0.8915
-0.041743983 -0.043689977 0.89647055
-0.034507401 -0.045167483 0.89621633
-0.025131956 -0.045263 0.89584208
-0.014753443 -0.044965982 0.89582974
-0.0047129607 -0.04477312 0.89600003
0.0045523555 -0.04498852 0.89560002
0.014622537 -0.045208912 0.89220035
0.021089969 -0.04296105 0.89100003
-0.21142833 -0.031097995 0.89433336
-0.20674768 -0.031162117 0.89185715
-0.043693513 -0.035464238 0.89400023
-0.035163373 -0.034959029 0.89391369
-0.025075596 -0.035028055 0.89385045
-0.015071037 -0.034743 0.89415932
-0.0047055078 -0.034514613 0.8947224
0.0048617162 -0.034759562 0.8935793
0.013703615 -0.037328307 0.89134634
0.023433298 -0.037493281 0.89099991
-0.20471145 -0.02771187 0.89466667
-0.042748805 -0.026310259 0.89309996
-0.035818893 -0.027372384 0.89204997
-0.025350569 -0.028190972 0.89099985
-0.014028421 -0.026460085 0.89113051
-0.0046877558 -0.02656585 0.89125007
0.0033543333 -0.026701309 0.89117634
-0.18469907 -0.017462324 0.89445454
-0.17589988 -0.014102059 0.89375001
-0.15856533 -0.01015443 0.89100003
-0.1212956 -0.010173424 0.89266664
-0.027645683 -0.070299022 0.90100002
-0.026689883 -0.064242966 0.90231586
-0.024758527 -0.058077559 0.90133333
-0.04028371 -0.04976223 0.90100002
-0.038703956 -0.04976223 0.90100002
