# .PCD v0.7 - Point Cloud Data file format
VERSION 0.7
FIELDS x y z
SIZE 4 4 4
TYPE F F F
COUNT 1 1 1
WIDTH 698
HEIGHT 1
VIEWPOINT 0 0 0 1 0 0 0
POINTS 698
DATA ascii
-0.058065139 -0.061563041 0.79800004
-0.060134951 -0.065794706 0.80700004
-0.058792774 -0.066585466 0.80800003
0.076824926 -0.10698051 0.81900007
-0.06083044 -0.082304679 0.81633335
-0.0592051 -0.082035832 0.81366676
-0.060773663 -0.075064339 0.81557149
-0.057292093 -0.075384915 0.81279993
-0.037335478 -0.071081012 0.81900007
-0.063881539 -0.067339547 0.81716681
-0.058254793 -0.068717517 0.81366676
-0.040925428 -0.068209052 0.81900007
-0.036617491 -0.067491062 0.81900012
0.046320789 -0.12589827 0.82820004
0.053053237 -0.12282187 0.82900006
0.047239184 -0.11918809 0.82900006
0.051935155 -0.11410081 0.82900017
0.065177687 -0.11161939 0.8276667
0.072416179 -0.11067479 0.82333326
0.048692696 -0.10174593 0.82900006
0.054668855 -0.10501082 0.8289547
0.065255694 -0.10529987 0.82749993
0.073760256 -0.10475161 0.82205856
-0.070495397 -0.09302485 0.82900006
0.046414007 -0.094043367 0.82726681
0.054556556 -0.095123492 0.82691491
0.067301258 -0.098144144 0.82775003
0.072039381 -0.098315179 0.82340002
-0.070495397 -0.087937556 0.82900006
-0.066041201 -0.083873272 0.82596564
0.039875183 -0.084100388 0.82700008
0.04531166 -0.084796146 0.82395655
0.054964464 -0.084603511 0.82485723
0.060320806 -0.082123511 0.82900006
-0.071567491 -0.072902992 0.82715392
-0.066061109 -0.075118251 0.82366663
-0.0535625 -0.072942607 0.82460004
-0.045798745 -0.072629862 0.82366657
-0.036517259 -0.072327621 0.82233334
0.039971616 -0.078489721 0.82900006
0.045859937 -0.076272875 0.82605559
0.053366415 -0.076711304 0.82738096
-0.072472647 -0.0670809 0.8278572
-0.068073884 -0.067550115 0.82209092
-0.05376669 -0.065521568 0.8257879
-0.045273237 -0.064754285 0.82478267
-0.034786131 -0.06339632 0.82237488
-0.025979416 -0.063927762 0.82511437
-0.019045584 -0.060511917 0.82500005
-0.042671531 -0.057559963 0.82850003
-0.034937013 -0.056059431 0.82657909
-0.025494706 -0.056166705 0.8260771
-0.019013321 -0.057619967 0.8278001
0.036040641 -0.13018763 0.83900005
0.041625008 -0.13071713 0.83300006
0.036958221 -0.12481148 0.83625007
0.043722134 -0.12411118 0.83199996
0.052517306 -0.12205101 0.83200002
-0.052698448 -0.1133049 0.83829409
-0.04661024 -0.11588285 0.83616662
0.037156746 -0.11716245 0.83724999
0.044678438 -0.11474349 0.83321738
0.055461872 -0.11527285 0.83203208
0.061549138 -0.11445571 0.83157146
-0.072231188 -0.10259387 0.83788896
-0.065036111 -0.10387326 0.83666664
-0.055273343 -0.10660205 0.83643723
-0.048460204 -0.10789786 0.83500004
0.04639671 -0.1058147 0.83290923
0.052695557 -0.10806232 0.83100003
0.061194841 -0.10126289 0.83100003
-0.071566686 -0.097856164 0.83300006
-0.06661997 -0.095160671 0.83314294
0.044803366 -0.0987131 0.83100003
0.063488513 -0.09519209 0.83294266
-0.0657866 -0.089114264 0.83149999
-0.032657236 -0.081054673 0.83900011
-0.02868541 -0.082378611 0.83900005
0.06240759 -0.087526001 0.83390909
-0.08306928 -0.072673328 0.83733326
-0.077346474 -0.07228826 0.8344546
-0.051486634 -0.078700997 0.83900005
-0.045007382 -0.077679388 0.83855563
-0.033754047 -0.076001115 0.83700001
-0.027336169 -0.073831879 0.83476472
0.036089726 -0.073989123 0.83630782
0.042798318 -0.072455183 0.83275014
0.055229373 -0.0734405 0.83261919
-0.083444357 -0.067522235 0.83822221
-0.076886013 -0.065742239 0.83587998
-0.055727415 -0.061414354 0.83199996
-0.026954869 -0.069208451 0.83100003
-0.00220657 -0.061048437 0.83900005
0.035442043 -0.066800915 0.83793759
0.044025686 -0.0671359 0.8365171
0.052861121 -0.069193169 0.83585709
-0.061878406 -0.054131541 0.83754557
-0.054903172 -0.054895602 0.8350001
-0.045379326 -0.053861897 0.83305407
-0.035868499 -0.051116917 0.83190918
-0.024906475 -0.051169399 0.83214295
-0.014916086 -0.05445024 0.83377272
-0.0051294821 -0.054991346 0.83638763
0.0018139402 -0.055432159 0.83859998
-0.054333556 -0.048940107 0.8387779
-0.044342365 -0.048052315 0.83723521
-0.03405185 -0.04700971 0.83683342
-0.02506776 -0.045553755 0.83635134
-0.015770957 -0.045885514 0.83784223
-0.0072862953 -0.048199523 0.83881831
-0.060145468 -0.13291641 0.84700006
-0.056623459 -0.13266012 0.84616667
-0.042702958 -0.13271892 0.84860009
-0.036685403 -0.1327372 0.84713346
0.029027309 -0.13099504 0.84900004
0.032599069 -0.1318991 0.84525001
-0.080936491 -0.12252206 0.847
-0.074778855 -0.12303115 0.84724027
-0.064431921 -0.12405699 0.8453871
-0.055509515 -0.12431327 0.84608132
-0.044947121 -0.12498568 0.84330761
-0.037910517 -0.12596631 0.8435334
0.028106809 -0.12745067 0.84820002
0.032139078 -0.12554163 0.84372729
-0.074341454 -0.11501843 0.8435716
-0.064979166 -0.11519257 0.84227788
-0.05700735 -0.11605248 0.84187996
0.034405366 -0.11806098 0.84700006
-0.074712165 -0.10629932 0.84230429
-0.066059992 -0.10882203 0.84099996
-0.040935948 -0.10047915 0.84900004
-0.034535058 -0.10092572 0.8490001
-0.062520362 -0.090059087 0.84900004
-0.053030666 -0.090989456 0.84900004
-0.044674799 -0.094273835 0.84712142
-0.034843199 -0.094901346 0.84566677
-0.029027307 -0.097501993 0.84900004
-0.060783684 -0.088074319 0.84900004
-0.054424781 -0.084672362 0.84531248
-0.045074824 -0.084977143 0.84283668
-0.035178136 -0.085780211 0.84182042
-0.028753789 -0.086998641 0.84100002
-0.11089921 -0.070707552 0.84900004
-0.10233988 -0.071079694 0.84900004
-0.096649237 -0.072301164 0.84863639
-0.082919873 -0.076417804 0.84300005
-0.043499321 -0.078888603 0.84100002
-0.039075661 -0.078888603 0.84100002
-0.13025075 -0.06028749 0.84900004
-0.12503468 -0.062146444 0.84823811
-0.11449663 -0.063719481 0.84900045
-0.10485665 -0.064697839 0.84826553
-0.095958985 -0.064010493 0.84446174
-0.085628122 -0.062585548 0.84228003
-0.075939499 -0.061193962 0.84100002
0.0069918069 -0.062094986 0.84433335
0.015847227 -0.062803805 0.84384227
0.025002846 -0.064622872 0.84329426
0.033662595 -0.062519044 0.84199989
0.045130927 -0.062672868 0.84395236
0.052275814 -0.067081653 0.84460002
-0.13025075 -0.057310328 0.84900004
-0.12492568 -0.055026218 0.84822255
-0.11536495 -0.055077471 0.84900033
-0.10484774 -0.055024989 0.84819078
-0.094342217 -0.055022486 0.84547633
-0.084370866 -0.055526342 0.84510267
-0.076092996 -0.055406265 0.84271443
-0.065347388 -0.051871054 0.84224999
0.0066482262 -0.055253986 0.84235305
0.01524626 -0.05567148 0.84382588
0.02474854 -0.055448607 0.84495455
0.033793923 -0.057403464 0.84604019
0.041680239 -0.058798909 0.84900004
-0.12493092 -0.04740293 0.84891319
-0.11527739 -0.046977825 0.84900045
-0.10510139 -0.047712903 0.84892625
-0.094580308 -0.047870025 0.84844023
-0.083901726 -0.047821179 0.84793341
-0.07563483 -0.046427596 0.8482002
-0.064247966 -0.046498008 0.84568983
-0.055337425 -0.045113795 0.84466672
-0.045287836 -0.043511946 0.84506458
-0.035802029 -0.04286119 0.84436375
-0.0039759539 -0.045407023 0.84276927
0.0047838637 -0.046789374 0.84475762
0.013809604 -0.048995323 0.84680003
0.020816449 -0.049808692 0.84800005
-0.05187105 -0.14132699 0.85750002
-0.048891701 -0.14065766 0.85800004
-0.073122039 -0.13287447 0.85549998
-0.065337457 -0.13467231 0.85664523
-0.05358211 -0.13560115 0.85526931
-0.046481516 -0.13580777 0.85317856
-0.031870663 -0.13299988 0.85272729
-0.024403945 -0.13456191 0.85535032
-0.018785713 -0.13450371 0.85714287
0.025777463 -0.13398066 0.85423803
0.031333819 -0.13503385 0.85100001
-0.081318721 -0.12682736 0.85100001
-0.075731777 -0.12797801 0.85135287
-0.066889226 -0.12873347 0.85249996
-0.055580229 -0.12794644 0.85100001
-0.049984902 -0.1290655 0.85100001
-0.032713745 -0.12693468 0.85382342
-0.025938813 -0.12702978 0.8562963
0.026095776 -0.12556835 0.85470837
0.031157026 -0.12089438 0.85299999
-0.030767493 -0.11031272 0.85600007
-0.028582841 -0.11057046 0.85800004
0.02854865 -0.11945723 0.85700005
0.032134656 -0.11808217 0.85250002
-0.092518143 -0.10154431 0.85799992
-0.084797814 -0.10459801 0.85643762
-0.079826638 -0.10295398 0.85100001
-0.06198084 -0.10194031 0.85771424
-0.054411374 -0.10350548 0.85580015
-0.045181978 -0.10469873 0.8547942
-0.035327151 -0.10583279 0.85387498
-0.026728423 -0.10382552 0.85199994
-0.11207482 -0.091013782 0.85800004
-0.10104284 -0.092016689 0.85799998
-0.094485886 -0.094535761 0.85780644
-0.085851215 -0.096471034 0.8568573
-0.078978896 -0.091013782 0.85800004
-0.062551215 -0.095479526 0.85549992
-0.055875096 -0.095899776 0.8537941
-0.047829669 -0.098394834 0.85099995
-0.025945731 -0.09806326 0.85099995
-0.11334743 -0.084338963 0.85623533
-0.10557874 -0.087249257 0.85807502
-0.09491875 -0.084871262 0.85531861
-0.085781276 -0.083665885 0.8588044
-0.076927505 -0.085611753 0.85799986
-0.058937423 -0.088779159 0.85100001
-0.14310223 -0.072021231 0.85799992
-0.13448368 -0.074058928 0.85699999
-0.12570114 -0.073103964 0.85714287
-0.11497218 -0.075011544 0.85372227
-0.10516212 -0.074984141 0.85140532
-0.095550597 -0.07708855 0.85299999
-0.083191112 -0.07837715 0.85799998
-0.077173665 -0.07837715 0.85799998
-0.21173868 -0.06205485 0.85800004
-0.20530255 -0.064436495 0.85899991
-0.19030154 -0.064687483 0.85799998
-0.18587205 -0.062765233 0.85799986
-0.16071579 -0.061428029 0.85800004
-0.15444672 -0.064904757 0.85735136
-0.14493044 -0.065334208 0.8565715
-0.13471705 -0.065181062 0.85312206
-0.12466039 -0.067551881 0.85271996
-0.11717526 -0.068082899 0.85133326
-0.091763332 -0.06042951 0.85100001
0.047387339 -0.060926579 0.85800004
-0.21190962 -0.055182662 0.85799986
-0.20534514 -0.054909132 0.85800028
-0.19463116 -0.054101914 0.85800004
-0.18503629 -0.05490914 0.8580001
-0.17554314 -0.053887885 0.8576923
-0.16468304 -0.054247044 0.85713518
-0.15498309 -0.054565273 0.85565227
-0.14471479 -0.054823816 0.8541702
-0.13478482 -0.054906122 0.85108811
-0.11563671 -0.055207208 0.85100001
-0.092509374 -0.058937423 0.85100001
0.027769294 -0.051030766 0.85600007
0.035672735 -0.054255579 0.8536666
0.042924888 -0.057355043 0.85525
-0.21136259 -0.048891701 0.85800004
-0.20476282 -0.046174154 0.85799986
-0.19481461 -0.045130797 0.8580001
-0.18503632 -0.045130797 0.85799986
-0.17509548 -0.045088425 0.85719043
-0.1648601 -0.044962388 0.85477805
-0.15515642 -0.044970874 0.85500008
-0.14499779 -0.044785939 0.85337842
-0.13510798 -0.045656305 0.8520627
-0.12496517 -0.04295766 0.85114276
-0.11520978 -0.041961711 0.85123068
-0.10512157 -0.04271318 0.85209084
-0.094762988 -0.042958412 0.85224992
-0.085597083 -0.044164971 0.85177767
-0.075438149 -0.042261153 0.85099989
-0.066173688 -0.042813301 0.85152936
-0.055241834 -0.041056488 0.85149997
-0.049984902 -0.041032381 0.85100001
0.017179159 -0.048549801 0.852
0.022629982 -0.049487542 0.85100001
-0.19274613 -0.039301407 0.85799992
-0.18436769 -0.038194034 0.85799986
-0.1752838 -0.036382291 0.85774356
-0.16493355 -0.036665488 0.85687512
-0.15506595 -0.036454082 0.85718936
-0.14499035 -0.035809044 0.85672742
-0.13487419 -0.035957962 0.8564738
-0.12564521 -0.037569221 0.85584629
-0.11455972 -0.03748671 0.85650009
-0.10544997 -0.03782041 0.85714287
-0.094890513 -0.038671631 0.85705876
-0.084736526 -0.037200172 0.85641378
-0.075193182 -0.038042683 0.85259992
-0.066254809 -0.038930431 0.85400003
-0.055018965 -0.038965441 0.8532728
-0.046353653 -0.039224207 0.85133326
-0.037402764 -0.039644841 0.85325003
-0.061884422 -0.14238839 0.86300004
-0.05650619 -0.14294599 0.86354548
-0.013859515 -0.14041276 0.86266667
-0.0052187382 -0.14173946 0.86706668
0.0055132401 -0.14139435 0.86620009
0.012360415 -0.14102702 0.8633334
-0.070869729 -0.13796979 0.86000001
-0.067139074 -0.13880482 0.8605001
-0.059560735 -0.13947767 0.86000001
-0.014483119 -0.13489875 0.86139393
-0.0052631777 -0.13471755 0.8642751
0.0054073017 -0.13477407 0.8637805
0.015105888 -0.13498743 0.86164981
0.021114079 -0.13422687 0.86016661
-0.033969484 -0.12359517 0.86415386
-0.024684137 -0.12415688 0.86293751
-0.015448445 -0.12703039 0.8656401
-0.0058300411 -0.12804157 0.86766672
0.0060320855 -0.12870984 0.86694139
0.015345554 -0.12554555 0.86486495
0.022695871 -0.12327408 0.86178267
-0.093704268 -0.11046438 0.86900002
-0.084286369 -0.11235265 0.8636924
-0.044384036 -0.11313357 0.86335307
-0.034490742 -0.11413416 0.86675006
-0.029406467 -0.11610792 0.86750001
0.025698313 -0.11868868 0.86233336
-0.12431435 -0.10180448 0.86877781
-0.11400036 -0.10225203 0.8685714
-0.10443187 -0.1036741 0.86657691
-0.095798053 -0.10528049 0.86250019
-0.086987831 -0.10886008 0.86033338
-0.045989931 -0.10932034 0.86000001
-0.14169914 -0.090656973 0.86900002
-0.13400397 -0.094211318 0.8681429
-0.12517028 -0.094810292 0.8666597
-0.11496954 -0.095595695 0.86227292
-0.10543259 -0.095510714 0.86131448
-0.096654251 -0.096352682 0.86000001
-0.087204956 -0.092231177 0.86000007
-0.077655129 -0.09122593 0.86000001
-0.21438603 -0.081746712 0.86660004
-0.20409949 -0.084639557 0.86796159
-0.19528811 -0.084500253 0.86739397
-0.18487953 -0.084737822 0.86824322
-0.17601101 -0.083591387 0.86839998
-0.16074473 -0.081515096 0.86900002
-0.15455826 -0.083575815 0.86809087
-0.14439909 -0.084308736 0.86634386
-0.1348362 -0.084844321 0.86405563
-0.12499747 -0.084762231 0.86386496
-0.11812421 -0.086603172 0.86066675
-0.075142018 -0.08368659 0.86000007
0.066509031 -0.084225364 0.86836374
-0.22161007 -0.075425498 0.8677693
-0.21499179 -0.075124793 0.86466694
-0.20514624 -0.075036123 0.86268073
-0.19487768 -0.074772857 0.86258334
-0.1847133 -0.074840561 0.86427903
-0.17509939 -0.075067386 0.86710012
-0.16496636 -0.074699953 0.86757898
-0.15493761 -0.075157113 0.86334163
-0.14542297 -0.076464124 0.8617143
-0.1357888 -0.0784548 0.8605001
-0.12462725 -0.077598721 0.86035287
-0.1198754 -0.079163 0.86000001
-0.091405772 -0.076729879 0.8617143
-0.088840701 -0.077639699 0.86320001
-0.079163 -0.077655129 0.86000001
0.058793824 -0.071184978 0.86199999
0.064774424 -0.075691484 0.86736369
-0.22410636 -0.063844301 0.86820006
-0.21516623 -0.065557674 0.86158633
-0.19606031 -0.064850979 0.86016685
-0.18358992 -0.06630946 0.86033344
-0.17487311 -0.065015972 0.86353672
-0.16513275 -0.065327547 0.86248493
-0.15907994 -0.067854002 0.86000001
0.049062647 -0.061895296 0.86100006
0.054932468 -0.064215668 0.86253577
0.061875138 -0.065571152 0.86828583
-0.22379372 -0.055122301 0.8675186
-0.21638107 -0.055006299 0.86150002
-0.19621116 -0.059183773 0.86000007
-0.17430937 -0.058957588 0.86000001
-0.16680776 -0.058995288 0.86000007
0.028025281 -0.050748479 0.86400002
0.035876304 -0.051974051 0.86507696
0.04608367 -0.0550486 0.86392319
0.053628977 -0.056899685 0.86668438
-0.22201483 -0.045858558 0.86771429
-0.21514648 -0.044487476 0.86344463
-0.2065784 -0.041313794 0.86169231
0.027425641 -0.049518518 0.86900002
0.032758404 -0.049518518 0.86900002
-0.21431331 -0.035371549 0.86680651
-0.20473784 -0.035493128 0.8660304
-0.19538774 -0.0348172 0.86305422
-0.18546875 -0.033342265 0.86116672
-0.1741586 -0.031288233 0.86000007
-0.16527522 -0.03169601 0.86085713
-0.15606418 -0.031288233 0.86000007
-0.14520755 -0.030911267 0.86000001
-0.13442653 -0.031108735 0.86025006
-0.12419873 -0.032874953 0.86261904
-0.11560124 -0.032688063 0.8625294
-0.10465153 -0.034083255 0.86176467
-0.096038021 -0.035537656 0.8625834
-0.0859484 -0.033927001 0.86000001
-0.1936837 -0.029445773 0.86866665
-0.18482696 -0.028632745 0.86607158
-0.17437828 -0.028324481 0.86505896
-0.16488805 -0.027289825 0.86580026
-0.15464354 -0.027391318 0.86438477
-0.14502023 -0.026645044 0.86517251
-0.13562922 -0.028620038 0.86571425
-0.12796089 -0.029365351 0.86780006
-0.055587858 -0.14716481 0.87340003
-0.083898753 -0.12084499 0.87800002
-0.041654561 -0.12254535 0.87757152
-0.036931396 -0.12228756 0.87492877
-0.014514189 -0.12350762 0.87144458
-0.0044692471 -0.12475362 0.87305278
0.005086734 -0.12499995 0.87364292
0.012990739 -0.12302994 0.87166673
-0.12392385 -0.11006901 0.87800002
-0.11314785 -0.11138851 0.87800014
-0.10365328 -0.11317258 0.87743765
-0.094852775 -0.1144321 0.87508005
-0.086156242 -0.11704866 0.87358338
-0.042603616 -0.11816478 0.87442863
-0.035922468 -0.11800458 0.87180012
-0.19143857 -0.10123074 0.87700003
-0.1852463 -0.10182355 0.87680018
-0.17530221 -0.10102488 0.87800014
-0.16266608 -0.10185873 0.87800008
-0.15491454 -0.1016872 0.87740016
-0.14359801 -0.1027256 0.87640011
-0.13505593 -0.10453098 0.87468755
-0.12510201 -0.10603174 0.87325007
-0.1153216 -0.10665157 0.87280965
-0.10594939 -0.10858848 0.87172741
-0.21188524 -0.091770694 0.8738001
-0.20442875 -0.093684316 0.87261546
-0.19513044 -0.094684802 0.87431574
-0.18496178 -0.095083393 0.87315798
-0.17502768 -0.095057219 0.87440461
-0.16497724 -0.095153093 0.8752895
-0.15500933 -0.094822191 0.87373662
-0.14514461 -0.095296644 0.87299985
-0.13739422 -0.096660003 0.87122238
0.071012631 -0.090865619 0.87100005
-0.21382618 -0.086856157 0.8731178
-0.20769286 -0.087505892 0.87100017
-0.19394846 -0.089338474 0.87100011
-0.18516734 -0.089338467 0.87100005
-0.17335255 -0.086550809 0.87175012
-0.1654011 -0.085183285 0.87212801
-0.1557892 -0.088116802 0.87135315
-0.14711578 -0.088829421 0.87100011
0.068976432 -0.085096374 0.87100017
0.07189393 -0.084893517 0.87242872
-0.22608498 -0.073125258 0.87238473
-0.17180476 -0.078648396 0.87100005
-0.16798687 -0.078648396 0.87100005
0.068681188 -0.073957749 0.87136382
0.072053917 -0.074763618 0.87507695
-0.23036432 -0.068879701 0.87300003
-0.22788255 -0.06671495 0.87161553
0.066307403 -0.064826153 0.87381482
0.070813626 -0.066195346 0.87800002
-0.22932751 -0.056759197 0.87100005
0.04530555 -0.051159631 0.87100011
0.056526542 -0.052813172 0.87315798
0.062548362 -0.056491829 0.87570602
-0.22678226 -0.049632482 0.87100005
0.016895119 -0.046843808 0.87600011
0.024857512 -0.04640517 0.87557703
0.034765575 -0.04698474 0.87551868
0.044903174 -0.048276931 0.87555009
0.053387497 -0.048443101 0.87714297
-0.21046574 -0.03137853 0.87300003
-0.20781252 -0.031706404 0.87150007
-0.11227294 -0.03087059 0.87600005
-0.10507639 -0.031731952 0.87671429
-0.097837761 -0.032406509 0.87600005
-0.21145929 -0.029404862 0.87500006
-0.20477515 -0.027736939 0.87454551
-0.19527119 -0.025987802 0.87403858
-0.18468304 -0.024475541 0.87382621
-0.17517485 -0.024035133 0.8743183
-0.1643196 -0.022551259 0.87506676
-0.15523979 -0.022436617 0.87360013
-0.14481132 -0.021890115 0.87400013
-0.13525663 -0.024834367 0.87469566
-0.12495889 -0.027228082 0.8744784
-0.11629389 -0.029168565 0.87562513
-0.16087009 -0.019242832 0.87800002
-0.15413508 -0.019050404 0.87800014
-0.052179199 -0.15163703 0.88400006
-0.047379162 -0.15120192 0.8860001
-0.051533096 -0.14918105 0.884
-0.047462355 -0.14839473 0.88757145
-0.09492553 -0.13193342 0.8880769
-0.088058978 -0.13150658 0.88500005
-0.14385241 -0.12052852 0.88699996
-0.1348287 -0.12080028 0.88900006
-0.12391771 -0.12118995 0.889
-0.11517441 -0.12139788 0.8876667
-0.10473257 -0.12271383 0.88665205
-0.094351329 -0.12532456 0.88612896
-0.087097093 -0.12557706 0.88310003
-0.043202132 -0.1226632 0.88000005
-0.0015464399 -0.12294198 0.88200003
0.0023143999 -0.1226632 0.88000005
-0.18077305 -0.11094655 0.88500005
-0.17471339 -0.11247614 0.88482368
-0.16511445 -0.11250335 0.88385719
-0.1542927 -0.11381304 0.88442862
-0.1452392 -0.11503782 0.88523072
-0.13529845 -0.11444492 0.88499999
-0.12525278 -0.11495727 0.88386494
-0.1155089 -0.11546055 0.8826552
-0.10564875 -0.11714151 0.88125008
-0.09552452 -0.11921401 0.88111115
-0.088718668 -0.11957733 0.88000005
-0.19383338 -0.10349288 0.88230002
-0.18362285 -0.1063294 0.88172227
-0.1748196 -0.10582186 0.88148367
-0.16546297 -0.10568652 0.88077402
-0.15484306 -0.10655696 0.88076907
-0.14622186 -0.10722971 0.88075006
-0.13963546 -0.1087768 0.88000005
-0.2013528 -0.099519201 0.88000005
-0.19826692 -0.099519201 0.88000005
0.075597599 -0.091184728 0.88900006
0.0761564 -0.08470317 0.88641673
0.076441884 -0.07431481 0.88447368
0.081178896 -0.072615176 0.88824999
0.068660535 -0.060945865 0.88000005
0.075375281 -0.064326748 0.88409072
0.081068575 -0.065789156 0.88633341
0.066343263 -0.053581659 0.88279998
0.073618241 -0.05611008 0.88724995
0.080093145 -0.059097853 0.88700002
0.0068145492 -0.044008229 0.88850003
0.014278481 -0.043165769 0.88371992
0.024869682 -0.041844375 0.88015395
0.03526416 -0.042212233 0.88083339
0.044741631 -0.043191619 0.88191301
0.055248957 -0.043957248 0.88277406
0.064216353 -0.04709423 0.88752943
-0.11031973 -0.030087199 0.88000005
-0.10341448 -0.030792918 0.88128573
-0.095976412 -0.032617435 0.88580006
0.015897313 -0.03893771 0.88672733
0.024915567 -0.038379651 0.88626671
0.034992155 -0.038100224 0.88699996
0.044756573 -0.038333673 0.88787502
0.052139748 -0.039687578 0.8876667
-0.20347774 -0.023007728 0.88477778
-0.19560659 -0.021732742 0.8854
-0.18572509 -0.021077072 0.88114291
-0.17512295 -0.020829601 0.88000005
-0.16740827 -0.020829599 0.88000005
-0.14194986 -0.020829599 0.88000005
-0.13424684 -0.021403577 0.88054556
-0.12433112 -0.022679785 0.88352376
-0.11558924 -0.025678303 0.88348001
-0.10542993 -0.028175665 0.88609099
-0.19178838 -0.019061364 0.88750005
-0.18438652 -0.018442303 0.88515389
-0.17459659 -0.01678196 0.88484007
-0.16518845 -0.01617324 0.88412499
-0.1554274 -0.016107433 0.88450009
-0.14483228 -0.018364979 0.88350004
-0.13508652 -0.017930727 0.88560009
-0.12759577 -0.019451041 0.88750005
-0.044635698 -0.14721884 0.89325005
-0.10132864 -0.13117738 0.89600003
-0.099534981 -0.13088457 0.89400005
-0.13642862 -0.1219946 0.8926667
-0.12407639 -0.12381513 0.89200002
-0.11872872 -0.12419649 0.89100003
-0.10228859 -0.12829088 0.89340001
-0.098586865 -0.12910013 0.89250004
-0.010234207 -0.12517221 0.89800006
-0.0049698227 -0.12391186 0.89522225
0.0039355317 -0.12285782 0.89719999
0.017692009 -0.12306646 0.89700007
0.023765381 -0.12196817 0.89760005
0.038575087 -0.12123598 0.89800006
0.041724075 -0.12044874 0.89800006
-0.13591313 -0.11950983 0.89100003
0.042668771 -0.11824445 0.89800006
0.076904066 -0.1024699 0.89600009
0.081086405 -0.10155482 0.89800006
0.077639446 -0.095971078 0.89729995
0.082651258 -0.09404809 0.8962
0.078668937 -0.085140988 0.89099991
0.083093666 -0.084660202 0.89416695
0.078892112 -0.078892112 0.89100003
0.082595147 -0.078092143 0.89300001
0.00236174 -0.065341473 0.89800006
0.076578684 -0.053107984 0.89233327
-0.012677964 -0.043626245 0.89755565
-0.004720849 -0.042482041 0.89740002
0.0035207663 -0.041516814 0.8935833
0.065217204 -0.043475106 0.89362496
0.072344676 -0.047617607 0.89377773
-0.092668258 -0.03189189 0.8945834
-0.088760749 -0.033776212 0.89600003
-0.0015744934 -0.038575087 0.89800006
0.0057346141 -0.038352411 0.89569229
0.014459113 -0.036874481 0.89500004
0.025047941 -0.034980346 0.89473337
0.035060894 -0.034668151 0.89541674
0.0455596 -0.034782216 0.89499992
0.054580051 -0.038172901 0.89430767
0.060347978 -0.039970741 0.89400005
-0.2041003 -0.02111364 0.89200002
-0.11385263 -0.022613805 0.89392853
-0.097450361 -0.028178891 0.89566678
-0.02519615 -0.12422068 0.90493113
-0.01531067 -0.12360919 0.90550005
-0.0050516902 -0.12209262 0.90299994
0.0047570132 -0.122343 0.90424997
0.014027636 -0.12268566 0.90226305
0.025726223 -0.12167913 0.90275002
0.034007829 -0.12180301 0.90219992
-0.023726474 -0.11704441 0.90694749
-0.015150393 -0.11684097 0.90666682
-0.0046481537 -0.11737254 0.90700018
0.004943714 -0.11778795 0.9070437
0.015103186 -0.11726828 0.90680665
0.025573798 -0.11668622 0.90590018
0.035013378 -0.11566948 0.90494609
0.043662727 -0.1135429 0.90439302
0.04442684 -0.10768739 0.90766668
0.074413218 -0.10053701 0.90300006
-0.027860466 -0.091541536 0.90800005
0.027860468 -0.091541536 0.90800005
0.035101227 -0.095470712 0.90900004
0.041538939 -0.094855882 0.90645462
0.075828165 -0.095575079 0.90100002
-0.024607196 -0.084688894 0.90800029
-0.016835373 -0.082465604 0.90784615
-0.0048014596 -0.084731899 0.90900004
0.0047760801 -0.081989378 0.90800011
0.015228773 -0.084173813 0.90900004
0.026161162 -0.084255666 0.90775037
0.034482531 -0.085660137 0.90658349
0.040990304 -0.087799914 0.90500003
-0.022517039 -0.075630181 0.9065001
-0.015107681 -0.074751899 0.90709525
-0.0047682384 -0.074694008 0.90638894
0.0047677034 -0.074689277 0.90633351
0.014974304 -0.074760824 0.9060244
0.025084684 -0.076180018 0.90595841
0.031513013 -0.077122822 0.90320003
-0.014391067 -0.067713439 0.90633339
-0.0051605534 -0.067669407 0.90543753
0.0036415861 -0.068088509 0.90310001
0.011902504 -0.069024347 0.90500003
-0.0078987665 -0.04028371 0.90100002
0.067188025 -0.041893274 0.9016667
-0.023807112 -0.11359496 0.91120005
-0.014979019 -0.11211636 0.91219997
-0.0050005065 -0.11260883 0.91262507
0.0045867651 -0.11290541 0.91205263
0.014892709 -0.11242643 0.91105884
0.024767181 -0.11191744 0.91138464
0.034303967 -0.11088957 0.91000003
-0.023269685 -0.10282495 0.91245455
-0.014794745 -0.10518382 0.9140448
-0.0048044673 -0.10494021 0.91376197
0.0048098522 -0.10500798 0.91438133
0.01441069 -0.10487938 0.91323799
0.024820203 -0.10488501 0.91328549
0.035058137 -0.10497735 0.9120248
0.043012261 -0.10336407 0.91152942
-0.024410259 -0.095297687 0.91171426
-0.01471199 -0.094351411 0.91368443
-0.0047940519 -0.094311945 0.91166663
0.0048027211 -0.094478413 0.91327792
0.015049546 -0.094102062 0.91058528
0.024895011 -0.094924517 0.91038698
0.041483864 -0.099720836 0.91000003
-0.022736348 -0.088153228 0.91000003
-0.014400371 -0.085495867 0.91082752
0.0047896686 -0.08703737 0.91083324
0.023363167 -0.087412439 0.90999997
