# .PCD v0.7 - Point Cloud Data file format
VERSION 0.7
FIELDS x y z
SIZE 4 4 4
TYPE F F F
COUNT 1 1 1
WIDTH 679
HEIGHT 1
VIEWPOINT 0 0 0 1 0 0 0
POINTS 679
DATA ascii
-0.098580293 -0.086409152 0.86785716
-0.10002854 -0.092392772 0.87100005
-0.096498936 -0.094276659 0.87554556
-0.10025823 -0.089543611 0.87300003
-0.098727569 -0.089543611 0.87300003
-0.073464856 -0.082017235 0.87800014
-0.068859823 -0.081658572 0.87600011
-0.09201318 -0.10129182 0.88200003
-0.088846654 -0.10053701 0.88900006
-0.092887782 -0.096070386 0.88082361
-0.086644948 -0.094811969 0.88645834
-0.07774508 -0.095505998 0.88860005
0.028056839 -0.091184728 0.88900006
0.033512335 -0.091184728 0.88900006
-0.085049547 -0.085480168 0.88639992
-0.076871745 -0.084104016 0.88333338
-0.064541072 -0.080093145 0.88700002
-0.057542648 -0.080093145 0.88700002
0.026021857 -0.084032275 0.88837916
0.033971574 -0.085136496 0.88843578
-0.084273912 -0.077234186 0.88570595
-0.07489451 -0.076532945 0.88383335
-0.06526798 -0.074588612 0.88627768
-0.055219345 -0.074205682 0.88399994
-0.046953972 -0.07177338 0.88455558
0.027589226 -0.078091539 0.88900006
0.032265365 -0.078403279 0.88900006
-0.063630462 -0.066105612 0.88809085
-0.054859046 -0.064869396 0.88635528
-0.044964574 -0.065128148 0.88643235
-0.036271822 -0.062894441 0.88789999
-0.028836196 -0.060010463 0.88900006
-0.051437538 -0.058451749 0.88900006
-0.045611091 -0.058626205 0.8882857
-0.036717054 -0.05841317 0.88842863
0.028340882 -0.1267467 0.89800006
0.033064358 -0.12044874 0.89800006
0.035144944 -0.11499425 0.89800024
0.054968365 -0.11210666 0.89581245
0.060347978 -0.11050734 0.89400005
-0.091320619 -0.10312931 0.89800006
-0.083982907 -0.10373581 0.89609516
-0.076913834 -0.10537961 0.89582354
0.029128127 -0.10155482 0.89800006
0.035423256 -0.10502177 0.89793128
0.044828076 -0.10479378 0.89800036
0.054728761 -0.10539916 0.89564723
0.060939144 -0.10723241 0.89499998
-0.082613714 -0.095386744 0.89183331
-0.07900279 -0.095425822 0.89225
0.028358022 -0.09624806 0.89577782
0.035234418 -0.095900901 0.89431447
0.043674149 -0.094638832 0.89675868
0.055107266 -0.099980325 0.89800006
-0.090331733 -0.08090581 0.89600003
-0.077501714 -0.088984288 0.89300007
-0.064944632 -0.081128486 0.89266664
-0.056616008 -0.081781603 0.89700007
0.02317293 -0.085661732 0.89099997
0.039317843 -0.084111348 0.89249992
0.043952912 -0.085044317 0.89591998
-0.091749832 -0.075505778 0.89653331
-0.087484315 -0.077329889 0.89100003
-0.075506784 -0.07206621 0.89159995
-0.051695719 -0.079113469 0.89350003
-0.048522096 -0.077102825 0.89560002
0.017722376 -0.074036092 0.89672732
0.024534393 -0.074189581 0.8946287
0.034715168 -0.074086085 0.89538914
0.041952278 -0.077425711 0.89769226
-0.091902718 -0.069908909 0.89600003
-0.08190015 -0.063718468 0.89733344
-0.075342 -0.065131627 0.89516693
-0.06697534 -0.063061662 0.89209104
-0.057802141 -0.060145471 0.89100003
-0.03671217 -0.066394351 0.89100003
-0.024305407 -0.060374983 0.8944
-0.01809206 -0.060572993 0.89733338
0.018331602 -0.06736581 0.89800012
0.025179271 -0.06845925 0.89760005
-0.083448142 -0.059043501 0.89800006
-0.073733695 -0.057018731 0.89712495
-0.064775594 -0.055111486 0.89517963
-0.055068906 -0.054648258 0.89435321
-0.045201998 -0.053656634 0.89450014
-0.034632012 -0.053875465 0.89322597
-0.025120005 -0.054954588 0.89555573
-0.018417189 -0.056983512 0.89780009
-0.062192485 -0.049596537 0.89800006
-0.055107266 -0.049596544 0.89800006
-0.044873059 -0.049596544 0.89800012
-0.033680949 -0.047091115 0.89742869
-0.027301691 -0.04739948 0.89769232
-0.062801242 -0.13212173 0.90680009
-0.073539384 -0.12289222 0.90800005
-0.064808898 -0.12514877 0.90637517
-0.057790875 -0.12443834 0.90657145
0.019900333 -0.12736213 0.90800005
0.024605945 -0.12453989 0.90374207
0.03282328 -0.1237478 0.90118182
-0.092072219 -0.11356457 0.90800005
-0.085236542 -0.11372866 0.9059357
-0.074311085 -0.11494748 0.90388894
-0.066040829 -0.11652125 0.90511543
0.026580898 -0.11511455 0.90480655
0.032988086 -0.11515762 0.90125
0.044646688 -0.11445726 0.90234399
0.051341984 -0.11453211 0.90100002
-0.091474324 -0.10738406 0.90733337
-0.086546294 -0.10780624 0.90200001
-0.076618038 -0.10979285 0.90100002
0.027141601 -0.10694296 0.9046154
0.031482227 -0.10776174 0.90100002
0.046128798 -0.10663334 0.90100002
0.052131861 -0.10031433 0.90100002
-0.077669337 -0.092223406 0.90220004
-0.062619045 -0.092620589 0.90742862
-0.055096306 -0.092942372 0.90690005
-0.048449859 -0.091339901 0.90600002
0.047419336 -0.097209185 0.90149999
0.050038379 -0.098488241 0.90600002
-0.1160079 -0.081634842 0.90760005
-0.095145948 -0.082609326 0.90316671
-0.071853936 -0.088028431 0.90733337
-0.065158822 -0.08654391 0.90448302
-0.05490043 -0.086162329 0.90268755
-0.048812728 -0.084831022 0.90291667
-0.15044652 -0.070845187 0.90800005
-0.14477922 -0.071435183 0.90740013
-0.13417891 -0.071625598 0.90780008
-0.1247724 -0.075572297 0.90865397
-0.11486328 -0.07440865 0.90579426
-0.10353637 -0.074015506 0.90383339
-0.096629545 -0.074944243 0.90140033
-0.048182476 -0.079777546 0.90100002
0.0079601333 -0.070845187 0.90800005
0.01270363 -0.071205638 0.90583342
0.042653341 -0.075038284 0.90100002
-0.15044652 -0.065273099 0.90800005
-0.14454097 -0.065122463 0.90588897
-0.13505974 -0.065148972 0.90625012
-0.12550083 -0.065133452 0.90605569
-0.11515901 -0.06512437 0.90592837
-0.1048459 -0.065131046 0.90602791
-0.098124579 -0.065820523 0.90463638
-0.081357293 -0.060820501 0.90100002
-0.01362077 -0.061946839 0.90360004
-0.0040606228 -0.062947094 0.90633339
0.0049547139 -0.06493935 0.90658844
0.014382017 -0.064453006 0.90448576
0.025210373 -0.064271629 0.90428007
0.033818614 -0.067991555 0.90472734
-0.16430205 -0.053933214 0.90899998
-0.15363058 -0.055834651 0.90800005
-0.14448942 -0.055985447 0.90724266
-0.13521568 -0.054879539 0.90728605
-0.1253354 -0.05486026 0.90695459
-0.11511388 -0.055901572 0.9068951
-0.10485043 -0.055086099 0.90675008
-0.096089378 -0.054050032 0.90584385
-0.085000217 -0.053648371 0.90519458
-0.076279342 -0.053202786 0.90273094
-0.013809936 -0.054282185 0.90322232
-0.0047663534 -0.05481717 0.90623802
0.0043221307 -0.056035712 0.90668768
0.01466037 -0.057995588 0.90742862
0.022686381 -0.059302993 0.90800005
-0.13420786 -0.047601592 0.90800011
-0.1268893 -0.047837362 0.90777791
-0.11780997 -0.048556812 0.90800005
-0.10480842 -0.048556816 0.90800005
-0.097113624 -0.048556812 0.90800005
-0.083353974 -0.048101943 0.90800005
-0.07391987 -0.047686618 0.90662509
-0.065209225 -0.045604311 0.90406072
-0.055021841 -0.045066096 0.90484864
-0.044427965 -0.044981722 0.9040001
-0.037664816 -0.043984994 0.90133339
-0.022776037 -0.047204755 0.90154552
-0.015913222 -0.046809033 0.90618545
-0.0059385397 -0.04720176 0.90784621
-0.057628561 -0.14006941 0.91300005
-0.07384032 -0.1308219 0.91550004
-0.060429946 -0.13446665 0.91300005
-0.05499192 -0.13393784 0.91345173
-0.048415668 -0.13463232 0.91740006
0.01421778 -0.13171566 0.91800004
-0.093808211 -0.12464055 0.91459268
-0.085073754 -0.12457544 0.91522586
-0.076792292 -0.1263271 0.91455555
-0.054570161 -0.12775761 0.91399997
0.017026585 -0.1252396 0.91429168
-0.094727457 -0.11560807 0.91309518
-0.084654443 -0.11899785 0.91100001
-0.064172 -0.11631175 0.91500002
-0.050701141 -0.11025486 0.91800004
-0.045722548 -0.11149885 0.91500002
0.018509939 -0.11991222 0.91800004
0.02209796 -0.11610679 0.91340005
-0.095347688 -0.10819152 0.91587508
-0.070015863 -0.1005975 0.91800004
-0.06300772 -0.10208614 0.91593337
-0.054560572 -0.10431059 0.91522229
-0.045519207 -0.10475895 0.91450036
-0.13278869 -0.09094014 0.91800004
-0.12796003 -0.09094014 0.91800004
-0.074167319 -0.094444536 0.91504556
-0.066131569 -0.095931232 0.91249996
-0.054375816 -0.097122721 0.91021425
-0.046451055 -0.096373364 0.9125334
0.05312271 -0.099456742 0.91125
-0.22527681 -0.082065433 0.91775012
-0.21890016 -0.08128278 0.91800004
-0.14486039 -0.08128278 0.91800004
-0.13403279 -0.084458724 0.91510355
-0.12508443 -0.084635489 0.91326475
-0.11835402 -0.08576569 0.91425008
-0.1008418 -0.0869326 0.91533333
-0.096374467 -0.086545788 0.91285712
-0.23563954 -0.075401135 0.91854352
-0.22461486 -0.075407892 0.91505593
-0.21350516 -0.07683298 0.91858327
-0.20474267 -0.0747381 0.91900003
-0.19763097 -0.071395479 0.9180001
-0.18348983 -0.070015863 0.91800004
-0.17385314 -0.072865702 0.91646165
-0.16464028 -0.07519833 0.91532356
-0.15490367 -0.075313061 0.91385305
-0.14479764 -0.076542623 0.91329646
-0.13518733 -0.076355435 0.91161537
-0.24384832 -0.062129021 0.9180001
-0.2344804 -0.064711146 0.91653854
-0.22426397 -0.064877503 0.91361898
-0.21485692 -0.064779043 0.91441494
-0.20513803 -0.064180031 0.91444463
-0.19516525 -0.064338095 0.91502523
-0.18478255 -0.064083047 0.91459471
-0.175071 -0.065651529 0.91287881
-0.16506013 -0.065324768 0.91089994
-0.15570301 -0.065476492 0.91079992
0.028981198 -0.061320376 0.91320002
0.032852642 -0.064699531 0.91400003
-0.24304356 -0.057944156 0.91800004
-0.23297186 -0.055675868 0.91729426
-0.224373 -0.054488294 0.91405571
-0.21459775 -0.054450013 0.91338897
-0.20492683 -0.054434069 0.91311115
-0.19527937 -0.054421917 0.91291672
-0.18497674 -0.054639809 0.91138446
-0.17514616 -0.054673068 0.91007882
-0.1552195 -0.054657795 0.90999997
-0.14616859 -0.050968427 0.90999997
-0.12126054 -0.0502593 0.91000003
-0.11385269 -0.050715167 0.90999997
-0.10690074 -0.0502593 0.91000003
-0.092045613 -0.050424989 0.91300005
0.0062426557 -0.051355749 0.91250002
0.01434793 -0.054252449 0.91323078
0.023540253 -0.057169367 0.91340005
-0.22365683 -0.048427831 0.91687512
-0.21481805 -0.045409687 0.91581279
-0.20504443 -0.044851176 0.91363895
-0.19533287 -0.044829659 0.91316676
-0.18532857 -0.044659961 0.91194594
-0.1752537 -0.044661831 0.91152632
-0.16513124 -0.044952493 0.91200012
-0.15505061 -0.04475309 0.91166663
-0.14515182 -0.04458062 0.91157895
-0.13509431 -0.043640904 0.91107136
-0.12435693 -0.044005647 0.91275871
-0.11508831 -0.044588633 0.91314727
-0.10504922 -0.04431263 0.91283798
-0.094492018 -0.044581208 0.91391212
-0.085104115 -0.043968674 0.91313803
-0.075480156 -0.042972405 0.91240907
-0.068033718 -0.04082023 0.91300005
-0.011966499 -0.044276051 0.91000003
-0.0034578654 -0.046588112 0.91100001
0.0026766092 -0.048386592 0.91483337
-0.21004757 -0.039434221 0.91800004
-0.20441413 -0.039165962 0.91800004
-0.19413094 -0.037557468 0.91588891
-0.18520312 -0.037981689 0.91500008
-0.1751228 -0.038557846 0.91633344
-0.16487366 -0.038603667 0.91740018
-0.15441768 -0.037439495 0.91455001
-0.14542803 -0.038010292 0.91525
-0.13517673 -0.038811788 0.91600007
-0.12775095 -0.038565006 0.91650009
-0.11447995 -0.038830634 0.9180001
-0.10518084 -0.039342169 0.9158572
-0.093938716 -0.038080897 0.9158572
-0.085830048 -0.038770579 0.91500008
-0.076560766 -0.038592327 0.91500008
-0.080541119 -0.14074357 0.92800003
-0.092353232 -0.13466102 0.92481828
-0.084931098 -0.13508569 0.92267752
-0.077387534 -0.13503352 0.92437518
-0.044154447 -0.13285473 0.92219061
-0.034456685 -0.13373631 0.92566657
-0.026304677 -0.13803175 0.92800003
0.0065402249 -0.13451928 0.92728579
0.011557575 -0.13376553 0.92372739
-0.093557864 -0.12985186 0.92000002
-0.084686004 -0.12985186 0.92000002
-0.0508116 -0.12985186 0.92000002
-0.045598131 -0.12832068 0.92507702
-0.035774574 -0.12928423 0.92750001
0.0069103246 -0.12752198 0.92750019
0.012741473 -0.1244086 0.92541194
-0.10331729 -0.11306757 0.92675012
-0.099598974 -0.11255611 0.92366672
-0.070549749 -0.11109558 0.92500007
-0.063945822 -0.11278464 0.92333347
-0.056903962 -0.11275018 0.92423087
0.01779419 -0.11679596 0.9273333
0.020535918 -0.11537752 0.92466682
-0.13427846 -0.10322674 0.92629433
-0.12524711 -0.10346822 0.92514294
-0.11474974 -0.10492466 0.92462504
-0.10550721 -0.10550742 0.92296982
-0.098772861 -0.1060378 0.921
-0.073705427 -0.10496417 0.92388904
-0.065559685 -0.10675016 0.92214292
-0.23256682 -0.091919512 0.92650026
-0.22479647 -0.091997728 0.92683357
-0.21492918 -0.092016995 0.92626333
-0.20491758 -0.091424182 0.92757165
-0.19866809 -0.091930769 0.92800009
-0.17003125 -0.090303682 0.92800003
-0.16388902 -0.090929516 0.92700005
-0.15456609 -0.092690557 0.92615801
-0.14449485 -0.093894616 0.9267143
-0.13435338 -0.095703065 0.92343485
-0.12473802 -0.095646732 0.92197216
-0.11518513 -0.095798478 0.92376471
-0.10572407 -0.096008494 0.92340004
-0.097166941 -0.093934454 0.92268765
-0.075007603 -0.099203609 0.92000002
-0.24252354 -0.081875108 0.92316675
-0.23487464 -0.084907994 0.921143
-0.22482017 -0.086334325 0.92126316
-0.21474914 -0.085375182 0.92160016
-0.20513286 -0.08474537 0.92362881
-0.19513497 -0.084171847 0.92502636
-0.18538482 -0.082060389 0.92676497
-0.17480348 -0.083892412 0.92593104
-0.16490075 -0.084838957 0.92282778
-0.15493059 -0.085292436 0.9217577
-0.14541347 -0.086442925 0.92150009
-0.13886701 -0.088077448 0.92171431
-0.12178653 -0.0895252 0.92000002
-0.11452773 -0.0895252 0.92000002
-0.10081667 -0.0895252 0.92000002
-0.096784003 -0.0895252 0.92000002
0.04954613 -0.084470779 0.92650008
0.05153463 -0.085213974 0.92575002
-0.24401228 -0.073957868 0.92177796
-0.19423908 -0.075566821 0.92090011
-0.18515028 -0.074873738 0.92251527
-0.17547052 -0.077093884 0.92180008
-0.16775894 -0.079846799 0.92000002
0.041267328 -0.070397213 0.92300004
-0.24397634 -0.066438191 0.92000002
0.03745969 -0.063067123 0.92381263
0.042083595 -0.06563963 0.9267
-0.2416323 -0.055361323 0.92060006
-0.23736025 -0.053579636 0.92069238
0.015979441 -0.051569697 0.92275
0.025247801 -0.053627409 0.92386961
0.033763975 -0.056289341 0.92612499
-0.24162336 -0.049626347 0.92800003
-0.23529996 -0.046032436 0.9261111
-0.22534889 -0.044264007 0.92247832
-0.21812037 -0.041200265 0.92150003
0.0076045571 -0.047727488 0.92280006
0.014147772 -0.048350293 0.92585725
0.024406401 -0.049626347 0.92800003
-0.2225918 -0.038992964 0.92666674
-0.21434499 -0.037714925 0.92470604
-0.20456077 -0.034964796 0.92412502
-0.19536972 -0.032605667 0.92368186
-0.18477365 -0.032576635 0.92380774
-0.17483994 -0.033252105 0.922355
-0.16484028 -0.033316236 0.92287511
-0.15602036 -0.032986924 0.9253335
-0.14527725 -0.033912864 0.92387515
-0.13518545 -0.036050227 0.9248668
-0.12404056 -0.036803447 0.92335302
-0.11606219 -0.036977217 0.92366672
-0.1757261 -0.028474135 0.92800003
-0.1680399 -0.02881735 0.926
-0.077262498 -0.1438988 0.93262506
-0.036225621 -0.14135022 0.9320001
-0.01229525 -0.14016585 0.93500012
-0.00737715 -0.14016585 0.93500012
-0.040623855 -0.13932075 0.93300003
-0.035432409 -0.13780147 0.93120015
-0.023915164 -0.13369924 0.93065643
-0.014919649 -0.13469967 0.93384641
-0.0049166866 -0.13429926 0.9341113
0.0021964547 -0.13550548 0.93069243
-0.10114454 -0.12088006 0.93800002
-0.050845351 -0.12629655 0.93550003
-0.0440429 -0.12531386 0.93494749
-0.034747295 -0.12621027 0.93466669
-0.02490983 -0.12661336 0.93495649
-0.015359825 -0.12759581 0.93642855
-0.0041976254 -0.12702543 0.93616676
0.0043928791 -0.12426281 0.93325943
0.01143261 -0.1208577 0.93150002
-0.2031114 -0.1110123 0.93800002
-0.14330006 -0.11142822 0.93557149
-0.1349099 -0.11145193 0.93530762
-0.12487302 -0.11243074 0.93529409
-0.11504228 -0.11259364 0.93318754
-0.10560676 -0.11647313 0.93381822
-0.053524446 -0.11497001 0.93450004
-0.047632456 -0.114749 0.93360007
0.00740082 -0.11923543 0.93800002
0.013404562 -0.11699872 0.93412507
-0.22293136 -0.10133244 0.93300003
-0.21384652 -0.10324275 0.93341655
-0.20457035 -0.10468773 0.93394285
-0.19544238 -0.10347825 0.93468004
-0.18513961 -0.10261779 0.93642116
-0.17470177 -0.10244172 0.93668741
-0.16508029 -0.10293588 0.9353683
-0.15494354 -0.10357432 0.93476933
-0.14501984 -0.10432979 0.93169719
-0.13606536 -0.10611926 0.93070608
-0.12422936 -0.10791087 0.93075007
-0.1198491 -0.1084349 0.93000007
-0.23072989 -0.096205398 0.93000007
-0.22530514 -0.09713535 0.93017668
-0.21488667 -0.097290277 0.93083352
-0.2053251 -0.09635219 0.93028593
-0.19481042 -0.095224425 0.93070614
-0.18515325 -0.094624437 0.93230772
-0.17503685 -0.094936647 0.9323715
-0.1651458 -0.096013419 0.93115401
-0.15551715 -0.097577512 0.93085718
-0.14539516 -0.098107763 0.93000019
-0.13941629 -0.097020708 0.93000007
-0.1932261 -0.088867702 0.93000007
-0.18522841 -0.087081805 0.93000019
-0.17724623 -0.088215455 0.93000013
0.051411588 -0.081960618 0.9368
0.046400517 -0.074305639 0.93623519
0.050161112 -0.076475136 0.93800002
0.046359539 -0.065191388 0.93420011
0.036520835 -0.052575007 0.93350005
0.043229934 -0.056501918 0.9354285
-0.2405135 -0.046472099 0.93000007
-0.2340848 -0.042411704 0.9303751
-0.0016428734 -0.045177262 0.93700004
0.0050170575 -0.043856762 0.93552011
0.014841252 -0.043306682 0.93481469
0.024157394 -0.045208041 0.93410718
0.032682698 -0.046868093 0.93605888
-0.23293704 -0.037691724 0.93290907
-0.22504829 -0.034807466 0.93213344
-0.21557277 -0.032681495 0.93209112
-0.20635472 -0.030993566 0.9303751
-0.1997485 -0.030166101 0.93000007
-0.15462165 -0.03059808 0.93075013
-0.14426075 -0.031057527 0.93233329
-0.13494806 -0.031894423 0.93294758
-0.1267474 -0.033025883 0.93411118
-0.11430155 -0.037004098 0.93800002
-0.21476218 -0.028532868 0.93757153
-0.20487466 -0.027040977 0.9347778
-0.19508033 -0.026916813 0.93382347
-0.18487394 -0.026539201 0.93371439
-0.17443955 -0.024836466 0.93419045
-0.16496502 -0.025249816 0.93377763
-0.15548836 -0.026562124 0.93475002
-0.14457372 -0.027927971 0.9370001
-0.13632305 -0.028297925 0.93757153
-0.10357933 -0.13604444 0.94688892
-0.098887995 -0.13597099 0.94000006
-0.18420914 -0.12031592 0.94650006
-0.17460234 -0.12082659 0.94660008
-0.16483644 -0.12119279 0.94745463
-0.14045252 -0.1205066 0.94800007
-0.13331908 -0.12106635 0.94749999
-0.1248282 -0.12083904 0.94800007
-0.11456805 -0.12121057 0.94700003
-0.10537709 -0.1231519 0.94509089
-0.054947875 -0.12378348 0.9451921
-0.044815451 -0.12206394 0.94171423
-0.033639722 -0.12203928 0.94307703
-0.024606278 -0.1227877 0.9445715
-0.014575918 -0.12382893 0.94417399
-0.0052682087 -0.12292269 0.94454551
0.0014910346 -0.12147444 0.94520009
-0.21013699 -0.111249 0.94000006
-0.20317823 -0.112714 0.94000012
-0.19496 -0.11426452 0.94312012
-0.1853773 -0.11503582 0.94400012
-0.17539039 -0.11499807 0.9436999
-0.16509728 -0.11526339 0.94463646
-0.15494733 -0.11518098 0.94517249
-0.14533551 -0.1156418 0.94394743
-0.1351694 -0.11655787 0.94375008
-0.12559126 -0.11733001 0.94250011
-0.11594475 -0.11729752 0.94163632
-0.10806757 -0.1190674 0.94100004
-0.052703932 -0.1183349 0.94099998
-0.046627145 -0.11910869 0.94257146
0.0055025443 -0.11840874 0.9423334
-0.21013699 -0.10960086 0.94000006
-0.2002482 -0.10960086 0.94000006
-0.19384542 -0.10856747 0.94092315
-0.18458568 -0.10785288 0.94063169
-0.17481366 -0.10769306 0.94060028
-0.1646827 -0.10830567 0.94020015
-0.15558378 -0.1089416 0.94000018
0.054459114 -0.083209105 0.94600004
0.053896487 -0.074527591 0.94306087
0.048619933 -0.060156867 0.94000006
0.054182846 -0.064844541 0.94528121
0.046082079 -0.052777283 0.94233346
0.053233981 -0.055539697 0.9468261
-0.033243198 -0.043770209 0.94800001
-0.024389489 -0.043743603 0.94776469
-0.014911224 -0.042250946 0.94499993
-0.0053306688 -0.042337209 0.94283324
0.0037082997 -0.040379267 0.94000006
0.018953534 -0.040379267 0.94000006
0.026164116 -0.040997319 0.94000006
0.035821564 -0.043050975 0.94185728
0.044327691 -0.0451505 0.9461562
0.051249932 -0.048479665 0.94800013
-0.12320855 -0.032218818 0.94235712
-0.11520579 -0.033869982 0.94599998
-0.10912133 -0.038854741 0.94300008
-0.020777 -0.03906076 0.94800007
-0.014324076 -0.037471801 0.94725001
-0.0049443995 -0.036623098 0.94669551
0.005248019 -0.035994668 0.94522232
0.015016314 -0.035306118 0.94499993
0.024612583 -0.036148105 0.94550002
0.034050111 -0.037725843 0.94728571
0.040722921 -0.03906076 0.94800007
-0.22238316 -0.028383253 0.94300008
-0.21467865 -0.024390183 0.94330007
-0.1950323 -0.02231 0.94266677
-0.18536116 -0.021951206 0.94139993
-0.17566822 -0.021030135 0.94075006
-0.16422471 -0.020837115 0.94000006
-0.15444772 -0.022180323 0.94150007
-0.14526983 -0.023111248 0.94304013
-0.13479759 -0.025119884 0.94386369
-0.12549737 -0.027436018 0.94542104
-0.11801336 -0.029087801 0.94800007
-0.12236162 -0.13158065 0.95600003
-0.11462934 -0.13407974 0.95649993
-0.10692975 -0.13384451 0.95288903
-0.16115983 -0.12358502 0.95250005
-0.15573527 -0.1223518 0.9520002
-0.1452378 -0.12270167 0.95212519
-0.13541833 -0.12303178 0.95100009
-0.12497131 -0.12569156 0.95353591
-0.1153133 -0.12701614 0.95316672
-0.10618847 -0.12803163 0.95261562
-0.034182109 -0.12088795 0.95100003
-0.024496257 -0.12135652 0.95250005
-0.015328516 -0.1209043 0.95333338
-0.0083371 -0.12088795 0.95100003
-0.14589925 -0.11922053 0.95100003
-0.022628522 -0.11984733 0.95600003
-0.014249779 -0.11958801 0.95616668
-0.0050296565 -0.11901704 0.95608348
0.0044724611 -0.11844905 0.95600009
0.056726646 -0.091533817 0.95440006
0.05771919 -0.085927889 0.95572239
0.062477779 -0.084609367 0.95875001
0.058897275 -0.077251516 0.95160007
0.063831575 -0.07542783 0.95552003
0.05919341 -0.063361958 0.95100003
0.062837116 -0.065387391 0.95300025
0.057854336 -0.053743843 0.95215404
0.062260926 -0.055683669 0.95421445
-0.042760585 -0.041080892 0.9563334
-0.034379944 -0.04142192 0.95133334
-0.02723453 -0.041407596 0.95100003
0.048836686 -0.042156048 0.95225
0.05476084 -0.045756374 0.95483327
0.06186929 -0.048990469 0.958
-0.11138773 -0.032122165 0.95175004
-0.042599864 -0.038278397 0.95814288
-0.034831684 -0.037222885 0.95576203
-0.024975903 -0.035824984 0.95506907
-0.015357261 -0.033130433 0.95368433
-0.0050781253 -0.031943239 0.95315397
0.0041732257 -0.031446327 0.95233345
0.01417307 -0.03084727 0.95100003
0.025713509 -0.031553693 0.95220006
0.035652205 -0.033291265 0.95381838
0.044399761 -0.03601617 0.95556009
0.051284123 -0.039513998 0.95900005
0.0057061361 -0.028700579 0.95730001
0.015565569 -0.027947959 0.95460016
0.025152106 -0.027662294 0.95627797
0.034278546 -0.028474694 0.95790905
-0.11806946 -0.13577989 0.96200007
-0.043234568 -0.12122634 0.96700007
-0.036395792 -0.12159533 0.96544456
-0.027881799 -0.12080846 0.96366674
-0.044082306 -0.11953087 0.96700007
-0.033909466 -0.11953087 0.96700007
-0.024813309 -0.11737335 0.9654212
-0.015726522 -0.11693609 0.96450007
-0.0050723203 -0.11669361 0.96458334
0.0053006038 -0.11600507 0.96515799
0.015487877 -0.11437725 0.96521759
0.023868712 -0.11279333 0.96546662
0.02769273 -0.10879286 0.96700007
-0.033626888 -0.071209885 0.96700007
-0.027127573 -0.070362143 0.96700007
-0.017519891 -0.071492463 0.96700007
-0.031898979 -0.068032257 0.96600008
-0.025410404 -0.067766994 0.96625012
-0.017802469 -0.068666667 0.96700007
0.057066906 -0.043573257 0.96200007
0.060877047 -0.04565724 0.96450007
0.051566411 -0.037474871 0.96433336
-0.041676424 -0.11552244 0.97307152
-0.035382535 -0.11477553 0.97290897
-0.026081977 -0.11260022 0.97339135
-0.014993253 -0.11227521 0.97342855
-0.0051220707 -0.112629 0.97333342
0.0048249783 -0.11166903 0.97155559
0.013605866 -0.11139803 0.97000003
-0.041699845 -0.10296354 0.97800004
-0.034528647 -0.10433983 0.97747087
-0.025167864 -0.1047418 0.97734404
-0.016727716 -0.10525078 0.97747838
-0.004501245 -0.10824423 0.9780001
0.0064484836 -0.10619968 0.97736841
0.015566444 -0.10544641 0.97560012
0.024483688 -0.10440149 0.97390342
-0.044083957 -0.094481386 0.97744459
-0.034570415 -0.095271938 0.97714299
-0.02521001 -0.09485238 0.97666699
-0.015934013 -0.093866386 0.9772802
-0.0048804707 -0.092926793 0.97800022
0.0061507691 -0.093305305 0.97800016
0.015666671 -0.094077952 0.97800028
0.022577673 -0.095740765 0.9780001
-0.044098042 -0.085111275 0.97466683
-0.035003778 -0.085379094 0.97386676
-0.025630616 -0.085437685 0.97455555
-0.0156167 -0.085089177 0.9750002
-0.005131335 -0.084643811 0.9752335
0.0051382314 -0.084787935 0.97690016
0.014475597 -0.085335106 0.97634786
0.021434499 -0.088310137 0.97800004
-0.044085264 -0.07836622 0.97162503
-0.035666171 -0.076177955 0.97046143
-0.025444603 -0.075184092 0.97126442
-0.014877882 -0.07559026 0.97169971
-0.0053141983 -0.075249143 0.97211748
0.0043673585 -0.07754048 0.97433323
0.012393875 -0.079064377 0.97500002
-0.012770403 -0.068950713 0.97100002
-0.0085036661 -0.068879701 0.97000003
-0.04386051 -0.10348787 0.98100013
-0.013164769 -0.10366429 0.98100001
-0.0053443476 -0.10387693 0.98100036
0.0036929841 -0.10304943 0.98100001
0.01204014 -0.10062117 0.98100007
-0.048676565 -0.096837126 0.98100007
-0.01290015 -0.097396135 0.98100001
-0.0058480678 -0.098213151 0.98100007
0.0033738851 -0.096387267 0.98100001
0.01290015 -0.097181134 0.98100013
0.023650276 -0.095891111 0.98100007
