# .PCD v0.7 - Point Cloud Data file format
VERSION 0.7
FIELDS x y z
SIZE 4 4 4
TYPE F F F
COUNT 1 1 1
WIDTH 472
HEIGHT 1
VIEWPOINT 0 0 0 1 0 0 0
POINTS 472
DATA ascii
-0.07779558 0.088280857 0.80820006
-0.075083286 0.09161254 0.80800003
-0.071081012 0.068927042 0.81900007
-0.068927042 0.069645032 0.81900007
-0.073368281 0.075773977 0.81636018
-0.080340363 0.084606223 0.81100005
-0.074685879 0.084955022 0.81481254
-0.067819811 0.089330755 0.81780005
-0.072044171 0.091500133 0.81188893
-0.067929097 0.091288768 0.81566668
0.07630945 0.01962243 0.82900006
0.07630945 0.022114167 0.82900006
-0.065040044 0.067584567 0.8275001
-0.058140531 0.066134855 0.82900006
-0.070888139 0.079059266 0.8223334
-0.064982228 0.074831374 0.82688463
-0.058725271 0.077092022 0.82699996
-0.070783444 0.082734667 0.82271439
-0.065622874 0.084291704 0.82519048
-0.059233736 0.080904938 0.824
-0.024272269 0.0095618032 0.83900005
0.068076216 0.0059840851 0.8384285
0.072717361 0.0065119779 0.83599997
-0.040453784 0.01985913 0.83900005
-0.033024631 0.017203044 0.8386001
-0.025654845 0.015389882 0.8360284
0.067645811 0.01533167 0.83619994
0.073890351 0.01532571 0.83265716
-0.18093874 0.027214363 0.83900005
-0.17799665 0.027214363 0.83900005
-0.052495405 0.02683915 0.83792305
-0.044478782 0.025302535 0.83605242
-0.03494712 0.024792595 0.83700007
-0.026464375 0.021317463 0.83850002
0.059293348 0.027816635 0.83500004
0.065462455 0.025639676 0.83349991
0.073095649 0.025906978 0.8312068
-0.18301502 0.035719257 0.83840001
-0.17527917 0.035128951 0.83621961
-0.16708818 0.037385784 0.83824992
-0.061048437 0.038982738 0.83900005
-0.054685123 0.034611683 0.8382197
-0.045077816 0.03205841 0.83636004
-0.03565383 0.031135894 0.83792311
0.047809016 0.038982738 0.83900005
0.055940595 0.035318471 0.83694589
0.064994916 0.03491354 0.83518177
0.072754174 0.03442543 0.83544445
-0.19182447 0.047514804 0.83900011
-0.1844928 0.04491001 0.83574998
-0.17459334 0.04435591 0.83240438
-0.16508451 0.044787947 0.8348369
-0.15714647 0.046346102 0.8381201
-0.14931123 0.049280062 0.83900005
-0.061889164 0.045836266 0.83757144
-0.057268184 0.044721149 0.83828586
-0.016917037 0.043395877 0.83900005
-0.0050147725 0.046327606 0.83881843
0.0044033378 0.047443606 0.8372727
0.012122985 0.04885444 0.838
0.045842577 0.045088883 0.83867586
0.054826032 0.043761693 0.83730775
0.065074526 0.043466549 0.83716667
0.072546579 0.041692294 0.83800006
-0.1919094 0.055391647 0.8376087
-0.18481153 0.054783177 0.83322853
-0.17557089 0.054638237 0.83100009
-0.16547525 0.054672629 0.83153075
-0.15527287 0.054930743 0.83550012
-0.1460712 0.056160349 0.8385759
-0.063544862 0.055534918 0.83493757
-0.05635149 0.055131365 0.8366667
-0.00220657 0.050751109 0.83900005
0.0054365611 0.051683176 0.83819991
0.013530999 0.051621638 0.83880007
0.043886226 0.050751109 0.83900005
-0.1915497 0.063058972 0.83715379
-0.18443024 0.065185711 0.83394736
-0.17499959 0.064898685 0.83175015
-0.16529222 0.064730428 0.83204359
-0.15498392 0.065064743 0.83392859
-0.14467619 0.065361932 0.83773506
-0.13880375 0.066512324 0.83900011
-0.064938247 0.064087704 0.83226317
-0.056902226 0.064336553 0.83436012
-0.18225273 0.073253885 0.83442867
-0.17455532 0.075174659 0.83354157
-0.16502097 0.075208008 0.83290493
-0.15539104 0.075111344 0.83280015
-0.14492732 0.075390466 0.83496308
-0.13748653 0.076248176 0.83823806
-0.064837389 0.070665471 0.83100003
-0.058159914 0.072924748 0.8327778
-0.17282899 0.082032911 0.83300012
-0.16417599 0.084328152 0.83306682
-0.15559961 0.084795333 0.83347619
-0.14552094 0.085280336 0.83325535
-0.13528897 0.085043333 0.83789831
-0.12640496 0.0874222 0.83900005
-0.16031165 0.090038046 0.83500004
-0.15359376 0.091694318 0.83485717
-0.14465073 0.093952216 0.83462143
-0.1350107 0.094767407 0.83700001
-0.12599622 0.094830602 0.83889216
-0.13057336 0.10117698 0.83833337
-0.12550703 0.10170282 0.83900011
-0.023420297 -0.0014865343 0.84800005
-0.017848933 -0.0022322854 0.84833336
0.056893412 -0.0030789785 0.84757149
0.062606566 -0.0021193707 0.84286666
-0.043342836 0.0091147032 0.84875
-0.034108009 0.0065375604 0.84570599
-0.024975356 0.0044118133 0.84361541
-0.015978925 0.0028288441 0.84636366
-0.0066986098 0.0017366767 0.84900004
0.049371231 0.0032252567 0.84900004
0.055740949 0.0041719559 0.84591419
0.063434489 0.0044779549 0.84206665
-0.06028749 0.018607249 0.84900004
-0.053504311 0.016996494 0.84700012
-0.045179762 0.015545071 0.8447873
-0.036290709 0.013652988 0.84191656
-0.18112428 0.027770752 0.84100002
-0.17301413 0.025712125 0.8447932
-0.16549738 0.026621671 0.84796298
-0.15515062 0.028350681 0.84900004
-0.063798733 0.025286866 0.8476668
-0.056115281 0.023781398 0.84334481
-0.047185708 0.021381022 0.84100002
-0.030228343 0.026541959 0.84100002
-0.025001716 0.025863336 0.84287101
-0.018503802 0.028867757 0.84433335
-0.19193347 0.037428405 0.84125006
-0.18668619 0.034186352 0.84099978
-0.17202041 0.031158926 0.84125
-0.16418524 0.033450469 0.84265715
-0.15524551 0.035000116 0.84605896
-0.14766355 0.035931438 0.84804779
-0.081127606 0.032004468 0.84900004
-0.07103835 0.035808619 0.84900004
-0.065230213 0.034676548 0.84426826
-0.057507578 0.034283362 0.84100002
-0.044667337 0.037224069 0.84216672
-0.034292854 0.035935145 0.84222227
-0.025094004 0.034687776 0.84190476
-0.016992263 0.035602313 0.84281254
0.045956913 0.038584143 0.84100002
-0.19279785 0.042639166 0.8409999
-0.18874282 0.040550217 0.84100002
-0.16146359 0.040550217 0.84100002
-0.1534743 0.043470103 0.84151846
-0.14621992 0.045459941 0.84543896
-0.071345516 0.044338413 0.84900004
-0.066581711 0.0446698 0.84514284
-0.052503943 0.045193709 0.84242857
-0.045253865 0.045258522 0.84626561
-0.034756586 0.045108028 0.84348959
-0.025114499 0.045055695 0.84252387
-0.015456947 0.045020714 0.84129143
-0.0081100427 0.0442366 0.84100002
0.016241126 0.048718121 0.84200007
0.026194505 0.048858091 0.84299999
0.035052255 0.046723261 0.84181249
0.04190189 0.044236604 0.8409999
0.051794343 0.049573746 0.84400004
0.067517646 0.048226893 0.84633344
0.071713679 0.046333294 0.8433333
-0.14253564 0.053090353 0.84244454
-0.13793129 0.056231473 0.84509093
-0.071384184 0.055280447 0.84900004
-0.067973755 0.053459305 0.84460002
-0.051721241 0.055132687 0.84376931
-0.045285508 0.054936744 0.84685719
-0.034625825 0.055012453 0.84436363
-0.025127022 0.055427246 0.84300011
-0.015720874 0.055053964 0.84331095
-0.0054044691 0.055009596 0.84351271
0.005009566 0.056201629 0.84307408
0.015994443 0.055474184 0.84293538
0.025006015 0.054830868 0.84359455
0.034559838 0.053571295 0.84473348
0.044581596 0.052681301 0.84473342
0.052100301 0.05135601 0.84900004
-0.13452999 0.064515486 0.84409523
-0.12756859 0.067361094 0.84787506
-0.093379773 0.065440267 0.84900004
-0.086280383 0.065898292 0.84900004
-0.072460525 0.064129397 0.84860003
-0.052688934 0.065763444 0.84388894
-0.045210574 0.064480945 0.84544909
-0.034958612 0.064604543 0.84457427
-0.024868082 0.065228678 0.84347373
-0.015147923 0.064578466 0.84490925
-0.0051902775 0.064549692 0.84630626
0.0049810885 0.063977636 0.84805012
0.014211644 0.061886054 0.84822226
0.022501623 0.060810201 0.84850001
-0.13302483 0.07395231 0.84155154
-0.12513256 0.074780084 0.84463274
-0.11682682 0.077830359 0.84822226
-0.10593727 0.078646645 0.84900004
-0.09290681 0.075043842 0.84900016
-0.08559335 0.072196126 0.84900004
-0.075173289 0.070707552 0.84900004
-0.05422106 0.075324781 0.8459143
-0.045134973 0.074730948 0.84402025
-0.034856062 0.074911624 0.84602052
-0.02452446 0.075065561 0.84773505
-0.015991056 0.073759601 0.84841698
-0.006200809 0.071437962 0.84883332
0.0052100294 0.070707552 0.84900004
-0.13123524 0.081100434 0.84100002
-0.12389678 0.083746441 0.84197128
-0.11499906 0.085322857 0.84634686
-0.10544055 0.085811242 0.84871447
-0.095151603 0.085906729 0.84900004
-0.088570513 0.084104769 0.84900004
-0.054685034 0.082790881 0.84836847
-0.045819473 0.082229875 0.84755558
-0.034810822 0.082429327 0.84868419
-0.024521722 0.085062012 0.848773
-0.017940788 0.084246978 0.84877783
0.00372145 0.087081932 0.84900004
-0.12101544 0.095188208 0.84171426
-0.11461406 0.095387116 0.84348989
-0.10455168 0.094832614 0.84722728
-0.094461493 0.094398126 0.84900016
-0.08656092 0.094450399 0.8490001
-0.047634561 0.098990567 0.84900004
-0.033493049 0.093036249 0.84900004
-0.027528504 0.090767436 0.84866673
-0.12091336 0.10248145 0.84100002
-0.1139956 0.10370366 0.84306902
-0.10467479 0.10373543 0.8456831
-0.094679728 0.10397609 0.84840024
-0.086162984 0.10455471 0.8488574
-0.074747972 0.10547654 0.84900004
-0.0413699 -0.00075218 0.85800004
-0.035221837 -0.00074929948 0.85471427
-0.026111517 -0.00223813 0.85100001
-0.013432067 -0.0022392259 0.85124993
-0.0046641584 -0.0023877474 0.85299999
0.0022535117 -0.0025263941 0.85636365
0.0188045 -0.0045130802 0.85800004
0.024746682 -0.0029971173 0.85858816
0.036786314 -0.0019310461 0.85642856
0.045835905 -0.0030543064 0.85392308
0.052426789 -0.0046044379 0.85242099
-0.062430944 0.0089187054 0.85799992
-0.054779481 0.0048371837 0.8585
-0.046362199 0.0027849646 0.85723436
-0.036844138 0.0021420473 0.85299993
-0.0067143897 0.00074604334 0.85100001
0.035408393 0.0013505926 0.85580003
0.045835402 0.0012895768 0.8520909
0.051476989 0.00074604334 0.85100001
-0.16190544 0.017437428 0.85739994
-0.15476906 0.018030696 0.85699993
-0.1479914 0.017488185 0.85799992
-0.081987619 0.0188045 0.85800004
-0.074986979 0.017386053 0.8578822
-0.066511586 0.01357042 0.85773611
-0.056434907 0.013329393 0.85231578
-0.049984902 0.01119065 0.85100001
-0.16350472 0.022735124 0.85320008
-0.15481155 0.02345339 0.85421658
-0.14755136 0.025291085 0.85638463
-0.093055539 0.027582062 0.85699993
-0.084607556 0.025053671 0.85514313
-0.074968524 0.024825107 0.85243183
-0.067604765 0.022284867 0.85142851
-0.14349222 0.034866784 0.85509098
-0.13627879 0.037679579 0.85789984
-0.094085827 0.03482502 0.85694122
-0.085278839 0.035197504 0.85236591
-0.076282926 0.034877524 0.85100001
-0.14131233 0.044727895 0.85288239
-0.13480791 0.045178115 0.85532564
-0.12942348 0.048315436 0.85666674
-0.112827 0.048891701 0.85800004
-0.10003994 0.048891701 0.85800004
-0.095209666 0.044863626 0.85890901
-0.085196026 0.045079794 0.85481602
-0.075902857 0.045730907 0.85107321
0.057084735 0.049104143 0.85299999
0.06490577 0.049238861 0.85100001
0.073543563 0.048777733 0.85600007
-0.133756 0.054268405 0.8538751
-0.12788904 0.055305958 0.85672003
-0.11568648 0.054942816 0.85889649
-0.1048553 0.054623354 0.85627288
-0.094775319 0.054738481 0.85295784
-0.085198931 0.054605108 0.85158551
-0.076698065 0.055135019 0.85099989
0.035729572 0.058384985 0.85199994
0.045378633 0.057282984 0.85410005
0.055542026 0.05600597 0.85870826
0.064720981 0.051944844 0.85733324
0.072125413 0.05184168 0.85700005
-0.1307877 0.061282068 0.85250002
-0.12320271 0.063039154 0.85723525
-0.11653212 0.06334459 0.85828274
-0.1047641 0.065099061 0.85357141
-0.095161974 0.064657085 0.85099989
-0.084405802 0.064391248 0.85099989
-0.076410547 0.064866491 0.85099995
0.0062170271 0.068055719 0.85099995
0.015420969 0.067029744 0.85112494
0.025057912 0.065768726 0.85224396
0.035204876 0.065163277 0.85434705
0.043907639 0.064891897 0.8568967
-0.12011298 0.071620159 0.85100001
-0.11406076 0.073860228 0.85212493
-0.1048104 0.075315677 0.85100013
-0.09618219 0.07546515 0.85099989
-0.084991552 0.075579911 0.85099995
-0.07846237 0.073780142 0.85239995
-0.013428779 0.077174038 0.85099989
-0.004973622 0.076469459 0.85099989
0.0052318792 0.075002417 0.85223073
0.014958052 0.074789971 0.85308337
0.024706846 0.074868523 0.85399997
0.034259297 0.073646873 0.85615999
0.045882981 0.074465826 0.85799998
-0.10220794 0.081915557 0.85100001
-0.094228514 0.084173158 0.85099989
-0.085537732 0.08461161 0.85099989
-0.061336484 0.087242231 0.85471433
-0.055080783 0.087480627 0.8521052
-0.044824161 0.087069929 0.85350013
-0.035267044 0.087197803 0.85265219
-0.013964298 0.084317543 0.85114276
-0.0051203077 0.083467752 0.85141367
0.0051572118 0.083184525 0.8535834
0.014688286 0.081972465 0.85470009
0.024141647 0.0809213 0.85599995
0.03083938 0.080483258 0.85800004
-0.096239589 0.09773168 0.85100001
-0.083889715 0.096397772 0.85156244
-0.074382663 0.099426277 0.85457146
-0.064491704 0.096143149 0.85542107
-0.054827217 0.095123924 0.85524994
-0.045383304 0.094246946 0.85444129
-0.036238126 0.092023097 0.8526842
-0.081981875 0.10353424 0.85099995
-0.076235838 0.10324449 0.85187489
-0.066017382 0.10206132 0.85212499
-0.059283707 0.1013076 0.85600007
-0.052208129 -0.00075656333 0.86299998
-0.045639705 -0.0013206984 0.8605001
0.0072975922 -0.0044663972 0.86091667
0.014503034 -0.003655025 0.86030781
0.032251593 -0.0034345847 0.86000007
-0.13179544 0.0083800564 0.86900002
-0.12874815 0.0099037029 0.86900002
-0.091164857 0.0093958201 0.86900002
-0.084604569 0.0082660904 0.86588895
-0.074607998 0.006632227 0.86205554
-0.065468289 0.00597273 0.86083347
0.0098239267 0.00075568666 0.86200005
0.014358046 0.00075568666 0.86200005
0.02672275 0.0014240962 0.86000007
0.030911267 0.0015078667 0.86000001
-0.14285035 0.017038792 0.86270607
-0.13416462 0.015238509 0.86790919
-0.12590018 0.016653476 0.86827993
-0.11536576 0.018338989 0.86884624
-0.10435185 0.01798738 0.86884624
-0.094612889 0.015630011 0.86672741
-0.085162275 0.014962073 0.86225724
-0.075112373 0.012894931 0.86047608
-0.14256844 0.024353623 0.86172432
-0.1349536 0.025410715 0.86448783
-0.12520699 0.024942309 0.8658604
-0.11496342 0.024865801 0.86645681
-0.10491927 0.025196314 0.86522716
-0.096020423 0.023528414 0.86192858
-0.087908626 0.020657774 0.86000001
-0.14173946 0.030911267 0.86000001
-0.13391562 0.033849131 0.86068976
-0.12503433 0.03491763 0.86588901
-0.11500473 0.034802128 0.86302775
-0.10482719 0.035370059 0.86075014
-0.097445883 0.037508186 0.86000007
-0.12481656 0.04462916 0.86290699
-0.11497085 0.044434067 0.8612684
-0.10500617 0.045032412 0.86023831
-0.12341429 0.054569513 0.86058331
0.064858206 0.057315815 0.86025
0.072348826 0.054736 0.86116672
0.048274178 0.065624103 0.86040008
0.0550985 0.064861745 0.86151236
0.063899122 0.063263677 0.86178958
0.036957067 0.077510022 0.86035287
0.044872995 0.074080952 0.86000013
0.052966442 0.071453892 0.861
0.034721259 0.080764666 0.86100006
-0.064838268 0.09122593 0.86000001
-0.13286233 0.009926497 0.87100005
-0.12440412 0.0097213564 0.87214291
-0.11489525 0.008797545 0.87700009
-0.10457212 0.0088774394 0.8752144
-0.09586069 0.0090845069 0.87166679
-0.13515307 0.01145365 0.87100005
-0.1233618 0.01299483 0.87200022
-0.114636 0.01348743 0.87450004
-0.10537323 0.01365489 0.87292314
-0.097356021 0.011835438 0.87100005
-0.1134056 0.0084861331 0.88000005
-0.014935452 0.0078580407 0.8882727
-0.0043164357 0.0058751497 0.889
0.0046752631 0.0046760417 0.88888884
0.011123545 0.0051720948 0.889
-0.02104263 0.012469707 0.88900006
-0.014494577 0.01459768 0.8885653
-0.0046761394 0.014807779 0.88900006
0.0034421582 0.013378955 0.889
0.010910993 0.010131637 0.88900006
0.068739258 0.016989974 0.88900006
-0.013422254 0.024073459 0.88900006
-0.0050792545 0.024805043 0.889
0.0030764083 0.025800806 0.88900006
-0.011409507 0.034500703 0.88852936
-0.0047690878 0.035174713 0.8887561
0.0039440165 0.035165504 0.889
0.010131637 0.03974719 0.88900006
-0.004286462 0.042669781 0.889
0.0050814045 0.043862201 0.889
0.01352413 0.047173996 0.889
0.02498043 0.046884455 0.88900006
0.03039491 0.047540758 0.88900006
0.019483916 0.051437538 0.88900006
0.024160055 0.050658178 0.88900006
-0.011939824 0.0059141181 0.89099991
-0.0062488797 0.0031244401 0.89100003
0.016552014 0.0056028864 0.89187509
0.02464739 0.0054918025 0.89489681
0.034602474 0.0062902286 0.89700001
0.044701237 0.0059137661 0.89761317
0.053775437 0.0077044964 0.89680004
-0.021107722 0.017200857 0.89175004
-0.01952775 0.017965531 0.89100003
0.0063372771 0.016754124 0.89116657
0.015052102 0.015085905 0.89348984
0.025111446 0.014911559 0.89509547
0.034561705 0.014924374 0.89600003
0.044869188 0.014956756 0.89791828
0.055059094 0.014946082 0.89723808
0.063930817 0.015150719 0.89440554
-0.021160981 0.02272846 0.89400005
-0.015741009 0.025526436 0.89178276
-0.0030128525 0.025553454 0.89099991
0.0064837229 0.024044082 0.89152932
0.014906591 0.025100717 0.89476222
0.025135787 0.025135789 0.89600003
0.034561709 0.025135789 0.89600003
0.044850603 0.025177192 0.89752388
0.055033684 0.02515804 0.89683342
0.063017651 0.024193371 0.89517397
-0.014450535 0.032025509 0.89100003
-0.00078111002 0.030463289 0.89100003
0.00737715 0.034802787 0.89099991
0.014985739 0.035151381 0.8935836
0.025096748 0.035287671 0.89461929
0.034397244 0.03510261 0.89579999
0.044938173 0.034920402 0.89582223
0.054113187 0.034023315 0.89544827
0.061268479 0.030634239 0.89600003
0.015715934 0.043960866 0.89100015
0.024949573 0.043420527 0.89099985
0.034762364 0.043429498 0.89326948
0.042387705 0.041445471 0.89540005
