# .PCD v0.7 - Point Cloud Data file format
VERSION 0.7
FIELDS x y z normal_x normal_y normal_z
SIZE 4 4 4 4 4 4
TYPE F F F F F F
COUNT 1 1 1 1 1 1
WIDTH 206
HEIGHT 1
VIEWPOINT 0 0 0 1 0 0 0
POINTS 206
DATA ascii
-0.121811 -0.077383608 0.76154554 -0.6798366308 0.4413044155 -0.5857239962
-0.02906413 -0.19668981 0.77100003 0.6079330444 -0.4640240967 0.6442818642
-0.02721763 -0.084500298 0.69147509 -0.9068522453 0.1511697769 -0.3934039772
-0.12284285 -0.17524374 0.75267649 -0.8626190424 -0.2751849294 0.4244544506
-0.073772378 -0.14969346 0.81700003 -0.03858884797 -0.4592091739 0.8874896169
-0.092824973 -0.12425365 0.69543761 -0.4107830822 0.501293838 -0.7615522146
-0.012651888 -0.084110193 0.76456249 0.760626018 0.4264061153 -0.4895159602
-0.010879434 -0.13503297 0.73000002 0.7869176865 0.3796598911 -0.4864349365
-0.064311393 -0.060413726 0.74100012 -0.04271977395 0.6696155667 -0.7414782643
-0.083500549 -0.20114933 0.78023082 -0.2825095654 -0.57973212 0.7642636895
-0.032140646 -0.15860449 0.79700011 0.553390801 -0.4496568739 0.7011186481
-0.11873301 -0.11347161 0.7313 -0.7550338507 0.4125037491 -0.5096710324
-0.11175587 -0.15335897 0.79090905 -0.7022711635 -0.4650054276 0.5390595794
-0.064609133 -0.094310179 0.7124908 0.006167122629 0.624183476 -0.7812534571
-0.035655297 -0.12727097 0.69722229 0.5282437205 0.2155350745 -0.8212814331
-0.0059096101 -0.17039375 0.74900001 0.9276205301 -0.06423692405 0.3679589033
-0.02807452 -0.098049469 0.72783333 0.6496537328 0.5027763844 -0.5702332258
-0.097779401 -0.082289182 0.73171425 -0.4830509722 0.5566810369 -0.6758461595
-0.065129891 -0.17705192 0.79664528 0.07668753713 -0.6140806675 0.7855086923
-0.031832058 -0.058495585 0.70733333 -0.8266587853 0.3544748724 -0.4370157719
-0.06366697 -0.1209811 0.69058341 0.02342618816 0.5471752882 -0.8366901278
-0.0093240514 -0.1086055 0.74900001 0.805363059 0.3818893135 -0.4533771873
-0.055719614 -0.20235114 0.7827 0.1811484247 -0.5957801342 0.7824521065
-0.019652236 -0.17077115 0.77300006 0.7595922947 -0.3654181957 0.5380418897
-0.10745323 -0.17673004 0.77537495 -0.7098187804 -0.3587206602 0.6061986685
-0.046589568 -0.079209372 0.7280001 0.1036044136 0.6147564054 -0.7818827629
-0.090471998 -0.170424 0.80000001 -0.42379722 -0.5908216834 0.6865316033
-0.095229857 -0.10426008 0.71249086 -0.4463708699 0.5490478873 -0.7066112757
-0.11605308 -0.13313952 0.71417648 -0.6816080809 0.4247578084 -0.5958114266
-0.047967516 -0.14817193 0.8118 0.3067025244 -0.5077716112 0.8050475717
-0.07486856 -0.076404355 0.72681266 -0.117105253 0.6341703534 -0.7642737031
-0.097163595 -0.14964612 0.80900002 -0.4345066249 -0.5267324448 0.7305867076
-0.042464416 -0.10516042 0.69621432 -0.152460143 -0.2198909521 -0.9635371566
-0.12224269 -0.098186962 0.74833339 -0.7260469794 0.4208515286 -0.5438196063
-0.13316052 -0.16713968 0.73376465 -0.9628008008 0.1406486183 0.2307219505
-0.04136306 -0.17804101 0.78900003 0.4505741298 -0.535590589 0.7142308354
-0.086476438 -0.062601961 0.74258333 -0.298764497 0.7022016644 -0.6462604403
-0.11932573 -0.15910098 0.76900005 -0.8336333632 -0.3123030663 0.4555461109
-0.025875995 -0.1153793 0.71497917 0.7254956961 0.4189170301 -0.5460444093
-0.044458944 -0.062656038 0.74449998 0.4205090106 0.6682251692 -0.6137159467
-0.021361897 -0.087410919 0.74663645 0.7379969358 0.4341613054 -0.5165892839
-0.1071671 -0.19546364 0.76883346 -0.6623607278 -0.3898331821 0.6397721171
-0.10796525 -0.071882151 0.75028574 -0.6251758337 0.506341517 -0.5939472914
-0.075170346 -0.11064213 0.70047069 -0.1336361021 0.6380708814 -0.7582921386
-0.047112677 -0.094640367 0.71567434 0.3578532636 0.6651841402 -0.6553404331
-0.055257376 -0.16495186 0.80431592 0.2538759708 -0.5416389704 0.8013577461
-0.074985981 -0.16599737 0.80592138 -0.1073978245 -0.6085240841 0.7862341404
-0.02085875 -0.13106802 0.71025002 0.7318535447 0.403337568 -0.5492805839
-0.076184377 -0.18844533 0.78883332 -0.1610484421 -0.5902523994 0.7909902334
-0.088999197 -0.090261601 0.72000003 -0.3638860881 0.5817918181 -0.7273961902
-0.094150148 -0.18377391 0.78239208 -0.5028918982 -0.5056245923 0.701030314
-0.11183424 -0.095917642 0.73576194 -0.6955139041 0.4539168179 -0.5569739342
-0.017410686 -0.18398291 0.76369989 0.7141878605 -0.4434019029 0.5415999293
-0.014985202 -0.11507837 0.7354359 0.800109446 0.3812122941 -0.4631436467
-0.10217988 -0.1174955 0.70699996 -0.5812922716 0.4731805623 -0.6619663835
-0.054381788 -0.18696479 0.78791904 0.2359160334 -0.5615280867 0.7931140065
-0.10665018 -0.10378551 0.72246152 -0.6372126341 0.4939145446 -0.5916151404
-0.1285544 -0.11141381 0.75200003 -0.7624020576 0.3953953385 -0.5122553706
-0.055177115 -0.10546944 0.7040987 -0.04319025949 0.5861879587 -0.8090230227
-0.042856406 -0.19749866 0.77709097 0.4520426393 -0.4975804687 0.7403182387
-0.11264285 -0.1174349 0.7173124 -0.6864714622 0.4338630736 -0.5835407376
-0.10624566 -0.16581622 0.78546524 -0.6706684232 -0.5084171295 0.5401072502
-0.10645927 -0.13141899 0.70325011 -0.613986969 0.408569783 -0.6753448844
-0.025470586 -0.16517012 0.78505987 0.6414691806 -0.4629841149 0.6116886735
-0.027710933 -0.068796545 0.69800001 -0.8507276177 0.3152145743 -0.4205975235
-0.12075295 -0.18680012 0.76100004 -0.7809624672 -0.2954713106 0.5502675176
-0.12152694 -0.12632912 0.72577786 -0.7479519844 0.4078796804 -0.5236429572
-0.018787844 -0.09912207 0.73900002 0.8098236322 0.3679759204 -0.4569238424
-0.080688402 -0.099929482 0.708 -0.2094018459 0.6034748554 -0.7693951726
-0.040528301 -0.088920303 0.69000006 -0.7709534168 0.2067604214 -0.6023960114
-0.0095372563 -0.098699518 0.75900006 0.8052592278 0.3728807867 -0.4609961808
-0.11323994 -0.086457446 0.74580944 -0.6718349457 0.4633136392 -0.5779085755
-0.10054139 -0.16100685 0.80200005 -0.5334379077 -0.5467755198 0.6453530192
-0.0773177 -0.12172332 0.69010007 -0.1722041816 0.5883070827 -0.790088892
-0.027761569 -0.18358915 0.77414292 0.6706838608 -0.436801821 0.599489212
-0.022236688 -0.076262698 0.75413632 0.6774027348 0.5256844163 -0.5145692229
-0.098117933 -0.072125994 0.74120009 -0.5002431273 0.5803015828 -0.6426561475
-0.02977971 -0.10210252 0.69325 0.5182546973 -0.3197465837 -0.7932049632
-0.064740002 -0.082802363 0.72102636 0.04753355309 0.620346427 -0.7828862667
-0.084780149 -0.15524942 0.81213731 -0.2496147901 -0.5588693023 0.7907955647
-0.03602358 -0.11572217 0.70346433 0.542927146 0.41353634 -0.7309020162
-0.015449545 -0.12519838 0.72288889 0.7755410075 0.3921656609 -0.4947142601
-0.095859893 -0.19467179 0.77508336 -0.5100659728 -0.4641584456 0.7241474986
-0.11634433 -0.17554238 0.76546818 -0.7763276696 -0.3013878167 0.553606987
-0.074697301 -0.065129481 0.73568183 -0.1475000232 0.680818975 -0.7174463272
-0.085315146 -0.073216468 0.73265231 -0.2996334434 0.6186139584 -0.7263171673
-0.047405779 -0.11639588 0.69774997 0.2071925998 0.2687319517 -0.9406669736
-0.065324061 -0.19491668 0.78408486 0.02733951062 -0.5846409798 0.810831368
-0.0079788724 -0.12133669 0.74312502 0.8178828359 0.3680025935 -0.4423141479
-0.12012525 -0.15719247 0.78300005 -0.7412145138 -0.4606026709 0.4883095622
-0.043029308 -0.1692162 0.79714286 0.4439596236 -0.5246599913 0.7263826728
-0.075031146 -0.088336922 0.71792835 -0.1263000667 0.6164523959 -0.7771967053
-0.12575871 -0.1590282 0.75900006 -0.8745184541 -0.2688467503 0.4036568701
-0.037989911 -0.14985082 0.80250001 0.4623151422 -0.4783840179 0.7466012836
-0.064833678 -0.071689829 0.73052931 0.03065985255 0.6523190737 -0.7573240995
-0.012370292 -0.16905272 0.75860006 0.7579836845 -0.3738170564 0.5345292687
-0.12655304 -0.16671075 0.74309099 -0.9610443711 -0.001930416911 0.2763874531
-0.12252672 -0.086639114 0.75505257 -0.6964170933 0.4289676845 -0.5753172636
-0.055745572 -0.066303208 0.73684996 0.04279419407 0.647773385 -0.7606301904
-0.065052815 -0.1554621 0.81334621 0.07734616101 -0.5284760594 0.8454174399
-0.085752033 -0.11266078 0.70205408 -0.3102628887 0.5970334411 -0.7397891879
-0.054755073 -0.1770826 0.79625016 0.2140257508 -0.5943555236 0.7751996517
-0.064844109 -0.11107367 0.70000005 -0.002815794665 0.6269153953 -0.7790822983
-0.054550406 -0.083755374 0.72184914 0.07756127417 0.6190450788 -0.7815161347
-0.027826698 -0.17412473 0.78078264 0.6407497525 -0.4562524557 0.6174734235
-0.054838166 -0.15548953 0.81330448 0.2376116514 -0.5227051973 0.8187307119
-0.040154252 -0.063627876 0.70466667 -0.789819777 0.4201673567 -0.4468155503
-0.009066646 -0.12546454 0.73400003 0.8034188151 0.374758333 -0.4626817703
-0.036206737 -0.18340105 0.78220534 0.5313275456 -0.4771617949 0.7000054717
-0.034452125 -0.075152129 0.69434541 -0.8024463654 0.2621876299 -0.5360386968
-0.11479405 -0.165912 0.77457577 -0.7756058574 -0.3982320428 0.4897415042
-0.065021746 -0.16543815 0.80584627 0.0788262561 -0.5760861039 0.8135792613
-0.074991629 -0.17651635 0.79655552 -0.1074215472 -0.6327680349 0.7668541074
-0.016280772 -0.085172027 0.75477773 0.7421531677 0.4459670782 -0.5003219843
-0.10949264 -0.18598025 0.76833338 -0.7127792835 -0.3596709967 0.6021481752
-0.046205256 -0.066965401 0.73507696 0.09532909095 0.8973018527 -0.4310008287
-0.021758866 -0.11071423 0.73000002 0.7894928455 0.3814058304 -0.4808644652
-0.11598689 -0.10450871 0.73402953 -0.7236879468 0.4370039701 -0.5341379046
-0.10042217 -0.17175654 0.79000002 -0.5992193222 -0.5435611606 0.5877733231
-0.083024941 -0.18251963 0.79163641 -0.283667922 -0.5932773352 0.7533621788
-0.017822295 -0.17468452 0.76369226 0.7579836845 -0.3738170564 0.5345292687
-0.043616898 -0.15585527 0.8066923 0.3969151378 -0.5048907995 0.7665139437
-0.10293479 -0.096166909 0.72590631 -0.5921362042 0.5091155171 -0.6246407628
-0.055341363 -0.12392335 0.69280028 0.1402885467 0.4391274154 -0.8874042034
-0.10340424 -0.14983214 0.80239999 -0.5178507566 -0.5475545526 0.6572782397
-0.074477606 -0.20175137 0.78100008 -0.1133120134 -0.6242679954 0.7729488015
-0.085332088 -0.16524126 0.80517834 -0.2813352048 -0.5805900097 0.7640456557
-0.026898811 -0.12590462 0.7063334 0.7700124383 0.293939352 -0.5662865639
-0.10222649 -0.16339457 0.792889 -0.6006373763 -0.533053875 0.5958929062
-0.11396147 -0.075918727 0.75525004 -0.6359115839 0.495601356 -0.5916044116
-0.1250336 -0.11212751 0.74411124 -0.7555476427 0.4054571688 -0.5145408511
-0.044360064 -0.18560761 0.78601861 0.3636015058 -0.522946775 0.7709219456
-0.039091442 -0.076260358 0.73100001 0.5781747699 0.6603844762 -0.4791725278
-0.12318774 -0.13404286 0.72271448 -0.8188333511 0.2560922503 -0.5137398839
-0.10144158 -0.067370802 0.74733335 -0.5584441423 0.5746949911 -0.5982187986
-0.10447955 -0.0855418 0.73563051 -0.6124280095 0.4984065294 -0.6136146188
-0.019293329 -0.16186985 0.78040004 0.7273547649 -0.4101307392 0.5502253175
-0.10821251 -0.12179734 0.7116667 -0.6567462683 0.4351364076 -0.6159063578
-0.1037514 -0.17430688 0.7824893 -0.6468109488 -0.4790362418 0.5934306383
-0.012928079 -0.13373172 0.72200006 0.7750166655 0.3869313896 -0.4996331036
-0.055238564 -0.077098839 0.7268461 0.08450083435 0.6283777356 -0.7733052969
-0.028861424 -0.092640094 0.69066668 0.7045459151 -0.3195133507 -0.6336610317
-0.064218827 -0.18783829 0.78824121 0.03812741488 -0.5593881011 0.8280285001
-0.041174404 -0.12167957 0.70100003 0.4725528359 0.3582503796 -0.8052021265
-0.085305393 -0.12350027 0.69212532 -0.3255880773 0.5284186006 -0.7840702534
-0.090699933 -0.069320664 0.73900002 -0.3873037398 0.6483267546 -0.6554908156
-0.12128957 -0.16470052 0.76330423 -0.8309188485 -0.3069928288 0.4640358686
-0.037992395 -0.16281101 0.80088896 0.4791637957 -0.4836362898 0.7324602604
-0.032035153 -0.1684702 0.78866673 0.6020157933 -0.4754756987 0.641482532
-0.085028194 -0.095041476 0.7148307 -0.2737037241 0.5902945995 -0.7593672276
-0.054913558 -0.094836697 0.71367157 -0.02728921548 0.6822897792 -0.7305723429
-0.030778451 -0.10929447 0.71650004 0.6931381822 0.5240215063 -0.4949352741
-0.022703497 -0.12381057 0.71291661 0.7446120977 0.4014046192 -0.5333171487
-0.093204401 -0.097977579 0.71689987 -0.4249595702 0.5484761596 -0.7201272845
-0.1059675 -0.11439513 0.71340442 -0.6075831056 0.4740502536 -0.6372747421
-0.078169741 -0.060413729 0.741 -0.1968842745 0.7002010345 -0.6862616539
-0.091264509 -0.079776667 0.72800004 -0.4095053375 0.5789006352 -0.7051095366
-0.11242348 -0.10686791 0.72685719 -0.6903250813 0.4701188803 -0.5499449968
-0.075263575 -0.094513342 0.71303523 -0.1402057409 0.6033049226 -0.7850894928
-0.11621858 -0.094744027 0.74459255 -0.7192478776 0.4205352366 -0.5530213118
-0.018204987 -0.11784478 0.72328573 0.7898489833 0.3863288164 -0.4763283134
-0.1040825 -0.18468691 0.77388453 -0.6516879201 -0.3984726369 0.6453855038
-0.055114463 -0.11596829 0.6963222 0.07317769527 0.4735979736 -0.8776958585
-0.017350079 -0.10565345 0.73489994 0.7941803932 0.3944656551 -0.4622492492
-0.011592426 -0.11292633 0.74290007 0.811167419 0.3750145733 -0.4487443268
-0.10150898 -0.078745462 0.73885715 -0.5674805045 0.5377372503 -0.6235419512
-0.047436096 -0.1053733 0.70320511 -0.1452208459 0.3091290891 -0.9398670793
-0.095158033 -0.1151409 0.70459998 -0.4684188068 0.5214467049 -0.7132160664
-0.11492655 -0.11403056 0.72453338 -0.7227942944 0.4318014383 -0.5395516157
-0.094226301 -0.075702056 0.7355209 -0.4446896017 0.580334723 -0.6822482944
-0.07482487 -0.19452512 0.78375804 -0.1554744691 -0.5735707283 0.804266274
-0.045330033 -0.16461329 0.80292481 0.3976440132 -0.5171880126 0.7578890324
-0.10288658 -0.10690137 0.71647996 -0.5703060627 0.5064322352 -0.6467437148
-0.074933514 -0.115789 0.69474214 -0.1377936155 0.6035252213 -0.7853472233
-0.034527708 -0.17533344 0.78621739 0.5596634746 -0.5071935058 0.6553865671
-0.05151644 -0.099929482 0.708 -0.02966026776 0.6868361831 -0.7262068391
-0.060283981 -0.15957525 0.80900002 0.1832266003 -0.5252531767 0.8309856653
-0.035057001 -0.19394258 0.77487528 0.5745652318 -0.4603037238 0.6767534614
-0.055229504 -0.1947815 0.78274131 0.1870688349 -0.5853229761 0.7889247537
-0.12318992 -0.10481216 0.74460715 -0.7397977114 0.4223222435 -0.5237779021
-0.1091976 -0.11046 0.72000003 -0.6713997126 0.4582575858 -0.5824280381
-0.096567906 -0.16744144 0.79583335 -0.5190331936 -0.5766077042 0.6309739351
-0.10641051 -0.15634687 0.79531276 -0.6205942631 -0.5109605789 0.5947958231
-0.02932976 -0.13137288 0.69700003 0.6434764266 0.1752690077 -0.7451301217
-0.085280493 -0.1761532 0.79498047 -0.3005016148 -0.6211853623 0.7237592936
-0.065025605 -0.065405533 0.73539996 0.01329920441 0.6607781649 -0.7504634261
-0.096147351 -0.17823081 0.78708696 -0.5166339278 -0.5452678204 0.66013062
-0.084053934 -0.11718092 0.69602519 -0.2906003296 0.5738610029 -0.7656598687
-0.023778807 -0.18561608 0.76737171 0.7008360624 -0.4377108216 0.5632388592
-0.02886162 -0.11886022 0.708 0.7534707189 0.3272003233 -0.5702822208
-0.045578487 -0.12271111 0.69417506 0.2307885587 0.1829469949 -0.9556500912
-0.068964735 -0.16139171 0.81100005 0.04838627949 -0.5521047711 0.832369566
-0.12137036 -0.17190091 0.76128578 -0.8602490425 -0.2985901237 0.4132983088
-0.094867721 -0.065186277 0.74460018 -0.4216561913 0.6434497833 -0.6388884187
-0.01432298 -0.1661934 0.76517236 0.7595922947 -0.3654181957 0.5380418897
-0.098966897 -0.1101707 0.71000004 -0.5247888565 0.5222879052 -0.6721696258
-0.11210413 -0.16346322 0.78160876 -0.7346280217 -0.4464848936 0.5108551383
-0.085186943 -0.084357671 0.72221059 -0.3001106381 0.6067669392 -0.7360485792
-0.086214274 -0.18672656 0.78651106 -0.3051705062 -0.5695085526 0.7632371783
-0.026133679 -0.10472722 0.72548842 0.6812618375 0.5048185587 -0.5301325321
-0.013710663 -0.10434775 0.74499989 0.805363059 0.3818893135 -0.4533771873
-0.10062497 -0.089562602 0.72799999 -0.5584207773 0.5265112519 -0.6410554647
-0.0085973321 -0.174614 0.75431585 0.8795080185 -0.2011176199 0.431297332
-0.084286645 -0.1061067 0.70659596 -0.2641749084 0.6099510789 -0.7471086383
-0.038288593 -0.17159978 0.79120004 0.4970473945 -0.5340436101 0.6839161515
-0.1005186 -0.181207 0.78000003 -0.5990764499 -0.442532599 0.6672872901
