# .PCD v0.7 - Point Cloud Data file format
VERSION 0.7
FIELDS x y z normal_x normal_y normal_z
SIZE 4 4 4 4 4 4
TYPE F F F F F F
COUNT 1 1 1 1 1 1
WIDTH 206
HEIGHT 1
VIEWPOINT 0 0 0 1 0 0 0
POINTS 206
DATA ascii
-0.063855849 -0.0082318773 0.53716207 0.275498867 -0.7474836111 0.6044573188
-0.036881875 -0.15117599 0.56724995 0.1654993743 -0.7040156722 0.6906315088
0.03123687 -0.061918244 0.51552939 0.08883087337 -0.4832641482 0.8709563017
-0.067941666 -0.086421803 0.62 -0.3317478597 -0.6270049214 0.7048462033
-0.10445057 -0.11533058 0.53486109 -0.8281359076 -0.4042225182 0.3883234262
-0.07201992 -0.064303502 0.48900002 0.4225868285 -0.5902267694 0.6877883077
-0.0085474998 -0.098919809 0.59342861 0.5266342163 -0.6137844324 0.5881539583
0.011954299 -0.12355164 0.53825003 0.748077035 -0.4558950365 0.4822244644
-0.00080390327 -0.021710649 0.55033332 -0.5294303298 -0.5392280221 0.6549324989
-0.025169246 -0.045633022 0.50472879 -0.3959934413 -0.631416142 0.6667104959
-0.078993805 -0.11867174 0.57814294 -0.5436183214 -0.5926287174 0.5943654776
-0.091307841 -0.043873519 0.52691674 0.574924767 -0.5470975637 0.6083960533
-0.044967178 -0.11607201 0.59644073 0.03137469292 -0.6874188781 0.7255831361
-0.072316229 -0.15082392 0.565 -0.3808425367 -0.6095408797 0.6952832937
-0.028184116 -0.019168954 0.52863652 -0.3323740959 -0.6638107896 0.6699870825
-0.0030621965 -0.072180353 0.49900001 -0.5646331906 -0.5072616935 0.6510568261
-0.010851555 -0.12912056 0.56780005 0.5956323743 -0.5280586481 0.6052901149
0.0016482585 -0.0489587 0.5261429 -0.544078052 -0.603967309 0.5824109912
-0.055130012 -0.03250879 0.51251507 0.1460665613 -0.6861493587 0.7126455307
-0.1010013 -0.094165221 0.57320005 -0.7629680634 -0.4748125374 0.4386716187
-0.091707513 -0.015085156 0.55372 0.4994231164 -0.613863945 0.6113490462
-0.035304736 -0.095249042 0.61467069 0.144719258 -0.6612534523 0.7360708117
-0.090095907 -0.089042157 0.60100001 -0.5805143118 -0.574595809 0.5769253373
0.025041701 -0.034948666 0.54801834 -0.1236103997 -0.8391606808 0.5296506286
-0.093210116 -0.13344061 0.55300003 -0.7629308701 -0.4456640482 0.4683161676
-0.045138609 -0.05659515 0.48823282 -0.02407442592 -0.6415996552 0.7666618228
-0.091440335 -0.064852342 0.50756252 0.5640642047 -0.5481746793 0.617524147
0.0037998387 -0.10889757 0.56591672 0.7188374996 -0.4763443768 0.5063286424
-0.073821194 -0.046663288 0.50595891 0.4622966647 -0.6055769324 0.6477332711
-0.055469491 -0.13686861 0.57525593 -0.1527235657 -0.6676155329 0.7286734581
0.01087768 -0.08022289 0.51700002 -0.2617378235 -0.4426220357 0.8576590419
-0.074536823 -0.02675687 0.52569562 0.4555132389 -0.6031458974 0.6547691822
-0.067424349 -0.10812096 0.59790903 -0.3778371513 -0.6465698481 0.6627115011
0.032428775 -0.03973667 0.52100003 0.1878829896 -0.7190117836 0.6691203713
-0.023696959 -0.11843627 0.58866674 0.3426410854 -0.638397634 0.6892354488
-0.094794095 -0.1153904 0.56437677 -0.7910946012 -0.4303069115 0.4347473383
-0.014345448 -0.034300141 0.52386278 -0.5740129352 -0.5586189032 0.5987102985
-0.054660324 -0.10126672 0.61236376 -0.1419190019 -0.6680914164 0.7304196358
-0.037164275 -0.1317673 0.58070832 0.1467126459 -0.6809040308 0.7175270915
-0.022592949 -0.061434142 0.49350008 -0.4321752787 -0.573543787 0.6958965659
-0.045237873 -0.0070772483 0.53580815 -0.07547070831 -0.7472769022 0.6602131724
0.0024131127 -0.13303217 0.55113339 0.7183707952 -0.4943157434 0.489484787
-0.091027804 -0.029713741 0.53800005 0.5457544327 -0.5851062536 0.5998356342
-0.0085333977 -0.11281458 0.58139133 0.6209095716 -0.5428576469 0.5654882193
-0.025350051 -0.1041036 0.60332912 0.3356997371 -0.6484630108 0.6832286716
-0.044883512 -0.021663355 0.52125651 -0.08285479248 -0.6848458052 0.7239622474
-0.054840922 -0.15104364 0.56544441 -0.09401718527 -0.6452704668 0.7581469417
-0.014469453 -0.013991229 0.5434643 -0.5175869465 -0.6039289832 0.6061134934
-0.045161169 -0.041925531 0.50240993 -0.07036090642 -0.6989382505 0.7117124796
-0.08625821 -0.10570427 0.58635223 -0.6250931621 -0.5615671873 0.5421262383
-0.011269495 -0.051977511 0.51168758 -0.6051254272 -0.5457273126 0.5796592832
-0.01192419 -0.1427511 0.55815786 0.5654729009 -0.5644979477 0.6013172865
-0.034514774 -0.033826746 0.5123713 -0.2428027689 -0.6650972366 0.7061815858
0.0014892542 -0.037570562 0.53830773 -0.5363171101 -0.5357279778 0.6521958709
-0.064686306 -0.12456364 0.58382291 -0.3302455842 -0.6573676467 0.677351892
-0.075848684 -0.095727704 0.60580307 -0.4527076483 -0.6117085814 0.6487436891
-0.073165968 -0.13224141 0.57256418 -0.451374203 -0.5425794721 0.708427012
-0.0011042015 -0.065161198 0.51299995 -0.5247653723 -0.5424387455 0.656034708
0.015519224 -0.066089325 0.51248926 -0.1318935156 -0.3512074649 0.9269613624
-0.10251477 -0.10925283 0.54900002 -0.8254415393 -0.4057579935 0.392436862
-0.02216734 -0.13872293 0.56818759 0.3732738793 -0.6375366449 0.673953712
-0.077247486 -0.012286976 0.5418126 0.4392892122 -0.6615073681 0.6078100204
-0.008702144 -0.027331835 0.53670013 -0.5734583735 -0.548946023 0.6081148982
-0.046221636 -0.088860333 0.62152171 -0.03180951253 -0.6662250161 0.7450720668
0.0044840984 -0.11768352 0.55458826 0.7517781854 -0.4508052766 0.4812527001
-0.08509662 -0.052014243 0.51281077 0.5496199131 -0.5610090494 0.6190208197
0.011614762 -0.027760038 0.54699999 -0.4435063601 -0.6908035278 0.5710451603
-0.080533229 -0.03958413 0.51900005 0.5271106362 -0.5728760362 0.6276682019
-0.065578014 -0.053616934 0.49532628 0.3218514919 -0.6497787833 0.6886211634
-0.023222286 -0.12917709 0.5783 0.3537339568 -0.6342589855 0.6874502301
-0.063656092 -0.018117663 0.5273658 0.3046216965 -0.6659063101 0.681009829
-0.083299503 -0.13405818 0.56271058 -0.6102138758 -0.5030510426 0.6120283604
-0.028520083 -0.0087201297 0.53775007 -0.3169756234 -0.7032424808 0.636377573
-0.011422257 -0.061974116 0.50204754 -0.5923101306 -0.5301162004 0.6067499518
-0.094184458 -0.10513847 0.57555407 -0.7460603118 -0.4725856185 0.4691021442
-0.044922162 -0.10701532 0.60587716 0.05725189298 -0.6956339478 0.7161114812
-0.083770618 -0.065507464 0.49726918 0.4844504297 -0.5766370296 0.6578735113
-0.09324149 -0.095206231 0.58616269 -0.6897655725 -0.5181295276 0.5057323575
-0.099427402 -0.12219018 0.54414284 -0.8107815981 -0.42185992 0.4057923555
-0.03318258 -0.060814328 0.4871501 -0.2209994793 -0.6267595291 0.7472159863
-0.056286886 -0.061244812 0.4870002 0.1352120489 -0.6105663776 0.7803373337
-0.10137948 -0.10330591 0.56533331 -0.797545135 -0.4370219409 0.4158528745
-0.054957658 -0.047409892 0.49815956 0.1230466962 -0.6780329347 0.7246590853
0.0027540482 -0.060579419 0.52350003 -0.4015660584 -0.5980257392 0.6936208606
-0.053647984 -0.12182132 0.59116131 -0.138241291 -0.6809206605 0.7191914916
-0.04567498 -0.14221632 0.57199997 0.02537409961 -0.6566053033 0.7538074255
-0.054051191 -0.11089231 0.60035002 -0.1386774778 -0.694714725 0.7057903409
-0.037392225 -0.048089787 0.49737838 -0.2004429102 -0.6709551215 0.7138920426
0.035325281 -0.053123545 0.52059996 0.3078967929 -0.6386172771 0.7052429318
-0.017153058 -0.096907973 0.60407704 0.375403285 -0.6435882449 0.6669831872
-0.037421081 -0.12128264 0.59050006 0.1673950553 -0.676230967 0.7174193859
-0.062879853 -0.038624812 0.50784004 0.2778429389 -0.6623033285 0.6958143711
-0.055522554 -0.011606289 0.53118521 0.1147663444 -0.7242404819 0.6799297333
-0.055599343 -0.02235046 0.5216735 0.1548357755 -0.6796123385 0.7170445919
-0.0017043785 -0.117821 0.56784219 0.7078892589 -0.4735443294 0.5240692496
-0.036593746 -0.11082988 0.60058331 0.1702118218 -0.6921550632 0.7013909817
-0.035325602 -0.1412093 0.5704546 0.1794377863 -0.6705880165 0.7198011875
-0.082500905 -0.057257749 0.50355875 0.5120465159 -0.5793881416 0.6341275573
-0.064589627 -0.094143137 0.61388081 -0.2847510278 -0.6387391686 0.7147930861
0.015289198 -0.035814553 0.55241466 -0.2979299128 -0.7224728465 0.6239156723
-0.080939405 -0.14394909 0.56073916 -0.5018475652 -0.5385748744 0.6768205762
-0.073932238 -0.11173657 0.5909428 -0.4577193558 -0.6208956838 0.6363816261
-0.04487301 -0.12678622 0.58647239 0.065463081 -0.6911257505 0.7197636962
-0.045140319 -0.032306757 0.51157981 -0.06511154771 -0.6909783483 0.7199370861
-0.017005315 -0.11144862 0.59130001 0.4556138515 -0.6283439398 0.6305552125
0.005188304 -0.034022957 0.55145204 -0.5258916616 -0.5311972499 0.6642796397
-0.062863633 -0.028569352 0.51728576 0.2761156559 -0.656791985 0.7017011046
-0.085904293 -0.096122451 0.59560257 -0.6029461622 -0.5607525706 0.567461431
-0.034401305 -0.023156457 0.5221386 -0.2422586381 -0.6730712652 0.6987745166
-0.099330679 -0.11594716 0.55533326 -0.8254415393 -0.4057579935 0.392436862
-0.025404789 -0.035639022 0.5150907 -0.382085979 -0.6170514226 0.6879373789
-0.0024031082 -0.10732719 0.57631248 0.6480607986 -0.5304316282 0.5464975238
-0.01754242 -0.12241342 0.58175755 0.4743163884 -0.6030132174 0.6414039135
-0.068034038 -0.13856067 0.56778949 -0.3301314414 -0.5934487581 0.7340516448
-0.090812728 -0.023294786 0.54488891 0.5388841033 -0.5919936299 0.5992891788
-0.086561501 -0.12582809 0.56585169 -0.6450924277 -0.4877012968 0.5882203579
-0.044595964 -0.096237041 0.61483824 0.001485843677 -0.6684536934 0.7437523007
-0.026486488 -0.09540274 0.61213744 0.2817483842 -0.6245197058 0.7284181118
-0.084031925 -0.025458237 0.53396833 0.5308235884 -0.5907564163 0.6076456308
0.006604169 -0.12546572 0.54538196 0.748077035 -0.4558950365 0.4822244644
-0.002040003 -0.043051012 0.53196561 -0.6185830832 -0.5006558895 0.605556488
0.0013363907 -0.072234526 0.50800002 -0.469987452 -0.524255991 0.7101179361
-0.034572791 -0.012982216 0.5327099 -0.2592175901 -0.6935161352 0.6721916795
-0.0053740111 -0.044896543 0.52235901 -0.6289102435 -0.5299061537 0.568921268
-0.059149574 -0.087367721 0.61900002 -0.243357107 -0.6456789374 0.7237927914
-0.095348857 -0.1251986 0.55523342 -0.7868410349 -0.4288447499 0.4438168705
-0.0045594065 -0.13500805 0.55596089 0.6679131389 -0.5209417939 0.5315182805
-0.073557615 -0.056791581 0.49654812 0.4583055675 -0.5784695148 0.6747807264
-0.084351517 -0.035581138 0.52560717 0.5245277286 -0.5758554935 0.6271053553
-0.073938429 -0.01615675 0.53486764 0.4510398209 -0.6456945539 0.6161506772
-0.017725792 -0.13223191 0.57182151 0.4515707195 -0.5989127755 0.661352694
-0.045425359 -0.1508666 0.56733328 0.02407068014 -0.6712848544 0.7408085465
-0.091826297 -0.11300325 0.57356256 -0.7252649665 -0.4864194691 0.4872235954
-0.014598611 -0.044630032 0.51419795 -0.5348700881 -0.590755403 0.60408777
-0.083422594 -0.11273824 0.58267343 -0.5921278 -0.564096272 0.5754824281
-0.091648027 -0.036203284 0.53278261 0.5676121712 -0.5630711317 0.6006390452
-0.014895287 -0.05468728 0.50416839 -0.5455269814 -0.5581204891 0.6252214313
-0.072925657 -0.12219543 0.5824849 -0.456510216 -0.623449862 0.6347509027
0.025913825 -0.05654256 0.51226676 -0.01456454769 -0.3237016201 0.9460471272
-0.066091903 -0.058593117 0.48875007 0.2838454843 -0.6381471157 0.7156814933
-0.067617543 -0.11794628 0.58772004 -0.3752421439 -0.642018199 0.6685850024
-0.080966599 -0.019023081 0.53800005 0.4821614921 -0.6330983639 0.6055631638
-0.0044791885 -0.02474268 0.54369253 -0.5655391812 -0.529660821 0.6321588755
-0.073913671 -0.035921004 0.51592767 0.4416746199 -0.6149197221 0.6532971859
-0.075757958 -0.13586055 0.56522828 -0.4994566441 -0.5481949449 0.6708393097
-0.078669265 -0.088703237 0.60880005 -0.4682503641 -0.5944657326 0.6537217498
-0.029867595 -0.03922864 0.50849998 -0.3577950001 -0.6406795382 0.6793470979
-0.082810424 -0.12363633 0.57299995 -0.5491137505 -0.5569583774 0.6231143475
-0.072216831 -0.10197841 0.60214299 -0.4350187182 -0.6238114834 0.6493211389
-0.0065408102 -0.017293852 0.54673922 -0.5576826334 -0.5394406915 0.6308674812
-0.017951544 -0.037900355 0.51715004 -0.5104597807 -0.5901052356 0.6254651546
-0.099481501 -0.10879258 0.55900002 -0.8237870336 -0.4019436538 0.3997702599
-0.0059139151 -0.10579652 0.5842666 0.5931279063 -0.5644305944 0.5741231441
-0.021684688 -0.011917408 0.54046154 -0.448980689 -0.6549423337 0.6078378558
-0.064944386 -0.13473964 0.57411861 -0.3037471473 -0.6064372659 0.7348275185
-0.017942702 -0.047698852 0.50748152 -0.4603970349 -0.6063100696 0.6484000683
-0.079031065 -0.098460622 0.59900004 -0.515519321 -0.5998954177 0.6118540168
-0.025295645 -0.025267707 0.5244205 -0.3742194474 -0.6445156932 0.6667528152
-0.0043588066 -0.12542054 0.56508231 0.6892597079 -0.4815533459 0.5413200855
-0.084057406 -0.015335456 0.54449993 0.4853658676 -0.6202588677 0.6161971092
-0.082359537 -0.1034208 0.59286666 -0.5647153854 -0.5918440223 0.5751670599
-0.054236885 -0.13205056 0.58138633 -0.1333783269 -0.6853108406 0.7159324288
0.028896784 -0.045811605 0.51741183 0.169620797 -0.6990768313 0.6946368814
-0.039040156 -0.08946602 0.61849999 0.06856696308 -0.6657633781 0.7430058718
-0.017491404 -0.02794838 0.52714288 -0.4951347709 -0.5984861851 0.6298062205
-0.076558679 -0.042599935 0.51287758 0.4726409614 -0.6043860912 0.6413485408
-0.004541812 -0.034894496 0.53417861 -0.5878320932 -0.5303068757 0.6109239459
-0.0082368432 -0.12276493 0.57139993 0.6478013396 -0.535550952 0.5417920351
-0.044943631 -0.13257809 0.58131588 0.04147227854 -0.6753128171 0.7363644838
-0.014439144 -0.12597193 0.57497555 0.5370085239 -0.5718762875 0.6201446056
-0.028426092 -0.029153725 0.51800001 -0.345927 -0.6460617781 0.6803959608
-0.034363847 -0.053805437 0.49321148 -0.2267578691 -0.6456311941 0.7292058468
-0.014565344 -0.11553857 0.58526248 0.5335968137 -0.5912821293 0.6046981812
-0.017129825 -0.017903127 0.53745455 -0.4953527153 -0.6241138577 0.6042413116
-0.014223274 -0.13559152 0.56552881 0.5280580521 -0.5825769305 0.6178663373
-0.055125542 -0.052906331 0.49292314 0.1256430596 -0.6553672552 0.7447869182
-0.014808663 -0.024037192 0.53364205 -0.5236458182 -0.5885261297 0.6159805655
-0.077544309 -0.032659423 0.52203131 0.4937232435 -0.5876779556 0.6409929395
-0.025198692 -0.1243705 0.58374298 0.3355633616 -0.6510606408 0.6808210015
-0.061689276 -0.12078772 0.59133339 -0.2717899978 -0.6658666134 0.6948034763
-0.034920879 -0.11567993 0.59511131 0.2003652751 -0.6812905073 0.7040575147
-0.064681187 -0.11461571 0.59536356 -0.3074579537 -0.6572884321 0.6880708933
0.0051352629 -0.03343131 0.54400003 -0.5263001919 -0.5342085361 0.6615355611
-0.034283184 -0.043954942 0.50276488 -0.2420416176 -0.6674643159 0.7042067647
-0.075601824 -0.1055531 0.59521735 -0.5163704157 -0.6008171439 0.6102297306
-0.06766206 -0.098558024 0.60873693 -0.356628418 -0.6361662745 0.6841846704
-0.065576762 -0.044190459 0.50371146 0.3211726844 -0.667769134 0.6715150476
0.024495244 -0.064723261 0.51417279 -0.04425397888 -0.344188422 0.9378570914
-0.08604008 -0.11655416 0.57657135 -0.6499519348 -0.5317437053 0.5429651141
-0.069017231 -0.12801163 0.57887501 -0.380402118 -0.6378928423 0.6696170568
-0.064929791 -0.15018718 0.5654 -0.2333579212 -0.6365666389 0.7350693941
0.019262997 -0.059580896 0.51100004 -0.04425397888 -0.344188422 0.9378570914
-0.072965913 -0.087797895 0.61472428 -0.3703255653 -0.6143395901 0.6967394352
-0.089079849 -0.11910451 0.56766665 -0.7145991921 -0.4831753969 0.5058552623
-0.054804951 -0.037324868 0.50690311 0.1188273132 -0.6806198955 0.7229360938
-0.016669141 -0.14236481 0.56382054 0.4924605787 -0.6259874701 0.6046670675
-0.054392375 -0.14277059 0.57093859 -0.1023361981 -0.6386598349 0.7626538873
-0.010978788 -0.11890697 0.57800001 0.6094632149 -0.553183198 0.5679286122
-0.021448191 -0.021018488 0.53100002 -0.4242677391 -0.6402972341 0.6403251886
-0.083661251 -0.092315413 0.60248661 -0.5397692323 -0.5903596282 0.6001038551
-0.0448015 -0.047024194 0.4971267 -0.04861021787 -0.6827016473 0.7290785313
-0.0108882 -0.020829599 0.54000002 -0.5406737328 -0.5667738914 0.6216424108
0.013112946 -0.0733447 0.51591116 -0.1318935156 -0.3512074649 0.9269613624
-0.07570488 -0.1261528 0.57571429 -0.4731372297 -0.6049698591 0.6404315829
-0.065507211 -0.024434067 0.52269125 0.2995115519 -0.644628942 0.7033820748
-0.03520181 -0.017726159 0.52694815 -0.2228844911 -0.6950608492 0.6835297942
