# .PCD v0.7 - Point Cloud Data file format
VERSION 0.7
FIELDS x y z normal_x normal_y normal_z
SIZE 4 4 4 4 4 4
TYPE F F F F F F
COUNT 1 1 1 1 1 1
WIDTH 206
HEIGHT 1
VIEWPOINT 0 0 0 1 0 0 0
POINTS 206
DATA ascii
-0.063998416 -0.069099739 0.52900004 0.1965428442 -0.7318894863 0.6524635553
-0.0356365 -0.18008311 0.54200006 0.1935455799 -0.6906296015 0.6968291402
-0.023002077 -0.11215071 0.49100003 0.1656842977 -0.6826910973 0.7116752267
-0.0031335822 -0.051232774 0.51071435 0.8759651184 -0.3230879903 0.3581888676
-0.062202424 -0.13813344 0.58000004 -0.186710149 -0.7826985717 0.5937358737
-0.084290944 -0.12231824 0.4919697 0.4520014822 -0.6339396238 0.6275470257
-0.083362766 -0.16375433 0.52545118 -0.6792606711 -0.5462569594 0.4901104867
-0.0036188124 -0.14839841 0.52084613 0.867577672 -0.1589480788 0.471216023
-0.095388345 -0.10008728 0.53600001 0.6180366278 -0.5630457997 0.5486439466
-0.01918059 -0.14114948 0.56100005 0.5053739548 -0.621532917 0.5985766649
-0.024419451 -0.07141152 0.54266673 -0.09004588425 -0.5834375024 0.8071507812
-0.055665493 -0.096239887 0.49718654 0.1143225357 -0.7064318657 0.6984872222
-0.063169502 -0.16184142 0.55190647 -0.400806576 -0.6766563058 0.6176490784
-0.085886121 -0.063611448 0.55287296 0.4401741624 -0.625403285 0.6442961097
-0.028806472 -0.087895393 0.51563638 -0.2126857787 -0.8374860287 0.5033705831
-0.0078136111 -0.08517763 0.49191535 0.6713662148 -0.2625662684 0.6930558085
-0.024497574 -0.043528002 0.53885716 0.6733098626 -0.4765164256 0.5653192997
-0.080449067 -0.09911681 0.50700003 0.5152093172 -0.6341990232 0.5764988661
-0.080281042 -0.14221111 0.56066668 -0.5469304919 -0.668569684 0.5038667321
-0.045841046 -0.055451505 0.54475659 0.009755732492 -0.5964860916 0.8025641441
-0.041670401 -0.14924657 0.56811112 0.2307878584 -0.7273352742 0.6463128924
-0.014422115 -0.16527677 0.53525007 0.7183683515 -0.4418096542 0.5373556614
-0.06223223 -0.18156858 0.53733331 -0.4270904362 -0.5927205682 0.682844162
-0.08204183 -0.085841425 0.52541864 0.6053512096 -0.5827665329 0.5421559811
-0.029240692 -0.1610633 0.55040002 0.4439703226 -0.5601061583 0.6994079351
-0.011787958 -0.06445244 0.49510014 0.7879958153 -0.3859629631 0.4796823561
-0.055228457 -0.08288867 0.51279753 0.09207694978 -0.7478917241 0.6574038267
-0.040796705 -0.07135497 0.5308333 -0.2299803495 -0.7395611405 0.6325807571
-0.068036638 -0.11117078 0.48877779 0.3063889742 -0.6131487489 0.7281307578
-0.079658903 -0.14847548 0.53766662 -0.6939793229 -0.5487672091 0.4660978317
-0.0097520398 -0.14684868 0.54000002 0.8004840016 -0.3492593467 0.4870762825
-0.064868554 -0.056776166 0.54430431 0.1947930008 -0.77382195 0.6027066708
-0.033807363 -0.098312274 0.49665627 0.09076659381 -0.7143869996 0.6938390732
-0.045244649 -0.13781753 0.58313638 0.09757070243 -0.7324789166 0.673761487
-0.010951757 -0.039698534 0.52050006 0.8299732804 -0.3590629995 0.4268701673
-0.013107918 -0.11031271 0.50400001 0.8417203426 0.4630612135 -0.2776349187
-0.065663844 -0.14713599 0.56618083 -0.3488890529 -0.7311630845 0.5862396955
-0.044798445 -0.16419493 0.5542649 0.08445629478 -0.6842813492 0.7243108153
-0.088523611 -0.10221188 0.52050006 0.6119292974 -0.5814469457 0.536154747
-0.044558946 -0.10490906 0.48707992 -0.007981181145 -0.6423591971 0.7663621902
-0.06871099 -0.16837507 0.53718185 -0.593339622 -0.5343620181 0.6020011306
-0.028619526 -0.078464225 0.5272308 -0.2903820276 -0.7242623568 0.6253976822
-0.068532981 -0.080411814 0.52116662 0.3175200522 -0.6973673105 0.6425417066
-0.02874415 -0.13930899 0.57120007 0.3442217112 -0.6968340278 0.629232645
-0.021553494 -0.087683149 0.49015784 0.5527371764 -0.4150573015 0.7226403356
-0.076538697 -0.073456779 0.53342867 0.4052664638 -0.6730338931 0.6186957359
-0.028770884 -0.15073889 0.56100005 0.4652205706 -0.6402381063 0.611281395
-0.085570201 -0.073507033 0.54346496 0.5217999816 -0.6029559374 0.6034641266
-0.07368882 -0.15344813 0.55222654 -0.5569069982 -0.6608925462 0.5030662417
-0.019768834 -0.15188248 0.55000001 0.627542913 -0.4972620904 0.5990995765
-0.048669279 -0.18049037 0.54200006 -0.06785783917 -0.6485327482 0.7581560016
-0.054379426 -0.15356253 0.56534886 -0.1237826869 -0.7682387233 0.6280820966
-0.025207879 -0.055129487 0.54456151 0.3862581253 -0.4564757943 0.8015201092
-0.044496257 -0.092374526 0.50246578 -0.1027081758 -0.7727281451 0.6263723373
-0.069694996 -0.10037833 0.5 0.3790841997 -0.6580581665 0.6505802274
-0.07580734 -0.063517019 0.54414767 0.3024449646 -0.7188802361 0.625889957
-0.034384213 -0.063384801 0.54132873 -0.07146898657 -0.5506460071 0.8316736817
-0.018220991 -0.10121205 0.49720007 0.2735655308 -0.664462328 0.6954507232
-0.05750965 -0.10478555 0.48812133 0.1712393314 -0.6062481999 0.7766210437
-0.026152465 -0.17341663 0.54074007 0.4390925467 -0.5922848582 0.6755711436
-0.055319857 -0.14595985 0.57496226 -0.1420015246 -0.7597594857 0.6345085502
-0.063507229 -0.088127099 0.5069024 0.2645400167 -0.7161701322 0.6458474398
-0.052884303 -0.068374895 0.5288825 -0.008689639159 -0.7515676618 0.6595987678
-0.075906694 -0.091716826 0.51397228 0.5071722269 -0.6464970708 0.5699279308
-0.0095055383 -0.15677772 0.53009099 0.7753094435 -0.3905876577 0.4963229895
-0.033129003 -0.11185963 0.48670986 -0.01057485305 -0.4709546268 0.8820940256
-0.010831704 -0.053126588 0.50322223 0.8176729083 -0.369048655 0.4418303668
-0.055642348 -0.16828413 0.54753691 -0.2766143978 -0.62020576 0.7340499163
-0.044583466 -0.083106339 0.51313245 -0.1719616652 -0.7590605617 0.6278982759
-0.00090471999 -0.13977924 0.51600003 0.8909521699 0.3217357099 0.3204534352
-0.0077266693 -0.072976813 0.49200004 0.761336863 -0.3520352542 0.5444605947
-0.081440918 -0.14591128 0.55169564 -0.5918456316 -0.6415269971 0.4880183041
-0.052014042 -0.059565641 0.53840005 0.003841859754 -0.724938333 0.6888030767
-0.075821497 -0.15635525 0.54316467 -0.6387046576 -0.5794116259 0.50629884
-0.070829235 -0.14095871 0.57140005 -0.3312730193 -0.7325513363 0.5946652293
-0.078374878 -0.1711262 0.52900004 -0.6408078671 -0.5458229184 0.5398542881
-0.037787691 -0.088592686 0.50782347 -0.09400728345 -0.8245947361 0.5578585267
-0.032049287 -0.049029224 0.54562503 0.2430384606 -0.4401159585 0.8644248247
-0.055522919 -0.15810199 0.55741662 -0.2059931904 -0.7242384553 0.6580619216
-0.024742002 -0.095420741 0.49495491 0.2735655308 -0.664462328 0.6954507232
-0.07671155 -0.12166685 0.48728576 0.3928386271 -0.6482602358 0.6522549391
-0.087631069 -0.15933749 0.51900005 -0.6792606711 -0.5462569594 0.4901104867
-0.076271936 -0.1129499 0.49152166 0.4100573361 -0.63861835 0.6511678696
-0.033830754 -0.16797175 0.54732674 0.3165315986 -0.6233522892 0.7150102854
-0.0056301183 -0.058768284 0.49887484 0.7999085784 -0.3815532923 0.4632098377
-0.085647047 -0.094281867 0.52222037 0.5902972221 -0.5914222598 0.5493349433
-0.065579593 -0.10390532 0.49332461 0.3241575956 -0.632457912 0.7035046816
-0.054403812 -0.13740987 0.58341652 -0.07187536359 -0.7734125853 0.6298149824
-0.024818188 -0.1652969 0.54444283 0.5211042762 -0.5168253183 0.6792215705
-0.089674234 -0.09803763 0.53000003 0.6096531153 -0.5750588179 0.5455551744
-0.045001905 -0.064584434 0.53381532 -0.1460127234 -0.7047112584 0.6943070889
-0.065156542 -0.16547363 0.54450005 -0.4606685936 -0.5825515389 0.6696403027
-0.035748731 -0.14341794 0.57361853 0.2998386025 -0.6945420504 0.6539940238
-0.029599482 -0.092963196 0.509 -0.1083274335 -0.8504193425 0.5148320794
-0.043017153 -0.098619021 0.49233338 -0.02456207573 -0.6987569332 0.7149373293
-0.026424501 -0.075501524 0.53470325 -0.1631384641 -0.6400861144 0.7507833242
-0.025915498 -0.10510346 0.49426645 0.2250213623 -0.6181012988 0.7532039285
-0.033604898 -0.081514992 0.52135301 -0.2623205781 -0.7538577318 0.6024005413
-0.022923956 -0.14719881 0.5563333 0.5078719854 -0.6236884594 0.5942043066
-0.019553173 -0.049121387 0.54400003 0.6612389088 -0.4571954012 0.5947566032
-0.07359688 -0.10620212 0.49542558 0.4378373623 -0.6354179978 0.6360364556
-0.033781134 -0.15775561 0.55642867 0.3487835824 -0.6642173529 0.6611847878
-0.065276653 -0.083959714 0.5144946 0.3207045496 -0.7052690387 0.6322532892
-0.05497548 -0.087691084 0.506145 0.07268166542 -0.7609995604 0.6446681619
-0.083005667 -0.15530436 0.53461975 -0.6855704784 -0.5534436703 0.4729621708
-0.044721644 -0.07405775 0.5242188 -0.1796920598 -0.7543138266 0.6314439178
-0.083886653 -0.14477751 0.54352373 -0.6646233797 -0.5788254142 0.4724794924
-0.015631406 -0.094530717 0.4935813 0.5694462657 -0.4496813416 0.6881261468
-0.062791735 -0.17254451 0.54053676 -0.4706216455 -0.5625162721 0.6797725558
-0.033904579 -0.14748462 0.56614286 0.3601371348 -0.6887587905 0.6292158365
-0.054847442 -0.174603 0.54291713 -0.2898192108 -0.606685102 0.7402283549
-0.045078799 -0.1456711 0.57421273 0.1242566854 -0.7371928096 0.6641588807
-0.054823861 -0.055076174 0.54418427 0.07704945654 -0.7424243689 0.6654843688
-0.025497105 -0.14409924 0.56439984 0.4649003744 -0.6403923035 0.6113635302
-0.016424099 -0.15456298 0.54354775 0.6801966429 -0.4701920748 0.5623628497
-0.073200166 -0.067262985 0.53657144 0.3172313571 -0.7156510949 0.6222602725
-0.073189341 -0.07677006 0.52734476 0.441441834 -0.6547480226 0.6135423183
-0.020280806 -0.16932115 0.53800005 0.5367107987 -0.5404037237 0.6480010152
-0.045342382 -0.17452887 0.54540014 0.03484445065 -0.6989042163 0.7143660188
-0.084480636 -0.081876218 0.53141665 0.5987380743 -0.5738528967 0.5587536097
-0.070328832 -0.15000205 0.56100005 -0.4738542736 -0.6927191019 0.5436933041
-0.073731586 -0.096357435 0.50536054 0.4543974996 -0.6576384902 0.6008614898
-0.04488809 -0.15510562 0.56507999 0.1215451062 -0.7428722382 0.6583065987
-0.062843233 -0.097596094 0.49744996 0.2798416913 -0.6871590018 0.6704484224
-0.061799936 -0.078464106 0.51778585 0.2041921318 -0.7401383519 0.6407033801
-0.025897777 -0.15413754 0.55316293 0.5097645521 -0.5869608521 0.6289809346
-0.073968217 -0.1439153 0.5637368 -0.4911234677 -0.6949461699 0.5252119899
-0.035606153 -0.15344864 0.56244463 0.3379223049 -0.6782428622 0.6525297761
-0.075221524 -0.16587202 0.53533298 -0.6431696415 -0.5413251519 0.5415716767
-0.064377077 -0.14268561 0.57408696 -0.2840384543 -0.7467949986 0.6013479829
-0.065587305 -0.15612032 0.55554539 -0.4002720714 -0.7070138454 0.5830211639
-0.078786038 -0.060656566 0.55000001 0.2831518054 -0.7301741838 0.6218284965
-0.045204293 -0.15847284 0.55850005 0.04736002162 -0.7171440125 0.6953139901
-0.033950884 -0.071996473 0.53238785 -0.2177226394 -0.6736555099 0.7062472105
-0.01080412 -0.047705568 0.50772721 0.8323985338 -0.3814492226 0.4020063579
-0.021357672 -0.10630987 0.50090909 0.2735655308 -0.664462328 0.6954507232
-0.03545944 -0.07666976 0.52598888 -0.2972752452 -0.7395489812 0.6038995981
-0.058701597 -0.060595199 0.54000002 0.09615162015 -0.7616897225 0.6407679915
-0.076040536 -0.083247229 0.52305871 0.5054936409 -0.6253079176 0.5945302248
-0.035213668 -0.093897164 0.50420213 -0.08838564903 -0.8146371245 0.5731965899
-0.072690226 -0.17301111 0.53393942 -0.6253035665 -0.5294382572 0.5733154416
-0.072913103 -0.16262919 0.54315907 -0.5998862386 -0.5742978454 0.5570623875
-0.065799743 -0.093897253 0.50385845 0.3344924152 -0.6945110559 0.6370001435
-0.068760917 -0.15964231 0.54850006 -0.5923303366 -0.6132476926 0.5225629807
-0.083582364 -0.06757246 0.5463171 0.4648856521 -0.6094792485 0.6421965361
-0.034528889 -0.055438682 0.54574019 -0.03559185565 -0.5399427414 0.8409488797
-0.072521023 -0.058510851 0.54749995 0.2735348046 -0.7380297184 0.6168394089
-0.018113101 -0.16337915 0.5406667 0.6189338565 -0.5054576993 0.6011933088
-0.02276971 -0.15747926 0.54754055 0.5478343368 -0.5420013666 0.6372691989
-0.054615937 -0.16335182 0.55322361 -0.1904416829 -0.6814748049 0.7066286802
-0.0058069257 -0.045667462 0.51342589 0.8440648317 -0.3506473303 0.4057104886
-0.055254702 -0.064295173 0.53369385 0.05144922808 -0.7588635087 0.6492142081
-0.034265958 -0.10391136 0.4929601 -0.0283855442 -0.6163707972 0.7869442701
-0.014099536 -0.14775437 0.54502439 0.6891200542 -0.448936373 0.568831861
-0.035008401 -0.085698918 0.51438159 -0.1405384988 -0.8304049373 0.5391442776
-0.044928346 -0.1684524 0.54812503 0.08633176237 -0.6626216769 0.7439619303
-0.027313408 -0.083614774 0.52206385 -0.2608786225 -0.7770419717 0.5728421211
-0.040768944 -0.061625946 0.54075003 -0.05413219333 -0.5328339338 0.8444866538
-0.081164978 -0.16117528 0.532125 -0.6803755164 -0.5392405987 0.4962950647
-0.012243276 -0.058218624 0.49878564 0.7999085784 -0.3815532923 0.4632098377
-0.025828484 -0.065192893 0.54441494 -0.07146898657 -0.5506460071 0.8316736817
-0.035525631 -0.16345619 0.55179507 0.3080074191 -0.6199431419 0.7216660976
-0.017908426 -0.14498395 0.55272722 0.5928048491 -0.5437601209 0.5940600634
-0.077077493 -0.10279167 0.50297922 0.4920909703 -0.6249471903 0.6060425043
-0.082639813 -0.10498033 0.50576359 0.5627431273 -0.5978975296 0.570822835
-0.036608264 -0.067737475 0.53630424 -0.1125241071 -0.6138043404 0.7813978195
-0.065580286 -0.074488655 0.5261153 0.2713403404 -0.7230339646 0.6352923512
-0.03925319 -0.1386593 0.58150005 0.1928707808 -0.7228553891 0.6635367274
-0.064775154 -0.065578565 0.53406376 0.2677907944 -0.7349436879 0.6230134964
-0.015463067 -0.086859681 0.4910689 0.6051844358 -0.2733816504 0.7476725578
-0.047471501 -0.1504097 0.57000005 0.0701328665 -0.7353121042 0.674090147
-0.046825323 -0.068559065 0.52841681 -0.132862702 -0.7482776046 0.6499447227
-0.065706357 -0.17640527 0.53686881 -0.5326667428 -0.5434474349 0.6487919688
-0.0085619101 -0.091172718 0.49143755 0.6890205741 -0.3435496092 0.6381412745
-0.045492455 -0.087709971 0.50605977 -0.09879916161 -0.7856263518 0.6107617617
-0.063299291 -0.15200676 0.5636667 -0.338897258 -0.7401905656 0.5807465911
-0.0060047205 -0.065409578 0.49595329 0.8117284775 -0.363991946 0.4567348361
-0.06358166 -0.10708861 0.4887692 0.2857464254 -0.6113762856 0.7379485369
-0.055381127 -0.09197928 0.50211543 0.1507676095 -0.7285432816 0.6682019234
-0.012054658 -0.15589552 0.5352928 0.7753094435 -0.3905876577 0.4963229895
-0.056758799 -0.14906439 0.5682354 -0.1698851138 -0.7562176585 0.631881237
-0.076815113 -0.14739452 0.55484998 -0.5534517169 -0.6677516103 0.4977940917
-0.082367174 -0.11695667 0.49300006 0.4520014822 -0.6339396238 0.6275470257
-0.046296421 -0.059493501 0.53761542 -0.09596098959 -0.6145925522 0.7829862833
-0.034404662 -0.13830867 0.5759334 0.2649200559 -0.7117758393 0.6505325437
-0.054011006 -0.18243422 0.54151607 -0.2593739331 -0.6467832923 0.7172144651
-0.0819593 -0.094616383 0.51793754 0.5695638061 -0.6064137816 0.5548508167
-0.046074603 -0.07865537 0.51612914 -0.1587355882 -0.7531607151 0.6383979321
-0.023589674 -0.13927351 0.56637502 0.4859911203 -0.6455411315 0.5891427994
-0.0057285787 -0.15444227 0.52676088 0.7753094435 -0.3905876577 0.4963229895
-0.066212296 -0.060839884 0.5407778 0.2377890795 -0.7576175928 0.6078420281
-0.0802413 -0.1555119 0.54000002 -0.6855704784 -0.5534436703 0.4729621708
-0.073498331 -0.087066613 0.51560003 0.4924133122 -0.6307973862 0.5996863842
-0.010394198 -0.043602768 0.51550001 0.8440648317 -0.3506473303 0.4057104886
-0.069230363 -0.070159636 0.53000003 0.3198498487 -0.7160806656 0.6204228401
-0.092830352 -0.0950526 0.53323412 0.6109489202 -0.5705372691 0.5488430262
-0.035299607 -0.17490827 0.54348707 0.2330590338 -0.6617176533 0.7126101851
-0.053614467 -0.1421123 0.58091664 -0.0324582234 -0.7535610795 0.656576097
-0.054737736 -0.078746133 0.51600021 0.04299287871 -0.7602372766 0.648221314
-0.076662749 -0.13951361 0.56300002 -0.5269790292 -0.6770249605 0.5137414932
-0.082691438 -0.077843346 0.53393108 0.5907040834 -0.5716179609 0.5694923997
-0.036009781 -0.10778452 0.48655769 -0.01822967082 -0.4617907405 0.8868015409
-0.0091877962 -0.16165087 0.53062505 0.7672647238 -0.3912626803 0.5081518888
-0.058241349 -0.17913252 0.53866673 -0.3615449071 -0.6096124053 0.7054488063
-0.075227737 -0.11612233 0.48805192 0.3928386271 -0.6482602358 0.6522549391
-0.016762145 -0.10660244 0.50231719 0.2735655308 -0.664462328 0.6954507232
