# .PCD v0.7 - Point Cloud Data file format
VERSION 0.7
FIELDS x y z normal_x normal_y normal_z
SIZE 4 4 4 4 4 4
TYPE F F F F F F
COUNT 1 1 1 1 1 1
WIDTH 206
HEIGHT 1
VIEWPOINT 0 0 0 1 0 0 0
POINTS 206
DATA ascii
-0.049246751 -0.17925817 0.74900001 -0.8984615803 0.07668450475 0.4323034286
0.07295429 -0.087297112 0.71127295 -0.6764695048 0.5110625625 -0.5302867889
0.063218474 -0.19519004 0.75516659 0.8224889636 -0.3726641238 0.4296898246
-0.028429061 -0.082864702 0.75411761 -0.664167881 0.4734742343 -0.5785354376
0.0052745664 -0.16692574 0.81453854 -0.0790900141 -0.4836995304 0.8716533184
0.0084440531 -0.13872373 0.68800002 -0.06969060749 0.5600832105 -0.8254998326
-0.0068204664 -0.21620879 0.77800006 -0.2616067231 -0.5336129665 0.8042506576
0.062346533 -0.1466842 0.71695232 0.8497473001 0.1868587136 -0.4929638803
0.024354447 -0.076970056 0.73751307 0.1676839292 0.6537659764 -0.7378835678
-0.037423201 -0.13447532 0.72266662 -0.718896687 0.4374394417 -0.5402169228
0.045420703 -0.17532369 0.79478073 0.5294836164 -0.4697732627 0.7063711286
-0.029281542 -0.17868657 0.78900003 -0.6300241351 -0.4448540807 0.6365331411
-0.0044806432 -0.10552315 0.7163114 -0.2714376748 0.5698019862 -0.7756592631
0.06716007 -0.10488655 0.75105 0.720204711 0.2483901978 -0.6477711797
0.035190757 -0.11481943 0.71326971 0.3641405404 0.5613578558 -0.7431547642
-0.050419074 -0.11452795 0.76175004 -0.7795724273 0.3937116563 -0.4870913625
0.035919338 -0.21241632 0.77621061 0.4526175559 -0.5344904065 0.7137628198
0.072961964 -0.12084724 0.69771427 -0.5488367677 0.2153184563 -0.8077228069
0.014767873 -0.19534557 0.79511136 0.08846559376 -0.5791115761 0.8104342222
-0.021531686 -0.14269052 0.69599998 -0.4733124077 0.5418394208 -0.6945397258
-0.036404461 -0.20022453 0.76900005 -0.7082241774 -0.3128052056 0.6329070926
-0.031778634 -0.10694637 0.73638892 -0.7111475468 0.4545299709 -0.5363503098
0.037060514 -0.14233394 0.69295651 0.3583528697 0.5206588507 -0.7749177814
0.058785509 -0.12223363 0.73000002 0.6593725085 0.4724148214 -0.5848522782
0.045615394 -0.094522297 0.73491395 0.3202390075 0.4387454391 -0.8396126628
-0.002965763 -0.077868342 0.73857898 -0.2759807408 0.6996972561 -0.6589828134
0.061464384 -0.17561866 0.77386677 0.8358151317 -0.306976378 0.4551686943
0.070790619 -0.17518978 0.74425006 0.9841532111 0.009751406498 0.1770517379
0.015324226 -0.094444036 0.72289276 0.0813826099 0.6017084122 -0.7945588827
-0.0045898114 -0.18393143 0.80226308 -0.2322152704 -0.558916986 0.7960451245
0.024918299 -0.17531826 0.80524528 0.2294014543 -0.5314012766 0.8154677153
-0.0050980598 -0.12469701 0.70361531 -0.2781156301 0.59631598 -0.7530331612
-0.015559135 -0.19747074 0.78675008 -0.4088721871 -0.4862327576 0.7722702026
0.01491667 -0.21505159 0.78209829 0.1128789037 -0.5809249282 0.8060921431
0.01489226 -0.11626214 0.70597982 0.07581513375 0.5996868014 -0.7966352701
-0.022135882 -0.11730358 0.71683335 -0.5414533019 0.5187262297 -0.6616278291
0.043888051 -0.19393629 0.78280449 0.605771184 -0.460318923 0.648958981
-0.015976479 -0.093952231 0.73169047 -0.4525988698 0.587613225 -0.6707197428
-0.043484047 -0.094731167 0.76174259 -0.7319683433 0.424795866 -0.5327014327
-0.041494865 -0.17491822 0.773875 -0.8015828133 -0.270650059 0.5331168175
0.055626005 -0.12746444 0.70379323 -0.4401982129 0.2009893656 -0.8751164675
-0.014849606 -0.16831724 0.80671442 -0.3630674779 -0.5038560033 0.7837800384
-0.045215867 -0.12427162 0.74670976 -0.7817878723 0.40103966 -0.4774672091
-0.023693616 -0.21174048 0.7750625 -0.490445435 -0.4255087376 0.7605298162
0.063095689 -0.092508718 0.73450005 -0.5869118571 -0.5016468167 -0.6355193853
0.06738501 -0.1046747 0.70125026 -0.6754513383 0.3826384544 -0.6303596497
0.023669289 -0.12835792 0.6973809 0.2128308266 0.6110772491 -0.762422204
-0.046737127 -0.14376685 0.73338467 -0.8834781051 0.2002680004 -0.4235082269
0.049213436 -0.20494361 0.76900005 0.6689587235 -0.3860777617 0.6351678371
0.050801955 -0.15179747 0.69400001 0.5228347182 -0.09614247829 -0.8469949961
-0.026733784 -0.13193929 0.71071434 -0.6185368299 0.4981732368 -0.6076476574
-0.050035749 -0.19814157 0.76100004 -0.8146993518 -0.242571488 0.5267106295
-0.0062017152 -0.14042044 0.69340003 -0.285618782 0.5346570015 -0.7953388095
0.038976602 -0.081201248 0.74100006 0.265789181 0.5390144587 -0.799261868
-0.040491771 -0.10834285 0.74900001 -0.7651063204 0.4105049968 -0.4960825741
-0.030771 -0.19078019 0.78000003 -0.6725175977 -0.3624415994 0.6452566981
0.02814576 -0.19781382 0.78857142 0.3414416313 -0.5408847928 0.7686749697
-0.037880383 -0.12293743 0.7323125 -0.752899766 0.4217261374 -0.5052613616
-0.026676439 -0.09362407 0.74212116 -0.6524109244 0.4915850163 -0.5768051147
0.027838551 -0.09055528 0.73000002 0.2379339188 0.5986819267 -0.7648316026
-0.016526178 -0.08271876 0.74253845 -0.5076490641 0.6051178575 -0.6132901311
0.04418483 -0.10560114 0.72514582 0.4780672789 0.4905303419 -0.728581965
0.052318614 -0.085185423 0.74467856 0.01552292053 -0.1987024993 -0.9799368978
-0.0029071239 -0.089407049 0.72788894 -0.2474114299 0.6256728768 -0.73981148
0.035562936 -0.1856465 0.79550958 0.4332741797 -0.5054196119 0.7462067604
0.0044709602 -0.2070154 0.78752393 -0.0781045258 -0.5554915667 0.8278458714
-0.017256306 -0.17932568 0.79800004 -0.4392073154 -0.5218601227 0.731272161
0.024926022 -0.10556108 0.71595156 0.1983601451 0.594458282 -0.779276967
0.02334914 -0.14142562 0.69000006 0.2344062775 0.5755673051 -0.7834385633
-0.043942351 -0.18416396 0.7637803 -0.8324164748 -0.216362983 0.5101665258
0.0541576 -0.10532522 0.73512203 0.6170806289 0.2127774805 -0.7575864792
0.080620021 -0.10831304 0.70200002 -0.8613313437 0.3160250187 -0.3977895081
0.045757443 -0.1235254 0.71291828 0.3001348972 0.7215724587 -0.6239008307
0.052322704 -0.18342374 0.78138471 0.6874033213 -0.4594970644 0.5624403358
0.014456532 -0.18460123 0.80327672 0.1028032526 -0.5544548631 0.8258397579
0.058581956 -0.18621401 0.76626319 0.8240139484 -0.3556230068 0.4410592914
0.037357315 -0.13251905 0.70185721 0.3326423466 0.5507612824 -0.7655135989
-0.0047147451 -0.19469078 0.79381484 -0.2346442044 -0.5554738045 0.7977411747
0.053752087 -0.14535905 0.70512837 0.6475822926 -0.0189590212 -0.7617596388
-0.031699505 -0.14353141 0.70713335 -0.6262742877 0.4880657792 -0.6079246402
-0.022711925 -0.10712839 0.72504544 -0.5530370474 0.5175374746 -0.6529203653
0.0051014004 -0.12775289 0.69667655 -0.1044113189 0.6019636989 -0.791667819
0.05918552 -0.11837104 0.69600004 -0.3554593921 0.131498605 -0.9253954291
0.0046200333 -0.11112064 0.71021062 -0.1245240644 0.5895844102 -0.7980501056
0.015611912 -0.083270684 0.73182219 0.07368127257 0.6443413496 -0.7611801624
0.052068185 -0.19346373 0.77347368 0.7070817947 -0.4337077737 0.5585095882
0.064466767 -0.11325513 0.74276668 0.7051411867 0.2195735872 -0.6742131114
0.0046746498 -0.17885971 0.80770004 -0.07549937814 -0.5197227001 0.8509924412
-0.017006837 -0.13324875 0.70110005 -0.4432939887 0.5573866963 -0.7020046115
0.014396288 -0.17303593 0.81134498 0.1122694463 -0.5155813694 0.8494536281
-0.051352505 -0.19027084 0.75100005 -0.8238209486 -0.2456273884 0.5108681321
-0.037753649 -0.16954821 0.78300005 -0.6747507453 -0.3978860974 0.6216092706
0.063450128 -0.087150931 0.72485715 -0.316115886 -0.932728827 -0.1734578907
0.025210528 -0.18811218 0.79768437 0.2330602705 -0.5583130717 0.7962219715
0.071651407 -0.18590897 0.74363637 0.9764037728 -0.04470180348 0.2112756819
0.073657162 -0.097666778 0.70650011 -0.728543818 0.4142352045 -0.5455576181
-0.04267893 -0.14421231 0.72347629 -0.7225521207 0.4410721958 -0.5323286057
0.0049965922 -0.083055407 0.73181397 -0.09870079905 0.6669353247 -0.7385495305
0.03368808 -0.20350784 0.78147078 0.4500124753 -0.4853946567 0.749587059
0.056400124 -0.096895218 0.74126321 0.4977498949 0.3081853688 -0.8107199669
0.060710043 -0.20347871 0.76100004 0.777558744 -0.3839067817 0.4980140626
0.032575052 -0.16832288 0.80528587 0.3603089452 -0.4969050288 0.7894699574
0.025188781 -0.21435542 0.78108501 0.2612030804 -0.5535957813 0.7907620668
0.0050361855 -0.094929188 0.72247642 -0.1039126068 0.6002040505 -0.7930682898
0.034514058 -0.096858509 0.72575682 0.3359494507 0.5650118589 -0.7535911202
-0.021799695 -0.20225927 0.78057146 -0.4909007251 -0.4370188117 0.7536783218
0.051780161 -0.11651187 0.72590917 0.5827423334 0.5135538578 -0.629820466
-0.04406682 -0.13422607 0.73375005 -0.7631412745 0.4140941799 -0.4961263835
0.015112669 -0.10478804 0.71484303 0.06538537145 0.5935705304 -0.8021214604
0.06046107 -0.13899814 0.71100003 0.8744386435 0.1044300497 -0.4737630785
-0.036809117 -0.094197564 0.75448382 -0.7239265442 0.4335825741 -0.5365971923
-0.033334374 -0.21021064 0.77600002 -0.5833659172 -0.3919885755 0.7113572359
0.0070133335 -0.19006133 0.80000001 -0.06553082913 -0.5966940522 0.7997886539
-0.016520889 -0.12216688 0.71056002 -0.4661767781 0.5353220105 -0.7043504715
-0.044711076 -0.10432164 0.76217383 -0.7651063204 0.4105049968 -0.4960825741
-0.0048954058 -0.20543306 0.7857039 -0.2584986687 -0.5420113802 0.7996262312
-0.023182804 -0.17250082 0.80142117 -0.5109351277 -0.4637210965 0.7238149047
0.066241808 -0.17540856 0.78220004 0.7249225974 -0.4068912268 0.5558118224
-0.0025121171 -0.17343092 0.81099993 -0.1424056292 -0.503454864 0.8522052765
0.065232836 -0.12552321 0.70032531 -0.3453923762 -0.05528122187 -0.9368287325
-0.0059248419 -0.11325023 0.71117514 -0.2761264145 0.5700701475 -0.7738050222
0.0049133631 -0.21434741 0.7817024 -0.1009415314 -0.5702303052 0.8152595758
0.064237282 -0.18593244 0.75608009 0.8240139484 -0.3556230068 0.4410592914
0.024168732 -0.11711482 0.70684224 0.2238993794 0.5864835382 -0.7783997059
0.056166019 -0.19560175 0.76538008 0.7638773918 -0.4386648238 0.4733545184
-0.028985729 -0.12198954 0.72100002 -0.6433852315 0.4695377052 -0.6046401858
0.014360897 -0.12794551 0.69706255 0.04434816912 0.6126725078 -0.7890916467
-0.046162002 -0.11473349 0.75353116 -0.7722244263 0.403031975 -0.4911564887
0.014935976 -0.20728125 0.787 0.1093058735 -0.5547296405 0.8248195052
-0.020084433 -0.19045584 0.79000002 -0.5109283924 -0.4958460927 0.7022028565
0.033512447 -0.10714206 0.71787483 0.3491346538 0.5631259084 -0.7489954829
0.062831819 -0.17850575 0.76472735 0.8354333043 -0.3303520083 0.4392251372
-0.036326598 -0.18546951 0.77550006 -0.7215213776 -0.3188584149 0.6146024466
0.014804226 -0.076439105 0.73740023 0.06485087425 0.6694515347 -0.7400196195
-0.030861296 -0.089957394 0.74900001 -0.6678231955 0.4738769233 -0.5739798546
-0.012540042 -0.10878482 0.7179231 -0.3947553039 0.5552248955 -0.7320474982
0.025435256 -0.20539002 0.78507012 0.2974330783 -0.5329296589 0.7921613455
0.021566292 -0.16802748 0.81100005 0.1650929004 -0.4996081889 0.850374043
-0.034474876 -0.11514872 0.73433334 -0.7293695211 0.44304654 -0.5212771297
0.041812818 -0.17261243 0.80215394 0.4572102129 -0.4713841677 0.7541589737
-0.023934297 -0.085669756 0.74579996 -0.6058961749 0.5425411463 -0.581840992
0.068021737 -0.15183808 0.72066671 0.9323895574 0.0979693532 -0.3479248881
0.036225453 -0.19681898 0.7861352 0.4486804605 -0.5053027272 0.7371261716
0.0055372873 -0.076161548 0.73668104 -0.1122077629 0.6974582672 -0.707786262
0.048608538 -0.17757221 0.78728575 0.6256125569 -0.4940596521 0.6037499309
-0.026781855 -0.18591332 0.78553855 -0.6226505637 -0.4269770086 0.6557414532
-0.039067652 -0.11366209 0.74271435 -0.7689291835 0.4139322937 -0.4872452319
0.059131168 -0.15000643 0.71000004 0.5740177035 -0.147811085 -0.8053915501
-0.02624388 -0.11458958 0.72362 -0.6076803207 0.4924508333 -0.6230704784
0.056446288 -0.11476941 0.73275661 0.6408764124 0.3036180735 -0.7050485611
0.042911958 -0.11678547 0.71678561 0.4802512527 0.5653754473 -0.6706037521
0.034219984 -0.12532879 0.70439082 0.3024072051 0.592290163 -0.7468214631
0.044561677 -0.14505838 0.69502199 0.4711247981 0.3355890214 -0.8157336712
0.034815166 -0.085007295 0.73511893 0.2351041734 0.5722355247 -0.7856669426
0.044707615 -0.1348924 0.70439398 0.4406236112 0.486836195 -0.7542157173
-0.035396159 -0.10437598 0.74414998 -0.7557282448 0.4061459601 -0.5137317181
0.0050415001 -0.1047531 0.71509844 -0.1016248092 0.5925080776 -0.7991286516
0.042405482 -0.18369514 0.79181826 0.5014801621 -0.515825212 0.6945804358
-0.023559563 -0.19397908 0.78369778 -0.5279713869 -0.4124686718 0.742371738
-0.0053215404 -0.084602632 0.73376662 -0.2918543518 0.6364533901 -0.7139664888
0.015180303 -0.13457066 0.69273365 0.05485960096 0.6059210896 -0.7936309576
0.056425568 -0.088269815 0.73494124 -0.3497166932 -0.7880299091 -0.5066627264
0.025278661 -0.095380366 0.72429025 0.2049959004 0.5837348104 -0.7856401205
-0.0287985 -0.11071423 0.73000002 -0.6569373608 0.4863094091 -0.5761392713
-0.03296968 -0.13543957 0.71399999 -0.6677024364 0.4760325551 -0.5723341703
0.067731321 -0.093179815 0.71111768 -0.6672074795 0.4954461455 -0.5562080145
-0.031683609 -0.11886577 0.72766668 -0.690400362 0.4655245543 -0.5537456274
0.0530564 -0.12520438 0.71523064 0.4021387398 0.7537989616 -0.5196841359
-0.0029228064 -0.12916672 0.6975556 -0.2430956811 0.5827336907 -0.7754520774
0.038814195 -0.17833658 0.79775 0.4553765655 -0.4890377223 0.7439585328
-0.00063032331 -0.098960765 0.71900004 -0.2410569191 0.592081666 -0.7689804435
-0.019838966 -0.10047477 0.73000002 -0.5404517055 0.5424302816 -0.6431806087
-0.024848845 -0.12514567 0.71396726 -0.5858775973 0.4937340319 -0.6426306963
-0.033136316 -0.19509995 0.77382523 -0.6968272328 -0.3207717538 0.6415117383
0.040800069 -0.20080926 0.78000003 0.5472146273 -0.4712469876 0.6917242408
-0.030885844 -0.12921628 0.71900004 -0.6746610999 0.4552367032 -0.5810266137
-0.036298595 -0.14298403 0.7133103 -0.6936551332 0.4403819144 -0.5700055957
-0.023988878 -0.13608989 0.70481485 -0.5706325173 0.5192117095 -0.6362372041
-0.022485046 -0.18351176 0.79220706 -0.5558482409 -0.4867762625 0.6738557816
-0.016516035 -0.21363597 0.77691668 -0.3645108938 -0.4871149063 0.7936314344
0.041945696 -0.087378539 0.73760009 0.2342278808 0.5404162407 -0.8081383109
0.025250722 -0.13477537 0.6931318 0.251496464 0.5961275101 -0.7624837756
0.062923752 -0.13266632 0.70138097 0.1166576147 -0.2355825007 -0.9648273587
0.067595258 -0.19157997 0.74657148 0.8224889636 -0.3726641238 0.4296898246
0.046554457 -0.18587257 0.78589475 0.6040455699 -0.5071396828 0.6147668958
0.041483868 -0.098603956 0.72800004 0.3450122476 0.4711047411 -0.8118047118
0.074538402 -0.11231846 0.70011109 -0.8086436987 0.3279569447 -0.4884051383
0.047763634 -0.14205396 0.70111769 0.4626145065 0.340834409 -0.8184251785
-0.047229704 -0.19237159 0.75690919 -0.8238209486 -0.2456273884 0.5108681321
0.02162347 -0.20122911 0.79000002 0.2056204379 -0.5551471114 0.8059354424
-0.0093364995 -0.12012963 0.71000004 -0.3840960264 0.5581150055 -0.7355119586
-0.013906426 -0.12623641 0.70484626 -0.4172567725 0.5586017966 -0.7168408632
-0.015043997 -0.20490369 0.78236359 -0.3897487223 -0.4878508449 0.7810873389
0.065361492 -0.14361098 0.7230556 0.9295521379 0.2240514904 -0.2928032577
-0.01572709 -0.14132124 0.69152957 -0.3785106838 0.5522671938 -0.7427856922
0.0049030078 -0.13431159 0.69314319 -0.1175417006 0.5899610519 -0.7988303304
0.044384856 -0.205028 0.77465445 0.6068572998 -0.4598117173 0.6483035088
0.0397656 -0.11046 0.72000003 0.4916231632 0.5360504985 -0.6862627268
0.049864799 -0.1205592 0.72000003 0.5260099173 0.6068797708 -0.5958275795
-0.02573411 -0.17605446 0.79550022 -0.5719261765 -0.4640075862 0.6764594316
0.060710043 -0.19147015 0.76099998 0.8224889636 -0.3726641238 0.4296898246
0.03186157 -0.11937746 0.708 0.3299633563 0.5772455931 -0.7469348907
0.043463115 -0.12785748 0.70746166 0.3209073842 0.5870804787 -0.7432058454
-0.015138267 -0.11512149 0.71529841 -0.4537504911 0.532869339 -0.7142553926
0.019906471 -0.22034402 0.78300005 0.1366716027 -0.5755133629 0.8062910438
0.004881592 -0.19520679 0.79528582 -0.06245123222 -0.5822775364 0.810587883
