# .PCD v0.7 - Point Cloud Data file format
VERSION 0.7
FIELDS x y z normal_x normal_y normal_z
SIZE 4 4 4 4 4 4
TYPE F F F F F F
COUNT 1 1 1 1 1 1
WIDTH 206
HEIGHT 1
VIEWPOINT 0 0 0 1 0 0 0
POINTS 206
DATA ascii
0.021694968 -0.048503052 0.55266666 0.556446135 -0.6724432707 0.4880447984
-0.070105277 -0.16167136 0.54400003 -0.5705443621 -0.5487036705 0.6110674143
-0.080438256 -0.056222778 0.56755549 0.4515963495 -0.7207332253 0.5259318948
-0.023272811 -0.1015946 0.49545166 -0.3513941169 -0.685721755 0.6374228001
-0.029154135 -0.12506849 0.59033334 0.1177145019 -0.8003672361 0.5878397822
-0.0029856346 -0.1506765 0.53766674 0.7085927129 -0.5220460296 0.474725455
-0.081679471 -0.10038666 0.52050006 0.738835156 -0.4525279701 0.4993406534
-0.032349002 -0.060279604 0.54000002 -0.2203809768 -0.7761867642 0.5907337666
0.024098085 -0.084797271 0.51562363 0.250310719 -0.5633164644 0.7874129415
-0.071099184 -0.12642561 0.57372725 -0.5933189392 -0.6873608232 0.4189364314
0.0031619295 -0.086401053 0.5525527 -0.7026381493 -0.4567340314 0.5456131101
-0.035210364 -0.15274675 0.56214935 0.1210417226 -0.6853324771 0.7181004882
-0.054395482 -0.078432865 0.51434213 0.2319162786 -0.7600411177 0.6070851088
-0.013811171 -0.083957493 0.52325588 -0.5076674819 -0.7040183544 0.4966204464
-0.057551313 -0.10145063 0.49307409 0.3826243579 -0.6037687659 0.6993296146
-0.086400762 -0.13073204 0.51600003 0.9995648861 0.004549396224 -0.02914373577
-0.0085252915 -0.13164113 0.56100005 0.6061885357 -0.5926110148 0.5304221511
-0.08109583 -0.13133146 0.54575002 -0.8490656018 -0.3854682446 0.3612503111
-0.0043786997 -0.05609357 0.56565464 -0.355147928 -0.1037325412 0.9290368557
-0.065676153 -0.063667886 0.54293054 0.4657625854 -0.6932066083 0.5500270724
0.0031142384 -0.10682309 0.52072734 -0.5885555744 0.002396769356 0.8084532022
-0.055229999 -0.126766 0.60000002 -0.1594550759 -0.8403542638 0.5180528164
0.032479472 -0.062420126 0.53317243 0.6352148056 -0.5504969358 0.5417150855
-0.042353518 -0.17085795 0.54900002 -0.03800528869 -0.6709039211 0.7405697107
-0.044817489 -0.04572488 0.55350006 0.04909345135 -0.8247428536 0.5633729696
-0.04602005 -0.1391857 0.57755005 -0.1287108064 -0.7864144444 0.6041405797
-0.077617534 -0.11398467 0.5025636 0.6862061024 -0.4215404689 0.5928109288
-0.062351372 -0.14319955 0.56208336 -0.5647639632 -0.6119737625 0.5536512733
-0.071508422 -0.078502305 0.52872735 0.5728381872 -0.6370353699 0.5157929063
-0.034744617 -0.072398357 0.52261293 -0.2039909214 -0.7567249537 0.6210918427
-0.040764999 -0.090734996 0.5 -0.04406645149 -0.6924629807 0.7201063633
0.0042815143 -0.13549551 0.52592856 0.9441515207 -0.01352023613 0.3292341232
-0.0172855 -0.16229424 0.5466333 0.5179686546 -0.6274182796 0.5814247727
-0.022914687 -0.051945824 0.55528563 -0.4182012379 -0.714604497 0.560756743
-0.024553465 -0.13654616 0.5751667 0.3740719855 -0.7310082316 0.5706988573
-0.080521829 -0.072807163 0.55000001 0.5609230995 -0.6416965127 0.5230590701
-0.068516523 -0.091150142 0.51081824 0.5794064999 -0.616671145 0.5329210162
-0.0093338704 -0.098672338 0.50700003 -0.4403156042 -0.69229877 0.5717031956
-0.062250715 -0.048251227 0.55691671 0.3794133961 -0.7406825423 0.5544680953
0.0045051901 -0.070581309 0.57100004 -0.2785829008 -0.2427364439 0.9292311668
-0.015780954 -0.064568043 0.54448193 -0.591986239 -0.6204487681 0.5143886209
-0.054378752 -0.067995943 0.52795649 0.2346739173 -0.7419614792 0.6280297041
-0.025515888 -0.08779493 0.5065943 -0.336428076 -0.7239334583 0.6022761464
-0.07738775 -0.14961632 0.53500003 -0.8590306044 -0.4193501472 0.2936185002
-0.055502906 -0.15600143 0.55448538 -0.3954117596 -0.6229716539 0.6749487519
-0.014211744 -0.14572819 0.55509412 0.575855732 -0.5703120232 0.5857766867
-0.0032746128 -0.090580977 0.53369999 -0.4835850298 -0.7833858728 0.3904511333
-0.0052551292 -0.073094718 0.55222225 -0.6396099925 -0.5089629889 0.5760692358
-0.0037200255 -0.13760139 0.54737496 0.7378488183 -0.4826401174 0.4718449414
0.032696079 -0.074681014 0.5247193 0.5539631844 -0.5851148367 0.5922545195
0.013924304 -0.054572199 0.56376576 0.5516029596 -0.6017643809 0.5775930882
-0.061458934 -0.13121989 0.583 -0.3608860373 -0.7971909046 0.4839916527
-0.075822897 -0.12669761 0.55800003 -0.7137412429 -0.5219929218 0.4670084417
-0.082084931 -0.089134037 0.52900004 0.6153305173 -0.6039677858 0.5065483451
-0.054919016 -0.054820575 0.54493028 0.2726228237 -0.7717497945 0.5745250583
-0.069694996 -0.10037833 0.5 0.5904731154 -0.5216360092 0.615822494
-0.057387799 -0.090976231 0.5021053 0.3042774498 -0.690795064 0.6559095979
-0.04619829 -0.13072652 0.5903334 -0.08639175445 -0.8157642484 0.5718961358
0.014748817 -0.094704315 0.51363719 0.1490847766 -0.6007767916 0.7853922844
-0.069082066 -0.14890344 0.54850006 -0.6412161589 -0.4936086833 0.5875307322
-0.0090736588 -0.078367308 0.53472733 -0.6547840834 -0.6063429117 0.4512272775
0.027256053 -0.052995965 0.54144448 0.7075738907 -0.479408145 0.5191406608
-0.02459817 -0.14533298 0.56463468 0.4188766778 -0.6578654051 0.6259037256
-0.072413743 -0.057603404 0.55723083 0.4438664019 -0.7215406895 0.5313771367
-0.044809416 -0.058659155 0.53665626 0.04154492542 -0.7627540231 0.6453528404
-0.033024713 -0.04923857 0.54766667 -0.1980701685 -0.7962599397 0.5716103315
-0.025053371 -0.15527418 0.55463296 0.4071913362 -0.6329581738 0.6584520936
-0.0053099701 -0.11023645 0.505 -0.4783031642 -0.3649589419 0.7987684608
-0.019687653 -0.12740721 0.58180004 0.3596295118 -0.736504674 0.5729113817
-0.0055376701 -0.092717379 0.52157778 -0.4058715105 -0.7340493202 0.5444629788
-0.043815259 -0.15841155 0.55599999 -0.05822564289 -0.6829497814 0.7281410098
-0.026244042 -0.078710295 0.517138 -0.3477891386 -0.7200886011 0.6004291177
-0.035334453 -0.14238644 0.57366097 0.173943013 -0.7522504926 0.6355022192
-0.035037853 -0.1338467 0.58511257 0.1475833803 -0.7936321497 0.5902263522
-0.044323191 -0.14705999 0.56650019 -0.05995349213 -0.7514624596 0.6570461988
-0.069087476 -0.13721499 0.55500007 -0.7083106637 -0.4871080518 0.5109028816
-0.0031729001 -0.08184009 0.54450005 -0.6753525734 -0.5744761229 0.4624674618
-0.034914609 -0.0821876 0.51122564 -0.2025803626 -0.7552875876 0.6232991815
-0.029271901 -0.066442564 0.53000003 -0.2791873515 -0.7323251963 0.621091187
-0.055910505 -0.16420637 0.5474146 -0.3727347553 -0.646245718 0.6659094095
-0.04545005 -0.072288841 0.52235478 0.1000016704 -0.7592573166 0.6430614591
-0.056102451 -0.13717045 0.5752812 -0.3686887026 -0.7598195672 0.5354837179
-0.014112537 -0.051585652 0.56095004 -0.4849798083 -0.4650117159 0.7406474948
-0.082205288 -0.12158977 0.50782347 0.9470967054 -0.1622847468 0.2768962085
-0.03470818 -0.16472472 0.55191368 0.111223869 -0.6350973845 0.7643824816
-0.045013901 -0.081499249 0.51093179 0.02150689438 -0.7787931561 0.6269119978
0.0014733609 -0.14352112 0.53256005 0.8151555657 -0.3323043883 0.4744420052
0.026803581 -0.066003263 0.52611119 0.5030479431 -0.613227725 0.6090111136
0.0050972416 -0.095720351 0.51421863 0.07807165384 -0.7389836311 0.6691846251
-0.013912367 -0.093133718 0.51351351 -0.512784481 -0.6703409553 0.5363721848
-0.080766425 -0.10753983 0.509 0.7243209481 -0.4097026885 0.5545294285
-0.0014748455 -0.072294906 0.56099999 -0.5089892149 -0.3817586899 0.7714857459
0.0048005502 -0.054878816 0.56541902 -0.0886830315 -0.02067539655 0.9958453178
0.0104937 -0.0604637 0.57000005 0.3294398785 -0.4963041246 0.8032132983
-0.045140624 -0.05405353 0.54457301 0.03834841028 -0.8010043502 0.5974289775
-0.072240368 -0.13192444 0.56461906 -0.6519902945 -0.6010445356 0.4622273147
-0.063899562 -0.13304292 0.57291657 -0.5494732857 -0.6914964914 0.4689475
-0.072869398 -0.066951096 0.54683334 0.5525895357 -0.6461156607 0.526478231
-0.053530414 -0.059318446 0.53669238 0.2257348895 -0.7524262667 0.6187878847
-0.016813558 -0.13307537 0.57347268 0.4447891116 -0.6986106038 0.5604515076
-0.014303391 -0.13653505 0.56514555 0.5357608199 -0.6270258427 0.5655076504
-0.0043770806 -0.102919 0.51249045 -0.323811233 -0.7437508702 0.5847913623
-0.026494553 -0.13244455 0.58277494 0.2666175365 -0.7508087158 0.6043189168
-0.005954056 -0.14535168 0.5448221 0.7297333479 -0.4947817624 0.4718900919
-0.0034220954 -0.064402655 0.56321883 -0.4077780247 -0.2753503919 0.8705741167
-0.034072075 -0.094435655 0.49646485 -0.1809813827 -0.7008928657 0.6899238229
-0.054509535 -0.046800651 0.55394441 0.2911470234 -0.8002108335 0.5243053436
0.011206868 -0.10176697 0.5165 0.1397392005 -0.6901230812 0.710072577
-0.066862531 -0.07227736 0.53191888 0.4817586541 -0.6815428138 0.550824821
-0.017344648 -0.15311778 0.55230361 0.5515988469 -0.5782699585 0.6011177301
-0.056058317 -0.12784836 0.58834374 -0.207431227 -0.8198488355 0.5336855054
-0.024492359 -0.062326934 0.54164833 -0.4062348306 -0.7154371738 0.5684390068
-0.075069293 -0.14548555 0.54402846 -0.7694657445 -0.4526417553 0.4505972564
-0.072115816 -0.097937539 0.50791299 0.6269453168 -0.5429360867 0.5587127805
-0.05363426 -0.15185714 0.56131428 -0.3471706212 -0.6555297375 0.6706365347
-0.011151074 -0.13825499 0.55642861 0.6309527159 -0.5581569076 0.5388501883
-0.035023026 -0.086828046 0.50424677 -0.1628141403 -0.7339513898 0.6593989134
-0.072196491 -0.15403792 0.54252636 -0.6258862019 -0.4943914711 0.6031944156
-0.0686078 -0.051473226 0.56071436 0.4183952212 -0.7409601808 0.5252841711
-0.078040622 -0.093504772 0.52234215 0.625202477 -0.5695093274 0.5336487889
-0.062782913 -0.057546176 0.54718173 0.4355895817 -0.7170083523 0.5442065001
-0.045403738 -0.15403651 0.56276268 -0.08055095375 -0.6769350171 0.7316218615
-0.021206247 -0.14843895 0.55781823 0.5371243954 -0.5780526996 0.6142901778
-0.067523621 -0.082114063 0.52284616 0.5434122086 -0.6347348094 0.5493768454
0.022548305 -0.094025008 0.5151071 0.2496249229 -0.6148341894 0.7481085062
-0.025259851 -0.074280128 0.52367991 -0.3698881567 -0.7192544937 0.5880950093
-0.06592457 -0.13661861 0.56580567 -0.6159029007 -0.6291387677 0.4741815031
-0.027157541 -0.1625011 0.55107892 0.3196338713 -0.6650322676 0.6749565005
0.026785817 -0.057038072 0.53425604 0.6259074211 -0.5733057857 0.528734684
-0.062745355 -0.15359043 0.55247545 -0.537676394 -0.5774390101 0.6143844724
0.031200564 -0.08377637 0.51880008 0.4097901881 -0.596386075 0.6902141571
0.016703604 -0.086418666 0.51357388 0.2132662684 -0.5873789787 0.7807070017
-0.050307516 -0.089678615 0.49900001 0.1332972646 -0.7094998956 0.6919839382
-0.064707547 -0.085370146 0.51446509 0.4770814478 -0.6703964472 0.5682973862
-0.0584791 -0.13937439 0.56820005 -0.5040934682 -0.6827052832 0.5289643407
-0.069432005 -0.060753003 0.55000001 0.4750175178 -0.6995424032 0.533852756
-0.066621736 -0.1457849 0.55514807 -0.6616306305 -0.4938001335 0.5642750859
-0.035553422 -0.045920715 0.5541622 -0.100580439 -0.8197248578 0.5638570189
-0.073868684 -0.085381553 0.52562302 0.5858978629 -0.6193243265 0.5226480961
-0.078323342 -0.10183224 0.51377785 0.7212138772 -0.4610459208 0.516998291
-0.063090168 -0.097528875 0.49746802 0.4840714931 -0.6138445139 0.6235941648
0.003744982 -0.064490445 0.56575727 -0.1905084103 -0.2123444229 0.9584447742
0.012959858 -0.047233641 0.56235141 0.2312938273 -0.9726998806 0.01892484166
-0.061898809 -0.088369533 0.50749999 0.4501835704 -0.6825667024 0.5757060647
-0.078197792 -0.060492631 0.56100005 0.4827871621 -0.6950505376 0.532748878
0.019224862 -0.07916256 0.51600003 0.2615064979 -0.5493866205 0.7935922742
-0.020664785 -0.13917521 0.56800008 0.4303827882 -0.6975730062 0.5728547573
-0.034818534 -0.1577993 0.55670315 0.1697345525 -0.6784557104 0.714764297
-0.065520428 -0.054115519 0.55372304 0.4384760857 -0.7159994841 0.5432158113
-0.070987694 -0.088318028 0.51722229 0.5810997486 -0.6132282019 0.535046041
-0.035247941 -0.077322744 0.51677948 -0.1470011771 -0.7631431222 0.6292878389
-0.035310481 -0.06320063 0.53275013 -0.1353392452 -0.7718397379 0.6212460995
-0.060455371 -0.079091549 0.51850003 0.4217695296 -0.6963499784 0.5806953907
-0.016347889 -0.055486426 0.55512506 -0.5284172893 -0.6496037841 0.5466169119
-0.044964917 -0.13502719 0.58450562 -0.04221255705 -0.8128738403 0.5809081197
-0.028114552 -0.15122983 0.56100005 0.3572565019 -0.6444118619 0.6760925651
-0.052787378 -0.1425674 0.57155883 -0.3299294114 -0.7451482415 0.5795693994
-0.016751438 -0.077999935 0.52636164 -0.5277017951 -0.6692749262 0.5230696201
-0.015596628 -0.096521258 0.50385088 -0.4533520639 -0.6638699174 0.5947677493
-0.013583178 -0.15598115 0.54664218 0.6331804991 -0.581012249 0.5113777518
-0.064213216 -0.076248258 0.52568251 0.4689234197 -0.6866813898 0.5554993153
-0.013506585 -0.060780395 0.55025005 -0.5687199235 -0.5903459191 0.5727558732
-0.075155959 -0.10470327 0.5053699 0.677342236 -0.4721285701 0.5641826987
-0.066575542 -0.155974 0.54669344 -0.586820066 -0.544208765 0.5995656848
-0.044815365 -0.085697733 0.50508237 0.04180981591 -0.7521393299 0.6576764584
-0.035625923 -0.12586911 0.5933699 0.06697441638 -0.8077099323 0.5857636333
-0.059339374 -0.060762204 0.54150003 0.3762128949 -0.7249856591 0.5769398808
-0.0087378165 -0.14203307 0.55090916 0.7061374187 -0.5018039346 0.4995625317
-0.045118798 -0.16422562 0.55216676 -0.1094384864 -0.637424469 0.762701273
-0.0049351286 -0.09668465 0.51575345 -0.315195322 -0.7456123829 0.5871235728
-0.027456742 -0.1415845 0.57121748 0.3544976711 -0.7127820849 0.6052049994
-0.065559171 -0.094099194 0.505229 0.525911808 -0.6240149736 0.5779464841
-0.01714802 -0.08726459 0.51543182 -0.4687394202 -0.7045263052 0.5328470469
-0.05511342 -0.095043048 0.49694738 0.2823133767 -0.6936914325 0.6626396775
-0.034782283 -0.14692257 0.56588894 0.1949919462 -0.7251690626 0.6603847146
-0.050535448 -0.04957287 0.54900002 0.1996750981 -0.7869410515 0.5838267207
-0.054246515 -0.13294947 0.58402973 -0.2479741722 -0.8041259646 0.5402687192
-0.03497988 -0.054642491 0.54381448 -0.1952256262 -0.7776550651 0.5976115465
-0.05562168 -0.14586048 0.56412506 -0.4154592752 -0.6895513535 0.5932221413
-0.041466333 -0.0506275 0.55000001 -0.01432596054 -0.8072391748 0.5900505781
0.027088385 -0.073848814 0.52095395 0.4229648709 -0.5953889489 0.6830905676
-0.018428409 -0.067570835 0.53900003 -0.5358223915 -0.660394907 0.5260921121
-0.063875578 -0.067873053 0.53607684 0.4440426528 -0.691524446 0.5697544217
-0.065335564 -0.10358157 0.49549991 0.5372827649 -0.5288943648 0.656961143
-0.074909888 -0.06323994 0.55297363 0.4962809682 -0.6857480407 0.5324047208
-0.074045368 -0.094681367 0.51342618 0.6080164909 -0.5932394266 0.5276201367
-0.010643485 -0.14852412 0.54828578 0.669039011 -0.5332224369 0.5177457333
0.020020436 -0.053225063 0.55700004 0.556446135 -0.6724432707 0.4880447984
-0.058428079 -0.051087223 0.55080003 0.3461464345 -0.7460835576 0.5688074827
-0.0071263905 -0.153969 0.54161829 0.6912794709 -0.5438272953 0.4757988751
-0.085403539 -0.12540939 0.51213717 0.9905446172 -0.06226949394 0.1222451031
-0.060752124 -0.069099739 0.52900004 0.4268191159 -0.7001207471 0.5724127889
-0.056110185 -0.073374473 0.52468836 0.27748999 -0.7339094877 0.6199808121
-0.044615522 -0.067568436 0.52677411 0.07734989375 -0.7605626583 0.6446405649
-0.076870576 -0.13589849 0.547647 -0.7890410423 -0.4404703677 0.428252399
-0.071562149 -0.10634346 0.49860707 0.6121644378 -0.4777532518 0.6300845742
-0.017127937 -0.1423723 0.56374288 0.5365043283 -0.6221725345 0.5701442361
-0.075329304 -0.054549243 0.56417561 0.4438664019 -0.7215406895 0.5313771367
-0.01845544 -0.058884975 0.54683334 -0.5057393312 -0.6685513258 0.5452218652
-0.071324579 -0.14274704 0.55228007 -0.6967920065 -0.4704210162 0.5414655805
-0.014111417 -0.07569465 0.53216285 -0.5852853656 -0.6451081038 0.4911991358
-0.024304062 -0.092195541 0.50234431 -0.3793842793 -0.6940475106 0.6118542552
-0.024958914 -0.12724282 0.58631581 0.2174669057 -0.7808724046 0.585616231
-0.044730388 -0.12599416 0.59401178 -0.04888005182 -0.8277239203 0.5590025187
-0.034806523 -0.068038948 0.52785194 -0.1776104122 -0.7663217783 0.6174183488
-0.024508046 -0.083231062 0.51343018 -0.3691406548 -0.7154210806 0.593218267
