# .PCD v0.7 - Point Cloud Data file format
VERSION 0.7
FIELDS x y z normal_x normal_y normal_z
SIZE 4 4 4 4 4 4
TYPE F F F F F F
COUNT 1 1 1 1 1 1
WIDTH 206
HEIGHT 1
VIEWPOINT 0 0 0 1 0 0 0
POINTS 206
DATA ascii
0.073917992 -0.13235526 0.67587101 0.6397686005 0.6846038103 -0.3493047357
-0.0050168126 -0.17208003 0.77340001 -0.3323110342 -0.7161442041 0.6137645245
-0.033441182 -0.15164164 0.67305541 -0.7371068597 0.4659133852 -0.4894877076
0.057293233 -0.21552952 0.71816665 0.5982507467 -0.520757556 0.6090218425
0.012929797 -0.081054777 0.69045454 -0.2128643245 0.7224440575 -0.6578475237
-0.023846157 -0.20266208 0.71487498 -0.7080039978 -0.3583957851 0.6085086465
0.025877507 -0.14079109 0.63407147 0.06327601522 0.706614852 -0.7047634721
-0.030499233 -0.11141557 0.71000004 -0.7571966052 0.4535626173 -0.4700364769
0.045029666 -0.17610358 0.75589579 0.3874081075 -0.5596836209 0.7325770855
0.085324094 -0.1869733 0.68482608 0.9756430387 -0.05325467885 0.2128016502
0.061744802 -0.088234544 0.69733334 0.3985572159 0.5928499699 -0.6997721195
-0.0036330125 -0.11748267 0.66672724 -0.4513355792 0.6116776466 -0.6497281194
0.015006591 -0.20725451 0.73724341 -0.0731433481 -0.574814558 0.8150081635
0.094574928 -0.09713614 0.67362791 -0.584648788 0.6058034301 -0.5396184325
0.073524281 -0.17937389 0.72300005 0.7995494008 -0.409335196 0.4395059347
0.042564921 -0.10912822 0.6677143 0.2892052829 0.5981625319 -0.7473700047
-0.018391592 -0.17764574 0.73736364 -0.6831442714 -0.3965473771 0.6132406592
0.082405239 -0.11315949 0.70290923 -0.3817320466 0.05075804517 -0.9228782654
0.054710325 -0.14356372 0.64716673 0.4516029954 0.6075075865 -0.653444171
-0.0041369228 -0.14137855 0.64369237 -0.4377492368 0.586981833 -0.6810491681
-0.013891484 -0.085922517 0.70596004 -0.6270412803 0.5497213006 -0.5519290566
0.04340576 -0.20143817 0.74100012 0.3684136868 -0.5699563026 0.7344530225
-0.025277259 -0.12477631 0.68429178 -0.7531241179 0.4757699966 -0.4543643296
0.080949649 -0.16012667 0.67400002 0.9801949263 0.0399376601 -0.1939662546
0.096469998 -0.12312896 0.66109103 -0.7089875937 0.5350871086 -0.4593673348
0.015291221 -0.18620856 0.75558311 -0.1647101045 -0.5863500834 0.793135643
0.024682131 -0.12310344 0.65226251 -0.002751497086 0.6640171409 -0.7477123141
-0.032160517 -0.17735828 0.71700007 -0.7347592711 -0.3539210558 0.5786783695
-0.005850873 -0.21437296 0.72605008 -0.4908530116 -0.4559669197 0.7423998117
0.035340626 -0.22113521 0.73030001 0.2157328427 -0.5476065874 0.8084468842
0.073534548 -0.20339923 0.70594281 0.822180748 -0.410946995 0.39387995
0.014204158 -0.10293928 0.6720385 -0.1964963824 0.641407907 -0.7416098118
0.035652392 -0.090769529 0.68062508 0.1684009135 0.6413072348 -0.7485761046
-0.0036657609 -0.096742243 0.68584096 -0.4896605611 0.5875507593 -0.6442178488
-0.002888982 -0.19409433 0.74186099 -0.4735950828 -0.5196896195 0.7110769153
0.063409157 -0.17814808 0.74316669 0.5853586197 -0.4990816116 0.6389622688
-0.020220317 -0.13923132 0.65900004 -0.6768068075 0.4923868477 -0.5472546816
0.066596881 -0.11333531 0.68362856 0.6610313058 0.4383625984 -0.6089957356
0.077449292 -0.12908038 0.65439999 -0.1863294095 0.4569276571 -0.8697692156
0.044739049 -0.12573655 0.65531015 0.3359868228 0.6085640192 -0.7188620567
0.080917604 -0.18275233 0.70363635 0.8504918814 -0.3705812693 0.3732734621
-0.0051136813 -0.17453399 0.75387114 -0.4497531354 -0.6667232513 0.5943081379
0.062020943 -0.19301143 0.73094732 0.6463581324 -0.5326418281 0.5463641286
0.083006561 -0.098155983 0.69114292 -0.498716712 -0.01820172183 -0.8665739298
0.082693249 -0.13156663 0.69218183 0.7651380897 0.3132708967 -0.5625166893
0.068730488 -0.1509264 0.6566 0.6646476388 0.2083813399 -0.7175101042
0.0085343495 -0.12915316 0.64900005 -0.2543238401 0.6662738323 -0.7009983063
-0.021245286 -0.1073344 0.69566661 -0.7423194051 0.451736778 -0.494869411
0.025205994 -0.19691348 0.74687499 0.03018735722 -0.6330683231 0.7735071182
0.059324034 -0.12041017 0.67000002 0.5651016235 0.543510735 -0.6206901073
0.050596815 -0.099407859 0.67900002 0.4354104102 0.5696507692 -0.6970766187
0.045688774 -0.082658999 0.69140631 0.3144873083 0.6879011989 -0.6541327834
0.024797635 -0.17559245 0.76375937 -0.007561820559 -0.6093569994 0.7928599119
-0.033640854 -0.19154185 0.708 -0.717068553 -0.357310921 0.5984492898
0.016412117 -0.22264938 0.73286366 -0.07287604362 -0.5617969632 0.8240590096
0.035033777 -0.1345268 0.64481699 0.2096207738 0.711380899 -0.6708176732
0.10118596 -0.10905755 0.66525 -0.6401748657 0.5233972669 -0.5623445511
-0.03440287 -0.13468048 0.69172722 -0.7987245321 0.4279517233 -0.4229615033
-0.0089683002 -0.11060903 0.68200004 -0.5794945955 0.5475636721 -0.6036224365
-0.011306078 -0.20073621 0.73000002 -0.6106178761 -0.438139528 0.6596813798
-0.02449837 -0.094089344 0.71309525 -0.7278001308 0.4732312858 -0.4963457584
0.073638491 -0.094762437 0.70395994 -0.09080541134 -0.1697466373 -0.9812952876
0.011221333 -0.14082773 0.64000005 -0.1822306365 0.6777181625 -0.7123833895
0.049142424 -0.2061429 0.7280001 0.5125392675 -0.5253640413 0.6791877747
0.065683946 -0.13486972 0.66371149 0.4197017848 0.6098101139 -0.6722961068
-0.028842336 -0.12211967 0.70000005 -0.7788692713 0.4383342862 -0.4485819042
0.0060279598 -0.16945265 0.76400006 -0.2401746064 -0.7223347425 0.6484972835
0.045761518 -0.14439255 0.63550001 0.3569433987 0.6672500968 -0.6537344456
0.068883903 -0.1961268 0.717421 0.7835561037 -0.4239904583 0.4541717172
0.03742753 -0.18976414 0.74900001 0.2526496947 -0.6003626585 0.7587705851
-0.0033971155 -0.12812036 0.65733331 -0.454780519 0.6106008291 -0.6483373642
0.025020659 -0.11311943 0.66218311 0.03543813527 0.64606601 -0.7624584436
0.0079646921 -0.11878675 0.6584 -0.2877754867 0.6451259851 -0.7078119516
-0.0037140981 -0.086227231 0.69493204 -0.4722774625 0.6352540255 -0.6110697985
-0.024291178 -0.13489917 0.67491305 -0.7508350611 0.4454682469 -0.4876523018
-0.0191464 -0.18954936 0.72800004 -0.7122176886 -0.3807148039 0.5897476077
0.060917813 -0.099519201 0.68800002 0.4946791232 0.5099360347 -0.703745544
0.07922215 -0.19418539 0.69638467 0.8282569051 -0.406091392 0.3861091733
-0.016931251 -0.12360027 0.67354757 -0.6469141841 0.5352156162 -0.5431815982
0.014506281 -0.091221541 0.68172729 -0.1900562197 0.6575853229 -0.729013145
0.052939683 -0.19194819 0.74168426 0.504480958 -0.5700771809 0.6484681368
-0.036885861 -0.12388626 0.71012503 -0.7811895609 0.4377671778 -0.4450873137
0.025876276 -0.080586113 0.69000006 0.01868637279 0.70477736 -0.7091824412
0.08135511 -0.14078581 0.65816671 0.04379436746 -0.2551780641 -0.965901792
0.025079083 -0.096320875 0.67593223 -0.01210258901 0.6488331556 -0.7608344555
-0.013159974 -0.096207649 0.69413358 -0.6595913768 0.5285211802 -0.5344198942
-0.03307496 -0.14325559 0.68238103 -0.7872552872 0.4318352938 -0.4401674867
0.005424466 -0.21450508 0.7313174 -0.2353874147 -0.5375550985 0.8097081184
0.075492814 -0.15156218 0.66642112 0.7654662132 0.221452266 -0.6041691303
0.074770652 -0.10454758 0.69620007 0.06091314927 0.1284421533 -0.9898445606
0.08885815 -0.11452132 0.66200006 -0.5742842555 0.5206438899 -0.6317654252
0.073656984 -0.1244057 0.68420684 0.7355496883 0.3331213892 -0.5899125934
0.070138596 -0.17952906 0.73400003 0.7273246646 -0.4563087523 0.5126218796
0.024755184 -0.21499525 0.73379052 0.03339374065 -0.5655062199 0.8240677118
0.0060199182 -0.097755238 0.67795652 -0.3306365013 0.6189903021 -0.7124117613
0.034317203 -0.11790675 0.65806895 0.1686756909 0.643186748 -0.7468998432
0.055262282 -0.13460165 0.65357405 0.4474808574 0.5965309143 -0.6662669778
0.074238233 -0.11476817 0.69220012 0.6322325468 0.2535818517 -0.7321053743
0.0036328484 -0.18873352 0.74873328 -0.3436197639 -0.5575110316 0.755716145
0.045650017 -0.21613795 0.72597963 0.428863734 -0.544644773 0.72072047
0.035487302 -0.20728227 0.73671442 0.2153181732 -0.5723121762 0.7912628055
0.06182804 -0.20252921 0.72236377 0.6727199554 -0.4825420678 0.5608930588
0.075653411 -0.18520093 0.7142449 0.8275772929 -0.3992993832 0.3945577741
0.0064032981 -0.20209056 0.74100012 -0.2846466601 -0.5539150238 0.7824029922
0.032922704 -0.18163358 0.76125002 0.1562095135 -0.6076360345 0.7787021399
0.092557527 -0.13220391 0.65781248 0.1029839218 -0.06212851778 -0.9927408099
0.014845922 -0.19599734 0.74731916 -0.1310355067 -0.6051102281 0.7852842212
-0.032275356 -0.201721 0.708 -0.7128130794 -0.3681743145 0.5969465375
0.034739669 -0.14116436 0.62900001 0.1801546216 0.6996916533 -0.6913579702
0.014643528 -0.17554912 0.76367724 -0.09306550026 -0.6926988363 0.7151972651
0.0056795906 -0.087262496 0.6870001 -0.3570806384 0.6549910903 -0.6659430265
-0.024635825 -0.10489156 0.70497876 -0.7411637306 0.4654960036 -0.4837249517
0.035217311 -0.10324799 0.6713202 0.1685901284 0.6225351095 -0.7642168403
0.014928623 -0.11304028 0.66284603 -0.1811242104 0.6568620205 -0.7319332361
0.025302298 -0.13371387 0.64312094 -0.009424760938 0.7097927928 -0.7043474913
0.025153691 -0.1860185 0.75514305 0.03742144629 -0.6241255403 0.7804273963
-0.012597776 -0.18342724 0.74278265 -0.5956919193 -0.4604820311 0.6581089497
0.06804546 -0.18682203 0.72610009 0.7482350469 -0.465578407 0.4726320207
0.047059275 -0.18758777 0.7478888 0.400477618 -0.5713614225 0.7163545489
0.082454428 -0.18461065 0.6936667 0.9683471322 -0.1038805395 0.2269640267
0.03542994 -0.080961861 0.69038463 0.167666778 0.7062550783 -0.6878165603
-0.027908722 -0.14357956 0.6732381 -0.7353253365 0.4546949863 -0.5025426745
-0.028233508 -0.1860483 0.71708685 -0.7359392643 -0.3539186716 0.5771784186
0.050664321 -0.089868851 0.68800002 0.3720986545 0.6382578015 -0.673920989
0.0442065 -0.1354045 0.64655834 0.34441486 0.6806622148 -0.6465889812
0.014779232 -0.12404941 0.65361774 -0.1816773266 0.6600360274 -0.7289347053
0.0017635903 -0.11109444 0.67050004 -0.3831135631 0.6158056855 -0.6884819269
-0.027581871 -0.17819791 0.72473687 -0.7347592711 -0.3539210558 0.5786783695
-0.026898764 -0.15027732 0.66700006 -0.7126839161 0.4720699787 -0.5188753009
-0.0032365439 -0.10636769 0.67672521 -0.4547767341 0.5935622454 -0.6639743447
-0.01634628 -0.13288808 0.66383773 -0.6475234032 0.5082694888 -0.5677812099
-0.019023666 -0.10002767 0.70000005 -0.7126842737 0.4750336707 -0.5161628723
0.068523116 -0.14269613 0.66100001 0.5735400319 0.2661048472 -0.7747516036
0.025627414 -0.22137678 0.72794735 0.06990037113 -0.5494054556 0.8326269388
-0.002342161 -0.1825102 0.75188887 -0.4315502942 -0.6403745413 0.6353619695
0.06613481 -0.12447024 0.6735 0.6116791964 0.6145378947 -0.498188436
0.065825388 -0.20524152 0.71519291 0.7171749473 -0.4484023452 0.5334748626
0.051376171 -0.15077791 0.63700002 0.4442475736 0.6460958123 -0.6206482649
0.024178218 -0.20737775 0.73780966 0.02858315594 -0.570281744 0.8209517002
0.090016134 -0.10074653 0.68000001 -0.6165071726 0.6276298165 -0.475394249
0.055488493 -0.12424782 0.66330194 0.4899721444 0.5704171658 -0.6592052579
0.039503183 -0.14059921 0.64066672 0.2328900099 0.7155954838 -0.6585479379
-0.028415527 -0.13381083 0.68235004 -0.7774009705 0.4394855201 -0.4500002563
0.075644732 -0.19533645 0.70406532 0.8282569051 -0.406091392 0.3861091733
0.067637637 -0.10333095 0.69173348 0.484963119 0.4520760477 -0.7486240864
0.002862042 -0.17582877 0.75650001 -0.2944892943 -0.7162627578 0.63264817
0.05437883 -0.085289694 0.69432741 0.4066247046 0.6252038479 -0.6661655307
-0.0067776036 -0.083126321 0.70239294 -0.5181186199 0.6150420308 -0.5943706036
0.077823728 -0.12470222 0.69210517 0.7719474435 0.07124729455 -0.6316810846
0.051352505 -0.18105358 0.75100005 0.4660349786 -0.5345176458 0.7050548196
0.055697154 -0.11325542 0.67248881 0.4992621541 0.538946569 -0.6784349084
0.086109117 -0.12686038 0.6575582 -0.3652147353 0.4415175915 -0.8195611238
-0.013510214 -0.11644883 0.67623919 -0.5974945426 0.5431436896 -0.5899112225
-0.004891301 -0.2046234 0.73364627 -0.488081336 -0.4700303376 0.7354237437
-0.0019146398 -0.22146003 0.7280001 -0.3532119989 -0.5408801436 0.7633413076
0.062957741 -0.11633818 0.67627025 0.6049273014 0.5014959574 -0.6185182333
-0.0090093277 -0.14083473 0.65040004 -0.5071607232 0.547314465 -0.6657589078
0.0056505874 -0.13569924 0.64495116 -0.2899087369 0.6620815396 -0.6910867691
-0.022738541 -0.11712103 0.68577272 -0.741302073 0.4814434052 -0.4676360488
-0.016356789 -0.18570425 0.73588651 -0.6851465702 -0.4215628803 0.5940192342
-0.031402197 -0.12760308 0.69457144 -0.7777373791 0.447712332 -0.4412235618
0.045745485 -0.093036495 0.68235564 0.3034506738 0.6257407665 -0.718586266
-0.0088496571 -0.18930447 0.73866671 -0.5765350461 -0.4782705605 0.6624685526
0.025105955 -0.10275836 0.67105407 -0.02427193336 0.6340138316 -0.7729407549
0.061924178 -0.13778847 0.65672225 0.4023462236 0.5956766009 -0.6951884031
0.058744054 -0.13132355 0.6615715 0.4620878398 0.6074543595 -0.6461223364
0.018445242 -0.13851018 0.6376 -0.06293059886 0.7336490154 -0.6766083241
0.0087776249 -0.1088421 0.66750002 -0.309640646 0.6350784898 -0.7076708078
0.08097288 -0.17876416 0.7105 0.8372407556 -0.3957319856 0.3773911893
0.047906008 -0.12158172 0.66127282 0.3957621753 0.5949286222 -0.6995943189
-0.010402527 -0.089951262 0.69800001 -0.6011054516 0.559499681 -0.5706420541
0.053541936 -0.10647786 0.67581826 0.4778397977 0.5452167988 -0.6887726188
0.054792412 -0.1848201 0.74436772 0.5053675771 -0.5397844911 0.6732282639
0.015098189 -0.21492936 0.73273343 -0.1002795845 -0.5675734878 0.8171929717
0.055604789 -0.19576633 0.73447633 0.560829401 -0.5476817489 0.6208986044
0.064141944 -0.095552176 0.69389147 0.4433939159 0.5157520175 -0.7330768704
0.064704157 -0.18508738 0.73462003 0.6741004586 -0.5072270632 0.5369443893
0.0047300262 -0.10459871 0.67363018 -0.3474880755 0.618590951 -0.7046965957
0.0013043705 -0.12146863 0.66137505 -0.4015433192 0.6208981872 -0.6732372642
0.016790671 -0.12868021 0.64771432 -0.1170218661 0.6946591139 -0.7097566724
-0.014429156 -0.20482318 0.72418523 -0.6280871034 -0.4168183804 0.6570913196
-0.024459176 -0.11402646 0.69260001 -0.7679359317 0.4514772892 -0.4543596506
0.014741397 -0.13454989 0.64304686 -0.1601184458 0.7013735175 -0.6945770383
0.0037824572 -0.082783647 0.69294888 -0.3515351713 0.6679999828 -0.6558956504
0.035259698 -0.12417465 0.65372747 0.1960735321 0.6362918019 -0.7461152077
-0.016676584 -0.11305504 0.68235898 -0.6682357788 0.5111039877 -0.540586412
0.0052301805 -0.19529003 0.74506944 -0.2978576124 -0.5771673322 0.7603674531
-0.0057339128 -0.13433671 0.6535002 -0.4686319828 0.5934364796 -0.6543830633
0.063391455 -0.10611548 0.6849767 0.5112679005 0.4801974595 -0.7127521038
-0.026303666 -0.19542351 0.71522003 -0.717068553 -0.357310921 0.5984492898
-0.0059693716 -0.12385185 0.6631074 -0.4767341316 0.6084544063 -0.6344350576
-0.016816612 -0.093408689 0.70306897 -0.6817789078 0.5016092062 -0.5325088501
0.05663164 -0.10313347 0.68193114 0.5065420866 0.5192771554 -0.6883068681
0.03544819 -0.19609824 0.74525809 0.2153090984 -0.6273229122 0.7484036088
0.057036202 -0.092494003 0.69117397 0.4505782127 0.5683304071 -0.6884619594
0.0058000269 -0.18432742 0.75447476 -0.3257314265 -0.6186505556 0.7149618864
0.065194197 -0.19532362 0.7245217 0.7194871306 -0.4655338526 0.5153799653
-0.0061421455 -0.092698403 0.69168764 -0.5444074273 0.5820173621 -0.604049921
-0.013237609 -0.19401811 0.73277426 -0.6350223422 -0.4361721277 0.6375738978
0.00202773 -0.17100523 0.77100003 -0.2401746064 -0.7223347425 0.6484972835
-0.0098511036 -0.13038225 0.66100001 -0.5377210379 0.5846375823 -0.6074989438
0.035420295 -0.18546067 0.75481111 0.2282845825 -0.6054061055 0.7624759674
-0.00066363666 -0.16922735 0.75700003 -0.3258756101 -0.7300506234 0.6006922722
-0.014141826 -0.17667712 0.74564302 -0.5927065015 -0.4890578985 0.6399385333
-0.022042237 -0.1275271 0.67735291 -0.7205423713 0.4991842806 -0.4812833965
0.049363345 -0.19831632 0.73766667 0.4689414799 -0.5704012513 0.6743413806
