# .PCD v0.7 - Point Cloud Data file format
VERSION 0.7
FIELDS x y z normal_x normal_y normal_z
SIZE 4 4 4 4 4 4
TYPE F F F F F F
COUNT 1 1 1 1 1 1
WIDTH 206
HEIGHT 1
VIEWPOINT 0 0 0 1 0 0 0
POINTS 206
DATA ascii
0.026799632 -0.13844314 0.54746145 0.504707396 -0.6703579426 0.5439583063
-0.0053159604 -0.041326854 0.54103339 0.1726234406 -0.7981904745 0.577142179
-0.018949734 -0.10064104 0.48033336 0.3606594205 -0.7342777848 0.5751181841
0.076094665 -0.069221601 0.56 -0.565561533 -0.6517491341 0.5053347945
0.040672131 -0.0872458 0.50246662 -0.6329470873 -0.5480332375 0.5468432307
-0.033799008 -0.11924551 0.54300004 -0.7984176278 -0.3774673045 0.4690924883
0.081286028 -0.11638514 0.51614273 -0.6037352085 0.1979650706 0.772213459
-0.01339764 -0.16200125 0.53360879 -0.3290275335 -0.6713540554 0.6640968919
-0.0034832659 -0.12108755 0.58053845 -0.1528834999 -0.8067458868 0.5707781911
-0.031454802 -0.078864932 0.52000004 0.5639926791 -0.6390327215 0.5230194926
0.037583336 -0.051359598 0.54018182 -0.5235159993 -0.6976057887 0.4891596735
0.0049799928 -0.068016239 0.50603336 0.00875146687 -0.7665006518 0.6421838403
-0.040593609 -0.140275 0.51450002 -0.7566779852 -0.4404349625 0.4831722677
0.041030627 -0.15109563 0.51757139 0.7218589783 -0.4878599942 0.4908280671
0.014627103 -0.090549469 0.4816364 -0.1958521307 -0.6384021044 0.7443686128
-0.0056133149 -0.13833559 0.55551094 -0.2403758615 -0.7400225401 0.6281608343
0.014585829 -0.16281182 0.53336704 0.2719497383 -0.6729702353 0.6878622174
0.090397477 -0.085631929 0.54366666 -0.4402788877 -0.6828285456 0.5830091238
0.03127389 -0.067544289 0.51836371 -0.5273100734 -0.6111739874 0.5902630091
0.055157587 -0.12152948 0.51197147 0.4020851254 0.09268254042 0.9108992815
0.021023782 -0.12614444 0.57100004 0.2170714289 -0.7576227188 0.6155385971
0.055506267 -0.084155329 0.56077272 -0.5244942307 -0.6939923167 0.4932347238
-0.020908499 -0.057614531 0.53000003 0.4278199077 -0.6905768514 0.5831584334
0.015058827 -0.049226493 0.52894753 -0.1571927369 -0.7750663757 0.6120151877
-0.0067417948 -0.08192502 0.49165997 0.2456743717 -0.7360736728 0.6307453513
-0.028840872 -0.091207527 0.50100005 0.5684014559 -0.6474937201 0.5076137185
-0.029162318 -0.13957499 0.53366667 -0.7819308043 -0.3800953329 0.494076699
-0.021404328 -0.12481061 0.56151724 -0.5818936229 -0.6008299589 0.5480903983
0.050601199 -0.092996798 0.52000004 -0.6815853119 -0.4985941947 0.5355793834
0.020997919 -0.079179659 0.49900001 -0.4094138145 -0.6768598557 0.6117524505
-0.0062451549 -0.059290063 0.51825005 0.2184536606 -0.7446398735 0.6307054758
0.040637005 -0.12994392 0.53900003 0.698620677 -0.5359582305 0.4740020633
-0.01701282 -0.071802959 0.51121747 0.4552522302 -0.6778725386 0.5772644281
-0.015859738 -0.14551404 0.54363275 -0.4132852554 -0.6097366214 0.676325798
0.033108938 -0.14468443 0.5331232 0.6785937548 -0.500565052 0.5375362039
0.0050869784 -0.14789054 0.54743636 0.04444889724 -0.7092779875 0.7035261393
0.041173659 -0.064606555 0.53138471 -0.548748076 -0.5772128105 0.6047320962
0.0054774131 -0.12996408 0.56800002 -0.04334556684 -0.7734619379 0.6323589087
-0.02067443 -0.04887259 0.54340011 0.3374352157 -0.7127761245 0.6148883104
0.03112342 -0.16083209 0.52466673 0.5910487771 -0.5172426105 0.6189680696
-0.033470258 -0.12975456 0.523 -0.7819308043 -0.3800953329 0.494076699
0.020829599 -0.15006781 0.54000002 0.4343113899 -0.610462606 0.662351191
-0.027345059 -0.15349694 0.52869576 -0.6878701448 -0.5126677155 0.5138156414
-0.0025164091 -0.048919372 0.52857149 0.2423682362 -0.764539659 0.5972744226
0.040779378 -0.078743249 0.51800001 -0.6589215994 -0.5388339162 0.5248622298
0.041128818 -0.13750829 0.52214283 0.7667789459 -0.444737345 0.462880969
0.02906598 -0.12892708 0.55777782 0.4469338357 -0.7210461497 0.5294739008
0.014054332 -0.058118567 0.51794457 -0.1795577556 -0.7475361824 0.6394909024
-0.031188296 -0.10125325 0.48733336 0.4988608658 -0.6884642839 0.5264549255
0.026111195 -0.043282419 0.54100007 -0.2674906254 -0.7379675508 0.6195584536
0.020020876 -0.068070099 0.50750005 -0.3479269445 -0.7021173835 0.6212712526
0.015531318 -0.13875028 0.55577779 0.2838038206 -0.7568998337 0.588691771
-0.018307431 -0.090847388 0.49020004 0.4639162421 -0.704077363 0.5376399755
0.0057836627 -0.077125177 0.49557137 -0.005695025437 -0.7452263832 0.6667872667
0.032495968 -0.078318097 0.5077647 -0.5559082031 -0.6186629534 0.555177629
0.079117909 -0.081916742 0.55857146 -0.5138984323 -0.6860747933 0.5149852037
-0.013078273 -0.12245747 0.57199997 -0.291998446 -0.7555343509 0.5864339471
-0.0091955317 -0.091371104 0.48120004 0.2510430515 -0.708722353 0.6593102813
0.065090053 -0.07523533 0.56246811 -0.5704841018 -0.6463679075 0.5067113638
-0.0050507197 -0.15235898 0.54195398 -0.1969724447 -0.6716943383 0.7141628265
-0.023615185 -0.13607252 0.54520756 -0.6679517627 -0.4910606742 0.5591956973
-0.034797773 -0.091970198 0.51145452 0.8151353598 -0.4671295583 0.3425555229
-0.012319632 -0.13238752 0.56350005 -0.3161715567 -0.7348353863 0.6000437737
0.0046074563 -0.08516518 0.485154 0.01693379693 -0.7046132088 0.7093895078
0.031158924 -0.059188589 0.52850002 -0.4186595976 -0.6481002569 0.6361526251
0.0052467654 -0.04393268 0.53576338 0.07212501019 -0.8303536177 0.5525493622
0.064702384 -0.11557184 0.509 0.182371214 0.2372674197 0.9541723728
-0.03341813 -0.14512886 0.52343547 -0.7321603298 -0.4498766661 0.5114217997
-0.019902524 -0.080494218 0.50450003 0.5367327332 -0.6580297351 0.5281239152
-0.0050982391 -0.072059222 0.50351781 0.2494474351 -0.7395550013 0.6251674294
-0.012759041 -0.048347991 0.53588468 0.2423682362 -0.764539659 0.5972744226
0.032516606 -0.090749741 0.49618745 -0.5704367161 -0.6114604473 0.5483776331
-0.028444394 -0.083105475 0.51112002 0.549233675 -0.6596500278 0.5130342841
-0.015338551 -0.13550211 0.55378747 -0.4321045578 -0.6759935021 0.5969241858
0.004748886 -0.053974792 0.52343154 0.08078011125 -0.7556577325 0.6499661207
0.004256676 -0.13910903 0.55733341 -0.01013655495 -0.7784774303 0.6275907755
0.0064507467 -0.15823957 0.53675556 0.07986024767 -0.6888436079 0.7204976082
0.017023072 -0.082288742 0.49071431 -0.2968051732 -0.6906422377 0.6594846845
-0.01250486 -0.078140326 0.49869993 0.3821823597 -0.7075206041 0.5944335461
0.073374681 -0.12146652 0.51419228 0.3388978839 0.1374708116 0.9307255149
0.028476709 -0.052671369 0.53458822 -0.3358676136 -0.7097941637 0.6191810369
-0.028557815 -0.12654044 0.54545456 -0.7107719779 -0.4692338407 0.5240446329
0.015487824 -0.14673299 0.54648972 0.2774370909 -0.6905169487 0.6679932475
0.087594785 -0.078931555 0.54900002 -0.5131177902 -0.6677428484 0.5392861962
0.014671191 -0.13410957 0.56344455 0.2034280151 -0.7782845497 0.5940455794
-0.0051357606 -0.15831961 0.53541034 -0.1792974323 -0.7191061378 0.6713708043
0.025352214 -0.061725207 0.52137512 -0.4002275467 -0.6764787436 0.61821872
0.047025278 -0.085069887 0.52077782 -0.6589215994 -0.5388339162 0.5248622298
0.033719644 -0.13475829 0.54381168 0.6150816083 -0.6298597455 0.4742903113
0.037263729 -0.14540938 0.52573609 0.6752670407 -0.5115962625 0.5313037634
-0.024708258 -0.075692475 0.51282531 0.5533955097 -0.6392204165 0.5339949727
0.024235507 -0.15431942 0.53353465 0.5403382778 -0.5903208256 0.5996297598
0.025324667 -0.075096376 0.50497836 -0.4318400323 -0.6736075282 0.5998058319
0.0049319956 -0.063002057 0.51267809 0.02521433495 -0.7712723017 0.6360056996
0.011402668 -0.070887201 0.50176919 -0.1137545332 -0.754173398 0.6467475891
0.031319723 -0.14187159 0.54069227 0.6337005496 -0.5721273422 0.5206668377
0.027571728 -0.070841998 0.51192868 -0.4524833858 -0.6694252491 0.5891762376
-0.023670321 -0.096654356 0.48558331 0.4639162421 -0.704077363 0.5376399755
-0.01366066 -0.065694757 0.51531404 0.3989053071 -0.6973181963 0.5955014229
0.021257658 -0.088116437 0.48716673 -0.2746334076 -0.6568630338 0.7022160888
-0.024096573 -0.12762782 0.55451614 -0.6433836818 -0.530128181 0.552287519
-0.015786445 -0.060982317 0.52488232 0.4076271355 -0.6996086836 0.5868456364
0.035116382 -0.06524919 0.52521431 -0.5238722563 -0.6059370041 0.5986636877
0.0049923486 -0.12528762 0.57435149 -0.07258845866 -0.782556355 0.6183336377
0.025246633 -0.13491751 0.5543524 0.4667336941 -0.7014271021 0.5386646986
-0.022457389 -0.087509446 0.49597731 0.5299299359 -0.668574512 0.5217110515
0.022225827 -0.13212916 0.56265622 0.3006846607 -0.7464604378 0.5936207175
0.022300683 -0.1625303 0.53219992 0.4383977056 -0.6746563315 0.593840301
-0.0046306849 -0.13348788 0.56394178 -0.2142581642 -0.7593402267 0.6144068837
0.036772031 -0.1359926 0.5360834 0.6795127988 -0.5418038964 0.49468261
0.034048952 -0.12829822 0.5520286 0.5804957151 -0.6368590593 0.5073807836
0.024319705 -0.05567234 0.52590096 -0.3626538813 -0.7028068304 0.6120005846
0.031382505 -0.15182446 0.53113341 0.6593504548 -0.51099962 0.5514855981
0.034560107 -0.045874313 0.54446042 -0.5235913396 -0.7565199137 0.391828686
0.034859989 -0.074999854 0.51509219 -0.6090450883 -0.5708601475 0.5506203771
-0.0055006505 -0.045867845 0.53497612 0.1953884959 -0.7852968574 0.5874795318
-0.012118083 -0.086384349 0.48890913 0.4047861993 -0.7087720037 0.5777459145
-0.010688758 -0.069473647 0.50800002 0.3438453078 -0.7184223533 0.6046815515
0.054555152 -0.077619769 0.55745721 -0.563711226 -0.68622154 0.459706068
0.065192409 -0.1221104 0.51235723 0.3388978839 0.1374708116 0.9307255149
0.01443141 -0.063325226 0.51278955 -0.2050177753 -0.7271000743 0.6552047133
0.02376822 -0.083982661 0.49304914 -0.3576335013 -0.6863365769 0.6332774758
0.014873671 -0.044456881 0.53441656 -0.160429284 -0.7844849229 0.5990374684
0.02714284 -0.14772947 0.53591669 0.6346175075 -0.5063977242 0.5837996602
0.082978681 -0.076676577 0.55407858 -0.5138984323 -0.6860747933 0.5149852037
-0.032084424 -0.11638188 0.53659999 -0.8925714493 -0.1527836919 0.4242326617
0.014649346 -0.12512623 0.57421881 0.1484600902 -0.7471508384 0.6478620172
0.034237694 -0.15434529 0.52435946 0.6677580476 -0.5155277848 0.5369639993
-0.0045741121 -0.076897912 0.49631473 0.2240863889 -0.7365121245 0.638228178
-0.014695283 -0.074919373 0.50520873 0.4461078942 -0.6874936223 0.5730098486
-0.0049487981 -0.054828621 0.52536219 0.2422398478 -0.7659176588 0.5955585241
-0.0048598158 -0.12502964 0.5747636 -0.2081336528 -0.7665980458 0.6074601412
0.022260319 -0.049621962 0.52900004 -0.3093059361 -0.7137301564 0.6284258962
-0.015505614 -0.12579858 0.56622225 -0.399104476 -0.7227292657 0.5642499924
0.024512028 -0.14425138 0.54408282 0.4991192818 -0.6259620786 0.599208951
-0.0052581532 -0.063878231 0.51293266 0.2382517755 -0.7374726534 0.6319574118
0.014304349 -0.15243445 0.54139298 0.2401528656 -0.6662102342 0.7060385942
-0.025953565 -0.14585841 0.53410888 -0.6843857169 -0.4991099536 0.5315124393
-0.014644421 -0.045407865 0.54214817 0.2002721876 -0.7873237133 0.5831058025
-0.015928345 -0.1555503 0.5346598 -0.451138556 -0.6230168343 0.6390023828
-0.018900933 -0.1497899 0.53900003 -0.4919807911 -0.5805821419 0.6487520933
-0.026135186 -0.093076676 0.49391437 0.5343301296 -0.6642886996 0.5226966739
-0.0094536813 -0.050986644 0.53033334 0.2423682362 -0.764539659 0.5972744226
-0.016266482 -0.094396442 0.48190674 0.3399361372 -0.7200918198 0.6049059629
-0.018085361 -0.1387375 0.54831254 -0.4733885527 -0.6312797666 0.6143200994
-0.0045465077 -0.1473325 0.54662275 -0.1752266288 -0.6836808324 0.708432138
-0.016338656 -0.084794275 0.49445462 0.4365886152 -0.6946234107 0.5717418194
0.03702851 -0.071353115 0.5204615 -0.6391742229 -0.5570777655 0.5302081108
0.020733166 -0.1403105 0.55000001 0.434874326 -0.6999739408 0.5664986968
0.004306511 -0.048670121 0.52837044 0.04122211039 -0.7715197802 0.634868443
-0.0091927266 -0.11835375 0.57800001 -0.2081336528 -0.7665980458 0.6074601412
0.006582587 -0.15262601 0.54284614 0.05477674305 -0.6911504269 0.7206320763
-0.02171335 -0.14319512 0.54132432 -0.5657532215 -0.5549196005 0.6099078059
0.015609884 -0.053517267 0.52383143 -0.2090609968 -0.7458702326 0.6324326992
-0.012070999 -0.14051458 0.55079997 -0.3806894124 -0.6862131953 0.6198282242
0.058241837 -0.073540695 0.56120688 -0.5689561963 -0.6839040518 0.4566881955
-0.012758084 -0.15091649 0.5412631 -0.3768718243 -0.6372664571 0.6722046733
-0.015458262 -0.053257827 0.53246433 0.3188732266 -0.7395740747 0.5927479267
0.015479012 -0.15689465 0.53590894 0.2993243337 -0.6535705328 0.6951621771
0.078249089 -0.075059265 0.55825925 -0.5485593677 -0.6522467136 0.5231221318
0.026738334 -0.081968337 0.5 -0.4591452181 -0.663844347 0.5903357863
-0.03399485 -0.13618176 0.52311778 -0.7769516706 -0.3977333307 0.4880105555
0.035357255 -0.084330775 0.50449008 -0.6167724729 -0.5707805157 0.5420343876
0.0058930153 -0.058652502 0.5172143 0.03868886083 -0.776232183 0.6292588711
0.0114931 -0.1304217 0.57000005 0.08703232557 -0.7778491378 0.6223954558
-0.024897382 -0.084343918 0.50418919 0.5526014566 -0.6634082794 0.5045008063
-0.0045029316 -0.085648164 0.48709792 0.2046391815 -0.7104997635 0.6732851267
-0.0070594018 -0.12867437 0.56715 -0.2606100142 -0.7551985979 0.601462841
0.01383178 -0.066933282 0.50769657 -0.1980747879 -0.7452247143 0.6367154121
0.004188532 -0.072112724 0.50141501 0.03773335367 -0.7605141401 0.6482240558
0.0062041697 -0.080989018 0.49074996 0.01784982905 -0.7354342341 0.6773609519
0.0050468165 -0.16367038 0.53414315 0.08819670975 -0.6982704997 0.7103798985
-0.018763296 -0.12938343 0.5583334 -0.4715309441 -0.6751622558 0.5672869086
0.074820638 -0.081432454 0.56296152 -0.5485593677 -0.6522467136 0.5231221318
0.075246759 -0.11571369 0.51386362 -0.3630319536 0.193101421 0.9115479589
0.025019219 -0.066367157 0.51492149 -0.4257127047 -0.6676731706 0.6107219458
0.0047252877 -0.14288484 0.55276263 0.03396849334 -0.7798745632 0.625013411
0.016985362 -0.12911135 0.5678125 0.2003023475 -0.7673693299 0.6091167927
0.064114131 -0.081068784 0.5625 -0.5485593677 -0.6522467136 0.5231221318
0.0031244399 -0.040428359 0.54000002 0.08380112052 -0.8218966126 0.5634388328
0.0050751469 -0.13450432 0.56434292 -0.01177297812 -0.79925102 0.6008820534
0.023527585 -0.046060346 0.53658605 -0.2674906254 -0.7379675508 0.6195584536
0.012754026 -0.074714005 0.49763635 -0.2273036391 -0.725463748 0.6496425271
-0.0038281837 -0.14228673 0.55171162 -0.1872671098 -0.7448506355 0.6404128075
0.033669852 -0.055075914 0.53486651 -0.3667134941 -0.6822577715 0.632491529
-0.0049663065 -0.16394636 0.53440464 -0.1556294262 -0.7345908284 0.6604209542
0.027878288 -0.15820238 0.52840751 0.5910487771 -0.5172426105 0.6189680696
-0.022762645 -0.15437502 0.53175008 -0.6065693498 -0.6048136353 0.5160174966
0.0020338665 -0.1205066 0.58000004 -0.07845176011 -0.8007457256 0.5938447714
0.074035473 -0.075040266 0.56165856 -0.5617266893 -0.6296106577 0.5367062092
0.032604109 -0.049614951 0.53900003 -0.3434081674 -0.7055971622 0.619841516
0.015209805 -0.086999573 0.48565894 -0.2605337501 -0.6724261642 0.692795217
0.014026864 -0.14196353 0.55177349 0.2532859445 -0.7490211129 0.6122201681
0.083141908 -0.081935786 0.55374998 -0.5131177902 -0.6677428484 0.5392861962
-0.030353414 -0.094250731 0.49700001 0.5496268868 -0.6577553153 0.5150419474
-0.038534891 -0.1354789 0.5146364 -0.893160522 -0.2106429338 0.3973585367
-0.011374749 -0.059603691 0.51900005 0.3281861246 -0.7280195951 0.6018981338
0.024482418 -0.12793404 0.56471443 0.3661662936 -0.7418678999 0.5617421865
0.040895496 -0.092315257 0.50314289 -0.6635260582 -0.4964654446 0.5596920848
-0.025452655 -0.10086639 0.48335999 0.4639162421 -0.704077363 0.5376399755
-0.027807865 -0.075348251 0.52000004 0.554993391 -0.6345775127 0.5378603339
-0.030812494 -0.14490247 0.53306669 -0.7366692424 -0.4458344281 0.5084782243
-0.032058217 -0.09369611 0.50399995 0.5684014559 -0.6474937201 0.5076137185
-0.015463524 -0.11921877 0.56900001 -0.399104476 -0.7227292657 0.5642499924
-0.022323111 -0.13210264 0.55318522 -0.6442306042 -0.5307121873 0.5507372618
0.031778291 -0.13257128 0.55154556 0.4933801293 -0.6865283847 0.5340925455
