# .PCD v0.7 - Point Cloud Data file format
VERSION 0.7
FIELDS x y z normal_x normal_y normal_z
SIZE 4 4 4 4 4 4
TYPE F F F F F F
COUNT 1 1 1 1 1 1
WIDTH 206
HEIGHT 1
VIEWPOINT 0 0 0 1 0 0 0
POINTS 206
DATA ascii
0.017525828 -0.061428193 0.57493758 0.51952672 -0.2936616242 -0.8024056554
-0.060209468 -0.068555333 0.68000001 -0.4709060788 -0.4869349599 0.7356234193
-0.052321218 0.01014391 0.60900003 -0.4090581536 0.6127625704 -0.676160872
-0.0068162149 -0.13154292 0.63715011 0.387937814 -0.6320070028 0.670873642
-0.091245212 -0.096580602 0.60866672 -0.832421124 -0.2975401878 0.4674879014
-0.058666531 -0.0508116 0.56 -0.405744195 0.5813952088 -0.7052313685
0.014265763 -0.0012559127 0.61446667 0.0551747866 -0.1248195097 -0.9906441569
0.0022073369 -0.078749537 0.67162502 0.4417361021 -0.5466939807 0.7113331556
-0.0613316 -0.1310266 0.63600004 -0.4644376934 -0.4850505888 0.7409612536
-0.018172424 -0.018933369 0.57850003 0.225851506 0.6243847013 -0.7477532029
0.040901762 -0.015653759 0.57600003 -0.824883759 0.3967278004 -0.4027080834
0.021476872 -0.095041327 0.62549996 0.7562475801 -0.4160327911 0.5049814582
-0.082073033 -0.027061198 0.59200001 -0.6212402582 0.5359513164 -0.5716788769
-0.034873385 -0.10392121 0.66240007 -0.08101047575 -0.6472729445 0.7579413056
-0.082976557 -0.075634018 0.64436835 -0.7907908559 -0.3671818376 0.4897216856
-0.011364717 -0.052984759 0.54777783 0.2940825224 0.6113945842 -0.7346510291
0.016361719 -0.031957325 0.59333336 0.6111989617 0.4738072455 -0.6339893937
-0.027762027 -0.068582885 0.69057143 -0.003966582473 -0.5772839785 0.8165338635
-0.014105273 0.006957633 0.60202217 0.2132727802 0.6869829297 -0.6946719885
0.0023723061 -0.10182792 0.65121061 0.5553728342 -0.5647493005 0.6104254723
-0.054215968 -0.016355615 0.58579117 -0.4035356939 0.6130394936 -0.6792212725
-0.071556933 -0.1029183 0.6415295 -0.6748416424 -0.448594451 0.5859622359
-0.080594599 -0.012982557 0.61700004 -0.6108120084 0.5369021297 -0.5819320083
-0.034921385 -0.034964766 0.56336677 -0.04621580243 0.620269537 -0.7830260396
0.025267636 -0.035139628 0.56434834 -0.5292723775 0.3145805597 -0.7879782915
-0.035103094 -0.12482207 0.64458519 -0.0428878814 -0.6301398873 0.7752963305
0.025745362 0.00051840226 0.59133333 0.128103435 0.9913707972 0.02781061456
-0.062249724 -0.091757551 0.66185719 -0.5309143066 -0.5309981704 0.6604323983
0.012704653 -0.12115928 0.62583333 0.7010605335 -0.4520154595 0.5515398383
-0.0065663652 -0.037171282 0.56765014 0.3024717569 0.6230070591 -0.7213688493
-0.035559937 -0.0024755516 0.59168881 -0.1053694785 0.6597224474 -0.7440857291
-0.082973577 -0.11335197 0.62294447 -0.7879015207 -0.29615134 0.5399125218
-0.045326371 -0.085091673 0.67563236 -0.2548557818 -0.5934767127 0.7634356022
-0.015696371 -0.092225425 0.6709736 0.2296419591 -0.6093264222 0.7589373589
-0.072259448 -0.04387825 0.57638466 -0.5568500161 0.5524354577 -0.6202685237
0.024681054 -0.021778258 0.61117643 0.6107074618 -0.01041911077 -0.7917877436
-0.052691169 -0.11149311 0.65169233 -0.3885733187 -0.5607956052 0.731108129
-0.0025274297 -0.011928256 0.59162498 0.4142796099 0.5393239856 -0.7331452966
-0.015689686 -0.113505 0.65222001 0.2161772251 -0.6087051034 0.7633776665
-0.065084726 -0.0048718262 0.6045168 -0.565664649 0.5600703955 -0.6052641273
0.016225638 -0.088328257 0.64588892 0.7161521316 -0.4723926485 0.5137813687
-0.056305598 -0.032828651 0.57165116 -0.4372477233 0.5935117006 -0.675690949
0.027507463 -0.059683468 0.59200001 0.9116543531 0.2886095941 -0.2925591469
-0.088565044 -0.085554875 0.62475002 -0.8493797779 -0.2990993559 0.4348489642
-0.072032541 -0.074778847 0.66193336 -0.6579372883 -0.4326126873 0.6164128184
0.0056845583 -0.05326426 0.56495464 0.5563254952 0.3074765503 -0.7719845176
0.0086439336 -0.040168867 0.58000004 0.4957213998 0.6202100515 -0.6079471707
0.0091255158 -0.10839253 0.63733339 0.6995270848 -0.4554571509 0.5506547689
-0.034538586 -0.018092828 0.57757902 -0.06044142693 0.6575201154 -0.751008749
-0.045643132 -0.06767562 0.68734384 -0.2185888737 -0.5579032302 0.8006016016
-0.026953816 -0.081097811 0.68019998 0.05391981453 -0.5903727412 0.8053276539
0.022355316 -0.11258774 0.61612016 0.7152544856 -0.4398931563 0.5430516005
-0.071523927 0.0019873059 0.61755562 -0.5596626997 0.569393158 -0.6021370888
0.027705891 -0.01696266 0.56719995 -0.6548146009 0.4520071447 -0.6057288051
-0.0447612 -0.044773351 0.55674189 -0.243750155 0.5433266759 -0.8033567071
0.0052338648 -0.0042674481 0.60231262 0.3629003167 0.4618878961 -0.8092978001
-0.079514541 -0.089000516 0.6365 -0.7849931717 -0.3864334822 0.4842054248
-0.025176771 -0.044099797 0.55607605 0.09631632268 0.6214122772 -0.7775409818
-0.071882278 -0.12118108 0.63118184 -0.6270176172 -0.4448876083 0.6394715905
0.0047561596 -0.025185388 0.58643377 0.5521885157 0.5241428614 -0.6483533978
0.011018385 -0.01888822 0.59850001 0.5636920929 0.3297072947 -0.7573270798
-0.071384221 -0.018205188 0.59762502 -0.6181572676 0.5282254219 -0.5821163654
0.00096710952 -0.091717303 0.66216666 0.532800436 -0.5519777536 0.6414391994
-0.01071462 -0.079169139 0.67900002 0.2671306133 -0.563480556 0.7817485929
-0.050414469 -0.10024946 0.66100001 -0.3778296113 -0.5946122408 0.7097049356
-0.062739171 -0.11426184 0.64114588 -0.5607802272 -0.4554609954 0.6914339066
-0.014856141 -0.0037755058 0.59256935 0.252161175 0.6243065 -0.7393620014
-0.071077064 -0.092182979 0.65070003 -0.6828173995 -0.4618458152 0.5660908818
-0.015133383 -0.10312054 0.6620245 0.2378019094 -0.644138217 0.7270049453
-0.04546418 -0.13159843 0.63800001 -0.2001668662 -0.5962024331 0.7774804831
-0.080883548 -0.023911083 0.60620004 -0.6376149058 0.5239810944 -0.5647044182
-0.050936963 0.00052512332 0.59900004 -0.3483375609 0.6357042789 -0.6888694167
-0.081133664 -0.10238458 0.63130003 -0.7997919321 -0.2852701247 0.5281607509
-0.036100429 0.0084550409 0.60026664 -0.1352573186 0.6795850396 -0.7210198641
0.023449171 -0.01104849 0.60305262 0.2625800371 0.102365844 -0.9594649076
-0.0062063043 -0.027187744 0.57660365 0.4310329258 0.5609349012 -0.7067974806
-0.064167239 -0.025317203 0.58511436 -0.5305668116 0.5643773675 -0.6324373484
-0.0049342532 -0.11528437 0.64442527 0.4675849676 -0.5707038641 0.6750270128
-0.045152172 -0.025054004 0.57332593 -0.2519851625 0.634580493 -0.7306237817
-0.061281923 -0.081252389 0.67000002 -0.5405132771 -0.501245141 0.6757208705
-0.03518267 -0.09264601 0.67151058 -0.08805718273 -0.6355038285 0.7670598626
-0.07953909 -0.040029477 0.59300005 -0.619258821 0.5311956406 -0.5782298446
0.015239548 -0.044560384 0.56763446 0.1053790748 -0.1580945104 -0.9817848206
-0.034639243 -0.11372544 0.65391791 -0.06550701708 -0.6112375259 0.788731575
0.0027710204 -0.1241551 0.63323265 0.5900290608 -0.5157623291 0.6211721897
-0.062041368 -0.10296844 0.65217245 -0.5331559181 -0.5512484312 0.6417708993
-0.025158664 0.0041982699 0.59570009 0.08028224856 0.6763068438 -0.7322320938
0.01705225 -0.10658827 0.62555271 0.7379174232 -0.4255779088 0.5237951279
-0.025618481 -0.13156487 0.64080024 0.07032436132 -0.6450679898 0.7608821988
-0.014991 -0.068958603 0.68400002 0.1976967603 -0.5486938953 0.8123121262
-0.01524344 -0.12503164 0.6428349 0.2967782021 -0.6290553808 0.7184789777
-0.026026137 -0.02885047 0.56850004 0.09876248986 0.6369457841 -0.7645561099
-0.0079115508 -0.04853132 0.55825001 0.352417767 0.5838468671 -0.7313853502
-0.024832264 -0.0066832295 0.58689719 0.08092734963 0.6414206624 -0.7629091144
-0.025187435 -0.097380437 0.66619152 0.06117388606 -0.6455765963 0.7612414956
-0.071082607 -0.051625703 0.56772727 -0.5344052315 0.5723872185 -0.6219195724
-0.072278284 -0.035375584 0.58583778 -0.5995518565 0.5466521382 -0.5845588446
-0.054354221 -0.12392917 0.64095545 -0.3921002746 -0.5261364579 0.7546110153
-0.043523584 -0.0089900205 0.58788884 -0.2428968996 0.6384648681 -0.730317533
0.017068945 -0.097736008 0.63505554 0.7553067207 -0.4198565781 0.5032218099
-0.034859397 -0.075122826 0.68559718 -0.06550145149 -0.5690130591 0.8197156191
-0.0870336 -0.10350489 0.61580563 -0.8176735044 -0.2941457927 0.4948619306
-0.024171816 -0.11905536 0.64875013 0.102998659 -0.6193524599 0.7783275843
-0.023708023 -0.10782079 0.65771455 0.110626407 -0.6486995816 0.752961278
0.017727304 -0.003438096 0.59708697 0.1789701432 -0.04540327936 -0.982806325
-0.045046952 -0.11765809 0.64779085 -0.2157904804 -0.5740282536 0.7898898721
0.034539551 -0.0077155209 0.57380497 -0.6552561522 0.5387259722 -0.5295410752
0.034182165 -0.024962181 0.56575853 -0.7080628276 0.4662912488 -0.5303012729
0.0083736405 -0.086214341 0.65792 0.554744184 -0.5464732051 0.6273961663
-0.078165025 -0.085845172 0.6475001 -0.7671615481 -0.3941752613 0.5060523152
-0.085438028 -0.094971552 0.62575001 -0.8368059397 -0.3000279069 0.457972765
-0.044731263 -0.035293311 0.56487495 -0.2298017293 0.6125717759 -0.7562717795
-0.085674062 -0.078357153 0.63521427 -0.816005528 -0.3531465232 0.457627058
-0.034977596 -0.044228017 0.55631477 -0.07966054231 0.5675476193 -0.8194777966
-0.0047609 0.0048321621 0.60400003 0.295882374 0.6051874161 -0.7390546799
0.031034 -0.0057859998 0.60000002 -0.8495836258 -0.01307447348 -0.5272918344
0.017198743 -0.024512928 0.60321957 0.5684403181 0.2959277332 -0.7676603198
-0.013359473 -0.04188595 0.56214297 0.2706291378 0.6439810395 -0.7155755162
-0.056104828 -0.076711416 0.67639595 -0.4419879615 -0.526614666 0.7261705399
0.023734845 -0.063111521 0.58425921 0.9139530659 0.2187337726 -0.3418264687
-0.063901596 -0.045992531 0.56617671 -0.4536339343 0.5806070566 -0.6761003733
-0.064180471 -0.035908159 0.57535297 -0.5032004714 0.5790002346 -0.641520083
-0.0053815655 -0.10497057 0.65494448 0.4164164364 -0.604155302 0.6794068813
-0.005707731 -0.084108889 0.67314035 0.3860528171 -0.5587304235 0.734018743
0.0061574453 -0.042923257 0.57177985 0.425003916 0.5500693917 -0.7188847661
0.022716187 -0.089202583 0.63200003 0.7553067207 -0.4198565781 0.5032218099
-0.045807686 -0.1065378 0.65693241 -0.2456742674 -0.6240054965 0.7417959571
-0.072215974 -0.0080018947 0.60854554 -0.5839446187 0.5677056909 -0.5802749395
-0.04424122 0.012526494 0.6066364 -0.2784233093 0.6742850542 -0.6839737296
-0.073811211 -0.026009154 0.59462744 -0.6222236156 0.5329018235 -0.5734574199
-0.061830018 -0.0084167412 0.59730774 -0.5248493552 0.5695335865 -0.6325857043
0.0028422046 -0.11309901 0.64129406 0.5918681622 -0.5217232108 0.6144077778
0.0073143225 -0.079180539 0.66466671 0.5293619633 -0.5109849572 0.6772519946
0.0030409307 0.0030081267 0.60706466 0.3326589763 0.5797376037 -0.7438026071
-0.056616124 -0.087849788 0.66695839 -0.451931566 -0.5504709482 0.7019541264
-0.011509632 -0.031099122 0.57085717 0.3378834426 0.5931706429 -0.7307416797
0.013613231 -0.0063483985 0.60380006 0.1789701432 -0.04540327936 -0.982806325
-0.076832086 -0.075351335 0.65507287 -0.713981092 -0.4243564904 0.5569134355
-0.0074282885 -0.12280624 0.64074081 0.4191560447 -0.5675055385 0.7086929083
-0.054023717 -0.026502751 0.57660651 -0.4025850594 0.6182307601 -0.6750673652
0.009283023 -0.098138742 0.64833337 0.6772587895 -0.501488924 0.5383580923
-0.06380602 -0.073843427 0.67277193 -0.5686960816 -0.464381814 0.6789214015
-0.054428179 -0.0058286716 0.59465003 -0.4029982388 0.6132922769 -0.6793121099
-0.064939156 0.0048975707 0.61348331 -0.5195646286 0.5829472542 -0.6246799827
-0.044228178 -0.091778815 0.6709677 -0.218351081 -0.6183772087 0.7549387217
-0.0089114429 0.0011241372 0.59800005 0.287127465 0.637265563 -0.7151576281
-0.068489857 -0.087932974 0.65823078 -0.6657214165 -0.4617893994 0.5861446857
-0.035249688 -0.13212475 0.64096671 -0.05918026716 -0.6328386664 0.7720187306
-0.07389272 -0.015277123 0.60527498 -0.6059315205 0.544228673 -0.5802259445
-0.001731709 -0.098280616 0.65816665 0.5347532034 -0.5567830205 0.6356348395
0.014739622 -0.014384525 0.60438466 0.3761671185 0.203292191 -0.9039748907
-0.043477446 -0.018707648 0.57813054 -0.2274256796 0.6474871635 -0.727349937
-0.025238298 -0.07509961 0.68540263 0.03484163061 -0.5815891623 0.8127361536
-0.0023676574 -0.1084883 0.64791673 0.4863726795 -0.5819734931 0.6517273188
-0.034401111 -0.028459653 0.56807417 -0.05364210531 0.6471713781 -0.7604549527
0.005069728 -0.015181895 0.59454793 0.4429223537 0.4390402734 -0.7817054391
-0.059602372 -0.10898589 0.64750004 -0.5039336681 -0.5205127597 0.6892876029
-0.035083596 -0.086527131 0.67665446 -0.09892325103 -0.60777843 0.7879210711
-0.060357623 -0.039407045 0.56900001 -0.4536339343 0.5806070566 -0.6761003733
-0.044797979 -0.074747816 0.68373078 -0.2527891994 -0.5686021447 0.7828085423
-0.058308262 -0.0017549405 0.60100001 -0.4455348551 0.609105885 -0.6561163664
-0.064887844 -0.12354337 0.63416672 -0.5528142452 -0.4943469167 0.6708334684
0.0058000777 -0.11577 0.63441992 0.6456235647 -0.4781623483 0.5954250693
-0.044993412 -0.1250098 0.64240438 -0.2533807755 -0.561047554 0.7880506516
-0.025153043 -0.012904406 0.5820213 0.0991262719 0.6433765888 -0.7591050863
-0.015240385 -0.025376074 0.57484382 0.2683214843 0.6171278954 -0.7397004366
0.0054984791 -0.10554386 0.64497042 0.5880358815 -0.5527465343 0.590495646
0.0052476106 -0.09490668 0.65426683 0.5696308613 -0.5543811917 0.6067801714
-0.024564371 -0.034618683 0.56334996 0.1091452092 0.6099891663 -0.7848569751
-0.0044871443 -0.04431887 0.56394684 0.3687207699 0.6184174418 -0.6939775348
-0.045889642 0.0070357765 0.60125721 -0.3106602132 0.6343892813 -0.7078421116
-0.065156013 -0.095149696 0.65486586 -0.5971636772 -0.5105327964 0.6186693907
-0.055358518 -0.1156517 0.64563161 -0.4078096449 -0.5255873799 0.746625185
-0.0019550293 -0.0019549041 0.60049999 0.3121544719 0.5935768485 -0.7417722344
-0.068470418 -0.0016055524 0.61085719 -0.5596626997 0.569393158 -0.6021370888
-0.077841319 -0.096579708 0.63638234 -0.7757709026 -0.363404125 0.5158652663
0.017237021 -0.037671566 0.56472719 -0.311090529 0.1783350557 -0.9334984422
0.0011058524 -0.018058833 0.58857149 0.4854947329 0.5384811163 -0.6887183785
-0.056056704 -0.044040363 0.56253338 -0.3905977905 0.577008903 -0.717282474
-0.078694962 -0.10824701 0.62677783 -0.7920380235 -0.310466826 0.5256292224
-0.053682316 -0.13123763 0.63670588 -0.3559798598 -0.5502710938 0.7553012967
0.030682456 -0.040579587 0.56449997 0.01252910774 -0.1591097116 -0.9871814251
-0.014726462 -0.084991507 0.67606479 0.2264823467 -0.5838162899 0.7796565294
0.00050759001 -0.02994781 0.57900006 0.4491149485 0.6204513311 -0.6429120898
-0.0013757531 -0.051789872 0.56050003 0.3888704777 0.5552357435 -0.7351822853
-0.073665783 -0.084595144 0.65372419 -0.7201374769 -0.4331687689 0.5420025587
0.0086843697 -0.011841466 0.60037494 0.5124390721 0.4445079863 -0.7347236276
0.013439553 -0.035302188 0.58714288 0.6450637579 0.566400826 -0.5129160881
-0.064499244 -0.084900469 0.66413796 -0.5795779228 -0.4901155829 0.6510577202
-0.0057120714 -0.015853154 0.58599997 0.4029551744 0.5737634301 -0.7130376101
-0.0056259921 -0.0055865329 0.5943253 0.3339700103 0.5723239183 -0.7489387989
-0.008567838 -0.11093235 0.6516 0.4088206291 -0.6008381844 0.6869200468
-0.065122619 -0.015230581 0.59468257 -0.5483118892 0.5680958033 -0.613694787
-0.061600558 -0.029734429 0.57880008 -0.4979505241 0.5820825696 -0.6428259015
-0.015253328 -0.035272364 0.56584698 0.2723928094 0.6037781835 -0.7491689324
-0.048588376 -0.078733437 0.67866677 -0.2963996232 -0.5686281323 0.7673391104
-0.06847994 -0.01149836 0.60180008 -0.5691341758 0.5704269409 -0.5921987295
-0.0023408751 -0.087456889 0.66729999 0.4225441515 -0.581859231 0.6949074268
-0.025181388 -0.12484758 0.64418381 0.07046191394 -0.6202953458 0.7811970711
-0.067975178 -0.022309413 0.5918889 -0.5989186764 0.5318683386 -0.5986756086
-0.041769076 -0.080954321 0.68066669 -0.2188738883 -0.5844370127 0.7813626528
0.021601943 -0.03003197 0.60100001 0.6522201896 0.1934711933 -0.7329241037
-0.007971311 -0.10072199 0.66125011 0.3874530792 -0.6078041196 0.6931481361
-0.075202122 -0.10526281 0.63459367 -0.7267805338 -0.3646449149 0.5820860267
-0.06098181 -0.017919945 0.58825004 -0.4885776341 0.5875816941 -0.6450113654
0.011132571 -0.091633365 0.65125006 0.6732078791 -0.4991820455 0.5455349684
