# .PCD v0.7 - Point Cloud Data file format
VERSION 0.7
FIELDS x y z normal_x normal_y normal_z
SIZE 4 4 4 4 4 4
TYPE F F F F F F
COUNT 1 1 1 1 1 1
WIDTH 206
HEIGHT 1
VIEWPOINT 0 0 0 1 0 0 0
POINTS 206
DATA ascii
0.04303626 -0.096936308 0.68613511 -0.5392061472 -0.5274615288 0.6565371752
-0.008319567 -0.22078849 0.73000002 -0.2604644299 -0.5945298672 0.7607184052
-0.0509694 -0.13971612 0.68400002 0.7742545009 -0.4071422815 0.4845256507
0.066347666 -0.18563467 0.69541669 0.9319874048 -0.1738466173 0.3180830777
0.0062051159 -0.13679244 0.63486844 0.03231403977 -0.6708294153 0.7409073114
0.031355735 -0.17012155 0.76099998 0.3610491753 -0.5473505855 0.7550171018
-0.020193139 -0.078324907 0.69800001 0.4762692153 -0.6148548722 0.6285865903
-0.028814279 -0.16961133 0.74700004 -0.5609430671 -0.4882667661 0.6685345769
0.082364582 -0.13266188 0.66506666 0.4388576746 -0.579872489 0.6864050031
-0.0515556 -0.19053124 0.69733334 -0.7826550603 -0.3893862963 0.4856226444
0.036673192 -0.20722423 0.72528565 0.5184243917 -0.5197711587 0.6790243387
-0.003670725 -0.10717926 0.6664722 0.1801762432 -0.6537392139 0.7349568605
0.041853819 -0.12960026 0.65850002 -0.5505043864 -0.5255108476 0.6486780643
0.080103226 -0.10761917 0.69749999 0.4569111466 -0.5612838864 0.6900671124
-0.030154703 -0.14223917 0.64900005 0.5722349882 -0.5395524502 0.617600441
-0.049172234 -0.11328286 0.71000004 0.7839604616 -0.4185068309 0.4585390091
0.013468229 -0.078731388 0.68788892 -0.06213280559 -0.69451195 0.7167933583
0.0054276627 -0.1902452 0.75025004 -0.02084589936 -0.6243345737 0.7808788419
0.052593172 -0.17676941 0.73494738 0.7194222212 -0.4374646544 0.5394964218
-0.034862563 -0.1951061 0.72374409 -0.6853615642 -0.4098262191 0.60193187
-0.03194942 -0.11668367 0.67613786 0.6072050929 -0.5095366836 0.6096510291
0.057574522 -0.12423798 0.68405885 -0.5569170117 -0.5204378963 0.6472926736
0.061776076 -0.1516313 0.66623074 -0.2041336447 -0.7218610048 0.6612458825
-0.004236443 -0.16836004 0.7641111 -0.1938942969 -0.5437546968 0.8165389299
0.023754725 -0.10700963 0.66702712 -0.2574954331 -0.6200843453 0.7410745621
0.062473837 -0.092150994 0.71120012 -0.1579956561 -0.3737787604 0.9139621854
0.033251841 -0.14153945 0.63671434 -0.4573695362 -0.5933287144 0.6624003053
0.091078252 -0.10738543 0.67511111 0.5898809433 -0.5257626772 0.6128736138
0.054817431 -0.1949807 0.71385705 0.7951191068 -0.3366108835 0.5044588447
-0.014931712 -0.12516102 0.65496159 0.3454590142 -0.622286737 0.7024366856
0.017231761 -0.2201836 0.72800004 0.1917579919 -0.5959848166 0.7797634006
0.015493074 -0.12334884 0.65154165 -0.1497359872 -0.6751766205 0.7222989202
-0.036648173 -0.094028562 0.70272732 0.718357861 -0.4882295728 0.4955742955
-0.047415283 -0.17709708 0.71720821 -0.7882925272 -0.3484962881 0.5070948601
-0.020787518 -0.19033574 0.74100006 -0.5000049472 -0.5266174078 0.6875094175
0.032705389 -0.19177307 0.74120009 0.4253554344 -0.5701742768 0.7028328776
-0.015864477 -0.09340556 0.68231988 0.3603192568 -0.6023719907 0.7122625709
-0.043238513 -0.15016466 0.66650003 0.7296711206 -0.4652423561 0.5011283159
0.0050601838 -0.20742536 0.73743927 -0.04052684084 -0.5717811584 0.8194046021
0.04748252 -0.083495177 0.70142871 -0.4787883759 -0.5363417268 0.6950533986
-0.024868965 -0.21352561 0.72351116 -0.4996242821 -0.522554338 0.6908780932
-0.043598909 -0.11551878 0.69133341 0.7778936028 -0.4174412191 0.4697066844
0.025615457 -0.091694675 0.68192297 -0.2875574827 -0.6306782961 0.7208020687
0.05654373 -0.10385101 0.69700003 -0.3923228681 -0.4809845388 0.7840514183
0.062273894 -0.17800771 0.71180004 0.8196361661 -0.3397162855 0.461291045
0.044841401 -0.11521303 0.67432815 -0.6213265657 -0.4976899028 0.6051926017
0.015946567 -0.17842053 0.75799996 0.1587312967 -0.5746434331 0.8028631806
-0.035406064 -0.13463479 0.66387236 0.669136107 -0.5118395686 0.5387736559
0.0048191859 -0.095403217 0.67505735 0.05611243472 -0.6205074787 0.7821904421
-0.031147674 -0.099068888 0.68766665 0.6128719449 -0.5149935484 0.5993075967
-0.0084423004 -0.14014217 0.64200002 0.2906256616 -0.5981296301 0.7468451262
-0.016311079 -0.17633176 0.75560468 -0.4045089483 -0.5532436967 0.7282128334
-0.014979913 -0.20428142 0.73307014 -0.4036671519 -0.5231375098 0.7505863905
-0.0047893873 -0.075086713 0.69443315 0.2160199583 -0.6921600103 0.6886580586
0.038412467 -0.17827323 0.74900001 0.4724300504 -0.5525925756 0.6866230965
0.064972445 -0.1360402 0.6647895 0.09556357563 -0.5905539393 0.8013199568
0.05118243 -0.2103509 0.71200001 0.6873930097 -0.4254848659 0.5886030197
-0.018609002 -0.11067537 0.67033339 0.4352554381 -0.5890464783 0.6808648109
0.081427135 -0.098633178 0.68466669 0.4738699794 -0.5904390812 0.653321445
-0.036547035 -0.17664455 0.73529631 -0.6704916358 -0.443310678 0.5949088931
0.02498889 -0.20506075 0.73553014 0.3311016858 -0.5463548899 0.7693296075
-0.041429222 -0.12844774 0.67833328 0.7488105893 -0.4193862975 0.5132229924
-0.042414006 -0.20385942 0.71378267 -0.7618936896 -0.4365904331 0.4784420729
0.030154703 -0.12858421 0.64900005 -0.4153566658 -0.6310789585 0.6551474333
0.078573331 -0.11815242 0.66637492 0.4635168314 -0.5354561806 0.706001997
0.045326971 -0.14299744 0.652587 -0.5943613052 -0.4827805459 0.6431621909
0.049142428 -0.18954936 0.72800004 0.728094995 -0.4484414756 0.5184379816
0.035922546 -0.08381971 0.69289148 -0.4039435685 -0.6212880611 0.6714393497
-0.0044112215 -0.085114509 0.68484366 0.2087383866 -0.6157294512 0.7598062754
-0.025612924 -0.12343626 0.66355556 0.5467729568 -0.5848433375 0.5991640687
0.034487266 -0.11558346 0.66550869 -0.4474393725 -0.5859687328 0.6756024361
0.034581345 -0.10505065 0.67483336 -0.4429525137 -0.5675128102 0.6940621734
0.018837813 -0.14017549 0.63200003 -0.1893167347 -0.686439991 0.7021105886
-0.0039812354 -0.12861505 0.64847624 0.1930105537 -0.6474539042 0.7372587323
-0.007525913 -0.18865293 0.74899995 -0.2877520621 -0.6064270735 0.7412455678
0.0054901596 -0.11676613 0.65657151 0.03380970284 -0.6602367163 0.7502962351
-0.045437634 -0.10021177 0.71000004 0.7500908971 -0.4585905671 0.4765063822
0.060833216 -0.13442412 0.67700005 -0.03644242138 -0.6710732579 0.7404948473
0.015446892 -0.13319474 0.64284748 -0.09378629923 -0.6975514293 0.7103704214
0.067922376 -0.098273277 0.69800001 -0.02203344181 -0.4580729008 0.8886415362
0.061563164 -0.2014779 0.70528573 0.7827590704 -0.349080354 0.5152000785
0.090702124 -0.12171552 0.66750002 0.5647320747 -0.5680293441 0.5986821651
0.061446171 -0.11527055 0.69481254 -0.229829967 -0.4911969304 0.8401808143
0.051384188 -0.1521728 0.65857142 -0.5580793619 -0.529756844 0.6386744976
0.046457373 -0.16947511 0.7464 0.5948045254 -0.506862998 0.6239370704
0.024219394 -0.11878256 0.65857893 -0.2675292492 -0.6354990005 0.7242714763
0.015044755 -0.19558789 0.74620634 0.151694864 -0.6016740203 0.7842047215
-0.004607521 -0.20204362 0.74127275 -0.2033596784 -0.567679286 0.7977374792
0.014406877 -0.10132364 0.67079991 -0.0695412457 -0.637776196 0.7670759559
0.07418704 -0.11037584 0.68800002 0.4934743345 -0.6433243155 0.5853348374
-0.047182202 -0.1306584 0.69000006 0.7923412323 -0.4091754258 0.4525161386
0.016311698 -0.16919009 0.76483345 0.1234061792 -0.5161768794 0.8475449085
-0.047636352 -0.19338837 0.70763159 -0.7826550603 -0.3893862963 0.4856226444
-0.033052299 -0.21150804 0.71591669 -0.6584888697 -0.4791896343 0.5803186297
0.0046834452 -0.17519365 0.76324564 -0.03149110079 -0.545437634 0.8375596404
-0.041452345 -0.18390213 0.72379178 -0.7520030737 -0.3872698247 0.5333980322
0.05275242 -0.12520871 0.67412823 -0.6431773305 -0.5352343917 0.5475829244
-0.043718867 -0.1409169 0.67257148 0.7495876551 -0.4445855916 0.4903692305
0.051098049 -0.10656672 0.68774998 -0.6106471419 -0.4265920222 0.6671801209
0.024210703 -0.18344508 0.75304651 0.2977364957 -0.5944476724 0.7469839454
0.015914209 -0.11230239 0.66187876 -0.143916294 -0.6453822255 0.7501799464
0.054349244 -0.13656862 0.6655581 -0.5418460965 -0.5477644205 0.6374613047
0.056213055 -0.17855716 0.72521436 0.7765955329 -0.3976486325 0.4886460602
-0.025611551 -0.13391644 0.65354246 0.5157462358 -0.561458528 0.6471244693
0.0070440168 -0.22110294 0.73033333 0.02287954651 -0.5987983346 0.8005729914
0.055995859 -0.094560631 0.70332551 -0.425471127 -0.4972580373 0.7561142445
-0.014384715 -0.16807123 0.76221055 -0.2935807109 -0.539537251 0.7891197205
-0.004708915 -0.11766028 0.65661383 0.1906063557 -0.6521253586 0.7337586284
0.073203608 -0.14165099 0.66649997 0.3189599216 -0.6952325702 0.6441398859
0.026230555 -0.21583138 0.72786504 0.3739486337 -0.5412406921 0.7531406879
0.015221096 -0.20627417 0.73667353 0.1666849256 -0.5537145138 0.8158531785
0.053360507 -0.11529131 0.68387508 -0.6199607253 -0.4477116168 0.6443625093
-0.015480056 -0.083712362 0.69135433 0.3871443272 -0.6188765764 0.6834552288
-0.016020421 -0.21537255 0.72717768 -0.3983207345 -0.5606188178 0.725980103
0.04344387 -0.1826535 0.74203587 0.5738256574 -0.5126844645 0.6386538744
-0.018022951 -0.14025132 0.64250004 0.3975707591 -0.5990716815 0.6950184107
0.064375937 -0.1113235 0.70300001 -0.001631399966 -0.4931356311 0.8699508905
-0.0045614839 -0.096117936 0.67636067 0.2166857272 -0.6141488552 0.758859992
0.0164009 -0.090198256 0.68024999 -0.1558673233 -0.6424484849 0.750310123
-0.023798872 -0.20177999 0.73069221 -0.5247986913 -0.4923635721 0.694380641
-0.037378777 -0.10402399 0.69272733 0.7305053473 -0.444494009 0.5184467435
0.024253692 -0.19459629 0.7440002 0.2944973707 -0.5834169984 0.75689888
0.0047498536 -0.084525488 0.68332374 0.09003455192 -0.6481453776 0.756175518
0.063817076 -0.1849933 0.70433348 0.8137580752 -0.3375982344 0.4731016755
0.03760992 -0.14274442 0.64482361 -0.5615089536 -0.5226299763 0.641533792
0.02523707 -0.13487087 0.64426142 -0.3348191977 -0.665626049 0.6669617891
0.027487706 -0.081126735 0.69060004 -0.2781467736 -0.6531751156 0.7042703032
0.0050541917 -0.1278473 0.64747614 0.06210764498 -0.6865208745 0.724452734
-0.024372917 -0.085315414 0.69405288 0.5073566437 -0.59672755 0.6216956377
-0.0079106418 -0.17880949 0.75772727 -0.227335006 -0.5860277414 0.7777469158
0.040744547 -0.20073621 0.73000002 0.5745611787 -0.4941416681 0.6524595618
-0.033379149 -0.085896693 0.70468295 0.6442986131 -0.5471660495 0.5343114138
-0.026524574 -0.10338985 0.6812973 0.5636664033 -0.5032172799 0.6550210118
-0.036089722 -0.11416692 0.6836459 0.683093071 -0.4647753239 0.5633540154
-0.035142165 -0.14303868 0.65635306 0.6557226181 -0.5251826644 0.5424122214
0.036338124 -0.1691426 0.7536667 0.4395745695 -0.5587932467 0.7032242417
0.058345962 -0.18572666 0.71375006 0.8137580752 -0.3375982344 0.4731016755
0.037165776 -0.13355324 0.65217495 -0.4942498207 -0.5816569924 0.6460590363
-0.01605184 -0.18671678 0.74747223 -0.4093868732 -0.5883414745 0.6973210573
0.042743135 -0.21236561 0.72157151 0.5669961572 -0.5311556458 0.629594326
0.0048871492 -0.10658482 0.66488689 0.06042593345 -0.6499925852 0.7575343847
0.035322264 -0.094135955 0.68332714 -0.4019768536 -0.5859044194 0.7036551833
-0.032041792 -0.20263484 0.72071445 -0.6560478806 -0.4469587505 0.6081357002
0.071064793 -0.10567822 0.70083332 0.2791332603 -0.5740448236 0.769777298
0.055406943 -0.14454968 0.66303927 -0.4772000015 -0.5561974645 0.6803855896
-0.033735573 -0.18435411 0.73384321 -0.6723948121 -0.4435038567 0.592612505
-0.045397881 -0.18425789 0.71347708 -0.7837697268 -0.3870791495 0.4856694341
0.076894008 -0.12606394 0.66445243 0.3242923021 -0.516049087 0.7927975059
0.036378227 -0.1228236 0.66200012 -0.4537134469 -0.5841612816 0.6729782224
0.086398877 -0.11316164 0.67149991 0.5941493511 -0.5477240086 0.5890542865
0.035344284 -0.18499039 0.74505895 0.4890999496 -0.536852479 0.6874377728
-0.03827196 -0.13193004 0.67161548 0.7380037904 -0.4547506869 0.498550117
0.039318498 -0.090735003 0.69000006 -0.4577541947 -0.5719023943 0.6807266474
0.043527041 -0.12515637 0.66518003 -0.5829489231 -0.5230312347 0.6217788458
0.023840927 -0.17321697 0.76167625 0.2686410546 -0.5417959094 0.7964227796
-0.03120758 -0.089951262 0.69800001 0.6045801044 -0.5465807915 0.5794241428
-0.035563953 -0.12468702 0.67418742 0.7005605698 -0.470520556 0.5364934802
0.04194412 -0.10865631 0.67811108 -0.5525404811 -0.5227817297 0.6491519809
-0.01646835 -0.19730753 0.73687512 -0.4186299741 -0.5330038071 0.7352930903
0.046206824 -0.1861252 0.7352857 0.6563093662 -0.4910010099 0.5728664994
-0.031702381 -0.19349565 0.73099995 -0.6388553381 -0.4396142662 0.6313502789
-0.017672066 -0.13111186 0.65025002 0.3739187121 -0.6004266739 0.7068752646
-0.022128237 -0.11664263 0.66614825 0.5022337437 -0.5878436565 0.6341933012
-0.021713279 -0.089868851 0.68800002 0.4735804796 -0.5846838951 0.658685267
-0.019076265 -0.10074653 0.68000001 0.4506736994 -0.5751627684 0.68270123
-0.024247952 -0.19483468 0.73452646 -0.542334199 -0.4952807128 0.6786535382
-0.025118254 -0.16987871 0.75400001 -0.4668534398 -0.5223327875 0.7135939598
0.063920774 -0.14402515 0.66657698 -0.08202141523 -0.6731631756 0.7349311709
0.033741426 -0.20350851 0.73231989 0.4837698042 -0.5247799754 0.7004089952
-0.00060314668 -0.079012215 0.68800002 0.1438235343 -0.6434088945 0.7518908381
0.052497737 -0.097191341 0.69676471 -0.5051730275 -0.4419995248 0.7412399054
0.046024613 -0.093501084 0.69285309 -0.5288207531 -0.5071795583 0.680527389
-0.0052227774 -0.19531178 0.74515301 -0.2345735878 -0.5965979099 0.7674934268
-0.014007641 -0.19344872 0.74325007 -0.3634107113 -0.5676162243 0.7387452126
0.034097508 -0.12640813 0.65550923 -0.4191539288 -0.5925862789 0.6878600717
-0.023522513 -0.12712987 0.65661931 0.50710392 -0.595063448 0.6234942675
-0.027395766 -0.082087904 0.70161539 0.56110847 -0.5935884714 0.5768969059
-0.043771517 -0.10532404 0.70445174 0.768078804 -0.430544138 0.4740112722
-0.042825334 -0.19482571 0.71350008 -0.7826550603 -0.3893862963 0.4856226444
-0.012887292 -0.1184755 0.65816671 0.3332494497 -0.6244884133 0.7063703537
0.033113956 -0.13620883 0.64621568 -0.5085789561 -0.579410851 0.6368913054
0.061124414 -0.12164306 0.69033337 -0.4705017507 -0.4415653646 0.7639687061
-0.0010058873 -0.13712592 0.63740003 0.1271198094 -0.6279280186 0.767819643
0.048096027 -0.2056814 0.71717846 0.6685988903 -0.4478783011 0.5936165452
-0.023464497 -0.1835971 0.74320924 -0.5187085867 -0.542583704 0.6607149839
0.043451313 -0.2043955 0.72341305 0.6284509897 -0.4619805217 0.6257981658
-0.01493143 -0.10463129 0.67301267 0.358078897 -0.6034070253 0.7125163078
0.048125487 -0.13310736 0.66305274 -0.6158064008 -0.4720517397 0.6308324933
0.049488008 -0.1980781 0.71820009 0.7434124351 -0.3601297736 0.5635995865
0.074199043 -0.097931556 0.69384634 0.3716042638 -0.6062794328 0.7030900121
0.047180299 -0.19622034 0.72512889 0.6776533127 -0.4524072111 0.5797531605
0.024472797 -0.096541524 0.67629409 -0.2721872032 -0.6123244762 0.7422754765
0.037831873 -0.11196727 0.67117643 -0.4696641564 -0.5605130196 0.6820855737
-0.0080196373 -0.081554227 0.69037503 0.2847304642 -0.62299788 0.728561759
-0.031988472 -0.12813865 0.66541672 0.6303698421 -0.5460594893 0.5517724752
0.021653665 -0.20116258 0.74100012 0.2698177397 -0.5799658298 0.7686598897
-0.024541484 -0.096133642 0.68503505 0.5147146583 -0.5571721792 0.651634872
-0.032919034 -0.10588808 0.68520522 0.6258598566 -0.4904639423 0.6064194441
-0.029172545 -0.12236806 0.67000002 0.606122911 -0.5370256901 0.5867012739
0.015073364 -0.18486455 0.75439 0.168892473 -0.5999160409 0.7820333242
0.0034434921 -0.16853768 0.76631254 -0.05702214316 -0.5467969179 0.8353212476
-0.025974926 -0.20551993 0.7246781 -0.5522516966 -0.4799513817 0.6816632152
0.028276592 -0.1977945 0.73866665 0.3773872554 -0.5645070076 0.7341053486
-0.039516628 -0.10053203 0.70066667 0.7412035465 -0.4455679655 0.5020821691
-0.0048415596 -0.2144828 0.73162079 -0.197733134 -0.5754269958 0.793590188
-0.032206289 -0.17499837 0.74328572 -0.612739861 -0.4638266861 0.639855206
