# .PCD v0.7 - Point Cloud Data file format
VERSION 0.7
FIELDS x y z normal_x normal_y normal_z
SIZE 4 4 4 4 4 4
TYPE F F F F F F
COUNT 1 1 1 1 1 1
WIDTH 206
HEIGHT 1
VIEWPOINT 0 0 0 1 0 0 0
POINTS 206
DATA ascii
0.071320862 -0.18328008 0.73229998 0.7197010517 -0.435605526 0.5406276584
-0.030728335 -0.097203046 0.7153334 0.7120149136 -0.4642629623 0.5267776251
0.03351327 -0.14316458 0.6337716 -0.09192924947 -0.6651882529 0.7409949899
-0.028385941 -0.19598146 0.70700002 -0.7558626533 -0.3760336637 0.5359760523
0.073539704 -0.095274515 0.70312136 -0.1925339103 -0.3040699661 0.9329909682
0.01554593 -0.17145585 0.77100009 -0.1268107593 -0.591034472 0.796616137
0.083161771 -0.15590255 0.67478788 0.505304575 -0.7820555568 0.3647689223
-0.021542571 -0.1461754 0.66409099 0.6903711557 -0.4712750912 0.5488966107
0.024474103 -0.22325371 0.73208553 0.0200669691 -0.6209082603 0.7836263776
0.016107205 -0.097957224 0.67852014 0.2018153667 -0.6332781315 0.7471475005
0.10584478 -0.11054832 0.67075002 0.7727909684 -0.4096186757 0.484774828
0.052915357 -0.117878 0.66676188 -0.4086786211 -0.5871944427 0.6987019777
-0.0034130614 -0.19394562 0.74227488 -0.5173789859 -0.5064422488 0.6898080707
0.084402703 -0.19516429 0.69600004 0.8919831514 -0.2610431612 0.3690834045
0.059250392 -0.21809188 0.71900004 0.5726903677 -0.5240958333 0.6303565502
-0.014519246 -0.11529528 0.68545634 0.6549208164 -0.5132605433 0.5546551943
0.0428169 -0.19141363 0.75142854 0.3024019599 -0.5873365402 0.7507255673
0.0062025716 -0.12650695 0.65741205 0.3326535821 -0.628213644 0.7033414841
0.083443344 -0.12632167 0.69511122 -0.6427975893 -0.165045321 0.7480450273
0.045191381 -0.084199652 0.6923728 -0.2762050033 -0.6830642819 0.6761168242
0.093400232 -0.13350333 0.65777165 0.4965009689 -0.5224103928 0.6932345629
0.06455569 -0.14533214 0.6551159 -0.3816430271 -0.5575343966 0.7372272611
-0.0023773254 -0.087851733 0.69700009 0.5001444817 -0.6392613053 0.5841237307
-0.0026488483 -0.22201379 0.72633338 -0.4604006708 -0.499183476 0.734062016
-0.030227175 -0.12522745 0.70366669 0.7502981424 -0.4423460364 0.4913071096
-0.0211189 -0.17983063 0.73000002 -0.748926878 -0.3746616244 0.5465686321
0.073582359 -0.13354486 0.67482865 -0.526070416 -0.7149965763 0.4604669511
0.028597305 -0.11929987 0.65900004 -0.01968370751 -0.6700310707 0.7420720458
0.089423209 -0.10208374 0.68766671 0.653627634 0.04152585566 0.7556762099
0.06349466 -0.1065108 0.68563163 -0.5052595139 -0.5063833594 0.6987765431
-0.025895884 -0.13489564 0.68340546 0.7403386235 -0.4668698311 0.4836643934
0.024694614 -0.20449588 0.74417675 0.01004214119 -0.5915571451 0.8062005043
0.04618435 -0.13199024 0.6508708 -0.3079110086 -0.6256509423 0.7167647481
0.046509054 -0.20681038 0.73610264 0.3694244623 -0.5754193068 0.7296698689
0.015110878 -0.18716761 0.75607675 -0.1910040379 -0.6102051735 0.76887393
-0.0048101633 -0.17596161 0.75418353 -0.4985531569 -0.4879244566 0.716501534
0.03511811 -0.10445424 0.67275286 -0.1273614168 -0.6279277205 0.7677798271
-0.014011612 -0.20476462 0.72373575 -0.6749483347 -0.4132898152 0.6112579107
0.059752721 -0.17925817 0.74900001 0.5308171511 -0.4952332973 0.6877333522
0.0750807 -0.19525456 0.71429557 0.7942926884 -0.3723278046 0.4800741374
-0.011415295 -0.1284937 0.66775006 0.6073049307 -0.5420523882 0.5808269382
-0.0020565251 -0.14298582 0.64861548 0.4503829777 -0.5000441074 0.7396695614
0.034067221 -0.17718068 0.76283318 0.1360469609 -0.5844156146 0.7999684811
-0.016738003 -0.10102152 0.7012223 0.7044204473 -0.4741007388 0.528223753
0.025432466 -0.082107157 0.69131035 0.04084803909 -0.6937716603 0.7190356851
0.0041416297 -0.11310512 0.67124993 0.3821027279 -0.6210457087 0.6843242645
0.015881341 -0.14140669 0.64263999 0.1568199098 -0.6314575672 0.7593871951
0.061801594 -0.20176217 0.73011112 0.6190716028 -0.4994887412 0.6060209274
0.081007212 -0.17939317 0.71633339 0.8197855949 -0.3506128192 0.4527938068
0.045044653 -0.22210573 0.72745454 0.3441762924 -0.5779882073 0.739913702
-0.028018266 -0.15082173 0.68000001 0.7287791371 -0.4743247926 0.4938592613
0.004204209 -0.20718376 0.73762524 -0.3720886111 -0.5164926052 0.7712233663
0.049479067 -0.10134266 0.68000001 -0.3582500219 -0.5955565572 0.7190057635
0.082868494 -0.10877277 0.70019996 0.3067260385 -0.08003056049 0.9484272599
0.018934831 -0.10911929 0.66800004 0.1562575549 -0.6408110857 0.7516281009
0.058448143 -0.13139364 0.66155559 -0.4514271915 -0.5935508609 0.6662663817
0.07241004 -0.21222597 0.71346164 0.7436481118 -0.4212193489 0.5191933513
0.078148901 -0.13492835 0.65688246 0.06967258453 -0.5585365295 0.826548636
0.034743603 -0.092491671 0.68235135 -0.1287125051 -0.6543731093 0.745136857
-0.028087389 -0.11257985 0.71192318 0.7350558043 -0.4502565265 0.5069141984
0.023932999 -0.13049184 0.65000004 0.05052216351 -0.6777951717 0.7335128784
0.10217582 -0.12265686 0.66312498 0.672927022 -0.5161697865 0.5298471451
-0.004805692 -0.10458402 0.68448144 0.5239859223 -0.5535296798 0.6473358274
0.062081154 -0.088757165 0.69736362 -0.4020061195 -0.5766180754 0.7112683654
0.069552109 -0.12119215 0.68099999 -0.6677650809 -0.4833084345 0.5661296248
-0.031047678 -0.18376233 0.71400005 -0.7631069422 -0.3543582261 0.5404609442
0.062281404 -0.19092925 0.74114293 0.6176093817 -0.501856029 0.6055569053
0.049356334 -0.17715175 0.75825 0.356003046 -0.5507575274 0.7549357414
-0.011368905 -0.08908657 0.70733339 0.645837307 -0.5502132773 0.5293009877
-0.012615908 -0.18374656 0.74246156 -0.6393023133 -0.4351458251 0.6339879036
-0.021737278 -0.19341907 0.7240001 -0.7575656772 -0.3585358262 0.5454780459
0.0078409072 -0.089179538 0.68800008 0.3470094204 -0.6495233774 0.6765381694
0.0068226587 -0.17715342 0.76127779 -0.2922388315 -0.5843714476 0.7570379972
0.053150378 -0.14333062 0.6480909 -0.4255844951 -0.5540241599 0.7154963613
0.034717027 -0.21478514 0.73468506 0.2100755274 -0.585316062 0.7831177115
-0.010960086 -0.13902004 0.65800005 0.5974277258 -0.5056036711 0.6224508286
0.014163028 -0.19788212 0.74845821 -0.2134408057 -0.6167593598 0.7576615214
0.015059075 -0.21495125 0.73513663 -0.1485910416 -0.6011617184 0.7851912379
0.075734727 -0.15367335 0.66459453 -0.4108389616 -0.560272336 0.7192400694
-0.013206983 -0.15101898 0.65500003 0.6492360234 -0.4846860468 0.5861501694
-0.013171915 -0.19400904 0.73312503 -0.6602600813 -0.4158134162 0.6254245043
-0.025634486 -0.12435061 0.69217253 0.7456979752 -0.4596044123 0.4823881388
0.095568314 -0.098116159 0.67771435 0.5174002051 -0.6276264787 0.5817061067
0.034438483 -0.13518891 0.64572591 -0.130402863 -0.6768062115 0.7245194316
0.024879098 -0.19396286 0.75342232 -0.03394847736 -0.6240304112 0.7806622386
0.081859633 -0.13562839 0.68760002 -0.7154740691 -0.5165804029 0.4703631997
0.039983891 -0.12226958 0.66100001 -0.2415244877 -0.6418004632 0.7278448343
-0.022902725 -0.20330599 0.71450001 -0.7412096858 -0.3891758621 0.5469464064
0.082970917 -0.18832006 0.70541185 0.8024101257 -0.375998646 0.4634253681
0.075970806 -0.11499266 0.69322228 -0.4740026891 -0.2367819697 0.8480894566
0.077096313 -0.20453031 0.70638895 0.7751267552 -0.399543047 0.4894322157
0.024580536 -0.18343307 0.7615453 -0.008197762072 -0.6136810184 0.7895115018
0.0073437844 -0.2227423 0.73023522 -0.2471433729 -0.5941458941 0.7654480934
0.035200205 -0.20454891 0.74336529 0.1800238937 -0.6000676751 0.7794294357
0.084071212 -0.1422085 0.66136372 0.1381225884 -0.2301165909 0.9633111954
0.096515737 -0.10821342 0.66723084 0.5962409377 -0.547139883 0.5874816179
0.018472681 -0.119498 0.65850008 0.1226364896 -0.6514065266 0.7487521768
0.0024951687 -0.18923885 0.74900001 -0.4231158197 -0.5406916738 0.7270663977
-0.004516243 -0.20442007 0.73346418 -0.5355209708 -0.4645168781 0.7052952051
0.014584009 -0.083044983 0.69212526 0.2442654222 -0.7186442018 0.6510643959
0.070855267 -0.1794129 0.74150002 0.6912943721 -0.4515982866 0.5640665293
0.046198007 -0.11164507 0.67073905 -0.2860691249 -0.6018306613 0.7456301451
0.035427578 -0.082718194 0.69162863 -0.1075609922 -0.7040348053 0.7019726634
0.0062136054 -0.13762192 0.64771044 0.3537174761 -0.5750406384 0.7377074361
-0.0016010124 -0.21321855 0.73075008 -0.4244275093 -0.5095220208 0.7484975457
0.025128465 -0.092737004 0.68250024 0.07211499661 -0.6650605798 0.7432993054
0.074823856 -0.14442669 0.66194004 -0.3307571113 -0.442541182 0.8335208893
0.075239584 -0.10480635 0.69610709 -0.1906326264 -0.2847874761 0.9394441247
-0.025274813 -0.10488792 0.71669447 0.7249033451 -0.4588641524 0.5137692094
-0.025177697 -0.1443177 0.67380846 0.7133713961 -0.4680806398 0.5215378404
0.070063196 -0.20072159 0.72000003 0.7449117303 -0.4068656862 0.5287408233
-0.0044934936 -0.11551812 0.67392534 0.5196200013 -0.5732167959 0.633575201
0.045026656 -0.14237696 0.64359999 -0.3255006671 -0.6076716781 0.7244200706
0.035585061 -0.18746684 0.75579399 0.1645127237 -0.5848879218 0.7942554355
0.0033335511 -0.10193009 0.68088239 0.4050467014 -0.5947204828 0.6944383979
0.035031948 -0.11488961 0.66401356 -0.1415936798 -0.6492649317 0.7472658753
-0.017513443 -0.13334934 0.67275864 0.7080112696 -0.4828212559 0.5153675079
0.07520131 -0.1852764 0.72414279 0.790168643 -0.3894849718 0.4732177258
0.056382485 -0.093135118 0.69154298 -0.3988348842 -0.5853226781 0.7059236169
0.014812412 -0.13137248 0.65114295 0.1857652813 -0.6465393305 0.7399176955
-0.01811544 -0.092791915 0.71242857 0.7028004527 -0.4715887606 0.5326119661
0.053965215 -0.19411863 0.74356145 0.4738830626 -0.5540371537 0.6844543219
-0.020193139 -0.10892057 0.69800001 0.7284767032 -0.4624124765 0.5054665208
0.024807125 -0.10393938 0.67277294 0.05372901261 -0.6404878497 0.7660864592
0.02482534 -0.21484119 0.7355969 0.01752052084 -0.6120331883 0.79063797
0.063173577 -0.11610129 0.67692512 -0.5763490796 -0.5195135474 0.6308149099
-0.01701873 -0.21178864 0.71900004 -0.7045378685 -0.4355342388 0.5603001714
-0.018088492 -0.12306018 0.6827392 0.7186747789 -0.4819478393 0.5012313128
0.05423858 -0.085273638 0.69511336 -0.3411037624 -0.6537135839 0.6755048633
-0.021875506 -0.11611839 0.69314992 0.7374034524 -0.4759430885 0.4792852104
0.054938685 -0.13498044 0.65439391 -0.4054057896 -0.5645725727 0.7189603448
0.045681618 -0.094206408 0.68332207 -0.2848519981 -0.625782907 0.726123333
0.042261321 -0.18128021 0.76116675 0.2631137669 -0.5410836935 0.7987487316
0.015633555 -0.22372189 0.73261899 -0.1125850305 -0.609231174 0.7849598527
0.05098401 -0.21097569 0.73000002 0.4910519719 -0.555793345 0.6707918644
0.015303393 -0.20443514 0.74296737 -0.1505156457 -0.5725696087 0.8059212565
0.078552581 -0.19587319 0.70644015 0.7942926884 -0.3723278046 0.4800741374
-0.016310431 -0.18571232 0.73494607 -0.7107608318 -0.3992126882 0.5791789889
-0.028269345 -0.13236825 0.69200003 0.7548927665 -0.4553143084 0.4720442593
0.066005602 -0.12386096 0.67384094 -0.5839068294 -0.5837289095 0.5641926527
0.0068633412 -0.1170858 0.66434878 0.3398797512 -0.630926311 0.6974337101
0.07095214 -0.15171067 0.65800005 -0.3122597039 -0.1292827725 0.9411587715
0.035033949 -0.125049 0.65484738 -0.1595803201 -0.6480458379 0.7446950674
0.065660141 -0.13468085 0.66425002 -0.4072500169 -0.6215758324 0.6691718102
-0.03211493 -0.18898828 0.70450002 -0.8949255943 -0.1954087019 0.401152879
-0.0021221593 -0.10827672 0.67757142 0.4784110487 -0.5733722448 0.6651068926
0.035601657 -0.19751957 0.74768567 0.1875806004 -0.6222282648 0.760029912
-0.023581561 -0.11266153 0.70452946 0.7350558043 -0.4502565265 0.5069141984
0.064012758 -0.19467363 0.73400009 0.6429342628 -0.4983648062 0.5816081762
-0.0051509175 -0.094829366 0.69360733 0.5492965579 -0.573912859 0.6073692441
0.062675677 -0.1267105 0.66689998 -0.5129314661 -0.5954689384 0.6183187366
0.052525375 -0.2215513 0.72412497 0.4714115262 -0.5572291017 0.6835692525
0.095761217 -0.11508484 0.66285962 0.5857452154 -0.5237364173 0.6185488105
0.083127402 -0.097986199 0.69080007 0.1547222435 -0.3381460309 0.9282878041
0.06206939 -0.13786905 0.65715784 -0.4059675634 -0.5589268208 0.7230429649
0.050019968 -0.20072949 0.74100006 0.4407719672 -0.5741724372 0.6899609566
0.014707769 -0.10450749 0.6739502 0.217131868 -0.6440575123 0.733514607
0.034444354 -0.22182567 0.73080945 0.1733371168 -0.6110848784 0.7723532319
-0.011055206 -0.1083389 0.68783337 0.6276785731 -0.5274657011 0.5725377798
0.056076165 -0.18626902 0.74786681 0.5040053725 -0.5278972983 0.683595717
0.071541496 -0.11562011 0.68636847 -0.5930048823 -0.3711837828 0.7145403028
-0.014196995 -0.12527055 0.67450005 0.6565310955 -0.5190548897 0.5473106503
0.053757533 -0.10736161 0.67702711 -0.4379312694 -0.5717163682 0.6937986612
-0.014055143 -0.13612746 0.66471159 0.6500992775 -0.4998183548 0.5723220706
0.005360954 -0.18497419 0.75503147 -0.3619269431 -0.5669195056 0.7400075197
-0.0044120047 -0.12576725 0.66526228 0.509636879 -0.5898231864 0.626401484
0.015160688 -0.17606287 0.76457876 -0.160192132 -0.610278666 0.7758211493
0.044743747 -0.10496619 0.67472225 -0.2746440768 -0.6105065346 0.7428676486
0.015243552 -0.11544086 0.66447222 0.2088987678 -0.6436987519 0.7362154722
0.054747257 -0.20370279 0.7330333 0.5269517899 -0.5344663262 0.6608082652
-0.010819733 -0.11758423 0.67809999 0.6151939631 -0.5267274976 0.5865957141
0.06442292 -0.20505928 0.7233035 0.6654495597 -0.476462692 0.5745956898
0.044121351 -0.21395853 0.73226422 0.3606187105 -0.5776038766 0.7323441505
0.087876566 -0.12802991 0.65700001 0.3554213941 -0.5313417315 0.7689939141
0.066992998 -0.10353614 0.69193774 -0.4342796803 -0.4985709488 0.750218749
-0.014753408 -0.10513088 0.69390184 0.666477561 -0.5172914863 0.5368586183
0.0051012053 -0.085012406 0.69398314 0.3683947325 -0.6804863811 0.6334221363
-0.0043099774 -0.13597471 0.65533853 0.504514873 -0.5234099627 0.6866635084
-0.027283181 -0.1519834 0.67235714 0.7050387859 -0.469502449 0.53149575
-0.0083913282 -0.1016406 0.69071436 0.6241539121 -0.5384201407 0.5661587119
0.082510844 -0.11632621 0.69716668 -0.2975299656 -0.2148422748 0.9302250743
0.057266455 -0.19759364 0.73747373 0.5370625257 -0.5465984941 0.642490387
0.051825292 -0.12904122 0.65830004 -0.4156293869 -0.5877953768 0.6940812469
0.036638007 -0.14132895 0.64160001 -0.1646963954 -0.6586652398 0.734190166
0.072242022 -0.20451662 0.71234375 0.7610775232 -0.3871788085 0.5204359293
0.045103949 -0.1850515 0.75506365 0.3214460015 -0.5579088926 0.7651209831
-0.025488835 -0.19513798 0.7140578 -0.7523939013 -0.3716464639 0.5438587666
0.064275257 -0.095574938 0.69462508 -0.4479179978 -0.5216529965 0.726118207
0.055463757 -0.1140711 0.67287725 -0.4431343377 -0.5588140488 0.7009699345
-0.00086636585 -0.12907186 0.65875006 0.4608992338 -0.579061389 0.6725026369
0.026453966 -0.14239804 0.63647377 0.03343072161 -0.6527109742 0.7568690181
-0.0083911605 -0.091070473 0.70033336 0.5899182558 -0.5679305196 0.5739785433
0.0252627 -0.13547844 0.64444691 0.03824825212 -0.6790029407 0.7331385612
-0.00971785 -0.189822 0.73900002 -0.6423244476 -0.4416139126 0.6264155507
0.0049123438 -0.19563554 0.74579114 -0.3705559075 -0.5566182137 0.7435485721
0.031292617 -0.12915316 0.64900005 -0.07585138828 -0.6770507097 0.7320170403
0.055053089 -0.12498558 0.66376656 -0.4367452264 -0.5879378319 0.6808691025
0.053799417 -0.096877739 0.68553853 -0.4062992632 -0.5804233551 0.7057121992
0.084956467 -0.10441779 0.69424003 0.4522854388 -0.03681238741 0.8911132216
-0.0022107342 -0.098252773 0.68758339 0.5116263032 -0.5767365098 0.636877954
0.058758803 -0.12104246 0.67025006 -0.5001027584 -0.5648924112 0.6563488245
0.071707055 -0.19401082 0.72288471 0.7765849233 -0.3942875862 0.4913787842
-0.0027222789 -0.18285549 0.75230432 -0.4608058631 -0.5209017992 0.7185536027
-0.00064961001 -0.20072949 0.74100006 -0.4946542382 -0.5120842457 0.7022014856
0.048996899 -0.090130098 0.69000006 -0.3225990534 -0.6440477967 0.6936370134
0.024827596 -0.11497223 0.66371745 0.0332855247 -0.660192132 0.75035882
