# .PCD v0.7 - Point Cloud Data file format
VERSION 0.7
FIELDS x y z normal_x normal_y normal_z
SIZE 4 4 4 4 4 4
TYPE F F F F F F
COUNT 1 1 1 1 1 1
WIDTH 206
HEIGHT 1
VIEWPOINT 0 0 0 1 0 0 0
POINTS 206
DATA ascii
-0.091072276 -0.046816073 0.5278182 0.6541697383 -0.5110552907 0.5575701594
0.041166991 -0.043156072 0.52018183 0.3711915016 -0.6718936563 0.6409179568
-0.02469687 -0.14295027 0.5679003 0.2860333323 -0.6698148251 0.6852248311
-0.059245132 -0.0798994 0.62 -0.2068433762 -0.6162567735 0.759896934
-0.024306653 -0.0029589036 0.54203182 -0.3195420504 -0.6966968179 0.6422666311
-0.094473064 -0.12599999 0.54864514 -0.7800096869 -0.371792376 0.5033441782
-0.028507883 -0.056587085 0.48899999 -0.2636538744 -0.6070327759 0.7496651411
0.020435013 -0.11583229 0.53710002 0.948431313 -0.08011962473 0.3066902459
-0.0056527662 -0.097639218 0.59491116 0.568816483 -0.5552330017 0.6067652702
-0.092870757 -0.088866279 0.58284611 -0.7633133531 -0.4411520362 0.4719507992
-0.073867232 -0.006586201 0.54572886 0.4628076553 -0.6359897852 0.6175160408
-0.057915293 -0.11841045 0.58835715 -0.2586913109 -0.6639669538 0.7015886903
0.014003468 -0.027119035 0.55205172 -0.408970505 -0.5757192969 0.7080186605
0.0087588495 -0.072558559 0.51675004 -0.356425494 -0.5856620669 0.7279840708
-0.055218413 -0.031951487 0.5120545 0.2312500477 -0.6704070568 0.7050374746
-0.07543657 -0.061202031 0.49596006 0.5088211298 -0.5475878716 0.6642654538
-0.012615617 -0.032484338 0.52100009 -0.4951598942 -0.5854256153 0.6419451237
-0.065836653 -0.14352649 0.565373 -0.324477911 -0.6246916056 0.7102636695
-0.00049750833 -0.11940156 0.5675 0.6907799244 -0.4843571782 0.536862433
-0.0277202 -0.085878268 0.62 0.1345175803 -0.6176683903 0.7748488784
-0.024972621 -0.118928 0.58847064 0.2540621161 -0.6613950133 0.7056975961
-0.084000103 -0.11463521 0.57380217 -0.6345977783 -0.5003420711 0.5890190601
-0.10076494 -0.096863024 0.55642861 -0.8358384967 -0.3551772237 0.4185966253
-0.049621962 -0.0097388895 0.52900004 0.06520502269 -0.6975711584 0.7135424018
-0.074415505 -0.094429798 0.60325313 -0.5081450939 -0.5772922039 0.6391575336
-0.091783747 -0.025810821 0.54814285 0.5909672379 -0.5561707616 0.5843216777
-0.045909848 -0.10075402 0.61034995 -0.05712694302 -0.6829791665 0.7282004952
-0.005808468 -0.055542141 0.5053488 -0.5509960651 -0.5544342995 0.6237033606
-0.073992565 -0.026900198 0.52623439 0.5140596628 -0.5761876106 0.6354136467
0.0056835306 -0.042056091 0.53303856 -0.6657084227 -0.4991756082 0.5546674132
-0.045327749 -0.1364243 0.57600015 -0.04288383946 -0.6839435697 0.7282733917
0.034664236 -0.024938414 0.53200001 0.0954875499 -0.8585160375 0.5038177371
-0.0050407089 -0.014670303 0.54394579 -0.5813570619 -0.5930958986 0.5570110083
-0.055157296 -0.055821631 0.48855567 0.1924540102 -0.6054019332 0.7723017335
-0.033326305 -0.031208072 0.51120007 -0.1894569248 -0.6753613949 0.7127363682
0.02563628 -0.056606989 0.51275003 -0.02454408631 -0.3385828137 0.9406164289
-0.025125444 -0.10369137 0.6037392 0.2908236384 -0.6609005332 0.6918324232
-0.092201471 -0.063298434 0.51400006 0.6256264448 -0.5242201686 0.5777410865
-0.076371148 -0.043330271 0.51326567 0.5391235948 -0.5763959289 0.6140956283
-0.025783336 -0.017268997 0.52755076 -0.2988206446 -0.6616491675 0.6876965761
0.0040477891 -0.099693 0.57725 0.6839075685 -0.508322835 0.5233339071
-0.081715249 -0.13400999 0.56152779 -0.5951797962 -0.5226919055 0.6103721857
0.0089701992 -0.12542425 0.54816669 0.737239778 -0.4618835449 0.4930933714
-0.0079444014 -0.11311347 0.58238882 0.5967513919 -0.5582188964 0.5764368773
-0.044416931 -0.040863037 0.50196552 0.02743360214 -0.6895103455 0.7237560749
-0.076712258 -0.10733454 0.58747733 -0.5666139722 -0.5617896318 0.6027777195
-0.0021465858 -0.13355461 0.55819231 0.6478558183 -0.5289953947 0.5481302142
-0.066546485 -0.12700066 0.57676375 -0.3937910795 -0.5998863578 0.6964660287
-0.065589204 -0.013889994 0.53245211 0.375795573 -0.6593566537 0.6511731148
-0.02451529 -0.043025095 0.50406742 -0.3359414935 -0.6382020116 0.6927059293
0.031443156 -0.030622093 0.54699999 0.05803881958 -0.8677921891 0.4935262799
-0.1010595 -0.10968006 0.54633337 -0.8118361831 -0.3750148714 0.4475331306
0.00090822671 -0.047911145 0.51800001 -0.5702108741 -0.5443338156 0.6152724624
-0.014420734 -0.12621763 0.57562661 0.502497375 -0.567477107 0.6522776484
-0.044184502 -0.00067653618 0.54028571 -0.003971902654 -0.7411906719 0.6712828279
-0.011948857 -0.021511428 0.53200006 -0.5005565882 -0.5978361368 0.6261270642
-0.045809451 -0.086087056 0.62238038 -0.03874664381 -0.6120463014 0.7898721695
-0.044987425 -0.11530156 0.59514153 -0.04909864813 -0.6880408525 0.7240090966
-0.044985984 -0.020925211 0.52031249 0.03165769577 -0.6940101981 0.7192687988
0.010591712 -0.10384309 0.56459999 0.7691991925 -0.424738735 0.477419734
0.012638202 -0.042745128 0.54599994 -0.3438521326 -0.6804354787 0.6471269131
-0.0629135 -0.048493821 0.49834999 0.3499829471 -0.6426794529 0.6815240383
-0.086520813 -0.087759838 0.595788 -0.663464129 -0.5017413497 0.5550414324
-0.018726388 -0.091489717 0.61030006 0.283534795 -0.6454951167 0.7091854811
-0.057192799 -0.1086156 0.59853339 -0.2593382299 -0.6786427498 0.687159121
-0.086768903 -0.034438092 0.53307033 0.6044806242 -0.5406326056 0.5850808024
0.00094285503 -0.029686125 0.53750002 -0.6553486586 -0.5011693239 0.5651083589
-0.091207743 -0.1029963 0.57180959 -0.7919980288 -0.4086230099 0.4536148012
-0.013556653 -0.061501443 0.49558342 -0.4727676809 -0.5533671975 0.6857663393
-0.082581155 -0.016856801 0.54381585 0.5477097034 -0.5750513077 0.6077253819
-0.044882912 -0.12517458 0.58593071 -0.03482859209 -0.6770555973 0.7351073027
-0.063861996 -0.092326581 0.61126488 -0.3357185721 -0.626824677 0.7031243443
-0.013188764 -0.04220587 0.5120731 -0.5153878331 -0.579931736 0.6309155822
-0.09233474 -0.11306245 0.56365913 -0.799685061 -0.3877954185 0.458386898
0.0021361515 -0.065685146 0.50697505 -0.5223477483 -0.5397529602 0.6601663232
-0.034981608 -0.09458594 0.61346066 0.09959811717 -0.6565659046 0.7476639748
-0.098916925 -0.089969672 0.56700003 -0.8185504675 -0.3798519373 0.4309149086
-0.082716964 -0.057350308 0.50569689 0.5843361616 -0.5384191871 0.6071705222
-0.014095074 -0.13632087 0.56639439 0.4742593765 -0.5880470872 0.6551936269
0.0023191301 -0.01547961 0.55404645 -0.5517905951 -0.5624365807 0.6157858372
-0.014546711 -0.10573219 0.59566677 0.4591075182 -0.624622345 0.6317176819
-0.035194978 -0.0063282554 0.5346958 -0.1449323148 -0.7152943611 0.6836290359
-0.03516591 -0.046470646 0.49687061 -0.1674278677 -0.6452128291 0.7454316616
-0.036345977 -0.1424074 0.57039458 0.09901374578 -0.6853352189 0.7214651108
0.020356201 -0.070115797 0.51600003 -0.1053744927 -0.3992261589 0.9107769728
-0.093986221 -0.036199134 0.54212505 0.6495885849 -0.5120220184 0.5620214343
-0.052299879 -0.14400356 0.57050002 -0.1333171725 -0.6744534373 0.7261812091
0.01146467 -0.020888085 0.56157148 -0.4271104634 -0.5688183308 0.7028672099
0.03582019 -0.03373592 0.52428579 0.2694233358 -0.7550351024 0.5977733731
-0.055626366 -0.0011735518 0.54030436 0.2107250392 -0.750777185 0.6260420084
-0.054151699 -0.13067593 0.57999998 -0.1996907294 -0.6577678323 0.7262679338
-0.085583694 -0.053144742 0.51569086 0.6251494288 -0.5304239392 0.5725719333
-0.044176109 -0.029896963 0.509 -0.001603428624 -0.6888804436 0.7248731852
-0.045166105 -0.051826537 0.49140811 0.04532647505 -0.6476098895 0.7606227398
-0.036666095 -0.1309019 0.57999998 0.128217563 -0.6584396362 0.7416316867
-0.055856612 -0.021945525 0.52155268 0.2160568982 -0.6702255011 0.7100121379
-0.090411946 -0.12333691 0.56050003 -0.7797649503 -0.3800329268 0.497535497
-0.033082768 -0.10940068 0.59900004 0.1503359973 -0.6880263686 0.7099428177
0.0069348481 -0.11735407 0.55510533 0.7499546409 -0.4405377805 0.4934516549
-0.062795199 -0.038328346 0.50774074 0.3387765586 -0.6426533461 0.6871878505
-0.025361739 -0.13438962 0.57407409 0.274959147 -0.6302217841 0.7260977626
0.0065336013 -0.034347594 0.54480946 -0.5050803423 -0.5876073241 0.6321482658
-0.05526736 -0.041932646 0.50170696 0.2279814035 -0.6650195122 0.7111775279
-0.056948263 -0.099303536 0.60900003 -0.2361638546 -0.6506320238 0.721737206
-0.062820353 -0.028384671 0.51737505 0.3347129226 -0.6427680254 0.6890693307
-0.026246542 -0.027503567 0.51706815 -0.3017632961 -0.6424302459 0.7044304609
-0.03514469 -0.021341259 0.52114284 -0.1257432997 -0.6791357994 0.7231619358
-0.071902648 -0.0866981 0.61230439 -0.4079793096 -0.5997018814 0.6884115934
-0.064299576 -0.10271664 0.60172552 -0.3709561825 -0.6503310204 0.6629185677
-0.084074363 -0.011672323 0.55193752 0.5341913104 -0.5787061453 0.6162295341
-0.064390995 -0.11253219 0.59334546 -0.3630692363 -0.6536750793 0.6639952064
-0.098100059 -0.10611068 0.55544132 -0.8221313357 -0.3659922481 0.4360616505
-0.094976082 -0.11586351 0.55487049 -0.7959648371 -0.3718137741 0.4776971042
-0.01968555 -0.049432602 0.49900001 -0.418795377 -0.6054452062 0.6767913699
-0.015494227 -0.0057925791 0.54391032 -0.4394637942 -0.6755701303 0.5920106173
-0.056196809 -0.088529192 0.61821753 -0.1750190407 -0.6411318779 0.747206986
-0.00051314227 -0.099034689 0.58533341 0.6229427457 -0.5324326158 0.5731124282
-0.0012160244 -0.10851739 0.57790005 0.6774412394 -0.5095878243 0.5304654837
-0.065727644 -0.0038404202 0.54217345 0.3599922061 -0.6870303154 0.6311853528
-0.074967742 -0.12500064 0.57345712 -0.5064966083 -0.5150991678 0.6914724112
0.01338818 -0.11570913 0.54310364 0.7579903603 -0.4394640326 0.4819979072
-0.083078973 -0.026244633 0.53511363 0.5969392061 -0.5436811447 0.5899782777
0.023222171 -0.028587176 0.55061114 -0.0791541934 -0.8431664705 0.5317940116
0.03410355 -0.054151226 0.51523942 0.1356255412 -0.4513727129 0.8819684982
-0.080770373 -0.10102795 0.59250003 -0.6243963838 -0.5460678935 0.5585149527
-0.083726063 -0.10397751 0.58292961 -0.6742830873 -0.5103091002 0.533785522
-0.0019181065 -0.042156234 0.5242272 -0.6238678098 -0.5312750936 0.5731803775
-0.074718066 -0.14357337 0.56457138 -0.4695498049 -0.5866417885 0.6598290801
-0.044961929 -0.093071073 0.61700547 -0.06538368762 -0.6392031312 0.7662534714
-0.082064927 -0.035677239 0.5257619 0.598144114 -0.5419534445 0.5903474092
0.0030249089 -0.056349054 0.51690006 -0.518992126 -0.5626659393 0.6434704065
-0.0083950991 -0.028299304 0.52742112 -0.5346977115 -0.5668416023 0.6267287731
-0.087632634 -0.095651455 0.58429784 -0.7180196643 -0.4785694182 0.505390048
-0.038792498 -0.12051537 0.59000003 0.09422267228 -0.6750801802 0.7317026854
-0.072090313 -0.12170237 0.58085716 -0.4727376997 -0.5946671963 0.6502999663
0.034419701 -0.045385089 0.51546133 0.2301873118 -0.5894120932 0.7743430734
-0.0072161164 -0.1231605 0.57228887 0.5752715468 -0.5346482992 0.6190426946
0.006287714 -0.064219825 0.51424676 -0.4098669589 -0.5789802074 0.7048339844
-0.0015319493 -0.022154244 0.54041177 -0.6222392917 -0.5299941897 0.5761288404
-0.095826797 -0.062381718 0.52157146 0.6492217183 -0.5100791454 0.5642077923
-0.073198259 -0.047078259 0.50644064 0.5134173036 -0.5807331204 0.6317844987
-0.072993673 -0.036348514 0.51649159 0.5078101158 -0.5921631455 0.6256769896
-0.057607647 -0.01142027 0.53092313 0.2068942189 -0.6908380389 0.6927752495
-0.0039556739 -0.1158547 0.57496214 0.6605514884 -0.5187715292 0.5427226424
-0.044843979 -0.10591392 0.60388923 -0.04497293755 -0.6927161813 0.7198067307
-0.07321056 -0.016572168 0.5343405 0.5042348504 -0.6090307236 0.6122326255
-0.024173431 -0.03420173 0.51275682 -0.3185878098 -0.6517822146 0.6882454157
0.0062414794 -0.024464227 0.55250001 -0.4609395564 -0.5521573424 0.6947351694
-0.0084591312 -0.039204884 0.51880008 -0.5411743522 -0.5618172884 0.625692904
-0.079291873 -0.050621364 0.51100004 0.5906481743 -0.5537288785 0.5869574547
-0.0940139 -0.10507631 0.56445104 -0.8183452487 -0.3833006024 0.4282425344
-0.074162677 -0.11438184 0.58372217 -0.5027329922 -0.5902361274 0.6315701604
-0.07802064 -0.12879533 0.56647062 -0.5727343559 -0.5198498368 0.6338229179
-0.036396869 -0.055991307 0.48739034 -0.1497620195 -0.6094225645 0.7785727382
-0.065471992 -0.11688938 0.58596933 -0.3772440553 -0.6382058859 0.6711037159
-0.015642677 -0.046349905 0.50563639 -0.4682554305 -0.5973628759 0.6510717273
-0.016756656 -0.12217902 0.58217132 0.4312041402 -0.6218306422 0.6537504196
-0.081983984 -0.086361736 0.60222232 -0.5828111172 -0.5206545591 0.6238991022
-0.035608571 -0.08612062 0.62062246 0.04549831897 -0.6194763184 0.7836957574
-0.045012672 -0.0057435823 0.53400022 -0.005325197708 -0.7034850121 0.7106901407
-0.0087668132 -0.048887461 0.50849998 -0.5576096177 -0.5613933206 0.6114810109
-0.01084349 -0.10998397 0.58900005 0.5457378626 -0.58466506 0.6002807617
-0.015478163 -0.025598684 0.52532089 -0.4546895325 -0.5969948173 0.6609497666
-0.08642976 -0.023583133 0.54248929 0.5855669379 -0.5516257882 0.5939868689
-0.050544798 -0.12196303 0.5903334 -0.1351035386 -0.676032424 0.7243805528
-0.065330297 -0.085969038 0.61653072 -0.363463223 -0.6075232625 0.7062647939
0.0046777572 -0.12515037 0.55472541 0.737239778 -0.4618835449 0.4930933714
0.018129129 -0.058670647 0.51207697 -0.09633291513 -0.3516258895 0.9311708808
-0.081960529 -0.12266835 0.57090479 -0.6244570017 -0.4582133889 0.6325297952
-0.0074444353 -0.0084052607 0.54791671 -0.5440510511 -0.6364576817 0.5467449427
-0.075944118 -0.05337761 0.50285292 0.5267862678 -0.5745042562 0.6264511943
-0.054750279 -0.11473507 0.59445828 -0.176841557 -0.6830780506 0.7086123228
-0.034926713 -0.12515627 0.58489579 0.1276582181 -0.6699953675 0.7313067913
-0.022807948 -0.12833473 0.57811111 0.3444963098 -0.6250848174 0.7004221678
-0.020586325 -0.040725991 0.51050007 -0.4347657859 -0.6210337281 0.6521470547
-0.025632894 -0.093977503 0.61243439 0.2577353716 -0.6619972587 0.7037983537
-0.065525338 -0.024335239 0.52323598 0.3809040487 -0.6266494989 0.679869473
-0.034698702 -0.0010760683 0.54018188 -0.1546643972 -0.7411862016 0.6532395482
-0.081524156 -0.11101523 0.57999998 -0.6311386824 -0.5239896178 0.5719255805
-0.0037422676 -0.12603214 0.56573242 0.6602481604 -0.4944384694 0.5653343797
-0.014296385 -0.1159265 0.58580005 0.4717889726 -0.6057162285 0.6407207251
-0.0040715821 -0.10562786 0.58429682 0.6181885004 -0.5441014171 0.567271173
-0.071798995 -0.100729 0.60000002 -0.4798563123 -0.6135266423 0.6271547079
-0.0056649731 -0.045540303 0.51518065 -0.5757248998 -0.5446228981 0.6098579764
-0.026038244 -0.0076530189 0.53643394 -0.295574367 -0.6708960533 0.680098772
-0.0083621237 -0.018142218 0.53818184 -0.5760524869 -0.577434957 0.5785605907
-0.01045688 -0.12996408 0.56800002 0.5777166486 -0.5387505293 0.6131813526
-0.012503642 -0.052647874 0.5030489 -0.5012301803 -0.5706051588 0.6505213976
0.023869319 -0.063832648 0.51398695 -0.06232190132 -0.3655926883 0.928686142
-0.024348427 -0.02333614 0.52297103 -0.3224027753 -0.6424711347 0.6951887012
-0.090584651 -0.1022899 0.58050001 -0.7749590874 -0.4374290705 0.4561734796
-0.01065939 -0.11928365 0.57900006 0.5360974669 -0.5724936724 0.6203631759
-0.069155551 -0.060527984 0.49200001 0.4478966892 -0.5982363224 0.6644560695
-0.0053979512 -0.03548038 0.5244801 -0.5447189212 -0.5617431998 0.6226763725
-0.065348119 -0.044247422 0.50410491 0.3632092178 -0.6452285647 0.6721303463
-0.018150654 -0.10216269 0.6010555 0.3916844726 -0.6396070123 0.6614273787
-0.024336915 -0.10832102 0.59803224 0.2828060687 -0.6609326005 0.6951178312
-0.0166682 -0.13257627 0.57222229 0.4279927015 -0.5987736583 0.6769729257
-0.057453945 -0.13931149 0.56809086 -0.225676626 -0.6559461951 0.7202809453
-0.084875204 -0.064168118 0.50392056 0.5632530451 -0.546154201 0.6200496554
-0.045052622 -0.015450662 0.52523893 0.02034003846 -0.6954810023 0.7182565331
-0.04511058 -0.046042781 0.49594754 0.04897753522 -0.6638738513 0.7462390065
-0.005424412 -0.025005177 0.53486747 -0.6033860445 -0.5514014959 0.5760917068
-0.002393696 -0.05307911 0.51316661 -0.5708119869 -0.552651763 0.6072476506
-0.015452337 -0.015629891 0.53463429 -0.4630620778 -0.6237439513 0.6296959519
0.029175466 -0.049822718 0.51200002 0.05728445947 -0.4029303491 0.9134361744
