# .PCD v0.7 - Point Cloud Data file format
VERSION 0.7
FIELDS x y z normal_x normal_y normal_z
SIZE 4 4 4 4 4 4
TYPE F F F F F F
COUNT 1 1 1 1 1 1
WIDTH 206
HEIGHT 1
VIEWPOINT 0 0 0 1 0 0 0
POINTS 206
DATA ascii
0.014498465 -0.10699233 0.6576342 -0.134582445 -0.6445947886 0.7525855899
-0.03156 -0.21082079 0.72000003 -0.5488689542 -0.3976116776 0.7352876067
0.062353972 -0.18449384 0.69384861 0.8274096847 -0.3726737201 0.4201279581
-0.052291252 -0.10190821 0.71236366 0.7790551186 -0.4339994192 0.452457279
0.017554373 -0.16758347 0.75771427 0.2517786622 -0.5423842072 0.8015153408
0.084847204 -0.10130653 0.67055559 0.8163519502 -0.3363924026 0.4694780111
-0.042719528 -0.14085796 0.65850008 0.7040699124 -0.4799162745 0.5234175324
0.025107164 -0.21216339 0.72317392 0.3648966253 -0.594078064 0.7168833613
0.05009098 -0.14408192 0.64200002 -0.4708049297 -0.3830317259 0.7947511673
-0.0076642591 -0.071193658 0.69016671 0.2433805764 -0.6958953142 0.6756445765
-0.032565299 -0.16698156 0.74300003 -0.5832849741 -0.4818056822 0.6539433599
0.04536783 -0.084543847 0.69366688 -0.4794606566 -0.5761842132 0.6619132757
-0.053236458 -0.17684296 0.69800001 -0.8020215631 -0.3188062906 0.5050979853
0.05199641 -0.16786522 0.73225009 0.7169818282 -0.4399185479 0.5407482982
-0.026034793 -0.10360757 0.67168754 0.4958575666 -0.5549886823 0.6679167747
0.013600633 -0.13382737 0.62821221 -0.05669116974 -0.702213645 0.7097056508
0.054613952 -0.12320144 0.67404169 -0.5184865594 -0.7313424945 0.4430686235
-0.0038984569 -0.19194137 0.74127287 -0.1994689703 -0.6160464883 0.7620360255
-0.014943838 -0.12543496 0.6457721 0.329585731 -0.5896197557 0.7373749018
-0.051683437 -0.12715831 0.68550003 0.7669970393 -0.4459044337 0.4613943994
-0.033649825 -0.086063132 0.69482368 0.6658539772 -0.5480940342 0.5061931014
0.027526554 -0.1875944 0.73788893 0.4203341007 -0.5834473372 0.6949161291
0.063233718 -0.10585701 0.70028573 -0.3790166676 -0.3333474994 0.8632646203
0.014672815 -0.085249498 0.67606831 -0.1268426031 -0.6314050555 0.7650088668
0.04903372 -0.20420372 0.708 0.7220800519 -0.3989769816 0.5651705861
0.036078531 -0.12406956 0.65355557 -0.455373764 -0.5659062266 0.6873025894
-0.041084982 -0.1820372 0.72100008 -0.7407525778 -0.3690531254 0.5613247156
0.036689036 -0.10265657 0.67112899 -0.4808048904 -0.5396649837 0.6910777092
0.074037202 -0.12431224 0.65663147 0.3930366933 -0.4157585502 0.8201627731
-0.0085060177 -0.16645221 0.7586841 -0.2771703601 -0.5790420175 0.7667378187
-0.005027018 -0.21250924 0.72644824 -0.1255363077 -0.616270721 0.777464509
0.057298351 -0.15130623 0.66466671 -0.3794352114 -0.662756443 0.6455871463
0.07142967 -0.088752858 0.68471432 0.6070343256 -0.453320086 0.6526946425
-0.0048264777 -0.09765891 0.66669768 0.1674475819 -0.6517131329 0.7397508025
0.026792731 -0.072239794 0.69080973 -0.3174748123 -0.6796864271 0.6612383127
-0.043785341 -0.10547282 0.69209689 0.775462687 -0.4294645488 0.4628366828
-0.022519948 -0.19302878 0.73076922 -0.4742915034 -0.4787586033 0.7388083339
0.036281332 -0.1670308 0.74651843 0.4924200475 -0.5118163228 0.703964889
0.053838931 -0.18471138 0.71323067 0.8097563982 -0.372633785 0.4532533586
-0.038619068 -0.12134367 0.67083335 0.7107760906 -0.470145613 0.5232212543
0.0049363966 -0.12469126 0.6422587 0.03941814601 -0.6766967773 0.7352058887
-0.046876576 -0.19312198 0.70497143 -0.7739787102 -0.3258591592 0.5429297686
0.052382149 -0.10590919 0.68496162 -0.6213636398 -0.2914215624 0.7273105979
0.061360914 -0.088631101 0.70700002 -0.2106191963 -0.2800697982 0.9365897775
0.054598611 -0.13435672 0.65826112 -0.2648228705 -0.4277788997 0.8642187715
0.063514501 -0.1203751 0.69000006 -0.6396109462 -0.3787122369 0.6689356565
-0.016913928 -0.17695692 0.74736351 -0.385273695 -0.5760704875 0.7209070325
0.026009848 -0.13178599 0.6416176 -0.3853548467 -0.6315310597 0.6728076935
-0.013856188 -0.088434152 0.67807704 0.3170854747 -0.6184538007 0.7190074325
0.035734024 -0.19554931 0.72508055 0.5515236259 -0.4942488968 0.6719670296
0.0056390953 -0.18147938 0.75042862 6.37959165e-05 -0.6391947865 0.7690448761
-0.023204722 -0.11644744 0.65726542 0.4741563499 -0.5901385546 0.653385222
-0.030723661 -0.13427377 0.64900005 0.5737996697 -0.4544352889 0.6813533902
-0.0051836143 -0.11388107 0.65242654 0.1810256839 -0.6365531087 0.7496864796
0.015461606 -0.20211114 0.73165792 0.194352448 -0.6075237989 0.7701570988
0.031292267 -0.089354597 0.67860001 -0.41634354 -0.5790930986 0.7009345293
0.075624771 -0.10867357 0.65850002 0.4924442172 -0.497165978 0.7143701315
0.011660836 -0.068959765 0.68800002 -0.06693460047 -0.6485249996 0.7582447529
0.043364439 -0.11615154 0.66597557 -0.5650144815 -0.5622209907 0.6038759947
-0.021697938 -0.078954794 0.6875 0.4644229114 -0.6415170431 0.6105466485
0.041867569 -0.18303917 0.73168182 0.6148014069 -0.5031485558 0.6073390841
0.028725486 -0.11167343 0.66099995 -0.394002229 -0.5948944092 0.7006160617
-0.0367621 -0.19603187 0.71609759 -0.6870483756 -0.3309544027 0.6468645334
-0.041814368 -0.16789985 0.73100001 -0.6970001459 -0.4438069761 0.5632283688
0.025547428 -0.17730281 0.74858618 0.3861017823 -0.5598663688 0.7331269383
-0.047268081 -0.13362043 0.67275 0.7594007254 -0.4600116014 0.4601084888
0.02101896 -0.11929592 0.648 -0.2907168865 -0.6405456662 0.7107636333
-0.042310953 -0.087068707 0.7068001 0.7176713943 -0.51090765 0.4732030034
0.02306929 -0.098771289 0.66711116 -0.2835830152 -0.6098683476 0.7400279045
0.057335626 -0.16696832 0.7187143 0.7921748161 -0.4097762108 0.4522637725
-0.03323067 -0.09614069 0.68440551 0.6391972899 -0.5180488229 0.5683768392
0.055095911 -0.095356673 0.69460011 -0.4498305321 -0.4011887312 0.7979348898
-0.032064687 -0.18277882 0.7315625 -0.6158736348 -0.4944122434 0.6133972406
-0.048534896 -0.16955698 0.71900004 -0.7749465108 -0.3728632033 0.5103243589
-0.022712708 -0.16465089 0.75240624 -0.4589287043 -0.5224071741 0.7186620831
0.014419966 -0.19242324 0.74144435 0.1797612756 -0.6266106367 0.7583172321
0.004670003 -0.17092212 0.76099998 0.01097082719 -0.6291547418 0.7772026062
-0.039940935 -0.11028466 0.68000001 0.7316306233 -0.4488814175 0.5130517483
-0.012393436 -0.20161442 0.73009092 -0.3192839026 -0.5464798212 0.7742206454
0.061298788 -0.17649303 0.70428574 0.8461786509 -0.3519260883 0.4001621008
-0.0046138964 -0.13222519 0.63717139 0.1866224706 -0.6454081535 0.7406890988
0.044967011 -0.095217235 0.68445754 -0.5549001694 -0.4802987576 0.6792634726
0.037141539 -0.20623367 0.71811098 0.5670080185 -0.4915116429 0.6609979272
-0.050984547 -0.11693681 0.69309086 0.7951669097 -0.4095192552 0.4472176135
-0.015322333 -0.10444374 0.66457891 0.323387593 -0.631824553 0.7044275403
0.042471841 -0.13660607 0.64809388 -0.5109957457 -0.4372797608 0.7400471568
0.0048463033 -0.091522999 0.67086208 0.0539483279 -0.6532390714 0.7552273273
0.0060988297 -0.20828098 0.72780007 0.02151382156 -0.6386697888 0.769180119
-0.051480144 -0.14346878 0.66579998 0.7276719809 -0.4737018645 0.4960847199
0.077256568 -0.093074784 0.67306238 0.6771859527 -0.4693667293 0.5666692853
0.054394778 -0.19500779 0.70404768 0.8007985353 -0.3805166185 0.4625244141
0.0052538631 -0.10220663 0.66191894 0.01076820679 -0.6564028859 0.7543336749
0.0049520219 -0.1973377 0.73697251 -0.03235490993 -0.5980750918 0.800786674
0.070116676 -0.13385911 0.66100001 0.4624036551 -0.4951066971 0.7355625033
-0.04903372 -0.17937651 0.708 -0.7907316685 -0.3409446776 0.5084290504
-0.046241168 -0.10192939 0.70325011 0.77094841 -0.4373796284 0.4629661441
-0.039404415 -0.13096173 0.66100001 0.7004409432 -0.4809648395 0.5273094773
-0.0054451237 -0.17541914 0.75383353 -0.2396182418 -0.6030054092 0.7608991861
0.062977321 -0.089016952 0.69075006 -0.03138630092 -0.4371668994 0.8988325596
0.015076268 -0.21312684 0.72615796 0.1783262789 -0.6300817132 0.7557755709
-0.014458863 -0.13507904 0.63700002 0.3046146333 -0.5901583433 0.7476115823
-0.0067123277 -0.0819721 0.68135303 0.2272192687 -0.6467194557 0.7280970812
-0.0169481 -0.18804502 0.73756522 -0.4236216843 -0.5596593022 0.7122682929
0.01418587 -0.1292624 0.6372 -0.1107956022 -0.7080178261 0.6974489689
-0.024280692 -0.20416191 0.72214288 -0.4886300564 -0.3992911577 0.7757623792
0.052657928 -0.17463803 0.72327018 0.741392374 -0.4651000202 0.4837554693
0.047379453 -0.1960264 0.71362859 0.7332640886 -0.4051147103 0.5460823178
-0.026626613 -0.17805478 0.73856252 -0.5540442467 -0.5074136853 0.6599745154
-0.014285998 -0.21193744 0.72277778 -0.2869358063 -0.5540785193 0.7814504504
0.06633018 -0.17901058 0.68660009 0.985206604 -0.08466085047 0.1489984244
0.0047975942 -0.074976653 0.68429172 0.04699587077 -0.6664555669 0.7440620661
0.0046134903 -0.11341005 0.65185708 0.02544165961 -0.6514617205 0.7582547665
-0.040842585 -0.2045259 0.71400011 -0.6892257333 -0.3482063711 0.6353898048
0.0049203024 -0.13166243 0.63559443 0.03466223553 -0.7074207664 0.7059422135
0.042159587 -0.17263314 0.74150008 0.6194196343 -0.4764961302 0.6239156723
-0.032639366 -0.11701114 0.66478574 0.5911760926 -0.5384451747 0.6004894972
0.056567028 -0.1144519 0.68560529 -0.6853179336 -0.2881887853 0.6687948704
0.035669584 -0.074644901 0.69330376 -0.4361697137 -0.6436204314 0.6288948059
0.056994047 -0.17546219 0.71447623 0.8050249219 -0.3859286606 0.45054847
-0.05027508 -0.093722679 0.708 0.7570205927 -0.454521656 0.4693931341
0.024405092 -0.13524024 0.63297874 -0.3514490426 -0.6163161397 0.7047254443
0.057705432 -0.1862517 0.70360011 0.8268200159 -0.3603670299 0.431861341
-0.032565691 -0.12667905 0.65625727 0.6016730666 -0.5151686668 0.6104021668
0.044169631 -0.10591544 0.67568523 -0.6051371694 -0.4853310585 0.6310806274
0.052992295 -0.12693205 0.66567749 -0.3974491656 -0.6294484138 0.667704165
-0.0050747604 -0.12510422 0.64285523 0.2174455523 -0.6307955384 0.7448586226
0.048607901 -0.14186482 0.6522727 -0.452116251 -0.4992235005 0.7391662598
0.045845658 -0.18549237 0.72392857 0.6802844405 -0.4611499608 0.5696962476
-0.052750684 -0.18582323 0.69700003 -0.8062642813 -0.3109671474 0.5032268763
-0.02385298 -0.096033812 0.67608017 0.4673973918 -0.5633211732 0.6813287735
0.026195861 -0.082621381 0.68175864 -0.3207621574 -0.6114897728 0.7233200073
-0.037022296 -0.094027616 0.69227284 0.7193083167 -0.4865148962 0.4958818257
0.056892309 -0.10468752 0.69417244 -0.5945429206 -0.3353631794 0.730787456
0.058488313 -0.12383133 0.68200004 -0.608577311 -0.6388733387 0.4706108272
-0.033233348 -0.10580101 0.67636001 0.6156976223 -0.5098423362 0.6008137465
-0.014974321 -0.11470109 0.65462041 0.3174131215 -0.6160222292 0.7209476829
-0.024132093 -0.075862519 0.69535428 0.507158637 -0.6579512358 0.5566778779
0.015108468 -0.17516901 0.75414819 0.2149475217 -0.5909625888 0.7775350213
-0.038558681 -0.17729695 0.72785723 -0.6977781653 -0.4416399896 0.563967824
0.024592632 -0.19522113 0.73489404 0.3607227802 -0.5716631413 0.7369398475
0.065759107 -0.12591346 0.65669376 0.3167289197 -0.3792984784 0.8693764806
-0.023003673 -0.12710752 0.64758623 0.4819443226 -0.5359678268 0.6931580901
0.039597575 -0.12226958 0.66100001 -0.5101537108 -0.5715286732 0.642727077
0.015169239 -0.18529488 0.74585021 0.2150063217 -0.6284044385 0.7475828528
0.02450311 -0.1149352 0.65451247 -0.3320806921 -0.6082613468 0.7209303379
-0.0299557 -0.1110123 0.67000002 0.5781059861 -0.537512362 0.6139006019
0.08039131 -0.11554936 0.65866667 0.6520614028 -0.5189266205 0.5527486801
0.043346159 -0.19398804 0.72199994 0.6211644411 -0.4732141793 0.6246783733
0.015186368 -0.091702007 0.67079401 -0.1506468058 -0.6320136786 0.7601737976
0.032253645 -0.18177238 0.74153847 0.4868733287 -0.5420975089 0.684897542
0.059355594 -0.19214079 0.69800001 0.8164047599 -0.370290488 0.4431345165
-0.033098895 -0.19394657 0.72321218 -0.5961534977 -0.3804257214 0.7070200443
-0.015504335 -0.073092334 0.69194454 0.3981037438 -0.6879541874 0.6068215966
0.032218978 -0.19164433 0.73143756 0.4807079434 -0.5366604924 0.6934806705
-0.034432337 -0.17505857 0.73460001 -0.6381900907 -0.4714484215 0.6086458564
-0.0048328969 -0.2045611 0.73134929 -0.1957262605 -0.6046338081 0.7720810771
0.025158579 -0.16746187 0.75464505 0.3585471213 -0.5191268325 0.7758551836
0.0047357054 -0.084651977 0.6753335 0.03147524223 -0.640137732 0.7676151395
0.041579105 -0.088360757 0.68736362 -0.51220119 -0.5448740721 0.6638992429
0.077010468 -0.098474763 0.66692859 0.6322328448 -0.4873948693 0.6022689342
0.035172328 -0.17505054 0.74538809 0.5011381507 -0.519938767 0.6917544603
0.045630209 -0.17535807 0.73469073 0.668916285 -0.461874783 0.5824282765
0.034713171 -0.084993362 0.68451607 -0.4501635432 -0.5668235421 0.6899738312
-0.031050876 -0.088931471 0.68775004 0.6287634373 -0.5433416367 0.5562701225
0.024143653 -0.18397291 0.74438345 0.3577806354 -0.5803355575 0.7315761447
-0.036457177 -0.11402726 0.6735577 0.7086995244 -0.4764811397 0.5202987194
0.069104999 -0.11808717 0.65579998 0.2693221569 -0.424524188 0.864433229
-0.005333052 -0.1853217 0.74544805 -0.2533825338 -0.616989255 0.745064795
0.033245429 -0.11741516 0.65684861 -0.4572006762 -0.5761809349 0.677482903
-0.03992632 -0.091522835 0.70066667 0.7313184738 -0.4876956046 0.4767874777
0.032537907 -0.12679327 0.64700007 -0.4506938457 -0.5995858908 0.6613409519
-0.024855152 -0.18454073 0.73440331 -0.5359416604 -0.5284257531 0.6584320664
0.034616824 -0.09544877 0.67482197 -0.451053381 -0.560169816 0.6948097944
-0.014273314 -0.18380272 0.74367338 -0.3672362566 -0.5814332962 0.7259978056
0.035639595 -0.13386364 0.64522648 -0.4642313123 -0.5790479183 0.6702184677
0.01552237 -0.11342693 0.65321064 -0.1744844764 -0.6425314546 0.7461289763
0.043113492 -0.12740976 0.65621221 -0.4399181902 -0.5822037458 0.6837475896
0.014848856 -0.075255953 0.68455845 -0.1356356144 -0.6462923288 0.7509388924
0.046684146 -0.11318056 0.67243749 -0.6434776187 -0.5040172935 0.576110363
-0.037488967 -0.10349543 0.68308008 0.6894068122 -0.4830229878 0.5398213267
0.08327093 -0.10535446 0.66402274 0.7068335414 -0.4532916546 0.5430589318
-0.043035358 -0.18431491 0.71375668 -0.7814171314 -0.3558287323 0.5126140714
0.038530666 -0.0812971 0.69033337 -0.4643738568 -0.5866264105 0.6634956002
-0.010801848 -0.11938842 0.64850003 0.2801207304 -0.605243206 0.7451261878
-0.028713712 -0.18878277 0.72785717 -0.5654229522 -0.4879054427 0.665015161
-0.01514149 -0.1946003 0.73372591 -0.3599700332 -0.5484144688 0.754760325
0.023488935 -0.20135744 0.73023075 0.3370163739 -0.5762961507 0.744515121
0.044646196 -0.20367695 0.71439123 0.6854615808 -0.4514573514 0.5712518096
0.035244379 -0.18547036 0.73504996 0.5246939659 -0.5291252136 0.6668753624
-0.036225941 -0.12435438 0.66353661 0.6987342834 -0.4734646082 0.5362851024
0.041262072 -0.097863182 0.67820001 -0.5654631853 -0.5167034268 0.6428599954
-0.015268324 -0.094240233 0.67323875 0.3329395652 -0.6046695113 0.7235509753
-0.043813027 -0.12508939 0.67506975 0.7625321746 -0.4546615183 0.460247308
-0.024592001 -0.085429326 0.68463784 0.4914051294 -0.5972945094 0.6338456273
0.055170584 -0.085370138 0.70394444 -0.4242989123 -0.4170209169 0.8037810326
-0.015516311 -0.16559817 0.75470835 -0.3781530857 -0.5445778966 0.748622179
0.063134104 -0.17693244 0.69416672 0.9439384937 -0.2063231319 0.2577031255
0.015308013 -0.12496456 0.64336073 -0.1968578249 -0.6801660061 0.7061311603
-0.00984935 -0.17925817 0.74900001 -0.3119586408 -0.5929729939 0.7423374057
0.038505536 -0.18912388 0.72799999 0.5939014554 -0.5145375133 0.618491888
0.021889329 -0.10818425 0.65863633 -0.2998327613 -0.610812068 0.7328089476
-0.0056809043 -0.103803 0.66238964 0.1907598525 -0.6566066742 0.729711175
0.040407319 -0.10950969 0.66800004 -0.5483804345 -0.5232995749 0.6522548795
0.04848288 -0.13076858 0.66100001 -0.4519513547 -0.5612354875 0.6933647394
0.031934597 -0.078569248 0.68730009 -0.4113441408 -0.6298075914 0.6588917971
0.0388451 -0.17868702 0.7385 0.5602785945 -0.5114340782 0.6515543461
