# .PCD v0.7 - Point Cloud Data file format
VERSION 0.7
FIELDS x y z normal_x normal_y normal_z
SIZE 4 4 4 4 4 4
TYPE F F F F F F
COUNT 1 1 1 1 1 1
WIDTH 206
HEIGHT 1
VIEWPOINT 0 0 0 1 0 0 0
POINTS 206
DATA ascii
-0.0339236 -0.18463778 0.69197583 -0.5577469468 -0.434360832 0.7072828412
0.08097478 -0.079069488 0.65200001 -0.4481334686 0.6289876699 -0.6352565885
-0.039940935 -0.060209468 0.68000001 -0.5896784067 0.5706772208 -0.5714953542
0.003743951 -0.11081767 0.61066669 0.009994289838 0.6907737255 -0.7230018973
0.053682864 -0.16450536 0.67328572 0.8201218247 -0.3830973208 0.4250136912
0.011058274 -0.13985464 0.74200004 0.1342211515 -0.6522311568 0.7460423708
-0.058319669 -0.12065359 0.65433335 -0.9287855625 0.2401219457 -0.28230986
0.024468182 -0.055643421 0.66465652 0.334372282 0.6899092197 -0.6420439482
0.05266995 -0.1239219 0.63703448 0.2425061613 0.4563405514 -0.8561215401
0.015549937 -0.17731287 0.70642865 0.2924592495 -0.5736088753 0.7651408315
-0.034761071 -0.14456347 0.72345471 -0.5974139571 -0.4848248363 0.6387811899
-0.025623197 -0.084195688 0.64295167 -0.3874504864 0.6209427118 -0.6814046502
-0.061134346 -0.16225302 0.66575003 -0.8856008649 -0.2990224361 0.3553824723
0.043235727 -0.14727777 0.71319997 0.6380472183 -0.5359324217 0.5528762937
0.023886226 -0.088101551 0.63645148 0.3605059683 0.6171013117 -0.6994436383
0.054850351 -0.071945965 0.6822353 0.3155153096 0.4357966781 -0.8429301977
-0.035216063 -0.11271553 0.62304878 -0.566157341 0.4988588691 -0.6562055349
0.056720849 -0.10190015 0.66358334 0.4295574725 0.6072432995 -0.6683830619
-0.053015295 -0.14740971 0.69516671 -0.8042588234 -0.3803336322 0.456633389
-0.053580116 -0.092126139 0.67057145 -0.7374531627 0.4704475701 -0.4846048951
-0.013284305 -0.059487443 0.65880001 -0.2638260722 0.682458818 -0.6816493273
-0.014518954 -0.17338836 0.7125963 -0.2449996918 -0.6445301771 0.7242624164
0.078184962 -0.10594938 0.640158 -0.3874048293 0.5045768023 -0.7715696692
0.035530023 -0.18488652 0.6869657 0.6022438407 -0.4969067872 0.6248087883
0.04136201 -0.078683466 0.65833336 0.6177949905 0.5067185163 -0.6013032794
-0.0049598152 -0.19510213 0.69752777 -0.08382154256 -0.603843987 0.7926830053
0.027770504 -0.11219243 0.62109518 0.4860428572 0.6051183939 -0.6305506229
-0.0046870983 -0.089882001 0.62900001 -0.09402572364 0.6675515175 -0.7386028171
-0.013997496 -0.13897447 0.74109101 -0.2423978746 -0.5798807144 0.7778056264
0.012654902 -0.069527999 0.64875007 0.1859601438 0.6692453623 -0.7193952203
0.005101433 -0.15816708 0.7275002 0.108684279 -0.6787518859 0.7262806892
-0.035424799 -0.16549541 0.70442194 -0.6302863359 -0.5010208488 0.5930575132
-0.045739129 -0.10443097 0.64429301 -0.7340404987 0.4695062041 -0.4906612933
0.071811326 -0.082771406 0.67241168 -0.3526888788 0.6506947875 -0.6724632382
0.044337079 -0.1652759 0.69329804 0.7207348347 -0.4724310935 0.5072968602
-0.0509694 -0.17824386 0.68000001 -0.8023525476 -0.2816532552 0.5262145996
-0.065050714 -0.14887698 0.64900005 -0.9840137959 0.1485536993 0.0982272625
0.046211634 -0.10433838 0.6437636 0.5438018441 0.5834628344 -0.603200376
-0.037345879 -0.073047809 0.66277277 -0.6222569942 0.5580864549 -0.548940599
0.030505076 -0.14441913 0.73000002 0.4421519041 -0.596424222 0.6699103117
-0.015484028 -0.15717278 0.72643906 -0.2859947085 -0.6404184103 0.7127912045
-0.016115405 -0.11174479 0.61611772 -0.2702739835 0.608753562 -0.7459028959
0.014967328 -0.19392385 0.69581836 0.2631983757 -0.5983754992 0.756751895
-0.052736264 -0.074955918 0.68144006 -0.6876286864 0.5079061985 -0.5188430548
-0.023146177 -0.097941026 0.62803704 -0.3579592109 0.619461298 -0.6986650825
0.0051671891 -0.053487878 0.663113 0.0357362777 0.7061799765 -0.7071299553
-0.0050786161 -0.075010791 0.6434195 -0.1446337253 0.6720312834 -0.7262609601
0.052863341 -0.14863607 0.69684613 0.7464113832 -0.4701613784 0.4709759355
0.032028262 -0.16205548 0.71080005 0.536316216 -0.5816204548 0.6116229296
-0.049303148 -0.12074506 0.63666672 -0.7375123501 0.3760229945 -0.5609654188
-0.060061891 -0.14727971 0.67833334 -0.8858265281 -0.2878910005 0.3639095426
0.051192071 -0.18095803 0.67900002 0.7887517214 -0.3542360365 0.5023818612
-0.025821635 -0.053731777 0.67241997 -0.4841888845 0.650200963 -0.5854910612
-0.040775228 -0.088946886 0.64900005 -0.6542316675 0.5344970226 -0.5350643992
0.014480915 -0.096481413 0.62542242 0.2188617289 0.6141862869 -0.7582049966
0.038980987 -0.060920447 0.67033339 0.5255571008 0.565636158 -0.6354883313
0.060660951 -0.16176254 0.65900004 0.9685297012 -0.1067126319 0.224861294
-0.028273014 -0.15761042 0.71674997 -0.5538452864 -0.5396139026 0.6340916753
0.041316055 -0.11692902 0.62836838 0.5352610946 0.5105162263 -0.6729552746
-0.040967513 -0.15104458 0.71020001 -0.6767836809 -0.4650057852 0.5707306266
0.064741403 -0.11385307 0.63685966 -0.1851629168 0.6324490309 -0.7521455884
-0.051737111 -0.16282782 0.68285716 -0.8368383646 -0.3139803708 0.4484617412
0.036067158 -0.10276157 0.63282359 0.5146554112 0.5335546732 -0.6711550951
0.055832423 -0.084752858 0.6745801 0.4122667909 0.474324584 -0.7778510451
-0.014585992 -0.18418124 0.70227516 -0.2239100337 -0.6016958356 0.76669842
-0.025630392 -0.073347494 0.65316331 -0.4049091637 0.6275970936 -0.6649590135
0.023861565 -0.11581337 0.60724241 0.3977496624 0.6669836044 -0.6300222874
-0.042792156 -0.17285159 0.69126928 -0.7035909891 -0.3489212096 0.6190425754
0.030154703 -0.079084978 0.64900005 0.478946656 0.5795084238 -0.6593785286
-0.051504917 -0.098805331 0.65800005 -0.7504345179 0.4626794159 -0.4719912708
0.015716741 -0.16655864 0.71597713 0.2819728255 -0.6427978277 0.712251544
0.029738987 -0.17782202 0.69800001 0.4908063412 -0.5620007515 0.6657809615
0.046904076 -0.093510598 0.652861 0.652144134 0.5481715202 -0.5236564279
-0.0032177656 -0.10108165 0.6208182 -0.1298958659 0.6758099794 -0.7255397439
-0.036863834 -0.10332942 0.63300002 -0.6037901044 0.5018093586 -0.6193745732
0.012864207 -0.079981804 0.63800001 0.1564075351 0.6641797423 -0.7310280204
0.031958882 -0.068691537 0.65845454 0.4891998172 0.5654670596 -0.6640259624
-0.024095621 -0.14417624 0.73357999 -0.4469659626 -0.5654414892 0.6931791902
0.0048795263 -0.1849755 0.70364553 0.08537977189 -0.6014854908 0.7943081856
-0.024413301 -0.19335492 0.69558334 -0.3775321245 -0.5522828698 0.7432718873
-0.012883494 -0.049777132 0.66800004 -0.2877812982 0.700768888 -0.6527670622
-0.024939124 -0.175552 0.7046718 -0.4382475913 -0.5494164824 0.7113934159
-0.026310902 -0.063074462 0.6630435 -0.4506073296 0.6462885141 -0.6158443093
0.053553477 -0.15490121 0.68531716 0.8442512155 -0.3379293382 0.415985167
0.0047427416 -0.17449507 0.71324968 0.09306292236 -0.6568483114 0.7482576966
0.024486935 -0.15390453 0.72352171 0.4038552046 -0.6325173974 0.6609256268
0.014167038 -0.10656451 0.61706775 0.2782715559 0.7084702849 -0.6485636234
-0.045444641 -0.085021153 0.66399997 -0.7153981924 0.4954325855 -0.4926986694
0.061314069 -0.15446298 0.67250001 0.841652751 -0.3431691229 0.4169599414
0.047719635 -0.073378988 0.67199999 0.4883784354 0.490837127 -0.7215021849
0.04466185 -0.15529987 0.70370376 0.6739090085 -0.5187137127 0.52610147
-0.0050280779 -0.16355756 0.7227549 -0.05801823363 -0.6821961999 0.7288636565
-0.0047512045 -0.15250209 0.73247486 -0.07426352799 -0.6569545269 0.7502637506
-0.014677525 -0.086390562 0.63541001 -0.2628135979 0.6438635588 -0.7185879946
0.037157387 -0.093649261 0.64102948 0.5611746907 0.5340799093 -0.6323302984
0.077128924 -0.093730763 0.64111435 -0.4325594306 0.5266800523 -0.7317789793
0.074122801 -0.075331382 0.6632759 -0.2852726579 0.7030970454 -0.6513632536
0.014825016 -0.15212637 0.73059267 0.2320907712 -0.6625062823 0.7121933103
-0.041772291 -0.19104934 0.68660009 -0.6068401933 -0.399728477 0.6869949698
-0.045477744 -0.074491896 0.6728667 -0.6727070808 0.5178228617 -0.5285117626
-0.0058949995 -0.17861016 0.70783347 -0.09037652612 -0.6295643449 0.771674037
0.0058708964 -0.14868504 0.73780012 0.08211705089 -0.6448254585 0.7599058747
-0.0054358076 -0.064127736 0.65270859 -0.1509755552 0.6756372452 -0.7216097713
0.013272936 -0.058636528 0.65823078 0.2000383884 0.6745792031 -0.7105825543
0.044236127 -0.17494813 0.68450916 0.7509068251 -0.385992229 0.5358628035
0.050744977 -0.08397942 0.66533339 0.4210201502 0.4963254035 -0.7592121959
-0.047078781 -0.15608884 0.69570005 -0.7857183218 -0.3959113955 0.4752903283
-0.015687592 -0.10175684 0.62170374 -0.2637474835 0.612007916 -0.7455760241
-0.004549121 -0.14350487 0.74144435 -0.1447251737 -0.6312428713 0.7619626522
0.0054401006 -0.063792199 0.65325016 0.0588507764 0.6848791242 -0.7262762189
0.053176768 -0.10369739 0.65419048 0.5151623487 0.643505156 -0.5661349893
0.012710521 -0.10941197 0.6060769 0.148631677 0.7176247239 -0.6803847551
0.022728898 -0.17124909 0.71033335 0.4012202024 -0.6104084849 0.6829522848
0.0049857083 -0.084723361 0.63370681 0.06265280396 0.6555954218 -0.7525086403
0.0051313294 -0.074129298 0.64377272 0.04606113955 0.6742691994 -0.7370477319
-0.015021346 -0.075662218 0.6450274 -0.2687962353 0.6492324471 -0.7115095258
0.0061020125 -0.19564858 0.70011759 0.1222451925 -0.5958434939 0.7937421799
0.031825129 -0.19225666 0.69242859 0.51189363 -0.553380847 0.6570650935
-0.0055225613 -0.053979438 0.66310006 -0.1331027299 0.7004045248 -0.7012254596
0.054971073 -0.11414295 0.63737929 0.1316151917 0.6133590937 -0.778760612
0.0049297013 -0.095262319 0.62458891 0.07407524437 0.6596474648 -0.7479158044
0.082221687 -0.086509466 0.6460833 -0.4773132801 0.6412260532 -0.6008337736
-0.046698365 -0.14620067 0.70423269 -0.7651818991 -0.3906618357 0.511742115
0.064652212 -0.076609187 0.67163819 -0.1575909555 0.5909030437 -0.7912008166
-0.015154094 -0.19310631 0.69616657 -0.2699486911 -0.5821357965 0.7669717073
0.025731614 -0.1856143 0.69461787 0.4799487889 -0.535721004 0.6947317719
0.048028525 -0.156942 0.69450003 0.7474874258 -0.4759674966 0.4633761942
-0.054200228 -0.16553648 0.67442548 -0.8451116085 -0.3112215996 0.4346578419
-0.036331274 -0.09371186 0.64254904 -0.5763124228 0.5634664893 -0.5919202566
-0.036748771 -0.064142458 0.67240006 -0.5964123011 0.571433723 -0.563698411
0.060127936 -0.12081782 0.64100003 0.02619696967 0.707732439 -0.7059946656
-0.063589707 -0.15339616 0.65663159 -0.9859580994 0.08558680117 0.1433928758
0.051988635 -0.17326628 0.6739583 0.8079355359 -0.3693858087 0.4591234028
-0.057575103 -0.1550127 0.67461765 -0.8867987394 -0.2875679731 0.3617909253
-0.052091561 -0.11522308 0.64310002 -0.7341935635 0.4561081529 -0.5029166937
-0.02961568 -0.17813101 0.6975714 -0.5111500621 -0.4819394946 0.7116600275
-0.029982293 -0.13842946 0.72766668 -0.5129261613 -0.5147964358 0.6869434714
-0.015567587 -0.14616409 0.73622823 -0.2792505026 -0.5856102109 0.7609729767
0.035064951 -0.15477931 0.71474236 0.5430771708 -0.5823587179 0.6049177647
0.022899063 -0.097866654 0.62717861 0.3771349788 0.6134832501 -0.6938353777
-0.025127128 -0.16513197 0.71415704 -0.4624851346 -0.5977289081 0.6548493505
-0.02496987 -0.15487894 0.72413552 -0.4621267319 -0.5620290637 0.6859753728
0.034081306 -0.085782468 0.64546764 0.5224583745 0.5524475574 -0.6494913101
0.051291041 -0.1628581 0.68349999 0.8384070396 -0.348614186 0.4189770818
-0.052246407 -0.084670387 0.67425644 -0.7166174054 0.4912139475 -0.4951447546
-0.033103749 -0.056149397 0.67588639 -0.5497283936 0.6291694045 -0.549494803
-0.022763766 -0.18239528 0.70034629 -0.4010959268 -0.5521595478 0.7309185266
-0.04459592 -0.16502844 0.69367319 -0.717746377 -0.3868397474 0.5789603591
0.043743573 -0.1831872 0.68319046 0.7090320587 -0.4146502018 0.5703847408
-0.033314645 -0.086020529 0.64671439 -0.5468546152 0.5744557977 -0.6090571284
0.042234149 -0.1067896 0.63666666 0.5402762294 0.5387142301 -0.6464430094
0.025935827 -0.072576955 0.65189189 0.3942662477 0.6059919596 -0.6908892393
-0.031185444 -0.069300279 0.65875006 -0.5072206855 0.6118959785 -0.6068858504
0.043513011 -0.086036265 0.65530622 0.6566002965 0.4835014045 -0.5788803101
-0.025305236 -0.1044316 0.62349379 -0.3877620101 0.6000139117 -0.6997313499
-0.053600598 -0.15500253 0.68439138 -0.8405686617 -0.3080948591 0.4455579817
0.035478108 -0.11327876 0.62400007 0.5421225429 0.5050703287 -0.6715706587
0.034333143 -0.075830497 0.65534371 0.5061571002 0.5529187322 -0.6618805528
0.045086376 -0.064765289 0.6740756 0.4886694252 0.5331614017 -0.6906092167
0.043359861 -0.096070997 0.6456818 0.6156532764 0.5566234589 -0.5578004718
-0.045673124 -0.064394072 0.6839118 -0.6331147552 0.5284371376 -0.5656146407
-0.048235074 -0.092619538 0.6639334 -0.7277461886 0.4777231216 -0.4921037555
0.02499176 -0.10445768 0.62298769 0.4367301464 0.6163628697 -0.6552584171
-0.015716311 -0.16684994 0.71718889 -0.2795053124 -0.6455063224 0.7107730508
0.07285513 -0.11129292 0.63730007 -0.2724935114 0.5488726497 -0.7902443409
0.035614189 -0.16576214 0.70460618 0.5962953568 -0.5605046749 0.574688077
-0.038238738 -0.15853728 0.70733333 -0.6735813618 -0.479873687 0.5621470809
0.024379024 -0.066156372 0.65645182 0.3576376438 0.6230506897 -0.6956315041
-0.023661561 -0.11261185 0.61868751 -0.3443079591 0.583568871 -0.735458672
-0.02917196 -0.16882496 0.708 -0.5402655602 -0.5498428941 0.6370132565
-0.028097905 -0.14747544 0.72757894 -0.4706531465 -0.5573706627 0.6839762926
0.0055523873 -0.16799007 0.71769565 0.1168976203 -0.6542205811 0.7472150922
-0.038095664 -0.14790623 0.71713334 -0.6364511251 -0.4879614711 0.5973470807
-0.039461687 -0.10080498 0.64000005 -0.6362274885 0.5282019973 -0.5623319745
0.045943648 -0.11439517 0.63420695 0.4436081648 0.5701848269 -0.6914485097
0.037449222 -0.082369156 0.65191305 0.5488479733 0.5380277038 -0.6397594213
-0.032365531 -0.19228718 0.69285709 -0.4583474696 -0.4998776615 0.7348740697
0.022731965 -0.18185581 0.70081812 0.4420019686 -0.5477394462 0.7103631496
-0.029736534 -0.090331733 0.64000005 -0.4882565737 0.6078796387 -0.6261692047
-0.011379134 -0.069981672 0.64900005 -0.1985465437 0.6705464721 -0.7148053646
-0.0027963915 -0.079956733 0.63780004 -0.06880267709 0.6733970046 -0.7360724807
0.043876946 -0.075408898 0.66497433 0.6092064381 0.4906325042 -0.6230146289
0.032162268 -0.059057232 0.667 0.461456567 0.6294790506 -0.6251511574
-0.03487822 -0.15481623 0.71379107 -0.6215999126 -0.5017504096 0.6015480757
-0.0049335626 -0.18503138 0.70358765 -0.07087457925 -0.60295856 0.7946180105
-0.021545544 -0.15081881 0.73000002 -0.3763766587 -0.5892347693 0.7149426341
-0.041278727 -0.1134866 0.62779999 -0.6164349318 0.4799025059 -0.6242607832
0.064168289 -0.082832292 0.67616665 -0.1491174549 0.5997431874 -0.7861756086
-0.033820923 -0.076051958 0.65612298 -0.5733882189 0.5813040733 -0.5773313642
0.041985098 -0.16225775 0.70175004 0.6690600514 -0.5196422338 0.5313478708
-0.022371959 -0.057223979 0.6661154 -0.3849583268 0.6729736328 -0.6315960288
0.054523058 -0.076176211 0.67420745 0.4341510236 0.4574451447 -0.7760520577
-0.023740672 -0.077763975 0.64719349 -0.3669003248 0.6334738135 -0.6812452078
0.038015399 -0.15853177 0.70757145 0.6238356233 -0.5436248183 0.5615168214
-0.032841228 -0.097082727 0.63486117 -0.5118647218 0.5871042013 -0.6271388531
0.041122165 -0.067430057 0.66691667 0.5311234593 0.5232291222 -0.6664376855
0.01515283 -0.075225167 0.64429116 0.2201409787 0.6559617519 -0.7219779491
0.024918484 -0.1646125 0.71341079 0.4132569432 -0.6234124899 0.6637586355
0.031546496 -0.15114698 0.7226001 0.4665987194 -0.6055437326 0.6446723342
0.024999695 -0.17544396 0.70423436 0.4321124554 -0.5694380403 0.6992990375
-0.042667519 -0.06684301 0.67634785 -0.6456534266 0.5318104029 -0.5480048656
-0.053327005 -0.1050493 0.6540556 -0.7543553114 0.4587380588 -0.4695822299
-0.021790866 -0.1607513 0.72050005 -0.4105567038 -0.611792624 0.6761308908
0.048279874 -0.14867556 0.70429999 0.6754062176 -0.5111991763 0.5315090418
-0.023193689 -0.088352509 0.63677275 -0.36945647 0.6357132792 -0.6777688265
0.0091786999 -0.18908122 0.69800001 0.1710788757 -0.5967754126 0.7839586139
