# .PCD v0.7 - Point Cloud Data file format
VERSION 0.7
FIELDS x y z normal_x normal_y normal_z
SIZE 4 4 4 4 4 4
TYPE F F F F F F
COUNT 1 1 1 1 1 1
WIDTH 206
HEIGHT 1
VIEWPOINT 0 0 0 1 0 0 0
POINTS 206
DATA ascii
-0.079680234 -0.0609634 0.61000001 0.5692771077 -0.6124565601 0.5484710336
-0.010626953 -0.16947193 0.63800001 0.5446287394 -0.6143860817 0.570884645
0.040695217 -0.061954737 0.61240005 0.5050119162 -0.6304625869 0.5894742608
-0.071528584 -0.11206708 0.70063645 -0.390433073 -0.6597118974 0.6421388388
-0.10204671 -0.1438446 0.62183338 -0.8743488193 -0.3380268216 0.34821257
-0.016547315 -0.085272156 0.57753336 -0.443495065 -0.5772960186 0.6855956912
-0.021745717 -0.030777136 0.63066673 -0.3782859445 -0.7349931002 0.5627475977
-0.0075116688 -0.12370799 0.68244445 0.5095480084 -0.6274649501 0.5887687206
-0.064152494 -0.15322298 0.66280401 -0.3492221832 -0.6804769635 0.6442010403
0.013880001 -0.13505778 0.62830001 0.7747482061 -0.4656585753 0.4277000427
0.021566 -0.097309999 0.60000002 0.1121238247 -0.7504136562 0.6513890028
-0.097451873 -0.11698949 0.65373915 -0.8024688363 -0.4423594177 0.4004521072
-0.0028326099 -0.062861234 0.61260009 -0.6488736272 -0.5444350839 0.53155756
-0.065518998 -0.081443205 0.57700002 0.3030054271 -0.6214835048 0.7224582434
-0.086864404 -0.041876394 0.64337498 0.5542912483 -0.6348233819 0.5382940769
-0.044996142 -0.056667712 0.59595895 -0.005767568946 -0.7324700952 0.6807747483
-0.083521694 -0.17106965 0.63770002 -0.5794972181 -0.50034374 0.6433032751
-0.034945939 -0.11573805 0.70398057 0.04407962412 -0.7178416848 0.694809556
-0.093522586 -0.092476867 0.59541672 0.6999109983 -0.4107007086 0.5843368173
-0.055358473 -0.033332583 0.62277055 0.2033842653 -0.7485311031 0.6311386824
0.016944973 -0.063849814 0.64040911 -0.3223818541 -0.5154358149 0.7939747572
-0.025391553 -0.15362333 0.66369545 0.2943989336 -0.719884634 0.6285661459
-0.04444509 -0.17405482 0.64777905 -0.001202652347 -0.749047339 0.6625154018
-0.044910789 -0.13621311 0.68422562 -0.04605700076 -0.7333397269 0.6783004999
-0.001893976 -0.1381484 0.65700001 0.6810420156 -0.5681716204 0.4619120955
-0.078537054 -0.12795563 0.67783338 -0.5877438784 -0.596624732 0.5464394689
0.012605225 -0.083238982 0.6205833 -0.4264109135 -0.7157729864 0.5530305505
-0.087508291 -0.14609428 0.64533347 -0.7502814531 -0.4445431232 0.4893456399
-0.0010102706 -0.041881524 0.64040005 -0.5564073324 -0.5980111361 0.5768826008
-0.094774373 -0.062061507 0.63305891 0.6475208402 -0.5794744492 0.4949000478
-0.034661666 -0.04270811 0.61206019 -0.1799968332 -0.7098289728 0.6809875369
-0.021776399 -0.060910802 0.60000002 -0.3705916703 -0.6656669974 0.6477262378
0.0020252685 -0.09451703 0.5886538 -0.5109675527 -0.6025964022 0.6130169034
0.032466814 -0.077521354 0.59838891 0.3453438878 -0.5569400787 0.7553511262
-0.034327619 -0.072182767 0.58144236 -0.1907192916 -0.6794849634 0.7084676027
-0.075735606 -0.043981113 0.62391526 0.5349336863 -0.6336571574 0.5588600636
-0.065567791 -0.063967027 0.59369737 0.3590082228 -0.6794246435 0.6399181485
-0.10601568 -0.12816817 0.60771435 -0.984166801 0.04815413803 0.1705780476
-0.10198624 -0.12553446 0.63461292 -0.888520062 -0.3325539529 0.3161329031
-0.006183554 -0.075649381 0.59592187 -0.5897835493 -0.5849667192 0.556748867
0.00056128582 -0.15154652 0.64025009 0.7446585298 -0.4680708945 0.475808084
-0.021612026 -0.13898893 0.6785 0.3307518959 -0.6942642331 0.6392185092
-0.062431529 -0.049268663 0.60866666 0.3367640674 -0.6968467236 0.6332413554
-0.066026092 -0.16668588 0.64685971 -0.3479588032 -0.6300054789 0.6942749619
-0.0449287 -0.15491588 0.66511667 -0.02070055529 -0.7253798842 0.6880373955
-0.016187871 -0.047455341 0.61579162 -0.4531978369 -0.6327182651 0.6279166341
-0.054721098 -0.12145533 0.70021433 -0.2406919003 -0.6613231301 0.7104358673
-0.082979687 -0.076432265 0.59614289 0.5755109787 -0.5832169652 0.5732757449
0.011328177 -0.15252267 0.6227501 0.7412161827 -0.4730512202 0.4762574136
-0.091510519 -0.1156193 0.6707499 -0.7231410146 -0.5113176703 0.4643504024
-0.025741197 -0.17282371 0.646878 0.2702553868 -0.7198559642 0.6393507719
0.031158362 -0.058003645 0.62671429 0.374340117 -0.6741870046 0.6366642714
-0.092154495 -0.15571745 0.63130313 -0.767557621 -0.348516047 0.537951529
-0.017251445 -0.11874122 0.69590908 0.3331158757 -0.6689305305 0.6645041108
-0.045003861 -0.081583001 0.57189661 0.004111388233 -0.6260898709 0.7797400951
-0.091425456 -0.13325657 0.65550005 -0.7771476507 -0.4650577009 0.4239845574
-0.0705892 -0.14059016 0.671 -0.4712923467 -0.6455482841 0.6009583473
0.0064056786 -0.13653207 0.6426667 0.7698677778 -0.4726191461 0.4288761318
-0.055036955 -0.14519659 0.67355299 -0.1885395795 -0.7029453516 0.6857992411
-0.027835261 -0.13010062 0.69025004 0.2323547155 -0.7020945549 0.6731081009
-0.065911926 -0.1284115 0.68738091 -0.3722424805 -0.671217978 0.6410163641
-0.034933858 -0.14547995 0.67395008 0.1095550805 -0.7348015308 0.6693760753
-0.011432903 -0.15809691 0.64844447 0.5451588035 -0.5979356766 0.5876008868
0.0050086575 -0.084058121 0.60227031 -0.6001732349 -0.6310238242 0.4915292263
-0.084205024 -0.11523851 0.68423635 -0.5961050391 -0.5927373767 0.5415912867
0.0059514325 -0.054257955 0.63511354 -0.4577861726 -0.5680593252 0.6839154959
-0.034937698 -0.032323163 0.62296093 -0.1418212503 -0.7362297177 0.6617043018
-0.067562945 -0.031044129 0.63111115 0.3862515092 -0.7171561718 0.5800834894
0.0021787556 -0.12796798 0.66709095 0.6368951201 -0.5799343586 0.5079770684
-0.035210237 -0.16432582 0.65462661 0.1138374433 -0.7156255841 0.6891451478
-0.085874081 -0.05468531 0.62354183 0.6032614708 -0.6015002131 0.5237108469
-0.077895947 -0.14843503 0.65615791 -0.5761401057 -0.5989896059 0.5561241508
0.0093890997 -0.070694402 0.63000005 -0.4256221056 -0.5243475437 0.7374994755
-0.0029835023 -0.052891724 0.62317646 -0.6404687762 -0.531760931 0.5541028976
0.034813017 -0.091778524 0.60166669 0.3697924316 -0.5767151117 0.7284594774
-0.055977732 -0.071596332 0.58145952 0.1865246445 -0.673339963 0.7154172659
-0.0093741966 -0.039151058 0.62900001 -0.524830699 -0.6451150775 0.5553190708
-0.010976743 -0.14905262 0.65900004 0.5579823256 -0.6155586839 0.556545794
-0.082807764 -0.08601182 0.58612502 0.5258053541 -0.5804219246 0.6218031049
-0.054837104 -0.16376488 0.65401298 -0.1769649833 -0.7159554958 0.6753451824
0.0056158444 -0.074521177 0.61341524 -0.6243931651 -0.6327401996 0.4580097795
0.0010280795 -0.16151018 0.63185722 0.7255094051 -0.4791673124 0.4939987659
0.041507319 -0.074629098 0.60699999 0.5263331532 -0.6197667718 0.582118988
-0.076565146 -0.15765999 0.64751434 -0.5315223932 -0.5323711634 0.6588360071
-0.088381149 -0.070169277 0.611 0.6456518173 -0.5655635595 0.5130999684
-0.073956944 -0.077032872 0.58653563 0.4989393055 -0.6020787358 0.6233463883
-0.034577791 -0.062260468 0.59184992 -0.2012461126 -0.7074443102 0.6775120497
-0.087283224 -0.12611142 0.66549993 -0.7169697285 -0.5219292641 0.4621084929
-0.03461004 -0.052902985 0.60174173 -0.194094196 -0.7044923306 0.6826550961
-0.045136631 -0.066811584 0.58517337 -0.01378360763 -0.709664166 0.7044053078
-0.045013744 -0.047071237 0.60677075 0.008325739764 -0.729188621 0.6842620969
-0.044906352 -0.037261657 0.61646664 0.01063054521 -0.7356767058 0.6772494316
-0.093971625 -0.13482583 0.64358455 -0.8285548687 -0.402738899 0.3889707029
-0.0057848468 -0.085622683 0.58591783 -0.5829102397 -0.5289871097 0.61675632
-0.092392668 -0.082711071 0.6022222 0.6037939191 -0.5824345946 0.5442452431
-0.015982961 -0.076463237 0.58554292 -0.4801236391 -0.6062954068 0.6339457035
-0.0068665179 -0.13342527 0.67223537 0.5636879206 -0.6084091067 0.5586540103
-0.044497885 -0.027073009 0.6266669 -0.005871461704 -0.7783857584 0.627758801
-0.045409057 -0.12651105 0.69593883 -0.04640053213 -0.7198082805 0.6926203966
0.0086134691 -0.10097425 0.59525001 -0.3457456231 -0.7904554605 0.5056087375
-0.083565459 -0.043883301 0.63276476 0.576002419 -0.6219093204 0.5305185914
0.015894258 -0.088370264 0.59616667 0.01990271732 -0.6978519559 0.7159654498
-0.034117673 -0.081326976 0.57229996 -0.1553169638 -0.6369737387 0.7550768852
-0.055416428 -0.062110223 0.59135133 0.2013994604 -0.714589119 0.6699258685
-0.026400816 -0.12135902 0.70033342 0.1800001115 -0.6922670603 0.6988320947
-0.055528384 -0.042689458 0.61304015 0.2216408253 -0.7121754885 0.6660941839
-0.026906716 -0.048631389 0.60864294 -0.2781655788 -0.6898291707 0.6684008241
-0.054604374 -0.1728991 0.6464808 -0.1705217361 -0.7146846652 0.6783422232
-0.05547794 -0.052286834 0.60169566 0.2087654769 -0.7234348655 0.6580721736
-0.044930413 -0.11551495 0.70631903 -0.05370835215 -0.6588395834 0.7503638268
-0.055069454 -0.13486041 0.68463778 -0.2011638135 -0.7118364573 0.6729204655
-0.034601428 -0.13565867 0.68493754 0.1238278672 -0.738481462 0.6628060341
-0.09390346 -0.14597483 0.63385284 -0.8271024823 -0.3671866953 0.4255295992
-0.027379563 -0.0685509 0.58793759 -0.2986680269 -0.6829224229 0.6666440964
-0.07389383 -0.17216597 0.64057899 -0.4492293596 -0.595798552 0.6657454967
-0.026539037 -0.078797892 0.57847631 -0.2937915623 -0.6275832057 0.7209894657
0.025544677 -0.085530713 0.59549397 0.1827077568 -0.666297555 0.7229560018
-0.045480549 -0.14318123 0.67700672 -0.05386390164 -0.7291398644 0.6822416782
0.022761431 -0.057548247 0.63195658 0.208352223 -0.6059160829 0.7677597404
-0.098171271 -0.12609796 0.64551359 -0.8223566413 -0.4175574481 0.3864910901
-0.10574198 -0.13610761 0.61351621 -0.8884641528 -0.3264911473 0.3225444555
-0.045025349 -0.1643797 0.65476775 -0.02843469195 -0.7320766449 0.6806285977
-0.035019983 -0.15525524 0.66380805 0.1119186133 -0.7454991937 0.6570427418
-0.025585625 -0.16369526 0.6530953 0.2702927291 -0.6866771579 0.6748453975
-0.035097491 -0.12647592 0.69566691 0.09984537959 -0.713188231 0.6938252449
-0.080045804 -0.10937557 0.69700003 -0.5327333212 -0.6316199303 0.5632508397
-0.071993358 -0.12160234 0.69010007 -0.4520443082 -0.6437382698 0.6174601316
0.0063161324 -0.14551426 0.63576192 0.7530853748 -0.4683541656 0.4620679915
-0.054200921 -0.08080063 0.57399994 0.1570868343 -0.6213858128 0.7675958276
0.0040379264 -0.1297905 0.65800005 0.7180907726 -0.5401035547 0.4389006495
-0.021396073 -0.04116023 0.62050003 -0.3621086776 -0.6846241355 0.6325876117
-0.016463121 -0.14214298 0.67135471 0.4644151032 -0.657802999 0.5929703116
-0.01613877 -0.066814639 0.59548002 -0.4450621903 -0.6438204646 0.6224265695
-0.077571847 -0.13739572 0.66575009 -0.6068809628 -0.5675023198 0.5564500093
-0.074008875 -0.066878363 0.59622926 0.5002958775 -0.6298171878 0.5941669345
-0.016172012 -0.05694617 0.60623991 -0.4364025295 -0.644357264 0.6279781461
-0.065377936 -0.074389294 0.58298779 0.3473617733 -0.6413974762 0.6840680838
-0.055170141 -0.15501332 0.6639089 -0.2123572826 -0.7135822773 0.6676111817
-0.034939598 -0.17303476 0.64663148 0.1246905178 -0.7362924218 0.6650757194
0.0051397127 -0.064438283 0.62484211 -0.6495086551 -0.4715030193 0.5965093374
-0.075395815 -0.034665562 0.63396162 0.4888751805 -0.6599881053 0.5704531074
-0.0149768 -0.16557467 0.64491338 0.5126560926 -0.6295310855 0.5838444233
-0.0027681885 -0.044642013 0.63162965 -0.5828754902 -0.5759913325 0.5731405616
-0.073839851 -0.08464735 0.57800007 0.4618829489 -0.5843055248 0.6672714353
-0.10503803 -0.12343884 0.62650001 -0.8840093613 -0.3422924876 0.3183760941
-0.097843774 -0.1356191 0.63559997 -0.8611548543 -0.3734803796 0.3448545635
-0.072540604 -0.057023179 0.60641378 0.4870844185 -0.6509127617 0.5822897553
-0.082451664 -0.067641266 0.6048333 0.5903877616 -0.5994152427 0.5405032039
-0.0017058179 -0.14831412 0.64820004 0.7080977559 -0.5073625445 0.4911016524
-0.068020441 -0.041433394 0.62071431 0.4027172625 -0.6790381074 0.6137800813
-0.076148219 -0.053833034 0.61365396 0.5297513008 -0.6345102787 0.5628145933
-0.083924823 -0.15492709 0.64408225 -0.6821294427 -0.4292004704 0.5920189619
-0.0028887636 -0.073174305 0.60343343 -0.6759757996 -0.5552742481 0.4844865501
0.0082019279 -0.082802102 0.61331254 -0.6285762191 -0.6319292784 0.4533842206
-0.086702496 -0.083695531 0.59392697 0.5756658316 -0.5758094788 0.5805620551
-0.095239714 -0.12506433 0.65459579 -0.7960224748 -0.4481910467 0.4067837
-0.071494006 -0.13151394 0.68189996 -0.4770883322 -0.6461830735 0.5956795812
0.036257729 -0.066240638 0.60668302 0.456318289 -0.6542905569 0.6030567288
-0.090233244 -0.063935004 0.61633337 0.6322520971 -0.578597486 0.5152496099
-0.081289507 -0.16343641 0.64042109 -0.5794972181 -0.50034374 0.6433032751
-0.066959463 -0.11820665 0.69590485 -0.3686833382 -0.6551442146 0.6594381332
-0.0038547677 -0.13551004 0.66468292 0.6142747998 -0.5979406238 0.5149111748
-0.028833959 -0.038465403 0.61800003 -0.2484381795 -0.7061870694 0.663007021
0.014885487 -0.056685653 0.63435185 -0.4128053486 -0.5860165954 0.6972634196
-0.098920658 -0.1379948 0.6277501 -0.8838090301 -0.3249955475 0.3365404308
-0.017331762 -0.13270198 0.68164289 0.4276240766 -0.6716072559 0.6050465107
-0.01405249 -0.032687422 0.63265723 -0.4816927612 -0.6848843098 0.5467225909
-0.060009588 -0.029178973 0.62800002 0.278087616 -0.7583146691 0.5895982981
-0.074520051 -0.14462888 0.66398436 -0.5042622089 -0.6273195744 0.5934557915
-0.071884818 -0.037667781 0.6270588 0.4511880875 -0.6823106408 0.5752230287
-0.013652331 -0.043123607 0.62202233 -0.4873679876 -0.644171834 0.5895040631
-0.065821663 -0.1381377 0.67692602 -0.3764763474 -0.6731737852 0.6364766955
-0.065855019 -0.15784587 0.65655571 -0.3511690497 -0.6503913403 0.673551321
-0.025354343 -0.13473046 0.68405783 0.2989228964 -0.7091414928 0.6385635734
-0.078939453 -0.05063013 0.62100005 0.5902512074 -0.6051988006 0.5341703296
-0.025113739 -0.1444229 0.67390168 0.268702358 -0.7096793056 0.6512713432
-0.0025300896 -0.082468405 0.5941667 -0.6347109675 -0.5486004949 0.5442237258
-0.075162202 -0.11531226 0.69439018 -0.5073747039 -0.6356643438 0.5818090439
-0.062503219 -0.05813225 0.59800005 0.3253989518 -0.6986619234 0.6371711493
-0.064478882 -0.11404559 0.70347446 -0.2930350006 -0.646053195 0.7048019171
-0.024754889 -0.035080537 0.62413591 -0.3439869285 -0.6894977689 0.6373898387
-0.0047577657 -0.16433588 0.63628256 0.6707979441 -0.5337176919 0.514952004
0.010676923 -0.05226073 0.64100003 -0.4423853457 -0.533790648 0.7206682563
-0.072481588 -0.047696382 0.61678278 0.4745030999 -0.64875108 0.5949528217
-0.024663838 -0.054750148 0.60381341 -0.3232685626 -0.6776276827 0.6605437994
-0.069944851 -0.07098107 0.59100002 0.4719961584 -0.6313404441 0.6153282523
-0.064821683 -0.035410844 0.6244728 0.3840208948 -0.6796208024 0.625014782
-0.063007854 -0.068236522 0.58708334 0.3121416271 -0.6710317135 0.6725206375
-0.013679377 -0.13611892 0.67536068 0.470295608 -0.6532388926 0.5933809876
-0.074576892 -0.13483143 0.67429864 -0.5232146978 -0.614815712 0.5901254416
-0.069958001 -0.060490001 0.60000002 0.4725446999 -0.656657815 0.5877941847
-0.0049373237 -0.14521469 0.65444934 0.6560493708 -0.5736835003 0.4903942347
-0.052533474 -0.1306961 0.69055557 -0.1789740622 -0.7173006535 0.6733855605
-0.060999781 -0.039310612 0.61849999 0.3097240329 -0.699754715 0.6437502503
-0.013504044 -0.06317009 0.60267353 -0.489200443 -0.6298018694 0.6033511162
-0.057739895 -0.13929006 0.67899996 -0.2527093589 -0.7065663338 0.6609856486
-0.0060387789 -0.056277286 0.61480367 -0.5976839066 -0.5713237524 0.5624616146
-0.083598822 -0.13372266 0.66284621 -0.6826411486 -0.5297946334 0.5033077598
0.008308365 -0.071978912 0.62255555 -0.5567218065 -0.5092579126 0.6562905312
-0.047758464 -0.15848877 0.65899998 -0.06104457378 -0.7183007598 0.6930494905
-0.0088522714 -0.14274395 0.6627059 0.5833732486 -0.6129371524 0.5329012275
0.033094682 -0.085329205 0.59802067 0.3697924316 -0.5767151117 0.7284594774
0.001457507 -0.14134468 0.65100002 0.7387162447 -0.5212188363 0.4273513854
0.0027533667 -0.14459565 0.64333344 0.7612271309 -0.4650941193 0.4519078732
-0.0091493316 -0.078609608 0.58800006 -0.506588459 -0.6052627563 0.6140237451
-0.09136191 -0.056970086 0.62822229 0.6217822433 -0.6005064845 0.5027711391
