# .PCD v0.7 - Point Cloud Data file format
VERSION 0.7
FIELDS x y z normal_x normal_y normal_z
SIZE 4 4 4 4 4 4
TYPE F F F F F F
COUNT 1 1 1 1 1 1
WIDTH 206
HEIGHT 1
VIEWPOINT 0 0 0 1 0 0 0
POINTS 206
DATA ascii
0.0086839087 -0.21169539 0.75040001 -0.3679870665 -0.4921898246 0.7888818979
0.0915979 -0.088005677 0.68290007 -0.846455574 0.291133523 -0.4458185732
-0.016163589 -0.094019271 0.7340557 -0.6919010282 0.465005964 -0.5523064733
0.092753604 -0.17783235 0.71780002 0.9735533595 -0.01813419536 0.2277389765
0.018365815 -0.14103672 0.65880001 -0.2255134583 0.6570611 -0.7193152308
0.05135075 -0.1732232 0.78100002 0.3112938404 -0.563090086 0.7655231953
0.034845434 -0.084997065 0.70376813 -0.01385143306 0.6444966793 -0.7644816041
0.074116059 -0.14521652 0.6750645 0.6038093567 -0.0146191027 -0.7969946861
-0.031234466 -0.18887024 0.71733338 -0.8055896163 -0.2774254382 0.5235078931
-0.019023666 -0.14052966 0.70000005 -0.7610200047 0.4323604405 -0.4836455584
0.064671256 -0.21379173 0.74430615 0.5550124645 -0.4295814931 0.7123348117
0.0058391602 -0.17509288 0.77330565 -0.4233804047 -0.4904990196 0.7616821527
0.090554118 -0.10195312 0.72233343 0.7281585932 0.2911242545 -0.6205092669
0.044371806 -0.11825025 0.67813647 0.1675295681 0.6317607164 -0.7568435669
0.0060916189 -0.11668532 0.68620521 -0.4377104938 0.5758969784 -0.690472424
0.076262206 -0.17788707 0.75433332 0.6594694853 -0.4213291407 0.6225606799
0.072790511 -0.11525516 0.69592309 0.5655032396 0.474481076 -0.6745916009
-0.017541222 -0.17770648 0.74546152 -0.7804462314 -0.316313535 0.5393045545
0.092051029 -0.11625948 0.66763645 -0.7788729668 0.3697224557 -0.5066184402
0.035391834 -0.19643804 0.76637501 0.07115425169 -0.602416575 0.7950039506
0.065101229 -0.084731095 0.71254081 0.2969264984 0.5177845359 -0.8023302555
0.091436334 -0.14421166 0.70000005 0.8348253965 0.3550455272 -0.42072469
0.0048569874 -0.084774882 0.71425462 -0.5157385468 0.5942552686 -0.6171502471
-0.0093364995 -0.11183053 0.71000004 -0.701351881 0.4732981324 -0.5330051184
0.047517087 -0.14081283 0.66100001 0.2151276171 0.6144660115 -0.759046495
-0.004818962 -0.14391504 0.6749565 -0.6085559726 0.4976324439 -0.6180789471
0.03502411 -0.221384 0.75381815 0.03854358196 -0.5635405183 0.825188756
-0.014431938 -0.2038157 0.73671436 -0.7511874437 -0.3083100617 0.5836628079
0.085401654 -0.20139897 0.72700006 0.8700335026 -0.2987489104 0.3921616971
-0.027837381 -0.1347574 0.72166675 -0.7660349607 0.4347042739 -0.4735215306
0.015748365 -0.098113686 0.69766682 -0.2962266803 0.6014046669 -0.7419987917
0.053755812 -0.097344704 0.69707412 0.2803160548 0.565150857 -0.7759042978
0.057874031 -0.19753078 0.75757152 0.4852987528 -0.4991839826 0.7178443074
0.0057435227 -0.19391222 0.76227248 -0.4821603894 -0.4915408194 0.7251958251
0.028035799 -0.1818908 0.78000003 -0.05667483434 -0.5592262745 0.827075541
0.02465149 -0.12402008 0.6732614 -0.1727784127 0.655983448 -0.7347335219
0.082287602 -0.092163324 0.70381826 0.7009037137 0.585493803 0.4073462486
0.035331007 -0.10204311 0.69047385 -0.005450521596 0.6069845557 -0.7946949601
0.064368367 -0.12803821 0.67703032 0.175107196 0.6529279351 -0.7369006872
0.074961342 -0.19512421 0.74478197 0.6923474669 -0.3789927065 0.6140191555
0.087460659 -0.17816059 0.73900002 0.868366003 -0.2800445855 0.4092865586
-0.017440846 -0.15091275 0.68583339 -0.7125537992 0.4299467504 -0.554448247
0.086268499 -0.15446158 0.68666691 0.8074225187 0.3416926563 -0.4809522033
0.080385074 -0.087980516 0.72200006 0.5247732401 0.4011396766 -0.7507995963
-0.021460878 -0.11362373 0.72190917 -0.7607817054 0.4325514138 -0.4838496149
0.025421456 -0.20865263 0.75833327 -0.1361145079 -0.533033967 0.8350734115
-0.021787971 -0.18456514 0.73100001 -0.8104262948 -0.2684764266 0.5207011104
0.050204068 -0.079954632 0.70700002 0.137210384 0.6093489528 -0.7809399366
0.065283522 -0.17648153 0.76652652 0.5596612692 -0.4746519625 0.6793267131
0.084716432 -0.11250659 0.71128589 0.7306089401 0.2588500679 -0.6318284869
-0.0071282932 -0.12344898 0.69280016 -0.672752738 0.4817222059 -0.5615580678
-0.007272251 -0.18584816 0.75459999 -0.6948735118 -0.3811678886 0.6098047495
0.045674104 -0.2076942 0.75637126 0.2632198632 -0.5181154609 0.8138007522
0.051147364 -0.22098663 0.74800003 0.338072896 -0.5030276179 0.7954055071
0.077833422 -0.12294907 0.6675455 -0.5021791458 0.4494017661 -0.7388194799
-0.001116698 -0.098852053 0.70739996 -0.6105539203 0.5145532489 -0.6020455956
0.040797729 -0.12903014 0.66800004 0.1515066624 0.6566289067 -0.7388398051
-0.011379961 -0.13687998 0.68716663 -0.7025621533 0.4459567368 -0.5545529723
0.05941854 -0.11169662 0.69020003 0.4462850094 0.5468125939 -0.708396554
0.060678482 -0.13911092 0.66766667 0.3018070161 0.4415284991 -0.8449645638
0.047843788 -0.18868177 0.76866674 0.370538801 -0.5547627807 0.7449424267
0.088602997 -0.19297406 0.71535718 0.8810216188 -0.2997655571 0.3659802675
0.066781379 -0.10238665 0.70122224 0.412552774 0.4061760306 -0.8153657317
-0.0087518357 -0.093093745 0.72158337 -0.6647000909 0.4901918471 -0.5638135672
-0.030499233 -0.14253724 0.71000004 -0.7678518891 0.4307260513 -0.4742135406
-0.00061191333 -0.10953248 0.69800001 -0.5793700218 0.5344333649 -0.6153953075
-0.0043380517 -0.21402884 0.74530447 -0.5732253194 -0.4379087687 0.6925666928
0.013538506 -0.13242753 0.67154038 -0.3380077481 0.6405510306 -0.6895252466
0.08596193 -0.10417537 0.67120451 -0.7257589102 0.3816974461 -0.5723469853
0.024815025 -0.11360843 0.6825453 -0.1804573536 0.6266691089 -0.7581034899
-0.00098625 -0.20152375 0.75000006 -0.5781492591 -0.4261918366 0.6957758069
0.035350922 -0.14182298 0.65496439 0.06348416209 0.6499513388 -0.7573196292
0.016895449 -0.17418104 0.78120846 -0.2022998482 -0.5131642818 0.8341086507
-0.017089915 -0.1229092 0.71140021 -0.7621402144 0.4357068241 -0.4788547456
0.0190675 -0.2202625 0.75000006 -0.161042273 -0.5336221457 0.8302486539
0.015475616 -0.086403206 0.70618379 -0.3330444992 0.6266791821 -0.7045243382
0.068043321 -0.18769079 0.75683337 0.6108435392 -0.4399748743 0.6582494378
-0.004663677 -0.17566304 0.76569575 -0.6219880581 -0.3854836226 0.6815667152
0.0061645787 -0.14213069 0.66280639 -0.4510480762 0.5708230138 -0.686087966
0.015434642 -0.18416011 0.77327436 -0.2810609341 -0.545550108 0.7895440459
0.074821785 -0.21229899 0.7366522 0.6358385682 -0.4210073054 0.6468865275
0.041273464 -0.18105592 0.78033334 0.1650723368 -0.5464250445 0.8210790753
0.071935438 -0.12580022 0.6870715 0.5031977892 0.6953128576 -0.5131588578
0.082182162 -0.12195622 0.70099998 0.6553274989 0.4075073004 -0.6359903216
-0.012773843 -0.19375907 0.74381489 -0.7426176071 -0.3348746896 0.5799810886
0.082847252 -0.13304447 0.67203707 0.3241717517 -0.3897138238 -0.8619952202
0.077905916 -0.10252658 0.71166676 0.6888647676 0.2811807394 -0.6681337357
-0.0211189 -0.1036746 0.73000002 -0.7515518069 0.4266426563 -0.5031360984
0.016072879 -0.20265532 0.76124984 -0.2596929371 -0.5390589833 0.8012334108
0.044854123 -0.10725524 0.68697619 0.1730386317 0.6042553782 -0.7777744532
-0.024855487 -0.19446293 0.72473335 -0.8055896163 -0.2774254382 0.5235078931
0.087247729 -0.1854165 0.72399992 0.8832988143 -0.2712169886 0.3823932111
0.017045271 -0.10759115 0.68772727 -0.2895188928 0.6101297736 -0.7375096083
-0.020279929 -0.12966864 0.70100003 -0.7577068806 0.4607999325 -0.462107867
0.0064281733 -0.12705187 0.6779092 -0.4426196516 0.58105129 -0.6829840541
0.092924394 -0.096247725 0.67605418 -0.7787236571 0.3875375092 -0.4933600128
0.081380822 -0.086863197 0.69449997 -0.7744640112 0.4417796731 -0.4528092146
0.024928004 -0.13435566 0.66407591 -0.1174258441 0.6742542386 -0.7291038036
0.024894739 -0.19521022 0.76743847 -0.1281566769 -0.5891712308 0.7977801561
0.023804571 -0.091821685 0.70042318 -0.209877491 0.6148739457 -0.7601851821
0.054264113 -0.12561652 0.67558461 0.2709075511 0.6196404696 -0.736651063
0.082558595 -0.14501436 0.68470001 0.8334217072 0.2879797518 -0.4716734886
0.046294019 -0.090988472 0.7003333 0.1807025224 0.6048451662 -0.7755700946
0.080865718 -0.1534059 0.67825001 0.7248232961 0.06377264857 -0.6859768629
0.078027494 -0.18621868 0.7479499 0.7277268171 -0.4105663896 0.5494077802
0.0019669477 -0.22108512 0.74833339 -0.4391512573 -0.4606056511 0.7713550329
0.024459023 -0.10226979 0.69150019 -0.191234678 0.6130288243 -0.7665669918
0.034577079 -0.11282334 0.6818946 0.01601247862 0.631822288 -0.7749478817
0.072283827 -0.2040541 0.74176002 0.6613481045 -0.4058154225 0.6308189631
0.082401805 -0.19508123 0.73384839 0.8615912199 -0.2983494699 0.4106679559
0.017843673 -0.11955848 0.67850006 -0.2894413471 0.6198788881 -0.7293654084
-0.02369367 -0.15005991 0.69300002 -0.7432100773 0.4498179853 -0.4952802658
-0.013456753 -0.17684712 0.75399995 -0.748927474 -0.3373582363 0.5703482032
0.034866367 -0.20808677 0.75781488 0.0559105128 -0.555747807 0.8294687271
-0.0050829798 -0.084781662 0.72417498 -0.6307597756 0.5052936673 -0.5889145732
0.035190318 -0.12348838 0.67320305 0.03541374952 0.6456503868 -0.7628115416
0.052329879 -0.21199588 0.75053334 0.3707019687 -0.5100414157 0.776168704
0.028744439 -0.079202451 0.70766664 -0.1006566584 0.6443938613 -0.7580401301
0.0036727376 -0.18596889 0.76641053 -0.4842468202 -0.4882662594 0.7260172963
0.062552817 -0.2031706 0.75220692 0.5276033282 -0.4714546204 0.7066578269
0.053168356 -0.18291575 0.77304548 0.3866346776 -0.5375986695 0.7493339181
-0.016732443 -0.19538312 0.73505121 -0.7994104028 -0.2661446035 0.5386186838
0.035033699 -0.1344905 0.66399992 0.03285606578 0.6564185023 -0.7536811233
-0.010731803 -0.11780541 0.70359999 -0.6950213909 0.4787957966 -0.5363765955
0.0042850324 -0.13435099 0.67342657 -0.5061560869 0.5631181002 -0.6532258987
0.0037665113 -0.10224878 0.7009334 -0.5009493828 0.5452803373 -0.6721004844
0.091156505 -0.18481082 0.71281254 0.9769672155 -0.09440880269 0.1913687289
-0.01367074 -0.15037814 0.67800003 -0.6719236374 0.4689106345 -0.5732725859
-0.0075077731 -0.10331075 0.71112007 -0.7013533711 0.4621720612 -0.5426789522
0.074329078 -0.094377711 0.70616686 0.4945638478 0.3706606627 -0.7861407399
0.074129649 -0.10564744 0.70422226 0.6136596203 0.2940163016 -0.7327866554
0.075462557 -0.12329192 0.69468969 0.6557027698 0.5205034018 -0.5469278693
0.034646437 -0.18572618 0.7761634 0.04101675004 -0.5869292021 0.8085986376
0.014757331 -0.19515349 0.76501393 -0.2934470475 -0.5530675054 0.7797468901
0.074806429 -0.13458572 0.67425019 0.01105261408 0.1694687605 -0.9854735732
0.034856822 -0.17588727 0.78231132 0.03934944049 -0.5774680972 0.815464437
0.055139706 -0.10461565 0.69294941 0.3318341374 0.5677834153 -0.7533313036
-0.0046037738 -0.095250353 0.71458495 -0.6601852179 0.4955196381 -0.5644606352
0.084971964 -0.18555902 0.73588008 0.8822626472 -0.2688445151 0.3864391744
0.043686055 -0.22178946 0.75176466 0.1881776601 -0.5681724548 0.8011050224
-0.0025580036 -0.19419058 0.75362504 -0.5835335255 -0.4361155033 0.6850488186
0.057398271 -0.082161911 0.71068758 0.2166541666 0.6080591679 -0.7637571692
-0.01500775 -0.11530866 0.71499991 -0.7462094426 0.4385678172 -0.500829041
-0.0211189 -0.20030956 0.73000002 -0.7898723483 -0.2824849784 0.5443381071
0.067147925 -0.14311613 0.67115992 0.4249262512 0.1686429977 -0.8893802762
0.05619099 -0.13216844 0.67094111 0.2734687626 0.6014096737 -0.7506805062
0.051560648 -0.20157261 0.7610001 0.3656852543 -0.5312275887 0.7642457485
0.0056688101 -0.2048199 0.75380015 -0.4558986425 -0.4558525085 0.764431119
-0.018187411 -0.14415397 0.69150007 -0.7383437157 0.4158157706 -0.5309856534
-0.0033611571 -0.12613998 0.68602091 -0.5738402009 0.5159482956 -0.6360068917
0.0076452643 -0.088652335 0.70716661 -0.4295167327 0.6089000702 -0.6669003367
0.064999953 -0.095323659 0.70494926 0.2511870265 0.45240888 -0.855705142
0.063099086 -0.1180226 0.68671429 0.4179683924 0.624638617 -0.659643054
0.01495134 -0.11479484 0.68435705 -0.2959177196 0.6139223576 -0.7318005562
-0.023061739 -0.14275205 0.70661116 -0.7600035071 0.4367187321 -0.4813225567
0.055235252 -0.20542696 0.75468862 0.4034835994 -0.4877112806 0.7741696835
0.071287721 -0.17795369 0.7614001 0.6245117188 -0.4225724041 0.6568239331
-0.0035666157 -0.10596102 0.70459592 -0.6339316368 0.4934559464 -0.5955098271
0.077492505 -0.11446807 0.70236367 0.652702868 0.2949460447 -0.6978437304
0.064398155 -0.18432058 0.76310217 0.5638270974 -0.4655205905 0.6821947098
0.054974381 -0.11507111 0.68447822 0.3140957654 0.5865581632 -0.7465208173
-0.011653092 -0.21105838 0.73850006 -0.6558620334 -0.3797839582 0.6523872614
0.044913344 -0.12478106 0.67326647 0.1898472011 0.6255729795 -0.7567142844
-0.0020344339 -0.087516867 0.71699995 -0.6220719218 0.5265928507 -0.5794190764
0.0014688551 -0.1427025 0.67033339 -0.5438173413 0.5318683386 -0.6491369605
0.064969383 -0.13512254 0.67368555 0.2660298347 0.4872567058 -0.8317505717
0.072001301 -0.19208954 0.75138462 0.6574682593 -0.4291273654 0.6193425655
0.0014945414 -0.092072442 0.71060002 -0.5699763298 0.5337763429 -0.6246677637
0.064757116 -0.19509938 0.75485009 0.5536976457 -0.4597427845 0.6943021417
0.057832316 -0.12163422 0.68125004 0.3041633666 0.6419970989 -0.70379287
-0.015214075 -0.18513376 0.74545854 -0.7879822254 -0.3028414845 0.5360699892
-0.0023329668 -0.13659145 0.67682141 -0.5972644687 0.5175691247 -0.6126967669
0.060676478 -0.17564306 0.77271432 0.4518162608 -0.5123625398 0.7303058505
0.045079995 -0.19540985 0.76601619 0.2811356485 -0.5826586485 0.7625429034
0.082187496 -0.1755525 0.75000006 0.7988158464 -0.3234200776 0.5072402954
0.044910125 -0.18501909 0.77483046 0.2482124418 -0.5574676394 0.7922250032
0.05561693 -0.14181681 0.66254169 0.3190411329 0.5611354113 -0.7637668848
0.044707861 -0.084872052 0.70467144 0.1599591523 0.6238344312 -0.7650122046
0.080605552 -0.19111422 0.74150002 0.794377923 -0.3281774521 0.5111391544
0.06885235 -0.19842683 0.74800003 0.6110280752 -0.4341074526 0.6619633436
-0.0031139695 -0.18405926 0.76348561 -0.6248687506 -0.4109520614 0.6638203263
0.07216002 -0.087099843 0.71418756 0.4704866111 0.5078405738 -0.7216234207
0.00060490001 -0.1203751 0.69000006 -0.5560974479 0.5415006876 -0.6305018663
0.088488363 -0.17774266 0.72410005 0.8822626472 -0.2688445151 0.3864391744
0.034879062 -0.089951269 0.69800001 -0.01558749471 0.6185181141 -0.785615921
0.0053849486 -0.09556175 0.70505285 -0.4933199286 0.5484117866 -0.6751888394
0.015703373 -0.13661757 0.66433334 -0.2634354234 0.6504828334 -0.712372005
-0.02137927 -0.17686486 0.73900002 -0.8122810721 -0.2700959146 0.5169599652
0.083433248 -0.10590851 0.71555251 0.7742755413 0.2517477572 -0.5806207657
-0.010700593 -0.099451698 0.71800005 -0.708335042 0.4492785037 -0.5444357395
0.0032999925 -0.11314535 0.69225013 -0.4767233133 0.5767301917 -0.6634132862
0.061410625 -0.089235015 0.70757145 0.2458810657 0.5533897281 -0.7958029509
0.039983891 -0.14081283 0.66100001 0.1223492175 0.6502969861 -0.7497629523
0.025122084 -0.21485022 0.75410318 -0.06272985786 -0.5608820915 0.8255157471
0.054071203 -0.19417129 0.76310176 0.4027901888 -0.5415014029 0.7379270196
0.056238875 -0.18598519 0.76693052 0.4327851832 -0.539159894 0.7224981785
0.066807918 -0.20597602 0.74640435 0.5779435039 -0.4430788457 0.6853191853
0.010999663 -0.1211666 0.68085718 -0.3399980068 0.6116678119 -0.7143275738
-0.0033955588 -0.11591596 0.69547838 -0.6030886769 0.531614542 -0.5947016478
0.066014387 -0.11422468 0.69234025 0.504917264 0.5224942565 -0.6870650053
0.0015321211 -0.20858735 0.74900001 -0.4988689721 -0.4455232024 0.7433968186
0.025464213 -0.13933879 0.65778935 -0.1101298407 0.6762122512 -0.7284287214
0.024660323 -0.084736876 0.70502806 -0.1969594061 0.6533746719 -0.7309641242
0.076591216 -0.20529522 0.73533332 0.7246888876 -0.3961308002 0.5638318658
0.082937524 -0.098071344 0.7146154 0.6888647676 0.2811807394 -0.6681337357
0.048188027 -0.13065577 0.67033339 0.2689937353 0.6192199588 -0.7377052307
