# .PCD v0.7 - Point Cloud Data file format
VERSION 0.7
FIELDS x y z normal_x normal_y normal_z
SIZE 4 4 4 4 4 4
TYPE F F F F F F
COUNT 1 1 1 1 1 1
WIDTH 206
HEIGHT 1
VIEWPOINT 0 0 0 1 0 0 0
POINTS 206
DATA ascii
-0.064224362 -0.11594847 0.51476043 0.440343529 -0.6636852026 0.6046648026
-0.01873612 -0.20033236 0.54800004 0.4247236252 -0.6403261423 0.6399939656
-0.0097941197 -0.058764718 0.53200001 0.8869410157 -0.1605576277 0.4330784082
0.0017919068 -0.13887276 0.5110001 -0.8486483693 -0.4809161723 0.2202625871
-0.078571834 -0.17521597 0.53719229 -0.7227981687 -0.5317450166 0.4413728714
-0.047068238 -0.16385952 0.59000009 -0.05360518023 -0.8157277107 0.5759468675
-0.093496934 -0.11067609 0.56310004 0.6722349524 -0.5527861118 0.4924710095
-0.05444428 -0.078574561 0.55299997 0.1904382259 -0.683591485 0.7045821548
-0.011081395 -0.094227314 0.49895823 0.8353007436 -0.4461861551 0.3212328851
-0.019553173 -0.1006273 0.54400003 -0.2978861034 -0.6988662481 0.6502690315
-0.075624608 -0.15262787 0.49837506 0.5914483666 -0.4420380592 0.6743820906
-0.0088946605 -0.16290073 0.5636667 0.6439409256 -0.4990644753 0.5798919797
-0.032592189 -0.1313183 0.49220005 -0.20305489 -0.6179354787 0.7595553994
0.0061160158 -0.17155391 0.52777779 0.9597092271 0.02532276511 0.2798517048
-0.054623738 -0.20181514 0.54268563 -0.4179187417 -0.6963512897 0.5834713578
-0.068271205 -0.16811495 0.56720006 -0.4943964779 -0.7405121922 0.4552074373
-0.035540842 -0.10830174 0.5181765 -0.1621471196 -0.7942309976 0.585581243
-0.034862828 -0.17877822 0.56780005 0.1508202702 -0.7478164434 0.6465475559
-0.070459165 -0.099018626 0.537 0.4664382339 -0.6418800354 0.6086258292
-0.029412167 -0.068949834 0.55000001 0.1775713414 0.3301867843 0.9270626307
-0.083260447 -0.12097483 0.5318889 0.6001699567 -0.5753273964 0.5556927323
0.0010572601 -0.075135 0.5163334 0.8716668487 -0.2354387045 0.4298436344
-0.056304861 -0.13312989 0.49334896 0.3437537253 -0.5856872797 0.7340325713
-0.045283709 -0.094508164 0.53377897 -0.05115409195 -0.7797350287 0.6240164638
-0.080831163 -0.13480537 0.51376921 0.7086970806 -0.4278469682 0.5609772205
-0.080280751 -0.089038648 0.55500001 0.5764013529 -0.6472685933 0.498803407
-0.0091611668 -0.18081249 0.55000001 0.706471622 -0.4383039176 0.5556865335
-0.027296547 -0.1646928 0.58182043 0.3154147863 -0.7105721831 0.6289679408
-0.063634217 -0.18286589 0.55404329 -0.5872198939 -0.6366160512 0.4998927712
-0.024733098 -0.11877482 0.50618178 -0.2736540735 -0.6944864392 0.6654337049
-0.071713544 -0.1924877 0.53286958 -0.6478232741 -0.5567399263 0.51996696
-0.044901006 -0.11735865 0.50476259 0.06352754682 -0.7562713623 0.6511665583
-0.018735526 -0.084960058 0.55413532 -0.06401000172 -0.3183628321 0.9458053708
-0.034888081 -0.19394176 0.55333644 0.08330832422 -0.7008293271 0.7084475756
-0.019866142 -0.10856903 0.52700001 -0.3214271367 -0.7730839849 0.5468324423
-0.015052366 -0.080627032 0.51000005 0.8443489671 -0.2972876132 0.4457520843
-0.035239264 -0.087478749 0.54666668 -0.2137118131 -0.4844793379 0.8482965231
-0.012206906 -0.1339889 0.50264913 -0.5081087947 -0.6150248051 0.6029676199
-0.055389583 -0.10447562 0.52344739 0.1961262822 -0.7297810912 0.6549458504
0.00047486112 -0.16382766 0.54166669 0.9359557629 -0.01995189302 0.35155195
-0.054879997 -0.17359908 0.57412887 -0.2951681912 -0.7728001475 0.561832428
-0.082432479 -0.10506866 0.54497868 0.6533793211 -0.5595465899 0.5099049807
-0.070750758 -0.13820198 0.4968572 0.581561625 -0.4390441775 0.6848549247
-0.019499697 -0.17149675 0.57033342 0.4143592119 -0.6596805453 0.626999259
0.0011926037 -0.18277794 0.53638464 0.7512364388 -0.4215371013 0.5078880191
0.0013562036 -0.08524143 0.5053125 0.8757671118 -0.2791188061 0.3938586116
-0.058859397 -0.090734996 0.54000002 0.2364587188 -0.7292587161 0.6420817971
-0.031002965 -0.10045636 0.53100002 -0.2947643697 -0.7778742909 0.555000484
-0.064505778 -0.12554862 0.50488192 0.46926108 -0.6200473309 0.628757
-0.01087768 -0.068438739 0.51700002 0.6666023135 -0.5051683187 0.5481298566
0.0023822275 -0.15214689 0.51262969 -0.4698894918 -0.6710098386 -0.5735413432
-0.045891412 -0.18853903 0.55831033 -0.1674340516 -0.7206718922 0.6727539897
-0.0074015995 -0.19237883 0.54392588 0.6522964239 -0.4971238375 0.5721689463
-0.024492128 -0.18683398 0.55667877 0.3318506777 -0.6023714542 0.7259640098
-0.062059127 -0.1649411 0.58024997 -0.3143471181 -0.7774069905 0.5448158383
-0.072432607 -0.10848898 0.52873695 0.5039140582 -0.628526628 0.5924735665
-0.074088857 -0.16913705 0.55600005 -0.6782051325 -0.6018471718 0.4216844141
-0.066310026 -0.082944095 0.55238193 0.3541050553 -0.7063236833 0.6129571199
-0.034917098 -0.078232214 0.55591178 -0.1039538234 -0.3602203429 0.927057147
-0.0823716 -0.16089286 0.50400001 0.9847412109 -0.1053590775 0.138507098
-0.062647693 -0.19295092 0.54191959 -0.5968478322 -0.5794525743 0.5549841523
-0.020544393 -0.061005477 0.53666669 0.8228874207 -0.2659684122 0.502112627
-0.054193635 -0.18190704 0.56279635 -0.3534580469 -0.7349641919 0.5787011385
-0.044551324 -0.17146261 0.58185732 -0.02243750542 -0.8144382834 0.5798161626
-0.045703787 -0.18031769 0.57040006 -0.0819593817 -0.7775540352 0.6234520078
-0.044924174 -0.12496444 0.49647245 0.07721718401 -0.7374654412 0.6709561944
-0.072322048 -0.18222356 0.54336119 -0.7081431746 -0.5395668745 0.4554127455
-0.04506395 -0.19871728 0.54752779 -0.1814691722 -0.7192417979 0.6706416011
-0.074325055 -0.1258737 0.512591 0.5572096705 -0.5867307782 0.5875920057
-0.044102497 -0.081466027 0.5505926 0.01779126562 -0.5487847924 0.8357743621
-0.053439975 -0.19280048 0.5518499 -0.3750483692 -0.6671876907 0.6435831785
-0.035375446 -0.20275 0.5466612 0.03088361584 -0.7428120971 0.668787241
-0.048302732 -0.13510337 0.4870002 0.1668750644 -0.6332170367 0.7557704449
-0.045046497 -0.1039468 0.52406007 -0.02092341147 -0.7620241046 0.6472105384
-0.01181891 -0.12722486 0.51047069 -0.5672389269 -0.6220149398 0.5397567749
-0.055307657 -0.12229224 0.501966 0.2718767822 -0.7169224024 0.6419542432
-0.03573158 -0.12099477 0.50230771 -0.1284989268 -0.7474371791 0.6517865062
-0.077610858 -0.12256336 0.5236364 0.5492922068 -0.5965413451 0.5851636529
-0.074551865 -0.16905949 0.54414999 -0.6967187524 -0.5548855066 0.454626292
-0.0058268234 -0.14160703 0.50436664 -0.6746526957 -0.5252687335 0.5185909271
-0.019412031 -0.069466189 0.54900002 0.4994338751 0.2261611968 0.8363115191
-0.0058778077 -0.064476267 0.52475387 0.8432602286 -0.2350576222 0.4833840132
-0.086250022 -0.10324018 0.55395007 0.6554340124 -0.5687411427 0.4969303608
-0.0057013743 -0.078189589 0.50784373 0.8706967235 -0.2197421938 0.4400006533
-0.044917248 -0.11284552 0.51326251 0.02233897708 -0.785249114 0.6187768579
-0.055118572 -0.11372085 0.51271582 0.2373660505 -0.7433201075 0.6254059076
-0.073777452 -0.095817812 0.54541165 0.4895079434 -0.6570752263 0.5732661486
-0.07355386 -0.13558812 0.50561649 0.63744241 -0.4475243986 0.6272073984
-0.0041694674 -0.17550218 0.54423088 0.7564197779 -0.391412735 0.5240469575
-0.0076133842 -0.16708075 0.55546874 0.7498314381 -0.3731941283 0.5463322997
-0.018576646 -0.19106399 0.55100006 0.4851471484 -0.5499004722 0.6798835993
-0.027548408 -0.1145625 0.51366669 -0.2916847169 -0.7503074408 0.5932611227
-0.080501668 -0.10874787 0.537 0.6260813475 -0.5696286559 0.532489717
-0.024212658 -0.13252677 0.49476936 -0.356846422 -0.5395133495 0.7626178265
-0.063553952 -0.20007725 0.537 -0.5421443582 -0.62580055 0.5607612133
-0.064335421 -0.10633302 0.52645838 0.4133044779 -0.658274889 0.6291689277
-0.083001919 -0.16791233 0.53800005 -0.9265160561 -0.3220872283 0.194493711
-0.024011428 -0.1772929 0.56614286 0.4172071815 -0.6399419308 0.6453003287
-0.04099644 -0.090798117 0.54000002 -0.2140029967 -0.7586311102 0.6153710485
-0.025342118 -0.075907387 0.5521431 0.3393425047 0.06684853882 0.9382845759
-0.05522624 -0.085814297 0.54566669 0.125038296 -0.7733317018 0.6215492487
-0.03471395 -0.1655522 0.58550954 0.1539209038 -0.7607966065 0.6304735541
-0.011591354 -0.085085779 0.50387996 0.8389856815 -0.372972697 0.3962251544
-0.064698845 -0.17445143 0.56320494 -0.5057861209 -0.7260518074 0.4658638537
0.006461008 -0.16469531 0.52328575 0.9258570075 0.2374681234 0.2939348817
-0.0041019595 -0.090986349 0.50179166 0.874655962 -0.3176590502 0.3661552966
-0.065853864 -0.18640542 0.54612386 -0.6687579751 -0.5555698872 0.4940696657
-0.035017747 -0.17472948 0.5749048 0.1687744856 -0.7589541674 0.628890872
-0.027550435 -0.098505564 0.53814995 -0.3174833953 -0.7516697049 0.5780977011
-0.026422767 -0.20163196 0.5457406 0.2320554852 -0.6852520704 0.6903476119
-0.06246496 -0.17168213 0.57207406 -0.3728016317 -0.7632539868 0.5276952982
-0.01279604 -0.17635003 0.55566132 0.6831156611 -0.4458933175 0.5783875585
-0.071259648 -0.1187972 0.51699996 0.5295171738 -0.6136294603 0.5857221484
-0.076126046 -0.14250486 0.50281817 0.63744241 -0.4475243986 0.6272073984
-0.019189086 -0.092664547 0.55253845 -0.1369114965 -0.4493164122 0.8828193545
-0.048669904 -0.089306906 0.53900003 -0.008116689511 -0.7722752094 0.6352362633
-0.066683471 -0.11224216 0.52124393 0.4520622194 -0.6512930989 0.6094727516
-0.054959137 -0.094560839 0.53437364 0.1450567096 -0.7440616488 0.6521739364
-0.063769013 -0.087111622 0.54625386 0.3284789622 -0.7162716389 0.6156756282
-0.05496458 -0.16734396 0.58246148 -0.1647628695 -0.8283807635 0.5353863239
-0.016608726 -0.17416155 0.56359106 0.5318053961 -0.5696740746 0.6266214848
-0.074323893 -0.1151014 0.52513468 0.5347340703 -0.6086055636 0.5862241983
-0.034760825 -0.10394606 0.52530402 -0.2244014591 -0.7895091772 0.5712436438
-0.061535571 -0.12934135 0.49900004 0.4428331256 -0.5844624043 0.6799283624
-0.055453073 -0.18693729 0.5562222 -0.370243609 -0.6807835698 0.6320232749
-0.023749389 -0.16774558 0.57585186 0.3934757411 -0.680367291 0.618285656
-0.025771353 -0.19318156 0.55210835 0.2861706614 -0.61816293 0.7321072221
-0.02506181 -0.094782628 0.54426068 -0.2759506106 -0.6696586013 0.6894987822
-0.060686372 -0.11914163 0.509 0.406645298 -0.6760720015 0.6144641638
-0.015807541 -0.18475115 0.55374527 0.5833925605 -0.5063166022 0.6350563765
-0.0060796943 -0.18512793 0.54342312 0.7166873813 -0.4295374155 0.5494149923
-0.073440544 -0.14559019 0.49667192 0.5914483666 -0.4420380592 0.6743820906
-0.074461453 -0.18571422 0.53374207 -0.7024742961 -0.5355147719 0.4687790573
-0.064235002 -0.13558768 0.49468535 0.5164270997 -0.5133051276 0.6854348183
-0.067919217 -0.13243951 0.50212902 0.522536993 -0.5409194231 0.6590608358
0.0023590592 -0.17512947 0.53294295 0.9184180498 -0.226204142 0.3245611191
-0.054653987 -0.099264055 0.52883345 0.1344400495 -0.7399585247 0.6590806246
-0.07062076 -0.08983729 0.54800004 0.4583999515 -0.6806752086 0.5714461803
-0.04464101 -0.18378052 0.56361926 -0.08234989643 -0.7469725013 0.6597352028
-0.012075922 -0.07418777 0.51142424 0.7740732431 -0.3476952612 0.5290734172
-0.065874428 -0.092406772 0.54181653 0.3818693757 -0.6873881221 0.6177971959
-0.028207254 -0.08839456 0.54799998 -0.1933185309 -0.4086339772 0.8919900656
-0.045105718 -0.1938546 0.55285078 -0.1404403597 -0.7070141435 0.6931143403
-0.083195969 -0.095622703 0.55516112 0.6023359299 -0.6299304366 0.4902847111
-0.037055824 -0.1704506 0.58077782 0.1017701104 -0.7812060714 0.6159220338
-0.067219809 -0.14285208 0.49268892 0.5597013831 -0.442335099 0.7007667422
-0.081017151 -0.099306166 0.54900002 0.6264502406 -0.5917283893 0.5073634386
-0.066898696 -0.12175967 0.51136118 0.4794629812 -0.6384278536 0.6021006107
-0.024535889 -0.10271378 0.5332588 -0.3176494241 -0.7553601265 0.5731752515
-0.06919983 -0.1781286 0.54816669 -0.6805645227 -0.5740117431 0.4553487003
-0.066923909 -0.10220026 0.53181088 0.3981761634 -0.6704033613 0.6261110306
-0.045094173 -0.086171009 0.54550511 -0.02940476686 -0.7290065885 0.6838747859
-0.034558512 -0.11325533 0.51334262 -0.1325281262 -0.7990394235 0.5864915252
-0.035763688 -0.096434817 0.53402376 -0.2799662054 -0.7777130604 0.5628333092
-0.061366666 -0.18017252 0.56 -0.5157189369 -0.6971744299 0.497977674
-0.035317983 -0.12614053 0.49586219 -0.1742263734 -0.6920666099 0.7004919648
-0.034855537 -0.18382385 0.56310809 0.1322109848 -0.7272989154 0.6734660268
-0.074031256 -0.10503808 0.53446782 0.5271069407 -0.6159777045 0.5854312181
-0.00141494 -0.16932115 0.53800005 0.9067428708 -0.1725522131 0.3847637177
-0.077761739 -0.1120726 0.53115392 0.5319466591 -0.6223309636 0.5742272735
-0.074106351 -0.086073637 0.55507696 0.4796307385 -0.7017191648 0.5268250108
-0.025973167 -0.18245284 0.56213212 0.3486891985 -0.621999383 0.7010938525
-0.0080360714 -0.1739964 0.55137837 0.7336059213 -0.4055428207 0.5453048944
-0.035376273 -0.18878165 0.55774194 0.08372769505 -0.7044597268 0.7047880292
-0.024271896 -0.11099526 0.5224762 -0.3120718896 -0.7742921114 0.5505295992
-0.088652924 -0.10326365 0.56025004 0.6554340124 -0.5687411427 0.4969303608
0.0021379925 -0.14542133 0.51253045 -0.8373394608 -0.5217204094 -0.1633106917
-0.045122538 -0.099297307 0.5288949 -0.05072509125 -0.7719600797 0.6336439252
-0.06433776 -0.096996553 0.53524327 0.3708227277 -0.678612113 0.6340158582
-0.026162041 -0.17272772 0.57214743 0.4009734988 -0.6635100842 0.6316443682
-0.018730978 -0.075485058 0.55275863 0.5705240369 0.08626655489 0.8167376518
-0.06739638 -0.17784016 0.5562222 -0.6066577435 -0.6575062871 0.4468242228
-0.01140894 -0.18663155 0.5470714 0.626086235 -0.4681361318 0.6235901117
-0.054499954 -0.12680548 0.49719995 0.2731158733 -0.6590324044 0.7007738352
-0.068979479 -0.18861261 0.53727275 -0.660593152 -0.5522608757 0.5085514784
-0.0046922779 -0.073816024 0.51367354 0.8312121034 -0.2960105836 0.4705997407
-0.014920719 -0.19417654 0.54668069 0.5796984434 -0.519138217 0.6280487776
-0.017077098 -0.13406101 0.4984583 -0.484277606 -0.5936943293 0.6426525116
-0.033707593 -0.092279837 0.54278427 -0.2760950327 -0.7114031315 0.6462794542
-0.070388012 -0.17220496 0.56016666 -0.62724787 -0.6533202529 0.4239489734
0.000445785 -0.079349294 0.50849998 0.8706967235 -0.2197421938 0.4400006533
-0.077404603 -0.10240438 0.54232514 0.598552525 -0.59022367 0.5416372418
-0.076622903 -0.1891612 0.52900004 -0.686412394 -0.5443359613 0.4822202921
-0.0046580476 -0.085099645 0.50354618 0.8628362417 -0.3074466586 0.4012358189
-0.03769679 -0.099442676 0.52900004 -0.221610114 -0.7654673457 0.6041098237
-0.024717523 -0.084748283 0.55268866 -0.1933185309 -0.4086339772 0.8919900656
-0.055975683 -0.19642825 0.54532325 -0.4484139979 -0.6694039106 0.5923033953
-0.045371309 -0.1760859 0.57482982 -0.05270059779 -0.7887604237 0.6124374866
-0.074370772 -0.17511342 0.54504716 -0.6875262856 -0.5611374378 0.4609038532
-0.018353157 -0.16623244 0.57316005 0.4466800392 -0.6760182977 0.5860684514
-0.077014305 -0.093045391 0.55188566 0.5764013529 -0.6472685933 0.498803407
-0.071228109 -0.12776364 0.50779998 0.5519741774 -0.5758933425 0.603051722
-0.011818594 -0.06436149 0.52421433 0.8127959967 -0.3158039749 0.4895206988
-0.0290615 -0.1202699 0.51000005 -0.2401968539 -0.7636246681 0.5993186831
-0.054163877 -0.10948311 0.51677781 0.1904271096 -0.7499992251 0.6334339976
-0.080284692 -0.12899491 0.51450002 0.5973166823 -0.5434237123 0.5898333788
-0.054249272 -0.11822038 0.50602269 0.2286382169 -0.7380150557 0.634868741
-0.0014131864 -0.17739658 0.53675008 0.8310437202 -0.3418836594 0.4387275577
-0.011002167 -0.14082773 0.50200003 -0.5524350405 -0.5376699567 0.6369667053
-0.01530911 -0.058802843 0.53350008 0.8761085272 -0.1120944098 0.4689015746
-0.01337441 -0.16623795 0.56483603 0.6038418412 -0.5383079052 0.587877214
-0.056263562 -0.17781268 0.56594348 -0.3533205092 -0.7759165764 0.5226070285
-0.025944835 -0.10693593 0.52581716 -0.2925175428 -0.7836023569 0.5480883718
-0.059336744 -0.1693882 0.57850003 -0.3143471181 -0.7774069905 0.5448158383
-0.081485286 -0.1725429 0.54100001 -0.7227981687 -0.5317450166 0.4413728714
0.00088368001 -0.091019034 0.50400001 0.874655962 -0.3176590502 0.3661552966
