# .PCD v0.7 - Point Cloud Data file format
VERSION 0.7
FIELDS x y z normal_x normal_y normal_z
SIZE 4 4 4 4 4 4
TYPE F F F F F F
COUNT 1 1 1 1 1 1
WIDTH 206
HEIGHT 1
VIEWPOINT 0 0 0 1 0 0 0
POINTS 206
DATA ascii
-0.02506561 -0.15349272 0.7127707 0.02749302797 -0.6112190485 0.7909837961
-0.01906487 -0.029463889 0.65900004 0.06622632593 0.6191154122 -0.782502532
0.03122424 -0.11336396 0.64175004 0.2563658059 0.2393063456 -0.9364876151
-0.073572494 -0.10012498 0.63100004 -0.5722124577 0.5333385468 -0.6229951382
0.036556125 -0.061260592 0.68733335 0.1052788273 0.08543661982 -0.9907658696
-0.081366934 -0.12649152 0.69218183 -0.8844624162 -0.1912961602 0.4255960286
-0.073843986 -0.054307558 0.67385286 -0.6261858344 0.5267201662 -0.5748539567
-0.01578019 -0.086636402 0.61692315 0.283659786 0.5476632118 -0.7871480584
0.020864667 -0.16035986 0.68000001 0.7673085928 -0.5081893802 0.3911280036
-0.054446261 -0.11722622 0.7306999 -0.4187865555 -0.5300325155 0.7373488545
0.060706388 -0.077157341 0.64716673 -0.4655802548 0.6161834002 -0.6352582574
0.012564095 -0.06772171 0.64709526 0.6358424425 0.4472733438 -0.6290078759
-0.061479177 -0.17165339 0.69433331 -0.4447920322 -0.4402813911 0.7799437642
-0.046733286 -0.061100326 0.64020002 -0.3403709829 0.6130793095 -0.7129385471
0.012934086 -0.13464488 0.71138722 0.6030917168 -0.5100374818 0.613304317
-0.015382494 -0.1260241 0.73310024 0.1195235625 -0.5357137322 0.8358976841
0.03352987 -0.088824742 0.671 0.3882490695 0.506454289 -0.769913435
-0.0058208653 -0.17202438 0.69546163 0.3465190828 -0.6216007471 0.7025219202
0.01822383 -0.041950252 0.67054552 0.6000170112 0.5085698366 -0.6175243258
-0.090705454 -0.1356504 0.66410005 -0.9343605042 -0.05598221719 0.3519040942
0.03160147 -0.1448513 0.65546161 0.9843415022 -0.118464224 0.1305296868
-0.016059658 -0.058658134 0.63725019 0.1934282333 0.5976400971 -0.7780821919
-0.061099529 -0.14132054 0.71014291 -0.549536109 -0.5105342865 0.6613356471
-0.044974025 -0.092955664 0.61401689 -0.2617093623 0.5765641928 -0.7740038633
0.011857116 -0.09694431 0.62768173 0.5831348896 0.3942034245 -0.7103220224
-0.05026193 -0.039862908 0.65900004 -0.434599936 0.6053924561 -0.666800499
-0.072019085 -0.0767712 0.64733338 -0.6395899057 0.5184268355 -0.5675899386
-0.08093714 -0.1542993 0.68481821 -0.8195737004 -0.3116059899 0.480833292
0.044255301 -0.059329879 0.66133338 -0.1569236815 0.6839935184 -0.7124098539
-0.036837183 -0.17219242 0.69800001 -0.1283702999 -0.5651173592 0.8149622679
0.045303926 -0.095332831 0.63644469 -0.1348493248 0.4439470768 -0.8858479857
-0.071156405 -0.11921965 0.71200001 -0.6762265563 -0.4361078739 0.5937402844
-0.034995135 -0.074783005 0.6242528 -0.1238603368 0.6143679619 -0.7792372108
-0.035507921 -0.13774388 0.72564113 -0.1535198539 -0.5942332149 0.7895052433
-0.058428958 -0.081357956 0.6302501 -0.5044821501 0.5598245263 -0.6573387384
0.0040630582 -0.15390693 0.70231372 0.5381007195 -0.5508859754 0.6379437447
0.020752627 -0.14114666 0.69220006 0.7363206744 -0.4843970835 0.4724313319
-0.004701837 -0.04425744 0.65309376 0.3539881706 0.5861021876 -0.728818655
-0.0080596348 -0.14174253 0.72100008 0.3210501075 -0.6018408537 0.731241703
-0.0011050383 -0.080147058 0.63050008 0.4676979482 0.508951962 -0.7226524353
-0.063605987 -0.055787612 0.65560395 -0.599762857 0.5423683524 -0.5883205533
0.021295328 -0.087716855 0.64350009 0.6648869514 0.4764264524 -0.5752766132
0.02456416 -0.06395904 0.66511631 0.5096943974 0.2989758551 -0.8067373037
-0.034543805 -0.046856023 0.64780009 -0.166106984 0.6211153269 -0.7659139633
-0.046070859 -0.15649657 0.70664597 -0.2887993157 -0.5256047845 0.800209105
-0.061523922 -0.097844228 0.61769235 -0.4973141849 0.5306562185 -0.6863545179
-0.0014074006 -0.10056402 0.61740005 0.4841337502 0.418995589 -0.7681518197
-0.065647885 -0.15556595 0.69581699 -0.572968483 -0.3986349404 0.7160986662
-0.08224868 -0.096784428 0.64459091 -0.8435070515 0.3096425533 -0.4388819039
-0.031597625 -0.095006995 0.60491675 -0.008721517399 0.5413513184 -0.8407512307
-0.053665638 -0.13309005 0.72197437 -0.4291025698 -0.5488699675 0.7173651457
-0.089330576 -0.1196913 0.66600001 -0.9615474343 0.207076028 0.1804053187
0.0069424212 -0.16627435 0.68748158 0.6030502319 -0.5453421474 0.5821790099
0.030456714 -0.093092799 0.65549999 0.6569625139 0.5310449004 -0.535155654
-0.076809809 -0.071012408 0.66125 -0.6727805138 0.5036711097 -0.5419241786
-0.0706269 -0.039172098 0.67700005 -0.573477447 0.5502907634 -0.6068803072
-0.037163753 -0.031366453 0.66122228 -0.1913497597 0.6691680551 -0.7180525064
0.033922464 -0.072219566 0.67468965 0.2523772418 0.2558784187 -0.9331837893
-0.083335936 -0.13988532 0.67900002 -0.8932847977 -0.1725258231 0.415062815
-0.03493955 -0.12517773 0.73473769 -0.1466864645 -0.5087376237 0.8483331203
0.019361183 -0.11008216 0.63100004 0.5919241905 0.2392389476 -0.7696690559
0.0027799979 -0.12877961 0.72150004 0.3869562447 -0.5867481232 0.7113308311
0.022259615 -0.076026253 0.65563893 0.764149189 0.3534777462 -0.5395641327
-0.072588667 -0.13396031 0.7035501 -0.7138781548 -0.3964689076 0.5772264004
-0.019269133 -0.06991943 0.62800002 0.1944712996 0.5884841681 -0.7847720981
-0.058537956 -0.070507377 0.64000005 -0.5395283103 0.5629517436 -0.6260946989
0.0063466183 -0.053759228 0.65282357 0.5106428266 0.5131341815 -0.68988204
-0.0025056484 -0.062496696 0.64092308 0.4088087678 0.528947711 -0.7437000275
-0.0044792285 -0.03323717 0.66220516 0.304259479 0.615231812 -0.7272661328
-0.024605813 -0.16505405 0.70447278 0.0501893796 -0.5969985127 0.8006708026
0.051379681 -0.070647061 0.66600001 -0.3793961108 0.6086578965 -0.6968458295
-0.074673295 -0.14478034 0.69430208 -0.7482337952 -0.305224061 0.5890539289
-0.0071436986 -0.15161909 0.71035302 0.3256933391 -0.6047606468 0.7267656922
0.010626953 -0.079981804 0.63800001 0.6145268679 0.4497886002 -0.6481102705
-0.062611349 -0.046083249 0.66548002 -0.5831289291 0.5483161807 -0.5994247198
-0.045570057 -0.14569703 0.71508485 -0.2967571318 -0.6095702648 0.7350913286
0.0079156682 -0.042962268 0.66192001 0.4977844059 0.5517045259 -0.6692031026
0.016217224 -0.053765882 0.66197056 0.6356480122 0.4161195457 -0.6502277255
-0.033771928 -0.058913946 0.63733357 -0.1294600815 0.6270303726 -0.7681620717
-0.046392232 -0.071229763 0.63036847 -0.3190206885 0.6109316945 -0.7245607376
0.025414236 -0.098722972 0.63712502 0.5920892358 0.4256664813 -0.6842794418
-0.071737722 -0.088134192 0.63630003 -0.618300736 0.5219724178 -0.5875789523
0.027344987 -0.054436155 0.67376471 0.3545982838 0.2991623282 -0.8858678937
0.023738002 -0.14879675 0.67471427 0.870893836 -0.3473341763 0.3477109075
0.012822908 -0.15347308 0.69316226 0.6670672894 -0.5076051354 0.5453056693
-0.062542684 -0.12424506 0.72410518 -0.565936029 -0.4938134551 0.6602004766
-0.054800853 -0.16263016 0.70003706 -0.359690249 -0.4736803472 0.8038966656
-0.015700631 -0.046601217 0.64769232 0.1678756475 0.5950091481 -0.7859910131
-0.034925066 -0.086036734 0.61536849 -0.1123836562 0.6060997248 -0.7874090672
-0.045345064 -0.08324641 0.62145901 -0.2936871946 0.5915532112 -0.750874579
0.012033095 -0.14364912 0.7032963 0.6159572601 -0.5157101154 0.595516324
-0.025418989 -0.14285512 0.72173899 0.01608538255 -0.6484658718 0.7610737681
0.055545598 -0.090331733 0.64000005 -0.3870138824 0.6354352236 -0.6681634188
-0.026013903 -0.1321816 0.73147815 -0.01194150094 -0.5704259872 0.8212622404
-0.025028542 -0.080347665 0.62066668 0.08494326472 0.6007919908 -0.7948796749
0.0041681575 -0.14300795 0.71186846 0.5091117024 -0.5600321889 0.6535818577
0.026429748 -0.11883626 0.65066671 0.9357803464 -0.005039511248 -0.3525475264
0.029240923 -0.082297958 0.66266674 0.5171225071 0.3975348771 -0.7579909563
-0.0058981902 -0.16264276 0.70192111 0.3818329573 -0.5856766701 0.7149730325
0.035861086 -0.1020495 0.63736367 0.05692969635 0.1819250584 -0.9816630483
-0.025465123 -0.05323261 0.64123315 -0.009913109243 0.613334775 -0.789760828
-0.073231734 -0.16228828 0.69241178 -0.6687767506 -0.3730175793 0.6431139708
-0.015437176 -0.13569397 0.72564906 0.2033987939 -0.6041814685 0.770450294
-0.035709217 -0.15848668 0.70772225 -0.1132908836 -0.5854793191 0.8027322888
-0.053610761 -0.05706621 0.64715391 -0.4516301751 0.5825484395 -0.6757717729
-0.015277524 -0.17200358 0.70016652 0.2190452367 -0.6355935335 0.7402972579
-0.025752809 -0.041663617 0.65026087 -0.01633360423 0.6300433874 -0.7763881683
-0.03564091 -0.14766744 0.71697044 -0.1649938226 -0.6294513941 0.7593207359
-0.024635293 -0.091425031 0.61157149 0.1280555725 0.5365375876 -0.8341038227
-0.044924498 -0.1174261 0.73420006 -0.3099253774 -0.5291612148 0.7898953557
0.027294578 -0.15071477 0.66250002 0.9523032904 -0.1782618612 0.2476714551
0.043650717 -0.066711582 0.67118746 -0.1820400804 0.361794889 -0.914311707
-0.071974844 -0.058177132 0.66475004 -0.6499063969 0.5134197474 -0.5603765249
-0.041607037 -0.13122283 0.73016667 -0.2332508862 -0.5493057966 0.8024070859
-0.014142474 -0.15816109 0.70750004 0.2304155678 -0.6010938287 0.7652416825
-0.074999966 -0.12462523 0.70382458 -0.7384910583 -0.3964102864 0.5454263091
-0.070988961 -0.11979387 0.72300005 -0.6038383842 -0.4794892669 0.6367647052
-0.014556142 -0.14779261 0.7173928 0.2066029012 -0.6241410971 0.7535005808
-0.0012691211 -0.091592669 0.62066668 0.4423005879 0.4764205515 -0.7598642111
-0.087062456 -0.12574939 0.67295837 -0.9404405355 -0.0151128741 0.3396221995
-0.0079995831 -0.13183314 0.73000002 0.2633734941 -0.5829307437 0.7686521411
0.024954874 -0.084829129 0.65470004 0.7462257743 0.4372325838 -0.5019708872
-0.084033906 -0.12664306 0.68335998 -0.905016005 -0.1370108575 0.4027083516
-0.077413172 -0.062518604 0.67066669 -0.6552434564 0.5095039606 -0.5577290654
-0.052121654 -0.088709578 0.61872727 -0.4161619544 0.5517563224 -0.7227545977
-0.04433899 -0.16440588 0.70248616 -0.248465836 -0.5090202093 0.8241135478
-0.051661968 -0.15000643 0.71000004 -0.3982150555 -0.5388889909 0.7423095107
0.0078380061 -0.10204757 0.62146163 0.5790929198 0.4004077911 -0.7101584077
-0.076771811 -0.1359825 0.69590008 -0.7779896855 -0.2977206111 0.5532580614
-0.045448542 -0.044611879 0.6531539 -0.3600646555 0.5986583233 -0.7155149579
-0.062550411 -0.088712037 0.62742859 -0.5553501844 0.5344395638 -0.6371502876
-0.066887058 -0.063740775 0.65340471 -0.6168202162 0.5331023932 -0.5790808797
-0.02490871 -0.064267807 0.63179719 0.0362989679 0.614420414 -0.7881433368
-0.045760341 -0.033249941 0.66269046 -0.3770987391 0.6719248891 -0.6374272108
0.020767355 -0.067491062 0.65800005 0.7231243253 0.3375780284 -0.602604568
-0.0051952829 -0.054884687 0.64435452 0.360678941 0.5596041083 -0.7461594939
0.0053400155 -0.13531198 0.715909 0.5022369027 -0.5601789355 0.6587546468
0.0030687025 -0.086757429 0.62678957 0.501298964 0.4801323116 -0.7198418379
0.021630144 -0.049105462 0.6668334 0.5546545982 0.4844278693 -0.6765263677
-0.068757623 -0.081105471 0.64025003 -0.6317212582 0.5233443975 -0.5718731284
0.022031071 -0.14527741 0.68480003 0.7970985174 -0.4471967816 0.4057696462
-0.054994687 -0.15464452 0.70361114 -0.4007250369 -0.4735418558 0.7843325734
-0.066843159 -0.12576924 0.71541864 -0.6290659308 -0.4702111483 0.6190133095
0.0051454809 -0.064859062 0.64384204 0.5252124667 0.4920119643 -0.6943169832
-0.062936306 -0.066641539 0.6460833 -0.5827172995 0.5360095501 -0.6108471751
0.0080923783 -0.072597414 0.64094996 0.5883405805 0.4518280625 -0.6706017852
0.0013044799 -0.069131888 0.6376667 0.471924156 0.5012899637 -0.7252557874
-0.024694275 -0.035018019 0.65503705 0.01318161376 0.6260550618 -0.7796674371
0.027063916 -0.07449612 0.66420603 0.5887008905 0.270488888 -0.7617526054
-0.081085749 -0.14159766 0.69025004 -0.8468034863 -0.2553213537 0.4666207433
-0.065120965 -0.14507796 0.704081 -0.5659372211 -0.4173636138 0.7110011578
0.027240731 -0.10636634 0.64048654 0.3202788532 0.3826657236 -0.8665958643
-0.024755921 -0.17250843 0.70118195 0.05783898011 -0.6083403826 0.7915658951
-0.073647887 -0.043709725 0.68300003 -0.5974975824 0.5485745668 -0.5848611593
-0.064151838 -0.13415468 0.71227282 -0.6266036034 -0.4885348678 0.6072080135
0.019374333 -0.081486166 0.65000004 0.7257589102 0.4048409164 -0.5562174916
0.0066617574 -0.15785806 0.69585186 0.600263834 -0.5234838128 0.6046883464
-0.015171748 -0.035739478 0.65595168 0.1480437964 0.6277660131 -0.7641942501
-0.044875577 -0.054651652 0.64453244 -0.3144469857 0.6093367338 -0.7278954983
-0.064628616 -0.16341756 0.69479424 -0.5433350801 -0.424672097 0.724182725
-0.0046884129 -0.08481732 0.62308466 0.4009706676 0.5056573153 -0.7638934255
-0.053633772 -0.036360707 0.66529995 -0.4782834649 0.6222287416 -0.6197388768
-0.0046440181 -0.14526026 0.71473438 0.3543151021 -0.5927584171 0.7232553363
-0.045079291 -0.17208399 0.70055002 -0.1991981268 -0.5238321424 0.8282029033
-0.065735221 -0.07405667 0.64234483 -0.5869396925 0.5444015265 -0.5992735624
-0.055473898 -0.074478164 0.63290918 -0.4695751965 0.5864178538 -0.6600100398
0.0094040036 -0.090167798 0.63100004 0.5761166811 0.4406461418 -0.6884188652
-0.073796146 -0.073022142 0.65422219 -0.6574743986 0.5092661977 -0.5553155541
-0.049795542 -0.13930145 0.71900004 -0.3956282139 -0.5757385492 0.7155441642
0.0054880232 -0.094671309 0.62361538 0.5450785756 0.430818975 -0.7192248106
-0.00056983333 -0.051284999 0.65000004 0.4305500686 0.5502412319 -0.7154447436
-0.0015749317 -0.13794394 0.71850002 0.3841430843 -0.5848433971 0.7144174576
0.016625706 -0.15589181 0.68483341 0.7223712802 -0.5180079937 0.4580910206
0.0012115533 -0.17022324 0.69100004 0.4961997569 -0.5617179871 0.6620110869
-0.053602755 -0.046373751 0.65645468 -0.4813423753 0.5860347748 -0.6518226862
-0.070334964 -0.13008857 0.71000004 -0.6867458224 -0.4471032917 0.5731307268
-0.076967537 -0.081908427 0.65033334 -0.6534230709 0.5123118758 -0.5572924614
0.0093259802 -0.060716182 0.65133333 0.5828692317 0.4499255717 -0.6766316891
0.048301954 -0.088233486 0.63642865 -0.2345792204 0.4926882684 -0.8379921317
0.028371215 -0.0662781 0.67140007 0.4051087201 0.2217867672 -0.8869597316
-0.014727412 -0.16501698 0.70332491 0.2280058861 -0.6116620302 0.7575505972
-0.055554215 -0.12617606 0.72660017 -0.467156589 -0.5265471339 0.7102906704
0.0043529239 -0.075439163 0.63455737 0.5255206823 0.4882687926 -0.6967220306
-0.06643983 -0.043990463 0.67276919 -0.5887767673 0.5483012795 -0.5938919783
-0.065460779 -0.094781309 0.62349999 -0.5608184934 0.5382875204 -0.6290701032
0.014659313 -0.045383304 0.6647222 0.6178830266 0.4491765797 -0.6453378797
0.010432334 -0.15034834 0.70000005 0.6209559441 -0.5204268694 0.5861481428
0.0039509861 -0.04609501 0.65620703 0.4658203125 0.5513288379 -0.6921328902
-0.062690347 -0.077941008 0.63657141 -0.5682807565 0.5571813583 -0.6054799557
0.013492937 -0.1632269 0.68518436 0.6777531505 -0.5209932327 0.5188609958
-0.02476481 -0.12558532 0.73494363 0.0480815284 -0.5383416414 0.8413538933
-0.035079382 -0.064735055 0.63276643 -0.1323762834 0.6171244383 -0.7756506205
-0.034230251 -0.13274379 0.73108816 -0.1419119537 -0.54373914 0.8271691203
-0.014854068 -0.053783856 0.64280289 0.2068661898 0.6024244428 -0.7709028125
-0.034679264 -0.16503319 0.70425338 -0.1146776751 -0.5701293945 0.8135118484
-0.015018013 -0.075523913 0.62552649 0.2367607802 0.5605124235 -0.7935805917
-0.045030724 -0.13576013 0.72535825 -0.2902965248 -0.5799626112 0.7611644268
-0.05630618 -0.13707221 0.71621054 -0.5148879886 -0.5270732045 0.6760800481
-0.083167352 -0.13473122 0.68434215 -0.8973658085 -0.155900538 0.4128312469
-0.05552303 -0.064170584 0.64232796 -0.4730449319 0.577835083 -0.6650827527
0.0032785356 -0.057375323 0.64719361 0.4849021435 0.5208691359 -0.702542007
-0.044346288 -0.124532 0.73238897 -0.2678309679 -0.5345899463 0.8015486002
0.0059737186 -0.14720437 0.70546162 0.5479308367 -0.551885426 0.6286447644
-0.034712028 -0.035688907 0.65585738 -0.166299358 0.6387051344 -0.7512657642
0.013959926 -0.075294904 0.64436656 0.6310306191 0.4373654425 -0.6407119632
-0.05631841 -0.053147599 0.65268415 -0.5029462576 0.5673240423 -0.6520648003
