# .PCD v0.7 - Point Cloud Data file format
VERSION 0.7
FIELDS x y z normal_x normal_y normal_z
SIZE 4 4 4 4 4 4
TYPE F F F F F F
COUNT 1 1 1 1 1 1
WIDTH 206
HEIGHT 1
VIEWPOINT 0 0 0 1 0 0 0
POINTS 206
DATA ascii
0.034652609 -0.20118557 0.7501539 0.1434744447 -0.5713617206 0.8080599308
0.093283206 -0.087445684 0.67576927 -0.7550942898 0.4544254541 -0.4725781679
-0.022316426 -0.089905672 0.72733337 -0.700050056 0.4426017404 -0.5603870153
0.016472757 -0.1361161 0.6461305 -0.2177846283 0.6340203285 -0.7420162559
0.092810512 -0.17951548 0.6965 0.9656522274 0.1375222504 0.2204617411
-0.030542189 -0.18449977 0.71100003 -0.8939567208 -0.127734229 0.4295641184
0.034835603 -0.07367105 0.70116353 0.007038534153 0.6874499321 -0.72619766
0.067424655 -0.14138396 0.66300005 0.5771957636 0.08083024621 -0.8125955462
-0.021561615 -0.13888171 0.68699998 -0.7564311028 0.4358254671 -0.4877173007
-0.0030164637 -0.1685928 0.76516658 -0.4757427275 -0.5038559437 0.7209702134
0.071545355 -0.16884834 0.75333333 0.6368480325 -0.4265712202 0.6422317028
0.091091923 -0.10210485 0.7208572 0.8531666398 0.1767047942 -0.4907973707
0.00090822665 -0.10116339 0.69100004 -0.5508762002 0.5481601954 -0.6293296814
-0.0072186333 -0.21161379 0.73654556 -0.567222178 -0.389870137 0.7254379988
0.045199465 -0.10633729 0.6772545 0.1954303831 0.6059800386 -0.771099925
0.069565251 -0.2061429 0.72800004 0.6537055373 -0.4703779519 0.5928015113
0.034753699 -0.16899191 0.7772857 0.05366491899 -0.5168831348 0.854372263
0.080830634 -0.12276468 0.69325 0.6979160905 0.474740237 -0.5362227559
0.065366194 -0.084816791 0.70250005 0.1149010062 0.2417590022 -0.9635093808
0.086893931 -0.11600574 0.66099977 -0.691493094 0.258397907 -0.6745871902
0.084916167 -0.17542265 0.72472221 0.8876143694 -0.2603399158 0.3799524605
-0.018454095 -0.17578402 0.73610002 -0.8042560816 -0.2600519657 0.5343642831
0.0029815433 -0.12263215 0.67175859 -0.4800715148 0.561645031 -0.673859179
-0.022148181 -0.11491179 0.71295655 -0.7570355535 0.400337249 -0.5163596272
0.0073103122 -0.077198952 0.70676005 -0.4264707267 0.6279797554 -0.6509717107
0.087631598 -0.15082173 0.68000001 0.8939577341 0.123414427 -0.4308229387
0.044705119 -0.13770056 0.64806259 0.2426645756 0.6522322893 -0.7181273699
0.0065998514 -0.1939923 0.75234789 -0.4148549438 -0.5128037333 0.7516167164
0.020273793 -0.22039576 0.74600005 -0.08089470118 -0.5956990123 0.799123764
0.053132568 -0.18232395 0.76158327 0.4258188605 -0.5308139324 0.7327447534
0.025263632 -0.095483266 0.68459141 -0.1318407655 0.6074341536 -0.7833529115
0.025577832 -0.11813191 0.66670597 -0.1075812653 0.6497707367 -0.7524787188
0.049050052 -0.21546438 0.73862499 0.37549299 -0.5624060035 0.7366848588
0.024790583 -0.18491337 0.76426756 -0.07915277034 -0.5951013565 0.7997431755
-0.0055686841 -0.14146751 0.66377789 -0.590734601 0.4790746272 -0.6492457986
0.078104369 -0.10303064 0.70218748 0.7124550939 0.2362467498 -0.6607534885
0.084474042 -0.1952918 0.71629405 0.8766794801 -0.3216167986 0.3577648699
0.058109555 -0.12199912 0.67066669 0.3149675131 0.6321746111 -0.7079200149
-0.020974251 -0.20020875 0.72500002 -0.7725325823 -0.2476454824 0.5846922994
-0.0090412823 -0.091345817 0.71125001 -0.659109354 0.4946554303 -0.5664722919
0.05624336 -0.19688404 0.74715394 0.4264521897 -0.5272688866 0.7349326611
0.048107304 -0.090465203 0.69025004 0.2555116117 0.5776202083 -0.7752862573
-0.010848969 -0.11782882 0.68750006 -0.6876632571 0.4895507991 -0.5361523032
-0.030499233 -0.13320073 0.71000004 -0.7787189484 0.4253090024 -0.4612039626
0.063270628 -0.10685833 0.68617654 0.4929451942 0.5066126585 -0.7073532939
0.014735048 -0.1676641 0.77380008 -0.2138038427 -0.5329860449 0.8186658621
0.079012215 -0.083234236 0.68800002 -0.479378581 0.6147876978 -0.6262844801
0.10013988 -0.10365356 0.66800004 -0.8919265866 0.3077568412 -0.3312894404
0.072356209 -0.18413478 0.74220681 0.7216209173 -0.4050740302 0.5614073873
0.082605027 -0.13275674 0.66678953 0.4092848897 -0.3739811182 -0.8322403431
-0.0074441903 -0.18593864 0.74597239 -0.6498800516 -0.4163756967 0.6358358264
0.015357126 -0.085761234 0.69505197 -0.312687248 0.6164942384 -0.7226074338
0.015848087 -0.10709597 0.67744452 -0.2728783488 0.6195088625 -0.7360340953
0.048539281 -0.16786501 0.76900005 0.3246535659 -0.4985515177 0.8037701249
0.034640692 -0.12754765 0.65745002 0.06392779201 0.6885888577 -0.7223286033
0.069603391 -0.12128201 0.68150008 0.5360006094 0.6744685173 -0.5077357292
0.011010056 -0.13038225 0.66100001 -0.3472799659 0.6543494463 -0.6717316508
0.052174956 -0.12976231 0.65883332 0.3120324314 0.627372086 -0.7134703994
-0.013094936 -0.1058362 0.70466673 -0.7331692576 0.4375366867 -0.5206001401
0.014755725 -0.2063968 0.74654168 -0.2500022054 -0.5010103583 0.8285453916
-0.022061108 -0.1842133 0.72304773 -0.8063666224 -0.2542842627 0.5339591503
0.040695742 -0.19013585 0.76100004 0.2170027345 -0.5911257267 0.7768399119
0.035085801 -0.21410312 0.74322969 0.127428636 -0.575443089 0.8078534603
-0.012913578 -0.17306395 0.75031585 -0.7010476589 -0.4163484871 0.5789526105
-0.019023666 -0.12089233 0.70000005 -0.7675884962 0.4311169386 -0.4742848575
-0.012682133 -0.13587117 0.67522925 -0.6737167835 0.4599065483 -0.5784389973
0.054845501 -0.074955344 0.70460713 0.1577622741 0.6484645009 -0.7447179556
0.044521786 -0.1183207 0.66712487 0.1845518351 0.6350166202 -0.7501296997
0.0065914281 -0.182992 0.76169562 -0.3860282898 -0.5374599099 0.749745965
0.0024636525 -0.11202002 0.68149996 -0.4965514839 0.5762434006 -0.6491379738
0.087763101 -0.11091761 0.71000004 0.7223446369 0.2893074751 -0.6281078458
0.087628208 -0.097449951 0.66611767 -0.6915316582 0.479074508 -0.5406214595
0.077174135 -0.14486668 0.67223084 0.7082229257 0.3067784607 -0.6358516216
-0.008047401 -0.19648699 0.7372728 -0.6754793525 -0.3118143678 0.6682061553
-0.024260098 -0.098226435 0.71695983 -0.7260772586 0.4182198346 -0.5458058119
0.0011046 -0.091190867 0.70000005 -0.5442858338 0.5534415245 -0.6304406524
0.035428863 -0.084325165 0.69304943 0.01568190195 0.6317510009 -0.7750127912
0.079318292 -0.18732111 0.72714293 0.8405151963 -0.3294638395 0.4301020205
0.062860996 -0.18295637 0.75270003 0.5506320596 -0.4979216456 0.6699838042
0.062197685 -0.17261443 0.76179999 0.4974118471 -0.4958911836 0.7118099332
0.0052993991 -0.21399879 0.74144238 -0.3968779445 -0.431124717 0.8103205562
0.05631531 -0.14102761 0.65292323 0.3934309185 0.5561363101 -0.7320686579
0.064345077 -0.095239669 0.69490391 0.2970536649 0.4253651798 -0.8548821807
0.081936337 -0.091109775 0.69749999 -0.3912633955 -0.5556274652 -0.7336151004
0.08711195 -0.19090797 0.70475 0.8766794801 -0.3216167986 0.3577648699
0.035056148 -0.1793257 0.76900005 0.08386930078 -0.5787899494 0.811152339
0.025336487 -0.1956584 0.75609648 -0.06625961512 -0.5865130424 0.8072249293
0.04519308 -0.20586169 0.74601835 0.2892066538 -0.5815804601 0.7603444457
0.084220774 -0.13917142 0.68133336 0.9074940681 0.3217953444 -0.2700041831
0.068403669 -0.19755188 0.73659998 0.6646130681 -0.43851915 0.6049714684
0.045281589 -0.078936823 0.69800001 0.1904427558 0.6188175082 -0.7621000409
0.034876127 -0.11214376 0.67095131 0.04999377206 0.6224610806 -0.781052351
0.034961466 -0.10130759 0.68000001 0.03002249636 0.6086907983 -0.7928392887
0.090541467 -0.17575215 0.71475005 0.8901740313 -0.2733853757 0.3644868731
-0.020833984 -0.1470284 0.67900002 -0.7296305299 0.4570131004 -0.5087025762
0.025229705 -0.17370428 0.77304548 -0.07167274505 -0.5218893886 0.8499967456
0.084442608 -0.098951891 0.71212506 0.8255260587 0.2534173131 -0.504268229
0.014317453 -0.17712346 0.76741683 -0.2693464458 -0.5508935452 0.7899169326
0.024774022 -0.13262531 0.65253842 -0.05762055516 0.6784974933 -0.7323394418
0.025373878 -0.078354262 0.69794118 -0.1742913723 0.6609214544 -0.7299351692
0.075442292 -0.12509172 0.66355538 -0.325791806 0.1782691181 -0.9284825325
0.056500889 -0.20746671 0.73850006 0.4793575108 -0.5270851851 0.7017104626
-0.025084356 -0.10813507 0.72133344 -0.7351546288 0.4098772407 -0.5399522185
0.078890435 -0.17734218 0.737091 0.79479146 -0.3301467896 0.509224534
-0.016329972 -0.18625012 0.73609376 -0.7792963982 -0.2988708019 0.5507934093
-0.024318732 -0.16959116 0.73000002 -0.8042560816 -0.2600519657 0.5343642831
0.085249543 -0.18478765 0.71436661 0.8843281865 -0.2955073714 0.3614402413
-0.0015594584 -0.20459203 0.74135005 -0.5107050538 -0.4150083959 0.7529597282
0.024639132 -0.20754457 0.74815631 -0.01964771375 -0.5649329424 0.8249028921
0.05434591 -0.085375689 0.69620371 0.2702207267 0.5719074607 -0.7745338082
-0.013259144 -0.20479396 0.73278564 -0.6913357973 -0.315913856 0.6498101354
0.015723187 -0.096581683 0.68670177 -0.295846045 0.5967153311 -0.7459262013
0.013478431 -0.18897019 0.75827271 -0.278090477 -0.5575618148 0.7821704149
0.089102499 -0.17923552 0.70583338 0.9549537897 -0.06079063192 0.2904612422
0.053762566 -0.097004034 0.6862942 0.3147580922 0.5628997684 -0.7642455101
0.044774208 -0.19510943 0.75417393 0.2712218165 -0.5812656879 0.7671824694
0.0627129 -0.11618311 0.67775768 0.3983065784 0.6684385538 -0.628125608
0.086411826 -0.10547502 0.66169798 -0.669026494 0.4264611602 -0.6087153554
0.024941403 -0.10592283 0.67657644 -0.1391063333 0.6189801693 -0.7729896307
0.063858561 -0.12802622 0.66684616 0.3068826497 0.5803281069 -0.7543489337
0.04606203 -0.1766174 0.76830572 0.2940295041 -0.5467731953 0.7839551568
0.076776974 -0.19565438 0.72467446 0.8065178394 -0.3724943399 0.4591044784
0.016578058 -0.11871509 0.66744447 -0.2563032806 0.6425747871 -0.7220847011
-0.024123572 -0.12521718 0.70603639 -0.7740094066 0.4307999909 -0.4640267193
-0.028162988 -0.17788626 0.71658331 -0.9000412822 -0.1053227857 0.4228862524
0.084632359 -0.12450499 0.66219652 0.3778414428 -0.3888641596 -0.8402502537
0.0047679786 -0.17489068 0.76479316 -0.4289922118 -0.5180946589 0.7399619222
0.02507936 -0.13656013 0.64423341 -0.01090597361 0.6858205199 -0.7276889682
0.076483272 -0.11509936 0.69310808 0.7254331112 0.2525923848 -0.6402685642
-0.0029871641 -0.18391816 0.75323522 -0.5626215935 -0.4891339242 0.6664870381
0.090812445 -0.083228104 0.68300003 -0.8549517989 -0.2128762752 -0.4730127752
-0.020154566 -0.12886475 0.69666672 -0.7712720633 0.4468125701 -0.4533188641
-0.010413266 -0.12823026 0.67875004 -0.6829351187 0.4695784748 -0.5595495701
0.064456955 -0.19455123 0.74373341 0.5454540849 -0.4959474802 0.6756596565
0.064534843 -0.21140465 0.73273695 0.609698832 -0.4929910004 0.6206667423
0.012466857 -0.21809146 0.73874998 -0.2313344628 -0.4961242974 0.8368662
0.079148099 -0.11265605 0.65900004 -0.4739855826 0.3086348474 -0.8246709704
-0.027002795 -0.19027962 0.71633339 -0.8127115965 -0.258363992 0.5222526789
0.083950333 -0.1122692 0.702389 0.7441764474 0.2727918625 -0.6097425818
0.0741072 -0.13362505 0.66702217 0.4166656137 -0.2060597539 -0.8853977323
0.04482301 -0.095539905 0.68425626 0.170979172 0.590686202 -0.7885784507
-0.0063633039 -0.17604975 0.7548542 -0.5971129537 -0.4661719501 0.6527938247
-0.0029696333 -0.086989015 0.70617241 -0.5858933926 0.5494951606 -0.5956374407
0.055152323 -0.11475519 0.67395759 0.3833248615 0.5942239761 -0.7070783973
-0.003881844 -0.19431241 0.74433333 -0.5372018218 -0.3927031457 0.7464572787
0.072171584 -0.097434893 0.69726664 0.5090687275 0.2157359123 -0.8332508802
0.0066919993 -0.13639419 0.65695852 -0.4088284671 0.5766849518 -0.7073144317
0.036327798 -0.13790816 0.64855564 0.1278424114 0.686490953 -0.7158117294
0.073472209 -0.086635828 0.70351619 -0.1274399608 -0.3753755093 -0.9180698395
0.054938778 -0.17487615 0.76528358 0.4623784721 -0.5115424395 0.7242447734
-0.0017846011 -0.11847108 0.67833334 -0.5457581282 0.5469483733 -0.6348192692
0.074233152 -0.10601868 0.69545013 0.6450763345 0.3029169142 -0.701511085
-0.013338176 -0.11582351 0.69517654 -0.7487418056 0.4550201297 -0.4820190668
0.0042355414 -0.084101997 0.70329171 -0.5045880079 0.5924748182 -0.6279845238
-0.026734825 -0.14363599 0.69133335 -0.7590041161 0.4320114851 -0.4871127903
0.014533096 -0.13346893 0.65421146 -0.3121497929 0.6236671805 -0.7166601419
0.062268633 -0.077755913 0.70675009 0.1395021528 0.4649623632 -0.874270618
0.053256433 -0.10748669 0.67812902 0.3515636027 0.574239254 -0.7393593788
-0.017416332 -0.10363887 0.71125025 -0.735339582 0.4150303602 -0.5357475877
0.076993331 -0.18501092 0.73500001 0.7959706783 -0.3442525864 0.4979165196
-0.025953343 -0.13359165 0.70324248 -0.775529623 0.4422763288 -0.4504947066
0.080478005 -0.2013528 0.72000003 0.8430066705 -0.3467201591 0.4112479091
0.015038725 -0.075221293 0.70513636 -0.3279796541 0.6855569482 -0.649954617
0.065352075 -0.1239719 0.67379636 0.3724342585 0.6484286189 -0.663952589
-0.0059021465 -0.083985999 0.71308106 -0.6062796116 0.5521556735 -0.5723190308
-0.00058561331 -0.12883493 0.66800004 -0.5344420075 0.5277177095 -0.6602164507
0.044188891 -0.12885958 0.65821058 0.1961904913 0.6583952308 -0.7266532779
0.095607892 -0.093794756 0.67141086 -0.8802070022 0.2974013388 -0.3698486984
-0.0021099723 -0.10762797 0.68731254 -0.5704769492 0.5440940261 -0.6152379513
0.061204158 -0.13828507 0.65862501 0.465393126 0.4707771242 -0.7495186329
0.044412274 -0.16881762 0.77576929 0.2282450199 -0.5265125036 0.8189559579
0.0078390278 -0.098809227 0.68785721 -0.4053501785 0.5910992026 -0.6973471045
-0.023018505 -0.13594797 0.69425935 -0.7647168636 0.4390854239 -0.4716059268
0.061712947 -0.20147191 0.74100012 0.5674791336 -0.4809034169 0.6683557034
-0.005197214 -0.094641909 0.70329106 -0.6314948797 0.5096330643 -0.5843700171
0.0010373889 -0.080708854 0.71000004 -0.5520246029 0.5946512222 -0.58451581
0.075164266 -0.17651857 0.74389184 0.7312783003 -0.3934683204 0.5571487546
-0.014281421 -0.19459812 0.73302138 -0.7570149899 -0.2670871317 0.5963160396
0.023187833 -0.090331733 0.69000006 -0.1815858185 0.6175949574 -0.7652470469
0.012495072 -0.081822924 0.70106673 -0.3675777614 0.6192527413 -0.6938390732
0.055574801 -0.18637784 0.75547916 0.4399159551 -0.5207000375 0.7316730022
0.0055130227 -0.11576472 0.67547631 -0.4333312213 0.5791819096 -0.6904870272
-0.0042633153 -0.12541832 0.67506456 -0.5721263885 0.5189411044 -0.6351153851
0.0098625002 -0.2005375 0.75000006 -0.3686246574 -0.4797446728 0.7962166071
0.065756142 -0.17569281 0.75576371 0.5681965947 -0.4798580408 0.6684975028
0.00066538999 -0.1789899 0.75900006 -0.4691483378 -0.5212453008 0.7128837109
0.0049061221 -0.10519894 0.68495589 -0.464079231 0.5742356181 -0.6744508147
0.0047719972 -0.09514229 0.69377065 -0.4777410626 0.5714023709 -0.6672801375
-0.015947809 -0.14271943 0.67496771 -0.6912924647 0.4579695165 -0.5589084029
0.081893004 -0.095411062 0.7059167 0.3001974523 -0.3505641818 -0.8871224523
-0.024634007 -0.17592949 0.72585708 -0.8123607635 -0.2401377559 0.531416893
-0.016498428 -0.11418546 0.7024287 -0.7538961172 0.4396249354 -0.4882320762
0.066504441 -0.18614142 0.74688888 0.6137450933 -0.4825190008 0.6248938441
0.049246751 -0.19895686 0.74900001 0.3564309776 -0.5580226183 0.749378264
0.071641386 -0.11578698 0.68621743 0.6015312076 0.582965076 -0.5461794138
0.024947561 -0.21439259 0.74509668 -0.02363344096 -0.5634326935 0.8258239031
0.066827394 -0.10346239 0.69184643 0.503367126 0.3723722994 -0.7797181606
0.0064394302 -0.12602615 0.6660338 -0.4414527714 0.5964807272 -0.6703209877
-0.010402527 -0.10953248 0.69800001 -0.718403399 0.470844686 -0.5120565295
0.0074466257 -0.16688073 0.77225006 -0.3308258057 -0.5283467174 0.7819232941
0.044569325 -0.18419182 0.76337987 0.2544846833 -0.5923877358 0.7644045353
0.082470633 -0.1455925 0.67746431 0.7794077992 0.2652385533 -0.5676019788
0.068643004 -0.091436327 0.70000011 0.2975149453 0.173524484 -0.9388152361
-0.011117741 -0.088519812 0.71783334 -0.6749073863 0.4704250395 -0.5685070753
-0.0079007708 -0.10207994 0.70085716 -0.6858500242 0.4808532894 -0.546250701
-0.006792618 -0.13310474 0.67163336 -0.6138856411 0.4712017775 -0.6333350539
