# .PCD v0.7 - Point Cloud Data file format
VERSION 0.7
FIELDS x y z normal_x normal_y normal_z
SIZE 4 4 4 4 4 4
TYPE F F F F F F
COUNT 1 1 1 1 1 1
WIDTH 206
HEIGHT 1
VIEWPOINT 0 0 0 1 0 0 0
POINTS 206
DATA ascii
-0.12399488 -0.17524849 0.76545942 -0.8190854192 -0.2772226334 0.5022416711
-0.038590867 -0.055396568 0.71000004 -0.8151302934 0.3002440035 -0.4953949153
-0.12724014 -0.073000044 0.76326311 -0.7090665102 0.431412667 -0.5577703714
-0.023122964 -0.16697662 0.76725006 0.6919857264 -0.4015567303 0.5999233127
-0.095680051 -0.12178925 0.69577789 -0.4041725993 0.4957370758 -0.7686932087
-0.074960127 -0.14940216 0.82557148 0.04863862693 -0.6621025205 0.747833252
-0.018095277 -0.091824695 0.76455563 0.7975690961 0.4123646319 -0.4402714074
-0.028388003 -0.1329978 0.70400006 0.7013506293 0.4766106606 -0.5300468206
-0.0735121 -0.20175363 0.78366673 0.03929258883 -0.5520142317 0.832908392
-0.085191235 -0.076927111 0.72612208 -0.1627008319 0.6083196998 -0.7768368721
-0.13120894 -0.12156064 0.73366666 -0.7366742492 0.4161919951 -0.5330058932
-0.11176336 -0.14650543 0.80113345 -0.6173556447 -0.5020570755 0.6056489348
-0.044840638 -0.094744019 0.69225442 -0.4957359731 0.03180010244 -0.8678908944
-0.041533835 -0.14994419 0.80300003 0.4747960865 -0.5435982943 0.6921485066
-0.032199088 -0.10199742 0.73042858 0.7191383839 0.4569456875 -0.5234888792
-0.1375493 -0.16301899 0.7343334 -0.9847612381 0.07211334258 0.1582561731
-0.057598755 -0.060846802 0.74100012 0.2977242172 0.7621359229 -0.5748992562
-0.084497191 -0.17256598 0.80154175 -0.153513819 -0.6537920833 0.7409381866
-0.1091976 -0.1003608 0.72000003 -0.5833287239 0.5044972301 -0.6365612149
-0.042800713 -0.19264556 0.77621055 0.5368774533 -0.4546494186 0.7106732726
-0.065428965 -0.1212288 0.68299997 0.03479305655 0.5429451466 -0.8390470743
-0.074229248 -0.098923191 0.70757139 -0.0128015168 0.6348490119 -0.7725301385
-0.10512298 -0.065154657 0.74494451 -0.4855858982 0.6367518306 -0.59896034
-0.10250044 -0.19701944 0.78033346 -0.4382887781 -0.4718401134 0.7650293112
-0.054580852 -0.084996603 0.72374982 0.3421564102 0.5596871376 -0.7547710538
-0.12574528 -0.095254354 0.74361759 -0.7692901492 0.3955882192 -0.5016997457
-0.11846981 -0.13050352 0.71000004 -0.6770486236 0.3729521036 -0.6344382763
-0.054962076 -0.17519553 0.79430205 0.3184701204 -0.5626003742 0.7629269958
-0.018143494 -0.12901028 0.7280001 0.7738333344 0.4178097248 -0.4760430455
-0.13111866 -0.14994594 0.76700002 -0.8404477239 -0.3413194418 0.4208903313
-0.10831918 -0.16843836 0.78825003 -0.5920150876 -0.524641633 0.6117755175
-0.040718537 -0.11169557 0.71020001 0.6109227538 0.5302047133 -0.5879254937
-0.03004775 -0.071446285 0.76166672 0.7142852545 0.5063697696 -0.4831006825
-0.016978102 -0.11429668 0.7458967 0.8132311702 0.3879033923 -0.4338041544
-0.10076407 -0.14754738 0.82100004 -0.4385557771 -0.5845892429 0.6825864315
-0.062411651 -0.15957525 0.80900002 0.2645354569 -0.6262871623 0.7333385348
-0.081953868 -0.058631029 0.73900002 -0.1182163358 0.6690790653 -0.7337288857
-0.035931733 -0.075024799 0.69546789 -0.8559880853 0.2936942577 -0.4254739583
-0.028297571 -0.08689677 0.74606681 0.7482956648 0.4511974156 -0.4862864316
-0.10713162 -0.082348801 0.73175001 -0.4987723827 0.547179997 -0.6721756458
-0.045235999 -0.12364507 0.68800002 0.4494323432 0.0764927268 -0.8900333643
-0.034437902 -0.16544537 0.78472507 0.6559963822 -0.4502251148 0.6057772636
-0.13482226 -0.091438957 0.76133341 -0.764160037 0.3923513591 -0.5119764209
-0.06116211 -0.11148278 0.70000005 0.1270443797 0.6073929667 -0.7841769457
-0.12320869 -0.15409958 0.7840938 -0.7401949763 -0.4122096598 0.5312198997
-0.13198128 -0.18057142 0.74900001 -0.8712159395 -0.2486465573 0.4232702255
-0.085666575 -0.18763982 0.7874139 -0.1609252691 -0.5591448545 0.8133019805
-0.094897836 -0.1058057 0.70598185 -0.3307625651 0.5777279735 -0.7462080717
-0.064332061 -0.18722411 0.78596973 0.1806363016 -0.5352410674 0.8251590729
-0.096923009 -0.15813451 0.80785722 -0.4567553103 -0.5733408928 0.6801873446
-0.13169768 -0.16371796 0.75220001 -0.917832911 -0.2097633183 0.3370195031
-0.030963164 -0.18375793 0.76780009 0.6359705925 -0.4229889512 0.6454624534
-0.048514251 -0.072098024 0.7325455 0.08409320563 -0.613817811 -0.784956038
-0.12081869 -0.078794792 0.74900001 -0.7106500268 0.4393302202 -0.5495138764
-0.11516588 -0.114587 0.71445459 -0.6396338344 0.4607090652 -0.6153175831
-0.11317855 -0.18476884 0.7730791 -0.6765551567 -0.3436218202 0.6513041854
-0.064500622 -0.071803078 0.73065001 0.09112489223 0.6103195548 -0.7868965864
-0.12121911 -0.10782102 0.72775 -0.7164350152 0.4240080714 -0.554019928
-0.092428721 -0.088649586 0.71820003 -0.2924207449 0.5978128314 -0.7463979721
-0.056641437 -0.10021176 0.71000004 0.1766634285 0.6825736761 -0.7091426253
-0.080772564 -0.10953248 0.69800001 -0.1439663172 0.6465921402 -0.749127686
-0.057953805 -0.20146239 0.78700006 0.2122661322 -0.5568910837 0.8030039668
-0.026343459 -0.11498186 0.72446662 0.772967577 0.4005164504 -0.4920444489
-0.075395368 -0.087155432 0.71697599 -0.007160299923 0.6189203858 -0.7854210734
-0.087984018 -0.19983967 0.77800006 -0.2188268006 -0.5025553107 0.8363928795
-0.098219976 -0.17914771 0.78900003 -0.4778236151 -0.4804882705 0.73540169
-0.020382499 -0.1005975 0.75000006 0.8076378107 0.412022382 -0.421851486
-0.084774338 -0.15502763 0.81510925 -0.1207118481 -0.6628634334 0.738945663
-0.054051075 -0.14852244 0.81233329 0.3066971898 -0.6146819592 0.7267069221
-0.13644961 -0.15498748 0.7226876 -0.9847471118 0.04301366955 -0.1685909182
-0.12179451 -0.1641462 0.77399999 -0.8044759631 -0.3786410391 0.4576563537
-0.044864789 -0.16561984 0.79526079 0.5035300255 -0.539804399 0.6745878458
-0.018532207 -0.076058134 0.76780009 0.7774758339 0.4273737669 -0.4613924623
-0.066687658 -0.17167875 0.80071437 0.1793432534 -0.6195069551 0.7642297745
-0.043777663 -0.17635401 0.78633332 0.5533722639 -0.4640930295 0.6916623116
-0.10490824 -0.11511135 0.70437294 -0.5156089067 0.4780676961 -0.7110546827
-0.11704275 -0.093397848 0.73323083 -0.6779875755 0.4508811831 -0.5805505514
-0.031981364 -0.12213976 0.71135724 0.7362861633 0.4431860149 -0.5113402605
-0.13011399 -0.13011399 0.71700001 -0.7181873322 0.3881585002 -0.5775291324
-0.078694418 -0.12046233 0.69050002 -0.1281261295 0.6358385086 -0.7611130476
-0.097701691 -0.16884878 0.79720002 -0.4465256035 -0.5952504873 0.6680507064
-0.094123386 -0.066035353 0.73776323 -0.3469231129 0.6371779442 -0.688221395
-0.13131019 -0.11115827 0.74150002 -0.7700042725 0.4167605042 -0.4831191599
-0.12221786 -0.1903778 0.76600003 -0.757034421 -0.2999641001 0.5804484487
-0.074711189 -0.18317761 0.79214644 0.01055093389 -0.59684062 0.8022904396
-0.035609245 -0.15690826 0.79442424 0.6020246744 -0.4908620417 0.6297783256
-0.042239551 -0.12144914 0.70271438 0.628982842 0.4022747278 -0.6652485728
-0.10969642 -0.15790519 0.79700005 -0.6002495289 -0.4919404387 0.630630672
-0.029007146 -0.069740586 0.70400006 -0.914827764 0.2604251504 -0.3086566329
-0.054958522 -0.12235177 0.69499999 0.3205143213 0.2748243511 -0.9064999223
-0.065052703 -0.14901318 0.81720001 0.193248257 -0.630615294 0.7516511679
-0.050788809 -0.10341336 0.69800001 -0.1894649267 0.2580382824 -0.9473749399
-0.12141507 -0.14826162 0.79400009 -0.6941151619 -0.4603897333 0.5533944964
-0.018174702 -0.11846431 0.73520005 0.7969712615 0.387103349 -0.4636677504
-0.076074503 -0.16139171 0.81100005 0.03993877023 -0.6671203971 0.7438785434
-0.025425261 -0.1592004 0.77540004 0.707747221 -0.393420428 0.5867829919
-0.032906558 -0.089686505 0.73600006 0.7011960149 0.4696343839 -0.536439836
-0.1306058 -0.16074559 0.76400006 -0.8627731204 -0.2754757702 0.4239524305
-0.085089289 -0.094813347 0.71264499 -0.1852039993 0.6121402383 -0.7687547207
-0.075424634 -0.071036302 0.73000002 -0.01433017291 0.6442735791 -0.7646608353
-0.032408759 -0.17613591 0.7755 0.6674976349 -0.4180117846 0.6162086129
-0.12725034 -0.084802851 0.75810009 -0.7323037982 0.4149771631 -0.5399306417
-0.041825674 -0.062977716 0.70370007 -0.8255044818 0.3270947337 -0.459947139
-0.031081049 -0.078693986 0.75433332 0.7259518504 0.4932305217 -0.4792886078
-0.064382464 -0.093886174 0.71216345 0.02678612806 0.680816412 -0.7319641709
-0.05451427 -0.18584056 0.78427297 0.3303367198 -0.5115559101 0.7932138443
-0.036993064 -0.084677309 0.6929003 -0.8476750851 0.1921362281 -0.4945003688
-0.064076021 -0.083232857 0.72169757 0.1207946762 0.6085771322 -0.7842464447
-0.11291163 -0.17386506 0.78151631 -0.650500834 -0.4247275293 0.6296468973
-0.056244567 -0.16364898 0.8027072 0.3394884169 -0.5731737614 0.7458012104
-0.10273906 -0.18277112 0.78130782 -0.5079876184 -0.4464477301 0.736636281
-0.045231372 -0.18451226 0.78168517 0.5236667991 -0.4712242782 0.7097328901
-0.12708072 -0.18254329 0.75689465 -0.8313801289 -0.2542058229 0.4941522777
-0.10780685 -0.073616222 0.74158829 -0.5383119583 0.5664570332 -0.623976469
-0.055426512 -0.1946601 0.78097731 0.3395569623 -0.5296403766 0.7772915363
-0.11324831 -0.19405812 0.77296895 -0.6246874928 -0.4097085297 0.6647589207
-0.095359206 -0.073549949 0.73247719 -0.366084218 0.6143901348 -0.6989328265
-0.10218239 -0.14793764 0.81185716 -0.5105714798 -0.546792686 0.6635770798
-0.025487328 -0.13226639 0.71270007 0.7284822464 0.4510549009 -0.5156190991
-0.11288461 -0.12427535 0.70640016 -0.5997953415 0.4633688927 -0.652330339
-0.05312036 -0.15685982 0.8078801 0.3333346546 -0.593488276 0.7325705886
-0.12144979 -0.085646734 0.74317652 -0.73466295 0.4297813177 -0.5249364972
-0.10474634 -0.15523575 0.80466068 -0.5400448442 -0.5480769873 0.6387199759
-0.083018094 -0.14850722 0.82188892 -0.08932294697 -0.70052284 0.7080177665
-0.025009656 -0.094897456 0.74437499 0.7978826761 0.4229360223 -0.4295443594
-0.10545381 -0.10454907 0.71325004 -0.5029198527 0.5239269733 -0.6874388456
-0.12633041 -0.12392917 0.72184223 -0.7115855217 0.4391113818 -0.5484771729
-0.022011587 -0.084112994 0.76349998 0.7774758339 0.4273737669 -0.4613924623
-0.11563983 -0.16552122 0.7845369 -0.6769758463 -0.4799179137 0.5580165982
-0.085173458 -0.10517071 0.70407456 -0.1850418299 0.6040840745 -0.7751399279
-0.065256111 -0.19487248 0.78200006 0.1377708614 -0.5637408495 0.8143804073
-0.027499657 -0.096401237 0.73547834 0.7492583394 0.4412522018 -0.4938708544
-0.12935479 -0.17137869 0.74900001 -0.917832911 -0.2097633183 0.3370195031
-0.11041091 -0.089349866 0.72800004 -0.5738278031 0.5148077607 -0.6369416118
-0.059167985 -0.089380547 0.71800005 0.09446106106 0.6733212471 -0.7332909107
-0.075167738 -0.17211187 0.80133337 0.03464150056 -0.6417366862 0.7661422491
-0.024885558 -0.10435526 0.73418921 0.7895440459 0.3990941644 -0.4662017226
-0.10220142 -0.16283761 0.80193758 -0.5257223845 -0.5367830992 0.6599090099
-0.030672375 -0.16767435 0.77750009 0.6954790354 -0.405992806 0.5928564072
-0.028755933 -0.15779737 0.78300005 0.6659232378 -0.4349121749 0.6061333418
-0.024993442 -0.17497307 0.76553506 0.6674976349 -0.4180117846 0.6162086129
-0.11401904 -0.086203255 0.73620003 -0.6128849387 0.4882492721 -0.6212766171
-0.065045267 -0.06537313 0.73591352 0.04522666335 0.6239488721 -0.7801553011
-0.065123737 -0.10536122 0.70398659 0.01364055369 0.6204646826 -0.7841157317
-0.12294994 -0.11541242 0.72492307 -0.7266128063 0.4326820374 -0.5336853266
-0.094173104 -0.19492623 0.78030986 -0.3124320507 -0.5308477879 0.7877733707
-0.084552221 -0.086435445 0.71731228 -0.1455159783 0.6171312928 -0.7732878327
-0.1060444 -0.17591566 0.78572011 -0.5734642148 -0.4658051133 0.6739171743
-0.12513107 -0.15667391 0.77466685 -0.8004046082 -0.4015035331 0.445137471
-0.12745591 -0.11434814 0.73263991 -0.7330243587 0.4209831953 -0.5342737436
-0.03763064 -0.10826018 0.71693742 0.6524372101 0.5148381591 -0.5561181307
-0.039489448 -0.10084998 0.69300002 0.415597409 -0.1998856664 -0.8873130679
-0.035754781 -0.18521616 0.77421629 0.6292803884 -0.4075581431 0.6617420912
-0.1166111 -0.17573421 0.774535 -0.7336326241 -0.3354971409 0.5909525156
-0.13154666 -0.1048274 0.74652952 -0.782319665 0.3909040987 -0.4849432111
-0.042602297 -0.068150505 0.69755554 -0.8563371897 0.3164673746 -0.4080870152
-0.084858268 -0.065193735 0.7353183 -0.1688724458 0.677057147 -0.7162930369
-0.061676633 -0.12119102 0.69071436 0.08342373371 0.5796358585 -0.8105940819
-0.090294033 -0.16139171 0.81100005 -0.3274464905 -0.6285693049 0.7054640055
-0.11797635 -0.071838096 0.75180006 -0.6780889034 0.4784885049 -0.5578926206
-0.11284987 -0.10699444 0.71739119 -0.6124191284 0.4803442955 -0.6278631687
-0.033655234 -0.1333971 0.69800001 0.6794647574 0.4338125288 -0.5917215347
-0.095144451 -0.11201256 0.70100015 -0.3578389883 0.5509504676 -0.7539262772
-0.04080971 -0.16946405 0.78900003 0.5637909174 -0.492246002 0.663199544
-0.10551096 -0.1652599 0.79497802 -0.5466570258 -0.5269060731 0.650796473
-0.025691373 -0.08451505 0.7539376 0.7774758339 0.4273737669 -0.4613924623
-0.036653508 -0.17397125 0.78185314 0.6508414149 -0.4232498109 0.6302896142
-0.075167067 -0.11463835 0.69458246 -0.04820425063 0.6695387363 -0.7412113547
-0.10226015 -0.17318891 0.79233325 -0.4988409579 -0.5791165233 0.6448113918
-0.090726234 -0.18145245 0.79000002 -0.2646744251 -0.539817512 0.7990897894
-0.055466432 -0.07799425 0.72725922 0.2423458844 0.5293879509 -0.8130294681
-0.048585914 -0.11883356 0.69800001 0.5213288665 0.4185059965 -0.74368608
-0.11433209 -0.075398952 0.74581397 -0.6625413895 0.4927513301 -0.5641232133
-0.12389762 -0.10519179 0.73462069 -0.7222148776 0.4154793322 -0.5529760718
-0.094881482 -0.09548606 0.71528804 -0.3394597173 0.5755783916 -0.7439600825
-0.035169646 -0.12573153 0.70519322 0.7288805246 0.3948150575 -0.5593337417
-0.094716594 -0.16443166 0.80347186 -0.3845330179 -0.5875249505 0.7120033503
-0.10635351 -0.12354894 0.70221215 -0.5432364941 0.4631373286 -0.700284183
-0.094372809 -0.14827913 0.81664717 -0.3093162775 -0.6194248199 0.7215513587
-0.050493371 -0.17914771 0.78900003 0.4334198833 -0.4928777516 0.754465878
-0.072831951 -0.12134492 0.68554544 -0.04731641337 0.6395244002 -0.7673133016
-0.065398097 -0.18267034 0.79211783 0.1691211164 -0.528645277 0.8318246603
-0.095250331 -0.1849905 0.78484613 -0.3289198279 -0.5149562359 0.7916008234
-0.045854867 -0.10814954 0.70150006 0.5013081431 0.3050015271 -0.809730947
-0.1240499 -0.0759698 0.75696295 -0.7090665102 0.431412667 -0.5577703714
-0.034247965 -0.10527805 0.72382045 0.6857836843 0.4883323312 -0.5396593809
-0.018554561 -0.096084498 0.75590003 0.7975690961 0.4123646319 -0.4402714074
-0.11173373 -0.067125857 0.74825001 -0.5898900032 0.5657368302 -0.5761697888
-0.10222109 -0.10873538 0.70774996 -0.4593195915 0.5376675129 -0.7070637345
-0.11294146 -0.096088842 0.72558618 -0.6101643443 0.4912825823 -0.6215632558
-0.034918305 -0.11476265 0.71412498 0.7285146713 0.4465451837 -0.5194841623
-0.023287933 -0.1249445 0.72418749 0.7676699758 0.4293375611 -0.475764662
-0.055742882 -0.10532562 0.70339292 0.08023619652 0.5250562429 -0.8472768664
-0.047320712 -0.16175438 0.80127281 0.4271900058 -0.5629739165 0.7075090408
-0.084920399 -0.11528682 0.69542062 -0.2033335716 0.6143708229 -0.7623673081
-0.11802954 -0.15894406 0.78736365 -0.7177928686 -0.4410373867 0.5387572646
-0.074872717 -0.064960338 0.73440796 -0.0143799698 0.6568011045 -0.7539266944
-0.13108183 -0.077850632 0.75900006 -0.720549345 0.4234629869 -0.5490789413
-0.06520129 -0.16523351 0.80492461 0.214166671 -0.6074948907 0.7649069428
-0.11165443 -0.16233303 0.7910769 -0.6342953444 -0.4875740707 0.5999507904
-0.11932573 -0.17999983 0.76900005 -0.7697287798 -0.3046075702 0.5610096455
-0.085260861 -0.16609043 0.8052128 -0.1957025081 -0.63920331 0.7437201142
-0.03864719 -0.18126464 0.78025001 0.6233114004 -0.4345155656 0.6501377821
-0.10552286 -0.094126277 0.72183323 -0.5064266324 0.5402156115 -0.6720856428
-0.0951318 -0.1754998 0.79500002 -0.3727225661 -0.6141356826 0.6956402063
-0.053737912 -0.1677976 0.79704785 0.3554667532 -0.5778958201 0.734629035
