# .PCD v0.7 - Point Cloud Data file format
VERSION 0.7
FIELDS x y z normal_x normal_y normal_z
SIZE 4 4 4 4 4 4
TYPE F F F F F F
COUNT 1 1 1 1 1 1
WIDTH 206
HEIGHT 1
VIEWPOINT 0 0 0 1 0 0 0
POINTS 206
DATA ascii
-0.0115194 -0.19007009 0.73000002 -0.4493845105 -0.5570295453 0.6984065175
0.096479796 -0.10918971 0.65900004 0.6133754253 -0.5647486448 0.5521137118
-0.018559618 -0.080893829 0.69033337 0.538931787 -0.5631822944 0.6264010072
0.070748352 -0.19336981 0.68445468 0.8207887411 -0.4095059633 0.3982596695
0.014833853 -0.13379455 0.62602836 0.02175926045 -0.6115423441 0.7909124494
-0.044426546 -0.15085708 0.66100001 0.7551363707 -0.4536246657 0.4732797444
0.038207326 -0.090521537 0.67050004 -0.3288622499 -0.6255345345 0.7074999213
0.046946794 -0.17624292 0.73684222 0.5698544383 -0.4713588655 0.6731171608
0.061825164 -0.15030888 0.64700001 -0.3055697083 -0.6249070168 0.7184138298
-0.042004552 -0.19449447 0.69193751 -0.7840385437 -0.2612759471 0.5630438924
0.023224652 -0.22032036 0.71600002 0.1926198006 -0.6137334108 0.7656558752
-0.014955297 -0.11487804 0.65524995 0.4942155182 -0.5943841934 0.6343961358
0.070370033 -0.096070394 0.69800001 -0.2752373517 -0.4198731184 0.8648415804
-0.041533027 -0.11518417 0.69521427 0.8031572104 -0.3918927908 0.4487299621
0.01521073 -0.16797541 0.75435722 0.01123195607 -0.5830366015 0.8123682737
0.061049812 -0.11834073 0.66685712 -0.6602389216 -0.4977596998 0.5624231696
-0.01055156 -0.21661732 0.708 -0.3475763202 -0.5174257755 0.7819598913
-0.0211388 -0.14360949 0.63789999 0.5961476564 -0.453301847 0.6626653671
0.050915044 -0.20204186 0.71000004 0.6147356629 -0.4813515246 0.62482059
0.034290686 -0.11682072 0.64666659 -0.3192593753 -0.6392140388 0.6996276975
-0.033927437 -0.17466678 0.71495456 -0.7651103735 -0.3779165745 0.5213301778
0.0073183039 -0.089289263 0.66787511 0.1527042389 -0.668581605 0.7277911901
0.024579948 -0.19436371 0.73284215 0.1787556857 -0.6361772418 0.7505497336
0.062873811 -0.17621593 0.71296662 0.7623103857 -0.3802419603 0.5237355232
0.085298792 -0.13475758 0.65011102 0.4580776095 -0.6359823346 0.6210405827
0.038839839 -0.14277744 0.62400001 -0.4044760466 -0.5435686707 0.7354809642
-0.014335033 -0.16901235 0.74341673 -0.4102120399 -0.5256429315 0.7452688217
0.086638771 -0.11165138 0.68750012 0.5666087866 -0.5367891192 0.6251494884
-0.02791365 -0.10177301 0.68066669 0.7030208707 -0.4675018489 0.5359138846
0.0072338777 -0.10964607 0.64900011 0.1240288392 -0.6637021899 0.7376423478
-0.036230549 -0.12451617 0.67457503 0.7759815454 -0.4524070919 0.4395230412
0.0050798808 -0.2050276 0.72409743 -0.1436875463 -0.559081018 0.816567421
0.053621788 -0.085908607 0.68646353 -0.5001834035 -0.5963506699 0.6278394461
-0.003453742 -0.12823868 0.63651854 0.3410875201 -0.6119055152 0.7136042118
-0.030962816 -0.21157122 0.70360005 -0.6483376622 -0.4099331498 0.6415708065
0.048364446 -0.13308759 0.64056253 -0.5499626398 -0.5186973214 0.6545946598
0.0055468651 -0.18294153 0.74300003 -0.155913353 -0.6061999202 0.7798799276
0.023342129 -0.099303544 0.65857142 -0.09654311836 -0.6571265459 0.7475721836
-0.024916969 -0.1949279 0.71439689 -0.6381162405 -0.3946210742 0.6611216664
0.024635836 -0.077555835 0.67828596 -0.1199759692 -0.7251254916 0.6780846715
-0.032860715 -0.13581513 0.65445954 0.7289632559 -0.4743295908 0.4935828149
-0.01189242 -0.099234723 0.66716671 0.4495284557 -0.6189191341 0.6440987587
0.075544119 -0.18446819 0.66800004 0.9932860732 -0.002377330093 0.1156593859
0.067672946 -0.11238191 0.68382347 -0.3775210679 -0.4563567638 0.8057396412
0.071895286 -0.17669904 0.69372219 0.8370915055 -0.3605425358 0.4114449024
0.071630239 -0.1339047 0.66700006 0.09127818048 -0.7093379498 0.6989334822
0.034791172 -0.16865565 0.74712497 0.3586537838 -0.5079261065 0.7831848264
-0.03975537 -0.17798115 0.69766665 -0.7989382744 -0.2736983597 0.5355248451
0.04558846 -0.10475744 0.66372138 -0.4581175745 -0.5667164922 0.6848070621
0.0043938532 -0.22032037 0.71600002 -0.1340933442 -0.5924128294 0.7943966389
0.016900964 -0.12092058 0.64022231 -0.008061044849 -0.683160305 0.7302239537
0.044112187 -0.1942313 0.72362697 0.5152563453 -0.5564841628 0.651794672
0.035678759 -0.2061183 0.71594441 0.3841030598 -0.5892292857 0.7108260393
0.063351877 -0.20365164 0.69475621 0.7882131338 -0.4119127691 0.4572175741
0.085889958 -0.09870059 0.67777783 0.256416142 -0.7754923105 0.576942265
0.054439656 -0.12537868 0.65386802 -0.5701250434 -0.5389410853 0.6200805902
-0.03111816 -0.0890816 0.69599998 0.6976794004 -0.4695378542 0.5410892963
-0.023906089 -0.1738082 0.73202574 -0.6442323923 -0.439432323 0.6259902716
-0.012133944 -0.088219106 0.67805892 0.4681563079 -0.5955766439 0.6527772546
-0.01217953 -0.2020137 0.72042876 -0.4204552472 -0.5248627067 0.7400922179
0.0242361 -0.18215533 0.74200004 0.1947282255 -0.607085526 0.7704077363
0.05649139 -0.10423586 0.67417789 -0.6042757034 -0.4877273738 0.6300578117
-0.021327764 -0.12824997 0.64875007 0.5782224536 -0.5369454026 0.6142868996
0.0062687024 -0.078279376 0.67761111 0.1781219393 -0.7187460065 0.6720690131
-0.001315 -0.1702925 0.75000006 -0.2459548414 -0.574549377 0.7806402445
0.064498588 -0.13575555 0.65342003 -0.1717631221 -0.7912873626 0.5868234634
0.034484323 -0.12668903 0.63623232 -0.3154669106 -0.6314467192 0.7083471417
-0.026765874 -0.11215649 0.671 0.7001823187 -0.4847804308 0.5241494775
0.02218931 -0.10980865 0.64900005 -0.1039822176 -0.6601205468 0.7439277768
0.056059752 -0.17575407 0.72525644 0.6755474806 -0.4317274988 0.5977013707
-0.0323155 -0.19461104 0.70252645 -0.7840385437 -0.2612759471 0.5630438924
0.00057947665 -0.10024946 0.66100001 0.2840920687 -0.652233541 0.7027682066
0.024002526 -0.088937216 0.66776937 -0.08760689944 -0.6588255167 0.7471773028
0.093707293 -0.12448942 0.65411121 0.5069093704 -0.6265980601 0.591960907
-0.023567818 -0.18392004 0.72290236 -0.6708722711 -0.449059844 0.5901488662
-0.0042661983 -0.11639827 0.64649129 0.3357516825 -0.6330706477 0.6974900365
0.080466606 -0.18254918 0.68500006 0.8344333768 -0.3757553101 0.4031486809
-0.036820002 -0.10064133 0.70000005 0.7451291084 -0.4464275539 0.495464474
0.035055418 -0.18551902 0.73469859 0.4059712887 -0.5571787357 0.7243888378
0.034699243 -0.10602069 0.65586585 -0.3116018176 -0.6055290103 0.7322833538
0.062066823 -0.19349492 0.70347065 0.7727623582 -0.3969607651 0.4952377975
-0.042636286 -0.13618912 0.67545456 0.7984217405 -0.4356415272 0.4156190455
0.0052454332 -0.19443396 0.73215395 -0.1362903267 -0.62531811 0.7683763504
0.045011327 -0.11500485 0.65412176 -0.4787133634 -0.5890979767 0.6509969831
-0.028354647 -0.122543 0.66323531 0.7201488018 -0.4932832718 0.487911135
0.02507282 -0.20452912 0.72340298 0.192318663 -0.5966919661 0.7790842056
0.074588552 -0.098583907 0.68412507 -0.2740286589 -0.5664935708 0.7771700621
0.053759132 -0.2112339 0.70166671 0.6598222256 -0.4808161855 0.5774516463
-0.00971785 -0.17945629 0.73900002 -0.376404196 -0.5643362403 0.7347410917
0.074005537 -0.14314647 0.65225506 0.2070932686 -0.8541376591 0.4770338237
0.056867525 -0.18632805 0.71482915 0.7331590652 -0.4213639498 0.5337885022
0.015039217 -0.20030956 0.73000002 0.03181319684 -0.6272149682 0.7781962156
-0.021331929 -0.21416704 0.71140003 -0.5217766166 -0.474591136 0.7088810802
-0.036213428 -0.11457692 0.68500006 0.7988496423 -0.3974198103 0.4515492618
0.015232522 -0.18808194 0.73795456 0.04080853984 -0.6462742686 0.7620132565
0.014182275 -0.20989767 0.71900004 0.03109106794 -0.585917294 0.80977422
0.042354643 -0.21364453 0.71050012 0.4493428469 -0.5751709938 0.6835710406
0.074770451 -0.10739101 0.69136381 -0.2162065953 -0.5138862729 0.8301659822
0.067534961 -0.12312805 0.67475003 -0.6220142245 -0.4790638685 0.6193513274
0.01523234 -0.17666692 0.74753654 0.01707310043 -0.5923497677 0.8055000305
0.064181104 -0.097190291 0.68730301 -0.4253158271 -0.5206755996 0.740272522
-0.014061166 -0.13550325 0.63593841 0.4731355608 -0.5693938136 0.6722599268
0.026126178 -0.1313598 0.63105559 -0.20407179 -0.6324550509 0.7472317815
-0.0020209113 -0.13537048 0.6285556 0.2967822254 -0.5781428814 0.7600467801
0.014700306 -0.08309488 0.67262506 0.04329512268 -0.7009055614 0.711938858
0.049277432 -0.16831124 0.73000002 0.5800861716 -0.4774542749 0.6599526405
0.046277575 -0.14140877 0.63422221 -0.5427441597 -0.5041034222 0.671794951
0.024665099 -0.17177771 0.75127274 0.1312550604 -0.5829430223 0.8018413782
0.0035105019 -0.12161261 0.64074999 0.1867943108 -0.6720924973 0.7165190578
0.056006934 -0.14285935 0.64245945 -0.4905533791 -0.521830976 0.6978895664
-0.035214245 -0.18469951 0.70360988 -0.8040857911 -0.2724922001 0.5283882022
0.015035311 -0.10442796 0.65357584 0.01645085961 -0.6682047248 0.7437955737
-0.0058869813 -0.09224768 0.67131245 0.380761683 -0.6269138455 0.6797055006
0.015096401 -0.093503937 0.66330761 0.04750121012 -0.6646564603 0.7456375957
-0.044144247 -0.18598625 0.68734783 -0.8040857911 -0.2724922001 0.5283882022
-0.031883053 -0.14227451 0.64710003 0.6928339601 -0.4640775025 0.5519177318
0.088463336 -0.11624679 0.65525001 0.5257807374 -0.564134717 0.6366369724
-0.036450047 -0.20211548 0.69776469 -0.7526125312 -0.2955543399 0.5884063244
0.044646319 -0.12528826 0.6450547 -0.4677811265 -0.5849661827 0.6625672579
0.075343587 -0.18575932 0.69334787 0.8344333768 -0.3757553101 0.4031486809
-0.041709859 -0.12546369 0.6825 0.8047935963 -0.4120131433 0.4272615612
-0.0057172859 -0.20827262 0.71733326 -0.2882491946 -0.5629194975 0.7746186256
-0.031611014 -0.18393376 0.71238106 -0.7658034563 -0.3390525579 0.5464324355
-0.021974288 -0.20314971 0.71063644 -0.5944106579 -0.4288062453 0.6802949309
-0.037121434 -0.14422719 0.65557909 0.7371708155 -0.4824495912 0.473097831
-0.035620052 -0.13281032 0.66295248 0.7660636902 -0.4640576839 0.4447436035
0.04397583 -0.087147757 0.67705727 -0.4792898297 -0.5953483582 0.6448578238
-0.0063978909 -0.19697051 0.72639483 -0.3248179555 -0.5988310575 0.7320482731
0.076291688 -0.13353214 0.64875013 0.282232374 -0.7683683038 0.5744171739
0.042281631 -0.16977702 0.74200004 0.5076562762 -0.4451290965 0.7376619577
0.05660617 -0.093846239 0.68314642 -0.5639513731 -0.5031908751 0.6547960043
-0.0039294395 -0.10650448 0.65635723 0.337490648 -0.6439625621 0.6865947247
0.067698069 -0.17593594 0.70537943 0.7877444029 -0.3628130555 0.4978206754
0.035564292 -0.19604979 0.72542864 0.3663385808 -0.6154419184 0.6978734136
-0.031411342 -0.096896715 0.68714291 0.7348968983 -0.4533566236 0.5043751597
-0.0069699679 -0.081909195 0.68133342 0.4156716466 -0.6358287334 0.6503375173
0.053244565 -0.18378168 0.72328883 0.6625858545 -0.4498406947 0.5988516808
-0.02429813 -0.13569634 0.64540625 0.6437174678 -0.4704957008 0.6035408378
0.053823609 -0.19416341 0.71217853 0.6372694969 -0.4714351892 0.6096199155
0.043795448 -0.18329979 0.73291677 0.5437620878 -0.5093820691 0.6669727564
-0.01481167 -0.19430412 0.72313845 -0.4926911294 -0.5077584982 0.7067083716
0.066698559 -0.15117066 0.65400004 -0.1568225026 -0.8337619901 0.5293841958
0.052477881 -0.096400559 0.67611772 -0.5534704328 -0.5269620419 0.6449663043
-0.018257849 -0.10253473 0.67177784 0.5227531195 -0.5825770497 0.6223610044
-0.0055024209 -0.18581612 0.73522818 -0.3436548114 -0.5785500407 0.7397170067
0.0062777768 -0.16709936 0.75207412 -0.09213814884 -0.6016209722 0.7934498787
0.060568899 -0.1297905 0.65800005 -0.5426908731 -0.6495074034 0.5325661898
0.0046603754 -0.17577684 0.74761808 -0.1740799993 -0.6038877964 0.7778275609
-0.040603694 -0.17457823 0.70533341 -0.8051062822 -0.2946443856 0.5147704482
0.025282482 -0.12135813 0.64088887 -0.1392612904 -0.6702608466 0.7289421558
-0.022631977 -0.08764527 0.6873889 0.6020702124 -0.534640193 0.5930188298
0.073355377 -0.19160777 0.67666662 0.8207887411 -0.4095059633 0.3982596695
0.064320035 -0.18556233 0.70495665 0.7876567841 -0.386711508 0.4796363115
0.0388714 -0.17945629 0.73900002 0.4802189767 -0.5213005543 0.7054328322
-0.016744258 -0.17613006 0.7356286 -0.5305059552 -0.4931008816 0.6895033717
0.0598851 -0.090130098 0.69000006 -0.4962280691 -0.5303053856 0.6874110103
-0.0052619958 -0.17499603 0.74450743 -0.3456739485 -0.5566735864 0.7553966045
-0.0146939 -0.094930328 0.6741032 0.4829817712 -0.5834472179 0.6529302597
0.064578526 -0.11549091 0.67450976 -0.6519459486 -0.4295762479 0.6248445511
0.054683447 -0.11494661 0.66304433 -0.6110761762 -0.5111795664 0.6043851376
0.035490748 -0.13365294 0.63211542 -0.3566950262 -0.6219070554 0.6971372366
0.0403179 -0.19007009 0.73000002 0.4908289015 -0.5611841679 0.6664527655
0.0058718948 -0.1340147 0.62704462 0.1726773977 -0.573405385 0.8008674979
-0.027319534 -0.17697924 0.72484851 -0.6620545387 -0.4580065608 0.5932232141
0.065430328 -0.19586958 0.69377285 0.8002333641 -0.4012159407 0.4457043409
0.049795542 -0.18972732 0.71900004 0.6185083985 -0.4989327192 0.6070531607
-0.041182589 -0.10703457 0.69766665 0.7835433483 -0.4071315527 0.4693651795
0.045553654 -0.093490973 0.67230612 -0.4716198146 -0.5779779553 0.6659701467
-0.011765243 -0.11902642 0.64785713 0.4406823218 -0.6068128347 0.6614962816
0.034797799 -0.094997145 0.6647256 -0.2722638845 -0.6222950816 0.7339081764
-0.020743249 -0.1092616 0.66650003 0.5860580206 -0.5546553135 0.5906720161
-0.017676365 -0.13238207 0.64238477 0.5193337798 -0.549116075 0.6548007131
-0.030679828 -0.10846501 0.67733335 0.7341589928 -0.4449352622 0.5128773451
0.032524914 -0.078336604 0.67866665 -0.2504324913 -0.6887754798 0.6803469062
0.034677453 -0.21436064 0.71237475 0.3858353794 -0.59499228 0.7050640583
-0.03290461 -0.11569367 0.674375 0.7707955837 -0.430780977 0.469363302
-0.01213219 -0.10861198 0.65899998 0.4474565387 -0.6151227355 0.6491584182
-0.018350786 -0.19832678 0.71736366 -0.5513900518 -0.4680067003 0.6906074882
0.034961127 -0.084628299 0.67446339 -0.2814090848 -0.6587551832 0.6977467537
-0.015421839 -0.084487624 0.68418336 0.4956389368 -0.5845373273 0.6423847079
0.046611205 -0.18713686 0.72648394 0.5964698195 -0.4955612123 0.6313816905
-0.014642403 -0.12586749 0.64555532 0.4895696342 -0.5702155828 0.6596785188
0.058509767 -0.11194164 0.67045456 -0.6619105935 -0.4796456695 0.5760332942
0.092170537 -0.13120413 0.65000004 0.4645499885 -0.6125891209 0.63947469
0.051408123 -0.1286111 0.64755559 -0.5755017996 -0.5327346921 0.6204768419
-0.018634716 -0.091311753 0.68077779 0.5201587677 -0.5697869062 0.6362214684
0.004686879 -0.18770605 0.73706263 -0.1702511609 -0.6069039106 0.7763260603
-0.011746281 -0.078042842 0.68586665 0.4504379034 -0.6080752611 0.6537202597
-0.021986626 -0.098042712 0.67780006 0.5511756539 -0.5606284142 0.6179815531
0.036413278 -0.1226116 0.64234281 -0.3276631534 -0.6246970296 0.7087950706
0.073047623 -0.1836528 0.68650001 0.8344333768 -0.3757553101 0.4031486809
-0.0069399513 -0.11249213 0.65294123 0.3720602691 -0.6305120587 0.6811943054
-0.038577151 -0.18538561 0.69692856 -0.8040857911 -0.2724922001 0.5283882022
0.054446384 -0.1354195 0.64429563 -0.5433985591 -0.5116416812 0.6655379534
0.072399385 -0.12789904 0.67142856 -0.05520701036 -0.8006279469 0.5966129899
-0.030520711 -0.1918436 0.7105 -0.735542655 -0.3192755282 0.597528398
-0.017837636 -0.18767214 0.72677779 -0.5522658229 -0.5041503906 0.6639539003
-0.024897346 -0.11569494 0.66467345 0.6452963352 -0.5332912803 0.5469854474
-0.015639663 -0.20545082 0.7138871 -0.4626668692 -0.4988920391 0.7328342795
0.041974802 -0.200406 0.72000003 0.4695090353 -0.565177381 0.6783330441
0.014599846 -0.12548968 0.63478577 -0.004641567823 -0.6631931067 0.7484339476
0.052371413 -0.1061541 0.66639286 -0.5767155886 -0.5339348912 0.6183143854
0.0050216964 -0.10505124 0.65436602 0.2126188874 -0.6696512103 0.7115901113
-0.0025875443 -0.22046551 0.71357143 -0.2382356226 -0.5558374524 0.7964223027
0.083992623 -0.10513256 0.68523926 0.2697161436 -0.6807950139 0.6810076237
0.068088211 -0.18497814 0.69450003 0.8344333768 -0.3757553101 0.4031486809
