# .PCD v0.7 - Point Cloud Data file format
VERSION 0.7
FIELDS x y z normal_x normal_y normal_z
SIZE 4 4 4 4 4 4
TYPE F F F F F F
COUNT 1 1 1 1 1 1
WIDTH 206
HEIGHT 1
VIEWPOINT 0 0 0 1 0 0 0
POINTS 206
DATA ascii
-0.012509494 -0.097857311 0.72738469 0.4448657334 -0.5627087951 0.6967447996
0.042204048 -0.21034609 0.77650005 0.5242111683 -0.4956326783 0.6924961209
-0.053047158 -0.19567609 0.75571412 -0.7458804846 -0.2101621926 0.632055521
0.056648448 -0.15364636 0.69733334 -0.6691585183 0.06222764403 0.7405096889
0.070810117 -0.099534981 0.76200002 -0.7801400423 -0.3487927914 0.5193506479
-0.012086603 -0.16565756 0.81100005 -0.3299453855 -0.5118653774 0.7931770682
-0.045061532 -0.14502436 0.72815907 0.7302913666 -0.422539413 0.5367820263
0.073299542 -0.097620249 0.7071923 0.8112159967 -0.3850806653 0.4400472045
-0.0042527099 -0.14033943 0.69300002 0.2687979341 -0.5394960642 0.797929585
-0.044398032 -0.10218288 0.76900005 0.7470349073 -0.3921822011 0.5367792249
0.031577859 -0.078539141 0.73887497 -0.2376702577 -0.6307005286 0.738735199
0.071485512 -0.18553686 0.7457059 0.9520800114 -0.01176066697 0.3056228757
-0.014947075 -0.21328548 0.78138477 -0.3386475146 -0.487580508 0.8047254682
0.033429179 -0.16856232 0.80642861 0.3965644836 -0.45961532 0.7946636677
0.025707673 -0.11266986 0.71120012 -0.2331988811 -0.583902061 0.7776095867
-0.037753649 -0.16954821 0.78300005 -0.7150509953 -0.3484420478 0.6060447693
0.059090257 -0.12138035 0.73000002 -0.6811401248 -0.4989884496 0.5357785821
0.01484413 -0.19598949 0.7950213 0.08556351066 -0.5704113245 0.8168903589
0.058832515 -0.17876987 0.77733344 0.7998208404 -0.2921963334 0.5243166685
-0.024234071 -0.12547639 0.71573681 0.5943263173 -0.4733965099 0.6501322985
0.024456663 -0.14118093 0.68400002 -0.1633452922 -0.6451012492 0.7464333177
-0.027685091 -0.083376221 0.75364995 0.627256453 -0.4995647073 0.5974817872
-0.038057044 -0.11405301 0.74308342 0.7579808831 -0.3829007149 0.5280644298
0.065098353 -0.12478857 0.701451 0.5399731994 -0.06785704195 0.8389424086
0.065535657 -0.091320939 0.73507148 -0.3302065432 -0.8871454 -0.3223920763
0.07025782 -0.15254176 0.72200006 -0.9300901294 -0.1447541863 0.3376071155
0.0049206056 -0.072512224 0.74135703 0.1063174605 -0.6878281832 0.7180452347
-0.033296149 -0.19514418 0.77360022 -0.7239482403 -0.2328028083 0.6493856907
0.041483868 -0.098923065 0.72799999 -0.4285311699 -0.5184325576 0.7399923801
-0.01508259 -0.18540554 0.79639161 -0.4406229556 -0.5247187614 0.7283691764
0.015233067 -0.094722979 0.72387934 -0.02699422278 -0.6067016721 0.7944711447
0.061777472 -0.20161071 0.76100004 0.806661725 -0.3417452872 0.4821898639
0.036326718 -0.13216853 0.7022801 -0.3374903798 -0.6070599556 0.7194292545
-0.0037688578 -0.11784788 0.70723087 0.2738396227 -0.594789803 0.7558022141
0.043092433 -0.18419066 0.79286683 0.5329346061 -0.4730726779 0.7015575171
0.0044917478 -0.17943348 0.80900002 -0.1050109491 -0.5242677927 0.845053792
0.014403435 -0.1279591 0.69777274 -0.0007443974027 -0.6368685961 0.7709720135
0.014937987 -0.21398988 0.78391266 0.09674151242 -0.6198385358 0.7787433863
-0.024257971 -0.14209622 0.70441377 0.5909401178 -0.452177912 0.6680755019
-0.044661161 -0.17620733 0.76537836 -0.777846694 -0.2069012225 0.5934192538
-0.0038097743 -0.2005614 0.79025 -0.2161888182 -0.5404673219 0.8131158948
0.056366768 -0.13829073 0.71130776 -0.7989699841 -0.141772598 0.5844206214
-0.026350847 -0.16953157 0.79800004 -0.599951148 -0.4222308695 0.6795437932
0.043163087 -0.11657064 0.7166667 -0.4707705975 -0.5779940486 0.6665567756
0.062626891 -0.10563429 0.74635494 -0.8265211582 -0.223252967 0.5167406201
0.043995276 -0.14568079 0.68745464 -0.399110496 -0.3845490813 0.8323658109
-0.0401075 -0.098624997 0.75000006 0.7423823476 -0.3895135522 0.5451124907
0.048071139 -0.090295792 0.74100006 -0.4003620446 -0.4350506067 0.806499362
-0.046470895 -0.13453732 0.74137509 0.7703998685 -0.3946537077 0.5007320046
0.053635206 -0.19459116 0.7739746 0.7207314372 -0.3677882254 0.5876036286
0.024228461 -0.18416278 0.80227488 0.2435420901 -0.5547776818 0.7955557704
0.014175544 -0.16762707 0.81570601 0.03160739318 -0.4716413319 0.8812237978
0.0051625459 -0.10519617 0.71602982 0.1306610703 -0.6005366445 0.788849473
-0.0051561277 -0.084988594 0.73451573 0.3054846525 -0.6087468266 0.7321929336
-0.035330541 -0.21129858 0.77500004 -0.6455768943 -0.2383445799 0.7255496383
-0.042338375 -0.08753071 0.76218188 0.7131656408 -0.4068814218 0.5708259344
-0.025728868 -0.10438877 0.73431253 0.6373813748 -0.4683125615 0.6119055152
0.063106358 -0.18460642 0.76297045 0.8352953196 -0.2858682573 0.4696393609
-0.0165463 -0.11195163 0.72147381 0.4883904159 -0.5361103415 0.6885204911
0.036043327 -0.19682296 0.78655565 0.4178704619 -0.5079715848 0.753225863
-0.031272452 -0.1193459 0.72800004 0.6993449926 -0.4471642077 0.5576385856
-0.026307875 -0.18606672 0.78611374 -0.6340395212 -0.4248343706 0.6461498737
-0.044948451 -0.12162522 0.75400001 0.78842026 -0.3699089587 0.4914884567
-0.03632734 -0.13450766 0.72364503 0.7014363408 -0.4476577044 0.5546076298
-0.016422819 -0.082939148 0.74289286 0.5065256357 -0.585052669 0.6333602667
0.00069958001 -0.18958618 0.79800004 -0.1365775615 -0.5817418098 0.8018248081
0.02726258 -0.090491287 0.73000002 -0.2411169857 -0.6089195609 0.7556980848
0.051278986 -0.17288217 0.792 0.6299130917 -0.4194167256 0.653681159
0.054322045 -0.10528044 0.7355001 -0.649433732 -0.3141675591 0.6924843788
-0.034435339 -0.143637 0.71336585 0.6644582152 -0.4428307414 0.6019935012
-0.026174959 -0.094015539 0.74312198 0.6208973527 -0.478230387 0.621113658
0.068756677 -0.086252451 0.713 0.704136312 -0.4792541564 0.5239346027
0.015626321 -0.083666772 0.73170012 -0.05209979042 -0.6536459923 0.755005002
0.02664488 -0.1007674 0.72020006 -0.2250797898 -0.585519433 0.7787849903
0.025510946 -0.20604669 0.78578454 0.2724056244 -0.5663538575 0.7778422236
0.073716484 -0.11487104 0.70072246 0.8357996345 -0.3627881408 0.4120967388
0.048043918 -0.14243895 0.70210534 -0.4906666577 -0.3537828922 0.7962938547
-0.013352425 -0.12654048 0.70548791 0.4471205771 -0.5346882939 0.7170715928
-0.042571902 -0.19329406 0.76239997 -0.7458804846 -0.2101621926 0.632055521
0.052754976 -0.12447867 0.71486372 -0.02081613429 -0.8725860715 0.4880166352
0.014864083 -0.11643318 0.70647937 -0.05994764343 -0.6075361967 0.7920265794
-0.050035749 -0.11274722 0.76100004 0.7718194723 -0.3714005053 0.5160972476
0.024960719 -0.12425219 0.70296675 -0.2160687149 -0.5949100852 0.7742068768
-0.02325999 -0.20424014 0.78038478 -0.5171354413 -0.3423810303 0.7844400406
0.062490333 -0.15058744 0.71275002 -0.7657570839 -0.1670491397 0.6210560799
0.025199737 -0.13463885 0.69412345 -0.2157345265 -0.6620069146 0.7177781463
0.015399704 -0.14106636 0.69180006 -0.02524279431 -0.6430453658 0.765411973
-0.015260794 -0.19811554 0.78833324 -0.4255418479 -0.4570471346 0.7810390592
0.0056128586 -0.088917591 0.7276001 0.1019874811 -0.6201068163 0.7778599262
-0.014575244 -0.17442182 0.80345267 -0.435239464 -0.4913721085 0.7544004917
-0.0061116004 -0.07437297 0.74351859 0.3387442827 -0.6436195374 0.6862989664
0.016013991 -0.17817158 0.807091 0.1259002835 -0.5300030708 0.8385975957
0.0044646342 -0.12300769 0.70173919 0.1448872536 -0.5708611012 0.8081616759
0.042300962 -0.17386626 0.80233347 0.4822328091 -0.4857437909 0.7290435433
0.067395829 -0.10536227 0.70207494 0.7671432495 -0.3820316195 0.5153086782
0.0049788123 -0.13457207 0.69396633 0.1754470319 -0.595739007 0.7837814689
0.051619716 -0.20490032 0.77273339 0.6390568018 -0.4151421487 0.6475055218
0.068527274 -0.17881159 0.75600004 0.8352953196 -0.2858682573 0.4696393609
0.0040128361 -0.20706855 0.78770274 -0.07243656367 -0.5949369669 0.8005017042
0.023330083 -0.17230132 0.81163144 0.2138340026 -0.5064695477 0.8353224993
-0.04296694 -0.12484557 0.74261117 0.7710692286 -0.3844901025 0.5075624585
-0.039014734 -0.17709675 0.77400005 -0.7702685595 -0.2410934269 0.590389967
0.032794192 -0.21233912 0.78029406 0.3455411792 -0.5684825182 0.7466116548
-0.0034984257 -0.1733467 0.81132013 -0.2709011436 -0.5092570782 0.8168658614
-0.0047206958 -0.21328579 0.78258854 -0.1794342697 -0.5865178108 0.7898102403
0.044261932 -0.12885383 0.70777786 -0.1434566379 -0.4997173548 0.8542264104
0.033856209 -0.10724781 0.71782845 -0.338075906 -0.5643090606 0.753166616
0.015075934 -0.10492914 0.71528971 -0.03772671521 -0.6101864576 0.791359067
0.066408202 -0.085658573 0.72700012 -0.6252168417 -0.6861531734 -0.3718840182
-0.0067395414 -0.10298871 0.72134477 0.3337714076 -0.5799852014 0.7431108952
0.051902819 -0.1165444 0.72543478 -0.5902899504 -0.5401322842 0.5998457074
0.03726469 -0.12123781 0.71041673 -0.3410496712 -0.6010810733 0.7227632403
0.05581839 -0.12631245 0.70409322 0.309012711 -0.193549335 0.9311550856
0.069221601 -0.11009531 0.75200003 -0.8265211582 -0.223252967 0.5167406201
0.024464821 -0.19467168 0.79421437 0.2568436563 -0.5475985408 0.796346128
-0.047822807 -0.18737715 0.75672728 -0.7620867491 -0.1975633651 0.6165975332
-0.041797712 -0.20022453 0.76900005 -0.7421507239 -0.1904488653 0.6426053047
0.05843772 -0.11901714 0.69800001 0.37649858 -0.210653007 0.9021497369
0.0049310108 -0.16684236 0.81427282 -0.09959443659 -0.4728944004 0.8754723668
0.064541273 -0.17587312 0.7660557 0.8429988623 -0.2711286545 0.4645881653
0.044249658 -0.19427134 0.78287041 0.5731046796 -0.4652034044 0.6746383309
0.03501473 -0.14324676 0.68723536 -0.3209061325 -0.5873556733 0.7429889441
0.033002 -0.18168454 0.80100006 0.398293823 -0.533782959 0.7459475994
-0.042331167 -0.1073886 0.75150007 0.7642925382 -0.3759166896 0.5239689946
-0.036980629 -0.12433403 0.73309994 0.7600835562 -0.4101500213 0.5040336251
-0.0073640002 -0.130711 0.70000005 0.3303790987 -0.5087554455 0.7949953079
-0.015685471 -0.13449742 0.70168424 0.4720196426 -0.4969639778 0.7281649709
-0.035222944 -0.10447002 0.74501997 0.7435715795 -0.3917658925 0.5418678522
0.052761305 -0.18333595 0.7823227 0.7132980227 -0.3873955905 0.584063828
-0.035939075 -0.18548678 0.77564293 -0.7792550921 -0.2200540453 0.5868028998
-0.023642855 -0.19444424 0.78387499 -0.5091878176 -0.3730851114 0.7755870223
0.015121408 -0.077143155 0.73793763 -0.04997368157 -0.6677139997 0.7427386045
0.06592533 -0.099547252 0.75200003 -0.7640447617 -0.363542676 0.5329843163
-0.026755702 -0.1329795 0.71175003 0.6194123626 -0.4651046693 0.6324602962
-0.029742669 -0.17845601 0.78900003 -0.669249773 -0.4023040831 0.6247048974
0.057722263 -0.087421589 0.73622221 -0.4136942625 -0.9023928046 -0.1205996051
0.055782091 -0.094509117 0.74151051 -0.6862772107 -0.384347409 0.6174954772
-0.039442208 -0.14279068 0.72177786 0.7055740356 -0.4215368629 0.569624424
0.041764546 -0.13894217 0.69716668 -0.4130042195 -0.4988163114 0.7619775534
-0.042586498 -0.13417813 0.73360723 0.7618088722 -0.4061604738 0.5046591759
-0.0393309 -0.1870407 0.76785713 -0.7620867491 -0.1975633651 0.6165975332
-0.0045117652 -0.1843278 0.8024168 -0.2840903997 -0.5284932852 0.7999922037
0.055222627 -0.17546183 0.7847802 0.7135150433 -0.3937138319 0.5795565248
0.05807513 -0.19557533 0.76589292 0.8181869984 -0.3237758279 0.475120306
0.064820156 -0.19467475 0.75711125 0.8181869984 -0.3237758279 0.475120306
-0.023680793 -0.085963547 0.74604452 0.5761766434 -0.5296766162 0.6224654317
0.035440497 -0.092511967 0.73088461 -0.3240988851 -0.5661064386 0.7579468489
0.0046750875 -0.19678161 0.79600012 -0.08958339691 -0.5617536306 0.8224400878
-0.046658244 -0.20096111 0.75433338 -0.7421507239 -0.1904488653 0.6426053047
-0.0216846 -0.11795638 0.71842861 0.5651150346 -0.5050007105 0.65239501
-0.015215122 -0.20462996 0.78259093 -0.3787857592 -0.4257887006 0.8217209578
0.0048089027 -0.11162714 0.71072012 0.1562703103 -0.5975228548 0.7864769697
-0.0025528534 -0.089988083 0.72800004 0.2461441606 -0.5985848904 0.7623052001
0.041560832 -0.20324376 0.78060001 0.520227015 -0.494666189 0.6961818933
-0.022086738 -0.10760706 0.72571439 0.5808841586 -0.5038559437 0.6392986178
0.045206077 -0.094791144 0.73475862 -0.377350837 -0.484056741 0.7894905806
0.014281974 -0.20264626 0.7903229 0.07217932492 -0.5964140892 0.7994250655
-0.030771 -0.19078019 0.78000003 -0.6782950163 -0.295563519 0.6727243662
0.038976602 -0.081201248 0.74100006 -0.2739835083 -0.5389695168 0.7965204716
-0.032571062 -0.096392632 0.74756515 0.7024562955 -0.4400330782 0.5593979359
0.062788144 -0.11664192 0.73546153 -0.6990475059 -0.3098961711 0.6444353461
0.064952455 -0.11264496 0.74313056 -0.8006427884 -0.2435857207 0.5473912358
0.054127295 -0.14585264 0.70609391 -0.6875282526 -0.1452184916 0.7114889026
-0.033226602 -0.11551446 0.73478585 0.7350301147 -0.4147966802 0.5363528728
0.065606073 -0.14617646 0.72347832 -0.8512563705 -0.3226304948 0.4138504267
0.034865033 -0.085076012 0.73544842 -0.2636853755 -0.5766587853 0.7732623219
0.047626499 -0.10325615 0.73043746 -0.4790010154 -0.3953299522 0.7837552428
-0.033791725 -0.087107472 0.75700003 0.687043488 -0.4594883919 0.5628868937
-0.020355323 -0.079451419 0.74900001 0.5248875618 -0.5872448087 0.6161465645
-0.032494344 -0.13617347 0.7160688 0.6692016125 -0.4492197633 0.5919212699
0.014623205 -0.18486372 0.803231 0.09199778736 -0.5577457547 0.8248976469
-0.022756951 -0.21303833 0.78075004 -0.4265955687 -0.3677394986 0.8263073564
0.07505817 -0.10478119 0.70357364 0.8610345125 -0.3692209721 0.3497076631
-0.02233571 -0.18310381 0.79216671 -0.5344982743 -0.4740462601 0.6997082829
0.025245801 -0.21365424 0.78143924 0.2156556845 -0.6081579924 0.7639610767
0.034038339 -0.19225024 0.79246676 0.3918688893 -0.528742969 0.752907455
0.034570824 -0.13660596 0.69568002 -0.3149511814 -0.6283223629 0.7113485336
0.0053048562 -0.213332 0.78344482 -0.06859911233 -0.6078342199 0.7910952568
0.005070284 -0.09507636 0.72306234 0.09984567761 -0.6168049574 0.780757606
0.028666709 -0.19836132 0.78900003 0.3254793882 -0.542144537 0.7746886611
-0.019198999 -0.10047477 0.73000002 0.5296379328 -0.5263168812 0.6651873589
-0.02923245 -0.10068955 0.74100006 0.6587038636 -0.4618967772 0.5939365029
-0.032975961 -0.12620713 0.72516668 0.7119647861 -0.4427515268 0.5450479388
-0.043540444 -0.09481585 0.7640276 0.7353147268 -0.4016219676 0.5459048152
0.024168413 -0.077511884 0.73759383 -0.1664663255 -0.6655147076 0.7275844216
-0.015192719 -0.1049533 0.72410142 0.4844405651 -0.541246295 0.6872916222
-0.014571968 -0.11612931 0.7154904 0.4450724125 -0.5506029725 0.70622015
0.056095246 -0.18593927 0.77606076 0.7670280337 -0.3403689861 0.5438905954
0.066919252 -0.094828814 0.71008331 0.7174947858 -0.477984935 0.5066869259
0.041953065 -0.087394789 0.73773342 -0.2389874905 -0.53431952 0.8107944727
-0.025307477 -0.11507356 0.72430772 0.6151089072 -0.4852898717 0.6213974357
-0.015812101 -0.094280414 0.73305994 0.4648605287 -0.5513985157 0.6927224398
-0.02852783 -0.11090206 0.73124999 0.6850636005 -0.4424724877 0.5787106156
-0.0047222455 -0.19502792 0.79518539 -0.2477345318 -0.562341094 0.7889233828
0.047234628 -0.1861853 0.78699994 0.6190401316 -0.4521225691 0.6421638727
0.034127545 -0.12548926 0.70518029 -0.2863785028 -0.5947065353 0.751206696
0.020338666 -0.19006133 0.80000001 0.1953925192 -0.5680763721 0.7994441986
-0.022330495 -0.096482545 0.73731822 0.5745475888 -0.5051349998 0.6439982653
0.072149791 -0.12270979 0.70085722 0.8623045087 -0.3700378537 0.3456919491
-0.016778793 -0.14173952 0.70084625 0.5070175529 -0.4723691642 0.7209720016
0.055483393 -0.20243295 0.76582605 0.7593175173 -0.3822781146 0.5265931487
-0.017955886 -0.17885929 0.79800004 -0.4642962515 -0.5022804737 0.7294815183
-0.01154307 -0.14033943 0.69300002 0.3757938147 -0.4893549681 0.786962986
0.049109988 -0.17914771 0.78900003 0.6327652931 -0.435533464 0.6402488947
-0.032634463 -0.18363483 0.78184617 -0.7100989819 -0.3228608072 0.6257158518
0.025249988 -0.17653929 0.80607325 0.2314682901 -0.5474481583 0.8041908741
