# .PCD v0.7 - Point Cloud Data file format
VERSION 0.7
FIELDS x y z normal_x normal_y normal_z
SIZE 4 4 4 4 4 4
TYPE F F F F F F
COUNT 1 1 1 1 1 1
WIDTH 206
HEIGHT 1
VIEWPOINT 0 0 0 1 0 0 0
POINTS 206
DATA ascii
-0.045068298 -0.15578496 0.5862335 -0.0004126582062 -0.7715756297 0.6361374855
-0.0071547683 -0.058820095 0.51516676 0.8716283441 -0.2068789154 0.4443704784
-0.067573324 -0.13465264 0.4916968 0.4702656269 -0.5748805404 0.6695988774
-0.080560185 -0.078611791 0.55524999 0.3826909363 -0.6835798025 0.6215032339
0.0042283698 -0.16436082 0.52900016 0.7618685961 -0.4175849557 0.4951555729
-0.071787082 -0.18199335 0.53470367 -0.6037846804 -0.6007235646 0.5239993334
-0.016875833 -0.11155582 0.5 0.494559288 -0.7269529104 0.4763932526
-0.028930001 -0.1952775 0.55000001 0.1583765745 -0.7015262246 0.6948221326
-0.033921313 -0.067942932 0.5524193 -0.1454661191 -0.4622689188 0.8747268319
-0.055097084 -0.094056062 0.52304596 0.203708455 -0.7284819484 0.6540771723
-0.013931435 -0.15726683 0.56560004 0.606362164 -0.5388168693 0.5848088264
-0.070727892 -0.1619961 0.56340009 -0.5484235883 -0.70574826 0.4484986365
-0.024757396 -0.092906266 0.53325009 -0.2946538627 -0.7467282414 0.5963019729
0.00068486453 -0.085375495 0.49721429 0.7386285663 -0.3228968978 0.5917477608
-0.081310831 -0.1101181 0.53000003 0.5647370219 -0.5895710588 0.5774756074
-0.044993568 -0.17426558 0.56326854 -0.06100770086 -0.7535030842 0.6546076536
-0.045631614 -0.11152247 0.50273347 0.07467535883 -0.744331181 0.6636224389
-0.0079346085 -0.18253483 0.54211545 0.722818017 -0.4182454646 0.5500952601
-0.053583618 -0.19385937 0.54541546 -0.3478674293 -0.7034544945 0.6197903156
-0.067891777 -0.1119917 0.51116669 0.4492660165 -0.6646836996 0.5969552994
-0.05583914 -0.071044192 0.55066675 0.1483568251 -0.7859851718 0.600181222
-0.070985563 -0.089113504 0.53712499 0.4562851191 -0.6366811395 0.6216437817
-0.018531544 -0.082185432 0.55007154 -0.2209506482 -0.5693528652 0.7918447256
-0.024717959 -0.17678703 0.55639255 0.3370287716 -0.5992310047 0.7261775136
-0.02674713 -0.10420159 0.51550013 0.08744092286 -0.8117476702 0.5774251819
-0.047722895 -0.12409529 0.48813176 0.1612088829 -0.635702014 0.7549136877
-0.044375259 -0.079782367 0.53850007 -0.03754936904 -0.7379194498 0.6738433838
-0.0027222692 -0.15782844 0.54443747 0.7763241529 -0.373886317 0.5074740052
-0.027656976 -0.15361857 0.58254546 0.2835430801 -0.7265996933 0.6258243918
-0.06357152 -0.17398074 0.55220234 -0.5632975101 -0.6397778392 0.5228577256
-0.022730121 -0.056974992 0.54410803 0.6227090955 0.1855194271 0.7601420283
-0.061918229 -0.15735464 0.58168417 -0.2169962227 -0.7888304591 0.5750296712
-0.010804867 -0.073237956 0.50194442 0.7709932327 -0.3033671677 0.5599444509
-0.032573175 -0.12030822 0.49542862 0.129140228 -0.7501636147 0.6485193372
-0.077346548 -0.15997764 0.54800004 -0.6481286883 -0.625584662 0.4342500269
-0.012087406 -0.096116759 0.49597153 0.6430388093 -0.3948145807 0.6562183499
-0.034952465 -0.16506523 0.57447171 0.159733966 -0.7499344349 0.6419372559
-0.074290678 -0.12482356 0.50465274 0.5763909221 -0.5456265807 0.6083297729
-0.0604637 -0.17139709 0.57000005 -0.3977667987 -0.7570849657 0.5182701349
-0.082511924 -0.092807442 0.54582864 0.4865325093 -0.6077408791 0.6276441216
-0.062172633 -0.11834618 0.49892861 0.4203358293 -0.6370162964 0.6461641192
-0.037747122 -0.089036413 0.52866673 -0.1981241405 -0.7685204148 0.6083775163
-0.045094777 -0.18421936 0.55305558 -0.1587859988 -0.7058722973 0.6903125048
-0.066743806 -0.10193836 0.52102959 0.4703117609 -0.6486526728 0.5983782411
-0.045020834 -0.10274427 0.51329207 0.0220235642 -0.7769066095 0.6292304993
-0.024247194 -0.1667735 0.56609905 0.4283474982 -0.6473441124 0.6304474473
-0.065616131 -0.077714868 0.54556805 0.3194216788 -0.7379777431 0.5944398046
-0.013181078 -0.1653772 0.55606413 0.6794276237 -0.4553395212 0.5753642917
-0.055093106 -0.084786609 0.53455448 0.1754446328 -0.7517971396 0.6356258392
-0.076024629 -0.14213564 0.4961628 0.5021689534 -0.5628829598 0.6564975977
0.00073722791 -0.075289741 0.50461113 0.7829572558 -0.2896755338 0.5505143404
-0.033916377 -0.08132901 0.54417139 -0.2308488339 -0.6054561138 0.7616637945
-0.0020293144 -0.17352954 0.53688455 0.7530507445 -0.4088230431 0.5155368447
-0.03506542 -0.10807904 0.50701672 -0.0005932727945 -0.8070825338 0.5904383659
-0.063222483 -0.18398233 0.5427174 -0.5438104272 -0.5973280072 0.5894653797
-0.019262645 -0.19061872 0.54659998 0.4315223992 -0.5776698589 0.692882359
-0.011388281 -0.083651558 0.49812812 0.6874138713 -0.3177418411 0.6530714631
-0.019551421 -0.065093815 0.55066675 0.5893856287 -0.1027120426 0.8012956977
-0.070403643 -0.15845019 0.57500005 -0.4878609776 -0.7299596071 0.4786968529
-0.058651634 -0.13091369 0.48677778 0.3619621396 -0.60292238 0.7109627128
-0.019724781 -0.10183338 0.52325004 -0.0357475467 -0.8739409447 0.4847157598
0.00082099834 -0.066575527 0.51083344 0.8756212592 -0.1904380023 0.4438702166
-0.078289621 -0.10102597 0.53474998 0.5325317383 -0.606122911 0.5907833576
-0.072204337 -0.17410964 0.54186559 -0.6730100513 -0.5701420307 0.4711640179
-0.055492826 -0.1032655 0.51418465 0.2291347533 -0.727705121 0.6464847326
-0.035349149 -0.09908136 0.51844448 -0.08324809372 -0.8111370802 0.5789010525
-0.01151156 -0.053582795 0.52294451 0.9164099097 -0.08035520464 0.3920916915
-0.04509557 -0.16629826 0.5743522 -0.06474475563 -0.7721546292 0.6321276426
-0.034914572 -0.18426256 0.55345893 0.05962220952 -0.6538501978 0.7542712688
-0.044984512 -0.09350688 0.52288973 -0.05812364817 -0.7598139048 0.6475372314
-0.052625693 -0.16126354 0.58143753 -0.1857617646 -0.7816675901 0.5953892469
-0.025320053 -0.10800515 0.50453198 0.3209055364 -0.7646259069 0.5588979125
-0.043881748 -0.11685715 0.49445459 0.09833830595 -0.708511889 0.6988136172
-0.03508867 -0.17381816 0.56389821 0.1205598637 -0.7198783755 0.683549881
-0.015938899 -0.17426273 0.55261958 0.6029727459 -0.4857568741 0.6328223944
-0.055060979 -0.10822973 0.50571787 0.2191154957 -0.7321565747 0.6449303627
-0.0075964634 -0.15766816 0.55283338 0.7683088183 -0.3807408214 0.5145269036
-0.074716285 -0.10487693 0.52538991 0.5185514092 -0.6235678196 0.585036397
-0.074335337 -0.085604623 0.54532915 0.4262930155 -0.6611753702 0.6173502803
-0.061215878 -0.089505039 0.52900004 0.2975397408 -0.7170676589 0.6303047538
-0.042899683 -0.070658863 0.55176926 -0.0499317199 -0.5122302771 0.8573954701
-0.0065220413 -0.103634 0.49595469 0.7071111798 -0.507547915 0.4923300743
-0.024713147 -0.075261876 0.5507316 -0.1515472978 -0.5241177678 0.8380537033
-0.054208357 -0.18260515 0.5521971 -0.3325143456 -0.7142441869 0.6158647537
-0.06231552 -0.16247986 0.57104343 -0.4308409095 -0.7632997036 0.4814038873
-0.066509739 -0.072635755 0.55312502 0.2648279369 -0.7683214545 0.5827077031
-0.056262512 -0.12369198 0.49177784 0.3243232667 -0.6094651818 0.7234408259
-0.076372296 -0.17667022 0.52899992 -0.6037846804 -0.6007235646 0.5239993334
-0.044887967 -0.19300339 0.5471409 -0.191792801 -0.6899088621 0.6980267167
-0.069518261 -0.16855459 0.54840004 -0.6694359779 -0.5874240994 0.4547398984
-0.019171027 -0.18218865 0.55045456 0.4190203846 -0.5594758987 0.7151283622
-0.00046901667 -0.15993468 0.53500003 0.7594854832 -0.4038827121 0.5099613667
-0.061134789 -0.19142981 0.53850007 -0.4809659719 -0.649608016 0.5887963772
-0.053267084 -0.16954967 0.5653125 -0.2788401842 -0.7525922656 0.5965341926
-0.018689219 -0.17114988 0.56100005 0.5422104597 -0.5364452004 0.6467103958
-0.019409399 -0.091839597 0.54000002 -0.283044219 -0.6954432726 0.6604881287
-0.077527232 -0.13251436 0.50255555 0.542642355 -0.5563907623 0.6292603612
-0.024687879 -0.084679402 0.5446068 -0.2854913175 -0.6052471399 0.7430818081
-0.064678863 -0.12533899 0.49478045 0.4514500499 -0.590331912 0.6691046953
-0.019505395 -0.16104411 0.57050002 0.4495657086 -0.6409419179 0.622160852
-0.026189316 -0.097432539 0.52586365 -0.2077649832 -0.8189554811 0.5349258184
-0.035469603 -0.085776046 0.53565186 -0.2237957418 -0.7573661804 0.613442719
-0.045062851 -0.075228788 0.54503733 0.01025380567 -0.7047248483 0.7094066143
-0.050774779 -0.15284245 0.59100002 -0.07066608965 -0.7915861607 0.606957674
-0.071227193 -0.10853988 0.51750004 0.5262825489 -0.6177420616 0.5843127966
-0.024323042 -0.15726082 0.57633883 0.3909499943 -0.6813252568 0.618832767
-0.031978171 -0.15938325 0.57900006 0.1798346341 -0.7505559325 0.6358657479
-0.010976669 -0.067784093 0.50758332 0.8025473952 -0.254886359 0.5393983722
-0.0048680725 -0.16528066 0.54467213 0.762170434 -0.3823180199 0.5224262476
-0.064400353 -0.095610611 0.52552766 0.4179058075 -0.6483772993 0.6363659501
-0.064411044 -0.10595523 0.51437652 0.4286483526 -0.6656736732 0.6108512282
-0.056379516 -0.17655078 0.55626237 -0.5070047379 -0.6770086288 0.5334842801
-0.070936866 -0.11890481 0.50800002 0.5676651597 -0.5769800544 0.5872395039
-0.0066601899 -0.17444193 0.54276806 0.7530507445 -0.4088230431 0.5155368447
-0.0093360618 -0.15429026 0.56050003 0.6979034543 -0.4517684579 0.5557302237
-0.046059348 -0.089093268 0.52882361 -0.05677930266 -0.7605860233 0.6467495561
-0.055463493 -0.1648953 0.57274312 -0.2395961732 -0.7708244324 0.5902739763
-0.0766491 -0.11133869 0.52221054 0.5310875177 -0.612595737 0.5853823423
-0.071322024 -0.12745337 0.49733332 0.5021689534 -0.5628829598 0.6564975977
-0.035441991 -0.19237795 0.54806364 0.0107367998 -0.6924583316 0.7213779688
-0.0049488544 -0.094873101 0.49686703 0.681121707 -0.394764185 0.6166315079
-0.055915557 -0.18700385 0.54531759 -0.4219864309 -0.6536185741 0.6282596588
-0.064192533 -0.11492647 0.50497633 0.4049028456 -0.6637006402 0.6289317608
-0.073877379 -0.11539558 0.51353472 0.5415244699 -0.6113502383 0.5770633817
-0.034211315 -0.17850447 0.55768567 0.06649438292 -0.6530020237 0.7544314861
-0.05526945 -0.080122948 0.54000002 0.09808971733 -0.7850748301 0.611584723
-0.035445519 -0.094779193 0.52414411 -0.1821282804 -0.7782664895 0.6009414196
-0.063858867 -0.08666084 0.53497106 0.3578703105 -0.7145093679 0.6011698842
-0.044608824 -0.16192584 0.58268189 0.02792370878 -0.7848373055 0.6190724373
-0.011987048 -0.17680456 0.54683727 0.6878315806 -0.4303207099 0.5845611691
-0.034996931 -0.1554867 0.58410954 0.1377882957 -0.7766409516 0.6146895289
-0.055487316 -0.11778781 0.49660602 0.2307086289 -0.699382484 0.676489234
-0.026827844 -0.11745416 0.498263 0.1705727279 -0.8177455068 0.5497247577
-0.025469687 -0.17221966 0.56197971 0.3446954787 -0.6461957693 0.6808935404
-0.052961014 -0.088855766 0.5290001 0.135346815 -0.7422529459 0.6563091874
-0.027540421 -0.087997563 0.53722227 -0.3034610152 -0.7078044415 0.6379061937
-0.017716618 -0.16422893 0.56465125 0.5571318865 -0.5728132129 0.6012396216
-0.072664194 -0.0991164 0.52854544 0.4904263616 -0.6345886588 0.597309947
-0.03207979 -0.091447398 0.53172725 -0.2650418878 -0.7672017813 0.584084034
-0.076510981 -0.12178839 0.51075011 0.5678501725 -0.577649951 0.5864014626
-0.074298106 -0.07597632 0.55491674 0.3411725163 -0.7099314928 0.6161157489
-0.067910299 -0.14142522 0.49200004 0.3729765713 -0.5996598005 0.7080230117
-0.0456568 -0.18017252 0.56 -0.04842029139 -0.7293066978 0.6824713945
-0.073812604 -0.13575265 0.49569982 0.5021689534 -0.5628829598 0.6564975977
-0.052214067 -0.075116299 0.54665107 0.1150994152 -0.7699122429 0.6276840568
-0.044908971 -0.084543027 0.53382736 -0.08963850141 -0.7761850357 0.6241007447
-0.060325626 -0.18049383 0.55050004 -0.5370073915 -0.6263275743 0.5650990009
-0.072419196 -0.16298071 0.55138242 -0.6401633024 -0.6277735233 0.4428220093
-0.025472259 -0.18378848 0.55194324 0.3096933067 -0.5902923346 0.7454160452
-0.026192358 -0.16222236 0.57236528 0.4160062075 -0.6842178106 0.5989865065
-0.025026007 -0.061984919 0.54864514 0.3353034556 0.2078047544 0.9189062715
-0.033736978 -0.16884439 0.56800008 0.1858807355 -0.721917212 0.6665462255
-0.074246339 -0.095580861 0.5338667 0.4944127798 -0.6127557158 0.6165114641
-0.0083610518 -0.16450121 0.5516786 0.7517875433 -0.4102184474 0.5162715316
-0.035051715 -0.10312925 0.51335323 -0.06440493464 -0.8105154634 0.5821654797
-0.011901058 -0.062904082 0.51170582 0.7938004732 -0.332224071 0.5094192624
-0.082570113 -0.084502898 0.55359101 0.4441023767 -0.6407279372 0.626291275
-0.045558874 -0.098353557 0.51796669 -0.01413698401 -0.7677721977 0.6405668855
-0.060992762 -0.1095186 0.5078333 0.3713183403 -0.6874219775 0.6241583824
0.00077731116 -0.17054205 0.53200001 0.7618685961 -0.4175849557 0.4951555729
-0.066273913 -0.082798205 0.54182011 0.3537366986 -0.7109562755 0.6077923179
-0.0429742 -0.1703977 0.57000005 0.01924053952 -0.770281136 0.6374140978
-0.034725197 -0.11233454 0.50235617 0.05752278492 -0.7765761614 0.6273918748
-0.065496504 -0.16490641 0.56539142 -0.5233739614 -0.7299072742 0.4396760762
-0.067514583 -0.17651027 0.54530782 -0.6092789769 -0.5891845226 0.530698359
-0.068372771 -0.15879019 0.56825 -0.472050786 -0.7765976191 0.4172100425
-0.067841306 -0.091524832 0.53228575 0.4420984685 -0.6419962645 0.6264102459
-0.0044620875 -0.063422263 0.51200008 0.8879859447 -0.1906034499 0.4185107946
-0.001315 -0.080215 0.5 0.7502398491 -0.308372885 0.5848472714
-0.037605781 -0.16144256 0.58019996 0.1110244542 -0.7763789296 0.6204106212
-0.018891705 -0.08656171 0.54594123 -0.2761474848 -0.6329796314 0.7232422829
-0.066721842 -0.12114149 0.50169569 0.4702656269 -0.5748805404 0.6695988774
-0.034574848 -0.073786132 0.5512808 -0.1454661191 -0.4622689188 0.8747268319
-0.07094162 -0.078786328 0.54800004 0.3602832556 -0.6929876208 0.624471128
0.00043745668 -0.09099099 0.49900001 0.7622971535 -0.3445681334 0.5478830934
-0.024485862 -0.18843323 0.54824996 0.3548480868 -0.5841009617 0.7300060987
-0.019003732 -0.077006035 0.55284202 -0.1959544569 -0.5428406596 0.8166552782
-0.061586488 -0.17090288 0.56424999 -0.459481895 -0.7490594387 0.4772696197
-0.054456472 -0.098794125 0.51779997 0.18362391 -0.7402355075 0.6467871666
-0.031283852 -0.064011566 0.54900002 -0.1454661191 -0.4622689188 0.8747268319
-0.015094566 -0.18421295 0.54687673 0.5963476896 -0.4922564924 0.6340764761
-0.077602826 -0.082277507 0.55208343 0.3826909363 -0.6835798025 0.6215032339
-0.05473347 -0.15675983 0.58407819 -0.165261209 -0.7650657892 0.6223849654
-0.066773355 -0.16787185 0.55325001 -0.6128143072 -0.6266885996 0.4813730419
-0.059198812 -0.15921305 0.57716674 -0.2169962227 -0.7888304591 0.5750296712
-0.067522183 -0.18502185 0.53663409 -0.5811132789 -0.5680562258 0.5827687979
0.0007103192 -0.1567675 0.54025006 0.7763241529 -0.373886317 0.5074740052
-0.055631056 -0.11262201 0.5025 0.2615699768 -0.7208769917 0.6418079734
-0.047822412 -0.16926354 0.56772727 -0.1371291429 -0.7719251513 0.6207472682
-0.020560464 -0.10770182 0.49900001 0.5462290645 -0.6311912537 0.5506644845
-0.012047116 -0.05794267 0.51726079 0.8607265353 -0.226012975 0.4561446607
-0.011762724 -0.077624254 0.49900001 0.7502398491 -0.308372885 0.5848472714
-0.0013470135 -0.16507261 0.53624141 0.7594854832 -0.4038827121 0.5099613667
-0.053630099 -0.12614232 0.48793241 0.2678852975 -0.5998277068 0.753952384
-0.025131837 -0.066912048 0.55038208 0.09358850121 -0.3363905251 0.9370605946
-0.005793341 -0.067563437 0.50705367 0.8264139295 -0.253964901 0.5025354624
-0.0066327248 -0.054823034 0.52165389 0.9272370934 -0.02627995983 0.3735514879
-0.0045081754 -0.085288554 0.49707207 0.7588747144 -0.3120596111 0.571601212
-0.077763356 -0.092670105 0.54396665 0.4782114029 -0.611169517 0.6307025552
-0.0039587528 -0.073768511 0.5033443 0.7829572558 -0.2896755338 0.5505143404
-0.06444744 -0.15855722 0.57350016 -0.4231997728 -0.7520394325 0.5053104758
-0.011181007 -0.15805785 0.55773342 0.7344317436 -0.3989393711 0.5490512848
-0.018230485 -0.15675555 0.57269233 0.5057842731 -0.6269184947 0.5925837159
-0.081226982 -0.10560007 0.53207147 0.5313392878 -0.6104504466 0.5873914957
-0.053380679 -0.17265303 0.56143761 -0.3047165275 -0.7608100176 0.5729885697
0.0032401599 -0.1596936 0.528 0.7594854832 -0.4038827121 0.5099613667
