# .PCD v0.7 - Point Cloud Data file format
VERSION 0.7
FIELDS x y z normal_x normal_y normal_z
SIZE 4 4 4 4 4 4
TYPE F F F F F F
COUNT 1 1 1 1 1 1
WIDTH 206
HEIGHT 1
VIEWPOINT 0 0 0 1 0 0 0
POINTS 206
DATA ascii
0.0078007355 -0.0636549 0.51257783 -0.4427513778 -0.5713008642 0.6910763383
-0.078544073 -0.14658333 0.57066673 -0.5289517641 -0.4818664491 0.6985805631
-0.092843875 -0.024331842 0.55551279 0.6295184493 -0.5455669165 0.5532298684
-0.016342342 -0.088038906 0.61315155 0.2639266849 -0.6366434693 0.7245880365
-0.06738878 -0.060823835 0.49253336 0.3881321251 -0.5798608065 0.7163203955
0.0043103676 -0.130887 0.55661541 0.7328177094 -0.4725586772 0.489557445
-0.02445689 -0.0027084835 0.54166108 -0.252582252 -0.7329216599 0.6316866875
-0.080952451 -0.085163601 0.60039997 -0.6178498864 -0.5382424593 0.5731985569
-0.099627033 -0.09914574 0.54900002 -0.83900249 -0.374710381 0.3945465386
0.0303765 -0.028930001 0.55000001 0.1749743819 -0.8827526569 0.4360409379
-0.034847286 -0.12552395 0.58540398 0.06496065855 -0.6762101054 0.7338392138
-0.054292154 -0.027203994 0.5163449 0.2486762404 -0.6598286629 0.7090742588
-0.026242703 -0.047939815 0.49726665 -0.2689914405 -0.6433244944 0.7167825699
0.0096386587 -0.098923646 0.57866669 0.7130684853 -0.5002980828 0.4911569357
-0.086313874 -0.052039351 0.52384204 0.623483777 -0.5447926521 0.56077528
0.041044887 -0.04709506 0.51753342 0.3582617044 -0.6380369067 0.6815844774
-0.00092970498 -0.030229658 0.53050005 -0.6208170056 -0.5403735638 0.5679635406
-0.065443516 -0.0045363409 0.54376733 0.4429163635 -0.6870929599 0.5759586692
-0.051159341 -0.10035787 0.61000001 -0.2167960703 -0.6624042988 0.7170913815
-0.073609866 -0.11406031 0.58271033 -0.5786693692 -0.5604319572 0.5925012827
0.020733166 -0.10318367 0.55000001 0.9182415605 -0.2241450995 0.3264834285
0.0058756485 -0.014327288 0.55561244 -0.5264254808 -0.5320535302 0.6631705761
-0.091747522 -0.093389735 0.57562965 -0.7935665846 -0.4309405088 0.4295839667
-0.026313286 -0.027060302 0.51719236 -0.2258919477 -0.6652979851 0.7115837336
-0.089156345 -0.1249673 0.54825008 -0.8173310757 -0.3353000879 0.4685550034
-0.023250241 -0.14411993 0.56828588 0.2712622583 -0.6910825968 0.6699415445
-0.053112827 -0.14375208 0.57071048 -0.1582211107 -0.616733849 0.7711066604
-0.0093185287 -0.11026406 0.5905 0.4985742569 -0.5959997177 0.6294505596
-0.075560771 -0.024428859 0.53385288 0.6146658063 -0.5458753109 0.5693909526
0.014943341 -0.045003604 0.54036361 -0.2390532494 -0.8175105453 0.5239561796
-0.044581197 -0.010832633 0.53015393 0.0964307338 -0.7013754249 0.7062390447
0.040423099 -0.025554834 0.53000003 0.3976093829 -0.7468140721 0.5330811739
-0.0049531762 -0.044748344 0.51396704 -0.5103288889 -0.5725880861 0.6416442394
-0.044812109 -0.055788834 0.48782426 0.0963987112 -0.6296839118 0.7708472013
-0.060839795 -0.083995305 0.62042856 -0.3194941878 -0.6399660707 0.6988325119
-0.0062424317 -0.12397438 0.57403952 0.5550354123 -0.5376501679 0.6347188354
-0.054684602 -0.11436475 0.59433728 -0.2466699332 -0.663649261 0.7062036395
-0.0064585488 -0.061515916 0.49708331 -0.4926741421 -0.5287981629 0.6911184192
-0.031507399 -0.10975078 0.59900004 0.1286527067 -0.6943687201 0.7080258131
-0.055652775 -0.042876814 0.50253242 0.2762629092 -0.6527323127 0.7054213881
-0.072108738 -0.038206723 0.51731259 0.5350729227 -0.5768195391 0.6172326803
-0.035377547 -0.086745396 0.62082464 0.005957739893 -0.6364359856 0.7713065147
-0.082999639 -0.062826402 0.50574189 0.5377492309 -0.5866795182 0.6055021882
-0.08578442 -0.11526631 0.565988 -0.7633910775 -0.4264101386 0.48518911
0.025535697 -0.057253379 0.51210761 -0.03041742742 -0.5187823176 0.8543650508
0.020092323 -0.040674701 0.55900002 -0.0683773309 -0.8284106851 0.5559318662
0.015476964 -0.12137874 0.54616672 0.7620428205 -0.4546912313 0.461027801
-0.0698414 -0.099248312 0.59900004 -0.5437518358 -0.5787862539 0.6077338457
0.010842174 -0.11121467 0.56216669 0.7819790244 -0.4273553193 0.4537359178
-0.014870505 -0.014914882 0.53376997 -0.3838179111 -0.6527889967 0.6531081796
-0.0063011064 -0.095223844 0.60112512 0.4553264678 -0.6007874608 0.657063365
-0.079122186 -0.011439234 0.55144441 0.5856451392 -0.5908147693 0.5549393892
-0.0068984302 -0.007326182 0.54727584 -0.5023007989 -0.6355540156 0.5863147974
-0.035354916 -0.035852369 0.50624508 -0.08338180184 -0.6847592592 0.7239835858
-0.098538511 -0.1152241 0.53866673 -0.8152261972 -0.3841362596 0.4334115684
-0.080584005 -0.1343369 0.5601818 -0.6644409895 -0.4369444251 0.6062984467
-0.051863603 -0.13067593 0.58000004 -0.2246934921 -0.6488878727 0.7269507647
-0.0078332797 -0.1408941 0.56550002 0.4874879122 -0.5977179408 0.6364658475
-0.066222645 -0.12589817 0.57588649 -0.445741266 -0.565151453 0.6942035556
-0.026738334 -0.10000136 0.61000001 0.1819989383 -0.6658428907 0.7235534787
0.01557173 -0.026280588 0.54785717 -0.4183710515 -0.5371485353 0.7324186563
0.014739688 -0.07491409 0.52000004 -0.2373815477 -0.6941245198 0.6795889735
-0.018029651 -0.039181616 0.50871432 -0.3844859898 -0.6297614574 0.6749600172
-0.012253304 -0.031285606 0.52069229 -0.451489836 -0.6070164442 0.6539785862
-0.063166045 -0.01886587 0.52826101 0.3952175379 -0.6302168965 0.6683036685
-0.034920335 -0.13594976 0.57514846 0.0742662847 -0.669007659 0.7395358682
-0.022329029 -0.1288999 0.57887501 0.3017294109 -0.6350209713 0.7111312747
-0.045007482 -0.00072623056 0.54039997 0.1103525907 -0.7600674033 0.6404060125
-0.069882169 -0.088551663 0.6085 -0.4531656504 -0.6016184092 0.6577964425
-0.081394285 -0.0368491 0.52766675 0.6147144437 -0.5499739647 0.5653802156
-0.08279372 -0.10271999 0.58083332 -0.7119038701 -0.488332957 0.504701674
0.0028063077 -0.11376815 0.57340735 0.6826865077 -0.4925267994 0.5397744775
-0.065597385 -0.13605551 0.56698906 -0.4098389745 -0.5232060552 0.7471863031
-0.071776442 -0.047733966 0.5078333 0.5247967243 -0.5848448873 0.6185020804
-0.084816091 -0.024743756 0.54484212 0.6257153153 -0.5480565429 0.555080533
-0.017084604 -0.10299234 0.601762 0.3296012282 -0.6464004517 0.6881347895
-0.025668561 -0.016759582 0.5268749 -0.2481201291 -0.6716396809 0.698094964
-0.024268763 -0.11927839 0.58900005 0.2106916606 -0.6725478768 0.7094281912
-0.044845279 -0.046416044 0.4964231 0.08320721239 -0.6609027982 0.745844543
0.0083905281 -0.034106385 0.54056758 -0.6053667665 -0.4877789319 0.6289696097
-0.055724099 -0.053257123 0.49364534 0.2787152827 -0.6208990216 0.7326678634
-0.049381755 -0.088995695 0.61900002 -0.1448740363 -0.6443671584 0.7508678436
0.020544393 -0.11495379 0.53666669 0.9474169016 -0.1719869524 0.2698550224
-0.092033871 -0.10483756 0.56356245 -0.8388714194 -0.373622179 0.3958549798
0.003621737 -0.043757323 0.52284479 -0.5890126228 -0.5785730481 0.564196229
-0.011846606 -0.051862933 0.50238103 -0.4605976045 -0.5940374732 0.6595220566
-0.054690208 -0.0069991634 0.53556168 0.278698355 -0.6791808605 0.678999722
-0.092537843 -0.1158375 0.55612242 -0.8162212968 -0.3826464415 0.4328562021
-0.044079773 -0.1206303 0.59000009 -0.08403761685 -0.6862053871 0.7225371003
0.03777349 -0.034360319 0.52326524 0.3372333348 -0.7016181946 0.6276986599
-0.035408329 -0.021371733 0.52093339 -0.07384373993 -0.6871202588 0.7227813005
-0.028293537 -0.055301007 0.48899999 -0.2246561944 -0.616559267 0.7545755506
0.0011868188 -0.096210226 0.59278572 0.5836932659 -0.5536262393 0.5939698219
-0.035138059 -0.0063444925 0.53426093 -0.09040460736 -0.715023756 0.6932301521
-0.088114209 -0.089012355 0.58525008 -0.7127066851 -0.4902141988 0.5017361641
-0.076197892 -0.12617384 0.5664075 -0.6385937929 -0.4375425875 0.6330516934
-0.08092159 -0.048548046 0.51485717 0.5857949853 -0.5572064519 0.5885279775
-0.045879621 -0.031353474 0.51075602 0.1091717109 -0.6773760319 0.7274910808
-0.035240401 -0.14480549 0.56900012 0.04524019361 -0.6751035452 0.7363345027
-0.081536897 -0.092975073 0.59337497 -0.6545343995 -0.5122925639 0.5560045838
-0.041884251 -0.11061366 0.60042858 -0.0554141663 -0.6939305067 0.7179064751
-0.045897242 -0.02127983 0.52073085 0.1108241156 -0.6766456962 0.7279207706
0.0054020062 -0.025298918 0.54557157 -0.6406881213 -0.4926576018 0.5889033675
0.0024698453 -0.12392329 0.56417662 0.7009427547 -0.4719598591 0.5347271562
0.0010965347 -0.05797701 0.50693333 -0.5295697451 -0.5329024792 0.6599779129
-0.035037886 -0.094814397 0.61423588 0.07947103679 -0.6621931195 0.7451071143
0.0084237792 -0.042054981 0.53354168 -0.6767962575 -0.4589425027 0.5756028295
-0.09375874 -0.095177352 0.56470764 -0.8238159418 -0.3921100199 0.4093617201
-0.087662578 -0.043051641 0.5318889 0.6303376555 -0.5429621935 0.5548571348
-0.04544146 -0.13647568 0.57573032 -0.1065308526 -0.6686854959 0.7358742356
-0.077820651 -0.11623036 0.57432616 -0.662910521 -0.4732703865 0.5801420212
0.034719173 -0.05508969 0.51391155 0.09851174802 -0.5144892335 0.851819396
-0.091153786 -0.031788718 0.54610002 0.6424615979 -0.5239958763 0.5591703057
-0.01616725 -0.13338035 0.57345212 0.3866342008 -0.6195678115 0.6831176281
-0.016207365 -0.1232796 0.58273768 0.3655870557 -0.6460059881 0.6700912714
-0.024073455 -0.087728478 0.61800003 0.1619539559 -0.6589356065 0.734557569
-0.054776102 -0.10466154 0.60287786 -0.2700777948 -0.6692046523 0.6922594309
-0.06352897 -0.11269564 0.59326655 -0.3720377982 -0.6494353414 0.663190484
-0.054544397 -0.016606333 0.52672637 0.2483814061 -0.6672795415 0.7021714449
-0.035184819 -0.046802543 0.49676746 -0.09774506837 -0.6568307281 0.7476759553
-0.067303628 -0.051973399 0.50124002 0.4387846589 -0.60284549 0.6663672328
-0.045090202 -0.095133789 0.61401069 -0.09746475518 -0.6579628587 0.7467164397
0.0020011882 -0.017093943 0.54637933 -0.5573014617 -0.563913703 0.6094394326
0.0031156891 -0.103452 0.58272213 0.6517794728 -0.5281463265 0.5442838669
-0.014683962 -0.0046051298 0.54402184 -0.4077674448 -0.7070733309 0.5777308941
-0.069385312 -0.011603341 0.54025 0.4885285795 -0.6439528465 0.5887822509
-0.0070279022 -0.01765676 0.53673542 -0.5307743549 -0.6005663276 0.5979955196
-0.096621677 -0.10702698 0.54644173 -0.837343514 -0.3784036934 0.3945458829
-0.07453835 -0.061927009 0.49745455 0.4762380421 -0.5856766105 0.6558812857
-0.065313414 -0.095908664 0.60566241 -0.4428159893 -0.6041001678 0.66255337
0.011956706 -0.1148288 0.55434793 0.7731592059 -0.4462813735 0.4506193399
-0.060882747 -0.039310083 0.50840002 0.3820283413 -0.6306959987 0.6754827499
-0.026301818 -0.038069349 0.50692862 -0.2531714737 -0.661069572 0.7063223124
0.0065524476 -0.10621197 0.57544822 0.7177302241 -0.5007207394 0.483882308
0.0041474798 -0.055190086 0.51434511 -0.5448983908 -0.552652359 0.6306037903
-0.06824483 -0.031404588 0.52054542 0.4736133516 -0.5949630141 0.6493915319
-0.07593447 -0.10635318 0.58532363 -0.619908154 -0.5471618772 0.562430203
-0.0040771617 -0.034293249 0.52377659 -0.5558549166 -0.5751238465 0.600214839
-0.075100534 -0.054784078 0.50462252 0.5165908933 -0.5877127051 0.622677803
-0.015492165 -0.055636149 0.49580666 -0.4200151861 -0.595053196 0.6851999164
-0.065712832 -0.11629729 0.58450681 -0.4529056847 -0.623609364 0.6371717453
0.02435619 -0.03357622 0.55351532 0.1749743819 -0.8827526569 0.4360409379
-0.00080740993 -0.010489901 0.55233335 -0.5282802582 -0.5980107784 0.6027462482
-0.078192115 -0.042616148 0.5209474 0.5847532749 -0.5532134771 0.593311429
-0.086745001 -0.12548006 0.55615491 -0.793844223 -0.3457563818 0.5002638102
-0.0062816264 -0.11366221 0.58358836 0.5461177826 -0.583373487 0.6011911035
0.020670922 -0.070462666 0.51633334 -0.1754836589 -0.6393828988 0.7485953569
-0.036605276 -0.055541325 0.48796791 -0.0805086717 -0.5964036584 0.7986369729
-0.014027213 -0.096668541 0.60601521 0.3739160299 -0.6168177724 0.6926200986
-0.013847366 -0.11678725 0.58715779 0.3976437151 -0.6282934546 0.6686754227
-0.043688443 -0.14274348 0.57082486 -0.06559623033 -0.660646379 0.747825861
-0.0077021555 -0.027479658 0.52702701 -0.5246511698 -0.581987381 0.6213145852
-0.0089945998 -0.1304217 0.57000005 0.5067244768 -0.5630477667 0.6528456807
-0.090126306 -0.10120329 0.57433337 -0.767746985 -0.4425339699 0.4633878171
-0.073533267 -0.10263087 0.59269375 -0.5723531246 -0.5555284023 0.603158474
0.025529888 -0.023921907 0.54603845 0.1749743819 -0.8827526569 0.4360409379
-0.034701772 -0.0010761083 0.54022729 -0.1221393347 -0.7553939819 0.6437871456
0.016553573 -0.034469992 0.55484742 -0.4086126983 -0.5775384903 0.7067425251
-0.025147473 -0.13527587 0.57505202 0.2290492654 -0.6593934298 0.7160564065
0.011849172 -0.1249369 0.55226189 0.7620428205 -0.4546912313 0.461027801
-0.054674212 -0.094065055 0.61327696 -0.2577750385 -0.6527343392 0.7123832703
-0.055624343 -0.0019337693 0.54156429 0.2668899 -0.7391042113 0.6184616089
-0.0029096946 -0.10687793 0.58652174 0.5738136172 -0.5717625618 0.5863663554
-0.024996659 -0.10490149 0.60405511 0.2323414534 -0.664447248 0.7103008628
-0.010928966 -0.020927787 0.53050005 -0.4673403203 -0.6055897474 0.6440916657
-0.065629102 -0.10554297 0.59583741 -0.4459865391 -0.6104310155 0.6545761824
-0.068043776 -0.041487996 0.51082361 0.4836055934 -0.5979911685 0.6391652226
-0.010597147 -0.010912746 0.54133338 -0.4733761847 -0.6479752064 0.5966934562
-0.062214646 -0.0084750764 0.53716666 0.3744125962 -0.6775957942 0.632992208
-0.0033966636 -0.11731227 0.57702076 0.6104769111 -0.5287029743 0.5897381902
-0.05487866 -0.13467377 0.57398188 -0.2509692311 -0.6271516085 0.7373569608
-0.034888096 -0.10545039 0.60459822 0.0990491733 -0.6900708079 0.7169320583
-0.035041194 -0.11532253 0.59483135 0.05801446736 -0.683062911 0.7280517817
-0.078566432 -0.021478772 0.54150003 0.6236467361 -0.5503556132 0.5551337004
-0.064714856 -0.045587733 0.50487632 0.4120641053 -0.6187972426 0.6687998176
-0.069200732 -0.10900877 0.58820003 -0.5215591788 -0.5931344032 0.6133250594
-0.071814254 -0.027058741 0.52755183 0.5306521058 -0.5700729489 0.6272361279
-0.064772479 -0.035357196 0.51483178 0.4122440517 -0.6240628958 0.6637773514
-0.015296134 -0.045378108 0.50490171 -0.4105926752 -0.6172193885 0.6711586118
-0.073044173 -0.12315078 0.57340002 -0.5530006886 -0.5083332658 0.6601420641
-0.045054421 -0.041178264 0.50212508 0.0881845355 -0.6969849467 0.7116428018
-0.08167325 -0.017767755 0.5478 0.6092262864 -0.5699958205 0.5513148904
-0.0066186781 -0.1037888 0.59373522 0.5202381611 -0.5931518674 0.6144290566
-0.015087076 -0.035531905 0.51491505 -0.4168210328 -0.6142645478 0.6700292826
-0.015034255 -0.025040867 0.524257 -0.4127608538 -0.6177214384 0.6693643928
-0.025507178 -0.0076566404 0.53584486 -0.251673162 -0.6833940744 0.6852978468
-0.075377546 -0.034502737 0.52350539 0.5443707705 -0.5697375536 0.6156781316
-0.0078689596 -0.037494231 0.51791674 -0.507289052 -0.5890458226 0.6290332675
-0.064970225 -0.025109213 0.52417821 0.4347862899 -0.6106365323 0.6618790627
0.0020696293 -0.037013873 0.52744132 -0.6086896658 -0.5403459668 0.5809674263
0.0021711804 -0.04813638 0.51673687 -0.5630448461 -0.5804141164 0.5883026123
0.00050057669 -0.12063897 0.57100004 0.6744867563 -0.4842988551 0.5572451949
-0.056910932 -0.11832351 0.58822721 -0.2885466814 -0.6494108438 0.7035669088
0.014901616 -0.065354533 0.51471841 -0.2437084615 -0.678253293 0.6932377815
-0.045217935 -0.1053764 0.60481489 -0.09311105311 -0.6867960095 0.7208616734
-0.0650765 -0.085992537 0.61445451 -0.4176650941 -0.5968954563 0.6850340962
-0.017793745 -0.018677104 0.52786374 -0.3602968454 -0.6363816261 0.6820591092
-0.018227361 -0.049140964 0.49899998 -0.3583655655 -0.6212358475 0.6968788505
-0.075760931 -0.013908332 0.54509085 0.5766528249 -0.5878617167 0.5673536062
-0.015992569 -0.14238518 0.56715792 0.3509997725 -0.6448212266 0.6789733171
-0.079341836 -0.030587485 0.53133339 0.6221888065 -0.5342710018 0.5722199082
-0.0041933144 -0.023834608 0.53347194 -0.5606594086 -0.5710439682 0.5996413827
-0.082156219 -0.12344908 0.56268007 -0.7474028468 -0.3922768533 0.5361976027
0.0065038777 -0.11581432 0.56621838 0.761421144 -0.4436247945 0.4726890028
-0.054887094 -0.12491188 0.5837183 -0.2471268773 -0.644900322 0.7232094407
-0.071884997 -0.0067101419 0.5469231 0.530621469 -0.6393879652 0.5564385653
