# .PCD v0.7 - Point Cloud Data file format
VERSION 0.7
FIELDS x y z normal_x normal_y normal_z
SIZE 4 4 4 4 4 4
TYPE F F F F F F
COUNT 1 1 1 1 1 1
WIDTH 206
HEIGHT 1
VIEWPOINT 0 0 0 1 0 0 0
POINTS 206
DATA ascii
0.05865426 -0.20823812 0.708 0.7725238204 -0.4194158912 0.4767570198
-0.032884009 -0.095488653 0.70502508 0.6761306524 -0.5414868593 0.4996391833
0.091971196 -0.10790393 0.67588896 0.3427887857 -0.692763865 0.6344872713
-0.041733425 -0.19889872 0.69666672 -0.8123055696 -0.2896971703 0.5061967969
0.019115716 -0.14473328 0.62300003 -0.08717373759 -0.7265259027 0.6815870404
0.0068620453 -0.17717423 0.76100004 -0.0941645056 -0.6121498346 0.7851150036
0.024721494 -0.095567159 0.67519093 -0.1590444297 -0.6596954465 0.7345112562
-0.034677897 -0.14452463 0.66515392 0.7326576114 -0.4574274123 0.5039573312
0.0044122632 -0.23006801 0.71900004 -0.1459841132 -0.5820983648 0.7999063134
0.062721588 -0.15449692 0.65668583 -0.3208476603 -0.7521055341 0.5756683946
-0.030243246 -0.17759864 0.73400003 -0.6596541405 -0.4456530213 0.6051857471
0.050737962 -0.18148577 0.74200004 0.5256842375 -0.5365678072 0.6601144671
0.078348137 -0.18892428 0.67449999 0.9964045286 -0.01220151316 0.08384017646
-0.0036565764 -0.11852533 0.65844446 0.27173087 -0.6447595358 0.7144560814
0.060879495 -0.097737812 0.69742858 -0.4605693221 -0.5776942968 0.6739029288
0.03538711 -0.12402621 0.6541971 -0.3369348049 -0.6229028106 0.7060219646
0.024855964 -0.20555374 0.73661017 0.200179562 -0.5968087316 0.7770119309
0.061623979 -0.12596017 0.67460001 -0.5994110107 -0.5633770227 0.5686059594
-0.016997382 -0.20597219 0.72464287 -0.5543791652 -0.4693598151 0.6872882247
0.092031673 -0.13500308 0.6583637 0.4019936025 -0.5640566349 0.721277535
-0.0041328645 -0.086722635 0.68634093 0.3027806878 -0.6915163994 0.6558421254
-0.0084289191 -0.14304553 0.6409474 0.3857975006 -0.5993183851 0.7014113069
-0.027478637 -0.11331547 0.68277419 0.6605292559 -0.5130978227 0.5481165648
0.035649475 -0.22417375 0.71835476 0.4378159642 -0.5529614091 0.7089082003
0.04509135 -0.15086119 0.63500005 -0.4771221876 -0.5938616395 0.6478292346
0.071185336 -0.17980433 0.70000005 0.8756586313 -0.2761096656 0.3962139189
-0.0041794414 -0.19402988 0.74273068 -0.3445273042 -0.5552889109 0.7569379807
0.075089864 -0.11703368 0.7001667 0.04977252334 -0.5827980638 0.8110913038
0.048355181 -0.19897728 0.72714293 0.5849941969 -0.5048094988 0.6347827315
0.015091961 -0.13358845 0.64192408 0.003173626726 -0.7183439136 0.6956809163
0.044554971 -0.10567728 0.67528576 -0.4724571705 -0.5643453002 0.6769775152
-0.036810108 -0.18625933 0.71403134 -0.8412395716 -0.2689039707 0.4690486491
-0.042907737 -0.11485004 0.70745456 0.7351264358 -0.4717954397 0.4868246317
-0.022889899 -0.12590839 0.66494745 0.6035416722 -0.5569872856 0.570528388
-0.030499231 -0.21349463 0.71000004 -0.7056106925 -0.3945350349 0.5886048675
0.0050164927 -0.1024132 0.670941 0.1735829413 -0.6373810768 0.7507425547
0.0053604916 -0.21246892 0.73057133 -0.179478094 -0.570055306 0.8017634153
0.026583383 -0.18855193 0.74874991 0.2207565457 -0.607786417 0.762798965
0.041583303 -0.089105144 0.68742859 -0.423738867 -0.6491584182 0.6316950917
0.019482456 -0.23230088 0.73266667 0.1236883402 -0.5623232126 0.8176146746
0.062175591 -0.18495323 0.72260606 0.8047680259 -0.3453370035 0.4827947617
-0.011218484 -0.1781722 0.75275004 -0.3955018222 -0.5676116347 0.7220771313
0.053475682 -0.13718519 0.65631258 -0.4989716113 -0.5625463128 0.6592184305
-0.038286537 -0.13395843 0.68085718 0.7515307069 -0.4432459474 0.4886047542
0.071774453 -0.20084782 0.68800002 0.8532810211 -0.3652330637 0.3721778095
-0.043445848 -0.17929061 0.69800001 -0.9664988518 0.005818597041 0.2566048801
-0.027878877 -0.15077351 0.64900005 0.6697401404 -0.4551230967 0.5867803097
-0.015072583 -0.22253434 0.71656227 -0.4672984183 -0.5328780413 0.7054595351
0.01456962 -0.11669438 0.65633917 0.0163793005 -0.6604078412 0.7507284284
0.031856578 -0.13848852 0.63750005 -0.2992299795 -0.6644855142 0.6847776771
0.015061155 -0.084650524 0.68442476 0.01828160882 -0.7006475329 0.7132732868
-0.01406184 -0.10569504 0.67649239 0.4588993788 -0.5810142159 0.6721858382
0.071044192 -0.13731405 0.68099999 0.05653355271 -0.7174340487 0.6943286657
0.076696791 -0.13901669 0.65616673 0.1929349601 -0.7147042155 0.6722900867
-0.017958954 -0.18773898 0.73761117 -0.5807122588 -0.4748969376 0.6612459421
0.066649385 -0.1952325 0.70363897 0.8522049785 -0.3260443211 0.409196496
-0.015788341 -0.13251272 0.65254045 0.472245574 -0.582963109 0.6611642241
0.0049432642 -0.1424894 0.63279545 0.1427227706 -0.7358618379 0.6619196534
0.057168197 -0.1129367 0.68162507 -0.6076333523 -0.4970526993 0.619451642
-0.017627135 -0.092399523 0.69078958 0.5180177689 -0.5909314156 0.6184316278
0.036633082 -0.20868416 0.72764289 0.3967485726 -0.5691789985 0.7201567888
-0.042819407 -0.15427043 0.67269993 0.932344377 -0.1947115362 0.3046661019
0.0079876855 -0.19065344 0.75028574 -0.08334420621 -0.6344554424 0.7684530616
0.084378727 -0.11270821 0.6875 0.3622320592 -0.6556842327 0.6624696851
0.089464709 -0.11928628 0.66700006 0.4171073437 -0.6070943475 0.6763563752
0.024792491 -0.10652759 0.66552538 -0.1559114456 -0.6387924552 0.7534160614
0.050910227 -0.11937526 0.66750002 -0.5535458922 -0.5332571268 0.6397060156
0.071679279 -0.10243074 0.70571434 -0.3022707701 -0.7231723666 0.6210105419
0.021220593 -0.17657225 0.76120007 0.1342571974 -0.5971107483 0.7908437252
-0.0019337513 -0.12884597 0.64859998 0.2763590217 -0.64738518 0.7102944255
0.051111422 -0.22002843 0.71100003 0.6019673944 -0.5246982574 0.6019360423
-0.031943105 -0.10651873 0.69436836 0.7177032232 -0.4905888438 0.4941909313
-0.02633483 -0.19561023 0.72510904 -0.6604127288 -0.4422297478 0.6068673134
0.052081138 -0.14721668 0.64671433 -0.5077030659 -0.5483360887 0.6645036936
0.035114929 -0.17830098 0.75284213 0.2791298628 -0.598552227 0.7508806586
0.058644459 -0.19790711 0.7179091 0.7432354689 -0.4015040994 0.5351592898
0.025819547 -0.21731991 0.724711 0.262882024 -0.5606463552 0.7852188945
0.035508532 -0.19730519 0.73791909 0.3624021709 -0.5846086144 0.725876987
0.043173712 -0.1368178 0.64759088 -0.4757141173 -0.588943243 0.653331399
-0.0050505865 -0.20483583 0.73500025 -0.3411567211 -0.5718779564 0.7460346222
0.049445752 -0.20880622 0.71850008 0.5822095871 -0.5159143806 0.6283823252
0.035319798 -0.11419694 0.66290307 -0.3195181191 -0.6091940999 0.7258034945
0.0061883903 -0.20189196 0.74100012 -0.1062126681 -0.6249426603 0.7734116316
0.051781747 -0.097151488 0.68754554 -0.5462580919 -0.5498864651 0.6318441033
0.062480912 -0.1358808 0.66645449 -0.4292007685 -0.6306927204 0.6465395689
0.024927072 -0.12788901 0.64776337 -0.1584778279 -0.6653385162 0.7295268774
0.07478065 -0.10635405 0.69323099 -0.0796765238 -0.8636065125 0.4978307188
-0.0052659744 -0.21595602 0.72490764 -0.313308239 -0.5593003035 0.7674770951
0.068378903 -0.12072116 0.69025004 -0.1540689468 -0.6692247391 0.726911962
-0.01442048 -0.11677837 0.66591311 0.471169889 -0.5905504823 0.6551709771
-0.0038415531 -0.097637415 0.67784619 0.3229382038 -0.6418953538 0.695472002
0.074014463 -0.15091817 0.65885717 0.05971630663 -0.6844007373 0.7266564369
0.015018935 -0.22389165 0.72572887 0.03678702563 -0.5974251628 0.8010804653
-0.037799057 -0.19609329 0.70688009 -0.8262786865 -0.2828319967 0.4871032238
0.0043346598 -0.091364704 0.68117398 0.2069760263 -0.6661659479 0.7165080905
0.056317069 -0.17983063 0.73000002 0.6810981035 -0.434677273 0.5892037749
-0.034854777 -0.12419228 0.68369645 0.72270751 -0.4753076434 0.5017733574
-0.0299557 -0.1321575 0.67000002 0.7349541187 -0.459753722 0.4984665811
0.014025709 -0.092750311 0.67747509 0.04323903471 -0.6754694581 0.7361191511
0.0040963124 -0.11218741 0.66146666 0.1771958023 -0.665653944 0.7249182463
-0.0044113868 -0.14502431 0.62900001 0.3301298916 -0.6436161399 0.6904871464
0.065416969 -0.14442617 0.6613999 -0.2402742654 -0.7125765085 0.6591684222
-0.039240915 -0.10588862 0.7105 0.7194910049 -0.4908373356 0.4913363159
-0.032831073 -0.18477525 0.72325003 -0.779399693 -0.3562887311 0.5153586268
0.0154306 -0.21360829 0.73107386 0.05817926675 -0.5562903881 0.8289487958
0.024621451 -0.11776563 0.65665126 -0.1517764777 -0.6517630816 0.743080616
0.025105326 -0.08508043 0.68546247 -0.1341977268 -0.7232304811 0.6774427295
-0.020476302 -0.17876285 0.74150008 -0.570587337 -0.4853059053 0.662501514
0.0048424876 -0.13370037 0.64303118 0.1501967609 -0.6773349047 0.720179379
0.015082549 -0.18461943 0.75374138 0.02960401215 -0.6301655173 0.7758962512
-0.026583899 -0.20603605 0.71515918 -0.7253482938 -0.383551687 0.5716274977
0.064637274 -0.10629556 0.69443923 -0.4392202795 -0.5799262524 0.6861276031
0.045233864 -0.19492055 0.73536497 0.5311979651 -0.5458416939 0.647985816
-0.0062711476 -0.17732671 0.76100004 -0.2899959385 -0.5833656192 0.7586744428
0.014179858 -0.14207999 0.63542843 -0.009629844688 -0.7333405018 0.6797933578
0.015039438 -0.19551197 0.74592096 0.03585985303 -0.6216493845 0.782474339
0.015215122 -0.10614914 0.66539329 0.01991900615 -0.6647556424 0.7467952371
0.035933349 -0.18718696 0.74729276 0.330798924 -0.585031569 0.7404796481
0.034094162 -0.096580975 0.67677093 -0.3099296987 -0.6339223385 0.7085802555
0.065589294 -0.18749726 0.71405268 0.8346199989 -0.3015771508 0.460934639
0.063207962 -0.12063255 0.68233329 -0.5365264416 -0.4607088268 0.70702672
-0.0022236651 -0.10717084 0.66730005 0.2946588993 -0.6460484862 0.704128921
-0.023784857 -0.13604224 0.65596497 0.6125784516 -0.5288465023 0.5874257684
-0.023407657 -0.11584277 0.6748724 0.6066827178 -0.5311991572 0.5914080739
0.0043792911 -0.12309437 0.65198165 0.1743810624 -0.6575112343 0.7329872251
-0.035983138 -0.20469053 0.70432204 -0.7898992896 -0.308345437 0.530077517
0.04867604 -0.13096173 0.66100001 -0.5449331403 -0.5488430262 0.6338921189
0.014988872 -0.20630549 0.73655319 0.0633527413 -0.5760607123 0.8149481416
-0.032215435 -0.14656778 0.65583867 0.7047979236 -0.4612744749 0.5389672518
-0.022306198 -0.09947098 0.68766665 0.609397471 -0.5571601391 0.5640986562
0.070760302 -0.1937689 0.69583338 0.8651045561 -0.3259759545 0.3812266886
-0.040975593 -0.18470937 0.70466667 -0.8412395716 -0.2689039707 0.4690486491
0.088718086 -0.12660196 0.66194129 0.3951826394 -0.5535428524 0.7330900431
-0.023860237 -0.22189224 0.71531576 -0.553129375 -0.5063216686 0.6615785956
-0.02669779 -0.12388159 0.67302442 0.63210392 -0.5189587474 0.5754358768
0.044023972 -0.22208689 0.71579152 0.5160269141 -0.5481794477 0.6581910849
-0.013813919 -0.21378656 0.72215205 -0.4582476616 -0.5276233554 0.715278089
0.025863618 -0.14329199 0.63322735 -0.1697513461 -0.7166803479 0.6764272451
-0.0039163018 -0.1829499 0.75244117 -0.3259600401 -0.5860596299 0.7418113947
-0.035080388 -0.11429566 0.69200003 0.7351264358 -0.4717954397 0.4868246317
-0.0014542147 -0.13882157 0.63800001 0.2373182327 -0.7098947167 0.6631210446
-0.0045689875 -0.22387975 0.72159088 -0.3640105426 -0.5184999704 0.773727417
0.083580419 -0.14410503 0.657157 0.2664290965 -0.6751694083 0.6878675222
0.038609464 -0.14247468 0.64092857 -0.4207172096 -0.6278015375 0.6548757553
0.03512371 -0.13471091 0.64561826 -0.3321401477 -0.6450979114 0.6881363392
-0.0092020771 -0.11140388 0.67000002 0.3963374197 -0.6223717332 0.6749593019
0.04289997 -0.21258792 0.72244447 0.4996055961 -0.5437247753 0.6743571758
0.024874635 -0.21260807 0.73162168 0.248045221 -0.5187953115 0.8181228638
0.051963728 -0.19221173 0.73050004 0.6053128242 -0.5067954659 0.6138035059
0.054505344 -0.10554784 0.68443751 -0.5688300133 -0.5297531486 0.6291216016
-0.024095006 -0.18361308 0.73397726 -0.6191766858 -0.4777323008 0.6232111454
0.039404415 -0.1216901 0.66100001 -0.4266098738 -0.5863970518 0.6885800958
-0.014279897 -0.18428765 0.74412239 -0.5165147781 -0.520958662 0.6795694232
0.042544827 -0.20265318 0.73162949 0.4814606607 -0.5650315881 0.6700260639
-0.021051396 -0.13939439 0.64900005 0.54789114 -0.5701021552 0.6122081876
-0.01318556 -0.2039008 0.73156255 -0.4901905954 -0.5248016119 0.6959140897
-0.015574994 -0.19503275 0.73483056 -0.5461940169 -0.4789340794 0.6872366667
0.015465974 -0.12295526 0.65125006 -0.0251370389 -0.6639379859 0.7473650575
0.044996914 -0.095322087 0.68350726 -0.4562831521 -0.6010807753 0.6561307907
-0.0048952643 -0.13509646 0.64438534 0.3057946861 -0.6507321 0.6950088739
0.046408318 -0.11243299 0.67124134 -0.5184345245 -0.5358495712 0.6664014459
0.043085966 -0.12746705 0.65633345 -0.4588790238 -0.5748627186 0.6774680018
0.085354738 -0.10559931 0.6838572 0.1250892133 -0.8197372556 0.5589128137
0.035791088 -0.10329198 0.6727677 -0.3093714118 -0.6092214584 0.7301633358
-0.019784613 -0.19912255 0.72800004 -0.594514668 -0.4844398499 0.6417712569
0.060917813 -0.10916954 0.68800002 -0.5432675481 -0.5317969322 0.6496556401
-0.0095731998 -0.20997219 0.72800004 -0.4010648727 -0.5355715156 0.7431756854
0.024748482 -0.19516695 0.74488759 0.2035750002 -0.600970149 0.7729114294
0.055864133 -0.14436391 0.65421319 -0.511905551 -0.5685507059 0.6439742446
0.053533487 -0.11561038 0.67380863 -0.5883104801 -0.5126894116 0.6253322363
-0.020818643 -0.10944614 0.67850006 0.5716559887 -0.536372602 0.6208976507
0.068222091 -0.20178774 0.694875 0.8624641895 -0.3407038152 0.3742678463
0.055615634 -0.2051613 0.71447533 0.6759439111 -0.4642997086 0.5722985268
0.041716006 -0.19116664 0.74120009 0.4888076484 -0.5607453585 0.6683051586
0.0055088829 -0.18472873 0.7546618 -0.1513821036 -0.6186878681 0.7709142566
-0.0053528459 -0.1247071 0.65409404 0.3038036227 -0.6330671906 0.7119896412
0.0495755 -0.14074883 0.65000004 -0.5574374199 -0.5455883741 0.6257770061
0.055105276 -0.19538838 0.72426683 0.6525518894 -0.4861989915 0.5811941028
-0.012159116 -0.19130044 0.74114293 -0.4993675947 -0.5108206868 0.6997815371
0.035478014 -0.21536574 0.72410768 0.4620100558 -0.5036254525 0.7300055623
0.047741078 -0.091083035 0.69150007 -0.493912667 -0.5958425999 0.6332628727
0.055868637 -0.13378067 0.66329283 -0.5652245283 -0.5640308857 0.6019887328
0.032635305 -0.12797733 0.64833337 -0.295381099 -0.6466282606 0.7032936215
0.034274641 -0.20447969 0.73347694 0.3555055261 -0.5925360918 0.7228532434
-0.023431573 -0.2030641 0.72136104 -0.6396581531 -0.4191372395 0.6443302035
0.093927495 -0.11376516 0.67152494 0.4671462178 -0.6298012137 0.6205842495
-0.014331226 -0.12634589 0.65666664 0.4535110593 -0.6075853705 0.6520488858
0.0050979801 -0.19545791 0.74521434 -0.1480710208 -0.6108549833 0.7777732015
-0.015403878 -0.14329357 0.64384234 0.4932079911 -0.5747210979 0.6530249119
0.034487627 -0.086855523 0.68631834 -0.2798678875 -0.6919839382 0.6654563546
0.044219129 -0.18448989 0.74421436 0.515815556 -0.540623188 0.664575696
0.053726945 -0.12604487 0.66558528 -0.5857592821 -0.5253833532 0.6171373129
-0.014212999 -0.095934145 0.68520314 0.5021230578 -0.5944456458 0.628097713
-0.018210948 -0.10254229 0.68227786 0.5055505633 -0.5774224997 0.6410942674
0.058765072 -0.15233067 0.65079999 -0.4103590548 -0.5541294217 0.7242555022
-0.005622841 -0.10411213 0.67313123 0.3352946639 -0.629598856 0.7008443475
0.045371953 -0.1438366 0.64360911 -0.5154656172 -0.5674611926 0.6420926452
0.033785112 -0.1075583 0.667077 -0.2902578413 -0.6133415699 0.7345492244
-0.023975836 -0.095827155 0.69386381 0.6688063145 -0.5405220985 0.5104252696
0.045476776 -0.2061428 0.72489786 0.5322962999 -0.5246391892 0.6643902659
0.05087284 -0.10811342 0.67814291 -0.5655221343 -0.5381926894 0.6249266863
0.005157799 -0.22437029 0.72351557 -0.1708393991 -0.5750222206 0.8001021147
-0.03179827 -0.13783774 0.66464293 0.7397859097 -0.4571005106 0.4937367141
0.025859328 -0.090501808 0.68066669 -0.1399950683 -0.677752912 0.7218396068
-0.0019488301 -0.20072949 0.741 -0.2853808105 -0.5956833959 0.7508122921
0.044104572 -0.11630196 0.66556245 -0.4698167443 -0.5702850223 0.6738302708
