# .PCD v0.7 - Point Cloud Data file format
VERSION 0.7
FIELDS x y z normal_x normal_y normal_z
SIZE 4 4 4 4 4 4
TYPE F F F F F F
COUNT 1 1 1 1 1 1
WIDTH 206
HEIGHT 1
VIEWPOINT 0 0 0 1 0 0 0
POINTS 206
DATA ascii
-0.0079285735 -0.068867549 0.50813323 -0.5785973072 -0.5725924373 0.5808296204
-0.071804307 -0.088222422 0.62168759 -0.3496313095 -0.5904057622 0.7274468541
-0.08644361 -0.013380903 0.5523864 0.5030959845 -0.6140935421 0.6080982685
-0.015477506 -0.14303134 0.56570488 0.5547513366 -0.559005022 0.616250217
-0.11104298 -0.10631775 0.53900003 -0.967374742 -0.1876748651 0.1701888144
-0.014288053 -0.014043562 0.55304295 -0.5001761317 -0.6114839315 0.6131160259
-0.075077876 -0.062869802 0.4964577 0.4468031228 -0.5621471405 0.6959580183
-0.077764712 -0.15008095 0.565 -0.5219147205 -0.5373040438 0.662502408
-0.019705275 -0.099058509 0.60750008 0.3835111558 -0.6203425527 0.68417418
0.025611704 -0.037573952 0.52787513 0.3674502671 -0.6298419237 0.6843094826
-0.049593911 -0.02957435 0.51900005 -0.05310658738 -0.6851552129 0.7264585495
-0.09470775 -0.10525627 0.58414829 -0.7179602981 -0.4879346788 0.4964400828
-0.10146806 -0.052854817 0.53314286 0.6374080181 -0.5074845552 0.5798020363
-0.055194557 -0.12479141 0.59456885 -0.09176540375 -0.6808451414 0.7266560793
0.0016180344 -0.10833506 0.57300001 0.730576098 -0.4775237739 0.4880877435
-0.01132293 -0.041722413 0.53077781 -0.6177024841 -0.5225516558 0.587693274
-0.055077914 -0.0050736028 0.54413897 0.08548544347 -0.7417786717 0.6651741862
0.0072252229 -0.041205525 0.55690014 -0.1352821141 -0.5205047727 0.8430738449
-0.034704283 -0.052141335 0.50218523 -0.2685046196 -0.6696255207 0.6924644113
-0.045007553 -0.15223436 0.57142103 0.07246055454 -0.6519380212 0.7548021674
-0.10043269 -0.1243575 0.56066662 -0.8134618998 -0.3999738395 0.4222566187
0.0051959623 -0.12492617 0.54838097 0.7090412378 -0.4822222292 0.5145117044
0.02039565 -0.070251681 0.51700002 0.1839936376 -0.5905686021 0.7857321501
-0.078582272 -0.041410353 0.52071428 0.4842879176 -0.6046275496 0.6323691607
-0.043988679 -0.089396156 0.62559998 0.03037582338 -0.6259794235 0.7792477608
-0.097839862 -0.072249115 0.5132609 0.6381534934 -0.5132306814 0.5738940239
-0.024695935 -0.12591057 0.58575296 0.3686022162 -0.6476284266 0.6668656468
-0.092996806 -0.089128077 0.60399997 -0.6240476966 -0.53127563 0.5729839802
-0.078676455 -0.12943545 0.57900006 -0.5004951954 -0.5867839456 0.636544764
-0.065948568 -0.10757332 0.60773909 -0.3129497468 -0.6611978412 0.6818210483
-0.035788715 -0.01657724 0.5355441 -0.2225906104 -0.6848591566 0.6938453317
-0.041109528 -0.10944745 0.60900003 0.1560522318 -0.6796023846 0.7167902589
0.0052073998 -0.057281401 0.54000002 -0.439624697 -0.6140775681 0.6554684639
-0.10582104 -0.097762987 0.56672215 -0.8899090886 -0.3109687567 0.3337068558
-0.075183563 -0.024123544 0.53345966 0.3919433355 -0.627420783 0.6728473902
-0.0285092 -0.038616948 0.51825005 -0.3897336721 -0.6374352574 0.6646683216
-0.0098440899 -0.11035743 0.59100002 0.5630660057 -0.5744998455 0.5940594077
-0.054825477 -0.04555567 0.50535256 0.0735348016 -0.6779076457 0.7314600945
-0.095358752 -0.034952801 0.54175019 0.5958961248 -0.5352604985 0.5986685157
-0.04758459 -0.061731357 0.48900002 -0.001494713011 -0.6642437577 0.7475145459
0.015576916 -0.028575419 0.54496884 -0.07547964901 -0.8953021169 0.4390181303
0.0065509756 -0.082262605 0.52269047 -0.08345956355 -0.7848751545 0.6140077114
-0.056931436 -0.1392345 0.57880002 -0.07776525617 -0.6650509834 0.7427380085
0.032442581 -0.054750413 0.52349019 0.4524014592 -0.5637785792 0.6910040975
-0.10101174 -0.024028242 0.55778581 0.5717907548 -0.5596308112 0.5998905897
-0.003440096 -0.12553352 0.56507939 0.7090412378 -0.4822222292 0.5145117044
-0.0012317168 -0.063848235 0.5240401 -0.5173030496 -0.6501882076 0.5564646125
-0.034253094 -0.13843557 0.57722861 0.236552909 -0.6341629624 0.7361249924
-0.00049093331 -0.023073867 0.56 -0.3378282487 -0.5644290447 0.7531878352
-0.0752813 -0.11538072 0.59500003 -0.4337230921 -0.6201887727 0.6536437869
-0.058598589 -0.020462716 0.53050011 0.1660165638 -0.6916034222 0.7029389739
-0.017244231 -0.027362265 0.53732252 -0.5444359779 -0.5751254559 0.6105899811
-0.014849111 -0.054803804 0.51378495 -0.5977942944 -0.563067615 0.5706108809
-0.055622309 -0.099306166 0.61900002 -0.1225998849 -0.6433830261 0.7556636333
-0.08289592 -0.10215047 0.602 -0.5486034155 -0.5797180533 0.6024626493
-0.08601401 -0.05433305 0.51471704 0.6170700788 -0.5378903747 0.5743678808
-0.072470523 -0.048425935 0.50788236 0.4082876146 -0.6432168484 0.6477448344
-0.064221799 -0.036919087 0.51588714 0.2214707434 -0.6684454083 0.7100221515
-0.034607843 -0.11818383 0.59763163 0.2136889547 -0.6822299957 0.699213326
-0.04130853 -0.12960552 0.58900005 0.1676919907 -0.6831911206 0.710724473
-0.0050625107 -0.034948811 0.54366237 -0.4889611304 -0.5608490109 0.6681058407
-0.086377695 -0.13589984 0.56697392 -0.6547089219 -0.4989491999 0.567808032
-0.072720341 -0.0078118574 0.54768181 0.3399012685 -0.6991719604 0.6289878488
-0.034315679 -0.098397046 0.61748385 0.195487693 -0.6630674005 0.7225829959
-0.022377726 -0.061060984 0.50053841 -0.4529579282 -0.5698535442 0.6856355071
-0.029430576 -0.15014583 0.56900001 0.3164056838 -0.618842423 0.7189725637
-0.09189757 -0.12336526 0.57314634 -0.6712058783 -0.5263706446 0.5219354033
-0.026889618 -0.0082920976 0.5473333 -0.3688592911 -0.6806405187 0.6329860091
-0.10407739 -0.13158038 0.54822218 -0.8593159318 -0.3503300548 0.3726191223
-0.10622199 -0.10719924 0.55296671 -0.9127930999 -0.2924440801 0.2851056755
-0.012907763 -0.12644847 0.57611763 0.639402926 -0.5223032832 0.5642368197
-0.065121017 -0.1523286 0.57171792 -0.2269546241 -0.6358258128 0.7377107143
-0.089674234 -0.040887732 0.53000003 0.5969273448 -0.5317126513 0.6007989645
-0.1004397 -0.1104337 0.57000005 -0.8261384964 -0.4014587104 0.3953809142
-0.085879691 -0.023302291 0.54258937 0.5339815617 -0.5825265646 0.6128022075
0.021234181 -0.040056214 0.55050004 0.3039879203 -0.6495400667 0.6969139576
-0.066802859 -0.12749334 0.58769232 -0.3282256722 -0.6580708623 0.6776508093
-0.027175637 -0.028261615 0.52793115 -0.3987081051 -0.6343456507 0.66229707
-0.086471573 -0.1161003 0.58510303 -0.6224483848 -0.5454568863 0.5612795949
-0.054783583 -0.1147688 0.60476041 -0.09313388169 -0.6729349494 0.7338151336
-0.082697444 -0.092321604 0.6119355 -0.4924824536 -0.5735031366 0.6546412706
-0.034127288 -0.061510429 0.49336964 -0.2997754812 -0.6183207035 0.7265082002
-0.088869162 -0.070299029 0.50433332 0.5957505703 -0.539845705 0.5946829915
0.018274605 -0.058228392 0.514 0.1992831975 -0.4870806932 0.8503167629
-0.044522468 -0.041199688 0.51083344 -0.1217658147 -0.6842663884 0.7189942002
-0.10178927 -0.062724024 0.52568758 0.6583569646 -0.4985577762 0.5639204383
0.0044284998 -0.11590579 0.55656004 0.7200341821 -0.4759270847 0.5050190687
-0.0028155199 -0.1342133 0.55680954 0.6835837364 -0.5019983649 0.5298215747
-0.10134793 -0.095566608 0.58173335 -0.7643239498 -0.451343596 0.4605408013
-0.065155208 -0.056567624 0.49695233 0.2747216225 -0.6370758414 0.72018224
-0.055247158 -0.08890225 0.62690473 -0.1437682658 -0.6239622831 0.7681156993
0.023537623 -0.029658511 0.53700006 0.2568029165 -0.7168617249 0.6481986642
-0.026346836 -0.11166295 0.60103852 0.3603925705 -0.6536589861 0.6654676199
0.0041953186 -0.073043607 0.51705635 -0.2598614097 -0.7702441812 0.5824053288
0.024956319 -0.049197655 0.51757145 0.2957822084 -0.4937425554 0.8177598715
-0.0020397776 -0.053264365 0.53285718 -0.5985373259 -0.5828569531 0.5495733619
-0.094622254 -0.094815455 0.59519237 -0.6619825959 -0.5254427791 0.5344986916
-0.094817273 -0.055066183 0.52338547 0.6475578547 -0.5120198131 0.5643620491
-0.054950088 -0.056816958 0.49450526 0.07951137424 -0.6342301369 0.7690449357
-0.065347351 -0.11809534 0.5966 -0.2935489714 -0.6631789804 0.6884930134
-0.065770954 -0.098097183 0.61744171 -0.2798018157 -0.615306437 0.7369592786
-0.096248969 -0.13442515 0.55420649 -0.7357393503 -0.4593945146 0.4976386726
0.0036110932 -0.028931085 0.55276477 -0.2713351548 -0.6999964118 0.6605923772
-0.024490038 -0.13607889 0.57577926 0.3899929225 -0.61031425 0.6895085573
-0.04869445 -0.019477781 0.52900004 -0.01510936115 -0.697522521 0.7164035439
-0.071859546 -0.14457758 0.57099986 -0.3604071438 -0.568816781 0.7392930388
-0.045099825 -0.0054893382 0.54374558 -0.1102328002 -0.7428664565 0.6603015661
-0.055151172 -0.15231422 0.57129264 -0.07635370642 -0.6831162572 0.7263072729
-0.027771607 -0.047935996 0.50800002 -0.3945119679 -0.6358366013 0.6633793712
-0.067115761 -0.011746411 0.54052633 0.2468306869 -0.6991220713 0.6710461378
-0.044344287 -0.05147925 0.50083333 -0.1209478229 -0.685752511 0.7177152038
-0.072592571 -0.10129205 0.61099994 -0.4065059423 -0.6195940971 0.6714581847
-0.026534507 -0.017925533 0.53812498 -0.3829961717 -0.6467764974 0.659540832
0.00047617606 -0.042856585 0.5431667 -0.3948337734 -0.4884103537 0.7781783938
-0.0057346113 -0.054621249 0.52423537 -0.6504554749 -0.5458576083 0.5281544328
-0.082466222 -0.056675546 0.50627506 0.5549860597 -0.5642917156 0.6111999154
-0.064732268 -0.026066165 0.52630311 0.2326007783 -0.67098248 0.7040449977
-0.034140944 -0.042397495 0.51176924 -0.2835420072 -0.6667041779 0.6892818809
-0.10158536 -0.041585267 0.5431667 0.6207182407 -0.5193483829 0.5873551965
-0.0039908299 -0.11553894 0.57400012 0.7055066228 -0.4962399304 0.5059707165
-0.054756083 -0.035638049 0.51448816 0.07077196985 -0.6617132425 0.7464093566
-0.033731069 -0.031981088 0.52161771 -0.3011413217 -0.6569887996 0.6911436915
-0.035467152 -0.0065274993 0.54547125 -0.255409807 -0.7121440768 0.6539240479
-0.02721023 -0.10225321 0.61114299 0.3047976792 -0.6420804262 0.7034423351
-0.0070902207 -0.058485094 0.51629627 -0.5743215084 -0.60433954 0.5522033572
-0.0069269179 -0.017578017 0.55662853 -0.4911909103 -0.5711106658 0.6576960683
-0.043096252 -0.098908745 0.61877775 0.103930518 -0.6505362988 0.7523303628
-0.017974023 -0.037097048 0.52715379 -0.5313407183 -0.5844404697 0.6132751703
-0.014859086 -0.064538404 0.50370324 -0.5534287095 -0.5668876171 0.6102090478
-0.019137634 -0.12051537 0.59000003 0.4467229843 -0.6238844395 0.641254127
-0.071488529 -0.11159939 0.60200006 -0.3975057006 -0.646987021 0.6506896615
-0.10441016 -0.11518966 0.5561111 -0.8999508619 -0.3040082455 0.3125178516
-0.10825519 -0.099673495 0.54400003 -0.9771271944 -0.1458000839 0.1548058093
-0.091565169 -0.10289851 0.59373081 -0.6621423364 -0.5333063602 0.5264521837
-0.017766068 -0.047457647 0.51756006 -0.541233182 -0.5933116674 0.5958589315
-0.093474716 -0.016786629 0.55632663 0.5407612324 -0.5809009075 0.6083843112
-0.073759086 -0.15307645 0.572613 -0.3357482255 -0.5721645951 0.7482651472
-0.082820892 -0.03631508 0.52720743 0.5333110094 -0.5717976093 0.6233994365
-0.065471254 -0.13810594 0.57766658 -0.2830053866 -0.6110864878 0.7392437458
-0.078733727 -0.11938709 0.58700001 -0.4993578792 -0.5996652842 0.6253345013
-0.064319856 -0.046735961 0.50581604 0.2170426995 -0.6754415631 0.7047489882
-0.0046220408 -0.10715795 0.58502626 0.6495701671 -0.518802762 0.5557897687
-0.10169382 -0.12370194 0.5522334 -0.8704839945 -0.3401253521 0.3557701707
-0.048745122 -0.14094205 0.58039999 0.04562848434 -0.6617503166 0.748334527
-0.059582651 -0.13108183 0.59100002 -0.2218322903 -0.6648531556 0.7132746577
-0.055020906 -0.025242718 0.52451825 0.07957297564 -0.68659091 0.7226763368
0.031939052 -0.046413906 0.52272427 0.4971292913 -0.5641333461 0.6592541337
0.0015556449 -0.060803115 0.53216672 -0.4262763262 -0.6632300615 0.6151539683
0.029278036 -0.061747663 0.52020007 0.2906196415 -0.45822981 0.839979589
-0.095956087 -0.11545111 0.57494193 -0.7341368198 -0.4588663578 0.5004845858
-0.016525822 -0.13357262 0.57370144 0.5367906094 -0.5759443045 0.6165581942
-0.083244793 -0.14388289 0.56592065 -0.5822741985 -0.5158699155 0.6283589602
-0.045104507 -0.11472237 0.60399014 0.08428635448 -0.6940786242 0.7149480581
-0.075263411 -0.03433229 0.52339423 0.4163417518 -0.6241830587 0.6611014009
-0.014357105 -0.034377191 0.53412509 -0.5700135827 -0.552175045 0.6084301472
-0.083454169 -0.027091518 0.53569567 0.5187258124 -0.5842975974 0.6241152883
-0.088491894 -0.061033826 0.51066667 0.6248565316 -0.5301803946 0.5731169581
-0.035324022 -0.13381483 0.58389878 0.2025612444 -0.6526220441 0.7301051021
-0.045044366 -0.12472115 0.59435719 0.09017884731 -0.6829323769 0.724893868
-0.078325227 -0.10876332 0.598625 -0.4891866148 -0.6097484231 0.6236211061
-0.045241278 -0.02554482 0.52455646 -0.1042279601 -0.6783081889 0.7273475528
-0.045007173 -0.015294143 0.53483349 -0.1084103808 -0.7135249972 0.6921916008
0.0033664003 -0.035881966 0.546 -0.2950109541 -0.5195764303 0.8018783331
-0.0094943 -0.1304217 0.57000005 0.6726083755 -0.4958612025 0.5492901206
-0.072519667 -0.1220806 0.59152633 -0.3913299441 -0.6365843415 0.6645458937
0.014931888 -0.036314964 0.55378497 0.09110426903 -0.6166246533 0.7819680572
-0.0081885923 -0.14175121 0.56260002 0.6392170191 -0.5418339968 0.5457266569
-0.010453082 -0.021067178 0.55033332 -0.4898506105 -0.5730418563 0.6570155025
-0.082830071 -0.047230728 0.51659465 0.5411130786 -0.5855715275 0.603574872
-0.058701597 -0.0108882 0.54000002 0.1437215805 -0.7261505127 0.6723462939
-0.075631306 -0.13597919 0.57555652 -0.4358619452 -0.5439587831 0.7170308232
-0.078267172 -0.021037871 0.54014289 0.4518772364 -0.6233949065 0.6381110549
-0.075179353 -0.095167786 0.61536783 -0.4161071181 -0.6006506085 0.6826958656
-0.083020039 -0.11362005 0.59182352 -0.5359942913 -0.5835468173 0.610068202
-0.012889259 -0.11686841 0.586775 0.5634359717 -0.5806287527 0.587716043
-0.024613 -0.044772059 0.51453388 -0.4514584541 -0.6194269061 0.6422581673
-0.024860056 -0.054509483 0.50421631 -0.4392081797 -0.5972789526 0.6710841656
-0.049614951 -0.0099229896 0.53900003 -0.01327688992 -0.7340453863 0.6789706349
-0.008130582 -0.028000269 0.54585713 -0.5432907343 -0.5571514368 0.6280266643
-0.04511204 -0.13543504 0.58525026 0.07080304623 -0.6588551402 0.7489304543
-0.098583736 -0.11754736 0.56714284 -0.8083485961 -0.4134595692 0.419074893
-0.075671613 -0.013927129 0.54367107 0.3927900791 -0.6674467325 0.6326379776
-0.064494275 -0.0058403364 0.54502076 0.2243641317 -0.7195878625 0.6571560502
-0.035352334 -0.1448151 0.57278174 0.2267340422 -0.6248266101 0.7471167445
0.01426996 -0.07352706 0.52065217 0.07477325201 -0.7576024532 0.6484192014
-0.022620954 -0.14549951 0.56774086 0.456028223 -0.5969547629 0.6600630879
-0.088734947 -0.10920737 0.588 -0.6579872966 -0.5251634121 0.5396814942
-0.054872636 -0.13454099 0.58468378 -0.09211939573 -0.6732661128 0.7336393595
-0.011487083 -0.062609665 0.51113641 -0.6238383055 -0.5524946451 0.552788794
-0.017737703 -0.10456033 0.60234159 0.3938689828 -0.633730948 0.6657719612
-0.054798707 -0.052084919 0.50110894 0.07907467335 -0.6740863323 0.7344077826
-0.0022114734 -0.072285846 0.51215631 -0.4393287301 -0.6786943674 0.588527143
-0.045053005 -0.10500262 0.61400974 0.06461700797 -0.6821328998 0.7283675671
-0.01687861 -0.017312435 0.54650003 -0.4903458655 -0.6180264354 0.6144950986
-0.017982529 -0.058073752 0.50653565 -0.54602319 -0.5723326206 0.6117957234
-0.077415369 -0.13954736 0.56849998 -0.4630288482 -0.5370207429 0.7051333189
-0.035108302 -0.026576506 0.52693689 -0.2787222564 -0.6560960412 0.7013215423
-0.019830199 -0.13067593 0.58000004 0.4494048059 -0.6094990969 0.6531050205
-0.024394477 -0.024059521 0.53403217 -0.4201067686 -0.6207228303 0.6619769335
-0.094999321 -0.065254986 0.51456946 0.6453128457 -0.5063189268 0.5720248818
-0.054949153 -0.014951885 0.53435987 0.08778303862 -0.7129055262 0.6957440972
-0.0073408457 -0.13420664 0.56344652 0.6616657376 -0.5117698908 0.5479872823
-0.075385287 -0.054330058 0.50401789 0.4352338016 -0.6093165874 0.6628007293
-0.058194011 -0.10944745 0.60900003 -0.1509167701 -0.6895494461 0.7083401084
-0.092562929 -0.13330112 0.56343585 -0.6958680749 -0.4930855334 0.52214396
-0.085969046 -0.043771006 0.52405787 0.6039837599 -0.5383428931 0.5876994133
