# .PCD v0.7 - Point Cloud Data file format
VERSION 0.7
FIELDS x y z normal_x normal_y normal_z
SIZE 4 4 4 4 4 4
TYPE F F F F F F
COUNT 1 1 1 1 1 1
WIDTH 206
HEIGHT 1
VIEWPOINT 0 0 0 1 0 0 0
POINTS 206
DATA ascii
-0.02553143 -0.15623714 0.69579601 -0.1322901547 -0.6827444434 0.7185814977
0.060728744 -0.067926176 0.63166672 0.5083825588 -0.589884758 0.6273620725
-0.054966509 -0.045545202 0.65517306 0.5950795412 -0.5945482254 0.5407335758
-0.085345343 -0.13132581 0.61849999 -0.9590657949 0.2638717592 0.1027838513
0.040688735 -0.1546963 0.64166671 0.7936627269 -0.4283308089 0.4320094287
-0.015100301 -0.092377111 0.59319997 -0.114449203 -0.6973922253 0.7074923515
0.0084722321 -0.042275999 0.65042865 -0.4080185592 -0.6640914679 0.6265009046
-0.073216572 -0.1291707 0.67900002 -0.7401348948 -0.4682512283 0.4826397896
0.022017719 -0.13511275 0.69260013 0.6381736994 -0.5617289543 0.5264930725
-0.016918253 -0.12225775 0.73272222 -0.03805641085 -0.6627500653 0.7478730083
-0.064046033 -0.085746504 0.6247322 0.6604437232 -0.5126937032 0.5485975146
-0.062262043 -0.17437957 0.66160887 -0.6451637149 -0.4838516116 0.5913133025
0.032636922 -0.11201984 0.61900002 -0.2128061205 -0.8296103477 0.5161978602
0.0069974475 -0.1780044 0.66747999 0.4641040862 -0.5830013156 0.6668709517
-0.024591353 -0.057901703 0.62673187 0.07302486151 -0.6961579323 0.7141648531
0.014830125 -0.075038455 0.62497181 -0.5713672638 -0.5641638041 0.5960357785
-0.050417099 -0.13008857 0.71000004 -0.4872776866 -0.5914126635 0.6424885392
0.038087424 -0.073382825 0.66100007 -0.4144107699 -0.4125677645 0.8112037778
-0.026229866 -0.18658973 0.68000001 -0.08811640739 -0.650729537 0.7541793585
-0.054166168 -0.15350047 0.68258166 -0.5614262819 -0.5722923875 0.5977306962
-0.071853355 -0.070936009 0.6536001 0.693164289 -0.5197279453 0.4994058013
-0.076952927 -0.14715514 0.64245456 -0.9244408607 -0.2291304767 0.3048086166
-0.047332734 -0.092028797 0.60085714 0.4323484302 -0.5895960927 0.6822398901
0.035349127 -0.13836536 0.66540003 0.7929762602 -0.4323054254 0.4293024838
-0.024904573 -0.037182707 0.64688557 0.07801091671 -0.7772933841 0.6242830753
-0.0061851172 -0.14091685 0.71020007 0.2380784303 -0.6794449687 0.6940268278
0.057397075 -0.094032653 0.62116003 0.5040353537 -0.624591589 0.5965179801
0.014466087 -0.095192321 0.60540009 -0.5617920756 -0.5039165616 0.6560928226
0.005947283 -0.15742762 0.6859737 0.422926724 -0.6377142668 0.6437806487
0.036743205 -0.091832712 0.64213341 -0.5746612549 -0.6701664925 0.4697246552
-0.054465175 -0.065184429 0.63342857 0.5372467041 -0.5990206003 0.5937510729
-0.03560688 -0.074021235 0.61257577 0.2517409921 -0.6702631712 0.6981216073
0.026844431 -0.16528302 0.65780574 0.7477852106 -0.4314986467 0.5046049953
-0.0046638427 -0.074387632 0.61322665 -0.2563971579 -0.6842381954 0.6826995015
-0.072320625 -0.10564134 0.61743486 0.7147199512 -0.4357665777 0.5470674634
0.024397904 -0.065352723 0.64508688 -0.5999990106 -0.4836204946 0.6372694969
0.046438787 -0.059464298 0.64600003 0.2927588224 -0.4668319821 0.8344819546
-0.039465781 -0.16916804 0.67866677 -0.3879291415 -0.5598344803 0.7321860194
-0.0045008231 -0.053562585 0.63309258 -0.2567723691 -0.6704371572 0.6961192489
-0.03788811 -0.11906285 0.72337508 -0.3381669223 -0.5598278642 0.7564627528
-0.069475956 -0.14655925 0.66757149 -0.7462615371 -0.4420196712 0.4977070987
-0.0089551499 -0.17074397 0.68099999 0.233438924 -0.6440368891 0.7285072207
0.01059627 -0.12902518 0.71100003 0.4011161327 -0.5934859514 0.6977680326
-0.025166148 -0.13658121 0.71516347 -0.1453284919 -0.6808935404 0.7178186178
0.027369112 -0.093623124 0.62185723 -0.5690191984 -0.5953706503 0.5672309399
0.022303589 -0.15362927 0.67245156 0.7086421847 -0.4873802662 0.5101830363
-0.074325554 -0.086680703 0.64066672 0.7165467143 -0.4970939457 0.4893448651
-0.071785741 -0.055812802 0.66437501 0.6513754129 -0.5588715672 0.5131984949
-0.072627984 -0.16164318 0.65306669 -0.8161708117 -0.3761095107 0.438642025
-0.065165743 -0.12745664 0.69522589 -0.6482642293 -0.5312752724 0.545435667
-0.045693148 -0.14532654 0.69621295 -0.4301063716 -0.6301323771 0.6464841366
-0.047136545 -0.18193077 0.66761547 -0.4498172402 -0.5273489356 0.7208103538
-0.046509694 -0.051767584 0.64104003 0.4318636954 -0.6522606015 0.6229364872
-0.077824496 -0.13578255 0.65759999 -0.8870492578 -0.2981192172 0.3525175154
-0.061101329 -0.0592089 0.64733332 0.6423742771 -0.5633862615 0.5195683241
-0.025225867 -0.08282423 0.60179645 0.09037314355 -0.7010468841 0.7073654532
-0.061915375 -0.10131295 0.60569996 0.5777102709 -0.5528101921 0.6005428433
-0.051433448 -0.078620829 0.61755556 0.5189951658 -0.58902812 0.6194270849
-0.005700246 -0.12653917 0.72204536 0.214455843 -0.6372056603 0.7402551174
0.012681246 -0.058150701 0.63720006 -0.5070674419 -0.5889050364 0.6293436885
-0.040395923 -0.039258011 0.64900005 0.34411484 -0.6957765222 0.6304601431
-0.060498767 -0.1603511 0.67000002 -0.6622658372 -0.481639117 0.5739579201
0.022119053 -0.04702903 0.65624136 -0.4930419922 -0.5707060099 0.6566613913
-0.0062085539 -0.037829921 0.64837039 -0.1916347295 -0.7545184493 0.6276767254
-0.040253904 -0.059002295 0.62900001 0.3622050583 -0.6671925783 0.6508928537
0.00157537 -0.089796089 0.59900004 -0.3514293134 -0.5958072543 0.7221572995
0.033157069 -0.059392631 0.65775007 -0.4266040027 -0.4569665194 0.7805066705
-0.0038754509 -0.14964682 0.69800001 0.2617934942 -0.6968343854 0.6677469611
0.0304028 -0.13413 0.68000001 0.7368909717 -0.4935434461 0.4619594812
-0.060120922 -0.11900224 0.70700002 -0.5658811331 -0.5472423434 0.6166881919
-0.024825448 -0.17134352 0.68123811 -0.0747127831 -0.6394820809 0.7651670575
-0.083222993 -0.13932614 0.63150007 -0.9388202429 0.1760004312 0.2960412204
-0.014743754 -0.18162698 0.67253119 0.09148739278 -0.666983366 0.7394344211
0.011420513 -0.1411009 0.70039999 0.484321475 -0.6365116239 0.6002380252
-0.033182479 -0.048461761 0.63694745 0.21767506 -0.6923720241 0.6879233718
-0.0046162475 -0.063791208 0.62282526 -0.2476862818 -0.6756529212 0.6943663359
0.043942139 -0.1033373 0.61945117 0.1289728731 -0.841801703 0.5241525769
-0.034340069 -0.14466928 0.70445472 -0.3019089103 -0.6770184636 0.6711907387
-0.035792716 -0.093137637 0.59298217 0.2882339358 -0.6337973475 0.7177897096
0.017351294 -0.14693654 0.68676484 0.6133144498 -0.5803173184 0.5357958674
0.014630281 -0.084888041 0.61482674 -0.5620858073 -0.5671626329 0.6019851565
-0.064048514 -0.07528726 0.63439608 0.6576051116 -0.5354062915 0.5299959183
0.026649039 -0.083823361 0.63160986 -0.6924588084 -0.5266661644 0.4930756092
0.030735496 -0.15077746 0.66150004 0.7979754806 -0.4228277802 0.4294785559
0.013684477 -0.16404538 0.67433333 0.5845543742 -0.533141613 0.6116013527
-0.0063903155 -0.16080521 0.69044447 0.2370787263 -0.6842496395 0.6896348
0.032192327 -0.076243512 0.64664286 -0.5558078289 -0.404527992 0.7262470126
-0.036603589 -0.15959515 0.68771428 -0.3021048903 -0.6554222107 0.6922097802
-0.025257517 -0.067385651 0.61677533 0.06960669905 -0.6975386739 0.7131582499
0.047753494 -0.089221872 0.61433339 0.1104446724 -0.4306400418 0.8957405686
-0.014827718 -0.047019463 0.63660765 -0.1001447886 -0.7110100985 0.6960141659
-0.062942117 -0.14433104 0.6824584 -0.681951642 -0.5093894601 0.5248469114
-0.056437448 -0.1364091 0.69636357 -0.5995863676 -0.5474362373 0.5837891102
-0.015249859 -0.077483885 0.60713792 -0.08783809096 -0.6949383616 0.7136842012
-0.025738921 -0.12616673 0.72555006 -0.1095672175 -0.6461715102 0.7552863359
-0.072022282 -0.096264817 0.62490004 0.6673703194 -0.5097654462 0.5429143906
0.051742356 -0.067655787 0.65290004 0.4203772545 -0.4358176291 0.795830369
-0.034066465 -0.18239743 0.6722703 -0.2305941284 -0.629285872 0.7421762943
-0.015102738 -0.15177922 0.70070839 0.0607723631 -0.711085856 0.700473845
0.01906487 -0.17389472 0.65900004 0.6697164774 -0.4992700219 0.5497356653
0.027170094 -0.10354591 0.61380434 -0.4175808728 -0.6410096884 0.64399755
-0.015919741 -0.13101977 0.72060013 0.04672867432 -0.6668724418 0.7437052727
-0.058459055 -0.092014939 0.61083341 0.5834183693 -0.552226305 0.5955410004
0.037872698 -0.13830082 0.65460002 0.8048474193 -0.4136341512 0.4255906343
-0.038449723 -0.12921628 0.71900004 -0.3736020625 -0.6223427653 0.687830627
0.034083486 -0.16076665 0.648 0.7726505995 -0.4420206845 0.455662936
-0.070462085 -0.072716288 0.64300007 0.6915376186 -0.5158711672 0.5056210756
-0.022450093 -0.095458999 0.58599997 0.01763001271 -0.6992635727 0.7146465182
0.057566199 -0.075412698 0.62507313 0.519156754 -0.5903758407 0.6180070043
-0.035596605 -0.083458431 0.60289836 0.2381796092 -0.6743001938 0.6989919543
0.061953649 -0.084977329 0.62279397 0.521225512 -0.6458179355 0.5578916669
-0.015056773 -0.068239279 0.61702627 -0.0671992451 -0.7001643777 0.7108122706
-0.0095284898 -0.11751664 0.72460002 0.1063665077 -0.6421498656 0.7591637969
-0.06868811 -0.13764878 0.676 -0.7511762381 -0.463943094 0.4695647955
-0.081045419 -0.15839373 0.64875007 -0.8707509637 -0.3380214572 0.3571193218
-0.014832515 -0.057350036 0.62666017 -0.06436862797 -0.6955828071 0.7155565619
0.0064213555 -0.07155586 0.62143481 -0.422529012 -0.6260341406 0.655401051
-0.0045651859 -0.083742328 0.60340852 -0.2537999451 -0.667452395 0.700066328
0.036150098 -0.097775996 0.61814296 -0.118860051 -0.7284400463 0.6747202277
0.0067943661 -0.05143144 0.64086366 -0.4107203782 -0.6377910376 0.6515607238
0.017154099 -0.16697332 0.66541392 0.6477469802 -0.4883838594 0.5847265124
-0.067583032 -0.062363196 0.65427268 0.6629708409 -0.5469892621 0.5111480951
-0.07411883 -0.064951926 0.66288465 0.6753581762 -0.5328951478 0.5098177195
0.0055547552 -0.14717004 0.69594455 0.4252828062 -0.6589071751 0.6204642057
0.025974365 -0.14519587 0.67497617 0.7439945936 -0.4909332097 0.4532732368
-0.005270591 -0.18212226 0.67208123 0.287899375 -0.6705531478 0.6837195754
-0.015679546 -0.16114216 0.69233328 0.07250338048 -0.7033993602 0.7070873976
0.0064744465 -0.061733373 0.6310001 -0.4232571125 -0.6297778487 0.6513319016
-0.02520369 -0.14684005 0.70534003 -0.1323693693 -0.7027042508 0.699060142
-0.044359468 -0.17396379 0.67182338 -0.4677977264 -0.5146725178 0.7185245752
-0.046021201 -0.15664007 0.68603653 -0.42864272 -0.6124417186 0.6642142534
-0.066322327 -0.13624072 0.68571806 -0.6995134354 -0.5020587444 0.5085449219
0.035447583 -0.14917228 0.64700001 0.7936627269 -0.4283308089 0.4320094287
0.024896741 -0.055038739 0.6525349 -0.5229564905 -0.529509306 0.6679344773
-0.035677582 -0.063613757 0.62244821 0.2445647269 -0.679764092 0.6914541721
-0.015244583 -0.036726791 0.64712757 -0.06959297508 -0.7721014619 0.6316772699
-0.015302704 -0.14173029 0.71081489 0.05959287286 -0.7003669739 0.7112909555
0.02376944 -0.075541601 0.63426083 -0.685564816 -0.4956097305 0.5332653522
-0.046136174 -0.13657597 0.70522463 -0.4737869203 -0.6116719842 0.6335482597
0.015628574 -0.054345757 0.64485699 -0.5336255431 -0.579544425 0.6159318686
0.0065695643 -0.13748676 0.70708007 0.4022393525 -0.650839448 0.6439033151
0.0055824532 -0.16676933 0.67699999 0.4413751066 -0.6123201847 0.6559360027
-0.053859949 -0.14443797 0.69280422 -0.5584312677 -0.581230402 0.5918831825
0.0068422724 -0.081845932 0.61187506 -0.4496744275 -0.6172453761 0.6456013322
0.023182796 -0.086081214 0.62384617 -0.6364680529 -0.5504353642 0.5403048992
-0.066224657 -0.15560167 0.66539025 -0.7434337139 -0.3961205482 0.5388829708
-0.056519572 -0.16675222 0.66558689 -0.6255674362 -0.4818771482 0.6135632396
-0.040666375 -0.069403507 0.61849999 0.3658474386 -0.6462123394 0.669750154
-0.051260568 -0.048135459 0.64787507 0.5111854672 -0.6456891894 0.5672520995
-0.047132224 -0.081940867 0.61091661 0.4444480538 -0.613368392 0.6528745294
-0.025003865 -0.092659041 0.59369642 0.09544273466 -0.6874682903 0.7199152708
0.021286743 -0.067719474 0.63745457 -0.6359903812 -0.5140761733 0.5755361915
-0.044328295 -0.065452553 0.6251877 0.399123013 -0.6448901892 0.6517802477
0.021241983 -0.098950423 0.60880005 -0.5731575489 -0.5310681462 0.6240649819
0.010686566 -0.15102337 0.69000006 0.5089498758 -0.6235511303 0.5934256911
-0.069361866 -0.12847024 0.68800002 -0.7113344669 -0.4780837595 0.5152078867
-0.053555872 -0.16364162 0.67333955 -0.5712329745 -0.5145282745 0.6394947767
-0.067462087 -0.082711145 0.63168186 0.6811962128 -0.5159806013 0.5193608999
-0.054713763 -0.055054132 0.64399999 0.568549633 -0.598005414 0.5649254322
0.010776132 -0.17124647 0.67050004 0.4937606454 -0.579492867 0.648373723
-0.037048437 -0.14848737 0.69763166 -0.3420099914 -0.6458046436 0.6826166511
-0.051270217 -0.08859694 0.60828578 0.5008407235 -0.5915316939 0.6318613887
0.020251 -0.13193834 0.70000005 0.5812975764 -0.5777435303 0.5729795098
-0.035057876 -0.13462478 0.71390748 -0.3201969266 -0.6642636061 0.6754463911
-0.047838077 -0.041597564 0.65138465 0.4756258428 -0.6609684229 0.5804315805
0.0037074569 -0.12790166 0.7151922 0.3459722102 -0.6204940677 0.7037686706
0.029736534 -0.080232531 0.64000005 -0.7128381133 -0.4702321887 0.5203301907
-0.072329879 -0.15120856 0.66157144 -0.8174307942 -0.364867568 0.445733726
-0.054878425 -0.17465915 0.66511297 -0.5811544657 -0.4983221889 0.6433774233
0.028007623 -0.063166797 0.65195245 -0.4473472834 -0.4747946858 0.7579250932
-0.04556426 -0.12657185 0.71535403 -0.4680920839 -0.5954253078 0.6529613137
-0.0045870803 -0.17495267 0.6756438 0.3233548701 -0.6345698237 0.7019706368
-0.06049877 -0.088310145 0.61800003 0.6351642013 -0.5329075456 0.5590850115
0.03195646 -0.15494463 0.65305877 0.7847197652 -0.4329311848 0.4436050951
-0.043542709 -0.16313273 0.68208897 -0.4228196442 -0.5934785008 0.6848407388
-0.063862421 -0.055330548 0.6549111 0.6370854378 -0.574804008 0.5135391951
-0.039037965 -0.080749765 0.61000001 0.3426212072 -0.6531105042 0.6753202081
-0.014850439 -0.16604793 0.68611282 0.1050963774 -0.6814907193 0.7242410779
0.018685399 -0.091886058 0.61142862 -0.615495801 -0.5235537887 0.5891149044
-0.044100303 -0.075784534 0.61488301 0.4010686278 -0.6346129775 0.6606135964
-0.057788406 -0.051823959 0.65122229 0.6174152493 -0.5831519365 0.5279509425
-0.076810904 -0.14354764 0.65877777 -0.8728145361 -0.3158244789 0.3720882237
-0.063147999 -0.16331325 0.66297144 -0.6902487278 -0.4561954141 0.5616425872
0.020557834 -0.16093847 0.67000002 0.6856546998 -0.487059325 0.5409721136
-0.053324491 -0.13299078 0.70325017 -0.5424366593 -0.5767887235 0.6108005047
0.011293395 -0.088314697 0.60760003 -0.5098063946 -0.5729842186 0.6417059302
-0.025349619 -0.047908787 0.63630563 0.09037240595 -0.7099767327 0.6984023452
0.014241803 -0.13446355 0.70435101 0.4793405831 -0.6250098348 0.6161130667
-0.054409709 -0.095017083 0.60484028 0.5586134791 -0.5662357807 0.6060758829
-0.051589787 -0.059038531 0.63733333 0.5061175823 -0.6171963215 0.6024231911
-0.05489143 -0.074966319 0.6235522 0.5460780859 -0.5763484836 0.6079647541
-0.056521591 -0.12591778 0.70648903 -0.5658811331 -0.5472423434 0.6166881919
0.0041661933 -0.086017221 0.60537517 -0.418394655 -0.6023229361 0.6798183918
-0.070582181 -0.089330584 0.62900001 0.6748411655 -0.5077238679 0.5355426073
-0.035183471 -0.15509315 0.69389862 -0.2970831692 -0.6520755887 0.6975234747
-0.044526443 -0.05615966 0.63496602 0.4160707891 -0.6516506672 0.6342211366
-0.0045371959 -0.043568958 0.6434443 -0.2489669323 -0.7018461227 0.6674035788
0.012113725 -0.068479888 0.62806255 -0.51701653 -0.5858402848 0.6240873933
-0.047635067 -0.071808003 0.62078953 0.4610466659 -0.6115016341 0.6430409551
0.015186941 -0.044844933 0.65366668 -0.4709402621 -0.6114332676 0.6358967423
-0.062736556 -0.15378138 0.67335713 -0.7050691247 -0.4654996395 0.5349650383
-0.050206698 -0.1506201 0.69000006 -0.4887810051 -0.5973175764 0.6358496547
0.018914521 -0.060860682 0.64083338 -0.6029196978 -0.5285445452 0.5976023078
-0.035676852 -0.044164639 0.64283079 0.2758626938 -0.6978336573 0.6610053182
0.016810579 -0.15710384 0.67654055 0.6370674968 -0.5200978518 0.5688964725
-0.014598814 -0.082720146 0.60164011 -0.1232761368 -0.6950592995 0.7083047032
