# .PCD v0.7 - Point Cloud Data file format
VERSION 0.7
FIELDS x y z normal_x normal_y normal_z
SIZE 4 4 4 4 4 4
TYPE F F F F F F
COUNT 1 1 1 1 1 1
WIDTH 206
HEIGHT 1
VIEWPOINT 0 0 0 1 0 0 0
POINTS 206
DATA ascii
-0.0030203075 -0.17489752 0.72686958 -0.8117308021 -0.3068549633 0.4969236553
-0.29257172 0.23011799 0.54800004 -0.4725441337 -0.7145184278 -0.5159122348
0.12062688 -0.095058888 0.66280007 -0.8377720118 0.3331752419 -0.4325878918
0.10294051 -0.19296934 0.70446169 0.8111897111 -0.3682720065 0.454254359
0.016260156 -0.076042235 0.70497578 -0.5939799547 0.6009989381 -0.5347785354
0.039235801 -0.13183869 0.63633341 -0.1721320152 0.6724810004 -0.7198193669
0.063370727 -0.15977512 0.76900005 0.2356287241 -0.6041475534 0.7612390518
0.044986892 -0.21274154 0.73314983 0.01248674281 -0.6043727398 0.7966038585
-0.005797863 -0.1345567 0.68366665 -0.7786849737 0.4322551787 -0.4547583759
0.075251497 -0.074733548 0.69390017 0.2713052034 0.6147099733 -0.740624845
0.091858007 -0.1417733 0.65900004 0.5975276232 0.3381964266 -0.7270377278
-0.31108558 0.20704676 0.58749998 -0.4906930625 -0.7075579762 -0.5085096359
0.1101707 -0.1027015 0.71000004 0.6846078634 0.3204022348 -0.6547170877
0.032226946 -0.1020438 0.67111111 -0.3252983987 0.6012064815 -0.7298847437
0.019347157 -0.1647844 0.76100004 -0.443004787 -0.5589870214 0.7009138465
0.078360096 -0.18900821 0.73871428 0.5483623147 -0.5306395292 0.646312952
0.073559061 -0.10656182 0.6669749 0.3553052247 0.5821956396 -0.7313045859
-0.0066376301 -0.10470247 0.71416014 -0.7892997265 0.4120582938 -0.4552075565
0.0094943 -0.21077345 0.72200006 -0.602186501 -0.3848256767 0.6994859576
0.045000665 -0.18434356 0.75314057 -0.0377471894 -0.6034659743 0.7964948416
0.0097616836 -0.14068308 0.65500003 -0.6064445972 0.4864538312 -0.62895751
0.099993475 -0.12035143 0.68300003 0.71666646 0.4760627449 -0.5096600652
-0.012673258 -0.17738216 0.69681251 -0.9502046108 0.01279885694 0.3113636672
0.09808103 -0.16813986 0.72650003 0.7668385506 -0.4388001561 0.4684154987
0.044479385 -0.07320679 0.69105279 -0.158938542 0.7258910537 -0.6691940427
0.0078181131 -0.10662787 0.68609524 -0.7096704841 0.4738567173 -0.5213709474
0.10493736 -0.087187149 0.68620688 -0.7335458994 -0.3567384481 -0.5784877539
0.11173517 -0.12075206 0.65457147 -0.5279737115 0.1608176827 -0.8338953257
0.064094551 -0.12689145 0.64723402 0.2609267235 0.6592055559 -0.7052412629
-0.29607847 0.22524008 0.57504082 -0.4725441337 -0.7145184278 -0.5159122348
0.016877431 -0.18339078 0.74239284 -0.5363795161 -0.5077158809 0.6741821766
0.073994823 -0.21181843 0.72612506 0.4521339238 -0.5662727952 0.6891371608
0.083557144 -0.16554162 0.75356406 0.5171710253 -0.49913311 0.6952699423
0.062873401 -0.088553339 0.67847061 0.2072799355 0.6069601774 -0.7672250867
0.020757888 -0.12095143 0.66140002 -0.5011005402 0.5706489086 -0.65058285
0.04530295 -0.11549433 0.65500015 -0.07446981966 0.6530884504 -0.7536111474
0.039591581 -0.16276589 0.77200001 -0.07867083699 -0.6047572494 0.7925146818
0.025997419 -0.086448297 0.68634051 -0.4283517003 0.6094905138 -0.6671102643
-0.0042725322 -0.19329791 0.71433342 -0.8360549808 -0.3381296098 0.4320652783
0.08511848 -0.095295958 0.68371409 0.3455330729 0.4737964869 -0.8100146651
0.11000326 -0.17330122 0.70100003 0.8225504756 -0.3509526551 0.4474851191
0.065214567 -0.17560528 0.75495404 0.2877462506 -0.5780894756 0.763553977
0.079357617 -0.14014217 0.64200002 0.3552099168 0.5450159907 -0.7594626546
0.088875592 -0.19918218 0.71900004 0.6805869937 -0.4395308197 0.5861859918
0.095861875 -0.082541421 0.70414299 -0.06327464432 -0.3939529359 -0.916950047
0.10534173 -0.13893968 0.67633337 0.9822781086 0.1183933169 -0.1453022659
0.025091546 -0.2044491 0.73303854 -0.3769513965 -0.4687590897 0.7988570333
0.085871115 -0.12337223 0.66309524 0.4211156666 0.5877919197 -0.6907693148
-0.0077322 -0.1240834 0.70000005 -0.8073206544 0.40870139 -0.4256718457
0.008035264 -0.16729888 0.74489999 -0.6134665012 -0.4606376588 0.6414606571
0.0043386449 -0.094676808 0.7031709 -0.7570456862 0.4500930011 -0.4736012518
0.024912035 -0.13316415 0.64779496 -0.4031832218 0.5991004109 -0.6917527914
0.05276956 -0.099101394 0.66758341 0.02480320446 0.6248232722 -0.7803721428
0.0049387356 -0.12495943 0.6728462 -0.71921134 0.475600332 -0.5064971447
0.097818136 -0.10410859 0.69180954 0.682194829 0.3124446273 -0.6610511541
-0.30257535 0.22180143 0.59095645 -0.4906930625 -0.7075579762 -0.5085096359
0.11131995 -0.082461558 0.67076927 -0.6936701536 0.4463252425 -0.5653454661
0.035721473 -0.19423485 0.74260014 -0.2174310237 -0.5500657558 0.806319654
0.054776281 -0.1949736 0.74386126 0.1126859188 -0.5840926766 0.8038268685
-0.2995877 0.20749561 0.57500005 -0.4906930625 -0.7075579762 -0.5085096359
-0.00058561331 -0.14347526 0.66800004 -0.7393238544 0.4510864019 -0.4999213219
0.045408335 -0.088184342 0.67771423 -0.09547266364 0.631164372 -0.7697509527
0.0091728559 -0.19049674 0.73000002 -0.6512992382 -0.3800566196 0.6567848325
-0.2895484 0.23627687 0.56266671 -0.4725441337 -0.7145184278 -0.5159122348
0.10696238 -0.10556518 0.65278578 -0.6127251983 0.3871565759 -0.6889685392
0.093970999 -0.18479764 0.72366029 0.7358474731 -0.4068762064 0.5412764549
0.090728857 -0.1712805 0.741 0.6665974855 -0.4504703581 0.5939059258
0.056952618 -0.13346471 0.63523328 0.08616229147 0.658330977 -0.7477809787
0.10300031 -0.1763355 0.71433336 0.8225504756 -0.3509526551 0.4474851191
-0.0055710645 -0.17583241 0.71186215 -0.8386412263 -0.2986474335 0.4555113018
0.019643471 -0.099407859 0.67900002 -0.5221639872 0.5528641939 -0.6493735313
0.036540903 -0.17234568 0.7611599 -0.2130613774 -0.6112626195 0.762209177
0.059106618 -0.11068004 0.66100001 0.129915759 0.6161142588 -0.7768687606
0.0043734172 -0.084072575 0.7133103 -0.7393226027 0.4601981044 -0.4915483594
0.10137072 -0.13074519 0.65700001 0.5844986439 -0.1095659211 -0.8039630651
0.072436459 -0.11792268 0.65799999 0.3267383575 0.6053227186 -0.7258281112
0.064719483 -0.20466691 0.73463893 0.3133140206 -0.5634724498 0.7644168735
0.085790396 -0.084324323 0.69304031 0.352432996 0.5215591192 -0.7770245075
0.013562405 -0.11399141 0.67293239 -0.6117038727 0.5289455056 -0.5882473588
0.0282725 -0.18081249 0.75000006 -0.3842793107 -0.5642315745 0.7307339907
0.01269915 -0.093008354 0.69220716 -0.6480026245 0.511624217 -0.5642102957
0.087219059 -0.11283386 0.67183328 0.5362217426 0.6134985685 -0.5797290206
0.074668676 -0.084950939 0.68436337 0.300555557 0.5694023967 -0.7651453018
0.034175366 -0.12250251 0.65183324 -0.2621585727 0.6490536332 -0.7141444087
0.033960693 -0.11202049 0.66147828 -0.2937770486 0.6270753741 -0.7214370966
0.097746581 -0.11848111 0.65288895 -0.3885203004 0.4273304343 -0.8163581491
0.076610103 -0.17761514 0.74814278 0.4391789138 -0.5479453206 0.7119535208
0.078819349 -0.19944167 0.72800004 0.5479405522 -0.5202608705 0.6550494432
0.025902499 -0.075710788 0.69582832 -0.411408484 0.6696279049 -0.6183377504
0.073510289 -0.096459925 0.67561704 0.3428120911 0.5717960596 -0.7453382611
0.054460749 -0.17231198 0.76165599 0.1688658446 -0.6094164252 0.7746586204
0.065743692 -0.18617511 0.7474584 0.3062757254 -0.5711682439 0.7615523338
0.1078077 -0.09437383 0.662 -0.6557754874 0.4795567989 -0.583081305
0.064421698 -0.077982813 0.68676478 0.1864278316 0.6216025352 -0.7608251572
0.10505417 -0.11381233 0.69511545 0.7251498103 0.2658318877 -0.6352095604
0.078030892 -0.13138023 0.65087503 0.361967653 0.5764533281 -0.7325851321
0.10719444 -0.18489908 0.69607407 0.8111897111 -0.3682720065 0.454254359
0.071384333 -0.1647844 0.76099998 0.3432106376 -0.5764564276 0.7415554523
0.044797074 -0.12630431 0.64550662 -0.114422977 0.6862601042 -0.7182996869
0.045142196 -0.2014125 0.7413078 -0.02995142713 -0.5581938624 0.8291698098
-0.012971161 -0.16844723 0.70457143 -0.9359145164 0.03408271819 0.3505743146
0.011396374 -0.13076858 0.66100001 -0.635563612 0.5023402572 -0.5862705708
-0.30112994 0.21622816 0.56761539 -0.4725441337 -0.7145184278 -0.5159122348
0.0049582943 -0.17528568 0.73516983 -0.6997215748 -0.4124456942 0.5833337307
-0.0062133013 -0.095514506 0.72075009 -0.7684713006 0.4262871742 -0.477211833
-0.0044720098 -0.11389829 0.70345473 -0.7944757938 0.4153465927 -0.4430524111
0.0011651574 -0.11348382 0.69169235 -0.7789392471 0.4316946566 -0.454855293
0.0017938149 -0.12234177 0.68311769 -0.7692140937 0.4418676198 -0.4615871012
0.10238919 -0.14365956 0.66694117 0.7268198133 0.4185210764 -0.544585228
0.064962752 -0.10055716 0.67000002 0.2233740985 0.6090319157 -0.7610414624
-0.010783767 -0.11471435 0.71312505 -0.7998257279 0.4081320465 -0.4401215613
0.10527598 -0.098305888 0.7013334 0.6602528691 0.3226567209 -0.6782026291
0.055089604 -0.07161618 0.69055003 0.04064372182 0.6800934672 -0.7319979072
0.018142179 -0.17118976 0.7525 -0.4888461828 -0.5216374993 0.6992308497
0.095229946 -0.12207071 0.67369235 0.7153410912 0.5210265517 -0.4656377137
0.044793114 -0.10483044 0.66401106 -0.08366192132 0.6221467853 -0.7784177065
-0.30218446 0.2117568 0.58507693 -0.4906930625 -0.7075579762 -0.5085096359
0.055899769 -0.12159281 0.65066653 0.09932316095 0.6704239249 -0.7353003621
-0.0082965977 -0.18402608 0.70630014 -0.8409641385 -0.313973695 0.4406811297
0.055173323 -0.18325438 0.75224447 0.1326519996 -0.5920994878 0.7948721051
0.019107576 -0.21219465 0.73000002 -0.4491110146 -0.4378906488 0.7788138986
0.055118218 -0.21229199 0.73171794 0.1500068903 -0.6120853424 0.7764338255
0.10904594 -0.16955698 0.71900004 0.8164328933 -0.3683193922 0.444722563
0.095467448 -0.094298676 0.69300014 0.5801264048 0.328233391 -0.7454637289
0.054970074 -0.083048746 0.68154991 0.03670054674 0.6340765953 -0.7723988295
-0.0084363585 -0.14406331 0.68188894 -0.8982042074 0.2031700909 -0.3898090124
0.10035291 -0.20008251 0.71100003 0.7857781649 -0.3644444644 0.499732852
0.034766525 -0.20491873 0.73531866 -0.2315549552 -0.5448413491 0.8059343696
0.09810029 -0.18533275 0.7146551 0.8201611638 -0.3585371077 0.4458550811
-0.29470724 0.2247555 0.56526011 -0.4725441337 -0.7145184278 -0.5159122348
0.036867339 -0.078419857 0.68769234 -0.2911182642 0.6601691842 -0.6924065351
0.02614972 -0.19244364 0.74142307 -0.3797329366 -0.5137881041 0.7693014145
0.034949742 -0.13208061 0.64506245 -0.2878019512 0.6321530938 -0.7194111943
0.024616346 -0.12481274 0.65345788 -0.4324528873 0.5868222117 -0.6845613122
-0.29268828 0.23382127 0.57271421 -0.4725441337 -0.7145184278 -0.5159122348
0.031992491 -0.090016134 0.68000001 -0.3342456818 0.6161636114 -0.7131775618
0.064392395 -0.19402747 0.7424655 0.2959980667 -0.5606893301 0.7733127475
-0.00088762504 -0.18319185 0.72310001 -0.8158621192 -0.3136627376 0.4857825637
0.0012472336 -0.09273757 0.71190006 -0.7474911213 0.4576170146 -0.4815014899
0.054448809 -0.13132186 0.6439091 0.1167338416 0.6721498966 -0.7311550379
-0.0022035956 -0.13641767 0.67553568 -0.7716391087 0.4290788472 -0.4695363939
0.083845347 -0.076285884 0.69676322 0.3313680887 0.5617616177 -0.7580363154
0.012646429 -0.19838579 0.7272501 -0.5912787914 -0.3981833756 0.7013126612
0.027519837 -0.1082767 0.66655004 -0.3898047209 0.5985073447 -0.69988662
0.0072046802 -0.086282574 0.70473343 -0.7197901607 0.47529006 -0.5059659481
0.093332179 -0.10570112 0.68420464 0.6027113795 0.2963166535 -0.7409017682
0.01478403 -0.175074 0.74518967 -0.5655277967 -0.4957480431 0.6590995193
0.064364113 -0.21248762 0.73038089 0.2971250117 -0.6083857417 0.7359235883
0.08548037 -0.13407698 0.65494835 0.4890320301 0.4989999831 -0.7154346108
0.085247874 -0.18518122 0.73468387 0.6463082433 -0.49578017 0.580075562
0.0041965628 -0.10511351 0.69402343 -0.7673261166 0.4325611591 -0.4733935893
0.084271111 -0.10562804 0.67593652 0.5287361145 0.5207842588 -0.6702401638
0.016759172 -0.13597892 0.64759254 -0.5233061314 0.5234206915 -0.6724444032
-0.010298204 -0.13508819 0.69100004 -0.7972307801 0.4176330268 -0.4358965456
-0.2882106 0.23125064 0.55533338 -0.4725441337 -0.7145184278 -0.5159122348
0.004587844 -0.11414627 0.68353856 -0.7392030358 0.4575697482 -0.4941748381
0.055098414 -0.16529655 0.7665 0.1495000422 -0.6026513577 0.7838756442
0.044572961 -0.094422072 0.67193949 -0.1087682396 0.6093217134 -0.7854276299
0.015901288 -0.085821599 0.69529426 -0.6022804976 0.5549105406 -0.5738749504
-0.29949912 0.2219457 0.58200002 -0.4725441337 -0.7145184278 -0.5159122348
0.033896815 -0.18755531 0.74736667 -0.2560397685 -0.5733126998 0.7783033848
0.044827074 -0.17322993 0.76139456 -0.0434667021 -0.6210103631 0.7825961709
0.064490616 -0.11601301 0.65671033 0.2268507481 0.6116526127 -0.7579048872
-0.0029613567 -0.1059016 0.70489198 -0.7833830714 0.4157530367 -0.4620176852
0.04554769 -0.16606548 0.76733357 -0.01170233078 -0.6085687876 0.7934148312
-0.0009918022 -0.12871045 0.67866677 -0.7707327604 0.4360722601 -0.4645557106
0.027596653 -0.11813127 0.65778571 -0.3861747682 0.6025407314 -0.6984366179
0.055167284 -0.20504102 0.7355969 0.1698748171 -0.5842403769 0.793603003
0.024350218 -0.10417027 0.67292202 -0.4233355224 0.5745996237 -0.7004443407
0.082360476 -0.19336239 0.73223072 0.5732860565 -0.5130451918 0.638848722
0.054880697 -0.11487845 0.65538281 0.07681041211 0.6383289099 -0.7659218907
0.081721522 -0.18221591 0.74180001 0.562656939 -0.5288764238 0.635379374
0.094062231 -0.086274832 0.69268203 -0.2018730789 -0.4951366484 -0.8450366855
0.0050322684 -0.13475622 0.66411531 -0.7041243315 0.460832268 -0.5402244925
0.10517389 -0.11529535 0.65200007 -0.5917176604 0.3993641138 -0.7002702951
0.035180341 -0.21273731 0.7331332 -0.1802709699 -0.596863091 0.7818291187
0.0063847289 -0.19499397 0.72343141 -0.7010079622 -0.3651387691 0.6125859022
0.016316248 -0.096205764 0.68575925 -0.5774568915 0.5347685218 -0.616900444
0.09515927 -0.12566447 0.65636772 -0.02647224814 0.2323095351 -0.9722815752
0.090586185 -0.18117215 0.73025 0.7138753533 -0.465193361 0.5234282017
0.062844895 -0.17092212 0.7610001 0.2336179912 -0.5975165367 0.7670701742
0.078530781 -0.081355691 0.69083333 0.2862561345 0.5896941423 -0.7551941872
0.034863632 -0.095142156 0.67414838 -0.2582572997 0.6066937447 -0.7518150806
0.096835561 -0.11304633 0.68332142 0.7301194668 0.2575701773 -0.6329164505
0.072305448 -0.20225407 0.73160869 0.4461804032 -0.5641369224 0.6947463751
0.018969312 -0.078936823 0.69800001 -0.5640543699 0.5904089212 -0.5772867799
0.075283684 -0.19542593 0.73516417 0.4892449975 -0.52959764 0.6929398775
0.084661745 -0.17478983 0.74465102 0.5855569839 -0.495015651 0.6419365406
0.1145549 -0.10516986 0.65494031 -0.6727695465 0.3659031391 -0.6430365443
0.093315482 -0.17465116 0.73436171 0.7040528655 -0.4716544449 0.5308970213
0.097387813 -0.17588148 0.72524256 0.762421608 -0.4399262667 0.4745294452
0.017089559 -0.12746219 0.65668976 -0.5294584632 0.5476068258 -0.6479200721
0.080359653 -0.099407859 0.67900002 0.4426098764 0.5246052146 -0.7272453904
0.074697196 -0.18454354 0.74441189 0.4441827834 -0.5558158159 0.7026879787
0.094747134 -0.19562188 0.71418965 0.7800601721 -0.3717058301 0.5033298135
0.083438851 -0.20375456 0.72231811 0.6309714317 -0.4780375957 0.6110278964
-0.0039526704 -0.18557978 0.71302772 -0.8302651048 -0.3336415887 0.4464786053
0.011013564 -0.17945629 0.73900002 -0.6226836443 -0.4480924308 0.6414656639
0.076776542 -0.092656419 0.68161279 0.3359475732 0.5466055274 -0.7670473456
0.015729485 -0.19460183 0.73333335 -0.5585132241 -0.405279547 0.7237482071
0.025581513 -0.17451574 0.75366664 -0.4046217799 -0.5653691292 0.7187759876
0.020573176 -0.11050691 0.67050004 -0.5134599805 0.5660123825 -0.6449719071
0.016541483 -0.10601436 0.67653072 -0.5693702102 0.5366086364 -0.6227911115
0.11395106 -0.087193601 0.66531241 -0.7201960683 0.418815583 -0.5530923009
0.007410428 -0.11700371 0.67637497 -0.689273417 0.4954637289 -0.5285999179
0.088232435 -0.16818507 0.74754548 0.5910730958 -0.4899770617 0.6407456994
