# .PCD v0.7 - Point Cloud Data file format
VERSION 0.7
FIELDS x y z normal_x normal_y normal_z
SIZE 4 4 4 4 4 4
TYPE F F F F F F
COUNT 1 1 1 1 1 1
WIDTH 206
HEIGHT 1
VIEWPOINT 0 0 0 1 0 0 0
POINTS 206
DATA ascii
-0.02479803 -0.11555231 0.71557367 -0.3531971574 0.5697376132 -0.7420585155
0.034065947 -0.2113205 0.77466679 0.6109606028 -0.4338797629 0.6621748209
-0.06078982 -0.19105372 0.76200002 -0.8314624429 -0.2365379781 0.5027126074
0.056312099 -0.11329135 0.76166672 0.748316586 0.2524472475 -0.6134269834
-0.01505441 -0.16845179 0.81766683 -0.1911085993 -0.4656808376 0.8640710711
-0.062323283 -0.1027839 0.7744 -0.7314808369 0.4234759808 -0.534419179
0.034241136 -0.14453579 0.70470816 0.4469396472 0.2100540549 -0.8695529103
0.015054352 -0.074769728 0.74433333 0.2369082123 0.6570692658 -0.7156357169
-0.061268479 -0.15125656 0.72800004 -0.8282706738 0.2582198381 -0.4972828329
0.064350449 -0.10469782 0.71212524 -0.7599247098 0.4095809162 -0.5047354698
-0.014698002 -0.21465689 0.78684318 -0.1138468832 -0.6016084552 0.7906365395
-0.031299043 -0.079013668 0.74900001 -0.4878937006 0.6123253703 -0.6221072078
0.030901182 -0.17374595 0.80110008 0.5333666205 -0.4780480862 0.6978467107
0.055827312 -0.18512383 0.74719244 0.9692872167 -0.06778273731 0.236405924
0.019567199 -0.11046 0.72000003 0.3456730545 0.5681227446 -0.7468243837
-0.0090340506 -0.13852122 0.68700004 -0.06539837271 0.5689005256 -0.8198019862
-0.044937793 -0.17486964 0.79433352 -0.6417971253 -0.4360385835 0.6308460832
-0.052323386 -0.11491042 0.74329412 -0.7449229956 0.4232829511 -0.5156755447
0.04806798 -0.087484501 0.73699999 -0.495895803 -0.5925822258 -0.6347705722
0.052758601 -0.14471695 0.73309094 0.9221126437 0.2392413914 -0.3040918112
0.0045894375 -0.19283584 0.80143327 0.1713227928 -0.5981461406 0.7828599215
-0.035940982 -0.14183122 0.70340919 -0.5233086348 0.4984906912 -0.691125989
0.04769868 -0.17904364 0.7757144 0.7808808684 -0.3399032652 0.524109602
-0.0058876933 -0.090491287 0.73000002 -0.06564766169 0.6162715554 -0.7847927809
0.042672891 -0.11543103 0.73622221 0.6708087325 0.333891809 -0.6622174382
-0.0408176 -0.20613734 0.78033346 -0.5304248929 -0.3642756045 0.7654755116
-0.020866713 -0.1910844 0.80233335 -0.3097528219 -0.553978622 0.7727618217
0.0049434369 -0.12513126 0.70357758 0.1510021091 0.5973339081 -0.787648797
0.053812381 -0.13191205 0.71035302 0.4959953427 -0.5359840989 -0.6831615567
-0.048163738 -0.13212912 0.72287506 -0.725646615 0.4419460595 -0.5273714662
-0.036276393 -0.10326238 0.73191178 -0.5710645318 0.5291048288 -0.6276410818
0.01552912 -0.20679373 0.78665209 0.3460410535 -0.5419111848 0.7658902407
-0.047178224 -0.094055675 0.75390625 -0.702152729 0.4710825682 -0.5339126587
0.02528606 -0.094925456 0.73465431 0.3564956784 0.5195348263 -0.7765271068
0.0049207588 -0.17507395 0.81425416 0.1725583225 -0.5366069674 0.8260003328
0.034035724 -0.1266569 0.71616274 0.2002160698 0.6551160812 -0.7285166383
-0.0046358136 -0.10676816 0.71695805 -0.03719076514 0.6238855124 -0.7806302905
0.0501015 -0.19840194 0.76200002 0.7978659272 -0.3711594939 0.4750269055
0.015010285 -0.14135338 0.69559997 0.3052541912 0.5583688617 -0.7713909745
-0.061782796 -0.13592148 0.74183339 -0.7847040296 0.4118666649 -0.4632552862
-0.0054795891 -0.073689334 0.7434445 -0.06241264194 0.6527779698 -0.7549738884
-0.055799637 -0.17723416 0.7754091 -0.8058160543 -0.3007200956 0.510125339
-0.064832129 -0.17877951 0.74700004 -0.967023313 0.05659162998 0.2483209521
0.042017851 -0.085460089 0.75573683 0.4079179466 0.207488656 -0.8891295791
0.033613492 -0.19381867 0.7825529 0.6290847063 -0.4142727852 0.6577464938
0.062693536 -0.088075593 0.72140014 -0.7467119098 0.425049156 -0.5116195679
-0.018337863 -0.13134296 0.70057148 -0.2739733756 0.6172224283 -0.7375466228
-0.035478435 -0.16743337 0.80734783 -0.5512382388 -0.4414266944 0.7080104947
-0.033731535 -0.19276001 0.79125941 -0.5049979091 -0.451892525 0.7353708148
-0.010960379 -0.11890727 0.70766664 -0.1254080385 0.616917789 -0.7769718766
-0.0047380519 -0.20338003 0.79253346 0.001431750483 -0.6022801399 0.7982835174
-0.060994077 -0.10668419 0.75900006 -0.7437298298 0.4199749827 -0.5200836062
-0.024287099 -0.087298833 0.73734307 -0.3687457144 0.6085588336 -0.7026256323
0.045191295 -0.15161462 0.71366674 0.470089972 -0.4058146477 -0.7837919593
0.049075801 -0.10512426 0.75040001 0.6740558147 0.2444619089 -0.6970560551
0.049955536 -0.11841268 0.70350003 -0.2668471634 0.3082830608 -0.9131013751
-0.041669618 -0.11690371 0.72729415 -0.6236481071 0.5061963797 -0.595674634
0.03888258 -0.17678662 0.78850007 0.683231473 -0.4120949805 0.6028038859
0.02240284 -0.12820986 0.70700008 0.3710407913 0.5542442799 -0.7450785041
-0.054497164 -0.20267148 0.76873338 -0.7659787536 -0.1865456402 0.6152050495
-0.05238314 -0.14509857 0.71715784 -0.7263980508 0.4119595885 -0.5501229167
-0.022661071 -0.20233932 0.79173917 -0.2713960707 -0.5355089307 0.7997339368
0.013627784 -0.097881883 0.72635996 0.259660095 0.5830492973 -0.7698247433
-0.046147197 -0.18577307 0.78481627 -0.687063396 -0.4044884741 0.6035999656
-0.032208294 -0.18212096 0.8012144 -0.4663366675 -0.5133375525 0.7204267383
0.020618323 -0.17134538 0.81100005 0.3823895752 -0.5221644044 0.762313962
-0.023103323 -0.098157212 0.7280001 -0.3462328613 0.5966292024 -0.7239864469
0.023455096 -0.19324376 0.79270297 0.4806139171 -0.4931656718 0.7251192331
0.030861296 -0.079451419 0.74900001 0.2954083681 0.5325517058 -0.7931724787
-0.037568074 -0.093678996 0.74246424 -0.5849414468 0.5258362293 -0.6175271273
-0.030812787 -0.12924726 0.70766664 -0.446475476 0.5393608212 -0.7139674425
0.033608489 -0.11603827 0.72542113 0.5758416057 0.5180431604 -0.6324853897
0.039626211 -0.10133916 0.74100006 0.4813040197 0.3205029964 -0.8158580065
-0.016717408 -0.1790282 0.80900002 -0.2312089801 -0.5292316079 0.8163677454
0.014623924 -0.085869968 0.73628259 0.2736644149 0.5970054865 -0.7541168928
-0.062037695 -0.17626922 0.76328576 -0.8534527421 -0.2505628467 0.4569865167
0.0053342562 -0.11436173 0.71192968 0.1473202556 0.6221056581 -0.7689481378
0.0049756682 -0.21421045 0.78480405 0.1737543792 -0.6249359846 0.7610942721
0.041417681 -0.12701191 0.72683334 0.7369944453 0.5493834615 -0.3937220275
-0.055855826 -0.094020166 0.76353651 -0.713721931 0.445555687 -0.5404453278
0.014036749 -0.1841159 0.80264264 0.3656737804 -0.534070611 0.7622671723
-0.0059967507 -0.12911372 0.69800001 -0.0209168382 0.6257904172 -0.77971071
-0.052356321 -0.12560308 0.73300016 -0.7595013976 0.427852869 -0.4899995029
0.051180676 -0.12438847 0.73900002 0.8433992267 0.3148504496 -0.435369879
0.062664181 -0.11620158 0.70731437 -0.7297648787 0.4142511487 -0.5439110398
-0.005139817 -0.18623506 0.80581832 -0.0004350180971 -0.5784325004 0.8157300949
0.039775245 -0.19887622 0.76900005 0.7646727562 -0.3647343814 0.5312667489
-0.046140775 -0.10429249 0.74355561 -0.698938787 0.4546185136 -0.5520929098
0.0043184599 -0.16482122 0.82100004 0.1225838065 -0.5356815457 0.8354750276
0.0046199751 -0.078707419 0.73873335 0.06481251121 0.6492301226 -0.7578255534
-0.053604662 -0.16746262 0.79000002 -0.7160174847 -0.3890255988 0.5796361566
-0.04712769 -0.19596502 0.77575761 -0.7155079246 -0.270804584 0.6439823508
0.0048776553 -0.13498515 0.69694901 0.1746283621 0.5908676386 -0.7876423001
-0.023543105 -0.14140348 0.69749999 -0.3807635605 0.5882284045 -0.7134468555
0.050767764 -0.1834612 0.76533341 0.8194060922 -0.3160135746 0.4782354236
0.0235456 -0.21274278 0.78080004 0.4451141953 -0.5183688998 0.7301828861
0.05273566 -0.15248455 0.72475004 0.876693964 0.07043990493 -0.4758633673
0.051525 -0.11664782 0.74729407 0.7883009315 0.1605201662 -0.5939822197
-0.015381192 -0.10275039 0.72159988 -0.2161152512 0.6084453464 -0.7636022568
-0.025037378 -0.16854681 0.813375 -0.3155289292 -0.457197547 0.8315117955
-0.050890498 -0.21102594 0.77400005 -0.6766877174 -0.261377871 0.688313365
-0.024671111 -0.21336369 0.78390503 -0.3096549213 -0.5345934629 0.7863355875
0.0056947237 -0.10278386 0.72164708 0.1637691855 0.6064761281 -0.7780529261
-0.055933475 -0.12452212 0.74281472 -0.7707087994 0.4018417597 -0.4945009351
-0.016986294 -0.081216656 0.74114293 -0.2491375357 0.6475937963 -0.7201061249
-0.056409225 -0.13494763 0.73280007 -0.7703931928 0.4190195203 -0.480538249
0.044131845 -0.13497195 0.71106005 0.3128292263 -0.5252840519 -0.7913371921
0.015549638 -0.13271113 0.70076954 0.3076609671 0.5636362433 -0.7665891647
-0.0050148256 -0.1681883 0.81738108 0.02071975172 -0.4750060439 0.8797385693
-0.015090612 -0.19736199 0.79587507 -0.1957110912 -0.5745452642 0.7947294712
0.052333415 -0.19281632 0.75408334 0.8107827902 -0.3565075397 0.4642559886
-0.0049396669 -0.21393657 0.78785008 0.02370994724 -0.6265969872 0.7789826989
0.059112277 -0.095889568 0.71663642 -0.66473943 0.4938044548 -0.5606056452
-0.015884353 -0.092094928 0.73075855 -0.2335322052 0.6141922474 -0.7538107038
0.048255019 -0.14381124 0.72425008 0.9234573245 0.2406268716 -0.2988733947
-0.025812682 -0.17707406 0.80675 -0.3849273622 -0.4999150336 0.775832355
-0.041628953 -0.12802832 0.71730006 -0.6144968867 0.4870769382 -0.6206042767
-0.043510079 -0.085483193 0.75537199 -0.6462790966 0.5053015947 -0.5718335509
0.025391577 -0.083599769 0.74255097 0.2717982233 0.5942341685 -0.7569752336
0.0053564268 -0.093820661 0.72822624 0.1228915304 0.5982619524 -0.7918208838
0.016416539 -0.12176039 0.71027285 0.2967038751 0.5819029212 -0.7572026253
0.041786499 -0.18355376 0.78142107 0.740262568 -0.358397603 0.5688255429
-0.06252829 -0.18478598 0.75528002 -0.8686073422 -0.2327628434 0.4374274313
0.032804184 -0.18358073 0.79055554 0.5802986622 -0.4833687544 0.6554449797
0.044913564 -0.094914921 0.74518377 0.4867500961 0.2819669843 -0.8267822862
0.02609247 -0.14234978 0.70099998 0.3179094791 0.3991922736 -0.859987855
0.0044662827 -0.20353812 0.79280972 0.1523349732 -0.5805922151 0.7998167276
0.034850314 -0.1048051 0.73410356 0.4675431848 0.3362520933 -0.8175193667
-0.034715574 -0.21254738 0.78218532 -0.4173482358 -0.4275606871 0.8018804789
0.022675673 -0.18192066 0.80121434 0.4597734213 -0.5159215927 0.7227954865
0.014895239 -0.19536343 0.79461563 0.3270674646 -0.5388972163 0.7762838602
0.054679096 -0.093032219 0.73899996 -0.7538464069 -0.2264933884 -0.6167790294
0.057089552 -0.10942072 0.70783329 -0.623937726 0.4249579608 -0.6558296084
0.0246392 -0.10634371 0.72587758 0.4346492589 0.5370013118 -0.7229865789
0.046841893 -0.12601687 0.70656258 -0.1747247577 0.07503355294 -0.9817541838
-0.052535463 -0.17443958 0.78490329 -0.7373840809 -0.3869457841 0.5536584258
-0.056045517 -0.14498022 0.72508335 -0.7469292283 0.4140926003 -0.5202153921
0.042582333 -0.20682845 0.77100003 0.7528434396 -0.3544730544 0.5545949936
-0.02606909 -0.1225993 0.71054536 -0.3577125669 0.5641441345 -0.7441660166
-0.03301667 -0.095905744 0.73550022 -0.5249227285 0.5462753773 -0.6527169347
-0.0051650228 -0.11371801 0.71133977 -0.01605338044 0.6227006316 -0.7822954655
0.023639206 -0.11719296 0.71656245 0.392621398 0.5768573284 -0.7162988782
0.035689995 -0.13399145 0.71169996 0.2736805975 0.4370602965 -0.856783092
-0.01640331 -0.14033943 0.69300002 -0.2394054383 0.6087241769 -0.7563993335
0.024678072 -0.2046409 0.78296292 0.4943467975 -0.480409205 0.7244502902
0.036051679 -0.093954034 0.74293476 0.3593505025 0.3748325109 -0.8546155691
-0.025218256 -0.1949461 0.79486686 -0.3473564684 -0.5212634802 0.7795048952
-0.023723541 -0.075850204 0.74725592 -0.3529059291 0.643596828 -0.6791468859
0.014901301 -0.21403328 0.78257477 0.3477160633 -0.5744211078 0.7410356998
-0.0047194972 -0.19341685 0.80162841 0.004232366104 -0.6015578508 0.7988180518
-0.044598479 -0.13552187 0.71535712 -0.6618005633 0.4269627035 -0.6162165999
-0.032379754 -0.11813837 0.71769226 -0.4939907193 0.5353979468 -0.6850709319
-0.042372845 -0.10683193 0.73665231 -0.6449702382 0.4904598594 -0.5860567689
0.026622256 -0.19672841 0.7859413 0.556588769 -0.4538933337 0.6958374381
-0.042326491 -0.18298446 0.79152942 -0.6408168077 -0.4590698183 0.6153119206
0.020084433 -0.20084433 0.79000002 0.4083484709 -0.514803648 0.7538095117
0.0051077246 -0.18543123 0.80490005 0.2093580067 -0.5527489781 0.8066211939
-0.014565576 -0.20392355 0.79109114 -0.1431451887 -0.5875225663 0.7964462638
-0.0453173 -0.12476867 0.72478431 -0.687820673 0.4722014964 -0.5512970686
-0.034683302 -0.17453608 0.80354381 -0.5503149033 -0.4539469481 0.7007750869
-0.056531988 -0.19484401 0.76771891 -0.8314624429 -0.2365379781 0.5027126074
0.016602283 -0.1766836 0.80651724 0.3545449376 -0.5295526981 0.7706307769
-0.041378666 -0.170424 0.80000001 -0.6026139855 -0.4488716722 0.6598262191
-0.029256413 -0.19926839 0.78833342 -0.4033564925 -0.488874495 0.7735019326
-0.014989435 -0.12477062 0.70372325 -0.2550899088 0.6197525263 -0.7421832085
0.033589963 -0.086629845 0.74675769 0.3543324172 0.4804085791 -0.8022817969
-0.025352729 -0.10482785 0.72423875 -0.389839679 0.5668027997 -0.7257820964
-0.048917998 -0.10112525 0.75066668 -0.7079350948 0.4361085594 -0.5555512905
0.025593175 -0.12418035 0.71308625 0.314501524 0.6021607518 -0.7338196039
0.015108116 -0.11503915 0.71428764 0.2881584466 0.5880004168 -0.7557911277
-0.053455032 -0.1846855 0.77405572 -0.803563118 -0.2972889841 0.5156603456
-0.040054023 -0.089957394 0.74900001 -0.6288699508 0.5018267632 -0.5938792229
-0.0349737 -0.12501198 0.71426564 -0.5118417144 0.5187274218 -0.684791863
0.041635785 -0.19317269 0.77411777 0.755440712 -0.3676045239 0.5423801541
-0.039051645 -0.12145059 0.72080004 -0.5953319669 0.5134237409 -0.6180420518
0.02923245 -0.090295792 0.74100006 0.2801361978 0.5441917777 -0.7908090949
-0.042847302 -0.19402474 0.78206271 -0.6226040721 -0.3387761116 0.7054040432
0.025812013 -0.18566348 0.79512006 0.5001953244 -0.5137174726 0.6970645785
0.054575454 -0.12495906 0.7065863 -0.5042765737 0.3141804934 -0.8043604493
-0.034067884 -0.085629672 0.74593186 -0.5451307893 0.5713666677 -0.6134920716
0.031240016 -0.20089489 0.78033334 0.599178791 -0.4227087498 0.6799280047
0.024629803 -0.13514155 0.70355213 0.3051015437 0.5028710961 -0.8087235093
-0.0050211078 -0.17520064 0.81407708 -0.002727333689 -0.498492837 0.8668895364
-0.021086026 -0.10920768 0.71800005 -0.3233392239 0.5835054517 -0.7449651957
-0.039001584 -0.17821801 0.79799998 -0.6042892337 -0.4447204173 0.6611038446
-0.015119517 -0.11482422 0.71275789 -0.223084569 0.6105367541 -0.7599198222
-0.046749268 -0.14333193 0.71216142 -0.6775120497 0.3747082651 -0.6329068542
-0.014827638 -0.085733004 0.73534614 -0.2138422579 0.6334982514 -0.7436070442
0.01558482 -0.10443273 0.7229138 0.3049747646 0.5713277459 -0.7619547248
0.0076994714 -0.14121698 0.69333333 0.2330392748 0.5647444129 -0.7916795015
-0.025439581 -0.13377115 0.70201844 -0.4006617367 0.5757724047 -0.7127105594
0.032510571 -0.097521096 0.73720008 0.3272470832 0.4559462368 -0.827660799
-0.058485199 -0.18564959 0.76684213 -0.8629922271 -0.2366535068 0.4463626146
-0.061188702 -0.098170891 0.76700002 -0.7228821516 0.4369831979 -0.5352448821
0.0051933308 -0.084892809 0.73440325 0.1168445647 0.612611711 -0.7816995978
-0.052753039 -0.097626217 0.7575714 -0.713121891 0.4553642869 -0.5330108404
-0.036831778 -0.13233051 0.71100003 -0.5390581489 0.4970237315 -0.6799880266
-0.035607118 -0.11441058 0.72334701 -0.5590296388 0.5246905088 -0.6420169473
-0.035595685 -0.18571876 0.79560012 -0.5530609488 -0.4835565388 0.6784517169
-0.039626211 -0.10068955 0.74100006 -0.6297342181 0.4948096275 -0.5988306999
-0.045241635 -0.11477244 0.73347503 -0.6870286465 0.4665620625 -0.557056129
-0.054869276 -0.10454237 0.75534147 -0.72809273 0.4399058521 -0.5257031322
-0.026882743 -0.18818493 0.7974546 -0.4082761705 -0.5287256241 0.7441504002
0.037253112 -0.11347991 0.73134995 0.6211665869 0.4742680192 -0.6238765717
0.026462991 -0.11339907 0.72223681 0.4311936796 0.5622014999 -0.7056921721
0.0453122 -0.12411757 0.73452508 0.8041553497 0.4026181698 -0.4373016953
