# .PCD v0.7 - Point Cloud Data file format
VERSION 0.7
FIELDS x y z normal_x normal_y normal_z
SIZE 4 4 4 4 4 4
TYPE F F F F F F
COUNT 1 1 1 1 1 1
WIDTH 206
HEIGHT 1
VIEWPOINT 0 0 0 1 0 0 0
POINTS 206
DATA ascii
0.018343616 -0.15700179 0.66549999 0.6976243854 -0.5245645642 0.4880084395
-0.07329683 -0.072597161 0.64422226 0.5833576322 -0.5864646435 0.5619191527
-0.080771685 -0.18132254 0.63020003 -0.7938535213 -0.3714988828 0.4814407229
-0.0050818617 -0.11247407 0.57671112 -0.354072541 -0.6004015207 0.7170430422
0.024356047 -0.075930312 0.64551926 -0.4212092161 -0.4431393147 0.7913345098
-0.052850727 -0.13950133 0.70100003 -0.3647499979 -0.6383556128 0.6778344512
-0.067217946 -0.11145426 0.59164709 0.6550646424 -0.5005003214 0.5660297871
-0.024619287 -0.20224589 0.65224332 0.03893403709 -0.6914319396 0.7213917375
0.052513018 -0.11204735 0.60100001 0.3298658133 -0.6979829669 0.6356165409
-0.025050854 -0.072354846 0.6122328 -0.05997990817 -0.7284838557 0.6824321747
0.031098684 -0.17323527 0.62392861 0.7815090418 -0.4543972015 0.4275123179
-0.0063512414 -0.14483981 0.70197374 0.2837150395 -0.6202584505 0.731290102
-0.059057403 -0.16831812 0.667 -0.5536100268 -0.5963198543 0.58130759
0.01575649 -0.094582394 0.61262298 -0.6891155839 -0.5302299857 0.4939391017
-0.02521304 -0.17171754 0.68103856 -0.006429806352 -0.7187414765 0.6952477098
0.007859271 -0.18797128 0.64778954 0.5904690027 -0.5526127219 0.5881883502
-0.034941699 -0.096289359 0.58631402 0.08778591454 -0.714027524 0.6945922375
0.05063013 -0.083294727 0.62100005 0.4358109832 -0.6625234485 0.609205544
-0.08266966 -0.10886972 0.62266678 0.7399260998 -0.4889003634 0.4620452523
-0.0809815 -0.14849769 0.64900005 -0.8162606359 -0.4290765524 0.3867970109
-0.056881823 -0.082557276 0.61300009 0.4677675068 -0.6480102539 0.6010625958
-0.055676933 -0.19510113 0.64744985 -0.4762306809 -0.5560933948 0.6811493635
-0.0017585136 -0.061467167 0.63063645 -0.4169364572 -0.6868168712 0.5953541398
0.020482147 -0.12375348 0.58900005 -0.4186460376 -0.6555328965 0.6284999251
-0.048050102 -0.060200702 0.63000005 0.3885701597 -0.7093989253 0.588019073
-0.0086603714 -0.089496054 0.59875 -0.3185889721 -0.6821314096 0.6581776738
0.031325053 -0.15564701 0.643875 0.8278847933 -0.3973891139 0.3958391249
-0.072530076 -0.14670263 0.67266667 -0.7335907221 -0.4759435654 0.4851003885
0.03072015 -0.10210937 0.63057148 -0.440857172 -0.5188362002 0.73243016
-0.0036907324 -0.17831646 0.66673082 0.4121871591 -0.6578038335 0.6303934455
-0.02917196 -0.139653 0.708 -0.09785892069 -0.6576089263 0.7469766736
-0.04617976 -0.1581693 0.68732148 -0.3497071862 -0.6567451954 0.6681246758
-0.034847714 -0.18482076 0.66416168 -0.2138667703 -0.6725325584 0.7084920406
0.0050000232 -0.15511298 0.68468338 0.4778684378 -0.6208408475 0.6214486361
-0.045194726 -0.11178951 0.57420522 0.2237822115 -0.6755697727 0.7025147676
0.012794228 -0.077521719 0.62653577 -0.5777470469 -0.5822152495 0.5720435381
-0.068380937 -0.17693512 0.64753848 -0.7281024456 -0.4057311714 0.552493453
0.0066921753 -0.10332783 0.59326798 -0.5415887833 -0.6021698713 0.5865773559
-0.025305863 -0.15667841 0.69553572 -0.05765881017 -0.6858021617 0.7255004048
-0.0048611281 -0.075118937 0.61474699 -0.3618147671 -0.672524035 0.6456016302
-0.024846982 -0.058172975 0.62683797 -0.03740622476 -0.7917740345 0.6096676588
0.02245749 -0.1739641 0.64332354 0.7650739551 -0.4531522691 0.4575093985
-0.054435976 -0.096169651 0.59567654 0.4529055357 -0.651753664 0.6083533168
-0.072373211 -0.086956829 0.62538457 0.6878755689 -0.5305765271 0.4952935874
-0.079288363 -0.12079502 0.60700005 0.7260539532 -0.4828094542 0.4896332026
-0.024211477 -0.11084169 0.57278264 -0.08625649661 -0.6398512125 0.7636427283
0.027962353 -0.1115379 0.6146667 -0.4199686646 -0.7889382839 0.448556304
0.034969527 -0.12065994 0.59893334 0.1027940661 -0.7985859513 0.5930378437
-0.081833422 -0.16364187 0.63124007 -0.8407227397 -0.330413878 0.428966105
-0.035711035 -0.082147196 0.60197234 0.1433422267 -0.7238098383 0.6749461293
-0.0037476912 -0.2010483 0.64746666 0.3663051128 -0.6403346658 0.6751237512
0.044657223 -0.091323599 0.63520002 0.3882072866 -0.503693521 0.7717434168
0.060791865 -0.09486147 0.61366671 0.5300235748 -0.6309763193 0.5665190816
-0.071095161 -0.19196495 0.64000005 -0.6885541081 -0.4548661411 0.5647919774
-0.044134267 -0.17372379 0.67276645 -0.3424734473 -0.6716423631 0.65696913
0.032186814 -0.15646294 0.62433332 0.9816226959 -0.1283501536 0.1412199736
-0.01085664 -0.15983386 0.68800002 0.2907125056 -0.679110229 0.6740145087
0.011919256 -0.17144649 0.66144454 0.6374002099 -0.5529158115 0.5366610289
-0.015241998 -0.097569905 0.58630908 -0.2088586092 -0.6982142925 0.6847444177
0.019494437 -0.11064322 0.60100007 -0.538844049 -0.6539227366 0.5310669541
-0.017963776 -0.19064783 0.66100001 0.1285350174 -0.6808057427 0.7210980058
-0.058918044 -0.14572275 0.68763161 -0.5165656209 -0.6079875827 0.6029188037
-0.063020907 -0.066716447 0.63375759 0.5271427631 -0.6333507299 0.566557467
-0.051356889 -0.18096714 0.66119999 -0.4394984543 -0.6139804125 0.6556441188
-0.0437476 -0.068664886 0.61795843 0.2969432771 -0.7051103115 0.643928647
-0.073011972 -0.097396649 0.61425811 0.7155257463 -0.5040867925 0.4836521447
-0.072981685 -0.16413097 0.65440005 -0.769031167 -0.4762183428 0.4263885021
-0.039162453 -0.14991876 0.69800001 -0.253052175 -0.6531478167 0.7136963606
0.048402693 -0.097754002 0.60406673 0.3204745352 -0.6627365351 0.676813364
0.029736534 -0.090331733 0.64000005 -0.183407709 -0.4441783428 0.8769647479
0.0035968539 -0.087200224 0.60727507 -0.5119916201 -0.6137845516 0.6009435058
0.005069003 -0.16525924 0.67377955 0.4985551834 -0.628189683 0.5973444581
0.021443758 -0.1628474 0.65272003 0.7695921063 -0.4612192214 0.441593498
-0.054559235 -0.10533493 0.58498871 0.4486510158 -0.6333199739 0.6305696368
-0.05828255 -0.15907417 0.6774286 -0.5481224656 -0.5955951214 0.5872207284
0.012417465 -0.067193672 0.63586372 -0.5556961894 -0.6122296453 0.5624736547
0.021623522 -0.088223487 0.62746149 -0.6708618999 -0.47311306 0.571058929
-0.072802775 -0.10673805 0.60404766 0.7175194621 -0.502951324 0.4818773866
0.035754457 -0.079371355 0.63411117 -0.04681061208 -0.3499484658 0.9355986714
-0.081285045 -0.096030422 0.63075006 0.732309103 -0.4900760055 0.4728095829
-0.00378547 -0.18785527 0.65705413 0.3952976465 -0.6153743863 0.681948781
0.023013534 -0.183681 0.63397682 0.7788282633 -0.4587916732 0.4277110398
-0.01671315 -0.18123078 0.67057145 0.1320427805 -0.7079237103 0.6938362718
-0.043623909 -0.20026475 0.65000004 -0.2780637145 -0.622972548 0.7311537266
-0.011309877 -0.16964816 0.67900002 0.2949699163 -0.684382081 0.6667937636
-0.057018999 -0.072938375 0.62211436 0.4674544334 -0.6515572071 0.5974609256
-0.025198901 -0.087071404 0.59595895 -0.05245469138 -0.7289604545 0.6825430989
-0.063815236 -0.095676742 0.60417396 0.5864542723 -0.5996389389 0.5445222855
-0.068495452 -0.15718484 0.66692311 -0.7219309211 -0.5086482763 0.4691404104
-0.014394868 -0.063788876 0.62346888 -0.1956698447 -0.735766232 0.6483528018
0.0056481031 -0.11402688 0.58202726 -0.5207771659 -0.5734225512 0.6324378848
-0.015721096 -0.077821106 0.6068936 -0.1878136396 -0.7172030807 0.6710780263
0.02851432 -0.16695493 0.63384211 0.8115383387 -0.4169581532 0.4093305171
-0.035109255 -0.16585214 0.6842466 -0.2213297784 -0.6918008924 0.6873315573
0.037533388 -0.10927322 0.5995 0.1024755687 -0.6370437145 0.7639856339
-0.024720658 -0.10187703 0.5810588 -0.04834984988 -0.6848468184 0.7270812392
-0.015935797 -0.15177456 0.70038092 0.1277586371 -0.6868233085 0.715507865
-0.017801594 -0.14079443 0.71000004 0.07655333728 -0.6758593321 0.7330441475
-0.034939002 -0.1066342 0.57532918 0.118905358 -0.6730573773 0.7299693823
0.0036540967 -0.14674555 0.6922859 0.4107403159 -0.6258119345 0.6630624533
-0.034933433 -0.19471945 0.65442085 -0.1927649379 -0.6507112384 0.7344498634
-0.076017231 -0.16567411 0.64377773 -0.8325914741 -0.3644864261 0.4170624018
-0.0048476039 -0.10410202 0.58365244 -0.3552597463 -0.6515536904 0.6702747941
-0.035412833 -0.063022479 0.62182707 0.1254986674 -0.7548582554 0.643769443
-0.043698378 -0.088266656 0.59813333 0.2603673637 -0.7076864839 0.6568018794
-0.043451767 -0.078264728 0.60815012 0.2812766135 -0.7052384019 0.650785923
0.012579728 -0.14795762 0.68361109 0.5372611284 -0.6035061479 0.5891780853
0.045664251 -0.078924835 0.62883341 0.3673341274 -0.5770577788 0.7294312716
-0.03523349 -0.072227336 0.61185366 0.154176861 -0.7214841843 0.6750481725
0.019468576 -0.081211329 0.63450003 -0.5902311802 -0.4791472256 0.6496499777
-0.06137456 -0.18190537 0.65288228 -0.5607076883 -0.5143032074 0.6489214897
-0.015655624 -0.10775333 0.57695842 -0.1884136349 -0.6783620715 0.7101585865
0.013706618 -0.11666102 0.5873462 -0.5081421137 -0.5717176795 0.6441509724
-0.045424789 -0.10290229 0.58255893 0.2903656363 -0.6752771139 0.6780034304
-0.05374831 -0.086370058 0.60460001 0.4286446273 -0.6665457487 0.6099020839
-0.014993896 -0.20204508 0.65087879 0.1658906341 -0.6785416007 0.7155848145
-0.045244101 -0.18789732 0.6581766 -0.288009882 -0.6207017899 0.729232192
-0.071458913 -0.076606371 0.63556254 0.6097193956 -0.5778545141 0.5425185561
-0.076750882 -0.15494712 0.65479499 -0.7921539545 -0.4516385794 0.4105053842
-0.056813005 -0.11395072 0.58135289 0.4509033859 -0.6274536848 0.6348133683
-0.082941398 -0.17285611 0.6262691 -0.8356801867 -0.3383612633 0.4326087534
-0.065183543 -0.18519363 0.64414096 -0.6541186571 -0.4659472406 0.5958371758
0.014668983 -0.155168 0.67404997 0.6023586988 -0.5743800998 0.5543026924
-0.044097103 -0.14324214 0.70244247 -0.2890071869 -0.6351940036 0.7162425518
-0.0055572712 -0.15378866 0.69279659 0.3417786956 -0.6589243412 0.6700791121
-0.035075743 -0.17555104 0.67417532 -0.2208614945 -0.6983527541 0.6808256507
-0.052337278 -0.15125619 0.6911875 -0.4186404943 -0.6290097237 0.6550472379
0.024398237 -0.12304272 0.59735101 -0.2759714425 -0.7659430504 0.5806643367
-0.062423926 -0.15261963 0.68250006 -0.548060894 -0.5914700627 0.5914325714
-0.025110913 -0.18643169 0.66482872 -0.008885729127 -0.7109775543 0.7031585574
0.012715502 -0.19173005 0.64112502 0.6333805919 -0.5375953317 0.556614995
0.0034988471 -0.077309497 0.61740547 -0.4855265319 -0.6275999546 0.6085903645
0.060230508 -0.10180438 0.60800004 0.500918746 -0.6758463979 0.5406588912
0.025606336 -0.16515349 0.6452499 0.8064714074 -0.4190383554 0.4171459675
-0.074491881 -0.18384266 0.63570005 -0.7666741014 -0.3739623129 0.5218840837
-0.034811419 -0.14529727 0.70460021 -0.1452665478 -0.6477389336 0.7478849888
-0.082498714 -0.15828568 0.63800001 -0.8442049026 -0.3567841351 0.4000290036
-0.078260906 -0.1578711 0.64668423 -0.8118038177 -0.4169813693 0.4087800384
0.025320033 -0.17554407 0.63304871 0.7815090418 -0.4543972015 0.4275123179
0.021332808 -0.098646745 0.61760008 -0.7144275904 -0.5144061446 0.4743201435
-0.0052447421 -0.16378336 0.6830526 0.3485021591 -0.6650252342 0.660520792
-0.053694159 -0.066357762 0.62624007 0.4430645108 -0.6858037114 0.5773795247
0.0025129076 -0.067907125 0.62756526 -0.487606436 -0.6492921114 0.5836606026
-0.046994325 -0.16791382 0.6779232 -0.3908071816 -0.6661633849 0.6352134347
0.012056798 -0.087834977 0.61566669 -0.6168766618 -0.5635046363 0.5494776368
-0.064712413 -0.17462979 0.65497148 -0.647898376 -0.5070157051 0.5684740543
-0.024729805 -0.14614777 0.70549184 -0.06721559167 -0.6577079892 0.7502681017
-0.059017122 -0.10210821 0.59225005 0.5118725896 -0.6169678569 0.5977768302
0.008152457 -0.17771332 0.65766668 0.5723084211 -0.5838727355 0.5758087039
-0.064039446 -0.086009115 0.61486435 0.5876265764 -0.5889109373 0.5548684001
0.0037297399 -0.10670622 0.58645612 -0.4917623997 -0.6030117869 0.6281294227
0.015772836 -0.10410655 0.60413474 -0.5694493055 -0.6695062518 0.4769578874
0.00784266 -0.15841348 0.6778 0.5341596007 -0.6111235023 0.5841246843
0.046573158 -0.10472076 0.6002779 0.2846725285 -0.6444843411 0.7096488476
0.00085518835 -0.19104013 0.65050006 0.4934908152 -0.5898344517 0.6391886473
-0.033016145 -0.16091363 0.69033337 -0.1461002082 -0.6963347197 0.7026895881
-0.065211996 -0.15550619 0.67413551 -0.6365270615 -0.5534315109 0.5371655822
-0.00178314 -0.081150398 0.61033338 -0.398129642 -0.6609629393 0.6360980868
0.020588517 -0.1505903 0.671 0.6706449986 -0.5426774621 0.5057038665
-0.024720365 -0.18167725 0.67139995 -0.01481875591 -0.7203443646 0.6934583187
0.015157479 -0.08426892 0.62281239 -0.6725534797 -0.5213246346 0.5252546668
0.022143779 -0.10808202 0.60813344 -0.5931581259 -0.6783434153 0.4336054325
-0.055218872 -0.15536548 0.68469703 -0.4813346565 -0.6253039837 0.6142572165
0.0099940002 -0.100466 0.60000002 -0.5725152493 -0.6033428311 0.5551609993
0.015454931 -0.074098729 0.63323921 -0.602107048 -0.5589643121 0.5701104999
0.013199188 -0.10727324 0.59567583 -0.5742387772 -0.5995995402 0.5574318171
-0.034635931 -0.086910821 0.59566176 0.109525837 -0.7207886577 0.6844471097
-0.00051898666 -0.10016443 0.59200001 -0.4638673067 -0.6362072825 0.6164960861
0.001738555 -0.18091846 0.66114289 0.4838146567 -0.6181154847 0.6195616126
0.0259318 -0.081687324 0.64026666 -0.1900529116 -0.3450113237 0.9191556573
-0.014978067 -0.19483197 0.65494126 0.1669979095 -0.6766374707 0.7171285748
-0.063587867 -0.075972907 0.6253674 0.5782539845 -0.6083260775 0.5436558723
0.0056612045 -0.093360655 0.60272229 -0.5273814797 -0.6206002235 0.5802793503
-0.034012105 -0.20140055 0.65025914 -0.1433879137 -0.6505005956 0.7458477616
-0.052600067 -0.17091905 0.67069232 -0.4676541686 -0.6322750449 0.6176794171
-0.076631643 -0.11402728 0.60400009 0.7260539532 -0.4828094542 0.4896332026
-0.030712264 -0.19064783 0.66100001 -0.1201410815 -0.6674550772 0.7348944545
0.054363504 -0.10455772 0.60366702 0.3639219105 -0.6797661781 0.6367721558
-0.024536042 -0.19528799 0.65573859 0.02439835854 -0.6920479536 0.7214390635
-0.046186354 -0.17767401 0.66599989 -0.3725177944 -0.655702889 0.6567223072
-0.04569811 -0.093572833 0.59280282 0.2856651843 -0.7073165178 0.6466055512
-0.015781663 -0.08759401 0.59636182 -0.1991765648 -0.7056106925 0.6800310612
0.0046875258 -0.18448234 0.6539343 0.5334308147 -0.5749152899 0.6204224229
0.03156022 -0.09534736 0.63424999 -0.09806384891 -0.5415231586 0.8349468112
0.011346696 -0.18173876 0.65077782 0.6375229359 -0.5324279666 0.5568527579
-0.0251208 -0.077482797 0.60644639 -0.04998872802 -0.7276163101 0.6841605306
-0.075845256 -0.093850978 0.62535304 0.7072646022 -0.518266499 0.4808083177
-0.056478929 -0.062743887 0.6324572 0.4153912663 -0.7058003545 0.5738431811
-0.015660349 -0.068608664 0.61758631 -0.1996852905 -0.719876647 0.6647581458
-0.075751998 -0.17627913 0.63491499 -0.8081526756 -0.3619462848 0.4646333158
-0.060180977 -0.089471281 0.60750002 0.5342903733 -0.6277076006 0.5661421418
-0.05469165 -0.18511885 0.65495646 -0.4661832154 -0.5522984266 0.6911147833
-0.060810421 -0.10873603 0.58783334 0.4878974557 -0.6127701998 0.6216660738
-0.0053730235 -0.065165848 0.62502521 -0.3366712332 -0.7080647945 0.6207227111
-0.062084246 -0.16194732 0.67147064 -0.5736678243 -0.5820313096 0.5763200521
0.0048337961 -0.17436936 0.66365635 0.5192911029 -0.6227766871 0.5852229595
-0.054844331 -0.17478164 0.66395372 -0.4803518653 -0.6254481077 0.6148794889
-0.051672239 -0.099289261 0.58857149 0.4157416224 -0.6535391808 0.6324914694
-0.0053280746 -0.17382632 0.67260331 0.3706551492 -0.6639093161 0.6494914889
-0.053410467 -0.076073967 0.61627269 0.4236706495 -0.6537979841 0.6269381046
-0.014220533 -0.15624921 0.69457895 0.2066155672 -0.6862991452 0.6973546147
0.011746666 -0.16280258 0.67139989 0.6281371117 -0.5738129616 0.5255305767
-0.051446307 -0.16054711 0.68080008 -0.4492342472 -0.6396107674 0.6237680912
0.053705856 -0.086498737 0.61495858 0.4757884443 -0.6652893424 0.5753394365
-0.0035408214 -0.16819817 0.67720008 0.3872234523 -0.6680714488 0.6354042292
0.0017634149 -0.17121923 0.67070001 0.4793542624 -0.6300433278 0.6109541059
