# .PCD v0.7 - Point Cloud Data file format
VERSION 0.7
FIELDS x y z normal_x normal_y normal_z
SIZE 4 4 4 4 4 4
TYPE F F F F F F
COUNT 1 1 1 1 1 1
WIDTH 206
HEIGHT 1
VIEWPOINT 0 0 0 1 0 0 0
POINTS 206
DATA ascii
-0.086434394 -0.1274685 0.72415799 -0.725965023 -0.3630088568 0.5841227174
0.045970354 -0.083781779 0.66188896 0.4460828304 -0.605060637 0.6594783664
-0.05534238 -0.10109569 0.62495238 0.2012392133 -0.5874712467 0.7838242054
0.0010122578 -0.17103767 0.69266671 0.693636775 -0.4987127185 0.5197631121
-0.080542289 -0.048806954 0.68733335 0.5846636295 -0.5693686008 0.5779167414
-0.014364623 -0.04473678 0.67311776 -0.3961395323 -0.6378604174 0.6604601145
-0.025926037 -0.13545683 0.74202126 0.2581809759 -0.5412648916 0.8002342582
-0.064674325 -0.18072219 0.71166664 -0.2828073204 -0.5596541762 0.7789783478
-0.11075456 -0.13962144 0.67200005 -0.9533497691 -0.009348073974 0.3017231822
-0.00056106667 -0.11333547 0.64000005 -0.565784514 -0.3407014012 0.7508731484
-0.0923815 -0.091552176 0.66157144 0.6978475451 -0.4994508028 0.5133787394
-0.055227142 -0.064416826 0.65346289 0.2453387827 -0.6228701472 0.7428604364
0.016859725 -0.062258128 0.69287503 -0.6070790291 -0.4005411565 0.6863102913
-0.017690256 -0.077279784 0.64672416 -0.4055457711 -0.5410831571 0.7367236018
-0.089645311 -0.15848555 0.69800001 -0.7498751879 -0.2765942514 0.6009848714
-0.028266009 -0.18142775 0.71020001 0.2521290481 -0.5569239259 0.7913701534
-0.062133752 -0.1242675 0.75000006 -0.3057514131 -0.5298787951 0.7910401225
0.011511509 -0.089163721 0.66766673 -0.7424346805 -0.3651640117 0.5616457462
-0.054942001 -0.15258662 0.73079294 -0.196563974 -0.6141500473 0.7643182278
-0.001773417 -0.14796014 0.71709096 0.6248887181 -0.5171580911 0.5848603845
0.030294092 -0.11031622 0.65200001 0.276858598 -0.456402272 0.8456041217
-0.053864658 -0.037549835 0.67685711 0.2937965095 -0.6803123355 0.6714601517
-0.023862606 -0.10360496 0.6243332 -0.4166797996 -0.520627141 0.7452015281
-0.10150442 -0.12902123 0.69749999 -0.8661176562 -0.2315458953 0.4429748654
-0.081222467 -0.10177819 0.63720006 0.5565588474 -0.5265574455 0.642634809
-0.080579408 -0.069262803 0.66766673 0.6551357508 -0.5274780393 0.5408918858
-0.024682973 -0.15609905 0.72568959 0.2940112054 -0.6217681766 0.7259213328
-0.035007518 -0.05214794 0.6614064 -0.06951407343 -0.6337416768 0.7704150081
-0.065220028 -0.083942726 0.64157134 0.3427082598 -0.5974897146 0.7249531746
-0.0050598434 -0.064926386 0.66444993 -0.5661482811 -0.4585194588 0.685008049
-0.078790419 -0.14938663 0.71900004 -0.6486094594 -0.4515432417 0.6127107143
0.032407667 -0.072087221 0.67784619 0.04807306826 -0.8480421901 0.5277436972
0.01037272 -0.14948919 0.69600004 0.7409291267 -0.4440357387 0.5038415194
-0.097169735 -0.079285733 0.68000001 0.6961414814 -0.4997122288 0.5154364109
-0.035189904 -0.085195184 0.63501376 -0.1032998711 -0.6121368408 0.7839755416
-0.046505123 -0.16891378 0.71849996 -0.003352873726 -0.5667645931 0.8238729835
-0.00079811737 -0.092026852 0.65040004 -0.6523478627 -0.4314317703 0.6231443286
0.021445019 -0.08274886 0.6923334 -0.3927504718 -0.4927305281 0.7765073776
0.01367451 -0.12280484 0.65336668 -0.1064446568 -0.6440747976 0.7575204372
-0.066621229 -0.051727898 0.67129993 0.4605882764 -0.6209528446 0.6342523098
-0.044918545 -0.13473257 0.74700004 -0.0573547855 -0.5601508021 0.8264027238
-0.035120055 -0.068461448 0.64851612 -0.09013537318 -0.6190811396 0.7801372409
-0.09954562 -0.14515057 0.68699998 -0.8656319976 -0.2121861428 0.4534956217
-0.0092152283 -0.13800545 0.73333335 0.4301975667 -0.5239424706 0.7351287603
-0.01136087 -0.16833973 0.70683336 0.5488753915 -0.5568512082 0.6234200597
-0.066331565 -0.13702103 0.73738718 -0.4055263102 -0.5199023485 0.7518310547
0.037605815 -0.093853526 0.65029615 0.3159295321 -0.5414028764 0.779147923
-0.081045419 -0.089007303 0.64875007 0.6176147461 -0.516459465 0.5931455493
-0.074185498 -0.16455643 0.71275008 -0.5560461283 -0.4432107508 0.7031194568
0.0055402969 -0.054349162 0.6831463 -0.5834736824 -0.5076847672 0.6338885427
-0.0095083266 -0.098998457 0.63800001 -0.5890854001 -0.4373811185 0.6794675589
-0.091339901 -0.061094899 0.69000006 0.6625501513 -0.5241589546 0.5350557566
-0.090295203 -0.14135812 0.71033335 -0.7926846147 -0.3259484172 0.5151783228
0.0073583326 -0.073780298 0.6713928 -0.6346057057 -0.3682211637 0.6794768572
-0.01906487 -0.058927782 0.65900004 -0.3735704422 -0.5523090959 0.7452515364
0.010979519 -0.16290277 0.68316674 0.7212679982 -0.4707592726 0.5080927014
-0.07464429 -0.075411081 0.65474999 0.5509756804 -0.5451000929 0.6318953037
0.0077252798 -0.10438207 0.65389484 -0.4132599235 -0.5200090408 0.7475337982
-0.034650486 -0.14712195 0.73702091 0.160220176 -0.5982619524 0.7851191759
-0.094001047 -0.1040827 0.65285712 0.6593504548 -0.5057060122 0.5563438535
-0.076230831 -0.12637591 0.73549998 -0.5821710825 -0.4259201586 0.692581296
-0.053497065 -0.048055477 0.66673923 0.2761070132 -0.6534951329 0.7047758698
-0.047690667 -0.080232531 0.64000005 0.06720065325 -0.6265867949 0.7764490247
-0.069037497 -0.10383239 0.63000005 0.4313395023 -0.555183053 0.7111385465
-0.10147037 -0.16077979 0.69033337 -0.8354338408 -0.2066153139 0.5092744231
-0.044454128 -0.10240216 0.61587495 0.03239479288 -0.5553292036 0.830999434
-0.02400386 -0.1668115 0.71634138 0.2841369808 -0.5780258775 0.7649524212
-0.0012402642 -0.15835777 0.70700008 0.6921027303 -0.4739482403 0.5443959236
-0.019079272 -0.088530816 0.63742864 -0.42684111 -0.537973702 0.7269050479
-0.012344946 -0.1572381 0.71743745 0.5181821585 -0.5553444028 0.6504458785
-0.03403797 -0.041157439 0.67011768 -0.06850329787 -0.7076256275 0.7032589912
-0.067059539 -0.061882619 0.66161549 0.4466222823 -0.6141346693 0.6506666541
-0.045191828 -0.18226624 0.71446157 0.04976996034 -0.5957606435 0.8016184568
-0.011929679 -0.11068919 0.63085717 -0.5723339915 -0.40714252 0.7118066549
-0.068117328 -0.1491566 0.72787511 -0.4169971645 -0.5439497232 0.7281703353
-0.0064683603 -0.07592231 0.6562857 -0.5609234571 -0.4515451193 0.6938817501
-0.035361096 -0.096508458 0.62648487 -0.1781208515 -0.6155649424 0.767693162
-0.0041669756 -0.054148737 0.67354244 -0.5560574532 -0.5085473061 0.6574038267
-0.080122948 -0.059349455 0.67700005 0.6510542631 -0.5229870081 0.5501026511
-0.068274066 -0.04228507 0.68084615 0.5084446669 -0.5996642113 0.6179699302
-0.063794807 -0.1621086 0.72096783 -0.3313721418 -0.5239348412 0.784655869
-0.079776667 -0.13849229 0.72799999 -0.6453235149 -0.4262778163 0.6339122653
-0.013691172 -0.14882095 0.72761542 0.4377861917 -0.5805928111 0.6864803433
-0.035447106 -0.16413778 0.72265595 0.1337870806 -0.5934357643 0.7936844826
0.013775173 -0.10214602 0.66487503 -0.03576116264 -0.5519660711 0.8330993652
0.018839942 -0.10695171 0.64842856 0.01553695928 -0.3318096697 0.94321841
-0.016711019 -0.18010765 0.70600003 0.4781673849 -0.5718532205 0.6665882468
0.016436219 -0.074317612 0.68498009 -0.6096641421 -0.3601228893 0.7061311007
-0.045121823 -0.057177205 0.65721971 0.08556620777 -0.6353755593 0.7674479485
-0.044973277 -0.15836169 0.7274825 -0.03886442259 -0.6232764125 0.7810352445
-0.082115613 -0.17079677 0.70640004 -0.6038300991 -0.4033588469 0.6875251532
-0.044964168 -0.091309413 0.63042873 0.07051826268 -0.6287490129 0.7744041681
-0.10225841 -0.13569085 0.68100005 -0.8743842244 -0.2013085932 0.4415054321
-0.025152324 -0.047331177 0.66658145 -0.2320492715 -0.6282552481 0.7425957918
-0.092321396 -0.12687638 0.71471441 -0.7927775979 -0.3200246692 0.5187368393
0.028237784 -0.098549604 0.64680004 0.2154560834 -0.5847405791 0.7820851207
-0.055011194 -0.17460847 0.71448582 -0.2002209425 -0.5714269876 0.7958534956
-0.045461956 -0.14745045 0.73653656 -0.05988089368 -0.5847666264 0.808988452
0.0056184363 -0.14802155 0.70540923 0.7309142947 -0.4460050762 0.5165692568
-0.045873493 -0.041834347 0.67047822 0.1476832777 -0.6808021069 0.7174246907
-0.065375246 -0.094251387 0.63201356 0.3514452875 -0.5807452202 0.7343168259
0.009259792 -0.11396667 0.65000004 -0.3613981605 -0.444385618 0.8197028637
-0.06554772 -0.071677379 0.6514073 0.3984432817 -0.5835820436 0.7075839043
-0.055305675 -0.091990151 0.63052636 0.2159713954 -0.5993554592 0.7707979083
-0.095113702 -0.13508207 0.70372224 -0.850182116 -0.2527185977 0.4618697762
-0.072537929 -0.17433597 0.71013784 -0.4846393466 -0.4905132055 0.7242385745
-0.024654895 -0.14527471 0.73603207 0.3038663864 -0.557300806 0.7727102041
-0.05484673 -0.13500728 0.7448284 -0.2195374519 -0.5682706833 0.7930143476
-0.089221872 -0.080949649 0.67400002 0.6997826099 -0.4964877069 0.5136187673
-0.0038266501 -0.1398257 0.72500002 0.5627733469 -0.4913970828 0.6646916866
-0.03492745 -0.17486542 0.71394652 0.193711102 -0.5706341267 0.7980305552
0.0015311176 -0.08584626 0.65800005 -0.6798602343 -0.3872402012 0.622764051
0.038840648 -0.076897472 0.66291672 0.2789554596 -0.7160342932 0.6399052739
-0.033320054 -0.12953247 0.74500006 0.1347977668 -0.5455416441 0.8271722198
-0.054711014 -0.075136669 0.64402521 0.2028887272 -0.6099322438 0.7660410404
-0.082748234 -0.15464328 0.71207321 -0.6673337221 -0.3774805963 0.6420078874
0.0031247318 -0.10571701 0.64570588 -0.5768877268 -0.4124584794 0.7050380111
0.0045441608 -0.065055199 0.67383027 -0.5910691619 -0.456392616 0.6650887132
-0.093149506 -0.14490169 0.70204443 -0.8252560496 -0.2430814207 0.5097684264
-0.024548564 -0.093053669 0.63127661 -0.3384585083 -0.554159224 0.7604954839
-0.044464536 -0.06756027 0.64836365 0.05591582134 -0.6311166883 0.7736698985
-0.076554716 -0.093128629 0.64161909 0.550889194 -0.5313113332 0.6436065435
-0.024438446 -0.064491399 0.65397376 -0.2663689554 -0.5742772222 0.7741144896
-0.030906444 -0.10410549 0.61849999 -0.2523666024 -0.5734091401 0.7794312239
0.037654463 -0.08546073 0.65390259 0.3740626574 -0.5864477158 0.7184401155
-0.054919433 -0.16401185 0.72179687 -0.1814191788 -0.5556917787 0.8113530278
-0.088204853 -0.094906174 0.65419996 0.6717817783 -0.5105618834 0.5366896391
0.013695393 -0.065665461 0.68474519 -0.6137151122 -0.3874565661 0.6879180074
-0.083314732 -0.085119218 0.65652508 0.6582106948 -0.5238819718 0.540653646
-0.0075444989 -0.08665707 0.64789295 -0.5814621449 -0.4679059386 0.6655567884
-0.038895946 -0.1292119 0.75200003 0.03261013329 -0.5550436378 0.8311817646
-0.0056570102 -0.17327093 0.70213646 0.6384068131 -0.524261415 0.5635483861
-0.024181493 -0.082003094 0.64054847 -0.2987719774 -0.5751343966 0.7615482807
-0.015230083 -0.1647626 0.71404225 0.4699878395 -0.5530809164 0.6879047155
0.025084861 -0.073759466 0.68475568 -0.3057758808 -0.6588713527 0.6873060465
-0.07451345 -0.13479772 0.73373026 -0.5515739322 -0.4607832134 0.6953021288
-0.055341143 -0.14550869 0.73559016 -0.2246963531 -0.5836979747 0.7802616358
-0.073773228 -0.085987873 0.64551789 0.5335119367 -0.5611587167 0.6328237653
-0.035080906 -0.074993953 0.64314973 -0.1124267131 -0.6089783907 0.7851786613
-0.014983908 -0.084901735 0.643857 -0.4542534649 -0.5180262923 0.7247775793
-0.0065263766 -0.046886172 0.67703581 -0.5253368616 -0.5750367045 0.6271793842
-0.034880903 -0.15375444 0.73189372 0.1252624094 -0.6344414949 0.7627537847
-0.087192185 -0.063097134 0.68300003 0.663423121 -0.5208776593 0.5371742249
-0.088602178 -0.13580449 0.71637487 -0.781514585 -0.3434137106 0.5208665133
0.040952753 -0.10133579 0.65183336 0.311509937 -0.4886563718 0.8149702549
-0.0052755927 -0.095011637 0.64407116 -0.6190446019 -0.4378688931 0.6519621015
-0.0080957655 -0.057510875 0.66652381 -0.5223262906 -0.5055095553 0.6867570877
-0.015668593 -0.066293731 0.65738481 -0.4166852832 -0.5256173611 0.741687119
-0.019567199 -0.160956 0.72000003 0.3967415094 -0.6007322669 0.6940582991
-0.0078720832 -0.16233495 0.71118754 0.5655586123 -0.5292446017 0.6324900389
-0.073765978 -0.097112067 0.63504654 0.5217568278 -0.5194911957 0.6766821146
-0.073960669 -0.065268412 0.66426092 0.5361509323 -0.5889487863 0.6047160625
-0.083380364 -0.056050867 0.6842258 0.6552816033 -0.5237465501 0.5443304181
-0.051379193 -0.14171092 0.741889 -0.1505422443 -0.5973228812 0.7877451181
-0.0051423921 -0.15483545 0.71446145 0.6070680022 -0.5211552382 0.5998880863
-0.0025857284 -0.073049016 0.66277272 -0.6113324165 -0.4340850413 0.6616969705
-0.096070327 -0.15525152 0.69431174 -0.8337640762 -0.2085628211 0.5112133026
-0.073607713 -0.14263061 0.73116004 -0.5151528716 -0.4998653531 0.6962414384
-0.054175682 -0.058005106 0.65824008 0.2325235158 -0.6369561553 0.7349963784
-0.02532283 -0.075383417 0.64497405 -0.2727042735 -0.5767144561 0.7700862288
-0.064564809 -0.14444543 0.73329508 -0.3980742991 -0.5399051905 0.7416463494
-0.0030747005 -0.10356987 0.64115793 -0.6338439584 -0.3745387793 0.6767293215
-0.014332278 -0.074027799 0.65317857 -0.441970855 -0.5142377615 0.7349975109
0.0092803929 -0.081878915 0.67000002 -0.7261776328 -0.3314626217 0.6023276448
0.0077890041 -0.093627848 0.6622414 -0.6322122216 -0.4901717007 0.600032866
-0.0043292609 -0.16549258 0.70450002 0.6516325474 -0.5004745126 0.5700002313
-0.008648755 -0.15081866 0.72183341 0.5233467817 -0.563665688 0.6390533447
-0.058954958 -0.13928919 0.73900002 -0.2996344864 -0.5633125305 0.7699987888
-0.071704149 -0.048871886 0.67820007 0.5366296172 -0.6058630943 0.5873317122
-0.084970042 -0.14525092 0.71456355 -0.7535722852 -0.36723575 0.5452216864
-0.024900647 -0.053520601 0.66178405 -0.2496625334 -0.5944384933 0.7644027472
-0.081345133 -0.13130483 0.73062497 -0.6392968893 -0.4197630286 0.6442813873
-0.077543832 -0.082757175 0.65182608 0.5965138078 -0.5385752916 0.5950697064
-0.02576969 -0.17420293 0.71165007 0.3041144609 -0.5552251339 0.7741055489
-0.073053002 -0.15365195 0.72205132 -0.5029460192 -0.5101617575 0.6976963878
-0.083250001 -0.095484912 0.64468747 0.6023750305 -0.5046405196 0.6184514761
-0.015901595 -0.095935427 0.63491219 -0.4709615707 -0.516266346 0.7153071165
-0.08096455 -0.07778839 0.65850002 0.6606810689 -0.5275959373 0.5339878201
0.0013156262 -0.16149263 0.70042861 0.7222893834 -0.4682812393 0.5089309812
-0.011383676 -0.051362541 0.67063642 -0.4522692859 -0.5623534918 0.6922507286
0.0075777606 -0.12122124 0.64816666 -0.3841406405 -0.3798494935 0.8415166736
-0.0013713989 -0.061342414 0.67066669 -0.617184341 -0.4494146407 0.6458405256
-0.05295001 -0.18189554 0.71341676 -0.09632190317 -0.6110413074 0.7857165933
-0.055817142 -0.043920435 0.67274004 0.3411108553 -0.6591225266 0.6702244878
-0.087051138 -0.15549994 0.70453852 -0.7313436866 -0.3174868822 0.6036045551
-0.049115248 -0.12835452 0.74700004 -0.1273952276 -0.5569333434 0.8207287788
-0.083740428 -0.065931074 0.67565787 0.670573473 -0.5174309015 0.5315980315
-0.054703366 -0.086106785 0.63534433 0.2000132948 -0.6075500846 0.7686856389
-0.071710981 -0.058607973 0.66719997 0.5338855982 -0.5904151797 0.6052901149
-0.065097205 -0.15536526 0.72465587 -0.3415103853 -0.5673100352 0.7493530512
-0.061037917 -0.039382849 0.67860001 0.3869324028 -0.6372672915 0.6664636135
0.0011705691 -0.068026036 0.66750002 -0.6227518916 -0.4302263558 0.6535177231
-0.087153837 -0.073696524 0.67321217 0.6889307499 -0.4999663234 0.5247933865
-0.045080021 -0.085139163 0.63481468 0.04809935763 -0.6100884676 0.7908719778
0.0022465535 -0.057200972 0.67695653 -0.5774297118 -0.4821826816 0.6588435173
0.010119364 -0.069049776 0.67900002 -0.6137151122 -0.3874565661 0.6879180074
-0.044858504 -0.096352339 0.62480617 0.08860877156 -0.6103256941 0.787179172
-0.064283416 -0.045790631 0.67533922 0.467354387 -0.6080121994 0.6417951584
0.00062287168 -0.15073451 0.7105 0.6949260831 -0.4670927525 0.5467193723
-0.015242891 -0.055535398 0.6645 -0.4030627012 -0.5438272357 0.7360655069
-0.071740113 -0.069045819 0.65816671 0.5163962841 -0.5768738985 0.6328912973
-0.084635578 -0.16427746 0.70371187 -0.6652949452 -0.3595319688 0.6543083191
-0.058123 -0.070374414 0.65000004 0.3033724129 -0.6101714969 0.7318851948
-0.097485729 -0.14502893 0.69596434 -0.8612268567 -0.2016609758 0.466498822
-0.021551972 -0.070360564 0.65040004 -0.3539031148 -0.5585811734 0.7501597404
0.0011368175 -0.09888339 0.64825004 -0.6489787698 -0.4246497452 0.6312679052
