# .PCD v0.7 - Point Cloud Data file format
VERSION 0.7
FIELDS x y z
SIZE 4 4 4
TYPE F F F
COUNT 1 1 1
WIDTH 376
HEIGHT 1
VIEWPOINT 0 0 0 1 0 0 0
POINTS 376
DATA ascii
-0.033476017 -0.058355819 0.56757146
-0.062815726 -0.061176099 0.57892311
-0.056520093 -0.060918689 0.5765295
-0.01062257 -0.060194563 0.57700002
-0.0050889738 -0.061433341 0.57830441
-0.062224377 -0.056916203 0.57830012
-0.054876294 -0.054806978 0.57573819
-0.045185022 -0.054778937 0.5727362
-0.035155248 -0.054559756 0.57186168
-0.025247535 -0.054336701 0.57308656
-0.015182804 -0.054861426 0.57515043
-0.0066275825 -0.056207087 0.57838893
0.021318778 -0.051266588 0.57900006
-0.051439837 -0.048240129 0.57830775
-0.044739984 -0.047550626 0.57718194
-0.035281222 -0.046910197 0.57666206
-0.025439372 -0.047289867 0.57679707
-0.019446218 -0.048869491 0.57866669
0.015933968 -0.042332709 0.57847363
0.023057438 -0.042111497 0.57874095
0.01749466 -0.036600772 0.57693172
0.023072805 -0.035286423 0.57776457
0.022950158 -0.029152479 0.57888895
0.01394163 -0.070740864 0.58900005
-0.073086441 -0.06324546 0.58651352
-0.066663533 -0.062762596 0.5820455
-0.0008474444 -0.061693955 0.57999998
0.0061518364 -0.063655458 0.58452547
0.011519254 -0.067479081 0.58833331
-0.07208135 -0.057505459 0.58658332
-0.065941855 -0.054062471 0.58275002
-0.058697563 -0.050762333 0.58020002
-0.013220133 -0.050338201 0.58000004
-0.0034586345 -0.053213164 0.58163148
0.0050620777 -0.055055551 0.58509439
0.014695962 -0.053889811 0.58422053
0.021335309 -0.052503068 0.58142859
-0.062879391 -0.04682821 0.58605117
-0.055415981 -0.044658732 0.58369529
-0.045189735 -0.042433355 0.58208168
-0.03478317 -0.041582648 0.58097076
-0.024997411 -0.042274985 0.58138466
-0.015165476 -0.044765614 0.58295608
-0.0056407661 -0.045859069 0.5867039
0.0061053475 -0.04775152 0.58407497
0.014699427 -0.046888575 0.58040726
0.021867491 -0.047017466 0.58009088
-0.053613536 -0.037347075 0.58802497
-0.044990823 -0.036543284 0.58669132
-0.03484223 -0.03549169 0.58630365
-0.024763314 -0.0360686 0.58635926
-0.015599957 -0.03796149 0.58840543
-0.0087780636 -0.039501287 0.58900005
0.027691046 -0.03412386 0.58041936
0.032036614 -0.032756798 0.58158332
0.025529569 -0.024936117 0.58093762
0.032506812 -0.023994908 0.5841915
0.026317984 -0.017263973 0.58539534
0.032426473 -0.018049143 0.58825004
-0.081441015 -0.070477426 0.59549999
-0.078242496 -0.070418246 0.59500003
0.016886266 -0.070960999 0.59430003
0.020445621 -0.070773296 0.59800005
-0.083266869 -0.064684391 0.59660017
-0.078182511 -0.065103352 0.59216666
0.0098274332 -0.060516298 0.59000003
0.014587748 -0.065172084 0.59212714
-0.080920018 -0.056988765 0.59860003
-0.07570681 -0.054181319 0.59344059
-0.069521129 -0.050544798 0.5903334
0.01318945 -0.059481833 0.59000003
-0.073068723 -0.046301439 0.59617782
-0.066334151 -0.043387141 0.59318513
-0.0021764562 -0.041913569 0.59175003
0.002941197 -0.044060927 0.59461367
-0.063742876 -0.035923336 0.59650004
-0.056054782 -0.033614419 0.59379256
-0.045266349 -0.031584077 0.59138477
-0.036076102 -0.030714257 0.59018189
-0.02452467 -0.031208135 0.59063631
-0.014593572 -0.033250894 0.59183013
-0.0054978407 -0.035380747 0.59483725
0.0008749133 -0.03901225 0.59866667
-0.060705662 -0.02956529 0.59866667
-0.054293696 -0.027983313 0.59697378
-0.044604346 -0.025548354 0.59552991
-0.035100471 -0.025133537 0.59476352
-0.025051616 -0.025041902 0.59535021
-0.015430581 -0.026994554 0.59689486
-0.0083541693 -0.02839209 0.59782356
-0.040434495 -0.019429563 0.59900004
-0.034308057 -0.01907948 0.59900004
-0.026664594 -0.019196175 0.59900004
0.026611751 -0.012009074 0.59117395
0.032461423 -0.01379067 0.59152007
0.02608249 -0.007792064 0.59268576
0.031451732 -0.0096174721 0.59300005
0.021645557 -0.070483342 0.60225004
-0.086599328 -0.061329845 0.60049999
0.018364273 -0.063158721 0.60264003
0.022129543 -0.064873576 0.60544842
-0.083439134 -0.0556801 0.6036098
0.018578757 -0.059185959 0.60550004
0.021250401 -0.058969859 0.60600001
-0.081285082 -0.046359207 0.6078462
-0.076846585 -0.043983266 0.60336119
0.0074038669 -0.042732701 0.60109526
0.011137613 -0.041878365 0.6047501
-0.072467379 -0.035871908 0.60580558
-0.067226619 -0.032698166 0.60196775
-0.0011115159 -0.031669389 0.60100001
0.0044699693 -0.034971457 0.60358107
0.011612327 -0.038446285 0.60846168
-0.071007371 -0.029363951 0.60900003
-0.064097457 -0.02632085 0.60548943
-0.055392262 -0.023232527 0.602404
-0.047498275 -0.02147674 0.60018182
-0.014423627 -0.021972258 0.60074991
-0.0048179515 -0.024793779 0.60385078
0.0026671707 -0.027942872 0.60830003
-0.060329571 -0.019753929 0.60900003
-0.05385207 -0.017999854 0.60669696
-0.044640653 -0.015345656 0.60465807
-0.035221461 -0.014176835 0.60315877
-0.02487826 -0.014498315 0.60382921
-0.015323964 -0.016057916 0.60567123
-0.0064474447 -0.018174177 0.6080001
-0.040575638 -0.0090761296 0.60900003
-0.033874616 -0.0085348981 0.6085
-0.024918005 -0.0084555866 0.60884219
-0.019753929 -0.0085422397 0.60900003
0.017460877 -0.0064760693 0.60565001
0.021906817 -0.006538026 0.60088229
0.025568642 -0.062572956 0.61400002
-0.085027896 -0.050802834 0.61000001
-0.084618583 -0.046730947 0.61273909
-0.079210773 -0.041210786 0.61049998
-0.08107657 -0.037561171 0.61700004
-0.076889701 -0.034170303 0.61263168
0.0090984851 -0.032111425 0.61049998
0.012825121 -0.033900674 0.61225009
-0.073284253 -0.026001669 0.61537212
-0.066471554 -0.022721902 0.61162072
-0.00053476664 -0.021390665 0.61000001
0.0055206153 -0.024252506 0.61222953
0.010705854 -0.027688056 0.61400002
-0.07027404 -0.017365012 0.61900002
-0.064257205 -0.016045202 0.61460322
-0.055834331 -0.01320775 0.6122632
-0.048278108 -0.011154049 0.61075002
-0.013509907 -0.011236637 0.61037493
-0.0041895765 -0.013889984 0.61283576
0.0039863344 -0.015829489 0.61655003
0.016003599 -0.012103895 0.61638886
0.021365568 -0.013402664 0.61663163
-0.061043702 -0.0087820953 0.61839998
-0.053996298 -0.0065479013 0.6161738
-0.044813983 -0.00493096 0.61398739
-0.035129979 -0.0039035417 0.61298484
-0.025292598 -0.0037016547 0.61264521
-0.01498318 -0.004755788 0.61496586
-0.0063328943 -0.006487105 0.6169284
0.01430872 -0.0086711682 0.61053342
-0.042847376 0.00090413552 0.61866671
-0.034435704 0.0017102757 0.61819237
-0.025250886 0.0021108517 0.61771047
-0.016822357 0.00081398489 0.61900002
-0.092004538 -0.11278304 0.62842858
0.024196243 -0.11313871 0.6234799
-0.092238173 -0.10384966 0.62725937
-0.089503281 -0.10482869 0.62845457
0.025102912 -0.10969073 0.62250006
-0.093682311 -0.097537018 0.62829173
-0.089691482 -0.098495543 0.62766671
-0.083160602 -0.040764999 0.62
-0.083758399 -0.033714779 0.62342507
0.016448146 -0.030946458 0.6224286
-0.082675017 -0.027402204 0.62715787
-0.077177741 -0.023195129 0.62302941
0.0092475181 -0.020670485 0.62050003
0.014977201 -0.024857787 0.6239475
0.020370226 -0.026976787 0.62800002
-0.074079439 -0.015703253 0.62528265
-0.067514196 -0.012036975 0.62105554
0.0065236217 -0.013358114 0.62010711
0.013517023 -0.016316816 0.62125003
-0.071105331 -0.0085433358 0.62874997
-0.064551629 -0.0052209361 0.62476265
-0.05609234 -0.0022930144 0.62154543
-0.048957888 -0.00054397166 0.62050003
-0.0033112823 -0.003143097 0.62210274
0.0035075264 -0.0056268531 0.62438887
-0.061359655 0.00128607 0.62866664
-0.045452349 0.0053229076 0.62250006
-0.085015625 -0.12025236 0.63800001
0.017744321 -0.12254592 0.63700014
0.020988628 -0.12138624 0.63340002
-0.093173936 -0.11458428 0.63059098
-0.087020174 -0.11470773 0.63672501
0.018347537 -0.11539477 0.63567859
0.021640129 -0.1151107 0.63168001
-0.090310693 -0.10693229 0.63200003
-0.088069662 -0.1048929 0.63615388
0.019575967 -0.10850678 0.63800001
0.022982635 -0.10599016 0.63633329
-0.092284858 -0.094684891 0.63357902
-0.088930823 -0.098998457 0.63800001
-0.084168941 -0.023325257 0.63412005
0.0204351 -0.0254058 0.63000005
-0.081620499 -0.017141934 0.63400006
-0.077576235 -0.012564228 0.63327283
-0.07319437 -0.0053903623 0.63389194
-0.068208434 -0.0019892445 0.63050002
-0.073371738 -0.1304785 0.64880008
-0.069981672 -0.13142899 0.64900005
0.0061654402 -0.13273545 0.64803582
0.012070385 -0.13109805 0.6455
-0.083253637 -0.12284384 0.64204174
-0.075986989 -0.12458991 0.64731812
-0.069981672 -0.12801525 0.64900005
0.0073008402 -0.12587899 0.64759082
0.013314723 -0.12509057 0.6431042
-0.082652085 -0.11450108 0.64289367
-0.078382619 -0.11711916 0.64730442
0.0092808316 -0.11856902 0.64816666
0.014310761 -0.11518433 0.64479589
-0.08560057 -0.10570721 0.64436376
0.017816497 -0.10661739 0.64499998
0.021357462 -0.10285591 0.64112496
-0.090688772 -0.092322871 0.64181817
-0.087803677 -0.094889693 0.64561927
-0.090949647 -0.08685898 0.64500004
-0.088325709 -0.086461306 0.64658827
-0.055641741 -0.1405399 0.65433335
-0.043835741 -0.14108145 0.65641671
-0.034993898 -0.14090513 0.65757143
-0.025207924 -0.14118364 0.65771425
-0.016381316 -0.14155817 0.65663642
-0.072170354 -0.13275012 0.65026665
-0.06433969 -0.13462298 0.65392947
-0.054960843 -0.13509539 0.65629327
-0.04488381 -0.13610989 0.65848243
-0.036176115 -0.13710417 0.65828902
-0.024217194 -0.13704522 0.65798062
-0.014612569 -0.13589667 0.65718055
-0.0053861123 -0.13428919 0.65405869
0.001910721 -0.13359925 0.65011758
-0.071893528 -0.1240483 0.65170974
-0.06579449 -0.12584399 0.65627158
-0.057255756 -0.12880765 0.65887505
-0.01135634 -0.12953685 0.65866673
-0.004012763 -0.12663034 0.65648156
0.0026679053 -0.12403572 0.65276188
-0.080346502 -0.1111175 0.65000004
-0.07455498 -0.11454024 0.65432847
-0.068555132 -0.11804999 0.65884614
0.0064598755 -0.1153695 0.65546447
0.01173162 -0.11235758 0.65161544
-0.082543433 -0.10412744 0.65244734
-0.07807745 -0.10590672 0.65585726
0.0094286958 -0.10775971 0.65850002
0.013997717 -0.10477237 0.65466011
-0.083620735 -0.095559597 0.65313154
-0.079027995 -0.09979447 0.65800005
0.016234845 -0.099160202 0.65383339
-0.086474605 -0.086737052 0.65392309
-0.051983081 -0.14168912 0.66200012
-0.048386302 -0.14168204 0.66100001
-0.051187102 -0.13231383 0.66100001
-0.044907909 -0.13163397 0.66119063
-0.03440534 -0.13301182 0.66208327
-0.025500813 -0.13239366 0.66188884
-0.017182063 -0.1318699 0.6615625
-0.062700078 -0.12224242 0.66155565
-0.054723725 -0.12438947 0.66339147
-0.045161102 -0.12600762 0.66500002
-0.034903049 -0.12784174 0.66589457
-0.024753423 -0.12716536 0.66553849
-0.014901048 -0.12534174 0.66448462
-0.0068911924 -0.12279917 0.66235131
-0.070867538 -0.11202595 0.66125
-0.064883143 -0.11478391 0.66347373
-0.057472806 -0.11809255 0.66671431
-0.011699336 -0.11933076 0.66725004
-0.0040684068 -0.11639471 0.66566056
0.0022061316 -0.11360428 0.66276675
-0.073670007 -0.104798 0.66368753
-0.068769097 -0.10704874 0.66666669
0.006189622 -0.10622798 0.66542548
0.011805193 -0.1012249 0.66233337
-0.081754625 -0.093244985 0.66500002
-0.076757379 -0.095838703 0.66635543
0.0096481554 -0.099112868 0.66700006
0.013223089 -0.095874228 0.66582859
-0.083113663 -0.085192084 0.66573173
-0.078472182 -0.089598842 0.66800004
-0.08524356 -0.079988822 0.66600001
-0.051100899 -0.12041017 0.67000002
-0.04449673 -0.12147388 0.67027277
-0.034936022 -0.12290382 0.6707955
-0.025422249 -0.12250713 0.67070585
-0.017631872 -0.12142201 0.67040002
-0.062437203 -0.11126179 0.67099994
-0.054233331 -0.11433863 0.67299986
-0.04484804 -0.11497765 0.67489612
-0.035072856 -0.11615939 0.67616677
-0.025994353 -0.11298413 0.67771924
-0.015146459 -0.11485063 0.67398685
-0.006810945 -0.11292861 0.67251724
-0.071097448 -0.10106455 0.67025006
-0.064734325 -0.10438286 0.67391658
-0.055503983 -0.10666411 0.67685455
-0.048183355 -0.10853389 0.67854542
-0.013442048 -0.1090837 0.67846668
-0.0040571005 -0.10561101 0.67548394
0.0030447403 -0.10300733 0.6714412
-0.072091371 -0.09366256 0.67584848
-0.067261331 -0.097824357 0.67785716
-0.0011902942 -0.098775998 0.67875004
0.0056630252 -0.095936358 0.67468977
0.010000137 -0.093530685 0.671
-0.081086628 -0.082114741 0.67025006
-0.076702163 -0.085514627 0.67421573
0.0065478231 -0.089288503 0.67900002
-0.081188098 -0.079608351 0.67600006
-0.077747189 -0.079330444 0.67700005
-0.03479052 -0.11100109 0.68033338
-0.017287867 -0.11028466 0.68000001
-0.060209468 -0.10074653 0.68000001
-0.054028369 -0.1019099 0.68210715
-0.04453646 -0.10440631 0.68338364
-0.034823146 -0.10506022 0.68486106
-0.025185086 -0.10492112 0.68395805
-0.015187977 -0.1043368 0.68312305
-0.0077628102 -0.1024979 0.68108338
-0.064402618 -0.094031945 0.68222952
-0.055819333 -0.096371546 0.68635863
-0.046995226 -0.098141812 0.68727773
-0.033173066 -0.099217631 0.68800008
-0.025559392 -0.099220082 0.68760002
-0.013769148 -0.097753637 0.68710715
-0.0047580446 -0.095481582 0.68463486
0.0024183081 -0.09211681 0.68115795
-0.072388127 -0.083871275 0.68175769
-0.066528067 -0.086287647 0.68608522
-0.05971152 -0.089868851 0.68800002
-0.0025062056 -0.087469041 0.68710536
0.0027783632 -0.087660529 0.68241167
-0.073410004 -0.078014031 0.68308008
-0.068457022 -0.077757455 0.68757153
-0.053658068 -0.091999419 0.69107157
-0.044356983 -0.094447143 0.69241518
-0.035493933 -0.094883345 0.69359374
-0.025272505 -0.094492212 0.69251591
-0.015542909 -0.093732744 0.69220424
-0.0078666219 -0.091234691 0.69022226
-0.062851891 -0.08327277 0.69121236
-0.055209469 -0.085477725 0.69531041
-0.045599472 -0.087347254 0.69725013
-0.035765942 -0.088682592 0.69765222
-0.024574257 -0.087426364 0.69761378
-0.014468833 -0.08599925 0.69680357
-0.0074847708 -0.08652512 0.6920476
-0.070773296 -0.0756125 0.69000006
-0.06404604 -0.077433869 0.6916073
-0.057994541 -0.076496407 0.69733334
-0.051986333 -0.081266999 0.70000011
-0.044609737 -0.082425028 0.70151424
-0.034772504 -0.083866239 0.70213699
-0.025119459 -0.082455382 0.70093739
-0.017659966 -0.08202678 0.70000005
-0.053387918 -0.076260217 0.70055193
-0.045274716 -0.076838084 0.7035417
-0.034560371 -0.07713788 0.70392513
-0.026256764 -0.077755421 0.70240915
-0.041703034 -0.075314432 0.71000004
