# .PCD v0.7 - Point Cloud Data file format
VERSION 0.7
FIELDS x y z
SIZE 4 4 4
TYPE F F F
COUNT 1 1 1
WIDTH 364
HEIGHT 1
VIEWPOINT 0 0 0 1 0 0 0
POINTS 364
DATA ascii
-0.04465761 -0.1024157 0.61811769
-0.070030764 -0.10311616 0.62900001
-0.064463057 -0.10202039 0.62742859
-0.055801321 -0.10108002 0.62459999
-0.044165004 -0.10102458 0.62066668
-0.033941627 -0.10243745 0.62294745
-0.025643522 -0.10303386 0.62294644
-0.016702447 -0.1029493 0.62800002
-0.0082496088 -0.1081321 0.62740004
-0.062940866 -0.098512024 0.62855554
-0.054329783 -0.096951522 0.62700015
-0.044849932 -0.096302032 0.62466192
-0.035229117 -0.096168384 0.62567133
-0.025370304 -0.096790947 0.62727463
-0.019289589 -0.098651886 0.62866664
-0.0013014118 -0.11122753 0.63650006
0.0016761135 -0.1121031 0.63725001
-0.073719107 -0.10215891 0.63251734
-0.068396658 -0.10110264 0.63020003
-0.013523093 -0.10364883 0.63116294
-0.0056519723 -0.10553215 0.63506967
0.00093189668 -0.10863624 0.6376667
-0.073144406 -0.097928829 0.63572001
-0.065275863 -0.09432137 0.63327146
-0.055256762 -0.092146866 0.63092506
-0.045279894 -0.091238074 0.63046163
-0.034496579 -0.091057159 0.63045841
-0.024127781 -0.092264965 0.63081574
-0.015021905 -0.095163032 0.63432407
-0.0079127476 -0.097923815 0.63752633
-0.062788762 -0.088348262 0.63694453
-0.054603443 -0.086069837 0.63556451
-0.045091279 -0.085160665 0.63497525
-0.035057809 -0.085049778 0.63479507
-0.025510879 -0.086032607 0.6353063
-0.018273005 -0.088092253 0.63679999
-0.045024723 -0.079981804 0.63800001
-0.035580933 -0.07955157 0.63800007
0.009264905 -0.12119303 0.64700001
0.011183929 -0.12150484 0.64866668
0.0069619021 -0.11434752 0.64333349
0.011294371 -0.1158497 0.64818758
-0.090464108 -0.10411907 0.64900005
-0.084598862 -0.10276624 0.64362168
-0.079234011 -0.10058785 0.64100003
-0.0025479645 -0.10299536 0.64065391
0.0041098837 -0.10550474 0.64459664
0.019579599 -0.10618625 0.64871436
0.025250832 -0.10456972 0.64784628
0.033359576 -0.10390957 0.6479609
0.041533835 -0.10298116 0.64900005
-0.082602866 -0.095649153 0.64667571
-0.075947352 -0.093879618 0.64293331
-0.069011196 -0.090331733 0.64000005
-0.011789789 -0.09103369 0.64042866
-0.0042889984 -0.094252817 0.6430704
0.0015140033 -0.095629573 0.6470834
0.028927369 -0.099260584 0.64700001
0.035929684 -0.09717413 0.64757138
0.040395923 -0.097291589 0.64900005
-0.08022289 -0.089326195 0.64900005
-0.07316339 -0.086712793 0.64586842
-0.065425582 -0.084084593 0.64274627
-0.056119356 -0.081700578 0.6410476
-0.045670826 -0.080232531 0.64000005
-0.030858666 -0.080232531 0.64000005
-0.024394093 -0.081647642 0.64026928
-0.014620505 -0.084500805 0.64270401
-0.0067555928 -0.086205833 0.64679998
0.00056895666 -0.089326195 0.64900005
-0.064423308 -0.077698506 0.64742506
-0.054762442 -0.075205937 0.64459991
-0.044882283 -0.074810468 0.64283997
-0.035165191 -0.074661665 0.64273334
-0.025284007 -0.075164907 0.64388591
-0.016392633 -0.076756045 0.64670593
-0.052002646 -0.069526508 0.64900005
-0.04422982 -0.06763678 0.64782929
-0.03496002 -0.068032727 0.64802724
-0.025711991 -0.069054939 0.64873689
0.015554102 -0.12342594 0.65541929
0.015881645 -0.11493456 0.65198052
0.023315195 -0.11362967 0.65171874
-0.09162613 -0.10266293 0.65425003
-0.089065164 -0.10105359 0.65125006
0.0083504589 -0.10335947 0.65227997
0.014187576 -0.10696243 0.65358502
0.025554836 -0.1095395 0.65000004
0.036919393 -0.10604981 0.65037501
0.041746709 -0.10232277 0.65072733
-0.091005012 -0.099642813 0.65700006
-0.086561538 -0.095240012 0.65129989
0.0060396898 -0.09528318 0.65414
0.010976743 -0.099946134 0.65900004
0.038830072 -0.092068776 0.65000004
0.043429822 -0.094909996 0.65163273
-0.081772804 -0.086127371 0.65505004
-0.076800808 -0.083599076 0.65235889
-0.003085115 -0.08337146 0.65228575
0.0031965501 -0.084567241 0.65625507
0.038965497 -0.087242156 0.65044451
0.043000478 -0.085841872 0.65439552
-0.073649988 -0.075958565 0.65444684
-0.06554886 -0.072704174 0.65153652
-0.057064734 -0.070252307 0.65000004
-0.014076244 -0.072712161 0.65202636
-0.0055877776 -0.075592682 0.65512329
0.0015677304 -0.07827156 0.65857142
-0.071409173 -0.069484018 0.65866673
-0.064124219 -0.066394754 0.6560927
-0.055146821 -0.064651512 0.6540572
-0.04572846 -0.062768616 0.65253049
-0.034653079 -0.062861919 0.65203762
-0.024376674 -0.063896514 0.65243465
-0.015194021 -0.065292478 0.65667164
-0.0086527588 -0.067650907 0.65806669
-0.05264508 -0.058111235 0.65836853
-0.044778746 -0.05669152 0.6576668
-0.034731187 -0.055924293 0.65726262
-0.025335515 -0.056915998 0.65813059
-0.018396348 -0.058324505 0.65871429
-0.094969787 -0.10142303 0.6627779
0.014505502 -0.10207116 0.66180009
-0.092800938 -0.095976137 0.6648649
-0.088606365 -0.092228755 0.66670007
0.0086148009 -0.091896646 0.66184622
0.013244133 -0.095046096 0.6646207
-0.090724766 -0.08838407 0.66766667
-0.086308636 -0.084604613 0.6643914
0.0082173776 -0.085001871 0.66317391
0.012510734 -0.086863995 0.66680014
0.045971815 -0.081319906 0.66100007
-0.082474545 -0.076628387 0.66611546
-0.077239901 -0.073193915 0.66244006
-0.0017399444 -0.071996495 0.66181827
0.0044660452 -0.075073548 0.66500002
0.043865833 -0.075640567 0.66409802
-0.073569164 -0.065893516 0.66520005
-0.066690937 -0.062245522 0.66304559
-0.011396375 -0.061231371 0.66100001
-0.0046841358 -0.064393431 0.66301721
0.0020375242 -0.065663159 0.66693103
0.041578546 -0.069687985 0.66800004
-0.070859216 -0.059146944 0.66800004
-0.064117685 -0.056572277 0.66562492
-0.055599939 -0.054428786 0.66342098
-0.045194916 -0.051909991 0.66214287
-0.036265314 -0.051465921 0.66127795
-0.024417022 -0.052404683 0.66175753
-0.01476159 -0.054877747 0.66391677
-0.0070338696 -0.056612045 0.66612494
0.00058561331 -0.059146944 0.66800004
-0.053086501 -0.048276424 0.66705573
-0.044553265 -0.046772983 0.66632688
-0.035164274 -0.045920055 0.66494638
-0.025296286 -0.046715852 0.66615999
-0.016607497 -0.048147835 0.66730446
0.019313844 -0.10178363 0.67580003
0.021340258 -0.10136502 0.67616671
-0.092803933 -0.091041833 0.67000002
0.017567283 -0.095642045 0.67327583
0.020752162 -0.097831033 0.67633337
-0.092838779 -0.089312829 0.67025006
0.015120452 -0.084195137 0.67190921
-0.085545376 -0.073416069 0.67293942
0.0084230714 -0.073456071 0.67033333
0.012535961 -0.07521455 0.6742751
0.035576433 -0.072094783 0.67617244
0.040528301 -0.071071364 0.67000002
-0.08308351 -0.066664413 0.6766001
-0.077170849 -0.063403934 0.67270368
0.0064895889 -0.064534687 0.67247617
0.010823862 -0.065131105 0.67750007
0.02751434 -0.067084685 0.67827266
0.034170371 -0.068179019 0.67473906
0.040528301 -0.069309264 0.67000002
-0.073822051 -0.0558149 0.67549998
-0.066007823 -0.052074619 0.67162067
-0.059368305 -0.050550789 0.67050004
-0.003558557 -0.053250186 0.6720953
0.0037893916 -0.055804141 0.67642313
-0.071430802 -0.049406301 0.67900002
-0.064043038 -0.046132833 0.67638099
-0.055630639 -0.044147007 0.67281806
-0.04557028 -0.042042769 0.67038453
-0.034510583 -0.041119449 0.67006254
-0.024638683 -0.041974328 0.6703214
-0.014076716 -0.043943562 0.67226797
-0.0057136179 -0.046582077 0.67604357
0.0009918022 -0.048985209 0.67866677
-0.060120922 -0.039286941 0.67900002
-0.053720973 -0.037554771 0.676853
0.0054283198 -0.1718968 0.68800002
0.0085594226 -0.16347869 0.68760002
0.012811324 -0.16320801 0.68354845
-0.10170183 -0.15313303 0.68707693
-0.099519201 -0.15219401 0.68800002
0.0084407656 -0.15917264 0.68774998
0.013188768 -0.15722936 0.68400007
-0.10243734 -0.14934601 0.68600005
-0.099519201 -0.14897722 0.68800002
0.016260287 -0.14738432 0.68699998
-0.10193179 -0.13450171 0.68800002
0.018292673 -0.08204826 0.68400002
0.022316426 -0.080218509 0.68800002
0.017713312 -0.074420907 0.68383789
0.024679828 -0.074202158 0.68547064
0.031971883 -0.075099647 0.68166667
-0.091343626 -0.064211667 0.68774998
-0.086542547 -0.063588738 0.6839999
0.015495858 -0.065338865 0.68280011
0.024036037 -0.068456508 0.68220001
-0.082863986 -0.056904506 0.68643475
-0.077474572 -0.05316785 0.6822632
0.0075819972 -0.05318591 0.68255562
0.011948183 -0.056203004 0.68625003
-0.074249528 -0.045577347 0.68467355
-0.067335539 -0.042826053 0.68116003
-0.000856328 -0.17405024 0.69760001
0.003206471 -0.17196405 0.69290471
-0.089339346 -0.16093321 0.69800001
0.0048886482 -0.16588308 0.69373822
-0.1010183 -0.1518299 0.69000006
-0.095376566 -0.15474682 0.69335878
-0.089320131 -0.15544453 0.69753331
0.0080184322 -0.15717338 0.69607151
0.011474432 -0.15283848 0.69329405
-0.094899155 -0.1453612 0.69596082
-0.089951262 -0.14930685 0.69800001
0.012777884 -0.147585 0.69433331
-0.10121725 -0.13382095 0.6913684
-0.096318208 -0.13516423 0.69497514
-0.10070358 -0.12921716 0.69200003
-0.096865438 -0.12849927 0.69688892
0.0199617 -0.085290901 0.69000006
0.021208668 -0.084470697 0.69120002
0.0248009 -0.079241902 0.69000006
-0.092360511 -0.06347435 0.69220006
0.017947996 -0.06205748 0.69400001
-0.090260722 -0.058154561 0.69100004
-0.085947827 -0.054088909 0.69291902
-0.011759606 -0.18010765 0.70600003
-0.081790194 -0.17135361 0.70360005
-0.075188965 -0.17233105 0.7063126
-0.068895482 -0.17441107 0.708
-0.021723799 -0.17689379 0.708
-0.014234744 -0.1753981 0.70698172
-0.0058694915 -0.174465 0.70349079
-0.083944879 -0.16434012 0.70259261
-0.07747101 -0.16577893 0.70667577
-0.010965346 -0.16903186 0.708
-0.003382893 -0.16637027 0.70513958
0.0017789875 -0.16346952 0.70115793
-0.085689455 -0.15539247 0.70508009
0.00483952 -0.1549314 0.70432705
-0.090940945 -0.14368238 0.70091671
-0.087468177 -0.14550737 0.70584625
0.0081428559 -0.14774689 0.7068572
0.010644342 -0.14656596 0.70050001
-0.092286937 -0.13463768 0.70326936
-0.089998603 -0.13903232 0.708
-0.09379939 -0.12884794 0.70550007
-0.06046107 -0.18013659 0.71100003
-0.053688232 -0.18122746 0.71311116
-0.044962291 -0.18243894 0.71534771
-0.034743425 -0.18153359 0.71120018
-0.024884185 -0.18193166 0.7103914
-0.018332152 -0.18193324 0.71120006
-0.070749916 -0.17158413 0.71000004
-0.064320289 -0.17365091 0.71204257
-0.054991201 -0.17492969 0.71331435
-0.045128301 -0.17487432 0.71498615
-0.035084572 -0.17477623 0.71459734
-0.025087543 -0.17465486 0.71143466
-0.017767202 -0.17254661 0.71015388
-0.072845824 -0.1642811 0.71138108
-0.06592045 -0.16609253 0.71566665
-0.056290802 -0.16837826 0.71726078
-0.045800865 -0.16915487 0.71788889
-0.034487411 -0.16928148 0.71850002
-0.024101678 -0.16733193 0.7167837
-0.014970765 -0.16523513 0.7146666
-0.0069714966 -0.16313724 0.7119444
-0.081470266 -0.15445963 0.71082622
-0.075967841 -0.15573278 0.71435094
-0.069335565 -0.15884148 0.71900004
-0.011959838 -0.15799005 0.71799999
-0.0044164006 -0.15534347 0.71543747
0.0015806297 -0.15251499 0.71053851
-0.083293647 -0.14428201 0.71418172
-0.078374751 -0.14723316 0.71685714
-0.0018884277 -0.14785728 0.7177
0.0039026565 -0.14578901 0.71345007
-0.090740174 -0.1331946 0.71027273
-0.087215573 -0.13567479 0.7152307
-0.091702774 -0.12674816 0.71021432
-0.088506296 -0.12657334 0.71474999
-0.063296944 -0.16219385 0.72083348
-0.054661814 -0.16362847 0.72116071
-0.04497914 -0.16467114 0.72266674
-0.035406735 -0.16471006 0.72201598
-0.026011553 -0.16266826 0.72102487
-0.018316634 -0.16106689 0.72050005
-0.072400853 -0.15276699 0.72116011
-0.064720504 -0.15490767 0.72372299
-0.054905199 -0.15637414 0.7264511
-0.044995092 -0.15743366 0.72749984
-0.035178799 -0.15755312 0.72726476
-0.024849821 -0.15671109 0.72680414
-0.015707711 -0.15502529 0.72442383
-0.0080008581 -0.15129426 0.72209096
-0.080218069 -0.14274895 0.72050005
-0.07483352 -0.14504948 0.7245295
-0.067251317 -0.14816874 0.7276842
-0.012670964 -0.14922132 0.72785723
-0.0050865128 -0.14579692 0.72442102
0.00063207664 -0.14284845 0.72100008
-0.082823738 -0.13455114 0.7231499
-0.078603923 -0.1361053 0.7271052
-0.084390298 -0.1273251 0.72592324
-0.079776667 -0.12891909 0.72800004
-0.061436802 -0.15039216 0.73000002
-0.054532655 -0.151804 0.73095
-0.044304889 -0.15276159 0.73100001
-0.034401067 -0.15290809 0.73203033
-0.025962276 -0.15213439 0.73076177
-0.016852455 -0.15081881 0.73000002
-0.072468452 -0.14161897 0.73036367
-0.064426266 -0.14396912 0.73220831
-0.055248965 -0.14496586 0.7350769
-0.045588795 -0.14696027 0.7362653
-0.03471062 -0.14703858 0.73740393
-0.024584081 -0.14563639 0.73627114
-0.015309684 -0.14458586 0.73335958
-0.0079787383 -0.14280686 0.73122221
-0.073546879 -0.13447328 0.73295921
-0.065910861 -0.13634235 0.73695558
-0.057983171 -0.13896526 0.73900002
-0.020569449 -0.13702169 0.73899996
-0.015288597 -0.13692091 0.73746443
-0.0084821489 -0.13799578 0.73400015
-0.08224941 -0.12465466 0.73012501
-0.075913198 -0.12671855 0.73482865
-0.069320664 -0.12892348 0.73900002
-0.02137927 -0.1269799 0.73900002
-0.050669581 -0.14096537 0.74100006
-0.044311117 -0.14235933 0.74150008
-0.035371747 -0.14163946 0.74192309
-0.027377522 -0.14135918 0.74155569
-0.062863715 -0.13288485 0.74211115
-0.054564152 -0.13469128 0.74385291
-0.044961762 -0.13519952 0.746113
-0.035174932 -0.13512012 0.74631727
-0.025641358 -0.1353648 0.74405658
-0.072570719 -0.12453952 0.74100012
-0.065512642 -0.12653112 0.74444175
-0.055405904 -0.12772055 0.74813038
-0.048885565 -0.12762688 0.74850005
-0.038740776 -0.12935479 0.74900001
-0.023893084 -0.12748951 0.74129426
-0.0440525 -0.13084249 0.75000006
-0.062079687 -0.12393845 0.75066668
-0.057456728 -0.12572452 0.75085717
-0.044826649 -0.12876782 0.75119996
