# .PCD v0.7 - Point Cloud Data file format
VERSION 0.7
FIELDS x y z
SIZE 4 4 4
TYPE F F F
COUNT 1 1 1
WIDTH 379
HEIGHT 1
VIEWPOINT 0 0 0 1 0 0 0
POINTS 379
DATA ascii
0.031190265 -0.11119924 0.61874998
0.0092102597 -0.10998134 0.61800003
0.012620744 -0.1097221 0.61828572
0.048219062 -0.12186289 0.62436366
0.05221865 -0.12037773 0.62700003
-0.0054337992 -0.11103114 0.62737501
0.002744142 -0.11041318 0.62660003
0.018052319 -0.1121432 0.62400001
0.025920469 -0.11114676 0.62692302
0.034629021 -0.1111678 0.62521738
0.046462297 -0.11799605 0.6240384
0.051241655 -0.11829943 0.62700009
-0.0040561059 -0.10739074 0.6275264
0.0049698721 -0.10574675 0.62649298
0.014877487 -0.10507862 0.62611395
0.02440533 -0.10558908 0.62750006
0.033510603 -0.10679227 0.62800014
0.02150551 -0.09980762 0.62900001
0.059194285 -0.12006389 0.63700002
0.060965154 -0.12025236 0.63800001
-0.022515493 -0.11428978 0.63749999
-0.015958654 -0.11227564 0.63390911
0.026509425 -0.11440471 0.63144445
0.045273621 -0.11284867 0.63137221
0.054269515 -0.11450559 0.63626528
0.061524466 -0.11913374 0.63800001
-0.021056658 -0.10863624 0.6376667
-0.013966206 -0.10585874 0.63449156
-0.0056560342 -0.10326534 0.63267314
0.0052395863 -0.10089935 0.63090479
0.011827284 -0.10091345 0.63040006
0.027761053 -0.10097744 0.63080007
0.035942774 -0.10318867 0.63171798
0.044687361 -0.1057846 0.63527703
0.051957477 -0.10843299 0.63727278
-0.0039831842 -0.097287185 0.63657773
0.0050607473 -0.095132396 0.63474095
0.015024774 -0.09510541 0.63378292
0.025004115 -0.09507978 0.6347754
0.034531917 -0.097104855 0.63614583
0.04190496 -0.099453151 0.63733339
0.0070333211 -0.089880072 0.63680005
0.017608581 -0.088883914 0.6376667
0.022400985 -0.089146405 0.63736367
-0.03584427 -0.12004986 0.64900005
0.063994914 -0.12062758 0.64600003
-0.032392599 -0.11555298 0.64593333
-0.027242558 -0.11335415 0.64191896
0.058457781 -0.11350131 0.64152944
0.064358078 -0.11452311 0.64649183
0.075384147 -0.11332683 0.64778733
0.083525933 -0.11280663 0.64813346
-0.030503033 -0.10931653 0.64833337
-0.024368655 -0.10542256 0.64533859
-0.017275864 -0.10285062 0.64134485
0.047487471 -0.10195263 0.64050001
0.054945935 -0.10490139 0.64431137
0.063506827 -0.109113 0.64825004
0.076598324 -0.10709824 0.64618915
0.085240573 -0.10511477 0.6466763
0.091528632 -0.10481498 0.64880008
-0.022030633 -0.098495252 0.64850008
-0.01472852 -0.09574151 0.64451331
-0.0062359725 -0.093003154 0.64148939
0.0014028859 -0.090647548 0.64025003
0.010660267 -0.090331733 0.64000005
0.0286144 -0.090331733 0.64000005
0.036064006 -0.092711851 0.64075011
0.045108393 -0.094701022 0.64397359
0.051465943 -0.096793436 0.64640909
0.087466054 -0.095747463 0.6473
0.09158998 -0.0960861 0.64854544
-0.010799073 -0.088096529 0.64833337
-0.0040459917 -0.086278588 0.64653331
0.0049839048 -0.085114904 0.64407218
0.014945703 -0.084633335 0.64330548
0.02544312 -0.084754489 0.64454645
0.034566063 -0.085681602 0.64576042
0.042887066 -0.087817676 0.64773905
0.0058861859 -0.078749202 0.64811999
0.015663104 -0.078413136 0.64802861
0.023055645 -0.078744642 0.64821428
0.067972615 -0.12359692 0.65210003
0.071859449 -0.12275413 0.65227783
-0.04153296 -0.11825357 0.65800005
-0.036551125 -0.11465915 0.65495002
0.067962296 -0.11552133 0.65061539
0.074154966 -0.11828747 0.65068179
0.085235089 -0.11535501 0.6503334
-0.03297855 -0.10581873 0.65611643
-0.028070692 -0.10218409 0.6516667
0.057663817 -0.10101888 0.65266675
0.062931418 -0.10550147 0.65447378
0.094644137 -0.10303623 0.65000004
-0.031312235 -0.098552123 0.65837502
-0.025020866 -0.094541788 0.65442872
-0.01752607 -0.091862395 0.65085715
0.0495755 -0.091173336 0.65000004
0.055626046 -0.094715565 0.65464586
0.060922783 -0.099359356 0.65766668
0.088324159 -0.090603501 0.65000004
0.095717832 -0.094307452 0.65181816
0.10048792 -0.090152018 0.65500003
-0.022079537 -0.088145137 0.65778571
-0.014686757 -0.085301489 0.6548335
-0.0071449904 -0.082610138 0.65182149
0.03586648 -0.080969229 0.65073341
0.04570945 -0.083968766 0.65405101
0.052284315 -0.087024942 0.65742862
0.089235462 -0.086938776 0.65250003
0.094362848 -0.085091025 0.65559155
-0.011858572 -0.078257494 0.65800005
-0.0046857321 -0.075879537 0.65591455
0.0049734833 -0.073976092 0.65371418
0.014858194 -0.073392317 0.65239209
0.025168521 -0.074105427 0.65269244
0.034834299 -0.075515404 0.65526342
0.04327257 -0.077626377 0.65742308
0.089547113 -0.079148099 0.65900004
0.093013458 -0.079148099 0.65900004
0.0066205519 -0.068270415 0.65796006
0.0150211 -0.067299187 0.65776205
0.024193622 -0.067809872 0.65786856
0.032340672 -0.069300279 0.65875
-0.041171774 -0.11343643 0.66300011
-0.03905673 -0.11230258 0.66100001
-0.040044378 -0.10910642 0.66200006
-0.036773078 -0.10456981 0.66180956
0.066772193 -0.10326798 0.66281825
-0.032857098 -0.096229203 0.66484213
-0.029364169 -0.091284454 0.66325003
0.059132338 -0.092146434 0.66200012
0.065299489 -0.095872946 0.66561228
0.070806175 -0.098308526 0.66750002
-0.024514932 -0.084896371 0.66384614
-0.018224537 -0.081848532 0.66111118
0.055545401 -0.084431574 0.66277272
0.061253138 -0.086734511 0.66670001
-0.021626221 -0.078271836 0.66669238
-0.015220505 -0.074996233 0.66410339
-0.0069624418 -0.071403228 0.66165006
0.03792353 -0.071018085 0.66100001
0.045889575 -0.073586911 0.66256529
0.053406093 -0.075685404 0.66497672
0.089340433 -0.077737756 0.66175008
0.093527339 -0.076805361 0.6626786
-0.012183675 -0.068150394 0.66754556
-0.0048232242 -0.06524498 0.66498595
0.0045975279 -0.063781075 0.66354674
0.014909136 -0.062616862 0.662
0.025619328 -0.063066021 0.6627956
0.035056345 -0.06430506 0.66386163
0.044074435 -0.066502728 0.66624999
0.050948359 -0.069102377 0.66800004
-0.0011712266 -0.059146944 0.66800004
0.0066150497 -0.058384988 0.66705275
0.015358403 -0.057555947 0.66602308
0.024466978 -0.056885295 0.66673458
0.033501815 -0.058809865 0.66750008
0.073094532 -0.16494521 0.67750007
-0.045834765 -0.15774302 0.67900002
-0.041851893 -0.10196334 0.67620003
-0.038043387 -0.10139956 0.67170006
-0.035617627 -0.094380245 0.67202491
0.068072565 -0.092164293 0.67161536
0.070918061 -0.09219081 0.67412508
-0.032821294 -0.085832797 0.67414707
-0.028478811 -0.083947271 0.67026675
0.059324034 -0.081056602 0.67000002
0.065160282 -0.084959812 0.67311764
0.070600823 -0.087804079 0.67675006
0.088059589 -0.080455378 0.6778
-0.03031338 -0.079052538 0.67800003
-0.024610739 -0.075072058 0.67455107
-0.01826123 -0.071272388 0.67189997
0.057852324 -0.07366094 0.67307997
0.06239659 -0.07616353 0.67606902
0.077046096 -0.071865879 0.67828566
0.085416302 -0.073975168 0.6758492
0.090269491 -0.074931681 0.67300004
-0.021880798 -0.067815356 0.6775834
-0.015349646 -0.064533144 0.67366678
-0.0079421615 -0.061470553 0.67100006
0.046200462 -0.062793568 0.67117244
0.053953599 -0.065287165 0.67511326
0.060120922 -0.069645032 0.67900002
0.077133082 -0.069422789 0.67683339
0.081069753 -0.069234751 0.67500001
-0.011989652 -0.057617523 0.67759103
-0.004523776 -0.055585463 0.67533338
0.0045325337 -0.053808182 0.67253447
0.01448867 -0.052216649 0.67142856
0.025209906 -0.05180113 0.67074192
0.035170205 -0.054125953 0.67233354
0.044459987 -0.05574033 0.67553341
0.051208727 -0.058479801 0.67725003
-0.00099209452 -0.049009461 0.67900008
0.065870985 -0.17293677 0.68634486
0.070055306 -0.17184508 0.68300003
-0.041763276 -0.16352351 0.68757141
0.067690492 -0.16610654 0.68564868
0.071250208 -0.16235985 0.68300009
-0.043122418 -0.15579973 0.68392867
0.069160737 -0.15718381 0.68771428
0.072544411 -0.15516718 0.68530309
0.074300572 -0.14920121 0.68350005
-0.03544908 -0.083083563 0.68526083
0.068897769 -0.082556583 0.68340003
0.074222952 -0.083019651 0.68661559
0.082747102 -0.080754153 0.68233329
-0.032259781 -0.075106718 0.68506455
-0.028329426 -0.072791032 0.68173343
0.066794768 -0.074283503 0.6839723
0.074180275 -0.075845316 0.68474543
0.082723305 -0.077878222 0.6811766
-0.031207228 -0.068317227 0.68720001
-0.025309157 -0.064931668 0.68372571
-0.018829046 -0.061256707 0.68028575
0.058200262 -0.062821582 0.68253338
0.062671527 -0.066155568 0.68426466
-0.022262745 -0.057803754 0.68630767
-0.015892262 -0.054167677 0.6831454
-0.0068053878 -0.05132743 0.68080002
-0.0293508 -0.18221867 0.69749999
0.058985859 -0.18123703 0.69725001
0.060232259 -0.18069679 0.69400001
-0.034266341 -0.17376377 0.69508117
-0.029354656 -0.17674127 0.69760001
0.058418658 -0.17563951 0.69687504
0.061482012 -0.17481504 0.69292867
-0.040570255 -0.16409886 0.6907143
-0.03636587 -0.16538899 0.69419163
0.059355594 -0.16888808 0.69800001
0.063729227 -0.16475347 0.69455832
-0.041034888 -0.15346463 0.69271427
-0.038203415 -0.15598398 0.69577277
0.066994764 -0.15652777 0.6931482
0.070875868 -0.15204994 0.69100004
-0.039546434 -0.14905964 0.69400001
-0.040889926 -0.081476964 0.69100004
-0.038122728 -0.081690654 0.69025004
-0.041017603 -0.077611431 0.69242859
-0.037242349 -0.074978553 0.69105899
0.069563501 -0.070773296 0.69000006
0.075265348 -0.070675991 0.69800001
-0.033626802 -0.065155946 0.69400007
-0.028742831 -0.061606787 0.69169998
-0.020453509 -0.19027962 0.70700002
-0.014509941 -0.19112204 0.7067368
-0.0083730435 -0.19103487 0.70749998
0.027930601 -0.19116944 0.708
0.034829963 -0.19132152 0.7074737
0.043467999 -0.19092591 0.7063334
-0.023844864 -0.18336803 0.70195127
-0.015440648 -0.18521264 0.70675951
-0.0088416208 -0.18706818 0.70775002
0.02917196 -0.18930739 0.708
0.035877895 -0.18573594 0.70678568
0.045047138 -0.18453534 0.7048142
0.053699397 -0.18301021 0.70045167
-0.030091144 -0.17194897 0.70050001
-0.024736281 -0.1752516 0.70462722
-0.018229494 -0.17758611 0.70730007
0.047390219 -0.17766884 0.70575994
0.053957291 -0.17447631 0.70251727
-0.031671476 -0.16383991 0.70292008
-0.028310865 -0.16619052 0.70658827
0.056772396 -0.16628474 0.70502287
0.060956061 -0.16226859 0.70236355
-0.033838712 -0.15519021 0.70517033
-0.02917196 -0.1582734 0.708
0.058964599 -0.15889408 0.708
0.063888744 -0.15481287 0.70466673
-0.036535591 -0.14811145 0.70641667
0.065579705 -0.14972568 0.70575005
-0.0042472905 -0.19207551 0.71072745
0.0050609615 -0.19144468 0.71096015
0.015406672 -0.19185455 0.71148175
0.02303656 -0.19218431 0.7102223
0.038590867 -0.19357677 0.71000004
0.040458165 -0.19357677 0.71000004
-0.011725124 -0.18200022 0.71016669
-0.0045658955 -0.18434918 0.71109825
0.0050116125 -0.18469511 0.7141943
0.015041664 -0.1849011 0.71498597
0.024898088 -0.18489081 0.71254051
0.032878634 -0.18276739 0.71050018
-0.021909334 -0.1714827 0.71036363
-0.014458189 -0.17460905 0.71352303
-0.0054414524 -0.17665832 0.71579581
0.0045858854 -0.1781684 0.71790475
0.015073758 -0.17788211 0.71759993
0.026011549 -0.17772797 0.71655154
0.035658352 -0.17609531 0.7152999
0.044127509 -0.1739435 0.71240675
0.050417099 -0.17116916 0.71000004
-0.023902286 -0.16448796 0.71296412
-0.017389681 -0.16670716 0.71648276
0.046857655 -0.1660689 0.71643895
0.053072445 -0.16356401 0.71227503
-0.031195598 -0.15182805 0.71011114
-0.027365956 -0.15604505 0.71416008
0.056644291 -0.15563267 0.71464437
0.061181203 -0.15139352 0.71133339
-0.033575878 -0.14555514 0.71348578
-0.029625196 -0.1487563 0.71900004
0.058894467 -0.14896759 0.71850008
0.062683955 -0.14623219 0.71539122
-0.0043382905 -0.17206877 0.72151732
0.0053915824 -0.17366044 0.72243392
0.015090691 -0.17326972 0.72360367
0.024970379 -0.17343996 0.72228247
0.03352369 -0.17181583 0.72152632
-0.020887461 -0.16013719 0.72200006
-0.013925564 -0.16388319 0.72215205
-0.0057612075 -0.16572893 0.72501761
0.0045894673 -0.16806953 0.72693336
0.015938589 -0.16826132 0.72729999
0.025950236 -0.16754228 0.72591662
0.035807621 -0.16550849 0.72449225
0.043250222 -0.16304046 0.72222853
-0.024030082 -0.15426551 0.72313035
-0.016081683 -0.15708359 0.72662508
-0.0092508048 -0.15886012 0.72775006
0.04640514 -0.15679511 0.72521055
0.052636452 -0.15344685 0.72197217
-0.031350855 -0.14211968 0.72142869
-0.027161669 -0.14600085 0.72521627
0.055995043 -0.14701653 0.72450006
0.060678482 -0.1441126 0.72100008
-0.0287196 -0.13976872 0.72800004
-0.0024818981 -0.16217023 0.73081249
0.005323607 -0.1630522 0.73233312
0.015316128 -0.16364126 0.73257405
0.024738876 -0.16269664 0.73109972
0.032580502 -0.16098626 0.73078567
-0.0211189 -0.15039216 0.73000002
-0.014430506 -0.15280432 0.73120677
-0.005178987 -0.15472539 0.73447537
0.0049792291 -0.156215 0.73647904
0.014545489 -0.15729567 0.73743784
0.025006242 -0.15681289 0.73628193
0.035128679 -0.15519157 0.73439997
0.043456953 -0.15344311 0.73091173
-0.023362698 -0.14358675 0.73167855
-0.015610399 -0.14529184 0.73565578
-0.0078212153 -0.14831258 0.73876923
0.036676519 -0.14930393 0.7383334
0.04607239 -0.14614503 0.73552817
0.05205559 -0.14493467 0.73220003
-0.022314673 -0.13926697 0.73433334
-0.017421121 -0.13872373 0.73600006
0.049817462 -0.1391007 0.73800004
-0.0016889861 -0.1505796 0.74100006
0.0055794348 -0.15150613 0.74145848
0.01529857 -0.15258141 0.74206442
0.024137663 -0.15237957 0.74175763
0.031645287 -0.15117352 0.74100012
-0.011569019 -0.14208119 0.74140006
-0.0047733868 -0.14432348 0.74435729
0.004869326 -0.14600576 0.74687266
0.015164075 -0.14687544 0.74712503
0.025153 -0.1460894 0.7460193
0.035199404 -0.14468828 0.74385738
0.042860877 -0.14322428 0.74136847
-0.01284503 -0.13901664 0.74187511
-0.004613521 -0.13693091 0.74651438
0.0019692858 -0.13716076 0.74859995
0.029548049 -0.13986076 0.74900001
0.036287382 -0.13926591 0.74772733
0.04484928 -0.13777086 0.74349999
0.050087474 -0.13725269 0.74200004
0.007428247 -0.1414022 0.7507143
0.014980787 -0.14186828 0.75147825
0.023930509 -0.14141175 0.75063157
0.0071129031 -0.13657767 0.75319219
0.015161618 -0.13741258 0.7542066
0.024194283 -0.13765258 0.75279164
0.0335325 -0.13873249 0.75000006
