# .PCD v0.7 - Point Cloud Data file format
VERSION 0.7
FIELDS x y z
SIZE 4 4 4
TYPE F F F
COUNT 1 1 1
WIDTH 250
HEIGHT 1
VIEWPOINT 0 0 0 1 0 0 0
POINTS 250
DATA ascii
-0.053310566 -0.13305826 0.48833337
-0.07390973 -0.14350732 0.49559212
-0.068096198 -0.14184073 0.49161112
-0.072876669 -0.13745233 0.49792114
-0.065133549 -0.13469644 0.49392837
-0.057510015 -0.13273889 0.49144432
-0.032622654 -0.13106275 0.49215391
-0.022988077 -0.13313322 0.49628571
-0.017849986 -0.13441983 0.49826664
-0.063256323 -0.12857045 0.49835709
-0.054794956 -0.12638085 0.49693581
-0.045338213 -0.12492406 0.49621841
-0.034698643 -0.12624687 0.49625638
-0.029246917 -0.12755193 0.4955
-0.021260392 -0.11181393 0.49900001
-0.01478947 -0.11200441 0.49897617
-0.0078051481 -0.11205798 0.49899998
-0.021435376 -0.10980162 0.49900001
-0.011620758 -0.10862379 0.4966923
-0.0065567228 -0.1047577 0.49870846
-0.011235991 -0.095298462 0.49827778
-0.005915076 -0.096529067 0.49876481
-0.078964286 -0.14166524 0.50133336
-0.081902869 -0.13868515 0.50866669
-0.075115137 -0.13379335 0.50485379
-0.069256663 -0.13018499 0.5
-0.015036697 -0.13169955 0.50397503
-0.072263904 -0.12696764 0.50734216
-0.065120034 -0.12433046 0.50434196
-0.054681238 -0.12170686 0.50142419
-0.044529084 -0.12102497 0.50180012
-0.035552368 -0.12137875 0.50165796
-0.022951899 -0.12311574 0.50457442
-0.016848888 -0.12536001 0.50603074
-0.061720002 -0.11840502 0.50794995
-0.054032091 -0.1177615 0.50570452
-0.045159083 -0.11730024 0.50450617
-0.035257988 -0.11789215 0.50647062
-0.023391197 -0.11757056 0.50278378
-0.015427964 -0.11674967 0.5014689
-0.0036319045 -0.10532524 0.5
-0.010791416 -0.09045621 0.50040001
-0.0040355399 -0.092473567 0.50161117
0.00044359334 -0.091824986 0.50599998
-0.011685704 -0.084572837 0.50410008
-0.0049860901 -0.085037053 0.50443012
0.00044326461 -0.08687865 0.50562501
-0.013760474 -0.077392027 0.50760001
-0.007274956 -0.078069612 0.50742859
-0.083607696 -0.14083649 0.51000005
-0.081897758 -0.13559973 0.51050007
-0.078211911 -0.13091516 0.51044452
-0.010594808 -0.13057482 0.51066673
-0.08022289 -0.12509333 0.51700002
-0.075852208 -0.12416992 0.51416475
-0.068336934 -0.12101778 0.51022232
-0.0290615 -0.1202699 0.51000005
-0.012405475 -0.12808022 0.51250005
-0.0094581377 -0.12880884 0.51375002
-0.071894534 -0.11737332 0.51619357
-0.065082297 -0.11484188 0.51410902
-0.055448495 -0.11337818 0.5119614
-0.044837214 -0.11271872 0.5123294
-0.034735505 -0.11317892 0.5135839
-0.028497204 -0.1151428 0.51361769
-0.062061094 -0.10900462 0.51862508
-0.053747684 -0.10853225 0.51640016
-0.04564438 -0.1081006 0.51625586
-0.035661723 -0.10867865 0.51849997
-0.012128794 -0.07307975 0.51243758
-0.006099809 -0.073678605 0.5141831
-0.012171173 -0.069194593 0.51680005
-0.0063659148 -0.068845242 0.51870006
0.00139127 -0.17158997 0.52900004
-0.00046375667 -0.16834366 0.52900004
0.0019796386 -0.1676223 0.52714288
-0.082548685 -0.12057673 0.52900004
-0.07772176 -0.12023878 0.52149999
-0.081432171 -0.11625028 0.52831835
-0.075615138 -0.11430644 0.52420229
-0.068075463 -0.11111682 0.52061534
-0.025608912 -0.11120215 0.52288008
-0.072575398 -0.10773951 0.52785718
-0.064882599 -0.10511455 0.52540523
-0.056469783 -0.10417017 0.52307415
-0.044089906 -0.10469546 0.52290177
-0.035164606 -0.10475199 0.52492785
-0.026196511 -0.10725018 0.5266999
-0.06178122 -0.099104427 0.52887505
-0.055595245 -0.098825246 0.52833349
-0.046741914 -0.098467484 0.52733344
-0.038324799 -0.09936709 0.52883339
-0.012675898 -0.064478584 0.52502233
-0.0073984689 -0.065925293 0.5216586
-0.065680742 -0.20082241 0.53900003
-0.080836557 -0.19064343 0.53300005
-0.074733734 -0.19214858 0.53342879
-0.067608126 -0.1960697 0.53689206
-0.081183277 -0.18258291 0.53300005
-0.076140434 -0.1855776 0.53617573
-0.0038063109 -0.18228094 0.53820008
-0.081988499 -0.17588049 0.53477764
-0.078316137 -0.1776491 0.53835297
-0.0026517466 -0.17574348 0.53493547
0.001550458 -0.17252399 0.53091675
-0.085213006 -0.16811804 0.53428572
-0.001413625 -0.16914099 0.5345
-0.086683139 -0.12136233 0.53222221
-0.084034003 -0.11630572 0.53257149
-0.079444408 -0.11112758 0.53150004
-0.081286632 -0.10831549 0.53720009
-0.075154126 -0.10424027 0.53419739
-0.068430185 -0.10078183 0.53099996
-0.031808037 -0.10108273 0.53135717
-0.024858017 -0.10291567 0.53446889
-0.071659245 -0.098842055 0.53775001
-0.064511053 -0.095814817 0.53474998
-0.054913349 -0.094057672 0.53464347
-0.044988625 -0.094586715 0.53416193
-0.035501789 -0.097210594 0.5346812
-0.027756203 -0.098736629 0.53786671
-0.060010463 -0.089306906 0.53900003
-0.054321419 -0.089273408 0.53880006
-0.014371246 -0.060845777 0.53072232
-0.017739788 -0.059286773 0.53250003
-0.062036637 -0.20159468 0.54146153
-0.054398142 -0.20227179 0.54307324
-0.045507561 -0.20264165 0.54562479
-0.035304267 -0.202232 0.54664296
-0.026087748 -0.20154603 0.54524994
-0.063965097 -0.19383597 0.54326671
-0.055790856 -0.19677797 0.54572165
-0.045038022 -0.19813494 0.54668075
-0.035186339 -0.19743082 0.54781359
-0.024446739 -0.19703861 0.54705644
-0.016035311 -0.19299787 0.54544616
-0.0092390925 -0.19159238 0.54200006
-0.07203301 -0.18390645 0.5439108
-0.067018375 -0.18700698 0.54675001
-0.012688756 -0.18572225 0.5460667
-0.0073753688 -0.18503575 0.54193556
-0.080851287 -0.17219009 0.54163647
-0.075489476 -0.17570719 0.54540515
-0.069787048 -0.17567085 0.54900002
-0.010649747 -0.17775293 0.54799998
-0.0074108597 -0.17449118 0.54602385
-0.081156984 -0.16946216 0.54350001
-0.078710638 -0.16947117 0.54488897
-0.0048519745 -0.16714136 0.54468578
-0.082981937 -0.10379532 0.54345465
-0.078963913 -0.10173656 0.5413
-0.082431704 -0.098186821 0.54668748
-0.074798517 -0.095266558 0.54403377
-0.066803247 -0.09186352 0.54120684
-0.059175 -0.090419397 0.54000002
-0.042473037 -0.090475209 0.54033333
-0.034282524 -0.09262161 0.54261553
-0.02633805 -0.095022209 0.54401493
-0.071823254 -0.088457361 0.54739994
-0.06447728 -0.086898185 0.54532903
-0.054720797 -0.085561991 0.54433358
-0.045424037 -0.086110525 0.54484713
-0.035048638 -0.087707341 0.54749209
-0.028781142 -0.088268586 0.54900002
-0.023092058 -0.070958063 0.54875004
-0.019216534 -0.07062076 0.54800004
-0.030642129 -0.067541033 0.54900002
-0.024530377 -0.066638023 0.54681659
-0.0190618 -0.06845364 0.54699999
-0.060270835 -0.19045584 0.55000001
-0.053879343 -0.19249094 0.55196774
-0.045100398 -0.19366762 0.55330306
-0.034816131 -0.19276159 0.55348617
-0.025688436 -0.19255547 0.55146676
-0.01952892 -0.19061685 0.55233335
-0.064127862 -0.18404117 0.55425823
-0.05531013 -0.1872936 0.55643201
-0.04589026 -0.18849966 0.55834997
-0.034610331 -0.18825953 0.55772316
-0.02501487 -0.18537758 0.55601728
-0.017215302 -0.18440154 0.55280012
-0.073874578 -0.17324239 0.55242842
-0.067691013 -0.17910737 0.55438465
-0.022211993 -0.17879266 0.55837506
-0.014488187 -0.17496876 0.55438536
-0.009172271 -0.17137606 0.55066663
-0.012118572 -0.1673978 0.55573332
-0.0082766097 -0.16647249 0.55166668
-0.096405573 -0.11103772 0.55633336
-0.092998967 -0.10670185 0.55553657
-0.088417649 -0.10630438 0.55150002
-0.083020836 -0.093859434 0.55306834
-0.078333326 -0.092186883 0.55133337
-0.023529999 -0.092357002 0.55158329
-0.019912606 -0.09130659 0.55400002
-0.081210807 -0.0881363 0.55670011
-0.075085022 -0.084963284 0.55490577
-0.065772682 -0.082315676 0.55155563
-0.05574381 -0.081351228 0.55165219
-0.043206386 -0.081771307 0.55193949
-0.035208397 -0.082737289 0.55204755
-0.024901059 -0.084899642 0.55315024
-0.019430436 -0.085348234 0.55409992
-0.054552589 -0.077326372 0.55459118
-0.045877725 -0.077769831 0.55492729
-0.033615205 -0.077115446 0.55425537
-0.025766384 -0.07579615 0.55229282
-0.019588824 -0.07803151 0.55399996
-0.030697944 -0.069271281 0.55000001
-0.028930001 -0.069432005 0.55000001
-0.061257713 -0.1809658 0.56028575
-0.054300848 -0.1824012 0.56331843
-0.044606913 -0.18349484 0.56400019
-0.035343695 -0.1835199 0.56277657
-0.028400254 -0.18176016 0.56300002
-0.07197246 -0.17311563 0.56206679
-0.065613218 -0.17532502 0.56381148
-0.056093484 -0.17858407 0.56630778
-0.044106517 -0.17929485 0.56823075
-0.033936314 -0.17867115 0.56705278
-0.024311004 -0.1755054 0.56589884
-0.018387206 -0.17216362 0.56344438
-0.073009327 -0.16725087 0.56495345
-0.068415441 -0.16915946 0.56728578
-0.020433784 -0.16945046 0.56850004
-0.016763326 -0.1676238 0.56559998
-0.096551709 -0.10328607 0.56558615
-0.095560394 -0.099282287 0.56625003
-0.062509201 -0.17241991 0.57334214
-0.055244625 -0.17448516 0.57401037
-0.045078132 -0.17567126 0.57434696
-0.035437398 -0.17408779 0.57405061
-0.027662924 -0.17237653 0.57160002
-0.070649192 -0.16561095 0.57271433
-0.067164056 -0.16703111 0.57556003
-0.033301678 -0.1688882 0.57811773
-0.024993951 -0.16658635 0.57486737
-0.018861486 -0.16523793 0.57116675
-0.061016001 -0.17033634 0.58000004
-0.053077817 -0.17126544 0.58085716
-0.045424957 -0.17117587 0.58219349
-0.039151933 -0.17135327 0.58000004
-0.06308531 -0.16560832 0.58152497
-0.055471953 -0.16577353 0.58384085
-0.044882935 -0.16695166 0.58639443
-0.035094291 -0.16493912 0.58536083
-0.028416466 -0.16291453 0.58178574
-0.053573098 -0.15969886 0.58200002
-0.051118869 -0.16503689 0.59200007
-0.048304446 -0.16433501 0.59087503
