# .PCD v0.7 - Point Cloud Data file format
VERSION 0.7
FIELDS x y z
SIZE 4 4 4
TYPE F F F
COUNT 1 1 1
WIDTH 417
HEIGHT 1
VIEWPOINT 0 0 0 1 0 0 0
POINTS 417
DATA ascii
-0.053875435 -0.10118682 0.5527727
-0.046686769 -0.1015254 0.55504346
-0.05282706 -0.099765889 0.55300003
-0.047010645 -0.099254318 0.55815387
-0.074216619 -0.10329711 0.56662512
-0.064746253 -0.10226172 0.56318754
-0.057624325 -0.10139454 0.56100005
-0.041238401 -0.10064133 0.56
-0.034010224 -0.10085675 0.56120002
-0.024227189 -0.10188232 0.56347501
-0.016594904 -0.10292028 0.56748486
-0.0071454179 -0.10884577 0.5686667
-0.071131326 -0.09888573 0.56740004
-0.064555511 -0.097267121 0.56642604
-0.054881994 -0.095661595 0.56377321
-0.044714056 -0.094551176 0.56448102
-0.035058077 -0.095331013 0.56475407
-0.025619192 -0.096840754 0.56604773
-0.018318934 -0.09895058 0.56862503
-0.042898808 -0.089289375 0.56900001
-0.038908221 -0.089289375 0.56900001
-0.089335844 -0.1111622 0.57900006
-0.00070589205 -0.11172135 0.57560003
0.0026488646 -0.11354512 0.57811117
-0.090858608 -0.10913185 0.57900006
-0.083361283 -0.10488207 0.57524407
-0.078246236 -0.10252208 0.57194728
-0.012129816 -0.10323188 0.57119358
-0.0052957144 -0.10534254 0.57485223
0.00067605614 -0.1081285 0.57816666
-0.081725821 -0.099210069 0.57812506
-0.074486166 -0.095518298 0.57521623
-0.065376639 -0.092597872 0.57292992
-0.055434674 -0.091194294 0.57073694
-0.047992021 -0.090485364 0.57025003
-0.032491196 -0.090477429 0.57020009
-0.024033988 -0.092701733 0.57319993
-0.015544295 -0.095821239 0.57483542
-0.0085998382 -0.098653674 0.5771001
-0.071062595 -0.08984343 0.57900006
-0.063964404 -0.087643094 0.57736856
-0.055005264 -0.086248308 0.57501191
-0.0453033 -0.085609764 0.57485396
-0.035071906 -0.086144559 0.57480228
-0.026854206 -0.087679319 0.57697499
-0.019288421 -0.08984343 0.57900006
0.013607948 -0.12136969 0.58850002
-0.092372611 -0.11168909 0.58375001
-0.089490131 -0.1113542 0.58000004
0.0073631033 -0.11395321 0.58360004
0.014583622 -0.11457198 0.58679211
0.024248919 -0.11279052 0.58581811
0.031885825 -0.11133716 0.58766669
-0.093007222 -0.10729311 0.58685184
-0.087582923 -0.10465053 0.58359373
-0.0023430379 -0.10171122 0.58146662
0.0040341388 -0.10605451 0.58555979
0.015332388 -0.10787386 0.58641666
0.025132898 -0.10551564 0.58529592
0.034014679 -0.10471899 0.58783376
-0.082912579 -0.095729135 0.58379412
-0.077686302 -0.09210889 0.58283997
-0.013196766 -0.092147484 0.5807308
-0.0055649159 -0.095759355 0.58306783
0.00051350752 -0.09859059 0.58575004
0.028965212 -0.098033391 0.58649999
0.033721127 -0.096643962 0.58833951
-0.080035284 -0.089329705 0.58900005
-0.073650673 -0.086675607 0.5854528
-0.065598123 -0.083402686 0.58266133
-0.055374384 -0.081275843 0.5823667
-0.044664927 -0.080994174 0.58068419
-0.034729674 -0.081171684 0.58088011
-0.024046887 -0.083681487 0.58335298
-0.015872872 -0.08649639 0.58479422
-0.0095085455 -0.089167297 0.58625007
-0.062980115 -0.078756317 0.58757895
-0.054779794 -0.077329032 0.58673084
-0.044825606 -0.076757945 0.5852536
-0.035205048 -0.07706245 0.58552378
-0.026829615 -0.078473099 0.58762509
0.017329071 -0.16173798 0.59900004
-0.10449954 -0.15071039 0.59900004
0.016916921 -0.1575 0.59686673
0.013116394 -0.12341392 0.59066671
-0.092561848 -0.10232623 0.59195459
-0.088917226 -0.10134748 0.59083343
0.0063625383 -0.10404648 0.59272975
0.0108619 -0.10603283 0.59000003
0.039309733 -0.1024122 0.59000003
-0.091001503 -0.096708611 0.59630769
-0.086722977 -0.093956046 0.5935207
-0.003030295 -0.092916049 0.59358537
0.0025574616 -0.096048392 0.59541035
0.037227511 -0.093775965 0.59152633
0.040856875 -0.094705135 0.59293336
-0.082895994 -0.086711347 0.59488893
-0.076511554 -0.08293689 0.59352279
-0.069368437 -0.08023911 0.5905
-0.020172101 -0.080171168 0.59000003
-0.013913627 -0.082339697 0.5915556
-0.0063312994 -0.085958451 0.59513235
0.00052512332 -0.089796089 0.59900004
0.036532413 -0.086971283 0.59565222
0.040461801 -0.088595808 0.59499997
-0.073162027 -0.077338174 0.59641033
-0.065370627 -0.074390501 0.59379232
-0.055289157 -0.072367445 0.59185177
-0.04510713 -0.07172621 0.59105706
-0.034764007 -0.072242737 0.59148973
-0.024558695 -0.074339435 0.59367067
-0.015914872 -0.076475464 0.59606367
-0.0099690147 -0.078702316 0.59850001
-0.063441202 -0.068494238 0.59760869
-0.055029336 -0.067509525 0.59658688
-0.044682872 -0.067488946 0.59501952
-0.035405338 -0.067260511 0.5963617
-0.027783209 -0.068675548 0.59800005
-0.09556631 -0.17031091 0.60900003
0.01441503 -0.17031091 0.60900003
-0.10306821 -0.16228566 0.60579175
-0.097981893 -0.16537908 0.60853326
0.015188052 -0.16382256 0.60331827
-0.1032874 -0.15615965 0.60500002
-0.099410318 -0.15877888 0.60900003
-0.093102001 -0.100466 0.60000002
0.0079439646 -0.10301925 0.60400009
0.01148029 -0.10294195 0.60738891
-0.093001798 -0.091831788 0.60410011
-0.089946002 -0.090998001 0.60000002
0.0059068608 -0.094025083 0.60427278
0.011563916 -0.099089339 0.60877782
-0.091167286 -0.087353081 0.60390007
-0.086042151 -0.084400848 0.60264295
-0.0031050248 -0.083004117 0.6030882
0.0024980954 -0.086839691 0.60630774
0.037042767 -0.081825204 0.60136837
-0.082378015 -0.07784979 0.60500002
-0.076102957 -0.073727265 0.60282004
-0.069958001 -0.071010001 0.60000002
-0.02104 -0.071010001 0.60000002
-0.013338252 -0.072724834 0.60197639
-0.0063142963 -0.076909013 0.60547632
0.036294438 -0.078258514 0.60411543
-0.072332792 -0.067908488 0.60594743
-0.064989075 -0.064395368 0.60492545
-0.055002909 -0.062534474 0.60245109
-0.045363542 -0.062752433 0.60156614
-0.034311846 -0.062514812 0.60252839
-0.024743894 -0.065010376 0.60390925
-0.016490603 -0.067089573 0.60597497
-0.0090761296 -0.069939591 0.60900003
-0.061397355 -0.059261788 0.60900003
-0.054198503 -0.058577187 0.60746163
-0.044796973 -0.057830565 0.60757899
-0.035471961 -0.05852085 0.60706902
-0.028481146 -0.058776297 0.60840005
-0.092681199 -0.18102773 0.61825001
-0.08845304 -0.18178998 0.61900002
0.0053554769 -0.18138154 0.61727273
-0.10032924 -0.17329596 0.61200005
-0.095053636 -0.17465545 0.61552382
0.0068677142 -0.17527074 0.61508518
0.01150478 -0.1744274 0.61183882
-0.095640644 -0.16594155 0.61641383
0.0082807969 -0.1672529 0.61611116
0.011769203 -0.16469741 0.61262172
-0.1010638 -0.15598765 0.61190003
-0.098310903 -0.15737268 0.61328572
0.013202936 -0.15873095 0.61376917
-0.10135941 -0.14576504 0.61629999
-0.099742748 -0.14538786 0.61500007
-0.096792765 -0.093584165 0.61000001
0.0080215 -0.090375565 0.61000001
0.011572626 -0.095561787 0.61200005
-0.091686621 -0.083822049 0.61521435
-0.088590667 -0.081906386 0.61244446
0.004916945 -0.084164925 0.61307317
-0.091019914 -0.079099439 0.61800003
-0.085185654 -0.074544109 0.61445647
-0.078761049 -0.070723474 0.61116672
-0.0033144478 -0.073466651 0.61308706
0.0024156431 -0.076340921 0.61716217
0.027908161 -0.075400405 0.6184001
0.032209132 -0.076388747 0.61518186
-0.081947885 -0.067880876 0.61699998
-0.075330436 -0.064561851 0.61367798
-0.067907803 -0.061209198 0.61112499
-0.021937123 -0.060996424 0.61033338
-0.013728479 -0.06343855 0.61313808
-0.0061158026 -0.066629842 0.61655986
-0.071471907 -0.058725756 0.61711121
-0.064392619 -0.056327183 0.6147818
-0.055261642 -0.053544059 0.613397
-0.045083828 -0.052917097 0.61283612
-0.03495647 -0.053516679 0.61376119
-0.025469379 -0.055479135 0.6148591
-0.017102888 -0.057798937 0.61621219
-0.054009553 -0.049358964 0.61871433
-0.044756085 -0.048937164 0.61828578
-0.035694189 -0.049257271 0.61880004
-0.029303461 -0.049381755 0.61900002
-0.082669713 -0.19266132 0.62574995
-0.074642017 -0.1926787 0.62804776
-0.066408947 -0.19438364 0.62864286
-0.035842516 -0.19796097 0.62900001
-0.020402662 -0.19465244 0.62900001
-0.014813213 -0.19319041 0.6281001
-0.008684786 -0.19139615 0.62700003
-0.090770066 -0.1809966 0.62
-0.084114544 -0.18460871 0.62325352
-0.076743923 -0.18610623 0.62783653
-0.06991943 -0.1888375 0.62800002
-0.011696952 -0.18795328 0.62829423
-0.005048933 -0.18453634 0.62515503
0.0012696324 -0.18240182 0.62108338
-0.091502465 -0.17413267 0.62128574
-0.086520322 -0.1763541 0.6243751
-0.079956383 -0.17866117 0.62900001
-0.0016063689 -0.17670082 0.62684
0.0023205569 -0.17436437 0.6228838
-0.093775228 -0.16435622 0.62332731
-0.089312322 -0.16839978 0.6257273
0.0057507181 -0.16501367 0.62473595
0.010360447 -0.16140223 0.62200004
-0.10087139 -0.15391323 0.62099999
-0.097718984 -0.15538035 0.62529552
0.008545747 -0.15827547 0.62709093
0.012876128 -0.1548657 0.62760007
-0.10208219 -0.14206462 0.62243998
-0.098919526 -0.14484276 0.6241852
-0.10290259 -0.13781413 0.62526315
-0.099176712 -0.1387734 0.62733334
0.011420921 -0.09081886 0.62033337
-0.095624976 -0.081876479 0.62173915
0.0084947413 -0.084431224 0.62318176
0.014072308 -0.084714621 0.62666678
0.025290996 -0.084008075 0.62534869
0.031269968 -0.0829987 0.62216675
-0.093867026 -0.077330932 0.62266666
-0.088138677 -0.072343193 0.62125015
0.006243146 -0.074307501 0.62442011
0.014390111 -0.07738433 0.62427497
0.023756195 -0.078017585 0.62335992
-0.090840198 -0.06991943 0.62800002
-0.083937913 -0.064895004 0.62575686
-0.078024842 -0.061220638 0.62114286
-0.010327133 -0.060332201 0.62
-0.003286131 -0.063262969 0.62356097
0.0018596188 -0.067203343 0.62666667
-0.080737054 -0.059315704 0.62650001
-0.07450299 -0.055147983 0.62411302
-0.066654108 -0.052103478 0.62216663
-0.02271877 -0.051713832 0.62094736
-0.014005335 -0.053914469 0.62340003
-0.0065299901 -0.056645833 0.62575001
-0.052245826 -0.20064621 0.634
-0.083397299 -0.1966188 0.63000005
-0.063329779 -0.19239996 0.63076472
-0.054579798 -0.19387664 0.63298613
-0.044928636 -0.19348203 0.6340422
-0.035279367 -0.1942281 0.63339037
-0.025223862 -0.19343519 0.63184381
-0.018388083 -0.19153352 0.63014287
-0.073127337 -0.18337704 0.63284093
-0.065653481 -0.18589629 0.63510537
-0.057270106 -0.18796723 0.63624007
-0.045936555 -0.18889675 0.63644451
-0.034287494 -0.18850259 0.63679171
-0.024663335 -0.18708241 0.6354897
-0.015369822 -0.18482785 0.63378477
-0.0082938522 -0.18128394 0.63066667
-0.083520032 -0.17311771 0.63282216
-0.076255925 -0.17641193 0.63561827
-0.069113918 -0.1786534 0.63750005
-0.011833167 -0.17849578 0.63718182
-0.0055486322 -0.17502901 0.63346046
-0.091666669 -0.16224261 0.63163638
-0.086608291 -0.16543412 0.63564718
-0.0013565791 -0.16909549 0.63600004
0.0025966573 -0.1645612 0.6347667
-0.093463555 -0.15438889 0.63286805
-0.088615723 -0.15603124 0.63641667
0.0072665391 -0.1557412 0.63441378
0.011003043 -0.15350245 0.63214296
-0.096577741 -0.14633718 0.63381821
0.016027594 -0.084874734 0.63042867
-0.090024896 -0.070142098 0.63000005
-0.088920303 -0.070142098 0.63000005
0.0092146434 -0.071759105 0.63700002
-0.091574088 -0.066606753 0.63471431
-0.087679751 -0.063540287 0.63400006
-0.051057067 -0.1902016 0.64000005
-0.043763198 -0.1902016 0.64000005
-0.06280788 -0.18194623 0.64123338
-0.054375313 -0.18394925 0.64340448
-0.044899043 -0.18462268 0.64470512
-0.035136759 -0.18381962 0.64328182
-0.025975635 -0.18283068 0.64280009
-0.018198986 -0.18119761 0.64070004
-0.080232531 -0.17000321 0.64000005
-0.074012719 -0.17344785 0.64368749
-0.06582281 -0.17607842 0.64637482
-0.055268865 -0.17899939 0.64820004
-0.042934339 -0.17843357 0.64900011
-0.035033319 -0.17840384 0.64857703
-0.024148151 -0.17823367 0.64729035
-0.015175248 -0.17528701 0.64465374
-0.0075450554 -0.17184806 0.64115798
-0.082661025 -0.16392697 0.64241308
-0.075979218 -0.166788 0.64595073
-0.069255784 -0.16887562 0.64860004
-0.012054654 -0.16881649 0.6478889
-0.0046367827 -0.16539145 0.6441465
0.0010110597 -0.16248675 0.64089996
-0.091245651 -0.15057582 0.6425001
-0.086291626 -0.15642095 0.64538246
-0.0013794976 -0.15862094 0.64785713
0.004109594 -0.15452065 0.64439291
0.010660267 -0.15204906 0.64000005
-0.093745477 -0.14498243 0.64430147
-0.089326195 -0.14906664 0.64900005
0.0056496784 -0.14939144 0.64550006
0.010660267 -0.14868267 0.64000005
-0.096533038 -0.13734385 0.64344841
-0.062781565 -0.17209114 0.65127575
-0.055202615 -0.17433992 0.65245944
-0.045627933 -0.17431791 0.65434539
-0.035021212 -0.17353341 0.6542533
-0.025097908 -0.17337997 0.65301633
-0.017792759 -0.17137586 0.65146154
-0.080726385 -0.16050304 0.65000004
-0.073733754 -0.16275586 0.65378731
-0.065602429 -0.16627701 0.65600038
-0.055701476 -0.16897149 0.65761912
-0.030973509 -0.16948567 0.65833336
-0.023234883 -0.16822161 0.65707409
-0.014706307 -0.16546182 0.65567762
-0.0079740398 -0.16240412 0.65377265
-0.0837662 -0.15401867 0.65322047
-0.076970778 -0.15718712 0.65609765
-0.010971191 -0.15879297 0.65866673
-0.0044841506 -0.15603584 0.65537947
0.00099830411 -0.15257901 0.65125
-0.091232881 -0.14208007 0.65453851
-0.086890161 -0.146548 0.65589803
-0.00057538552 -0.14902368 0.65633339
0.0019202986 -0.14864162 0.65190911
-0.093121618 -0.13742134 0.65527779
-0.041142844 -0.17094561 0.66100001
-0.070116676 -0.16051504 0.66100001
-0.063747063 -0.1621705 0.66334385
-0.055007868 -0.16493246 0.66352296
-0.044943862 -0.16572455 0.6647374
-0.035131909 -0.16596603 0.66389835
-0.025462821 -0.16423203 0.66376799
-0.016740989 -0.16167767 0.66131258
-0.080608189 -0.15077746 0.66150004
-0.074224249 -0.15368243 0.66321564
-0.065937482 -0.15754563 0.66665715
-0.058268525 -0.15957963 0.66800004
-0.048020296 -0.15987244 0.66800004
-0.022323063 -0.15943524 0.66757149
-0.014850187 -0.15742667 0.66412508
-0.0068990909 -0.15251914 0.66339999
-0.090977833 -0.14081283 0.66100001
-0.083850458 -0.14355734 0.66286045
-0.078859478 -0.14694445 0.66633344
-0.0041398103 -0.14752504 0.66560876
-0.090715714 -0.13723309 0.66333336
-0.086522125 -0.1370337 0.66561538
-0.053450368 -0.16109866 0.67000002
-0.044599745 -0.16091169 0.67007697
-0.035387281 -0.1612007 0.67027783
-0.028311074 -0.16058604 0.67000002
-0.071457863 -0.15070875 0.67087501
-0.064186424 -0.1533422 0.67283064
-0.054772101 -0.15558054 0.6752876
-0.045223147 -0.15587813 0.67507368
-0.034855843 -0.15581055 0.67476648
-0.024791839 -0.15515865 0.67501354
-0.015516248 -0.15302528 0.67202091
-0.0099852337 -0.15212797 0.67000002
-0.080469236 -0.14038064 0.67000002
-0.074825577 -0.14482178 0.67345065
-0.067072473 -0.148184 0.67652375
-0.020833984 -0.14940943 0.67900002
-0.013798562 -0.14719637 0.67645663
-0.0079435185 -0.14523092 0.67228574
-0.081685804 -0.13668236 0.67390907
-0.078138962 -0.13890851 0.67811114
-0.0546964 -0.150571 0.68066663
-0.04412517 -0.15094507 0.68110007
-0.035156291 -0.15077274 0.68080962
-0.026578302 -0.15061277 0.6820001
-0.071967714 -0.14127809 0.6815455
-0.064563811 -0.14427042 0.68361992
-0.055622805 -0.14597373 0.68438101
-0.044729825 -0.14704366 0.68555117
-0.034930106 -0.14659221 0.68573487
-0.024756478 -0.14588955 0.68421161
-0.017058872 -0.14346938 0.68205255
-0.080905817 -0.13277221 0.68160009
-0.075243711 -0.13558199 0.68329304
-0.067176551 -0.13872287 0.68725008
-0.021110132 -0.13932689 0.68800002
-0.018605057 -0.13921686 0.68450004
-0.080714703 -0.1297414 0.68200004
-0.077924564 -0.1297414 0.68199998
-0.053203467 -0.14179179 0.69095832
-0.045226865 -0.14221613 0.69147241
-0.03497038 -0.14208114 0.69231045
-0.026851386 -0.1422848 0.69212502
-0.072322525 -0.13311659 0.69188231
-0.064801425 -0.13493398 0.69349307
-0.035979964 -0.13734342 0.69553131
-0.026098967 -0.13840061 0.69226313
