# .PCD v0.7 - Point Cloud Data file format
VERSION 0.7
FIELDS x y z
SIZE 4 4 4
TYPE F F F
COUNT 1 1 1
WIDTH 354
HEIGHT 1
VIEWPOINT 0 0 0 1 0 0 0
POINTS 354
DATA ascii
0.014059103 -0.12653193 0.60900003
0.028286349 -0.1308879 0.61340004
0.033103373 -0.13111733 0.61550003
0.007506222 -0.12616818 0.61484617
0.014825825 -0.12634066 0.61544842
0.025714841 -0.1281067 0.61422855
0.032828335 -0.12892435 0.61692303
0.035386648 -0.13011399 0.62100005
0.043888927 -0.13083337 0.62575001
-0.014453932 -0.12802675 0.62812507
-0.0038703075 -0.1233704 0.62604022
0.004373495 -0.12365975 0.62369114
0.015166465 -0.12300873 0.62299991
0.024625249 -0.12396236 0.62294215
0.034658521 -0.12503612 0.62513357
0.041945431 -0.12758413 0.6280455
-0.0033567569 -0.11830235 0.62845457
0.0055412469 -0.11752333 0.62774444
0.014416488 -0.11737559 0.62749076
0.02425158 -0.11855931 0.62684387
0.032298416 -0.11905037 0.62870008
0.048812509 -0.13133256 0.63033342
0.055556715 -0.1334718 0.63565707
0.060774039 -0.13548708 0.63600004
-0.022383399 -0.12569651 0.63613337
-0.015650973 -0.123981 0.6328429
-0.0093928259 -0.12155356 0.63025004
0.038384587 -0.12167843 0.63090003
0.046014715 -0.12430505 0.63368666
0.052300774 -0.12671296 0.6365
-0.012437996 -0.11764226 0.63599998
-0.005382353 -0.11412372 0.63368648
0.0046754559 -0.11262625 0.63202006
0.015471262 -0.11248306 0.63192689
0.025210004 -0.1137443 0.63304842
0.03484438 -0.1147569 0.63487148
0.043177303 -0.11795556 0.63696003
-0.0025522895 -0.10869795 0.63678581
0.0052679852 -0.10790704 0.63705397
0.01515358 -0.10708634 0.63676357
0.024462549 -0.10762743 0.63690484
0.031856753 -0.10898063 0.63750005
0.068095282 -0.14155352 0.6478889
0.071398363 -0.14222847 0.64740002
-0.034313101 -0.1318921 0.64715791
-0.029313102 -0.13021393 0.64300001
0.058419749 -0.13172311 0.64074999
0.065382294 -0.13444386 0.64574236
0.071514413 -0.13229591 0.64487505
-0.032247446 -0.12646225 0.64712
-0.026685987 -0.12389847 0.64272553
-0.019637333 -0.12062933 0.64000005
0.056292094 -0.12420131 0.64296424
0.064849086 -0.12541015 0.64483553
0.074738622 -0.12473854 0.64243281
0.08388678 -0.12362801 0.64280957
0.090045936 -0.12062758 0.64600003
-0.023207622 -0.11629761 0.64629555
-0.016108723 -0.11432928 0.64255869
-0.0089770667 -0.1110912 0.64000005
0.038395457 -0.11147983 0.64029998
0.045739952 -0.11377486 0.64218956
0.0529835 -0.11586332 0.64572549
0.077184595 -0.11871907 0.64139998
0.085153505 -0.11549571 0.64202821
0.091574058 -0.11456954 0.6444
-0.021620352 -0.10980864 0.64900005
-0.013674815 -0.10757822 0.64616221
-0.0054625547 -0.10460941 0.64462012
0.0047519454 -0.10318862 0.64156878
0.015040644 -0.10223357 0.64085704
0.02580772 -0.10296933 0.64140427
0.035195086 -0.10490272 0.64267963
0.043537579 -0.10599358 0.64645445
0.050990444 -0.10937294 0.64866668
0.087933429 -0.10594204 0.64478123
0.09292347 -0.10548627 0.64736593
-0.0031833958 -0.098397724 0.64804995
0.0053851041 -0.096228279 0.64630979
0.015443499 -0.095540054 0.64603603
0.024687493 -0.096278138 0.64642179
0.033413269 -0.097825766 0.64737505
0.040395923 -0.099567413 0.64900005
0.088706069 -0.097803012 0.64862508
0.0673429 -0.14096537 0.65100002
0.070659332 -0.14074883 0.65000004
-0.04097233 -0.13267313 0.65516669
-0.038531143 -0.13200068 0.65112507
0.067810163 -0.13960917 0.65000004
-0.041018356 -0.12652141 0.65900004
-0.035874728 -0.12495831 0.65566015
0.059832498 -0.12023483 0.65000004
0.063766584 -0.12085201 0.65266675
-0.03251661 -0.11617438 0.65562183
-0.027296133 -0.11355298 0.65238893
0.057570104 -0.11370801 0.65267742
0.061932996 -0.1156384 0.65587097
-0.023627831 -0.10577055 0.65563339
-0.015870372 -0.10343079 0.65185106
0.047561966 -0.10293304 0.65118748
0.054185268 -0.10601246 0.65524
0.0956119 -0.10267378 0.65112501
-0.021375762 -0.099946134 0.65900004
-0.013530753 -0.096028477 0.6551277
-0.0056566619 -0.093989953 0.65328175
0.0039364081 -0.091297194 0.65129995
0.013594596 -0.090929113 0.65000004
0.026161924 -0.091456711 0.65050006
0.035618149 -0.09326221 0.65199995
0.044446468 -0.095252305 0.65448576
0.051153719 -0.097498119 0.65808338
0.088736773 -0.094068669 0.65233332
0.092732303 -0.095917709 0.65330297
-0.004097518 -0.087108187 0.65782058
0.005309518 -0.0849123 0.65496564
0.014976646 -0.084941827 0.65427142
0.024632337 -0.085227907 0.65555316
0.034572788 -0.086825296 0.65680003
0.043023102 -0.088928491 0.65822226
0.0075074225 -0.079124078 0.65880001
0.01469934 -0.078648262 0.65853846
0.020798039 -0.079148099 0.65900004
0.075416647 -0.17343868 0.66505891
0.074285224 -0.16888282 0.66200006
-0.042527538 -0.13163984 0.66150004
-0.039983891 -0.13038225 0.66100001
-0.041593052 -0.12593795 0.66145456
-0.03905673 -0.12261727 0.66100007
0.067204915 -0.12152598 0.66200006
0.070434906 -0.12166029 0.66400003
-0.035212867 -0.11502977 0.66488242
0.065884739 -0.11448555 0.66352171
-0.031240309 -0.10865641 0.66400003
-0.027918326 -0.10311151 0.66338468
0.057380214 -0.10313764 0.66261125
0.063047141 -0.10535239 0.66622227
-0.023441156 -0.095855266 0.66476464
-0.017330399 -0.093496777 0.66245168
0.048956323 -0.092029713 0.66142857
0.05517301 -0.094930731 0.66488886
0.060565829 -0.098894142 0.66750002
-0.021082081 -0.089598842 0.66800004
-0.01377604 -0.086495392 0.66465902
-0.0064243455 -0.082952932 0.66315222
0.00057947665 -0.080547258 0.66100001
0.02781488 -0.080547258 0.66100001
0.035566766 -0.082304209 0.66146672
0.045433085 -0.084562786 0.66420341
0.051847383 -0.087611429 0.66700006
0.085206874 -0.085487723 0.66680956
-0.0039053841 -0.077467389 0.66686481
0.0053064767 -0.075137667 0.66461974
0.015170994 -0.074113727 0.66335082
0.025106095 -0.074951217 0.66392082
0.034403764 -0.075860679 0.66551775
0.042873904 -0.078198627 0.66659099
0.0080775199 -0.068953946 0.66770011
0.015318238 -0.06850408 0.66736364
0.023664303 -0.068713754 0.66738892
0.031623118 -0.069687985 0.66800004
0.071514517 -0.1807209 0.67700005
0.069645032 -0.17470783 0.67900002
0.072812736 -0.17693129 0.67364991
-0.041703034 -0.12099753 0.67000002
-0.039412305 -0.12058988 0.671
-0.041950338 -0.1164606 0.67299998
-0.037713639 -0.11370269 0.67180645
0.067911856 -0.11122695 0.6702857
-0.03495004 -0.10516834 0.67275
-0.0299557 -0.1004397 0.67000002
0.067165121 -0.10339671 0.67371422
-0.031245818 -0.09648668 0.67485708
-0.027043376 -0.09275011 0.67115992
0.058680821 -0.091959253 0.67070001
0.064451128 -0.094835721 0.6748364
0.075959116 -0.09151011 0.67815387
0.08353743 -0.092292771 0.67584622
-0.030358089 -0.08988376 0.67900002
-0.02378295 -0.085621111 0.67378443
-0.016914105 -0.083238982 0.67103112
0.049534589 -0.080860816 0.67000002
0.055697922 -0.084815398 0.6728363
0.064939164 -0.087663762 0.67808837
0.075160518 -0.087009989 0.67515558
0.083326042 -0.088219978 0.6734286
-0.021157473 -0.07850083 0.67666674
-0.014350234 -0.075574338 0.67526495
-0.0054428899 -0.072819948 0.67171431
0.0021553335 -0.070737936 0.67055559
0.037833322 -0.071918547 0.67037499
0.045278493 -0.073683389 0.67264813
0.052719552 -0.076152399 0.67527497
-0.011306151 -0.068726726 0.67874998
-0.0043562232 -0.06596005 0.67650944
0.0045396942 -0.064456642 0.67426872
0.014802597 -0.063778833 0.67243624
0.025409102 -0.064137004 0.67356688
0.034784894 -0.064817443 0.67420274
0.044395525 -0.06682279 0.67697495
0.050596815 -0.069645032 0.67900002
0.066448413 -0.19112062 0.68700004
0.066960834 -0.18528187 0.6863001
0.070157878 -0.18609238 0.68400002
-0.044131335 -0.17476918 0.68692863
0.06819471 -0.17618938 0.68369561
0.071407348 -0.17422719 0.68258339
-0.045917172 -0.16498093 0.68766671
-0.045235999 -0.15983386 0.68800002
0.070939869 -0.11028466 0.68000001
-0.040653225 -0.10148337 0.68700004
-0.037938081 -0.10150847 0.68412501
0.070939869 -0.1090924 0.68000001
-0.040954359 -0.099374548 0.68700004
-0.035324674 -0.095157422 0.68454772
0.069332227 -0.095109046 0.68059999
0.074018285 -0.094439983 0.68140912
-0.032288246 -0.085744336 0.6862334
-0.027439583 -0.083017856 0.68172735
0.0590172 -0.081074134 0.68000001
0.064891979 -0.083345249 0.68213522
-0.030715769 -0.078295097 0.68700004
-0.024562659 -0.075910814 0.68532014
-0.018650768 -0.072198823 0.68307143
0.057177488 -0.073587343 0.68311763
0.062129587 -0.075862207 0.6856786
0.052624546 -0.20009565 0.69800001
0.055690963 -0.19452079 0.69644457
0.061582144 -0.19299704 0.69263154
-0.040704511 -0.18104394 0.69300002
-0.035365585 -0.18387134 0.69709373
0.058524109 -0.1868545 0.69707692
0.062276322 -0.18458936 0.69317967
-0.041343376 -0.1740088 0.69099998
-0.037239879 -0.17706321 0.69645005
0.066362306 -0.17458992 0.6941843
0.070773296 -0.1711867 0.69000006
-0.043102562 -0.16512389 0.69133347
-0.039503913 -0.16738093 0.69683337
0.06843435 -0.169052 0.69700003
0.070218809 -0.1685247 0.69650006
-0.036952376 -0.090260722 0.69100004
-0.035377935 -0.085206904 0.69431257
-0.031660818 -0.077325068 0.69450003
-0.022839397 -0.20141894 0.70418185
-0.016454203 -0.2020079 0.7068333
0.036599349 -0.20347261 0.70761544
0.044941995 -0.20204583 0.7050001
0.050934333 -0.20128267 0.70000005
-0.031116506 -0.19279508 0.70211112
-0.024521708 -0.19481204 0.70490623
-0.017578481 -0.19729798 0.70772225
0.038482159 -0.19923829 0.708
0.046181101 -0.19647676 0.70494449
0.051961686 -0.19303051 0.70099998
-0.031195777 -0.18497942 0.70120835
-0.026347868 -0.18553013 0.7063334
0.04903372 -0.18682468 0.708
0.054915007 -0.1853893 0.70418978
0.060752999 -0.18103166 0.70000005
-0.033549856 -0.17455754 0.70359999
-0.028330652 -0.17825788 0.70766664
0.058764726 -0.17644912 0.70562506
0.062273879 -0.17437819 0.70263177
-0.040059283 -0.16331862 0.70300001
-0.036601476 -0.16541237 0.70437199
0.064251982 -0.16755825 0.70481253
-0.038275268 -0.15806651 0.708
-0.036467578 -0.082723074 0.70138466
-0.0025107735 -0.21027726 0.71600002
-0.011659167 -0.20285179 0.71071434
-0.0049275286 -0.20463806 0.71352637
0.0049451124 -0.2049883 0.71343774
0.015098686 -0.20459381 0.71227878
0.024817724 -0.20453966 0.71238703
0.032022424 -0.20336819 0.71017396
-0.020549944 -0.19117616 0.71033335
-0.014203073 -0.19397934 0.71140712
-0.0051874653 -0.195259 0.7154637
0.0050939349 -0.19649236 0.71667832
0.014787548 -0.1966054 0.71643627
0.025745135 -0.19647422 0.71630776
0.03487378 -0.19473837 0.71256912
0.043668922 -0.19270968 0.71074295
-0.02209726 -0.18398866 0.71100014
-0.015781296 -0.18620078 0.71596289
-0.007802947 -0.18842924 0.71789998
0.0364464 -0.1874664 0.71684361
0.045276262 -0.18519777 0.71437877
0.052363299 -0.18208359 0.71058834
-0.030950058 -0.17101201 0.71325004
-0.024981895 -0.17497319 0.71402854
-0.019266153 -0.17767806 0.71820009
0.048046861 -0.17830779 0.71753848
0.054420915 -0.17481685 0.71334416
-0.032410339 -0.16441306 0.71416134
-0.028123178 -0.16664369 0.7182222
0.057852153 -0.16678077 0.71522725
0.060376033 -0.16681212 0.71000004
-0.034477055 -0.15837957 0.71377778
-0.0009472383 -0.19138554 0.72050005
0.0048651197 -0.19152088 0.72121751
0.015966697 -0.19178331 0.72199988
0.023559762 -0.19259906 0.7215001
-0.013156533 -0.18218584 0.72090924
-0.0045500509 -0.18465938 0.72285938
0.0048364662 -0.18589929 0.72484756
0.015364211 -0.18583551 0.72614998
0.025486477 -0.18527168 0.72500002
0.034613691 -0.18326883 0.72295743
0.041979056 -0.18136905 0.7208572
-0.02085853 -0.17192309 0.72100002
-0.015400177 -0.17514212 0.72438723
-0.0070082727 -0.17824464 0.72686362
0.028060785 -0.17900117 0.72750014
0.036621623 -0.17826526 0.72685713
0.044862859 -0.17509034 0.72401726
0.05089714 -0.17131482 0.72185719
-0.024257103 -0.16461679 0.72272545
-0.019567346 -0.16696043 0.72783345
0.048269264 -0.16647199 0.72687495
0.052832197 -0.16547263 0.72264987
-0.031349603 -0.15653761 0.72000003
-0.026868036 -0.15808663 0.72305012
0.0058339736 -0.18127768 0.73038876
0.014022443 -0.18148203 0.73009092
-0.012643287 -0.17156959 0.73025
-0.0044614822 -0.17408842 0.73179579
0.0052843024 -0.17465258 0.73422062
0.015320533 -0.17528646 0.73369873
0.024839122 -0.17463796 0.7338357
0.034280986 -0.17375782 0.73201913
0.041501556 -0.17200296 0.73036367
-0.0211189 -0.1612716 0.73000002
-0.014714323 -0.16499262 0.73332769
-0.0062909592 -0.16644381 0.73651177
0.0028047487 -0.16914798 0.73799998
0.026545029 -0.16832758 0.73850006
0.035661783 -0.16606085 0.73707688
0.043793682 -0.16482836 0.73351854
-0.021496743 -0.15882351 0.73199999
-0.015364754 -0.15757562 0.7366668
0.042700678 -0.15980406 0.73800004
0.015374104 -0.17084743 0.741
-0.0033763829 -0.16292672 0.74196774
0.0053933598 -0.16445287 0.74354541
0.014994589 -0.16495158 0.74374604
0.024043411 -0.16403832 0.74201787
0.033075977 -0.16232678 0.74125016
-0.012235461 -0.15476638 0.74240011
-0.005399819 -0.15642868 0.74384445
0.0049761934 -0.15722984 0.74666667
0.014840834 -0.15746973 0.74687499
0.024227075 -0.15824594 0.7448889
0.033382736 -0.1591166 0.74183339
