# .PCD v0.7 - Point Cloud Data file format
VERSION 0.7
FIELDS x y z
SIZE 4 4 4
TYPE F F F
COUNT 1 1 1
WIDTH 265
HEIGHT 1
VIEWPOINT 0 0 0 1 0 0 0
POINTS 265
DATA ascii
-0.05668965 -0.10540076 0.47900003
-0.047545955 -0.10328209 0.47826675
-0.047031414 -0.099521831 0.47900003
-0.07227844 -0.11234304 0.48784211
-0.06602139 -0.11166685 0.48250005
-0.070876397 -0.10892793 0.48880005
-0.064323008 -0.10578118 0.48587224
-0.056210488 -0.10253174 0.48229519
-0.047077 -0.10136019 0.48000002
-0.031843711 -0.1020368 0.48162505
-0.025397731 -0.1031362 0.48297921
-0.016623748 -0.10341287 0.48854551
-0.0098598702 -0.10802988 0.48900002
-0.060951002 -0.098975293 0.48814291
-0.053687796 -0.097909875 0.48716673
-0.04516824 -0.096873306 0.48417392
-0.034783948 -0.097475849 0.48508567
-0.026145 -0.098293364 0.48658714
-0.07660079 -0.11196767 0.49377787
-0.0077479798 -0.11062393 0.49100003
-0.072904669 -0.10530932 0.49528983
-0.06725964 -0.10248713 0.49206817
-0.020189634 -0.10008904 0.49000001
-0.017761413 -0.10040946 0.49016669
-0.0069502536 -0.1070486 0.49450007
0.0026247399 -0.10411468 0.49900001
-0.063883536 -0.096121959 0.49612662
-0.055775851 -0.09335243 0.49280214
-0.044975556 -0.092272364 0.49237299
-0.034768462 -0.092835553 0.49243033
-0.024780326 -0.094108976 0.49422696
-0.017732151 -0.096527368 0.49621156
-0.053010218 -0.088560231 0.49764276
-0.044905514 -0.087462917 0.49682504
-0.036199324 -0.08771354 0.49671197
-0.028842771 -0.089588761 0.49850002
-0.078618586 -0.11024171 0.50100005
-0.08060775 -0.10732855 0.50800002
-0.076478645 -0.10442353 0.50321424
-0.010999036 -0.10125387 0.50185722
-0.0045714006 -0.10331497 0.50457883
0.0010667781 -0.10405558 0.50142866
-0.072453924 -0.096363537 0.50530005
-0.066843249 -0.09312214 0.50337499
-0.023028366 -0.090355143 0.50130004
-0.014244741 -0.094714694 0.50469565
-0.0069020488 -0.09910325 0.50588238
-0.06306427 -0.087110519 0.50605553
-0.055130441 -0.084662274 0.50498074
-0.044914935 -0.082479611 0.50352013
-0.034366239 -0.084001288 0.50520235
-0.025748702 -0.086377755 0.50476915
-0.018601272 -0.089064389 0.50636363
-0.050819926 -0.079795517 0.50849998
-0.045891326 -0.078879386 0.50734782
-0.080996111 -0.15646802 0.51354545
-0.077713005 -0.15592115 0.51566666
0.00467306 -0.12219746 0.51486486
0.012170413 -0.1203588 0.51419997
0.0073140683 -0.11833558 0.51443481
0.015341518 -0.11648978 0.51446652
0.024645934 -0.11330371 0.51476789
0.031485267 -0.11087576 0.51674998
-0.081050806 -0.10124536 0.51420003
-0.078703843 -0.1010766 0.51300001
-0.0017883999 -0.1023859 0.51000005
0.027693184 -0.10600976 0.5157553
0.032481056 -0.10479715 0.51727885
-0.08136595 -0.098017931 0.51620001
-0.07606791 -0.094075292 0.5133031
-0.012028006 -0.092324607 0.5132581
-0.0076698349 -0.095619045 0.5130465
0.02882239 -0.098721653 0.51775002
0.033208933 -0.099294454 0.51890916
-0.073248893 -0.088104658 0.51522583
-0.065995164 -0.083740532 0.51225972
-0.056400809 -0.080634043 0.51082367
-0.040686101 -0.080030896 0.51000005
-0.035031475 -0.08047913 0.51014292
-0.023630856 -0.082463458 0.5120312
-0.015592905 -0.087122627 0.51484996
-0.063364685 -0.077960551 0.51661909
-0.054923177 -0.077051215 0.51410693
-0.044178057 -0.074945942 0.51435298
-0.035257187 -0.076068945 0.51499063
-0.026588729 -0.078141369 0.51675004
-0.043224048 -0.069613472 0.51900005
-0.070149988 -0.17101926 0.523
-0.063050888 -0.17252706 0.5283668
-0.058479708 -0.17400149 0.52900016
-0.045540906 -0.17557827 0.52900004
-0.07173609 -0.16384919 0.52230233
-0.06588091 -0.16544929 0.52644658
-0.059515435 -0.168962 0.52900004
-0.011387803 -0.16690086 0.52900004
-0.0056566047 -0.16355211 0.52880019
-0.073637664 -0.15468477 0.52431482
-0.06956394 -0.15755364 0.52550006
-0.0019124682 -0.15514466 0.52656817
0.0013308997 -0.15301982 0.52231818
-0.075596586 -0.14890596 0.52509516
-0.00084985537 -0.1472808 0.52858335
0.0014586139 -0.14850448 0.52327275
-0.079473339 -0.092718899 0.52100003
-0.0049063102 -0.093242258 0.52200001
0.029547876 -0.094442949 0.5250001
0.034887742 -0.09489774 0.5245899
-0.076772526 -0.085588552 0.52230316
-0.01453079 -0.08301229 0.52244455
-0.0075641307 -0.088885486 0.52071422
0.037564293 -0.089505039 0.52900004
-0.073109552 -0.077375539 0.52893347
-0.064468667 -0.072852306 0.52612114
-0.057739627 -0.072483584 0.52344835
-0.045577459 -0.070021555 0.52550006
-0.033801436 -0.071404614 0.5218066
-0.024737952 -0.073772244 0.52350539
-0.017350417 -0.077647179 0.52427024
-0.062333163 -0.068991348 0.52881831
-0.054409109 -0.067454681 0.52789992
-0.045091107 -0.065776154 0.52567589
-0.03522056 -0.068083413 0.52659649
-0.027227731 -0.069420092 0.52791667
-0.045911908 -0.059824605 0.52900004
-0.053832844 -0.17348725 0.53209734
-0.045455799 -0.17347069 0.53460854
-0.035128444 -0.17301944 0.5355674
-0.025156045 -0.17217608 0.53421456
-0.017399512 -0.17159548 0.53299999
-0.07041277 -0.16154885 0.53724998
-0.063177489 -0.16261911 0.53362006
-0.055625826 -0.16619515 0.53505713
-0.046732783 -0.16860224 0.53847986
-0.034629211 -0.16955347 0.53725004
-0.023932671 -0.16763829 0.53703272
-0.014899492 -0.16507372 0.53408509
-0.0081638563 -0.16227174 0.53084612
-0.071307197 -0.15319957 0.53457904
-0.066535249 -0.15738077 0.53672224
-0.01194283 -0.15795851 0.53584218
-0.0067739822 -0.15480942 0.53271091
-0.075118862 -0.14552449 0.53550792
-0.069883481 -0.14961632 0.53500003
-0.0042193821 -0.14581075 0.53403294
-0.077532403 -0.13955832 0.53600001
0.033536296 -0.090364754 0.53133339
0.035227928 -0.085696429 0.53487116
0.040164482 -0.081746534 0.53900003
-0.074481055 -0.073820896 0.5330435
-0.069062918 -0.07092277 0.53050005
-0.02104033 -0.071121231 0.53637499
-0.015337032 -0.075279348 0.53589845
-0.0095957005 -0.077710941 0.53833336
-0.072290383 -0.068477377 0.5365001
-0.064489648 -0.065324716 0.5340001
-0.055798702 -0.063013539 0.53260297
-0.044005774 -0.061981477 0.53119999
-0.034775332 -0.063217305 0.53362501
-0.025426697 -0.065833755 0.53585219
-0.018900933 -0.068988405 0.53900003
-0.0532564 -0.058602691 0.53724998
-0.047413271 -0.057741463 0.53585708
-0.03656568 -0.059559949 0.53750002
-0.053228274 -0.1618084 0.54248905
-0.044668224 -0.16437715 0.54325861
-0.035387311 -0.16441326 0.54392844
-0.02597644 -0.16342957 0.54194051
-0.018213442 -0.16247587 0.54000002
-0.063818544 -0.1539268 0.54374468
-0.055940792 -0.15678008 0.54610592
-0.046701603 -0.1590369 0.54821736
-0.032001294 -0.15928869 0.546875
-0.023935886 -0.15685134 0.54627043
-0.015601713 -0.15476145 0.54359102
-0.0096761454 -0.15163502 0.54028571
-0.071966901 -0.14418924 0.54202873
-0.067694478 -0.14786674 0.54505718
-0.011770413 -0.14620726 0.54716277
-0.0080928961 -0.14464998 0.54291189
-0.0059424485 -0.13770947 0.54545832
0.034810539 -0.080909371 0.54005259
-0.012516689 -0.072128206 0.54411107
-0.0082327379 -0.075062573 0.54121739
0.035383534 -0.076774597 0.5437814
-0.072430998 -0.063887589 0.54260612
-0.066741176 -0.061702952 0.54188889
-0.024206519 -0.061506629 0.54045457
-0.016252261 -0.06843961 0.54250002
-0.071425669 -0.059348702 0.54785717
-0.064107455 -0.056606341 0.54573923
-0.055424955 -0.054013316 0.54375571
-0.044815395 -0.053235758 0.5431447
-0.035032593 -0.055492293 0.5446251
-0.026614012 -0.056756414 0.5445891
-0.046832845 -0.049226806 0.54649997
-0.040501997 -0.1605615 0.55000001
-0.037609 -0.1605615 0.55000001
-0.061371803 -0.15075323 0.55500001
-0.053885251 -0.15283476 0.55464274
-0.044531364 -0.15596849 0.55388498
-0.034849033 -0.15517609 0.55440819
-0.026186502 -0.15254989 0.55243546
-0.019590344 -0.15141296 0.55039996
-0.071513444 -0.14184831 0.55161119
-0.065424666 -0.14619721 0.55496144
-0.057347968 -0.14832228 0.5579375
-0.023687299 -0.14786704 0.55631703
-0.016138205 -0.14509511 0.55362183
-0.072927617 -0.13845658 0.5528667
-0.011865062 -0.13765751 0.555516
-0.0082803229 -0.13664496 0.55170596
-0.0086790007 -0.070878498 0.55000001
0.027171971 -0.07272166 0.5565294
0.031295195 -0.073666155 0.55205554
-0.076004192 -0.060744584 0.55080003
-0.011650024 -0.068865292 0.55042857
-0.0073803444 -0.068840824 0.55078572
0.025764357 -0.068641625 0.55757147
-0.050566133 -0.15071653 0.56
-0.044864137 -0.1514971 0.56107908
-0.038502026 -0.15097688 0.56066674
-0.070203468 -0.14089787 0.56
-0.063478641 -0.14236476 0.56254905
-0.055079468 -0.14530106 0.56382293
-0.045116838 -0.1472445 0.56538033
-0.034355462 -0.14699537 0.56376922
-0.025191573 -0.14403817 0.56419998
-0.018235417 -0.14136462 0.56214291
-0.064925209 -0.13884562 0.56572419
-0.05895846 -0.13967256 0.56833339
-0.021734787 -0.13846236 0.56773341
-0.01608645 -0.13659541 0.56506258
-0.0011494072 -0.083462358 0.5622223
0.0035017377 -0.082866341 0.56588894
-0.0032707574 -0.075121202 0.56457376
0.0047844402 -0.07503029 0.56549436
0.014819539 -0.074328743 0.56686682
0.022074658 -0.074113131 0.56367576
0.0042280597 -0.069343254 0.56570584
0.015741175 -0.068592638 0.56492841
0.021215333 -0.069009699 0.56285709
-0.053550199 -0.14211562 0.57216674
-0.045117181 -0.14248255 0.57289225
-0.03561138 -0.1425738 0.57237929
-0.02838318 -0.14116372 0.57050008
-0.062846586 -0.13541743 0.57336169
-0.055956997 -0.13748561 0.57651722
-0.04465618 -0.13867033 0.57787883
-0.0346932 -0.13825931 0.57623267
-0.025585933 -0.13532512 0.57465547
-0.019264093 -0.13459529 0.57075006
-0.025481015 -0.12902936 0.57900006
0.0095109567 -0.081093416 0.57100004
0.011012686 -0.080592841 0.57100004
0.0094943 -0.079452299 0.57000005
0.011159967 -0.079119168 0.57000005
-0.060881287 -0.13210754 0.58033335
-0.05405483 -0.13325581 0.58232147
-0.045200005 -0.13417378 0.58422232
-0.035324425 -0.13367857 0.58313239
-0.028728368 -0.13220134 0.57999998
-0.053156875 -0.12922777 0.58366674
-0.047505163 -0.1297954 0.58520001
-0.03570981 -0.12937266 0.58387506
-0.028474133 -0.129659 0.58000004
