# .PCD v0.7 - Point Cloud Data file format
VERSION 0.7
FIELDS x y z
SIZE 4 4 4
TYPE F F F
COUNT 1 1 1
WIDTH 370
HEIGHT 1
VIEWPOINT 0 0 0 1 0 0 0
POINTS 370
DATA ascii
-0.011692103 -0.13082059 0.63499999
-0.0058860076 -0.13224159 0.6373077
0.013945575 -0.13178721 0.63372231
0.026064813 -0.13544238 0.63509089
0.030569367 -0.13617264 0.634
-0.0111512 -0.12935305 0.63600004
-0.0094785197 -0.12991148 0.63600004
0.013939 -0.12991148 0.63600004
-0.030061776 -0.13631494 0.64700001
-0.025185155 -0.13377804 0.64611864
-0.017481036 -0.13216877 0.64321738
-0.0038488172 -0.13150853 0.64028579
0.0042196163 -0.13065073 0.64100003
0.016746124 -0.13131304 0.64143491
0.025183108 -0.13229153 0.64134043
0.035019677 -0.13342936 0.64684999
0.042102791 -0.13768752 0.64900005
-0.022812454 -0.12747559 0.6481905
-0.014930638 -0.12557964 0.64643401
-0.0050803623 -0.12528154 0.64377791
0.0049989768 -0.12501366 0.64328754
0.015350089 -0.12475603 0.64501202
0.024623828 -0.12592602 0.64578682
0.032272212 -0.12763472 0.64786363
-0.01079352 -0.11986488 0.648
-0.0049727815 -0.11890826 0.64820832
0.0053872075 -0.1185833 0.6480689
0.012450555 -0.11869932 0.64784616
0.047685992 -0.14075468 0.65533334
0.050474085 -0.14190426 0.65800005
-0.041468088 -0.1367628 0.65880001
-0.035344202 -0.13328664 0.65415388
-0.0290615 -0.13049184 0.65000004
0.038636014 -0.13187434 0.65050006
0.044589281 -0.13478863 0.653
0.050583523 -0.13770841 0.65816671
-0.032741748 -0.12735802 0.65675873
-0.025699282 -0.12394039 0.65372145
-0.01721642 -0.12146479 0.65100002
0.019944167 -0.12023483 0.65000004
0.026240166 -0.12149508 0.65064996
0.035409551 -0.12432512 0.65423828
0.042299662 -0.1283275 0.65643752
-0.022594159 -0.11641286 0.65740007
-0.0149439 -0.11492462 0.65552521
-0.0053386344 -0.1139288 0.65308678
0.0049290662 -0.11354623 0.65234911
0.015398623 -0.11431596 0.65325713
0.024356432 -0.11534908 0.65532929
0.032268476 -0.11759726 0.65725005
-0.017139126 -0.10880456 0.65900004
-0.0026354908 -0.10823128 0.65689462
0.0052126204 -0.10758701 0.65740925
0.014310962 -0.10775137 0.65796793
0.021375762 -0.10918971 0.65900004
-0.045930728 -0.14229569 0.66540009
0.05562377 -0.14278445 0.6638214
0.060522813 -0.14316793 0.66657144
-0.044008724 -0.13535659 0.66412908
-0.039404415 -0.13096173 0.66100001
0.048597436 -0.13262166 0.66255558
0.055270612 -0.13447681 0.66561919
0.063796625 -0.13449799 0.66498178
0.07303483 -0.13259637 0.66536844
-0.040791884 -0.12807807 0.66577786
-0.035767119 -0.12418092 0.66374999
-0.029553309 -0.12111063 0.66100001
0.039129362 -0.12202521 0.66125
0.045240033 -0.1243895 0.66412723
0.053512279 -0.12831108 0.66738468
0.065849163 -0.12695479 0.66302443
0.074783854 -0.12489135 0.66305876
0.082853183 -0.12290582 0.66533345
-0.032719664 -0.11717422 0.6655001
-0.026849765 -0.1138989 0.66297871
0.02817151 -0.11175678 0.66120005
0.035519674 -0.11426777 0.66286272
0.0422392 -0.11701511 0.66640007
0.077285036 -0.11557985 0.66416228
0.083837517 -0.11495851 0.66500002
-0.022522287 -0.10733684 0.66596431
-0.014915669 -0.10507157 0.66407329
-0.0058076968 -0.1044781 0.66233796
0.0053061368 -0.10275305 0.66220933
0.01531453 -0.10318448 0.66214287
0.024881952 -0.10522664 0.66351414
0.033253178 -0.10734272 0.66630775
0.07842876 -0.10714055 0.66718191
0.083090141 -0.10787984 0.66723812
-0.012793384 -0.098329738 0.66764295
-0.0046941219 -0.097756572 0.66714638
0.0049735089 -0.09675207 0.66605556
0.014876864 -0.097864434 0.66691667
0.022553127 -0.099079795 0.6675384
-0.052723736 -0.14189664 0.67414993
-0.049143013 -0.14331746 0.67000002
-0.051707998 -0.13716283 0.67538899
-0.047242489 -0.1336014 0.67356664
-0.044118486 -0.12494405 0.67522001
-0.03867222 -0.12118725 0.67040002
0.048751432 -0.1215849 0.67000002
0.05442173 -0.12501225 0.67455113
-0.042031284 -0.11726017 0.67800003
-0.036235508 -0.11397728 0.67379642
-0.0299557 -0.1110123 0.67000002
0.039353568 -0.1110123 0.67000002
0.045764118 -0.11404188 0.67278177
0.052454054 -0.11614714 0.67733335
-0.032830019 -0.10572091 0.67642236
-0.025860291 -0.10373636 0.67184299
-0.018509282 -0.10077086 0.67025006
0.028983915 -0.10163941 0.67016673
0.036267608 -0.10366665 0.67221153
0.043571729 -0.10629046 0.67626828
0.079143338 -0.10252078 0.67157143
0.085069813 -0.10354485 0.67220753
-0.030633364 -0.098442212 0.6785
-0.024015753 -0.095945954 0.67616987
-0.015251668 -0.094264753 0.67328346
-0.0051896428 -0.092792377 0.67141861
0.0051835035 -0.091836758 0.67138702
0.015100144 -0.092627339 0.67104173
0.025058255 -0.094445914 0.6730001
0.034174114 -0.095946416 0.67575818
0.041072711 -0.099407859 0.67900002
0.079277508 -0.097501442 0.67612499
0.083649844 -0.096589766 0.67619991
-0.020833984 -0.08988376 0.67900002
-0.013710474 -0.088198207 0.67782146
-0.0041544442 -0.08591634 0.67694545
0.0045609386 -0.085149378 0.67598462
0.014755842 -0.086067356 0.67666155
0.023735678 -0.088197857 0.67825007
0.030358089 -0.08988376 0.67900002
0.062588915 -0.17232969 0.68779999
-0.052050836 -0.13187008 0.68242866
-0.049479067 -0.1305532 0.68000001
-0.051818486 -0.12757893 0.6842308
-0.048454709 -0.12487875 0.68107694
0.05840775 -0.12332711 0.68331254
0.061525661 -0.12513298 0.68605882
-0.050061174 -0.11339157 0.68800002
-0.045274399 -0.11431502 0.68448782
-0.039940935 -0.1108808 0.68000001
0.056128833 -0.11482924 0.68628567
0.060829271 -0.11924946 0.68700004
-0.041107871 -0.10603639 0.68584216
-0.037256941 -0.1035836 0.68275857
0.047323924 -0.10377057 0.68213338
0.051894885 -0.10641654 0.6863125
-0.033610385 -0.096072659 0.68484622
-0.026997667 -0.092173845 0.6815455
0.03648147 -0.091592692 0.68100005
0.044158299 -0.095578782 0.68447274
0.078150742 -0.09316349 0.6868
0.080753624 -0.092066482 0.68640006
-0.031132771 -0.089380257 0.68733335
-0.024647273 -0.085424766 0.68503398
-0.015562834 -0.083814174 0.68228281
-0.0067137713 -0.081986234 0.68147069
0.0067599765 -0.080716163 0.68033338
0.015171777 -0.081255652 0.68073696
0.025826225 -0.083862491 0.68242848
0.034157656 -0.08553499 0.68521053
0.041583903 -0.088724218 0.68744445
0.075464338 -0.089260153 0.68744451
-0.022306198 -0.078973934 0.68766671
-0.014248641 -0.077871993 0.68669254
-0.0045532868 -0.075525284 0.68562108
0.0048012957 -0.075041667 0.68487513
0.014792922 -0.07543277 0.68506652
0.024514919 -0.077178255 0.68678588
0.031162577 -0.078610115 0.68800002
0.0047581568 -0.069227837 0.68800008
0.011459786 -0.069361866 0.68800002
-0.054262787 -0.18384877 0.69771427
0.062970772 -0.18393828 0.69688898
-0.05361839 -0.17838909 0.69766665
0.061976165 -0.1764446 0.69312501
-0.055711508 -0.1308002 0.69075006
0.063487075 -0.13121559 0.69157141
-0.053517144 -0.12448971 0.69341385
-0.048781242 -0.1222573 0.69266671
-0.051364888 -0.11838079 0.69337499
-0.047458615 -0.11344162 0.69050002
0.057838812 -0.11264671 0.69083333
-0.044938363 -0.10513742 0.69351518
0.055689022 -0.10503642 0.69427282
0.060579419 -0.10953248 0.69800001
0.077045411 -0.10089338 0.69749999
-0.041867733 -0.097579911 0.69462502
-0.03707435 -0.093426213 0.69173342
0.047883537 -0.092546731 0.69138467
0.052292556 -0.096352793 0.69420844
0.068279624 -0.093120143 0.6979
0.073869757 -0.095153525 0.69550008
-0.033726446 -0.085837252 0.69420528
-0.028106539 -0.081983499 0.69115388
0.037779309 -0.082221866 0.69133341
0.044899713 -0.085078336 0.69461715
0.050716043 -0.088599145 0.69700003
0.068725266 -0.089266442 0.69583338
0.072052062 -0.088400729 0.69066668
-0.03120758 -0.078936823 0.69800001
-0.024534242 -0.075333126 0.69537938
-0.015571351 -0.07333374 0.69194889
-0.007666158 -0.071210749 0.69033337
0.017950188 -0.070992023 0.69016671
0.02643053 -0.072765514 0.69110352
0.035345238 -0.075080656 0.69420707
0.041956153 -0.077075414 0.69727272
0.04903372 -0.20110032 0.708
0.050751984 -0.20115116 0.70600003
0.055084847 -0.19458041 0.70606011
0.061276808 -0.19153237 0.70249999
-0.051152788 -0.18392058 0.70518756
-0.04771712 -0.18472189 0.70772731
0.057990618 -0.18544839 0.70378584
0.061992731 -0.18843411 0.70014286
-0.051909987 -0.17851499 0.70418185
0.058982052 -0.17717233 0.70554549
0.061320435 -0.17438923 0.70654541
0.064987302 -0.11078788 0.70600003
-0.051539507 -0.1039257 0.70618749
-0.048268277 -0.10370926 0.70166671
0.058725886 -0.1019694 0.70069999
0.062556788 -0.10398071 0.70316011
0.075071886 -0.10043678 0.70000005
-0.044952981 -0.09469676 0.70400012
-0.039916825 -0.0908871 0.70050001
0.057061922 -0.093992636 0.70220524
0.064337358 -0.09536276 0.70142853
0.071185336 -0.098186657 0.70000005
-0.041846953 -0.086406022 0.70600003
-0.037044611 -0.083471775 0.70229179
0.04852885 -0.081698582 0.7007001
0.054093637 -0.085650265 0.70417964
0.060740724 -0.089871481 0.70700002
-0.035338629 -0.20161775 0.71844447
0.036648799 -0.2070162 0.71899998
0.044449631 -0.20228299 0.71518189
-0.043870065 -0.19360024 0.71266663
-0.037851196 -0.19618988 0.71780765
0.047885362 -0.19612625 0.71240014
0.051385615 -0.19294773 0.71015388
-0.044128504 -0.18557307 0.71423072
-0.039253335 -0.18871097 0.71833342
0.04920277 -0.18843615 0.71650004
0.053604729 -0.18470587 0.71330762
-0.051102657 -0.17434619 0.71146673
-0.047571715 -0.17595804 0.71605253
0.056055851 -0.17668381 0.71396428
-0.051635269 -0.16745695 0.71590918
-0.049539264 -0.16729927 0.71833342
0.057359423 -0.16955698 0.71900004
-0.046682499 -0.090252832 0.71000004
0.062954307 -0.090379946 0.71100003
-0.046206132 -0.084371358 0.71442848
-0.013503385 -0.21138088 0.72670007
-0.0074898014 -0.21150854 0.72725004
0.0082953116 -0.21249241 0.727889
0.015119433 -0.21210752 0.72677284
0.023593603 -0.21208535 0.72742873
-0.03167237 -0.20297399 0.72127283
-0.025280727 -0.20462792 0.72375751
-0.016778439 -0.2060734 0.72690481
-0.0082967728 -0.20997219 0.72799999
0.0091477232 -0.2095467 0.72799999
0.015104382 -0.20937648 0.72799999
0.027049733 -0.20641051 0.72706985
0.034662027 -0.20409414 0.72285181
0.042098995 -0.20102465 0.7203334
-0.033864547 -0.19422509 0.72363049
-0.027273856 -0.1965571 0.72730559
-0.019784613 -0.19976076 0.72800004
0.029357813 -0.19912255 0.72800004
0.035916679 -0.19591694 0.72581816
0.043800667 -0.19430481 0.72252941
-0.041461144 -0.18262346 0.72208339
-0.036853094 -0.18567844 0.72547734
0.038931012 -0.18954936 0.72800004
0.046098247 -0.18580267 0.72433347
0.050072569 -0.18064155 0.72300005
-0.043170024 -0.17510511 0.72426313
-0.038931012 -0.17806153 0.72799999
0.048862185 -0.17802703 0.72700006
0.052916687 -0.1742363 0.7228604
-0.047156174 -0.16727243 0.72206259
0.053802352 -0.16904543 0.72425008
-0.0027210636 -0.21104862 0.73062503
0.0033358084 -0.21182384 0.7306841
0.0172791 -0.2131089 0.73000002
-0.013310581 -0.20385325 0.73020667
-0.0050927266 -0.20471026 0.73254853
0.0051831333 -0.20470499 0.73281157
0.015388433 -0.20400408 0.7314375
0.023199683 -0.20339137 0.7305482
-0.030078433 -0.19007009 0.73000002
-0.023850791 -0.19370586 0.73158062
-0.015551988 -0.19534072 0.73475772
-0.0058493381 -0.19723776 0.7375502
0.0055729025 -0.19830997 0.73776937
0.015436091 -0.19728886 0.73729414
0.025027605 -0.1954174 0.73530006
0.032513618 -0.19222264 0.73099983
-0.032252498 -0.18390173 0.73207402
-0.024991795 -0.18538795 0.73601645
-0.0170574 -0.18892965 0.73888886
0.028804965 -0.18690874 0.73837501
0.035279531 -0.18580623 0.73538983
0.042511661 -0.18300024 0.73210341
-0.041431516 -0.17240074 0.7302857
-0.035242394 -0.17529121 0.73482001
-0.026994029 -0.17924035 0.73900002
0.039069526 -0.17894344 0.73866671
0.045728013 -0.17548119 0.7343542
0.050557368 -0.17087109 0.73000002
-0.042580269 -0.16724867 0.73264992
-0.038142599 -0.16735776 0.73746669
0.048431538 -0.16836163 0.73470002
0.050557368 -0.1689512 0.73000002
-0.01234259 -0.19098534 0.74100012
-0.0045090681 -0.19261865 0.74130297
0.0049751787 -0.19363381 0.74163038
0.014473474 -0.19270819 0.74146676
0.022343267 -0.19149433 0.74123091
-0.020795846 -0.18248352 0.74130011
-0.01463663 -0.18453048 0.74411112
-0.0053176559 -0.18606433 0.74613369
0.0051853708 -0.18663345 0.74642587
0.01511324 -0.18565765 0.74614012
0.024419803 -0.18455982 0.7449851
0.03315863 -0.18162854 0.74164706
-0.03157321 -0.17291154 0.74150008
-0.024950212 -0.17489107 0.74438095
-0.016801987 -0.17767216 0.74680954
0.027162861 -0.17783292 0.7488749
0.035440408 -0.17527249 0.74590486
0.042293321 -0.17307903 0.74222219
-0.033715766 -0.16554682 0.7442683
-0.028673219 -0.16697502 0.74800009
0.038274664 -0.16744591 0.74793744
0.043894943 -0.16747999 0.74336374
-0.004325348 -0.18130931 0.75128567
0.0054492 -0.18159623 0.75127274
0.014465 -0.18081249 0.75000006
-0.021525173 -0.17136203 0.75057143
-0.01430317 -0.17398353 0.75311899
-0.0055725719 -0.17555165 0.75499982
0.0052748751 -0.17583847 0.75540012
0.015403364 -0.17555223 0.75382769
0.024263017 -0.17388107 0.75259262
0.031998333 -0.17116916 0.75000006
-0.02415468 -0.16549402 0.75291103
-0.016172132 -0.1666362 0.75599992
-0.0086425552 -0.16878676 0.75842857
0.017952818 -0.16922998 0.75850004
0.025764754 -0.16625825 0.7564522
0.033586632 -0.16662446 0.7525
-0.0026685735 -0.17078869 0.7610001
0.0046707545 -0.17082062 0.76114291
0.012558648 -0.17103177 0.76127279
-0.012311516 -0.16300811 0.76288897
-0.004594008 -0.16504528 0.762604
0.0046945349 -0.16496293 0.76494634
0.014428417 -0.1659421 0.76306635
0.021482017 -0.1642507 0.7610001
-0.012120793 -0.15956736 0.76800001
0.00655133 -0.15875205 0.76650006
0.01008605 -0.15935959 0.76700002
