# .PCD v0.7 - Point Cloud Data file format
VERSION 0.7
FIELDS x y z
SIZE 4 4 4
TYPE F F F
COUNT 1 1 1
WIDTH 352
HEIGHT 1
VIEWPOINT 0 0 0 1 0 0 0
POINTS 352
DATA ascii
0.0046825688 -0.14239579 0.67711109
0.024405522 -0.14464737 0.67900002
0.036887214 -0.14497261 0.67866665
0.042433295 -0.1470284 0.67899996
-0.0044823643 -0.14207265 0.68659276
0.0042927442 -0.14127988 0.68408328
0.01598281 -0.14178728 0.68478137
0.025139319 -0.14228459 0.68279409
0.034730215 -0.14234369 0.68416685
0.04285552 -0.1431534 0.68474209
-0.0021540951 -0.13846524 0.68800008
0.0053277272 -0.13701139 0.6872564
0.015516386 -0.13664505 0.68691486
0.02500453 -0.13640349 0.6863519
0.034359708 -0.13753818 0.68758631
0.040812925 -0.13892479 0.68800002
0.056271102 -0.15071741 0.69442856
0.060405839 -0.15192984 0.69600004
-0.021483094 -0.14758132 0.69728577
-0.015105283 -0.14394027 0.69491488
-0.0086877672 -0.14080901 0.69133335
0.047464076 -0.14222591 0.69233334
0.054724824 -0.14506945 0.69579178
-0.012647929 -0.13648741 0.69670588
-0.0051836045 -0.13466294 0.69394302
0.0044872807 -0.1326243 0.69188595
0.01429775 -0.13229541 0.69083357
0.026052855 -0.13156916 0.69108337
0.035703719 -0.13301949 0.69231135
0.044844195 -0.13500068 0.69482273
0.051580239 -0.13707103 0.6976667
0.065485016 -0.13244745 0.69773531
0.071209408 -0.13324155 0.69792306
-0.0026216714 -0.12849633 0.69750005
0.0054636295 -0.12610233 0.69542593
0.014693565 -0.12552062 0.69524604
0.024950815 -0.12555145 0.69566673
0.034540087 -0.1270885 0.6969738
0.042833932 -0.12911372 0.69800001
0.059355594 -0.12788989 0.69800001
0.065652542 -0.12531851 0.69473332
0.075074486 -0.12475371 0.69458336
0.069210477 -0.1166612 0.69392306
0.075481534 -0.11528463 0.69359732
0.082596287 -0.11317056 0.69480014
0.075535893 -0.10589109 0.69520015
0.0829954 -0.10674436 0.69721442
0.075877249 -0.099741876 0.69800001
-0.030991042 -0.151232 0.70700002
-0.026644824 -0.15145409 0.70133334
0.065846883 -0.15305841 0.70521438
0.070037775 -0.15433103 0.70700002
-0.024909113 -0.14479819 0.70388687
-0.019023666 -0.14114332 0.70000005
0.05791742 -0.14202891 0.70033336
0.063910812 -0.14552675 0.70338631
-0.022219434 -0.13674361 0.70632011
-0.016426396 -0.13375069 0.7024762
0.049140673 -0.13124372 0.70066673
0.055660609 -0.13418308 0.70049214
0.064351574 -0.13750643 0.70043349
0.07241267 -0.13316567 0.70000005
-0.013385117 -0.1263819 0.70560974
-0.0053464677 -0.12434462 0.7033667
0.0033815231 -0.1219832 0.70158333
0.014289665 -0.12089234 0.70000011
0.024887592 -0.1210287 0.70000005
0.036176741 -0.12269296 0.7008751
0.045066565 -0.12495025 0.70329851
0.053536355 -0.12648594 0.70626491
0.060205959 -0.12848076 0.708
-0.0034466973 -0.11694711 0.70653129
0.0051812003 -0.11559043 0.70562327
0.014806787 -0.1153814 0.70387506
0.024672832 -0.11532778 0.7035557
0.034194849 -0.11577457 0.70506364
0.042364914 -0.11810694 0.70674998
0.0093101999 -0.10986036 0.708
0.015421318 -0.10928401 0.70771438
0.022424633 -0.10946135 0.70771426
0.078549333 -0.10002767 0.70000005
0.083735377 -0.10211053 0.70090908
0.077109762 -0.094620891 0.70480019
0.083599769 -0.096054815 0.70499992
0.076920189 -0.088812709 0.70646673
0.081466883 -0.089490131 0.70400006
-0.034930296 -0.15135044 0.71144462
0.072657414 -0.15270342 0.71650004
-0.033132739 -0.14547098 0.71434987
-0.028656479 -0.14240713 0.71060002
0.069019578 -0.14616507 0.71355557
0.072417691 -0.14672045 0.71746665
-0.03115348 -0.13780624 0.71685714
-0.026188994 -0.13385625 0.71324992
-0.022751303 -0.12588604 0.71611774
-0.0166668 -0.12309863 0.71173531
0.048549801 -0.12012963 0.71000004
0.056450501 -0.12347689 0.71276933
0.061815046 -0.12722106 0.71618193
-0.020800671 -0.11850078 0.71900004
-0.014354574 -0.11593938 0.71633327
-0.006212411 -0.11353701 0.71180022
0.0038384122 -0.11070234 0.71008331
0.028009498 -0.1101707 0.71000004
0.0361089 -0.11090423 0.71014291
0.045456648 -0.11419448 0.71168488
0.053833723 -0.11581589 0.71624988
-0.010695625 -0.10884255 0.71766669
-0.0041156104 -0.1062412 0.7160815
0.0048634717 -0.10486728 0.71380609
0.014856961 -0.10445571 0.71234477
0.025079736 -0.10467836 0.71174175
0.035023816 -0.10505677 0.71334386
0.044509958 -0.10602725 0.71692574
-0.00063032331 -0.098960765 0.71900004
0.0065720286 -0.098674528 0.71794444
0.015156535 -0.097845845 0.71682322
0.025149323 -0.09808062 0.7171874
0.035111904 -0.098171681 0.71693325
0.041257687 -0.098891072 0.71850008
-0.04119895 -0.15148537 0.72300005
-0.039436851 -0.15078345 0.72166675
0.076375201 -0.15085679 0.72000003
-0.040207438 -0.14232159 0.72800004
-0.037120607 -0.14323123 0.72278959
0.075321443 -0.14874403 0.72200006
-0.034205303 -0.13570359 0.72466666
-0.029748807 -0.13102134 0.72200006
-0.031594191 -0.12737478 0.72700012
-0.027460244 -0.12425414 0.72274995
0.059964001 -0.1211904 0.72000003
0.064714722 -0.12357973 0.72366679
-0.023639198 -0.11579957 0.72455269
-0.017628396 -0.11224165 0.72131264
0.057332788 -0.11275381 0.72319055
0.062239617 -0.11668789 0.72547621
-0.021372914 -0.10813969 0.72775
-0.014887472 -0.10555808 0.72485954
-0.0070105507 -0.10254516 0.7210871
0.047621276 -0.10248725 0.72130781
0.053738117 -0.1053066 0.72441298
-0.011265166 -0.098193385 0.72733349
-0.004787446 -0.095614783 0.72485965
0.0047017871 -0.093959078 0.72180384
0.015119824 -0.092881717 0.72178942
0.025304437 -0.092986859 0.72157496
0.035317834 -0.093402795 0.72259986
0.044654187 -0.095447801 0.72476602
0.050668702 -0.09878587 0.72700012
0.068555914 -0.091906227 0.72633338
-0.002073755 -0.089159414 0.72775012
0.0055016764 -0.087592326 0.72591168
0.015526135 -0.085854962 0.72529083
0.025268329 -0.086224541 0.72611523
0.034545701 -0.087954186 0.72722232
0.040632915 -0.089562602 0.72799999
0.078478672 -0.19122151 0.73740005
-0.04607521 -0.18612877 0.73836362
0.077192493 -0.1868968 0.73666668
0.080361106 -0.18836586 0.73333335
-0.041993737 -0.14172754 0.73019999
-0.041291654 -0.1376393 0.73025
-0.037323084 -0.13315918 0.73286361
-0.034236409 -0.12542681 0.73493564
0.069024973 -0.12223363 0.73000002
0.071036302 -0.1228736 0.73000002
-0.030677488 -0.11745833 0.7375555
-0.027260313 -0.11335797 0.73300004
0.066026464 -0.11398136 0.73241168
0.072042122 -0.11512049 0.73620713
-0.023612659 -0.10530479 0.73528129
-0.018245699 -0.10189591 0.73025006
0.058157813 -0.10330503 0.73128563
0.065320008 -0.10465443 0.73545295
0.070616379 -0.10732826 0.73900002
-0.021063767 -0.096974917 0.73800004
-0.015368938 -0.094855368 0.73412734
-0.008323336 -0.091552481 0.73030001
0.047245786 -0.091779247 0.73053843
0.055545714 -0.094987489 0.73319608
0.064266019 -0.094919622 0.73267347
0.071230486 -0.096261069 0.73199999
-0.012772804 -0.087563641 0.73815793
-0.0052666957 -0.084839284 0.73436219
0.0047574388 -0.082647942 0.73173678
0.013444694 -0.081211023 0.73030764
0.026151912 -0.081309624 0.73030764
0.035149645 -0.082838364 0.73122847
0.04517908 -0.084701456 0.73418653
0.053855311 -0.086790763 0.73633337
-0.0024978737 -0.078144439 0.73842859
0.068945453 -0.20027012 0.74900001
0.072668776 -0.20150648 0.74871433
-0.043480095 -0.19235867 0.74480003
-0.039317183 -0.19135003 0.74750006
0.06894546 -0.19567376 0.74900001
0.073505245 -0.19480292 0.74483341
-0.042645168 -0.18574251 0.74388003
-0.039299797 -0.18602194 0.74716669
0.073329091 -0.18641338 0.74543482
0.084552445 -0.18024997 0.74766666
0.078794792 -0.17860153 0.74900001
0.083304711 -0.17796312 0.7482307
-0.04101748 -0.13216627 0.74266672
-0.039626211 -0.13187084 0.741
-0.040285684 -0.12314296 0.74725002
-0.037526812 -0.1234302 0.74333334
-0.040054023 -0.11884882 0.74900001
-0.034531396 -0.11507948 0.74379492
0.074055538 -0.11108331 0.74100006
-0.031632096 -0.10664701 0.74529409
-0.027795525 -0.10405833 0.7426154
0.07261683 -0.10830963 0.74177784
-0.024191802 -0.094920993 0.7445789
-0.018838691 -0.090295792 0.74100006
0.064882733 -0.091005638 0.74528581
0.070696451 -0.092146136 0.74900001
-0.021988653 -0.087438539 0.74744439
-0.015665807 -0.083887197 0.74358976
-0.0091006765 -0.080605552 0.74150002
0.065903179 -0.20325825 0.75543469
-0.035999093 -0.19451128 0.75586665
0.066617206 -0.19552839 0.75499994
0.070352502 -0.19001749 0.75000006
-0.040357057 -0.18060911 0.75466675
-0.03731465 -0.18557437 0.75458819
0.069017515 -0.18793787 0.75700009
0.072523087 -0.18358992 0.75361103
0.073986016 -0.17874672 0.75357145
-0.034699004 -0.10301105 0.75347614
-0.033267081 -0.096452087 0.75627583
-0.028754458 -0.093940616 0.75247055
-0.030258149 -0.21046224 0.76700002
-0.025204362 -0.21194792 0.76777786
0.039775245 -0.21910092 0.76900005
0.046834104 -0.21312161 0.7679286
0.054551773 -0.21240607 0.76621443
0.06078982 -0.2104263 0.76200002
-0.031160992 -0.20342486 0.76328576
-0.025131218 -0.20525634 0.76765227
-0.019550543 -0.2069661 0.76900005
0.04884436 -0.20851517 0.76850003
0.055366959 -0.20513304 0.76587713
0.061974104 -0.20516415 0.76099992
-0.032189552 -0.19434169 0.76260591
-0.027540557 -0.19583845 0.76630437
0.058739044 -0.19587161 0.76680958
0.062910333 -0.19404547 0.76297051
-0.034529768 -0.18478552 0.76513511
-0.028988736 -0.18876386 0.76900005
0.06562157 -0.18536592 0.76544446
0.070887439 -0.18275923 0.76140004
-0.036629848 -0.17830673 0.76810008
0.067760922 -0.17882846 0.76783341
0.070142098 -0.17902936 0.76200002
-0.038967833 -0.10666052 0.76200002
-0.0040721167 -0.22081041 0.77500004
0.0047670938 -0.22093993 0.77725005
0.014267375 -0.22085111 0.77514297
0.023871632 -0.22030108 0.77800006
-0.021996068 -0.21637486 0.77371436
-0.014596789 -0.21437603 0.7733556
-0.0047551347 -0.21478379 0.77532154
0.004771932 -0.21522434 0.77757698
0.014698321 -0.21708919 0.77687806
0.025528647 -0.21630213 0.77754849
0.034975439 -0.21435013 0.77536559
0.042605091 -0.21341267 0.7731787
-0.02095321 -0.20209709 0.77100003
-0.014720883 -0.204852 0.7744754
-0.0063281143 -0.20715623 0.77742857
0.00068204664 -0.20938833 0.77800006
0.035387427 -0.20804374 0.77717644
0.045371488 -0.20566981 0.77605778
0.051922921 -0.20158881 0.77366674
-0.022769995 -0.19436666 0.774207
-0.016827194 -0.19711855 0.77703714
0.049064696 -0.19830491 0.77733344
0.05460437 -0.19493845 0.77492875
0.060312036 -0.1904234 0.77300006
-0.030654402 -0.18279903 0.7713334
-0.025812007 -0.18527849 0.77497637
0.058671094 -0.18690357 0.77640003
0.06208507 -0.18340532 0.77378953
-0.032010332 -0.17691009 0.77281255
-0.028589854 -0.17800979 0.77649999
0.065887161 -0.17744446 0.77482355
0.0027351999 -0.22223499 0.78000003
0.025257761 -0.22378594 0.78446674
0.030771 -0.2208674 0.78000003
0.0084405467 -0.21056189 0.78066665
0.01556834 -0.21247213 0.78056258
0.024460828 -0.21256916 0.78050011
-0.010257 -0.2003534 0.78000003
-0.0037649667 -0.20374483 0.78136134
0.0047637057 -0.2050502 0.78334987
0.014970018 -0.20499514 0.78419369
0.025375443 -0.20502301 0.78456658
0.034519482 -0.2036664 0.78211647
0.042160854 -0.20207009 0.7805385
-0.013686142 -0.19349007 0.78256834
-0.0056469226 -0.19624619 0.78597778
0.0039930218 -0.19839521 0.78822219
0.014258215 -0.19882064 0.78849995
0.025991511 -0.19787659 0.78870356
0.035871264 -0.19634309 0.78727901
0.044799041 -0.19475619 0.78398418
0.051979516 -0.1912573 0.78133339
-0.021940282 -0.18222387 0.78218752
-0.016359596 -0.18594854 0.78593343
-0.0089919697 -0.18883137 0.78900003
0.047169596 -0.18781629 0.78837496
0.054387733 -0.18465987 0.78368413
0.060858201 -0.181207 0.78000003
-0.024826322 -0.17617285 0.78360623
-0.018675629 -0.17914771 0.78900003
0.056984473 -0.17730013 0.78419995
0.063696548 -0.17543596 0.78052175
-0.002893206 -0.19241515 0.79035294
0.0052022571 -0.19344346 0.79217803
0.01468245 -0.19370668 0.79272377
0.024336426 -0.19298103 0.79217803
0.033833701 -0.19165622 0.79105258
-0.012322912 -0.18278474 0.79077774
-0.0048693917 -0.18550888 0.79388016
0.0047522336 -0.18600394 0.79690015
0.014553335 -0.18668917 0.79723543
0.025068434 -0.18670216 0.79694128
0.035299134 -0.18529199 0.79561418
0.044305153 -0.18392162 0.79243934
0.050557368 -0.18075989 0.79000002
-0.021512022 -0.17378151 0.79157132
-0.014568816 -0.17552966 0.794577
-0.0088613471 -0.17466182 0.79800004
0.038843337 -0.17603232 0.79786676
0.045072246 -0.17597769 0.79562795
0.052143693 -0.17647058 0.79175001
-0.01119328 -0.16999795 0.79800004
-0.0083949603 -0.16999795 0.79800004
0.034979001 -0.16999795 0.79800004
-0.0041482267 -0.18108507 0.8009091
0.0052744104 -0.18164475 0.80193764
0.014959001 -0.18225642 0.80213642
0.023912836 -0.18229638 0.80126089
0.032383565 -0.18077217 0.8005715
-0.013325334 -0.17182666 0.80000001
-0.004159383 -0.1750893 0.80323923
0.0047743977 -0.17568979 0.80551988
0.014981614 -0.17523462 0.80529618
0.024570027 -0.17552263 0.80368775
0.033653062 -0.17534581 0.80157876
0.016231483 -0.16866629 0.80500007
