# .PCD v0.7 - Point Cloud Data file format
VERSION 0.7
FIELDS x y z
SIZE 4 4 4
TYPE F F F
COUNT 1 1 1
WIDTH 382
HEIGHT 1
VIEWPOINT 0 0 0 1 0 0 0
POINTS 382
DATA ascii
0.057464622 -0.15134247 0.64900005
0.016499743 -0.14394604 0.64900005
0.026949909 -0.14436454 0.64470738
0.034507524 -0.1444374 0.64381123
0.042054951 -0.14555421 0.64571434
0.028447833 -0.13939439 0.64900005
0.031292617 -0.13901508 0.64900005
0.058341876 -0.15127264 0.6503334
0.064071596 -0.15156734 0.65417653
-0.0017898027 -0.146056 0.65800011
0.0050958013 -0.14490463 0.65535009
0.014279052 -0.14314584 0.65280432
0.022901647 -0.14110029 0.65133345
0.03734212 -0.14104603 0.65100008
0.045425814 -0.14234035 0.65184456
0.055687733 -0.14477354 0.65407461
0.062253136 -0.14630513 0.65621209
0.006985106 -0.13832653 0.65755987
0.015467104 -0.13580135 0.65595001
0.02472744 -0.13504638 0.65490377
0.035007015 -0.13505477 0.65486735
0.044809628 -0.13568559 0.6552729
0.053959567 -0.13791986 0.65740615
0.01906487 -0.12998775 0.65900004
0.0248421 -0.12979518 0.65899998
0.034656711 -0.12996309 0.65887499
-0.013284938 -0.15234233 0.66776931
-0.0087053003 -0.15031151 0.66200006
0.068114586 -0.15043095 0.66125
0.075087957 -0.15347752 0.66537148
0.084913932 -0.15050262 0.66800004
-0.011712267 -0.14816017 0.66800004
-0.0059193647 -0.14475609 0.66383642
0.066571981 -0.14417377 0.66294873
0.073096327 -0.14653403 0.6663
0.085861035 -0.14505377 0.6677779
0.092409782 -0.14136705 0.66800004
-0.0019738697 -0.13812371 0.66656262
0.0051056775 -0.1345982 0.66439998
0.013098395 -0.13190955 0.66286367
0.024627758 -0.13038225 0.66100001
0.039983891 -0.13038225 0.66100001
0.046140403 -0.13139471 0.66129428
0.05571853 -0.13378495 0.66299999
0.063505836 -0.13610806 0.66569769
0.087047353 -0.13744722 0.66674078
0.095092312 -0.13478683 0.66610664
0.10155441 -0.13386092 0.66723073
0.0086342897 -0.12864009 0.66775012
0.01549958 -0.12615572 0.66558927
0.025063964 -0.12502205 0.66374677
0.035227425 -0.12492689 0.66483986
0.044667043 -0.12577432 0.6651538
0.053792965 -0.1272037 0.6663512
0.097089298 -0.12629938 0.66644126
0.10176282 -0.12406521 0.66795671
0.028427145 -0.11967272 0.66720003
0.031955548 -0.11927611 0.66760004
0.10013988 -0.1188795 0.66800004
-0.021646535 -0.15459947 0.67706668
-0.017450687 -0.15327834 0.67186207
0.079118438 -0.15294868 0.67016667
0.082714029 -0.15559034 0.67294282
-0.01463272 -0.14506757 0.67509532
-0.0085231727 -0.14210087 0.67050004
0.069896631 -0.14038064 0.67000002
0.076595597 -0.14342478 0.67082208
0.0834345 -0.14454406 0.67055559
0.095025495 -0.14294377 0.67047608
0.1004397 -0.14038064 0.67000002
-0.011565265 -0.13676848 0.67804551
-0.005336958 -0.13439144 0.67335385
0.0021253771 -0.13150923 0.67084622
0.066672981 -0.13297935 0.67148381
0.073332235 -0.13586076 0.67478007
0.081535265 -0.13944435 0.67400002
0.10514838 -0.13167864 0.6708889
-0.0029240879 -0.12763128 0.67692316
0.0050097238 -0.12472449 0.67306936
0.014050547 -0.12162012 0.67123991
0.021516381 -0.12098823 0.67060006
0.039353568 -0.12041017 0.67000002
0.045723479 -0.1212711 0.67017657
0.056134786 -0.12319365 0.67268175
0.063846275 -0.12611222 0.67492157
0.071935892 -0.12883681 0.67814285
0.10560939 -0.1244124 0.67027271
0.0064853611 -0.11744375 0.67775011
0.015314863 -0.11566112 0.67607898
0.024837244 -0.11521582 0.67421597
0.035010427 -0.11469441 0.67269748
0.045060154 -0.11505474 0.6744799
0.053396549 -0.11648747 0.67610431
0.061055623 -0.11913514 0.67879999
0.09895885 -0.11342161 0.67227268
0.10502522 -0.11503854 0.67398566
0.11063577 -0.11360899 0.6785
0.019048214 -0.10893197 0.67900002
0.025706789 -0.10910674 0.6784445
0.034757443 -0.10837698 0.67824244
0.043421987 -0.10902121 0.6785
0.098822251 -0.108882 0.67500001
0.10357168 -0.1083701 0.67766672
-0.024329975 -0.15381271 0.68270594
-0.022762058 -0.14605521 0.6849032
-0.018751139 -0.1424716 0.68113333
0.084024996 -0.14035186 0.68360007
-0.015450713 -0.13482274 0.68353063
0.077499412 -0.13394423 0.68262506
0.082300894 -0.13724352 0.68575001
-0.012451854 -0.12590919 0.68578058
-0.0056177629 -0.12366389 0.68236536
0.00059657166 -0.1216993 0.68050003
0.067470394 -0.12320247 0.68155992
0.073103271 -0.12496177 0.6842857
-0.0035840988 -0.11598986 0.68571746
0.0038581407 -0.1136317 0.68272555
0.012345354 -0.11130188 0.68061537
0.056577943 -0.11288252 0.68179309
0.063947804 -0.11559953 0.68426001
0.070906021 -0.11881797 0.68660003
0.11028466 -0.11028466 0.68000001
-0.00060314668 -0.10916954 0.68800002
0.00599794 -0.1073768 0.68660611
0.015133052 -0.10508049 0.68393224
0.024923502 -0.10402261 0.6828832
0.035032347 -0.1034644 0.68272358
0.045289256 -0.10408933 0.68327522
0.054773595 -0.10587745 0.68552548
0.061219387 -0.10826483 0.68800002
0.099920273 -0.10291234 0.6825
0.10530064 -0.10490284 0.68093336
0.11028466 -0.1090924 0.68000001
0.018395973 -0.098765269 0.68800008
0.025892375 -0.097482495 0.68691182
0.03505417 -0.096879177 0.68641686
0.044367801 -0.097361051 0.68737143
0.051026206 -0.098554164 0.68800002
0.096503466 -0.099519201 0.68800002
-0.033829998 -0.19191118 0.69621438
-0.029897841 -0.19098008 0.69600004
0.092299633 -0.19193411 0.69725001
-0.034650378 -0.18845114 0.69342858
0.08903338 -0.18816334 0.69800001
-0.026654173 -0.15083839 0.69100004
-0.025292149 -0.14360611 0.69284004
-0.021869382 -0.13608021 0.6953125
-0.019184856 -0.13275573 0.69106674
0.079356745 -0.13024198 0.69100004
0.083148234 -0.13273384 0.69228572
-0.02016421 -0.12770666 0.69700003
-0.015573565 -0.12375469 0.69365221
0.07759548 -0.1245401 0.69329172
0.081914216 -0.12642784 0.69626671
-0.010949654 -0.11764191 0.69389999
-0.0068053929 -0.11297917 0.69325823
0.067857258 -0.11290741 0.691091
0.074522033 -0.11532448 0.69510257
0.080160648 -0.1193231 0.69800001
-0.0031166212 -0.10596497 0.69502711
0.0041592331 -0.10296597 0.69176763
0.011258153 -0.10156079 0.6904
0.057970323 -0.10257486 0.69046158
0.065176316 -0.10513286 0.69383639
0.071688227 -0.10635201 0.69721425
0.089951262 -0.10218953 0.69800001
0.094852284 -0.10289113 0.69663161
-0.00061191333 -0.099741876 0.69800001
0.0060550417 -0.096679427 0.69645953
0.014557281 -0.095157102 0.69334829
0.02470883 -0.092769101 0.69230968
0.034833096 -0.091930158 0.69185716
0.045190275 -0.09285029 0.69178402
0.054868944 -0.095158629 0.69403464
0.062663831 -0.097508974 0.69735008
0.092683829 -0.099953152 0.69100004
0.0091786999 -0.089951262 0.69800001
0.016164606 -0.089040399 0.69771427
0.025546204 -0.086845078 0.6967842
0.035072975 -0.086568095 0.69617015
0.044867881 -0.087549038 0.69671434
0.051975906 -0.088663355 0.69749999
-0.030370364 -0.20019647 0.70700002
-0.02917196 -0.20047964 0.708
0.088105224 -0.20133987 0.70775002
-0.030660102 -0.19672297 0.70416671
-0.028665684 -0.19663218 0.70700002
0.087899432 -0.19413827 0.70611548
0.090862557 -0.1932614 0.70149994
0.087591194 -0.18680006 0.70409089
0.091503426 -0.18400216 0.70561534
-0.03041332 -0.14337708 0.708
-0.027531169 -0.14165869 0.70562506
-0.025235018 -0.13468677 0.70386124
0.088811152 -0.13074693 0.70350003
-0.021281246 -0.12644017 0.70356256
-0.018484751 -0.12372952 0.70126665
0.086120427 -0.12465303 0.70353347
-0.015066703 -0.11491571 0.70354825
0.078434296 -0.11247121 0.70107692
0.083682656 -0.1154686 0.70473343
-0.013114267 -0.1066446 0.70615155
-0.0068449136 -0.10367607 0.70217144
0.068935223 -0.10043678 0.70000005
0.076010682 -0.10432352 0.70288467
0.084918901 -0.10498235 0.70542866
0.093382582 -0.10621463 0.70147622
-0.0037724015 -0.096286446 0.7051667
0.0034430423 -0.093012184 0.70124263
0.012887 -0.090209 0.70000005
0.05805286 -0.090454474 0.70000005
0.065882318 -0.094180718 0.70258707
0.073216304 -0.096612684 0.70616668
0.08591333 -0.098800331 0.70000005
-0.0011168733 -0.088955015 0.7076
0.0057906974 -0.085722476 0.70486802
0.014368838 -0.084393427 0.70220709
0.02391484 -0.082146719 0.70078593
0.035626151 -0.081740223 0.70065397
0.045724966 -0.08270403 0.70113879
0.055399936 -0.084779136 0.70284909
0.078953475 -0.21167906 0.71820009
0.080972441 -0.21090496 0.71600002
-0.023801355 -0.20385192 0.71572214
-0.019540023 -0.20989767 0.71900004
0.083463475 -0.20506966 0.71410167
-0.025463574 -0.19487457 0.71421999
0.08444915 -0.19683564 0.71316671
-0.02620404 -0.18819517 0.71576923
0.087103896 -0.18470055 0.71387112
0.090252832 -0.18361783 0.71000004
-0.019540023 -0.17964216 0.71900004
0.089007966 -0.17801593 0.71000004
0.090252832 -0.17926079 0.71000004
-0.03100577 -0.14207873 0.71020001
-0.029254366 -0.14066994 0.71000004
-0.029254366 -0.1363129 0.71000004
-0.023683354 -0.12221543 0.71405882
0.089760147 -0.12114482 0.71600002
0.093266599 -0.12176299 0.71623075
-0.022497263 -0.11769148 0.71494448
0.088436909 -0.11374663 0.71206671
0.092246212 -0.11608259 0.71530002
-0.021527076 -0.10348121 0.71800005
-0.016362201 -0.10368139 0.71400005
0.084022187 -0.10235365 0.71640003
-0.013345085 -0.096830614 0.7167058
-0.0070406669 -0.093180858 0.71132153
0.066586919 -0.2201836 0.72799999
-0.013534595 -0.21253471 0.7252
-0.0088628074 -0.21603727 0.72788894
0.068387978 -0.21530449 0.72763157
0.073743276 -0.21354377 0.72257882
-0.016378304 -0.20559864 0.72356254
0.069246143 -0.20901488 0.72800004
0.075301081 -0.20552507 0.72385246
0.080162399 -0.20009039 0.72000003
-0.021444786 -0.19409633 0.72373348
-0.018353565 -0.19658817 0.72612506
0.07804054 -0.19645789 0.72681481
0.082633533 -0.19424827 0.72365713
-0.023019478 -0.18492065 0.72228003
-0.019671377 -0.18529971 0.72383338
0.083545074 -0.18636705 0.72615999
-0.024552952 -0.11310541 0.72441381
-0.019657789 -0.11223904 0.72333336
-0.023291618 -0.10708361 0.72227788
-0.019567199 -0.1016232 0.72000003
0.086221918 -0.10086576 0.72000003
-0.02130943 -0.098529734 0.72200006
-0.0034570473 -0.22216091 0.73086661
0.0052512893 -0.22290871 0.73465949
0.013589828 -0.22418711 0.73807418
0.024692643 -0.22400635 0.73700011
0.032838047 -0.22518152 0.73892307
0.045814108 -0.22356513 0.73727793
0.054827124 -0.22243328 0.73232347
0.062891275 -0.2218357 0.73000008
-0.010879434 -0.21182896 0.73000002
-0.0041089202 -0.21456876 0.73377371
0.0046270294 -0.21565038 0.73744243
0.012422845 -0.21801123 0.73872721
0.025266409 -0.2196234 0.73900002
0.048349723 -0.21861748 0.73755562
0.056012426 -0.21638916 0.73607695
0.063403241 -0.21453987 0.73301822
-0.012303693 -0.20385183 0.73063153
-0.0063794823 -0.20521554 0.73651165
0.066586055 -0.20631465 0.73611921
0.071500324 -0.20257083 0.73247063
-0.014285197 -0.19446509 0.73430014
-0.0097046997 -0.19732715 0.73800004
0.069273762 -0.19940442 0.7385
0.074440159 -0.19491702 0.73479587
-0.016474418 -0.18826836 0.73855549
0.078326233 -0.18653399 0.73648012
0.083678342 -0.18230921 0.73423529
0.079632454 -0.17868702 0.7385
0.081751451 -0.17835625 0.73660004
0.016262166 -0.23092276 0.74200004
0.016839527 -0.22503316 0.74116665
0.024229437 -0.22123083 0.7412858
0.035632376 -0.22294287 0.74118906
0.042369004 -0.2212283 0.74100012
0.051319189 -0.22801311 0.74100006
0.0068756505 -0.21143281 0.74136847
0.015537094 -0.21419817 0.74352831
0.024784707 -0.21537578 0.74624288
0.035248563 -0.21502359 0.7450285
0.044682741 -0.21441971 0.74374986
0.052713867 -0.21250877 0.7416538
-0.0021085585 -0.20392872 0.74264008
0.0048951213 -0.20527682 0.74539417
0.014049232 -0.20791939 0.74756515
0.021230822 -0.20902508 0.74900001
0.037646402 -0.20858735 0.74900001
0.046408486 -0.20765242 0.74815989
0.055191051 -0.20524633 0.74571425
0.062966406 -0.20372234 0.74273527
-0.011909516 -0.19120188 0.74100012
-0.00537943 -0.19543195 0.74487513
0.0012184415 -0.19842885 0.74842852
0.05842175 -0.19802195 0.74877781
0.065820128 -0.19544017 0.74562317
0.071986169 -0.19199979 0.7420001
-0.013772231 -0.18513656 0.74464101
-0.0080447569 -0.1878563 0.74664712
0.068033062 -0.1880347 0.74800003
0.073808879 -0.18473677 0.74462754
0.075836472 -0.17823678 0.74473691
0.080009863 -0.17758286 0.74200004
0.027615 -0.2110575 0.75000006
0.032260455 -0.21067965 0.75100005
0.0091293557 -0.20148253 0.7514286
0.015547235 -0.20348208 0.75276744
0.025243048 -0.20504613 0.75286978
0.034721483 -0.20468912 0.75285751
0.044014242 -0.20378356 0.75310421
0.051613748 -0.20086625 0.75000006
-0.001711604 -0.19193003 0.75080001
0.0054601179 -0.19513322 0.7540338
0.014508395 -0.19721326 0.7567665
0.025285607 -0.19862434 0.75700003
0.035502866 -0.19806257 0.75724
0.045780756 -0.19654968 0.75637758
0.054845534 -0.19472004 0.75381672
0.062372919 -0.19167519 0.75181824
-0.011835 -0.18081249 0.75000006
-0.004757008 -0.18484281 0.75408167
0.0024630725 -0.1883527 0.75794113
0.057326939 -0.18826772 0.75818747
0.064597853 -0.18476431 0.75517732
0.070901446 -0.18142895 0.75350004
-0.0063259015 -0.17942224 0.75442868
0.0083421413 -0.19119903 0.76125002
0.01553955 -0.19287899 0.76144421
0.024793139 -0.19406487 0.76181239
0.034610212 -0.1929947 0.76176077
0.044006642 -0.19225298 0.7614615
0.051036462 -0.19046943 0.76100004
-0.0012008579 -0.18186326 0.76100004
0.0053871567 -0.18424001 0.76322728
0.014634172 -0.18558058 0.76648414
0.024570141 -0.18647245 0.76766682
0.035281181 -0.18773843 0.76724273
0.045284234 -0.18578872 0.76659626
0.054071147 -0.18424638 0.76262742
0.060710043 -0.18146299 0.76100004
-0.00093417597 -0.17710629 0.76120007
0.0042333892 -0.17765544 0.76426923
0.013228242 -0.17862269 0.76887506
0.025693238 -0.17608105 0.76884019
0.04651681 -0.17932567 0.76900005
0.054009419 -0.17907749 0.76450008
0.01960139 -0.18046796 0.77100003
0.026510693 -0.18166958 0.77099997
0.03500833 -0.18296027 0.77174282
0.041924249 -0.18189782 0.77133328
0.01907083 -0.17785585 0.77139997
0.022560682 -0.17552942 0.77261549
0.034519631 -0.1789429 0.77199996
0.041959897 -0.17934847 0.77200007
