# .PCD v0.7 - Point Cloud Data file format
VERSION 0.7
FIELDS x y z
SIZE 4 4 4
TYPE F F F
COUNT 1 1 1
WIDTH 360
HEIGHT 1
VIEWPOINT 0 0 0 1 0 0 0
POINTS 360
DATA ascii
-0.074041419 -0.12489801 0.68788886
-0.065254487 -0.12406867 0.68721884
-0.033173062 -0.092559814 0.68800008
-0.026379729 -0.093043312 0.68799996
-0.031962071 -0.087773375 0.68790919
-0.026988126 -0.086769573 0.6879375
-0.094312057 -0.13134526 0.69723535
-0.02423024 -0.13273218 0.69675767
-0.018933078 -0.13497335 0.69666672
-0.092568368 -0.12674527 0.69764709
-0.085188068 -0.12367379 0.69432092
-0.075389408 -0.12223571 0.69062084
-0.064695425 -0.12109779 0.69047064
-0.054982677 -0.12363851 0.69096172
-0.04529883 -0.12244713 0.6938889
-0.035678651 -0.12516157 0.69716674
-0.029153841 -0.12823616 0.6976667
-0.082797773 -0.1175092 0.69734782
-0.074714229 -0.11624858 0.69498152
-0.064836621 -0.11537349 0.69509512
-0.055048507 -0.11536282 0.69597024
-0.04545071 -0.11631747 0.6968801
-0.037097245 -0.11343342 0.69800001
-0.029983753 -0.11075632 0.69800001
-0.060579419 -0.10953248 0.69800001
-0.056296024 -0.10953248 0.69800001
-0.041042808 -0.10549749 0.69644439
-0.035383042 -0.10522958 0.69435108
-0.02869924 -0.10453656 0.69322222
-0.03443883 -0.097131319 0.69048661
-0.026242564 -0.095929228 0.69030327
-0.033942122 -0.084223785 0.69037861
-0.025696427 -0.084349036 0.69022256
-0.032886911 -0.075474665 0.6947059
-0.025332848 -0.074846633 0.69513726
-0.018958442 -0.073998027 0.69760001
-0.032431409 -0.068534292 0.69800001
-0.026594695 -0.068298943 0.69800001
-0.10372371 -0.13170397 0.70422232
-0.098847382 -0.13200058 0.70033336
-0.022612302 -0.13062137 0.70200008
-0.018345615 -0.1325482 0.70544446
-0.10286742 -0.12691087 0.70619243
-0.09619984 -0.12403151 0.70272338
-0.032432545 -0.12217851 0.70069993
-0.024962304 -0.12518401 0.70424598
-0.019232022 -0.12842028 0.70766664
-0.09407232 -0.11624539 0.70636374
-0.085859649 -0.11381098 0.70332646
-0.075501464 -0.11125848 0.70117396
-0.069000684 -0.11036006 0.70066673
-0.051548 -0.11107367 0.70000005
-0.045458209 -0.11149436 0.70021051
-0.03465252 -0.11588797 0.70113474
-0.027440082 -0.11687662 0.70609534
-0.091239959 -0.10986036 0.708
-0.083833963 -0.10751823 0.70730001
-0.074595384 -0.10555907 0.70551813
-0.064944439 -0.10530953 0.70398563
-0.054952137 -0.10515036 0.70456713
-0.046074614 -0.10566536 0.70398074
-0.071585096 -0.099515699 0.708
-0.06552536 -0.099036619 0.7078824
-0.054531176 -0.099752136 0.70800006
-0.020864666 -0.070571668 0.70000005
-0.018109523 -0.071517371 0.70025003
-0.032232638 -0.063693359 0.70388472
-0.024390532 -0.064618222 0.70228833
-0.019072585 -0.067059562 0.70180005
-0.030241493 -0.059248641 0.70400006
-0.027150221 -0.059440196 0.7038334
-0.11330079 -0.13398117 0.71610522
-0.10904089 -0.13209328 0.71075004
-0.013668466 -0.13328667 0.71315622
-0.0094285496 -0.13514255 0.71700001
-0.11086173 -0.1257953 0.71750003
-0.10652477 -0.12384699 0.71311104
-0.021362612 -0.12178522 0.71150005
-0.015393632 -0.12501788 0.71475446
-0.0094416998 -0.12651527 0.71800005
-0.10353439 -0.11554761 0.71469051
-0.097099766 -0.11236588 0.71090007
-0.023971081 -0.11457244 0.71365911
-0.017589387 -0.11804036 0.71668744
-0.10064163 -0.10694486 0.71900004
-0.094733693 -0.10554136 0.71477187
-0.085663356 -0.10318272 0.71140015
-0.07743071 -0.10120765 0.71000004
-0.053529266 -0.10021177 0.71000004
-0.044469357 -0.10079152 0.71116668
-0.025495611 -0.10889778 0.71711117
-0.092589371 -0.099190444 0.71725005
-0.084324054 -0.096307203 0.71587223
-0.07521116 -0.094843395 0.71368259
-0.064621277 -0.094239935 0.71212721
-0.055040628 -0.094910391 0.71284121
-0.045299061 -0.095004551 0.71566176
-0.039212201 -0.095197149 0.71758336
-0.073134862 -0.088574477 0.71793336
-0.065554783 -0.088113971 0.71745151
-0.055930976 -0.088757038 0.71759081
-0.048501141 -0.08912807 0.71850002
-0.033611402 -0.060376033 0.71000004
-0.0044613564 -0.14085141 0.72700006
-0.12045663 -0.13065402 0.72700006
-0.11695284 -0.1330802 0.72064728
-0.0054248134 -0.13881139 0.72800004
-0.12058918 -0.12696886 0.72780001
-0.11538161 -0.12531647 0.72358137
-0.011679204 -0.12428553 0.72285712
-0.0095074503 -0.12803367 0.72300005
-0.11283772 -0.11628401 0.72571439
-0.10766485 -0.11328545 0.72194457
-0.02085853 -0.11250789 0.72100008
-0.016762083 -0.11377343 0.72506255
-0.11041091 -0.10913448 0.72800004
-0.10428958 -0.10522635 0.72462791
-0.098648503 -0.10142648 0.72040004
-0.022691289 -0.10704178 0.72510016
-0.017818067 -0.10735251 0.72731584
-0.1010275 -0.098049469 0.72783333
-0.09476421 -0.0951607 0.724617
-0.086481996 -0.092077889 0.72104782
-0.041448798 -0.090682395 0.72000003
-0.038923997 -0.090682395 0.72000003
-0.092904709 -0.08760123 0.72715789
-0.084908955 -0.085165218 0.72380644
-0.075269781 -0.083980896 0.72245103
-0.064533845 -0.08287143 0.72134984
-0.054512594 -0.083734095 0.72158813
-0.044687476 -0.084788293 0.72370499
-0.039020821 -0.08544188 0.72444457
-0.08287169 -0.079043187 0.7277779
-0.074954189 -0.077035986 0.72741491
-0.064840674 -0.076805316 0.72660476
-0.055139542 -0.077162206 0.72649992
-0.045866027 -0.078688636 0.72777778
-0.038292799 -0.079776667 0.72800004
-0.0051306291 -0.13381666 0.73185718
-0.12226702 -0.1232536 0.73315388
-0.11926015 -0.12259078 0.7306
-0.010894338 -0.12271843 0.73100001
-0.0064710658 -0.12501861 0.73450005
-0.12118748 -0.11775562 0.73400003
-0.11711691 -0.11410275 0.7341516
-0.011890011 -0.1150613 0.73325002
-0.007153979 -0.1163216 0.73770016
-0.1145024 -0.1065072 0.73764724
-0.10824526 -0.10270569 0.73261535
-0.021199407 -0.10235828 0.73283339
-0.015778117 -0.10343108 0.73391175
-0.11078349 -0.09912207 0.73900002
-0.10472597 -0.094896354 0.73497629
-0.098790832 -0.091749161 0.73016667
-0.020076761 -0.097144969 0.73875004
-0.016743949 -0.097313233 0.73818755
-0.10191657 -0.086924747 0.73770595
-0.095803782 -0.083844244 0.7331351
-0.088955365 -0.081275769 0.73000002
-0.020083556 -0.087460652 0.73900002
-0.093222387 -0.076559111 0.73711127
-0.085306168 -0.074372239 0.73381823
-0.075281002 -0.071750343 0.73171419
-0.065828942 -0.071912862 0.73079163
-0.05481923 -0.072049178 0.73137498
-0.044367865 -0.073748223 0.73180002
-0.037880767 -0.07371024 0.73238087
-0.083037816 -0.067578256 0.73829412
-0.07469359 -0.065517068 0.73692322
-0.064732797 -0.065099105 0.73585451
-0.05536525 -0.065445475 0.73669243
-0.045746595 -0.066284329 0.73592514
-0.038006391 -0.067148365 0.73229998
-0.12147532 -0.17860153 0.74900001
-0.0039353566 -0.17147644 0.74800003
-0.12299429 -0.16466472 0.74719226
-0.0040968824 -0.16808636 0.74750006
-0.12459099 -0.15934643 0.74800003
-0.0059324587 -0.11189778 0.74156255
-0.11617862 -0.10287456 0.74114293
-0.011594792 -0.10413792 0.74166673
-0.0065758768 -0.10630038 0.745
-0.11415075 -0.095873483 0.74427778
-0.10911149 -0.092935428 0.74133343
-0.020146968 -0.092935435 0.74133331
-0.014500539 -0.094241343 0.74389184
-0.00984935 -0.099150121 0.74900001
-0.11119591 -0.087774113 0.74800003
-0.1057779 -0.083937593 0.74339986
-0.02021038 -0.087139197 0.74366671
-0.016649557 -0.086576559 0.7469644
-0.10307486 -0.075942114 0.74658626
-0.09664543 -0.073730335 0.74296564
-0.10046337 -0.068945453 0.74900001
-0.093918316 -0.066316575 0.74674368
-0.085895747 -0.063814543 0.74375618
-0.075755134 -0.060941566 0.74110013
-0.06561061 -0.060413726 0.74100012
-0.05380138 -0.060689878 0.74120009
-0.044058722 -0.062157813 0.74209094
-0.11598007 -0.18048988 0.75600004
-0.0079846801 -0.1803207 0.75900006
-0.12144362 -0.17491429 0.75171429
-0.11780528 -0.17585424 0.75560617
-0.0063186758 -0.17519173 0.75476927
-0.12060844 -0.16366857 0.75254542
-0.11874545 -0.16536362 0.75672716
-0.12171353 -0.15822159 0.75345457
-0.11927883 -0.1578206 0.75800008
-0.0064363768 -0.10174429 0.75362504
-0.11666121 -0.091372736 0.75181824
-0.011446461 -0.091703534 0.75040007
-0.0074813436 -0.095451862 0.75614709
-0.12043559 -0.08916226 0.75900006
-0.11496419 -0.085464522 0.75574189
-0.1098025 -0.080872498 0.75000006
-0.013290232 -0.083966464 0.75372005
-0.0092990221 -0.087852515 0.75775003
-0.11180502 -0.077580392 0.75800002
-0.10654907 -0.073449731 0.75359094
-0.016233586 -0.077271909 0.75686657
-0.10449427 -0.20022453 0.76900005
-0.1102233 -0.19172174 0.76200002
-0.10552339 -0.19446337 0.76710421
-0.023363076 -0.19363551 0.76800007
-0.01699437 -0.19145027 0.76664299
-0.1116868 -0.18368392 0.76336843
-0.10666442 -0.18560237 0.76738918
-0.021370064 -0.18694171 0.76775002
-0.015127271 -0.1843074 0.76368743
-0.0076054335 -0.18266384 0.76100004
-0.11351003 -0.17452222 0.7639249
-0.10904321 -0.17789739 0.76833338
-0.01319692 -0.17532688 0.76518744
-0.0083421404 -0.17117816 0.76125002
-0.11610461 -0.16491513 0.76445836
-0.011373227 -0.16611153 0.76778954
-0.0080489516 -0.16498742 0.76506245
-0.11732101 -0.15821925 0.76475006
-0.01011235 -0.15977512 0.76900005
-0.0073672147 -0.15911238 0.76366669
-0.0035580974 -0.10162816 0.7610001
-0.0034769059 -0.094149888 0.76110518
-0.12075295 -0.08739578 0.76100004
-0.1176859 -0.082272202 0.76107693
-0.010810351 -0.081546128 0.76120007
-0.0066657891 -0.08544565 0.76363999
-0.099066839 -0.2001693 0.77400005
-0.083936453 -0.20122688 0.77633339
-0.043867398 -0.2010292 0.77657145
-0.034700807 -0.20068653 0.77600002
-0.09476833 -0.19462872 0.77403486
-0.086352497 -0.19571851 0.7777499
-0.042587515 -0.19867688 0.77781814
-0.034021463 -0.19532025 0.77643901
-0.027606497 -0.19371742 0.77370006
-0.1019045 -0.18324721 0.77323812
-0.096810386 -0.18649697 0.77537143
-0.030993674 -0.18868321 0.77700007
-0.025056576 -0.18532352 0.77450007
-0.019652236 -0.18161377 0.77300006
-0.11036386 -0.1712998 0.77233338
-0.10535992 -0.17524952 0.77469063
-0.021343619 -0.17800979 0.77700001
-0.018398844 -0.17452498 0.77463645
-0.11216518 -0.16494776 0.77356005
-0.10772614 -0.1667273 0.77657139
-0.014523696 -0.16524398 0.77540916
-0.11410732 -0.15862796 0.77733338
-0.012958887 -0.15891688 0.77800006
-0.080688402 -0.201721 0.78000003
-0.074950591 -0.20226812 0.7807917
-0.064491339 -0.20150568 0.78093332
-0.055476483 -0.20284522 0.78124154
-0.048958831 -0.20199051 0.78028578
-0.036241401 -0.20103718 0.78000003
-0.081888705 -0.193482 0.78076005
-0.074723385 -0.19477263 0.78277189
-0.064978957 -0.19480762 0.78499979
-0.05489682 -0.19516987 0.78398186
-0.045286495 -0.19448081 0.78135175
-0.037493762 -0.19231676 0.78018188
-0.093124717 -0.18331099 0.78144127
-0.085632719 -0.18572694 0.78539652
-0.075952597 -0.18763745 0.7881428
-0.064546794 -0.18798658 0.78873903
-0.054608878 -0.18801916 0.78849989
-0.044364285 -0.1866971 0.78759992
-0.035241921 -0.18463047 0.78403318
-0.028052658 -0.18205033 0.78046161
-0.10158268 -0.1734861 0.78189999
-0.095765233 -0.1760014 0.78615391
-0.089228012 -0.17845601 0.78900003
-0.03380451 -0.17647737 0.7881999
-0.025744513 -0.17459072 0.78311336
-0.019830199 -0.1702662 0.78000003
-0.1107756 -0.160693 0.78000003
-0.10405204 -0.16481504 0.78406531
-0.0983188 -0.16768542 0.78900003
-0.023405554 -0.16617531 0.78738707
-0.017528841 -0.16407435 0.78145838
-0.11281715 -0.15627535 0.78038096
-0.10798154 -0.15760474 0.78457147
-0.02005901 -0.1590887 0.78900003
-0.015909906 -0.15859491 0.78254551
-0.082145207 -0.18145005 0.79075003
-0.074512415 -0.18277307 0.79242128
-0.064859748 -0.18324301 0.79292333
-0.05488354 -0.18270749 0.79245728
-0.046347789 -0.18198007 0.7913999
-0.091995277 -0.17219424 0.7915715
-0.084886402 -0.17546526 0.79417241
-0.07497254 -0.17612788 0.79620498
-0.065100878 -0.17745627 0.79659265
-0.055182394 -0.1775787 0.79676944
-0.044652775 -0.17600684 0.79497784
-0.036791716 -0.17333488 0.79280013
-0.10132659 -0.16216959 0.79166669
-0.094972305 -0.1651658 0.79441684
-0.088380277 -0.16953157 0.79800004
-0.041275218 -0.16999795 0.79800004
-0.033970829 -0.16641699 0.79569709
-0.027298857 -0.16394153 0.79215389
-0.11137173 -0.15522435 0.79400003
-0.10416197 -0.15616325 0.79389769
-0.099214993 -0.15930349 0.79700005
-0.030081937 -0.1574055 0.79800004
-0.024564622 -0.15766492 0.79312003
-0.0186993 -0.15582749 0.79000002
-0.083116524 -0.17094649 0.8005715
-0.074456953 -0.17175537 0.80082363
-0.06526684 -0.17288508 0.8016665
-0.055501997 -0.17306224 0.80139995
-0.047433551 -0.17187914 0.80071437
-0.092438221 -0.16229247 0.8008334
-0.08504007 -0.16462123 0.80337536
-0.075016841 -0.16514724 0.80554962
-0.064931549 -0.16537414 0.80670363
-0.054942589 -0.16557328 0.80528301
-0.044900954 -0.1651399 0.8048771
-0.036513273 -0.16321477 0.80220842
-0.10068582 -0.15374717 0.80175006
-0.094595999 -0.15499674 0.80461043
-0.086126454 -0.15765274 0.80860007
-0.077305347 -0.15957525 0.80900002
-0.043459378 -0.15568398 0.80822217
-0.035279997 -0.15579124 0.80392104
-0.096254244 -0.14888003 0.80485719
-0.088578694 -0.1495228 0.8083334
-0.05174043 -0.1470731 0.80850005
-0.047045145 -0.14775486 0.80900002
-0.037310056 -0.14994419 0.80300003
-0.056451485 -0.16104923 0.81166667
-0.083776057 -0.15384127 0.81138909
-0.074461676 -0.15536411 0.81336766
-0.065177098 -0.15587159 0.81317019
-0.054473877 -0.15573914 0.81445837
-0.048020732 -0.153575 0.81149989
-0.052849263 -0.14859413 0.81100005
-0.047635436 -0.14788315 0.81100005
