# .PCD v0.7 - Point Cloud Data file format
VERSION 0.7
FIELDS x y z
SIZE 4 4 4
TYPE F F F
COUNT 1 1 1
WIDTH 415
HEIGHT 1
VIEWPOINT 0 0 0 1 0 0 0
POINTS 415
DATA ascii
-0.033028692 -0.12546617 0.57868433
-0.025420859 -0.12241558 0.57726526
-0.01549908 -0.12187613 0.57573533
-0.0044972678 -0.12128881 0.57425934
0.0056894976 -0.12299273 0.57347643
0.014797665 -0.12385865 0.57627827
0.020999849 -0.1248817 0.57860005
-0.021272536 -0.11953196 0.57775003
-0.014492387 -0.11822571 0.57761908
-0.0051080151 -0.11732782 0.57696664
0.004870581 -0.11850838 0.57764101
0.012293277 -0.11925516 0.57824999
-0.043785408 -0.13186333 0.58755565
0.035885222 -0.13118753 0.58585721
-0.042514056 -0.12591723 0.58647728
-0.036208797 -0.12342115 0.58248335
-0.029321579 -0.12084558 0.58000004
0.0190675 -0.12076084 0.58000004
0.025753407 -0.12344298 0.5830158
0.033167299 -0.12672716 0.58580774
-0.033508979 -0.11699037 0.58596224
-0.025004508 -0.11512575 0.58405226
-0.015548406 -0.11340811 0.58225697
-0.0052678413 -0.11236066 0.58142579
0.0053297244 -0.11340785 0.58201373
0.015049079 -0.11505844 0.58413488
0.023278326 -0.11726639 0.58763647
-0.021786833 -0.10934567 0.58890009
-0.014459393 -0.10840051 0.58839393
-0.0048138904 -0.10727681 0.58661282
0.0048821806 -0.10829893 0.58654064
0.013255902 -0.10871798 0.58829999
-0.053635307 -0.13417633 0.59538192
-0.048398729 -0.13325131 0.59094739
0.039767791 -0.13178009 0.59300005
0.04339388 -0.13441338 0.59672225
0.058288693 -0.13150589 0.59900004
0.060389183 -0.13128084 0.59900004
-0.052632008 -0.12671101 0.59694606
-0.047015131 -0.12382811 0.59283626
0.036162831 -0.12358434 0.59461999
0.040903077 -0.12716444 0.5981667
0.057847034 -0.12549582 0.59895831
0.064120203 -0.12485536 0.59883082
0.071941897 -0.12655473 0.59900004
-0.043648072 -0.11576773 0.59543949
-0.036301378 -0.11337346 0.59196472
-0.027813565 -0.11060531 0.59025007
0.018523442 -0.11103562 0.59020007
0.02595884 -0.11344555 0.59348536
0.032999881 -0.11707374 0.59555006
0.059338935 -0.11920299 0.59900004
0.06338989 -0.11905295 0.59900004
-0.040434495 -0.10922565 0.59900004
-0.033922132 -0.10693603 0.59626418
-0.025178947 -0.10472064 0.59430993
-0.015307621 -0.10352244 0.59216654
-0.005349319 -0.10235775 0.59199995
0.0052179666 -0.10365227 0.59250665
0.015196207 -0.10436757 0.59457499
0.02292701 -0.10769606 0.5971517
-0.021386184 -0.098885454 0.59822226
-0.014795144 -0.097747982 0.5971089
-0.0060007838 -0.097898811 0.59548789
0.0053241188 -0.098222464 0.59723258
0.01260296 -0.099248312 0.59900004
0.050136566 -0.14091013 0.60200006
-0.0623076 -0.134055 0.60295659
-0.058871008 -0.1337254 0.60024995
0.047404774 -0.13399467 0.6004445
0.052723791 -0.13420823 0.60104251
0.061542001 -0.13150001 0.60000002
-0.060590815 -0.12908478 0.60100001
-0.055889647 -0.12463428 0.60212201
0.039121252 -0.12087158 0.60033333
0.045424987 -0.12453862 0.60204691
0.05395288 -0.12491291 0.60014075
0.067102566 -0.12421114 0.6000002
0.07177563 -0.12315624 0.60053331
-0.052002169 -0.11660596 0.60446674
-0.047290448 -0.11289269 0.60329407
0.029982001 -0.110986 0.60000002
0.03598759 -0.11411809 0.60356015
0.042191088 -0.11851193 0.60700005
0.056876179 -0.11796469 0.60022736
0.065449923 -0.11503968 0.6004532
0.073945463 -0.11500141 0.60336649
-0.042922545 -0.10668194 0.60562158
-0.036666621 -0.10294528 0.60274476
-0.028228668 -0.10046599 0.60000002
0.018771186 -0.10122314 0.60033339
0.025510181 -0.10389204 0.60329038
0.033105861 -0.10719138 0.6064474
0.067896761 -0.10499948 0.60642856
0.073610872 -0.10626756 0.60749024
-0.040041748 -0.09983743 0.60900003
-0.03355607 -0.097030431 0.60638458
-0.025052218 -0.094818063 0.60376763
-0.015161993 -0.092879757 0.6021207
-0.0044041118 -0.093528122 0.60192209
0.004615189 -0.093398191 0.60264409
0.014786222 -0.095021747 0.60460633
0.023415634 -0.097243294 0.6073637
0.067346409 -0.099074729 0.60900003
-0.021516467 -0.088907875 0.6085
-0.014723638 -0.088197276 0.60734898
-0.0047137793 -0.087618902 0.60657787
0.0047196532 -0.0878447 0.6080243
0.011386876 -0.088779308 0.60883331
-0.067794971 -0.17409898 0.61866671
0.056978948 -0.1790767 0.61900002
-0.061484784 -0.12559605 0.61210531
-0.058611538 -0.12258005 0.61150002
0.048296444 -0.12209775 0.61900002
-0.060234889 -0.11829916 0.61900002
-0.055782173 -0.11445065 0.61441183
-0.0497333 -0.1106967 0.61000001
0.039069965 -0.11185697 0.61049998
0.04333543 -0.11513583 0.61386955
-0.052655153 -0.10688744 0.61544126
-0.046570476 -0.10407959 0.61241519
0.029412167 -0.10000136 0.61000001
0.035606015 -0.10360234 0.61234009
0.040907308 -0.10848136 0.61666667
0.067915365 -0.10000136 0.61000001
0.07626202 -0.1024599 0.61071879
-0.043333806 -0.096303068 0.61494124
-0.036128331 -0.092840277 0.61217785
-0.028001903 -0.090781458 0.61033338
0.018559325 -0.09083084 0.61066669
0.026327075 -0.093546823 0.61401665
0.032612734 -0.096884035 0.61615634
0.068732858 -0.096102387 0.61250001
0.074393481 -0.096653298 0.61371434
-0.033779901 -0.087390706 0.61573815
-0.025313616 -0.08509481 0.61398739
-0.015156963 -0.08307948 0.61250734
-0.0048932158 -0.082532652 0.61211562
0.0049754176 -0.082824826 0.61287278
0.01487557 -0.085088998 0.61442351
0.023139033 -0.087345995 0.61724246
-0.021562275 -0.079195656 0.61875004
-0.01408909 -0.077799544 0.61810529
-0.0051189465 -0.077704564 0.61720508
0.0047965352 -0.077596776 0.61776179
0.012977769 -0.079156391 0.61876923
0.051282369 -0.19134389 0.62900001
-0.065204717 -0.18115419 0.62312508
0.052554004 -0.18431503 0.6264751
-0.064789258 -0.17576215 0.6229822
0.053650565 -0.175473 0.62690735
0.051751386 -0.16901782 0.62800002
0.049122088 -0.12122406 0.62120008
0.052932933 -0.12239242 0.62388891
-0.062799789 -0.11338725 0.62524998
-0.059293896 -0.1120254 0.623375
0.047559042 -0.11428028 0.62271422
0.051907167 -0.11525263 0.62665725
-0.062566824 -0.10813429 0.62812507
-0.055715453 -0.10384052 0.62391502
-0.049461532 -0.10055367 0.62
0.039458517 -0.10249761 0.62142861
0.044079643 -0.10570933 0.62453848
0.051249761 -0.10922232 0.6286
-0.052308947 -0.097161964 0.62648004
-0.046699088 -0.093543485 0.62328207
0.036492117 -0.094563134 0.62355357
0.04193769 -0.098704487 0.62666672
0.068760909 -0.091014229 0.62416673
0.071666911 -0.091746666 0.62088895
-0.043045916 -0.087216884 0.62679994
-0.036093898 -0.083352186 0.62209821
-0.028223792 -0.08092314 0.62044448
0.018759571 -0.081018686 0.62024999
0.025695128 -0.083815806 0.62355936
0.033385508 -0.086889334 0.62613964
0.068514787 -0.088796034 0.62525004
0.071144477 -0.089449286 0.62140006
-0.03365425 -0.076753445 0.62670839
-0.024750615 -0.075142071 0.62410259
-0.01511992 -0.073015466 0.62194228
-0.004714421 -0.07288418 0.62182349
0.0049846168 -0.072800323 0.62266678
0.014858635 -0.074689738 0.62461835
0.023271831 -0.077745862 0.6273126
-0.020937432 -0.069423676 0.62849998
-0.014082652 -0.068437502 0.62696564
-0.0050998759 -0.06769035 0.62683737
0.0044211433 -0.068422973 0.62764531
0.01141207 -0.069179647 0.62842858
-0.060296256 -0.19139913 0.63100004
-0.054802187 -0.19319285 0.63592309
0.046824329 -0.19392823 0.63496864
0.05029919 -0.19124791 0.63050008
-0.060681116 -0.18517844 0.6311667
-0.057281367 -0.18668243 0.6352759
0.04786649 -0.18530448 0.63399994
0.050285891 -0.18327446 0.63033342
-0.061877389 -0.17426184 0.63468432
-0.059119534 -0.17601733 0.63580006
0.048418563 -0.17629714 0.63559997
0.050768889 -0.17479469 0.63242865
-0.063457958 -0.16822898 0.63683337
-0.065723702 -0.1110123 0.63000005
0.054677699 -0.1154307 0.63000005
-0.063313857 -0.10633293 0.63020009
-0.057713598 -0.10044233 0.63300002
0.047441956 -0.10303297 0.63290006
0.051589075 -0.10667031 0.63471425
0.068845682 -0.10142788 0.63640004
0.071674295 -0.10123681 0.63625002
-0.061475813 -0.097803131 0.63750005
-0.054847419 -0.094535954 0.6338461
-0.049154699 -0.0905772 0.63000005
0.039275542 -0.091272399 0.63100004
0.045535449 -0.094350487 0.63566649
0.055182841 -0.092173673 0.6372143
0.06550622 -0.094651483 0.63517737
0.071784183 -0.098266035 0.63654554
-0.051479962 -0.0874798 0.63561541
-0.045872182 -0.083899595 0.63209432
0.029271901 -0.080083497 0.63000005
0.03584554 -0.082938813 0.6337778
0.043738272 -0.087770499 0.63743341
0.055606999 -0.088049516 0.63515621
0.063156888 -0.087769352 0.6317392
-0.042813081 -0.076459058 0.63511109
-0.036177855 -0.072870448 0.63243902
-0.02696513 -0.070617333 0.6303001
0.018623907 -0.070990421 0.63100004
0.025787465 -0.073721066 0.63327998
0.033155702 -0.076936647 0.63625008
-0.033918515 -0.068634674 0.6360454
-0.024799086 -0.065196827 0.63406956
-0.015338277 -0.06371212 0.63255727
-0.0048830723 -0.062782735 0.63155568
0.022722322 -0.21075767 0.648
-0.043320425 -0.20323463 0.64557505
-0.036136709 -0.20570289 0.64836854
0.027454711 -0.20561059 0.6483078
0.034219466 -0.20356923 0.64539683
0.041085422 -0.20120771 0.64199996
-0.051292289 -0.19284435 0.64073682
-0.045958266 -0.19589491 0.64573759
-0.039258011 -0.19970378 0.64900005
0.028789207 -0.19788313 0.64900005
0.035675548 -0.19582359 0.64636594
0.042195246 -0.19447085 0.64178377
-0.053737279 -0.18448548 0.64267725
-0.048846815 -0.18892834 0.64640009
0.038824935 -0.18768644 0.6481111
0.043465599 -0.18521629 0.64398301
-0.061343875 -0.17139885 0.64050007
-0.057106424 -0.17534216 0.64570272
0.047875635 -0.17504825 0.64731586
0.05080371 -0.17341389 0.64750004
-0.061767071 -0.16492768 0.64222574
-0.05819013 -0.16692586 0.64504766
0.050692812 -0.16841424 0.64250004
-0.062602185 -0.15960886 0.64333338
0.049934935 -0.10155307 0.64000005
0.054006916 -0.10220948 0.64169228
0.060221739 -0.10074478 0.64200002
-0.060867548 -0.096021496 0.64222229
-0.057802398 -0.092673004 0.64158821
0.049934935 -0.0959424 0.64000005
0.054832648 -0.097197942 0.64120466
0.061732709 -0.098281473 0.6406154
-0.060378075 -0.088592134 0.64366668
-0.055370115 -0.084745146 0.64286208
-0.049112402 -0.081105471 0.64025009
0.039523933 -0.080732524 0.64100003
0.044621378 -0.083617777 0.64432359
-0.04641157 -0.073631324 0.64257139
-0.030201167 -0.2102685 0.65000004
-0.023348182 -0.21218157 0.65359366
-0.014681753 -0.21350457 0.65367293
-0.0054900763 -0.21301039 0.65337044
0.0050788354 -0.21239409 0.65480012
0.014828916 -0.21227041 0.65216666
0.021096107 -0.2110817 0.65040004
-0.032821037 -0.20315596 0.6509999
-0.025147138 -0.20573854 0.6552254
-0.014909811 -0.20717864 0.65673476
-0.005660038 -0.20799072 0.65695137
0.0057820063 -0.20704088 0.65718514
0.015161365 -0.20511582 0.65564203
0.023008509 -0.20456025 0.65191674
-0.04253228 -0.19315419 0.65237141
-0.035666749 -0.19562379 0.65544599
-0.029441534 -0.19742958 0.65849996
0.018365815 -0.19856079 0.65880001
0.025324894 -0.19617909 0.65570986
0.032352574 -0.19227472 0.65276921
-0.051672962 -0.18192205 0.65163636
-0.046040561 -0.18574503 0.65576065
-0.039072838 -0.18817765 0.65866667
0.02941918 -0.18978254 0.65800005
0.035542045 -0.1856705 0.65520638
0.041846599 -0.18148316 0.65115386
-0.052733377 -0.17442122 0.65417314
-0.048227735 -0.178137 0.657875
0.038752228 -0.17748867 0.6574707
0.044010125 -0.17467245 0.65350014
-0.060921464 -0.16125363 0.65150005
-0.056318771 -0.16506036 0.65633339
0.046339463 -0.16628397 0.65437508
-0.061061062 -0.15935645 0.65340006
-0.058860935 -0.15926951 0.65825003
-0.023219882 -0.20179267 0.66152
-0.015156935 -0.20238832 0.66169232
-0.0048291264 -0.20322038 0.66210163
0.0044199652 -0.20257412 0.66183347
0.012753965 -0.20086429 0.66125
-0.033132214 -0.19195038 0.66190004
-0.02505401 -0.19512591 0.66471827
-0.015820699 -0.1972892 0.66592497
-0.0049284557 -0.19842157 0.66643739
0.0057929088 -0.19689971 0.66560346
0.015036562 -0.19479904 0.66422498
0.023100685 -0.19233482 0.66214275
-0.042250443 -0.18257488 0.6619525
-0.035532366 -0.18578883 0.66494125
-0.028442096 -0.18846978 0.66709095
0.018154012 -0.18915312 0.66800004
0.026242007 -0.18647467 0.66581041
0.032538462 -0.18262918 0.66236001
-0.050414469 -0.17152509 0.66100001
-0.044890042 -0.17550603 0.66475517
-0.039206728 -0.1784775 0.66750002
0.02986628 -0.1797833 0.66800004
0.035768729 -0.17497155 0.66381806
0.040776689 -0.17103124 0.66133338
-0.05260824 -0.16430774 0.66433334
-0.048395347 -0.16716883 0.66605884
0.038601827 -0.16864042 0.66716671
0.041976053 -0.1653576 0.66323346
-0.055534463 -0.15753236 0.66512495
-0.022344699 -0.19110711 0.67074996
-0.014158749 -0.19300263 0.67133355
-0.0050668847 -0.19393426 0.67228329
0.0044523207 -0.19248345 0.67166656
0.011344443 -0.19067435 0.671
-0.032908782 -0.18232907 0.67119998
-0.025117137 -0.18537919 0.67451519
-0.014807665 -0.18686292 0.67648369
-0.0049002813 -0.18732242 0.67676091
0.004925956 -0.1870625 0.67642307
0.015118222 -0.18506816 0.67449999
0.02346275 -0.18263277 0.67220509
-0.04236643 -0.1723633 0.67160004
-0.035555415 -0.17575544 0.67447138
-0.029113881 -0.1782454 0.67774999
0.018443899 -0.17848903 0.67866665
0.026216405 -0.17657924 0.67593759
0.032133676 -0.17337693 0.67297053
-0.050550789 -0.16164638 0.67050004
-0.04535266 -0.16519091 0.67539299
-0.039160199 -0.16827942 0.67828572
0.028550841 -0.16952322 0.67850006
0.03519896 -0.16551219 0.67528135
-0.050934341 -0.15752561 0.67300004
-0.048238788 -0.15731691 0.67676926
0.036257181 -0.15988822 0.67800003
-0.023458926 -0.18165842 0.68076921
-0.01473331 -0.18185188 0.68165714
-0.0046623978 -0.18236291 0.68192518
0.0043048873 -0.18244441 0.68141371
0.011488059 -0.18157278 0.68074995
-0.032613587 -0.17228621 0.68114293
-0.025136726 -0.17518197 0.68389022
-0.015657527 -0.17701225 0.68611109
-0.0046227123 -0.17651136 0.68649077
0.0050418964 -0.17701629 0.68524987
0.014891137 -0.1750008 0.68433315
0.023307594 -0.17315899 0.68175763
-0.041940488 -0.16232659 0.68259096
-0.03532435 -0.16588107 0.68485713
-0.029018793 -0.16782843 0.68757147
0.017480623 -0.16909049 0.68762505
0.025780188 -0.16566969 0.68549997
0.031408068 -0.16302 0.68192315
-0.043639928 -0.15734357 0.68564516
-0.038601387 -0.15983386 0.68800002
0.027390769 -0.15919465 0.68755561
0.031333528 -0.1590697 0.68300003
-0.02274086 -0.17077377 0.69042861
-0.014486152 -0.17247592 0.69160545
-0.0052736159 -0.17166542 0.69240642
0.0045564892 -0.17215404 0.69138724
0.010789135 -0.17128997 0.69140005
-0.032935441 -0.16199265 0.69150001
-0.024721576 -0.16531301 0.69462883
-0.015245603 -0.16670552 0.69566673
-0.0046726586 -0.16758017 0.69691181
0.0053482796 -0.166723 0.69634008
0.014978447 -0.16512381 0.69410688
0.021654882 -0.16230322 0.69061542
-0.040528301 -0.15485439 0.69000006
-0.035458796 -0.15642567 0.69320476
-0.028736811 -0.15813889 0.69745451
0.017565332 -0.15871699 0.69700003
0.022621211 -0.15779054 0.69214278
-0.022252867 -0.16068447 0.70025003
-0.013982951 -0.16243196 0.70166677
-0.004922593 -0.1630075 0.70167506
0.003903765 -0.16214749 0.7006073
0.011864223 -0.16057611 0.70000005
-0.030091144 -0.15475401 0.70050001
-0.02428217 -0.15591472 0.70297974
-0.014682737 -0.15619071 0.70535588
-0.0050649829 -0.15584162 0.70560974
0.0041926261 -0.15698273 0.70358539
0.01361613 -0.15780467 0.7004118
0.020251 -0.15648501 0.70000005
