# .PCD v0.7 - Point Cloud Data file format
VERSION 0.7
FIELDS x y z
SIZE 4 4 4
TYPE F F F
COUNT 1 1 1
WIDTH 279
HEIGHT 1
VIEWPOINT 0 0 0 1 0 0 0
POINTS 279
DATA ascii
-0.061608274 -0.10700956 0.47893339
-0.0559012 -0.10374016 0.47868422
-0.082248971 -0.12467583 0.48787507
-0.07626754 -0.12329886 0.48419678
-0.080458447 -0.11807324 0.4887
-0.075643174 -0.11465447 0.48552272
-0.068525963 -0.11082381 0.48250002
-0.072410703 -0.10780464 0.48694876
-0.065673076 -0.10496237 0.48558566
-0.05729292 -0.10343532 0.48174077
-0.031686466 -0.10269853 0.48267645
-0.025171952 -0.10386722 0.48414984
-0.062384188 -0.098623648 0.48888889
-0.054104552 -0.097491354 0.48810545
-0.04487985 -0.096515991 0.48557892
-0.035185147 -0.097799584 0.48577598
-0.02777151 -0.098650657 0.48736849
-0.084754601 -0.13100316 0.49075004
-0.085547067 -0.1243073 0.49162859
-0.082853831 -0.11503865 0.49308059
-0.079247527 -0.11180561 0.49308333
-0.08137472 -0.10889877 0.498375
-0.074792914 -0.10419502 0.49567488
-0.068267345 -0.10116751 0.49107143
-0.021314453 -0.10146008 0.49118754
-0.01763941 -0.10258548 0.49320015
-0.071724661 -0.098652691 0.49866673
-0.065342426 -0.096400701 0.49584857
-0.055598684 -0.092846163 0.4923512
-0.044593956 -0.09309268 0.49263051
-0.034723137 -0.093239486 0.49432305
-0.025404671 -0.096115813 0.4949263
-0.018853374 -0.099061795 0.49725002
-0.061243933 -0.089678615 0.49900001
-0.053662691 -0.088039257 0.49763826
-0.045280475 -0.087501474 0.4968667
-0.037510879 -0.0882966 0.49878564
-0.082974963 -0.10599142 0.50332618
-0.078783453 -0.10309961 0.50294739
-0.074499309 -0.095316283 0.50455552
-0.066502817 -0.09245076 0.501396
-0.030970881 -0.09045621 0.50039995
-0.023541342 -0.091862641 0.5024907
-0.018083325 -0.095630407 0.5024572
-0.071299441 -0.08945784 0.50516671
-0.063746519 -0.087259144 0.5050624
-0.055085029 -0.084035821 0.50449449
-0.044730835 -0.082838148 0.50505471
-0.034773052 -0.085218079 0.50426126
-0.02605108 -0.08799687 0.50605661
-0.050819926 -0.079795517 0.50849998
-0.046906866 -0.079304703 0.50821424
-0.081161328 -0.16245832 0.51652938
-0.077796936 -0.16382442 0.5177601
-0.081748188 -0.15760478 0.51688892
-0.078700662 -0.15792313 0.51707697
0.0011826234 -0.15230557 0.51860005
-0.00045323666 -0.14684868 0.51700002
0.0014171319 -0.1469299 0.51478565
-0.001359585 -0.12467078 0.51685721
0.0037601353 -0.12266468 0.51606393
0.012898955 -0.1205152 0.5138182
-0.0013542814 -0.11285636 0.51465392
0.0041785333 -0.11600062 0.51381636
0.015221347 -0.11544101 0.51322693
0.0231642 -0.11248424 0.51413041
-0.0047508669 -0.10447469 0.51724005
0.0007553944 -0.10892788 0.51700002
0.01781228 -0.10854179 0.51268756
0.025019184 -0.1054343 0.51607555
0.031151878 -0.10331491 0.51846159
-0.08194685 -0.093654364 0.51525646
-0.077509061 -0.092166334 0.51268959
-0.015528538 -0.093550399 0.51298207
-0.0075263712 -0.098685049 0.51807153
0.028664369 -0.099187821 0.51900005
-0.08052709 -0.088692367 0.51749998
-0.074148811 -0.087053239 0.51437098
-0.065964721 -0.083228901 0.51148629
-0.056923069 -0.080925323 0.51085007
-0.041449677 -0.080482736 0.51060003
-0.033998266 -0.081501916 0.51143891
-0.024636809 -0.083945535 0.51386154
-0.017959611 -0.087664045 0.51658338
-0.063714392 -0.077654742 0.51606524
-0.054463152 -0.076225221 0.51389229
-0.045083642 -0.075565845 0.51440948
-0.035435185 -0.077653088 0.51597023
-0.027887778 -0.079060026 0.51761538
-0.064237542 -0.17383929 0.52763653
-0.057431646 -0.17680211 0.52875876
-0.045448154 -0.17669129 0.52900004
-0.016231483 -0.1711262 0.52900004
-0.07295838 -0.16396888 0.5247069
-0.067738637 -0.16572152 0.52563632
-0.012504964 -0.16527177 0.52821976
-0.0079244552 -0.16250539 0.5260303
-0.080678754 -0.15283057 0.52388889
-0.077039205 -0.15570806 0.52564514
-0.010898281 -0.15906854 0.52900004
-0.0048663947 -0.15552722 0.52493483
0.00045586666 -0.1531712 0.52000004
-0.08169385 -0.14447153 0.52733338
-0.078745022 -0.1468097 0.52803713
-0.00091304828 -0.14921129 0.52050006
-0.0031910667 -0.10408956 0.52000004
0.026440267 -0.10074653 0.52000004
0.032097004 -0.10065058 0.52055556
-0.090741724 -0.098161824 0.52900004
-0.086829841 -0.095306583 0.52400005
-0.011495501 -0.093024276 0.52273905
-0.0076568234 -0.094081447 0.52335298
0.027974578 -0.096495621 0.5226745
0.032236475 -0.094996147 0.52560014
-0.081251465 -0.083238482 0.52627778
-0.078274742 -0.083870351 0.52215159
-0.022062192 -0.080486767 0.52066666
-0.013403356 -0.08788532 0.52423525
-0.0097020697 -0.089166641 0.52700001
0.033854235 -0.089041278 0.52900004
-0.080229901 -0.078838632 0.52900004
-0.074560523 -0.076155394 0.52765912
-0.065168083 -0.072850339 0.52506673
-0.057591744 -0.072354749 0.52296549
-0.042844012 -0.071318865 0.52395457
-0.034483366 -0.072700284 0.52304059
-0.025916943 -0.07522694 0.52452856
-0.062867008 -0.06849879 0.52825016
-0.054630838 -0.066990979 0.52672464
-0.045530222 -0.067699924 0.52683043
-0.036744427 -0.068669997 0.5277918
-0.062073402 -0.1711579 0.53150004
-0.054244194 -0.17381448 0.53265977
-0.044994194 -0.17393856 0.53489077
-0.035240982 -0.1737642 0.53477788
-0.025300594 -0.17291814 0.53249305
-0.017444871 -0.17111178 0.53000009
-0.071355782 -0.16087246 0.53500003
-0.064285308 -0.16455507 0.53428739
-0.055842318 -0.16778952 0.53640908
-0.047130212 -0.16925758 0.53869998
-0.032086372 -0.1687393 0.53694737
-0.024016175 -0.16669381 0.53577417
-0.016786616 -0.16446719 0.53350663
-0.073924229 -0.15484859 0.53380525
-0.068474501 -0.15662649 0.53720003
-0.012937937 -0.1559484 0.5349831
-0.0087170023 -0.15207899 0.53165007
-0.080381565 -0.14171317 0.53000003
-0.076216303 -0.14894062 0.53175002
-0.010847873 -0.14904034 0.53800005
-0.0077800592 -0.1449841 0.53466672
-0.082240097 -0.13985464 0.53000003
-0.00421326 -0.13997386 0.53400004
-0.091779776 -0.094933704 0.53293109
-0.089174978 -0.093382388 0.53350002
0.028491167 -0.090917341 0.53028572
0.030510923 -0.090913258 0.53000003
-0.090520218 -0.089582182 0.53500003
-0.085870415 -0.08453548 0.53337151
-0.014658325 -0.081242718 0.53568429
0.028163468 -0.087262295 0.53444451
0.032126527 -0.08643195 0.53412217
-0.082062773 -0.076735683 0.53303838
-0.076054655 -0.072720751 0.53220761
-0.031130433 -0.070159636 0.53000003
-0.023393974 -0.07305944 0.53725719
-0.016502509 -0.077257775 0.53780442
-0.073593073 -0.067131028 0.53567278
-0.065044336 -0.064674571 0.53377122
-0.055608843 -0.062311653 0.53233975
-0.044763006 -0.063042365 0.53333759
-0.035209317 -0.064777099 0.53409004
-0.026792111 -0.067146175 0.53702033
-0.061968941 -0.059541821 0.53842866
-0.053991128 -0.058409344 0.53651363
-0.046250705 -0.058732029 0.53704178
-0.06219374 -0.1610321 0.54106253
-0.0545705 -0.16289793 0.54313636
-0.044967856 -0.16483767 0.54324996
-0.03541667 -0.16456598 0.54336661
-0.02660796 -0.16267575 0.54157168
-0.019409399 -0.1604826 0.54000002
-0.072219938 -0.15144092 0.54284614
-0.065421589 -0.15617748 0.54443902
-0.056238256 -0.15831231 0.54757893
-0.046299618 -0.15956949 0.54824996
-0.032236934 -0.15927047 0.54749995
-0.023951167 -0.1559353 0.54512757
-0.016967203 -0.15388671 0.54213917
-0.080449067 -0.14376107 0.54300004
-0.07560613 -0.14647004 0.54394591
-0.069466189 -0.14903946 0.54900002
-0.021003766 -0.14926945 0.54866672
-0.014320807 -0.14666533 0.54495531
-0.0094679995 -0.1418622 0.54000002
-0.011835 -0.139653 0.54000002
-0.00918396 -0.13927427 0.54000002
-0.091247842 -0.088644154 0.54000002
-0.088234745 -0.080082625 0.54700005
0.028691128 -0.082228333 0.54121059
0.033045225 -0.081512399 0.54017389
-0.090482526 -0.078931555 0.54900002
-0.086282708 -0.07525599 0.54571432
-0.0206718 -0.071167797 0.54000002
-0.015258046 -0.074323796 0.54000002
0.02835821 -0.07797806 0.54611766
0.032015424 -0.078512825 0.54278576
-0.081078067 -0.066527978 0.54419053
-0.076183923 -0.063228033 0.54457629
-0.067803085 -0.061163343 0.54084617
-0.032686055 -0.061358966 0.54036838
-0.027930433 -0.062112167 0.5408572
-0.07258863 -0.058091354 0.54734474
-0.064789005 -0.055962253 0.54523188
-0.055308547 -0.053688519 0.54299986
-0.0449664 -0.054980397 0.54280561
-0.035146855 -0.056900777 0.54538369
-0.028709313 -0.058018029 0.54520011
-0.040780339 -0.16070658 0.55049998
-0.038125798 -0.16046551 0.55050004
-0.063600704 -0.15213135 0.55231994
-0.054918889 -0.15475847 0.55288482
-0.044835355 -0.15683329 0.55429065
-0.034864623 -0.15507658 0.55435967
-0.027517712 -0.15253881 0.55165792
-0.073594928 -0.14389679 0.55530131
-0.066444896 -0.14773175 0.55640817
-0.023984097 -0.14700685 0.55553722
-0.017560432 -0.14345148 0.55331111
-0.075193502 -0.13870552 0.55676478
-0.015630607 -0.13824141 0.55605882
-0.008984372 -0.082166165 0.55900002
-0.092806526 -0.074164368 0.55450004
-0.08934135 -0.073976889 0.55257142
0.024211336 -0.073048502 0.55421287
0.019984493 -0.068727158 0.55600005
0.023141149 -0.069305107 0.55575007
-0.028738389 -0.054236863 0.5502857
-0.060984876 -0.15049343 0.56100005
-0.054175802 -0.15166804 0.56235003
-0.045625128 -0.15215556 0.56280369
-0.037856102 -0.15093127 0.56080002
-0.070372954 -0.14091073 0.56399995
-0.064663462 -0.14361468 0.56418324
-0.055202533 -0.14711462 0.56504232
-0.044368275 -0.14704421 0.56637102
-0.034348808 -0.14655139 0.56378835
-0.025710564 -0.14294302 0.56392193
-0.01918059 -0.14016585 0.56100005
-0.067887545 -0.13866329 0.56746668
-0.022688922 -0.13796064 0.5666334
-0.017731506 -0.13704707 0.56335002
-0.01110145 -0.080661446 0.56275004
-0.0042347293 -0.082652763 0.56178427
0.0021004933 -0.081776395 0.56430775
-0.011134773 -0.076684721 0.56515795
-0.0046882317 -0.075545833 0.56438017
0.0048059826 -0.074810922 0.56521344
0.014839447 -0.074643523 0.5645113
0.020878773 -0.075246125 0.56099999
-0.00099063327 -0.069839649 0.565
0.0044933022 -0.068924159 0.56463993
0.014801232 -0.068442345 0.56282145
-0.062177293 -0.14154543 0.57106674
-0.055021249 -0.14264858 0.5740003
-0.045602664 -0.14252298 0.57336944
-0.035961233 -0.14230369 0.57221282
-0.029149165 -0.14074884 0.57000005
-0.063353449 -0.13691185 0.5751636
-0.057352267 -0.13881896 0.5773685
-0.044034027 -0.138662 0.57781482
-0.034334511 -0.13730837 0.57547551
-0.027302766 -0.13634321 0.57168424
-0.061296314 -0.13353014 0.58025002
-0.054454096 -0.13481323 0.58234149
-0.04554252 -0.13464496 0.58384812
-0.037307739 -0.13409609 0.58190316
-0.052219965 -0.12952925 0.58400005
