# .PCD v0.7 - Point Cloud Data file format
VERSION 0.7
FIELDS x y z
SIZE 4 4 4
TYPE F F F
COUNT 1 1 1
WIDTH 389
HEIGHT 1
VIEWPOINT 0 0 0 1 0 0 0
POINTS 389
DATA ascii
0.0071457098 -0.12037773 0.62700003
0.017278954 -0.1207867 0.6225
0.025747024 -0.12156462 0.62376916
0.032627996 -0.12221253 0.62375003
0.044181615 -0.12611666 0.62407994
0.0062385742 -0.11729014 0.6277073
0.014756411 -0.11641481 0.62612677
0.024261771 -0.11727989 0.62698126
0.032215185 -0.11878779 0.62863642
0.053134765 -0.13032001 0.63800001
-0.015686492 -0.12242974 0.6345641
-0.008291075 -0.12077311 0.63050008
0.036587715 -0.12242059 0.63068974
0.045680597 -0.1234544 0.63281262
0.052556891 -0.12463633 0.63661122
-0.0124884 -0.11671263 0.63525802
-0.0051927464 -0.11486939 0.63221592
0.0041588368 -0.11286108 0.63095999
0.015084708 -0.11119754 0.63060725
0.025225526 -0.11238131 0.63119525
0.03514887 -0.11437441 0.63263375
0.044183299 -0.11629589 0.63618177
0.051416937 -0.11904037 0.63750005
-0.0038259679 -0.10828692 0.63659257
0.0054560741 -0.10695782 0.63566041
0.015195459 -0.10604391 0.63564199
0.024958756 -0.10617781 0.63606071
0.033974327 -0.10736764 0.63678563
0.040829875 -0.1090661 0.63800001
-0.032511007 -0.13081971 0.64600003
-0.028748529 -0.13021393 0.64300001
0.057274386 -0.13139217 0.64050007
0.063013956 -0.1320702 0.64431822
-0.032319158 -0.12617004 0.64673078
-0.025508434 -0.12450195 0.64302641
-0.019652676 -0.12128464 0.64050007
0.057297569 -0.12488185 0.64199996
0.062018849 -0.12561695 0.64632255
0.075822964 -0.12111191 0.64900011
0.083067678 -0.12004986 0.64900011
-0.022939356 -0.11624466 0.64620513
-0.016556252 -0.1141261 0.64206773
0.046736695 -0.11264143 0.64114809
0.054244716 -0.11536557 0.64514911
0.060878363 -0.11891194 0.64900005
0.076730095 -0.11534322 0.64811921
0.084649876 -0.11462406 0.64803159
0.090464108 -0.11208447 0.64900005
-0.021419888 -0.10937294 0.64866668
-0.014214553 -0.10660551 0.64564288
-0.0055467365 -0.10399403 0.64468658
0.0044190632 -0.10247381 0.64102727
0.014596779 -0.10141332 0.64040911
0.02577964 -0.10152234 0.64104342
0.036166545 -0.10317601 0.64239138
0.044585817 -0.10539768 0.64548653
0.05168765 -0.10848565 0.64789999
0.086296298 -0.10823665 0.64845008
0.090464108 -0.10923968 0.64900005
-0.0032880576 -0.097465597 0.6474244
0.005192752 -0.09576764 0.64567065
0.015272687 -0.095018156 0.6452443
0.025043039 -0.095664978 0.64536822
0.034011267 -0.096233636 0.6471017
0.041913141 -0.099188112 0.64900011
0.016499743 -0.089326195 0.64900005
-0.041711621 -0.13206756 0.65900004
-0.039862908 -0.1311432 0.65900004
0.0681234 -0.13277501 0.65130776
0.071899898 -0.13483016 0.65518183
-0.03517852 -0.12421158 0.65651369
0.066622764 -0.12437983 0.65075547
0.073983319 -0.12520225 0.65037936
0.083845012 -0.12343907 0.65086108
0.09131448 -0.12041981 0.65100002
-0.03252108 -0.11621358 0.6560002
-0.027082134 -0.11370596 0.65259516
0.058170903 -0.11233212 0.65235722
0.064641871 -0.11543918 0.6549859
0.071283072 -0.11633381 0.65049994
0.088552095 -0.11863931 0.65000004
0.092944838 -0.11460883 0.65042418
-0.030619336 -0.10918971 0.65900004
-0.023372732 -0.10594827 0.6558001
-0.016489575 -0.10246684 0.65153337
0.048580721 -0.10166974 0.65054554
0.05485981 -0.1051789 0.6542964
0.061481509 -0.10881845 0.65850008
0.088832051 -0.10412146 0.65093333
0.094325267 -0.1045551 0.65231752
-0.020595238 -0.099510431 0.65866673
-0.013955264 -0.095921107 0.65523231
-0.0061406875 -0.09345822 0.65296566
0.0044038948 -0.090861388 0.65036368
0.025642501 -0.090603508 0.65000004
0.036502507 -0.092105262 0.65095991
0.045123771 -0.094822906 0.65384412
0.051685475 -0.09666416 0.6578126
0.088294357 -0.096894458 0.65400004
0.094344206 -0.095940158 0.65660727
-0.010976743 -0.088969395 0.65900004
-0.003932328 -0.086780943 0.65736383
0.0052539636 -0.085050948 0.6546818
0.014850883 -0.084512889 0.65353984
0.024642531 -0.084994964 0.65470111
0.034576189 -0.086200714 0.65589869
0.043452963 -0.088292919 0.65776485
0.0077414932 -0.078917012 0.65900004
0.015672358 -0.078527488 0.65864283
0.022646755 -0.078685924 0.65899998
-0.042892233 -0.13157408 0.66116667
-0.039983891 -0.13038225 0.66100001
-0.04118152 -0.12637196 0.66162503
-0.038762625 -0.12372654 0.66158342
-0.035524931 -0.11538336 0.66315794
0.067661278 -0.11189316 0.66400009
-0.031516828 -0.10689759 0.66575003
-0.027107771 -0.10341456 0.66252762
0.05767978 -0.10201479 0.66171438
0.063979998 -0.10573786 0.66506064
-0.023479322 -0.096122168 0.66436952
-0.017626537 -0.092820145 0.6621365
0.055447906 -0.094574638 0.66376746
0.060695667 -0.098351642 0.66700006
0.095444448 -0.092159726 0.66116673
0.10030001 -0.095661283 0.66133338
-0.020496467 -0.089598842 0.66800004
-0.014037987 -0.086280435 0.66465223
-0.0067162747 -0.082989164 0.6629501
0.0011589533 -0.080547258 0.66100001
0.028973833 -0.080547258 0.66100001
0.036319166 -0.081673987 0.66129416
0.045668997 -0.083989576 0.6639455
0.052354831 -0.086862683 0.66671431
0.089954764 -0.089954764 0.66200006
0.093838245 -0.086856373 0.66356832
-0.011126653 -0.079057798 0.66800004
-0.0043912046 -0.077143401 0.66634029
0.0052231424 -0.075139865 0.66435701
0.014952704 -0.074056648 0.66357911
0.025401669 -0.074490987 0.66398555
0.034768831 -0.075382151 0.66521525
0.043209989 -0.077781878 0.66673082
0.0078701293 -0.069144256 0.6677779
0.014697073 -0.068736546 0.66761118
0.02506531 -0.068679765 0.66760874
0.03244298 -0.069453739 0.66800004
0.076187767 -0.17193028 0.67580003
-0.046792965 -0.16585453 0.67566675
0.073049203 -0.1663232 0.67645448
-0.041177034 -0.12058988 0.671
-0.042654712 -0.11579747 0.67509997
-0.037563838 -0.11348062 0.67183864
0.073161781 -0.11291759 0.6785
-0.04101222 -0.10936593 0.67800003
-0.035240415 -0.1051893 0.67376077
-0.0299557 -0.1004397 0.67000002
0.067324929 -0.10334137 0.67273074
0.072178856 -0.10579465 0.6767
-0.031248463 -0.096317045 0.67481816
-0.026569674 -0.092883617 0.67154843
0.0591245 -0.091565728 0.67040002
0.064476669 -0.095282316 0.67353702
0.08809799 -0.091074273 0.67900002
-0.030358089 -0.08988376 0.67900002
-0.023859717 -0.085535623 0.67466688
-0.017142924 -0.082956821 0.67113334
0.049926165 -0.080469236 0.67000002
0.056235675 -0.084445231 0.67230612
0.061757784 -0.086997271 0.6764285
0.078733437 -0.080717042 0.67866677
0.086011119 -0.083873712 0.67721587
0.090471499 -0.086098678 0.67199999
-0.02140579 -0.078486875 0.67825001
-0.014460391 -0.075390853 0.67510599
-0.0054364358 -0.072254166 0.67165715
0.0022040496 -0.0708168 0.67037505
0.03867222 -0.071113445 0.67040002
0.045453731 -0.073464297 0.67259997
0.052832097 -0.075995423 0.6752001
0.079052538 -0.079052538 0.67800003
0.083372563 -0.078504324 0.67555559
-0.011169124 -0.068397731 0.67844439
-0.0043445262 -0.065713972 0.67644656
0.0046272441 -0.064604335 0.67398518
0.014948012 -0.06408944 0.6721999
0.024997145 -0.063857958 0.67321426
0.035129141 -0.064502411 0.67420262
0.044225022 -0.066793397 0.67674363
0.050596815 -0.069645032 0.67900002
0.0081188101 -0.059011351 0.67766666
0.015116492 -0.057906646 0.67750019
0.024250878 -0.05781161 0.67800009
-0.043426558 -0.18034086 0.68800002
0.068180338 -0.18151626 0.68675005
0.07103385 -0.18075955 0.68320006
-0.042347942 -0.17441705 0.68683344
-0.039204534 -0.1718968 0.68800002
0.068151571 -0.17505126 0.68639129
0.072066009 -0.17492799 0.68238235
-0.042982344 -0.16533306 0.68502641
0.06916023 -0.16899152 0.68600005
0.07108748 -0.16866815 0.68287504
-0.044385426 -0.15817057 0.68694115
0.074516669 -0.11386146 0.68000001
-0.040410828 -0.10193179 0.68800002
-0.038094677 -0.10205575 0.68320006
-0.040410828 -0.099519201 0.68800002
-0.035320476 -0.09546797 0.68470281
0.068277426 -0.09257672 0.68372732
0.073909193 -0.09307953 0.6875
0.083791599 -0.091078319 0.68315381
-0.032163631 -0.085573666 0.68593097
-0.027778616 -0.083015822 0.68178958
0.0590172 -0.080477998 0.68000001
0.065572478 -0.084493808 0.68316007
0.074706554 -0.085327044 0.68486571
0.082774282 -0.087364934 0.68216676
-0.030715769 -0.078897372 0.68700004
-0.024672598 -0.076032765 0.685646
-0.018550737 -0.07184843 0.68253845
0.057245381 -0.073575601 0.68339401
0.063277021 -0.076873198 0.68511772
0.072601274 -0.079446785 0.68285716
-0.021502003 -0.068926163 0.68766671
-0.014772696 -0.065172583 0.6839999
-0.0061998419 -0.061295599 0.68131256
0.0011922667 -0.060209468 0.68000001
0.04956498 -0.197648 0.69800001
0.055049326 -0.19417982 0.69739127
0.060695723 -0.19102098 0.69466668
-0.042305522 -0.18329962 0.69062507
-0.03512891 -0.18384562 0.69467449
0.05885756 -0.18636172 0.6979
0.063375883 -0.18464281 0.69415414
-0.042141367 -0.17925203 0.69000006
-0.035963118 -0.175413 0.69453067
0.06517005 -0.17540272 0.69480014
-0.041133203 -0.1645328 0.69000006
-0.037773237 -0.16566595 0.69673085
0.069033869 -0.16648112 0.69600004
0.073162258 -0.1646286 0.69559479
0.081463374 -0.16739424 0.69707692
-0.042193189 -0.15615538 0.69311118
-0.039153248 -0.15640828 0.6978333
0.072180077 -0.15832782 0.69730771
-0.041133203 -0.1016232 0.69000006
-0.041414902 -0.099192493 0.69133335
-0.037185747 -0.091323584 0.69080007
0.076519847 -0.095271751 0.69000006
-0.036510475 -0.085473374 0.69328582
-0.031558793 -0.077138014 0.69562501
-0.027589576 -0.072737575 0.69338089
0.07098195 -0.078936823 0.69800001
0.013654959 -0.20482439 0.708
0.027300058 -0.20196012 0.70775002
0.040344201 -0.20047964 0.708
-0.023635888 -0.19200325 0.70560873
-0.017992467 -0.19374628 0.70772737
0.047236692 -0.19464834 0.70579422
0.053262193 -0.19207625 0.70117384
-0.030085774 -0.18419831 0.70037508
-0.024872383 -0.18488562 0.70499992
0.04903372 -0.18930739 0.708
0.054908667 -0.18516721 0.70408082
-0.031286679 -0.17367688 0.70231825
-0.027729658 -0.17704362 0.70626324
0.057873391 -0.17662591 0.70580775
0.06210427 -0.17361303 0.70275015
0.078047 -0.17309637 0.70100003
-0.034275085 -0.16512048 0.70402712
0.064966403 -0.16543105 0.70427138
0.078851603 -0.16692716 0.70160002
0.080734864 -0.16578381 0.70300001
-0.03725921 -0.15693252 0.70606679
0.06776832 -0.1582436 0.70493335
0.070571668 -0.15648501 0.70000005
-0.037066538 -0.082255207 0.70077777
-0.033864371 -0.074641965 0.70150012
-0.0043739402 -0.20104197 0.71314293
0.005630312 -0.20203099 0.71368176
0.015351793 -0.20291953 0.71200001
0.023897747 -0.20187037 0.71071446
0.034387253 -0.20178795 0.71081823
0.042325467 -0.20104596 0.71000004
-0.013424593 -0.19388625 0.71067512
-0.0049306178 -0.19483145 0.71407366
0.0050220704 -0.19519603 0.71595824
0.014945082 -0.19581501 0.71599978
0.025131671 -0.19500308 0.71500003
0.034976121 -0.19477226 0.71121711
0.042757284 -0.19423312 0.71018898
-0.020554766 -0.18063235 0.7105
-0.015276687 -0.18511623 0.7137121
-0.0057764426 -0.18694974 0.71685356
0.003254771 -0.18877263 0.71816665
0.028042462 -0.18900022 0.71719998
0.03591793 -0.18651126 0.716353
0.044988714 -0.18484533 0.71326011
0.05134828 -0.18257922 0.71036363
-0.024052883 -0.17444405 0.71324557
-0.018034203 -0.17783988 0.71766663
0.047038198 -0.17780599 0.71713042
0.053802408 -0.17437309 0.71323621
-0.031571578 -0.16344616 0.7120527
-0.027814554 -0.16665493 0.71577781
0.057836786 -0.16606751 0.71538699
0.061423358 -0.16294591 0.71253341
-0.033740815 -0.15477182 0.71375549
-0.029583994 -0.15861967 0.71800005
0.059880715 -0.15947179 0.71900004
0.063524209 -0.15658356 0.71466655
-0.033407137 -0.14938663 0.71900004
0.016159974 -0.19102891 0.7208572
0.02085853 -0.19088627 0.72100008
-0.011684652 -0.18096372 0.72050005
-0.0043105432 -0.18254603 0.72157574
0.0053910362 -0.18428209 0.72335297
0.015157482 -0.18498114 0.72447312
0.025066392 -0.18497357 0.7231856
0.033990998 -0.1823788 0.72151858
-0.020829599 -0.1710552 0.72000003
-0.014748006 -0.1746165 0.72356445
-0.00583902 -0.17708313 0.72617406
0.00246168 -0.17879093 0.7280001
0.015955335 -0.17933793 0.72799999
0.026892189 -0.17863996 0.72661114
0.035993237 -0.17725326 0.7252143
0.044244759 -0.17395595 0.72366065
0.050003309 -0.17153037 0.72200006
-0.023958277 -0.16429107 0.72279584
-0.018386932 -0.16724756 0.72643751
0.047083136 -0.16671932 0.7262001
0.05341113 -0.16450916 0.72280389
-0.03135179 -0.15137842 0.72250003
-0.027416246 -0.15601254 0.72528124
0.057174332 -0.15570819 0.72513163
0.061131481 -0.15276441 0.72186679
-0.031700484 -0.14899804 0.72325003
-0.029347513 -0.14929041 0.72775006
-0.012159366 -0.17087109 0.73000002
-0.0039126608 -0.17275092 0.73074061
0.0054474943 -0.1747271 0.73225808
0.015375175 -0.17499207 0.73216432
0.025027113 -0.17436348 0.73275995
0.033771213 -0.17268157 0.73137832
0.0403179 -0.17087109 0.73000002
-0.0211189 -0.16063163 0.73000002
-0.014523553 -0.16427401 0.73144251
-0.0056505464 -0.16540375 0.73549163
0.004878703 -0.16795781 0.73748505
0.014982187 -0.16877367 0.73605561
0.025255492 -0.16718462 0.73775017
0.035172366 -0.16605933 0.73574984
0.043719858 -0.16388011 0.7332353
0.050984014 -0.16105826 0.73000002
-0.023222379 -0.15405592 0.73241174
-0.015793489 -0.1558964 0.73640817
-0.0084177526 -0.15865301 0.73866671
0.047595423 -0.15551831 0.73664713
0.05242724 -0.15520252 0.73210341
-0.023232611 -0.14889523 0.73476928
-0.017924035 -0.14922298 0.73900002
0.045349967 -0.14835918 0.73900002
-0.0020673396 -0.1619302 0.74127287
0.0056536631 -0.16292445 0.74259084
0.015100976 -0.16408761 0.74234688
0.023895055 -0.1625987 0.74171865
0.034434203 -0.16141605 0.74111116
0.042224649 -0.16045366 0.74100006
-0.012923874 -0.15201175 0.74181259
-0.0048154164 -0.15468076 0.7444194
0.0049147326 -0.15675029 0.74729556
0.01469203 -0.15747279 0.74690622
0.025535839 -0.15602416 0.74689472
0.035089299 -0.15505581 0.74444783
0.042829659 -0.15452661 0.74132234
-0.014315366 -0.14799167 0.7424376
-0.0066615832 -0.14865538 0.74700004
0.027578183 -0.148178 0.74900001
0.036046371 -0.1488978 0.74569231
0.042450387 -0.14836107 0.74116677
0.0057733748 -0.15189253 0.75136
0.015399352 -0.15246876 0.75254279
0.022386888 -0.15186135 0.75112498
-0.0027189818 -0.14676428 0.75199991
0.0048458716 -0.14730513 0.75349998
0.014870066 -0.1476976 0.75478953
0.023069659 -0.14846244 0.75199997
