# .PCD v0.7 - Point Cloud Data file format
VERSION 0.7
FIELDS x y z
SIZE 4 4 4
TYPE F F F
COUNT 1 1 1
WIDTH 354
HEIGHT 1
VIEWPOINT 0 0 0 1 0 0 0
POINTS 354
DATA ascii
-0.024048232 -0.12133018 0.61877775
-0.018992983 -0.12101243 0.61900002
-0.020801837 -0.11920359 0.61900002
-0.017184127 -0.11956535 0.61900002
-0.050179522 -0.12407025 0.62900001
-0.045045536 -0.12266308 0.62863165
-0.033763316 -0.12058938 0.6224286
-0.025587417 -0.12123399 0.62105566
-0.017710499 -0.12268177 0.62245464
-0.0037321297 -0.12092445 0.62518179
0.0056230193 -0.1221986 0.62796986
0.010477044 -0.12517309 0.62900001
-0.043562442 -0.11965887 0.62900001
-0.033099253 -0.11701188 0.62709993
-0.025057275 -0.11578016 0.62581837
-0.01450138 -0.1166365 0.62629324
-0.0055059264 -0.1165915 0.62711477
0.0035813586 -0.11851535 0.62820005
0.02530163 -0.13142626 0.63635302
-0.053444169 -0.12431561 0.63402379
-0.047707468 -0.12120134 0.63033336
0.015587893 -0.12390283 0.63313335
0.02247604 -0.12636809 0.63693738
-0.052029371 -0.11872569 0.63690913
-0.044330027 -0.11571521 0.63368434
-0.035989039 -0.11334733 0.6315577
-0.02417759 -0.11123022 0.63057899
-0.015584124 -0.11195759 0.63062179
-0.0040406897 -0.11200602 0.63127273
0.0055803517 -0.11402962 0.63347816
0.013983739 -0.1159084 0.63610709
0.020694593 -0.11857443 0.63800001
-0.040765878 -0.10945271 0.63700002
-0.034604892 -0.10744925 0.63621724
-0.024612768 -0.10615657 0.6348359
-0.015123236 -0.10622221 0.63431144
-0.0054951841 -0.10646453 0.6352545
0.003179898 -0.10809167 0.63656515
0.029057845 -0.13122167 0.6415
0.033417832 -0.13157037 0.64746672
-0.062729783 -0.12519935 0.64588892
-0.058109283 -0.12364028 0.64165008
0.026640162 -0.12424612 0.64268613
0.034707591 -0.1249562 0.6477679
0.044398174 -0.12370555 0.64598244
0.052369695 -0.12196477 0.6444
-0.060803317 -0.11762639 0.64820004
-0.055086985 -0.11478761 0.6447916
-0.047696162 -0.11206127 0.64106667
0.017488103 -0.11285765 0.64209384
0.023222752 -0.11603663 0.64526188
0.038569823 -0.11967991 0.64700001
0.045945495 -0.11623562 0.64339542
0.054940611 -0.11501537 0.64491999
0.061897721 -0.11414172 0.64776182
-0.052197166 -0.10779908 0.64794445
-0.044935189 -0.10487386 0.64425004
-0.035772353 -0.10297062 0.64135718
-0.026288319 -0.10185384 0.64020002
-0.014998076 -0.10174098 0.64042854
-0.0043543209 -0.10217761 0.64084393
0.0057439073 -0.10390022 0.6422236
0.014448024 -0.10608555 0.64604396
0.021419888 -0.10937294 0.64866668
0.055839412 -0.10562789 0.64573854
0.061529841 -0.10679436 0.64866668
-0.042303458 -0.097889304 0.64770001
-0.034409724 -0.095542409 0.64658093
-0.025110876 -0.094877549 0.64323545
-0.015249948 -0.09488488 0.64433318
-0.0051407344 -0.095075674 0.64523584
0.0038848878 -0.096742414 0.64699996
0.010810177 -0.098998457 0.64900005
0.057442486 -0.09924458 0.64875007
-0.031292617 -0.089326195 0.64900005
-0.02452329 -0.088579334 0.64853328
-0.016704006 -0.088796452 0.64890921
-0.0045516533 -0.089326195 0.64900005
0.038413778 -0.1404683 0.65400004
0.037103277 -0.13554524 0.65265799
0.041216046 -0.13772172 0.65525007
-0.066297539 -0.12258999 0.65360868
0.034323446 -0.12162113 0.65133333
-0.064141892 -0.11531855 0.65488887
-0.059448868 -0.11170872 0.65080005
0.02732015 -0.11382435 0.653
0.032584079 -0.11709189 0.65496874
-0.061189983 -0.10785239 0.6579091
-0.055625908 -0.10466798 0.6547628
-0.049651772 -0.10044408 0.65100002
0.017571075 -0.10226649 0.65094733
0.023995668 -0.10532886 0.6550703
0.064597741 -0.10392612 0.65326315
-0.052420281 -0.097685911 0.65779996
-0.045374461 -0.094529226 0.65394831
-0.037884623 -0.091627441 0.65080005
-0.00056983333 -0.090603501 0.65000004
0.0068115108 -0.092741288 0.65162164
0.014865694 -0.094996229 0.65463519
0.021798367 -0.097895078 0.65816671
0.058178462 -0.094160922 0.6535455
0.063717052 -0.094739236 0.65590185
-0.042949218 -0.087002151 0.65757143
-0.035027415 -0.084964111 0.65491676
-0.024923854 -0.084023677 0.65273857
-0.014749843 -0.084253445 0.65311295
-0.0051843207 -0.084620051 0.65413976
0.0047648242 -0.085189357 0.65560502
0.013018869 -0.087788753 0.65768427
0.058626398 -0.087841809 0.65777785
0.062916249 -0.088176318 0.6584118
-0.032529302 -0.078915499 0.65866667
-0.02421982 -0.077739753 0.65736598
-0.015161563 -0.077984191 0.65816015
-0.0056602424 -0.078321278 0.65885013
0.0024546667 -0.078684784 0.65875
-0.071795367 -0.12159028 0.66271442
-0.071442038 -0.11714491 0.66372228
-0.06793724 -0.11296419 0.66342866
0.034791399 -0.11385094 0.66213334
-0.063565306 -0.10513306 0.66356665
-0.059008785 -0.10097517 0.66119999
0.028243477 -0.10323058 0.66173691
0.033226795 -0.10634252 0.66417646
-0.060689438 -0.098125078 0.66725004
-0.055464204 -0.094168745 0.66379237
-0.048694231 -0.091591723 0.66125
0.019122729 -0.090977833 0.66100001
0.025559857 -0.094392106 0.6640892
0.031178026 -0.097544692 0.66742855
-0.052939925 -0.087430567 0.66600013
-0.046385072 -0.084067374 0.66300005
-0.038824938 -0.080547258 0.66100001
0.0090850433 -0.081380822 0.66150004
0.015887346 -0.084279887 0.66363835
0.022583243 -0.08746323 0.66735005
0.057510741 -0.083578065 0.66670001
0.062182382 -0.084309161 0.66426325
-0.042538989 -0.077985451 0.66626096
-0.034780592 -0.075108901 0.66438985
-0.025395373 -0.072870776 0.66293484
-0.015020638 -0.073214814 0.6627447
-0.0051646247 -0.073717445 0.66251731
0.0055370522 -0.074613675 0.66507232
0.013514671 -0.076551475 0.66688567
-0.03190431 -0.0693691 0.66775
-0.024800263 -0.067194529 0.66704541
-0.014730361 -0.066990145 0.66697603
-0.0061778901 -0.067138031 0.66678566
0.0041722753 -0.069016121 0.66787511
0.039882198 -0.17381495 0.67900002
-0.073416449 -0.11474661 0.67366666
-0.069645032 -0.11012248 0.67900002
0.039390389 -0.11064293 0.67733335
0.041548915 -0.11107489 0.67900002
-0.070705146 -0.10605409 0.67774999
-0.067547105 -0.10395553 0.67426664
0.03725398 -0.10417005 0.67303222
0.04185601 -0.10791343 0.67883331
-0.064315893 -0.09513659 0.67352062
-0.059368305 -0.090521529 0.67050004
0.028780967 -0.091041833 0.67000002
0.034044944 -0.095218718 0.67502183
-0.061365787 -0.087941326 0.67585719
-0.055650584 -0.083972655 0.67391491
-0.049534589 -0.081643969 0.67000002
0.019383101 -0.081056602 0.67000002
0.025744522 -0.084007993 0.67256367
0.033381484 -0.085290954 0.67793572
0.045493927 -0.083432443 0.67756826
0.052262388 -0.084099792 0.67406887
-0.052170433 -0.076255552 0.67648292
-0.045417149 -0.073734127 0.67211097
-0.03860265 -0.071652204 0.67055559
0.016812982 -0.073293529 0.67189747
0.023388505 -0.076335743 0.6763171
0.047931749 -0.07988625 0.67500001
0.050815105 -0.079767898 0.67400002
-0.043951172 -0.066999406 0.67635298
-0.035222713 -0.064702362 0.67358661
-0.02505116 -0.06253057 0.6713438
-0.015764814 -0.062277917 0.67080641
-0.0041488945 -0.062928222 0.67121047
0.005154246 -0.064315841 0.67273337
0.013606987 -0.065396488 0.6756897
0.020833984 -0.069645032 0.67900002
-0.032506756 -0.05811559 0.67785007
0.034061529 -0.18321343 0.68670827
-0.074292272 -0.17419878 0.68621874
0.036026735 -0.17671727 0.68452173
-0.075752683 -0.16554298 0.68278056
-0.075369231 -0.15913911 0.68416667
-0.07335002 -0.11131476 0.68144447
0.039940935 -0.1126692 0.68000001
0.043713398 -0.11336665 0.68214285
-0.073117711 -0.10592528 0.68159097
0.039543513 -0.10114396 0.68000001
0.042986181 -0.10567194 0.68099999
0.037930008 -0.093525276 0.68194449
0.043414496 -0.094169639 0.68571764
0.050820366 -0.090280883 0.68200004
-0.063081451 -0.083602808 0.68425936
-0.0590172 -0.081670269 0.68000001
0.035947356 -0.084460482 0.68104649
0.043572865 -0.088059373 0.68184215
-0.061400592 -0.077858776 0.68529999
-0.056563545 -0.074138924 0.68345004
0.027146578 -0.073171921 0.6821937
0.03279743 -0.076347418 0.68517143
-0.052620757 -0.066389568 0.68539286
-0.046300098 -0.063178085 0.68241668
-0.039940935 -0.060209468 0.68000001
0.024986543 -0.192626 0.69690478
-0.072433919 -0.18303297 0.69362497
-0.06775324 -0.1838636 0.69706249
0.028313544 -0.18574694 0.69567865
0.031078711 -0.18355121 0.69240004
-0.071551643 -0.17540914 0.69123083
-0.068266176 -0.1747508 0.69455999
0.034221701 -0.17420025 0.69574422
-0.07225953 -0.16476713 0.6949231
-0.068781517 -0.16896243 0.69679999
0.037190277 -0.16812801 0.69552642
0.040763248 -0.16731183 0.69400001
-0.073014945 -0.15573713 0.69640005
-0.074041516 -0.14991876 0.69800001
-0.068149872 -0.085717395 0.69100004
0.039546434 -0.080918089 0.69400001
0.042161528 -0.080656841 0.69700003
-0.063078739 -0.073117465 0.69183332
-0.0598851 -0.071983099 0.69000006
-0.041999351 -0.20130722 0.708
0.0080650831 -0.20110758 0.70771426
0.012508983 -0.20163648 0.70640004
-0.053223763 -0.19398555 0.70561391
-0.046867892 -0.19501837 0.70758349
0.007992724 -0.19647171 0.7077648
0.014852961 -0.19461671 0.70527941
0.02123625 -0.19288619 0.70071429
-0.063291103 -0.18448044 0.70128191
-0.055848323 -0.18527332 0.70498431
-0.046861339 -0.1886867 0.708
0.016796013 -0.18724707 0.70714295
0.023930753 -0.18465303 0.70336372
-0.063114069 -0.17473143 0.70401919
-0.05784912 -0.17734136 0.70688236
0.027729386 -0.17620584 0.70569575
0.030412514 -0.1739095 0.7013846
-0.070638873 -0.16195773 0.70066673
-0.066800326 -0.16557878 0.7050001
0.02917196 -0.16882496 0.708
0.033017311 -0.16626666 0.70427275
-0.071280196 -0.15343213 0.70007139
-0.069222204 -0.15664448 0.70453846
-0.071440451 -0.14666839 0.70050001
-0.06921386 -0.14787628 0.70283341
-0.040515151 -0.20132913 0.71100003
-0.034067485 -0.20172121 0.7109167
-0.025702357 -0.20159549 0.71316671
-0.014250803 -0.20180689 0.71122235
-0.0057653701 -0.20231557 0.71090651
0.0034242598 -0.20149876 0.7105
-0.042103436 -0.19528052 0.71046662
-0.034844514 -0.1950344 0.7122857
-0.025065862 -0.19489981 0.71487522
-0.015102712 -0.19567923 0.71533316
-0.004911691 -0.19496344 0.71449989
0.0038387857 -0.19435829 0.71168423
0.010581367 -0.19108704 0.71000004
-0.051660158 -0.18240665 0.71100003
-0.045169208 -0.1850058 0.71329546
-0.035821538 -0.18693292 0.7169283
-0.025605194 -0.1884715 0.7182222
-0.0031490489 -0.18840225 0.7180714
0.0058566364 -0.18615967 0.71616668
0.014066881 -0.18387578 0.71259981
0.021536192 -0.18162605 0.71000004
-0.054362811 -0.1744622 0.71376348
-0.047928128 -0.17772682 0.71873325
0.0094548501 -0.17964216 0.71900004
0.016750831 -0.17630482 0.71597433
0.023473183 -0.17433754 0.71213198
-0.062555403 -0.16439576 0.71319461
-0.057619859 -0.16657281 0.71703017
0.019540023 -0.16955698 0.71900004
0.025989415 -0.16617565 0.7156738
0.030914189 -0.16328502 0.71000004
-0.065457061 -0.15524469 0.71452636
-0.059880715 -0.15884148 0.71900004
-0.064679585 -0.14883257 0.71633339
-0.014639378 -0.19146432 0.7203638
-0.04169777 -0.18132097 0.72066671
-0.034797683 -0.18230307 0.7217648
-0.02525012 -0.18389851 0.72283053
-0.01524266 -0.18539925 0.72400016
-0.005615124 -0.18436632 0.72221673
0.0032758645 -0.18207103 0.72136378
-0.051829409 -0.17065983 0.72100008
-0.044316262 -0.17421876 0.72325003
-0.035982568 -0.17714918 0.72650009
-0.025571909 -0.17785574 0.72734505
-0.01531712 -0.17933795 0.72800004
-0.0043551712 -0.17864598 0.72670835
0.0057472358 -0.17588155 0.72588319
0.013413226 -0.17349137 0.72343588
-0.05328824 -0.16437893 0.72318363
-0.04685057 -0.1672565 0.72642869
0.0089349858 -0.16912653 0.72800004
0.016704425 -0.16591604 0.72514296
0.023606133 -0.16244124 0.72203702
-0.061310779 -0.15303905 0.72287512
-0.056357231 -0.15594859 0.72585112
0.019743849 -0.15922326 0.72650003
0.022570282 -0.15873516 0.72385722
-0.061600387 -0.14934596 0.7274
-0.057837788 -0.14948599 0.72766668
-0.015999166 -0.18111056 0.73000002
-0.033349413 -0.17283638 0.73116112
-0.024726244 -0.17299378 0.7319231
-0.015362705 -0.17466716 0.73285705
-0.0053544044 -0.17393495 0.73264837
0.0021947348 -0.17226769 0.73049992
-0.050557368 -0.16063163 0.73000002
-0.043613464 -0.16381189 0.73139012
-0.034706749 -0.16470116 0.73464191
-0.02491921 -0.16679393 0.73686057
-0.013809253 -0.16807385 0.73833334
-0.0054716552 -0.16763763 0.73770285
0.0056849122 -0.16600038 0.73486215
0.013190093 -0.16339807 0.73286664
-0.052362476 -0.15431395 0.73038888
-0.04540151 -0.1558871 0.73429161
-0.036976047 -0.15818505 0.73837507
0.00971785 -0.15872489 0.73900002
0.014242561 -0.15747233 0.73660016
-0.054356769 -0.1485521 0.73091668
-0.049479943 -0.14972502 0.73300004
-0.03118128 -0.16110328 0.74100006
-0.024276558 -0.16233329 0.74132127
-0.015376327 -0.16376144 0.74207318
-0.0048818062 -0.16277991 0.7411142
0.003384856 -0.16203777 0.74105281
-0.041529827 -0.15246172 0.74185717
-0.03474579 -0.15415859 0.74347049
-0.024892343 -0.1553037 0.74613261
-0.015183133 -0.15580161 0.74687046
-0.0053206794 -0.15649471 0.74521577
0.0046451995 -0.1564026 0.7417804
0.01364181 -0.15395758 0.74100006
-0.035161965 -0.14900486 0.74682349
-0.027423184 -0.1491957 0.74840003
-0.023669999 -0.151225 0.75000006
-0.017095 -0.1505675 0.75000006
-0.0190675 -0.1492525 0.75000006
