# .PCD v0.7 - Point Cloud Data file format
VERSION 0.7
FIELDS x y z
SIZE 4 4 4
TYPE F F F
COUNT 1 1 1
WIDTH 254
HEIGHT 1
VIEWPOINT 0 0 0 1 0 0 0
POINTS 254
DATA ascii
-0.090453587 -0.13503735 0.48900002
-0.085823737 -0.13143636 0.48900002
-0.099976823 -0.14014217 0.49800003
-0.10056642 -0.13750723 0.49900001
-0.095316678 -0.13398227 0.49607411
-0.087785661 -0.13146211 0.49028563
-0.035871446 -0.13167445 0.49900004
-0.092152022 -0.12581746 0.4970223
-0.085124135 -0.12500946 0.4938058
-0.078414559 -0.12471729 0.4921025
-0.06774164 -0.12102836 0.49483338
-0.051733177 -0.12239097 0.49394119
-0.04611101 -0.12409035 0.49541235
-0.037843011 -0.12876987 0.49864292
-0.083301857 -0.11819123 0.49722505
-0.076043978 -0.11692077 0.49748281
-0.065359488 -0.11690929 0.49741521
-0.058314502 -0.11619156 0.49888891
-0.04812023 -0.11942567 0.49900001
-0.033316035 -0.10420035 0.49811274
-0.025798569 -0.10234947 0.49847928
-0.031719819 -0.09687946 0.49734998
-0.02534074 -0.095578909 0.49836102
-0.019029366 -0.09569364 0.49900004
-0.024935029 -0.089678615 0.49900001
-0.024542283 -0.14100656 0.509
-0.10097561 -0.13300972 0.50210005
-0.099601164 -0.13294694 0.50050002
-0.032304551 -0.13245244 0.50117642
-0.026954643 -0.13521771 0.50597876
-0.10119446 -0.12686707 0.50696158
-0.096803248 -0.12423008 0.50567925
-0.042154267 -0.12305306 0.50338084
-0.035878737 -0.12502636 0.50476402
-0.092111669 -0.11702577 0.50685102
-0.08343406 -0.11398148 0.50406063
-0.075337894 -0.11224119 0.50386566
-0.063483849 -0.11202721 0.50271046
-0.056461286 -0.11195829 0.50337988
-0.043309517 -0.11531045 0.50420249
-0.035708841 -0.11421214 0.50397646
-0.027264843 -0.11144681 0.50205255
-0.080893539 -0.10978409 0.50700003
-0.074197739 -0.10881416 0.50580001
-0.063774794 -0.10841697 0.50751221
-0.055565275 -0.10869742 0.50779414
-0.041617557 -0.10935102 0.505
-0.034897972 -0.10861128 0.50080955
-0.025839154 -0.10750166 0.50136846
-0.02307969 -0.094458506 0.50005877
-0.018848334 -0.096871667 0.5
-0.030506246 -0.083477952 0.50250006
-0.024659418 -0.084239632 0.50232989
-0.018175485 -0.08458557 0.50518364
-0.030426471 -0.07981436 0.50300002
-0.025372427 -0.077643968 0.50546658
-0.016510263 -0.078089081 0.509
-0.022021629 -0.14412467 0.51264852
-0.019376086 -0.1482496 0.514
-0.023664616 -0.13625875 0.51023817
-0.098506868 -0.1208943 0.51075006
-0.032185946 -0.12289318 0.51424003
-0.029431891 -0.1231607 0.5165
-0.10072052 -0.11903352 0.51366663
-0.096716039 -0.11635758 0.51146501
-0.083323658 -0.11065023 0.51100004
-0.050621364 -0.11154619 0.51100004
-0.047916576 -0.11161724 0.51081258
-0.033895731 -0.11931171 0.51099998
-0.091214836 -0.10787351 0.51764292
-0.084439605 -0.10612039 0.51466346
-0.07494773 -0.10437863 0.51365608
-0.065136768 -0.10358387 0.51345116
-0.056285314 -0.10468602 0.51310283
-0.048405625 -0.10898218 0.5108183
-0.072956786 -0.099092118 0.51850003
-0.064910859 -0.099045254 0.51814294
-0.058108848 -0.099013366 0.51842862
-0.016265674 -0.080732234 0.51066667
-0.023764573 -0.072385274 0.51099998
-0.017870788 -0.075871684 0.51235718
-0.10488937 -0.17253949 0.52557129
-0.11089278 -0.16376628 0.52633339
-0.10716707 -0.16614079 0.52574581
-0.021701727 -0.16350834 0.52800018
-0.019315451 -0.16306569 0.5266667
-0.11083784 -0.15814102 0.52900004
-0.10991033 -0.15814102 0.52900004
-0.020711251 -0.1592465 0.52500004
-0.0193305 -0.1592465 0.52500004
-0.108619 -0.12012525 0.52500004
-0.10520735 -0.1143463 0.52545291
-0.10231978 -0.10740236 0.52869713
-0.095256113 -0.10410127 0.52516472
-0.085519031 -0.10148533 0.52122498
-0.079206616 -0.10020673 0.52075005
-0.052393112 -0.10162447 0.5222857
-0.047449868 -0.10262085 0.52297497
-0.093154639 -0.098669313 0.52820843
-0.084746964 -0.095871389 0.52541
-0.075400949 -0.09579277 0.52203751
-0.064449154 -0.094553813 0.52341175
-0.055344347 -0.095979653 0.52429873
-0.04885656 -0.098406352 0.52825016
-0.063998424 -0.089505039 0.52900004
-0.093307018 -0.19086598 0.53871435
-0.10112485 -0.18175481 0.53266674
-0.095852047 -0.18462476 0.53661424
-0.028067887 -0.1804094 0.53900003
-0.10194461 -0.17430599 0.5348292
-0.098880097 -0.17818969 0.53593338
-0.026750846 -0.17379507 0.53606391
-0.10400704 -0.16486944 0.53383946
-0.025926027 -0.16719817 0.53371751
-0.10640103 -0.1101181 0.53000003
-0.10632772 -0.10696086 0.53205276
-0.043091543 -0.10093213 0.53514284
-0.10046074 -0.097630858 0.53800005
-0.094589449 -0.094309978 0.5343014
-0.085887641 -0.091403723 0.53293556
-0.067852251 -0.09083084 0.53133333
-0.053743429 -0.092232183 0.53416067
-0.045801446 -0.095967397 0.53613925
-0.039219435 -0.097812332 0.53900003
-0.091772534 -0.089417808 0.53683335
-0.084479138 -0.087868787 0.53626084
-0.073503874 -0.085117765 0.53541189
-0.06498947 -0.086030066 0.5342682
-0.056993544 -0.087538294 0.53620517
-0.091366202 -0.19225301 0.54000002
-0.083916314 -0.19388783 0.54425001
-0.074979149 -0.19403677 0.54611677
-0.065138943 -0.1946283 0.54696643
-0.055592932 -0.19296086 0.54740328
-0.04528388 -0.19131111 0.54546142
-0.091911703 -0.18335247 0.54146355
-0.085691482 -0.18477117 0.54614151
-0.076702043 -0.18852548 0.54745454
-0.05280339 -0.18958719 0.54828578
-0.044119887 -0.18536167 0.5469197
-0.036139809 -0.18340391 0.54273593
-0.029824199 -0.1813122 0.54000002
-0.10130759 -0.17421119 0.54000002
-0.0953511 -0.17579639 0.54297978
-0.088715158 -0.17919242 0.54800004
-0.041230511 -0.17920031 0.54900002
-0.034681 -0.17590232 0.54475522
-0.029824199 -0.17705159 0.54000002
-0.10162444 -0.16569437 0.54385716
-0.099098459 -0.1687168 0.54235715
-0.03147281 -0.16526605 0.54551351
-0.0290325 -0.16358723 0.54430777
-0.030266039 -0.15997764 0.54800004
-0.028910536 -0.1591499 0.54780006
-0.108882 -0.106515 0.54000002
-0.10254468 -0.095078669 0.54215002
-0.098331399 -0.092035651 0.54090911
-0.042875201 -0.092470489 0.54243916
-0.038639534 -0.094178684 0.54360002
-0.093524881 -0.084611677 0.54462141
-0.085488543 -0.083304107 0.54181945
-0.075033903 -0.0816615 0.54000002
-0.064982586 -0.081507273 0.54235137
-0.0542758 -0.083990268 0.54309636
-0.046715122 -0.087088943 0.5458411
-0.091704302 -0.079219982 0.54766673
-0.084731467 -0.077947162 0.5457707
-0.073999844 -0.076199576 0.54711759
-0.065382831 -0.077265561 0.54642421
-0.058372896 -0.078235641 0.54527783
-0.041205671 -0.061407577 0.54866672
-0.039447591 -0.062058572 0.54875004
-0.070523448 -0.1903182 0.551
-0.065858625 -0.19089946 0.55043477
-0.059306499 -0.19045584 0.55000001
-0.082130067 -0.18177496 0.55157155
-0.074795216 -0.18483414 0.55372906
-0.064880602 -0.18525396 0.55448788
-0.055165607 -0.1848249 0.55345708
-0.048091516 -0.18282771 0.55142432
-0.093291968 -0.17287353 0.55290771
-0.085585319 -0.17638664 0.5544067
-0.076134309 -0.17802942 0.55697548
-0.063497342 -0.17971079 0.55900002
-0.053441063 -0.17881918 0.55791306
-0.044252429 -0.1754149 0.55485994
-0.038121801 -0.17190675 0.55189484
-0.10149322 -0.16452262 0.55253339
-0.096629158 -0.16644353 0.55430156
-0.08951994 -0.16974546 0.55800003
-0.041712448 -0.16798259 0.55713344
-0.036042731 -0.16474994 0.55417669
-0.10092536 -0.15908432 0.5575
-0.032584015 -0.15900242 0.55325001
-0.10246168 -0.0834345 0.55443329
-0.098117508 -0.082204707 0.55270833
-0.052149005 -0.081197254 0.55022222
-0.04364451 -0.083110124 0.55155563
-0.039041724 -0.081896447 0.55371428
-0.10198858 -0.078431174 0.55722225
-0.094481297 -0.075706497 0.55503905
-0.087507516 -0.073404349 0.55400002
-0.073857747 -0.071993686 0.55153662
-0.064747289 -0.072580427 0.55260378
-0.054731492 -0.074712045 0.55379832
-0.04500705 -0.07513164 0.55325043
-0.03824164 -0.074700505 0.55472744
-0.073212974 -0.068246491 0.5557
-0.053292967 -0.068346478 0.55589658
-0.044564012 -0.065972455 0.55279511
-0.03851131 -0.06758099 0.55258334
-0.067538403 -0.18073358 0.56
-0.083513394 -0.1724928 0.56296295
-0.074490607 -0.17364921 0.56305486
-0.065015927 -0.17459181 0.56402409
-0.055535972 -0.1744168 0.5634712
-0.048304785 -0.17228152 0.56156003
-0.093530618 -0.16392352 0.5640412
-0.085564189 -0.1678756 0.56661677
-0.075409234 -0.16865987 0.56731254
-0.063239224 -0.16979982 0.56800002
-0.051567104 -0.16823401 0.5672608
-0.044877019 -0.1652867 0.56578171
-0.038801271 -0.16231509 0.56228578
-0.10007472 -0.15725969 0.56233335
-0.0970053 -0.15749672 0.5649302
-0.040931568 -0.15904348 0.56800002
-0.037403509 -0.15936257 0.56280005
-0.11371841 -0.093389645 0.56643754
-0.1090775 -0.09130922 0.56300002
-0.065545075 -0.17087176 0.57075006
-0.058964599 -0.1703977 0.57000005
-0.09117081 -0.16195376 0.57062507
-0.084683776 -0.16325215 0.57332486
-0.07512819 -0.16526517 0.57430387
-0.064726904 -0.16652423 0.57531911
-0.055535953 -0.16470025 0.57429707
-0.047564294 -0.16163486 0.57333338
-0.092432931 -0.15620752 0.57392019
-0.088434555 -0.15812212 0.57672006
-0.051923309 -0.1588143 0.57877779
-0.046088044 -0.15840542 0.57539129
-0.082463942 -0.16069008 0.58066672
-0.074231729 -0.16184889 0.5828371
-0.065887012 -0.16189769 0.58239472
-0.058187872 -0.16029324 0.5812
-0.083939523 -0.15614773 0.58347702
-0.07511095 -0.15700243 0.58610922
-0.064784534 -0.15735134 0.58713847
-0.055248685 -0.15736029 0.58280003
-0.04915189 -0.15600249 0.58039999
-0.080442935 -0.15413904 0.59200001
-0.076443665 -0.15394692 0.59189469
-0.067757569 -0.15775616 0.59000003
