# .PCD v0.7 - Point Cloud Data file format
VERSION 0.7
FIELDS x y z
SIZE 4 4 4
TYPE F F F
COUNT 1 1 1
WIDTH 364
HEIGHT 1
VIEWPOINT 0 0 0 1 0 0 0
POINTS 364
DATA ascii
0.01990384 -0.14053318 0.68800002
0.0241885 -0.14131448 0.68788898
0.02352272 -0.13932689 0.68800002
-0.012491499 -0.14071175 0.69742858
-0.0091260998 -0.14054194 0.69400001
0.0060840668 -0.14054194 0.69400001
0.015561835 -0.14077263 0.69428581
0.027800193 -0.14143167 0.6919167
0.03577178 -0.14327291 0.69321454
0.042598195 -0.14328334 0.69610006
-0.011213443 -0.13863373 0.69766665
-0.0047954204 -0.13701753 0.69709098
0.005395792 -0.13539718 0.6968959
0.015071143 -0.13517521 0.69718677
0.023910612 -0.13676848 0.69615555
0.033617012 -0.1391114 0.6972
0.017745487 -0.12911372 0.69800001
0.055703402 -0.15039918 0.70600003
-0.025224878 -0.14336258 0.70644838
-0.01747819 -0.14152615 0.70190006
0.0092575997 -0.14256704 0.70400006
0.011710263 -0.14204329 0.70314282
0.038660999 -0.14052966 0.70000005
0.045296028 -0.14171089 0.70363164
0.050239574 -0.14389563 0.70749998
-0.021953488 -0.13683492 0.70694739
-0.014988478 -0.13460431 0.70327264
-0.0053229695 -0.13241181 0.70109785
0.0041320804 -0.13178714 0.70006663
0.013161592 -0.13277867 0.70011115
0.026035959 -0.13251145 0.70081264
0.034838628 -0.1345004 0.70316917
0.042904451 -0.1368684 0.70606256
-0.013010648 -0.12762062 0.70668191
-0.0045782658 -0.12557164 0.70625025
0.0049341973 -0.12525742 0.70388871
0.014773859 -0.12522991 0.70414102
0.024096554 -0.12628043 0.70543402
0.032841619 -0.12731935 0.7068001
0.05741141 -0.12374443 0.70682615
0.064040579 -0.12423644 0.70627451
0.072484389 -0.12228026 0.70668751
0.0048964759 -0.11965331 0.70800006
0.0124136 -0.11979124 0.708
0.058984142 -0.11805644 0.70400006
0.066081241 -0.11531077 0.70514286
0.074325964 -0.11498339 0.70627075
0.067617334 -0.10679352 0.70654172
0.074743956 -0.10658994 0.70727295
0.080067717 -0.108619 0.708
0.057824932 -0.15032642 0.71300006
0.061599858 -0.15022823 0.71700001
-0.033459395 -0.1441115 0.71360528
-0.028025802 -0.14137179 0.71039999
0.048861019 -0.14129236 0.71000004
0.055273294 -0.14491203 0.71468741
0.061414011 -0.14833726 0.71850008
-0.032111548 -0.13678724 0.71685708
-0.026044408 -0.13398692 0.71328288
-0.019295434 -0.13008857 0.71000004
0.0392133 -0.13008857 0.71000004
0.045914847 -0.13328066 0.71109998
0.054584529 -0.13452174 0.71231031
0.061344258 -0.13271661 0.71000004
-0.023248848 -0.12586738 0.71664995
-0.015878387 -0.12371878 0.71223068
-0.0063021374 -0.12114107 0.71000004
0.01576831 -0.12012964 0.71000004
0.025961414 -0.12162796 0.71021754
0.036004212 -0.12365436 0.71210426
0.044513393 -0.12607339 0.71550953
0.053347353 -0.12701447 0.71211553
-0.013832119 -0.11801042 0.71700001
-0.0050627766 -0.11514902 0.71444601
0.0050084102 -0.11490516 0.7128253
0.014998095 -0.11497847 0.71284384
0.02508134 -0.11500917 0.71410584
0.034057919 -0.11653815 0.71619034
-0.0029787379 -0.10898703 0.71806663
0.0046663452 -0.1083925 0.71813768
0.015318083 -0.1081955 0.71741915
0.023364263 -0.10871664 0.717875
0.0672106 -0.10170298 0.71038461
0.074693061 -0.10171018 0.71026087
0.067263842 -0.095310636 0.71491897
0.074177042 -0.095229037 0.71378845
0.068684071 -0.087850705 0.71776927
0.07349629 -0.087943785 0.71654534
0.066895805 -0.15189967 0.72671431
-0.041561425 -0.14424241 0.72670603
-0.038527675 -0.14323455 0.7224167
0.059098732 -0.14316317 0.72100002
0.063593142 -0.14471534 0.72535294
-0.040831849 -0.13908251 0.72775006
-0.035422679 -0.13492937 0.72435486
0.058701601 -0.13949519 0.72000003
0.064641893 -0.13867463 0.7280001
-0.032394495 -0.12698646 0.72600001
-0.027774354 -0.12368919 0.72261292
0.046889033 -0.12203876 0.72217655
0.052004512 -0.12280884 0.72389483
-0.02360836 -0.11583921 0.72492862
-0.015654441 -0.1138699 0.7218889
-0.0094680004 -0.11046 0.72000003
0.0296664 -0.11046 0.72000003
0.036593042 -0.11303596 0.72157699
0.044602815 -0.11490312 0.7252295
0.050720647 -0.11834759 0.72775006
-0.021486515 -0.108709 0.72799999
-0.014805423 -0.10629857 0.72594452
-0.005585717 -0.10414104 0.72331148
0.0052916999 -0.10338137 0.72188622
0.015016253 -0.10325427 0.7217316
0.025851563 -0.10392118 0.72277957
0.034957625 -0.10485334 0.72492051
0.041278861 -0.10695131 0.72784621
-0.0029886486 -0.097783357 0.72752637
0.0052022678 -0.096698217 0.72689575
0.014891271 -0.096778728 0.72610873
0.024588067 -0.097996786 0.72759092
0.033399832 -0.098710328 0.7280001
0.068334639 -0.084786162 0.72175008
0.07025782 -0.084182791 0.72200006
-0.044157699 -0.15039216 0.73000002
-0.044508304 -0.14523415 0.73153329
0.065832548 -0.14313622 0.73015374
-0.042082138 -0.13412498 0.73452181
-0.038251083 -0.13269804 0.73124999
0.0652766 -0.13887277 0.73000002
-0.041594181 -0.12887599 0.73750001
-0.036161669 -0.12461103 0.73384994
0.056978945 -0.12219886 0.73300004
0.060864687 -0.1215956 0.73700011
-0.032328151 -0.1160109 0.73609108
-0.027356822 -0.11320759 0.73186362
0.049277436 -0.11199417 0.73000002
0.054531153 -0.11533769 0.73411107
0.060687423 -0.11865579 0.73800004
-0.030449264 -0.10883992 0.73900002
-0.024553059 -0.10513839 0.73525006
-0.016797079 -0.10176788 0.73061097
0.045845874 -0.10435729 0.7323333
0.052019387 -0.10571127 0.73710001
-0.021362789 -0.097746402 0.73839998
-0.014544338 -0.095500462 0.73538917
-0.0058293487 -0.093772016 0.7314893
0.0049251518 -0.091464944 0.73004323
0.016053353 -0.091932967 0.73019212
0.025349177 -0.09337876 0.73097211
0.035109345 -0.094264567 0.73301864
0.043669596 -0.096453793 0.73591429
0.066513292 -0.091347784 0.73900002
-0.011006111 -0.089343295 0.7385
-0.0046572131 -0.087159812 0.73676932
0.0052806302 -0.085225292 0.73530668
0.015105058 -0.08506915 0.73482722
0.024593994 -0.08529716 0.7361604
0.033349384 -0.087829657 0.73776019
0.06430769 -0.087233797 0.73559093
0.0071264231 -0.079686366 0.73900002
0.018787844 -0.079686366 0.73900002
0.022674983 -0.079686366 0.73900002
-0.054528374 -0.18247882 0.7482
-0.053754181 -0.17858043 0.74677783
-0.04561507 -0.13242611 0.74120009
-0.04253896 -0.12521121 0.74289477
-0.039127912 -0.12128244 0.74140006
0.06387832 -0.12061092 0.741
-0.040786743 -0.11579925 0.74800003
-0.037299886 -0.11449225 0.7432121
0.057969023 -0.11292344 0.74145466
0.063639268 -0.11508225 0.74482864
-0.033748854 -0.1056 0.74520928
-0.027944889 -0.10202972 0.74130011
0.056767158 -0.10496704 0.74469239
0.06098444 -0.10885307 0.74800003
-0.03172306 -0.098230503 0.7486667
-0.025264587 -0.094829127 0.744654
-0.017380247 -0.09112303 0.74112511
0.046328429 -0.093003385 0.74188465
0.054662909 -0.094861783 0.74569654
0.063058741 -0.093755215 0.74479169
-0.022746196 -0.08719413 0.74784619
-0.015071891 -0.084669411 0.74372733
-0.0058132298 -0.08213982 0.7416665
0.00129922 -0.081201248 0.74100006
0.028460806 -0.08122281 0.74120009
0.03585216 -0.083279856 0.74231094
0.044648077 -0.08567965 0.74587256
0.054405957 -0.087460019 0.74435467
0.060413729 -0.088996567 0.74100006
-0.013020001 -0.077830598 0.74785709
-0.0047775735 -0.075292431 0.74640763
0.0049404218 -0.074691802 0.74333864
0.015048118 -0.07516022 0.74291378
0.024794912 -0.074659072 0.74367666
0.034477256 -0.07513874 0.74637282
0.040929522 -0.077919297 0.74900001
0.066126242 -0.19297084 0.75500005
-0.051157508 -0.1838152 0.75228578
-0.049307995 -0.18503051 0.75571436
0.06752307 -0.18555675 0.7541666
0.070352502 -0.1873875 0.75000006
-0.050762508 -0.17931691 0.75200003
-0.049444001 -0.17931691 0.75200003
0.069017336 -0.17918104 0.75700003
-0.045890726 -0.12273066 0.7549445
-0.044340663 -0.11541083 0.75482345
0.066484652 -0.11138824 0.75333339
-0.041002177 -0.10722239 0.7554546
-0.037458096 -0.10314615 0.75133336
0.059832498 -0.1019125 0.75000006
0.064285345 -0.10575679 0.75452942
-0.034846015 -0.095141143 0.75392848
-0.02925875 -0.091063745 0.75000006
0.059832498 -0.098624997 0.75000006
0.062759519 -0.098809443 0.75040007
-0.032032087 -0.088125169 0.75725007
-0.026136965 -0.084129021 0.75328571
0.048159771 -0.081932299 0.75250006
0.053437054 -0.082701556 0.7541818
-0.042471871 -0.20022453 0.76900005
0.055931803 -0.20284048 0.76869231
-0.050246149 -0.19415765 0.76420003
-0.045072291 -0.19420549 0.76595664
0.058241542 -0.19540671 0.76638454
0.062418159 -0.19409847 0.76149988
-0.045738105 -0.18511786 0.76619995
0.05934741 -0.1856714 0.76783341
0.063313879 -0.18452531 0.76294434
-0.047289789 -0.17845617 0.76763648
0.059999943 -0.17999983 0.76900005
0.064890221 -0.17720689 0.76479304
-0.050930124 -0.12204392 0.76240003
-0.050647076 -0.11576397 0.76183337
-0.047403634 -0.11294484 0.76158339
-0.043616228 -0.10472348 0.76643479
0.067407601 -0.1021748 0.7628001
-0.043730035 -0.094772674 0.76733333
-0.038300838 -0.092408121 0.76200008
-0.042989805 -0.089346543 0.76860005
0.048425313 -0.21075241 0.77800006
0.051022001 -0.21021064 0.77600002
-0.034234803 -0.20335528 0.7759667
-0.029328007 -0.20188582 0.77800006
0.048548147 -0.20594221 0.77741176
0.052455701 -0.20358947 0.77410001
-0.035971034 -0.19619165 0.77507919
-0.029328007 -0.19915763 0.77800006
0.04978941 -0.19847558 0.77800006
0.053868022 -0.19454625 0.77458358
-0.041013896 -0.18250088 0.77390915
-0.039019886 -0.18764514 0.77412504
0.056942344 -0.18620643 0.77604997
-0.043552853 -0.17674151 0.77558821
0.059338059 -0.17937827 0.77800006
0.061399978 -0.17785579 0.7753334
-0.04637279 -0.10271315 0.77300012
-0.046637788 -0.098682858 0.77100003
-0.030771 -0.2112942 0.78000003
-0.024234749 -0.21129158 0.78100002
-0.014440875 -0.21266684 0.78474212
-0.0053001954 -0.21358223 0.78875738
0.0048861732 -0.21469626 0.78893518
0.014487063 -0.21580724 0.78899974
0.024973378 -0.21456805 0.78765213
0.034654252 -0.21249291 0.78171444
0.042880315 -0.21129149 0.78090918
-0.030771 -0.20582379 0.78000003
-0.024798086 -0.20501676 0.78207129
-0.015369104 -0.20572507 0.78651851
-0.0059177927 -0.20804499 0.78899986
0.00069169002 -0.20958208 0.78900003
0.027817158 -0.20660777 0.78779989
0.035076533 -0.20496894 0.78460735
0.043764427 -0.20426631 0.78118193
-0.032627657 -0.19303018 0.78131825
-0.026411731 -0.19573544 0.78480011
-0.01729225 -0.19989841 0.78900003
0.037389364 -0.19843705 0.78869236
0.045647155 -0.1953176 0.7852143
0.051101424 -0.19112156 0.78140002
-0.035030041 -0.18499409 0.78425491
-0.028310783 -0.18793468 0.78766674
0.048467495 -0.18718754 0.78855562
0.053345229 -0.18418168 0.78402245
-0.041473228 -0.17462513 0.78240001
-0.037346125 -0.1758958 0.78685713
0.05621 -0.17585455 0.78571796
0.061581228 -0.17516437 0.78050005
-0.038042951 -0.16946405 0.78900003
0.051055312 -0.16903448 0.78700006
0.0078161089 -0.2122222 0.79000002
0.013851332 -0.21164834 0.79000002
0.022162134 -0.21123283 0.79000002
-0.013020253 -0.20084433 0.79000002
-0.0042486931 -0.20358752 0.79274428
0.0049396763 -0.20519985 0.7938388
0.014602089 -0.20512591 0.79320657
0.023266366 -0.20424934 0.79204667
0.031858064 -0.20015177 0.79000002
-0.021938177 -0.19382985 0.79161549
-0.014831246 -0.19521436 0.79430211
-0.0054805828 -0.19755422 0.79715407
0.0047221649 -0.19815603 0.7980001
0.014821364 -0.19792619 0.79750019
0.025422147 -0.19713272 0.79551357
0.034715801 -0.19416472 0.79364723
0.041677311 -0.19190058 0.79088897
-0.031653509 -0.18137415 0.79066664
-0.025216116 -0.18500456 0.794182
-0.017256306 -0.1891198 0.79800004
0.03753816 -0.18713576 0.79740012
0.04452493 -0.18459858 0.79342234
-0.032817818 -0.17465989 0.79335505
-0.027821019 -0.17825806 0.7974
0.047331091 -0.17686848 0.79544014
0.051352441 -0.17517501 0.79076922
-0.036820587 -0.1697852 0.79266667
-0.011455111 -0.19099645 0.80000001
-0.0046539488 -0.19301973 0.80137479
0.0049932087 -0.19402108 0.80217487
0.014683046 -0.19342285 0.80183315
0.024064597 -0.19250128 0.80129629
0.031279467 -0.1906224 0.80000001
-0.022091528 -0.18219541 0.80100006
-0.014492876 -0.18473899 0.80302048
-0.0052215038 -0.18602291 0.80578268
0.00476705 -0.18665537 0.80575007
0.015110916 -0.18600272 0.80610627
0.024597557 -0.18480663 0.80423653
0.033973072 -0.18396144 0.80154979
0.040727302 -0.18046796 0.801
-0.031585131 -0.17126793 0.80066675
-0.024098465 -0.17443006 0.80366665
-0.015495321 -0.17610374 0.80690902
0.025558079 -0.17784691 0.80760002
0.035411298 -0.17637259 0.80679071
0.043442387 -0.17441182 0.80273676
-0.031858068 -0.16890414 0.80166668
-0.024143171 -0.16790897 0.80636847
-0.019117469 -0.16686796 0.80766672
0.029078156 -0.16808593 0.80900002
0.03617039 -0.16950437 0.80900002
-0.0034257739 -0.1817272 0.81118178
0.0052897683 -0.18170077 0.81169569
0.013511889 -0.18162781 0.81119996
-0.012613559 -0.17227496 0.81172729
-0.0051563424 -0.17531161 0.81320006
0.0050388412 -0.17463419 0.8167457
0.015009316 -0.1752838 0.8140372
0.024292354 -0.17354614 0.81142455
0.032322094 -0.17309548 0.81099993
-0.014665006 -0.16790281 0.81138092
-0.0046431771 -0.16766773 0.81630003
0.0048901262 -0.16681738 0.81827277
0.014768982 -0.16855802 0.81687516
0.024824571 -0.16882624 0.81257147
0.031709559 -0.16935465 0.81100005
0.0031188875 -0.16434139 0.82100004
0.01943307 -0.1677002 0.82100004
0.020872556 -0.1677002 0.82100004
0.07706514 -0.20052435 0.89700007
0.077937417 -0.19917341 0.89800006
