# .PCD v0.7 - Point Cloud Data file format
VERSION 0.7
FIELDS x y z
SIZE 4 4 4
TYPE F F F
COUNT 1 1 1
WIDTH 410
HEIGHT 1
VIEWPOINT 0 0 0 1 0 0 0
POINTS 410
DATA ascii
-0.017957639 -0.10026349 0.56900001
-0.081751116 -0.093816966 0.56822228
-0.074718833 -0.0922556 0.56633335
-0.06540551 -0.09152434 0.56393546
-0.055947248 -0.091173336 0.56169236
-0.044633511 -0.090690628 0.56337506
-0.034269173 -0.09188731 0.56399995
-0.025750481 -0.094753645 0.56790257
-0.018955287 -0.098767027 0.56900001
-0.072966784 -0.088150844 0.56762969
-0.064984299 -0.086367622 0.56606579
-0.054906607 -0.085266039 0.56515664
-0.045145303 -0.085971519 0.56604409
-0.035336133 -0.087488674 0.56629103
-0.029142372 -0.089170806 0.56825006
-0.012863064 -0.10187072 0.57513046
-0.0081767533 -0.10341738 0.57785714
-0.092237957 -0.095132232 0.57722741
-0.085963689 -0.092845954 0.57339591
-0.079591691 -0.09060438 0.57100004
-0.022899898 -0.092838064 0.57185358
-0.015786771 -0.095401891 0.57487959
-0.0089463834 -0.09908963 0.5776667
-0.082937472 -0.087016501 0.57611632
-0.075348571 -0.084041983 0.57338154
-0.065402605 -0.081664383 0.5708437
-0.055447735 -0.080645211 0.57072735
-0.043559153 -0.081324138 0.57116669
-0.03464615 -0.082703434 0.57275403
-0.026028855 -0.086267635 0.57511598
-0.018004159 -0.088606574 0.57800001
-0.072786629 -0.07855086 0.57847375
-0.064024344 -0.077811338 0.57664448
-0.054792657 -0.076675087 0.57570899
-0.045356192 -0.077192187 0.57622081
-0.036038309 -0.078514233 0.57781482
-0.1154485 -0.13193209 0.58580005
-0.11532937 -0.12697822 0.58380944
-0.0033453596 -0.10418592 0.58407545
0.004522006 -0.10337535 0.58896977
0.012946815 -0.10258289 0.58892304
-0.10074828 -0.099031769 0.58733332
-0.095301345 -0.093597859 0.58424997
-0.012108225 -0.092737496 0.58088893
-0.0064741042 -0.095900126 0.58468884
0.0090020038 -0.098454148 0.58866668
0.015692402 -0.09550672 0.58730787
0.021987388 -0.093989313 0.58854842
-0.092046291 -0.087871514 0.5865556
-0.08589109 -0.084135205 0.58345842
-0.07953617 -0.081231639 0.58033341
-0.023674518 -0.082427636 0.58161539
-0.015730031 -0.085348859 0.58448392
-0.0094294259 -0.089660786 0.58666664
0.019040324 -0.089026377 0.58700001
0.021678286 -0.088087104 0.58875006
-0.08223933 -0.0782483 0.58675003
-0.075007834 -0.074730508 0.58498657
-0.065555602 -0.073400848 0.58186376
-0.05537679 -0.071436532 0.58165014
-0.044345979 -0.07210172 0.58174467
-0.034507655 -0.073710412 0.58353847
-0.025835495 -0.076397471 0.5857355
-0.01907276 -0.0798994 0.588
-0.072509497 -0.06918361 0.58844447
-0.064319715 -0.067359433 0.58712769
-0.054857697 -0.066529274 0.58609843
-0.045357306 -0.067125671 0.58582133
-0.035812635 -0.068269603 0.58793932
-0.02943233 -0.069708146 0.58900005
-0.1167115 -0.14317507 0.597
-0.11485901 -0.13684966 0.59156001
0.0055105514 -0.11114679 0.59300005
0.0058020605 -0.10556553 0.59083998
0.015782256 -0.10440756 0.59021437
0.02191563 -0.10184803 0.59136367
-0.10253927 -0.094259456 0.59405553
-0.098608933 -0.092655428 0.59180003
-0.0037421475 -0.094249137 0.59543496
0.0029182851 -0.099012755 0.59200007
0.018620402 -0.09982603 0.59000003
0.025627676 -0.095278218 0.5911206
0.031631246 -0.092437319 0.59327269
-0.1013151 -0.087563902 0.59811115
-0.09525688 -0.084893487 0.59372407
-0.088448733 -0.081386782 0.59063643
-0.013128143 -0.082474753 0.59119999
-0.0072845588 -0.08641576 0.59495753
0.026539588 -0.085129887 0.59214687
0.031277157 -0.085986502 0.5941053
-0.091957584 -0.077211797 0.59647626
-0.085354306 -0.074288361 0.59330684
-0.078450762 -0.071426906 0.59088892
-0.023072427 -0.07266067 0.59245217
-0.015735088 -0.075352557 0.59455854
-0.0099523589 -0.079617552 0.59750003
0.028016126 -0.077675082 0.59755999
0.031290535 -0.07842122 0.59737504
-0.083633766 -0.068407103 0.59690922
-0.074623667 -0.065162949 0.59434253
-0.06575042 -0.062759496 0.59299999
-0.054961499 -0.062045369 0.59144425
-0.044494092 -0.062500559 0.5919534
-0.034730576 -0.063561164 0.59383363
-0.025926528 -0.066522963 0.59607822
-0.017045248 -0.069228977 0.59825003
-0.071416773 -0.059338935 0.59900004
-0.063871205 -0.058182951 0.59760612
-0.054961592 -0.057419274 0.596268
-0.045076121 -0.058153246 0.59675002
-0.037067048 -0.058659926 0.59780002
-0.11298618 -0.15309416 0.60647064
-0.10932881 -0.15358236 0.60900003
0.0069075483 -0.15291162 0.60633343
-0.11389392 -0.14589998 0.60259622
-0.1093576 -0.1472331 0.6085
0.0084721074 -0.14932087 0.60400003
-0.00084212597 -0.092878968 0.6006
0.0024314036 -0.094757065 0.60532147
-0.10245289 -0.084364973 0.60664719
-0.0040551256 -0.084222332 0.60442853
0.00053323247 -0.087448597 0.60825002
-0.093195178 -0.072819911 0.60582358
-0.089946002 -0.072062001 0.60000002
-0.011165841 -0.074564621 0.60370004
-0.0068314685 -0.076166011 0.60674995
0.026910894 -0.072579324 0.60188001
0.030408718 -0.072974391 0.60325009
-0.090761304 -0.069939591 0.60900003
-0.084466934 -0.06436006 0.60520005
-0.077979006 -0.061777949 0.60157144
-0.023996146 -0.06248872 0.60276318
-0.016382828 -0.065697834 0.60538298
-0.0090761296 -0.069939591 0.60900003
0.027683856 -0.068993188 0.60836363
0.030888692 -0.068167187 0.60750008
-0.080617391 -0.058727901 0.60900003
-0.07417284 -0.056391638 0.60508931
-0.065388158 -0.053454861 0.60401624
-0.054907184 -0.052275088 0.60210651
-0.045101967 -0.053052273 0.60200018
-0.034687132 -0.05441976 0.60485196
-0.026475292 -0.056815363 0.60673916
-0.064190283 -0.049323399 0.60871428
-0.054976586 -0.048312478 0.6080001
-0.044861767 -0.048512477 0.60811543
-0.037906189 -0.049651768 0.60900003
-0.1056471 -0.1706607 0.61800003
-0.0046647433 -0.17104346 0.61860001
-0.10497379 -0.1650202 0.61754757
-0.001947304 -0.16562273 0.617926
0.0017634947 -0.16358916 0.61531824
-0.11075719 -0.15534736 0.61033338
-0.10686503 -0.15481012 0.61226827
-0.001084875 -0.15839109 0.61875004
0.0030015504 -0.15483125 0.61519998
-0.11146986 -0.14242487 0.61252946
-0.10788544 -0.14547406 0.61446154
0.0045002224 -0.14922737 0.61600006
-0.11164953 -0.13750066 0.616
-0.10915341 -0.13825348 0.61700004
0.0048289308 -0.091778353 0.6117143
-0.10220365 -0.082136318 0.61037505
-0.098931834 -0.082888834 0.61000001
-0.00089215446 -0.082308188 0.611
0.0026630592 -0.085741423 0.61439478
-0.096053265 -0.071994029 0.61073339
-0.0034035405 -0.074182495 0.61529267
0.00054221833 -0.078079008 0.61849999
-0.093237735 -0.065384671 0.61490208
-0.087938637 -0.062186215 0.6119231
-0.012683514 -0.063444056 0.61323267
-0.0066907625 -0.066630267 0.61746335
0.02541 -0.064945318 0.61284214
-0.090936631 -0.058034163 0.61866665
-0.084425457 -0.055441227 0.61478794
-0.077043727 -0.052621834 0.61170012
-0.023639699 -0.052839827 0.61356246
-0.016417133 -0.056402903 0.61556667
-0.081129946 -0.048966799 0.61833334
-0.074083753 -0.046680577 0.61599988
-0.065073214 -0.044712167 0.6139999
-0.055154115 -0.043350101 0.61342192
-0.044842582 -0.043761265 0.61330402
-0.035005525 -0.045227196 0.61433327
-0.026445305 -0.047125116 0.61693174
-0.061961375 -0.039182946 0.61862499
-0.055191465 -0.038406152 0.6183334
-0.045619104 -0.03918976 0.61842865
-0.037985966 -0.039613936 0.61900002
-0.090898499 -0.18041976 0.62650001
-0.0894197 -0.18085839 0.62833333
-0.030304175 -0.18513052 0.62849998
-0.028122589 -0.18472682 0.62900001
-0.019269133 -0.18002875 0.62800002
-0.10220474 -0.17247003 0.62317401
-0.094830416 -0.17480789 0.62665313
-0.089568242 -0.17567794 0.62890917
-0.020402662 -0.17921259 0.62900001
-0.014343362 -0.1753756 0.62687486
-0.0080367541 -0.17200288 0.62206674
-0.10177597 -0.1642611 0.62237155
-0.096239731 -0.16645786 0.62732142
-0.089882001 -0.16928697 0.62900001
-0.011223491 -0.16732195 0.62800002
-0.0064556245 -0.16478629 0.62379318
-0.10352348 -0.15560192 0.62444448
-0.099396646 -0.15861651 0.62780005
-0.0023242079 -0.15511903 0.62362498
0.001311844 -0.15130512 0.62400001
-0.10587052 -0.14641726 0.6265626
-0.0012866544 -0.1490681 0.62900001
0.0009169933 -0.14883053 0.62800002
-0.11094812 -0.13378197 0.6234445
-0.1089875 -0.13750021 0.62544441
0.0051119225 -0.084297232 0.62254548
-0.0009065707 -0.072378673 0.62077779
0.0034122979 -0.07394053 0.62671107
0.016243152 -0.071798295 0.62818748
0.022610804 -0.072587974 0.62529159
-0.096111774 -0.062368166 0.62079996
-0.0037711204 -0.063902766 0.62507331
0.00545946 -0.066677466 0.62814587
0.015000693 -0.065802306 0.62452948
0.021525474 -0.06656415 0.62231821
-0.092700355 -0.055856682 0.62569231
-0.088087469 -0.052076295 0.62230778
-0.012782347 -0.053132597 0.62245959
-0.0070519885 -0.057067089 0.62521869
-0.090984851 -0.049076676 0.62900001
-0.084199637 -0.04628237 0.62516671
-0.076546974 -0.042240635 0.62322587
-0.067978777 -0.040786918 0.62033337
-0.032102365 -0.04080883 0.62066668
-0.02393806 -0.043083075 0.62473232
-0.016444549 -0.046306122 0.62624013
-0.083619751 -0.18167211 0.6310001
-0.074611686 -0.18344128 0.63373482
-0.065210052 -0.18303846 0.63540655
-0.056012657 -0.18405257 0.63649982
-0.044951893 -0.18419495 0.6374073
-0.03532606 -0.18320498 0.6346035
-0.026165325 -0.18199673 0.63127583
-0.090024896 -0.17507909 0.63000005
-0.084664807 -0.17480868 0.63280255
-0.075932138 -0.17667463 0.63490391
-0.066270091 -0.178479 0.63694739
-0.059846528 -0.17953958 0.63800001
-0.033631727 -0.17791232 0.63668752
-0.024533227 -0.17598087 0.63456011
-0.017685028 -0.17215872 0.63251865
-0.093267418 -0.16327028 0.6326136
-0.08829996 -0.16581228 0.63568968
-0.021067468 -0.16909905 0.63800001
-0.014501313 -0.16564059 0.63503838
-0.0085690273 -0.16068512 0.63277787
-0.10201963 -0.15290147 0.63086671
-0.09544199 -0.15564029 0.6357975
-0.010626953 -0.15940429 0.63800001
-0.0058629792 -0.15546164 0.63495231
-0.10336804 -0.14393298 0.63339144
-0.099235065 -0.14807689 0.63633341
-0.0018699815 -0.14778681 0.63588244
0.0018942576 -0.14443587 0.6356501
-0.11092463 -0.13289438 0.63236368
-0.10654554 -0.13536908 0.63418365
-0.11060552 -0.12783554 0.634
-0.10814227 -0.12826091 0.63492858
0.0094934236 -0.091025174 0.63700002
0.011172897 -0.09106046 0.63725007
0.0083541954 -0.085835926 0.63490003
0.012068259 -0.088083357 0.63684618
0.0066766944 -0.075498708 0.63106668
0.013752783 -0.074226774 0.63103443
-0.0013817362 -0.061667036 0.63087505
0.0032338414 -0.062841401 0.63254172
-0.095716104 -0.05347437 0.63110352
-0.0104937 -0.0502593 0.63000005
-0.0046901675 -0.053226981 0.63308102
-0.053983733 -0.18251261 0.64022732
-0.045834474 -0.18250716 0.6401906
-0.039461687 -0.18608712 0.64000005
-0.081915736 -0.17000321 0.64000005
-0.074208848 -0.17322782 0.6414808
-0.064520516 -0.17436105 0.64365065
-0.054871868 -0.17478184 0.64526242
-0.044982288 -0.17454652 0.64416832
-0.035883836 -0.17356743 0.64216906
-0.026794102 -0.17186931 0.64084613
-0.083975762 -0.1643676 0.64234245
-0.075667359 -0.16651644 0.64516664
-0.066371128 -0.16855855 0.64755994
-0.055188797 -0.16898012 0.64900005
-0.04491777 -0.16936938 0.64855558
-0.03336262 -0.1683946 0.64740741
-0.024603561 -0.1661981 0.64496839
-0.016917916 -0.1625168 0.64261538
-0.092516914 -0.15219335 0.64379996
-0.086916707 -0.1577328 0.64578378
-0.021051396 -0.15987682 0.64900005
-0.01402327 -0.15636265 0.64608914
-0.0082112774 -0.15263836 0.6429131
-0.10069641 -0.14187229 0.64050001
-0.096989311 -0.14560963 0.64491224
-0.0044531468 -0.14494339 0.64425462
0.00084160001 -0.14166932 0.64000005
-0.10321294 -0.13492192 0.64607692
-0.098757662 -0.13856448 0.64866668
-0.00170161 -0.13833201 0.64645445
0.001062033 -0.13806731 0.64166665
-0.1066874 -0.12587602 0.64724255
-0.080346502 -0.16012317 0.65000004
-0.073643535 -0.16235378 0.65149993
-0.064644456 -0.16389427 0.65392214
-0.055047795 -0.16484351 0.65443015
-0.045092862 -0.16463885 0.65497786
-0.035474282 -0.16378017 0.65398693
-0.026646543 -0.16221762 0.65181488
-0.090603501 -0.1521455 0.65000004
-0.084166646 -0.15389316 0.6527577
-0.075951584 -0.15632808 0.65616441
-0.066853411 -0.15893123 0.65821427
-0.041018356 -0.15887392 0.65900004
-0.033727657 -0.1584603 0.65842855
-0.024074174 -0.15690559 0.65553862
-0.016643075 -0.15278797 0.65320587
-0.092826113 -0.14434437 0.65356863
-0.087511919 -0.14778222 0.65646672
-0.013602754 -0.14704232 0.65585005
-0.0082192821 -0.14320885 0.65289295
-0.10095632 -0.13193981 0.65210003
-0.096667863 -0.13564137 0.65449023
-0.0062485873 -0.1383931 0.65540004
-0.10307407 -0.12477304 0.65368301
-0.099560983 -0.1296026 0.65900004
-0.060845051 -0.16051504 0.66100001
-0.054084491 -0.16051506 0.66100001
-0.080974199 -0.15054645 0.66133338
-0.073235735 -0.152348 0.66302776
-0.064830907 -0.15463114 0.66471434
-0.054997914 -0.15643491 0.66490304
-0.045195453 -0.15581226 0.66437286
-0.035195045 -0.15421098 0.66375798
-0.025925912 -0.15260816 0.66235554
-0.091046654 -0.14149882 0.66150004
-0.084806114 -0.14417648 0.66301805
-0.078230411 -0.14696887 0.6663751
-0.069687985 -0.14933141 0.66800004
-0.031623118 -0.14933141 0.66800004
-0.023427544 -0.14769997 0.66576654
-0.016095839 -0.14365599 0.66418189
-0.093176141 -0.13433419 0.66441023
-0.087216601 -0.1372752 0.66675007
-0.013022462 -0.13751501 0.66660005
-0.0094528953 -0.13649148 0.66430765
-0.10080768 -0.12488382 0.66115391
-0.097541973 -0.12726553 0.66470003
-0.061572462 -0.15091839 0.67050004
-0.054962255 -0.15134329 0.67065507
-0.044830982 -0.15110271 0.67066664
-0.037759677 -0.1507434 0.67037505
-0.0809635 -0.14136232 0.67020005
-0.074266128 -0.14420798 0.67214072
-0.065480068 -0.14642045 0.67412883
-0.055066939 -0.14647862 0.67517245
-0.044719297 -0.14634316 0.67546284
-0.03544363 -0.14264485 0.67718899
-0.025423121 -0.14372793 0.67326313
-0.019010225 -0.14091189 0.67066669
-0.091435708 -0.13089798 0.67042863
-0.08435002 -0.13425972 0.67257625
-0.076268487 -0.13808437 0.67662066
-0.06954246 -0.1396793 0.67800003
-0.030953348 -0.13988532 0.67900002
-0.023435891 -0.13783385 0.67782617
-0.01691428 -0.13509539 0.67395246
-0.093759142 -0.12467187 0.67338341
-0.088043019 -0.12728991 0.67630005
-0.093592763 -0.11969639 0.67659998
-0.064216949 -0.14191252 0.68065524
-0.0546459 -0.1418934 0.68166667
-0.045981832 -0.14179792 0.68115401
-0.082120292 -0.13143376 0.68044448
-0.074894838 -0.13391463 0.68367809
-0.06533055 -0.13700348 0.68522012
-0.055266503 -0.1378185 0.68620527
-0.044753268 -0.13730066 0.68518764
-0.034419145 -0.13586615 0.6847834
-0.025935197 -0.13407537 0.68329108
-0.019388799 -0.1315434 0.68050003
-0.090104379 -0.12113255 0.68066669
-0.084411882 -0.12469514 0.6839698
-0.077820159 -0.12863088 0.68724996
-0.025141209 -0.12730975 0.68667573
-0.019146547 -0.1286393 0.68250006
-0.090280883 -0.11897945 0.68200004
-0.086318545 -0.11921906 0.68644452
-0.071667001 -0.13114433 0.69028574
-0.064775273 -0.13211912 0.6913237
-0.054915529 -0.13302597 0.691778
-0.04526164 -0.13242687 0.69334167
-0.036396749 -0.13162431 0.69189996
-0.080893837 -0.12184498 0.69033337
-0.074633449 -0.12447328 0.69358462
-0.065423161 -0.12588105 0.69641924
-0.055269066 -0.12813444 0.69690007
-0.044729844 -0.12710647 0.69742125
-0.035744 -0.12637022 0.69387525
-0.029640099 -0.127029 0.69000006
-0.082987078 -0.11791547 0.69166666
