# .PCD v0.7 - Point Cloud Data file format
VERSION 0.7
FIELDS x y z
SIZE 4 4 4
TYPE F F F
COUNT 1 1 1
WIDTH 361
HEIGHT 1
VIEWPOINT 0 0 0 1 0 0 0
POINTS 361
DATA ascii
-0.0019924131 -0.14514256 0.63642865
0.001451234 -0.14499032 0.63660002
0.026786827 -0.14399908 0.63731593
0.034812 -0.14403352 0.63449997
0.0441093 -0.14608121 0.63620836
-0.0020817493 -0.14360456 0.6474762
0.0049402406 -0.1428823 0.64478189
0.015202819 -0.14248455 0.64242232
0.025055187 -0.14174034 0.64121211
0.034869306 -0.14142783 0.64145845
0.045505781 -0.14318034 0.64525992
0.054108363 -0.14549236 0.6479792
0.060878363 -0.14849769 0.64900005
0.0063867904 -0.13785999 0.64781249
0.015548716 -0.13638747 0.64692527
0.025301876 -0.13609199 0.64570171
0.034331195 -0.13594602 0.64643657
0.044347554 -0.13693747 0.64776361
0.050637145 -0.1376875 0.64900005
-0.015354944 -0.15106747 0.65557152
0.066836625 -0.15201278 0.6540556
0.071412385 -0.15436564 0.65824997
-0.013387555 -0.14645156 0.65667504
-0.0071123964 -0.14410046 0.65234691
0.056874428 -0.14223735 0.65044439
0.064589813 -0.14567071 0.65501559
0.075104035 -0.14500856 0.65899998
0.083076611 -0.14169627 0.65900004
-0.0037877294 -0.13658738 0.65524542
0.0046456871 -0.13343042 0.65326208
0.013953026 -0.13163669 0.6519168
0.024108335 -0.13135974 0.65073675
0.036172338 -0.13144514 0.65033323
0.045718059 -0.1322595 0.6515758
0.054681186 -0.13560557 0.65493363
0.061620813 -0.13867071 0.65690005
0.078683466 -0.13620652 0.65833336
0.085097834 -0.13511768 0.6577422
0.09361323 -0.13352989 0.65786856
0.0063794781 -0.12784979 0.65814716
0.01530451 -0.12605797 0.6564464
0.024686608 -0.12514389 0.65487796
0.034611244 -0.12588115 0.65502608
0.043983616 -0.1275821 0.65600014
0.05064708 -0.1296026 0.65900004
0.088555396 -0.12829731 0.65700001
0.094306625 -0.12704168 0.65797794
0.026162613 -0.11942367 0.65899998
-0.022755679 -0.15242322 0.66542858
-0.019122729 -0.15066393 0.66100001
0.075988911 -0.15419382 0.66312206
-0.021272754 -0.1469785 0.66607147
-0.016566765 -0.14334537 0.66294998
0.067872413 -0.14245558 0.66171438
0.07478527 -0.14462489 0.66205943
0.084137365 -0.14348018 0.66135305
0.092822127 -0.1409726 0.66175008
-0.013625747 -0.13659805 0.66547501
-0.0068864194 -0.13305321 0.66318607
0.057064943 -0.13181432 0.6615001
0.065031566 -0.13495752 0.66396219
0.074724004 -0.1384109 0.66372007
0.086342014 -0.13965388 0.66100001
0.094520919 -0.13859203 0.66146159
-0.0037705631 -0.12687685 0.66556823
0.0045177611 -0.12345897 0.66251773
0.014190094 -0.1211165 0.66136843
0.037425403 -0.1218816 0.66114295
0.045640904 -0.12294244 0.66200012
0.054603633 -0.12536688 0.66373324
0.061967332 -0.12737416 0.66683334
0.096367307 -0.12234265 0.6613999
0.1011874 -0.12409304 0.66194737
0.0071527506 -0.11735474 0.66621876
0.015447485 -0.11574576 0.66559011
0.024921214 -0.11494433 0.66487801
0.034783512 -0.11546612 0.66484481
0.044219065 -0.11676971 0.66587496
0.052571073 -0.11794003 0.66711116
0.096275538 -0.11526956 0.66253346
0.10218357 -0.11564058 0.6649
0.024010148 -0.10950969 0.66800004
0.097066283 -0.10876015 0.667
0.083387651 -0.16184038 0.67566675
-0.030901186 -0.1523207 0.67783332
-0.027059412 -0.15208556 0.67275
0.083614193 -0.15620202 0.67468184
-0.030358089 -0.14742523 0.67900008
-0.024950741 -0.14508507 0.67530197
-0.019383101 -0.14038064 0.67000002
-0.022209566 -0.1370241 0.67694741
-0.016798835 -0.13346449 0.67300004
0.06854669 -0.1319605 0.67157137
0.073633991 -0.13484278 0.67434996
0.080359653 -0.13750429 0.67900002
-0.013453967 -0.12529303 0.67500001
-0.0059853932 -0.12302405 0.67127776
0.00058736664 -0.12099753 0.67000002
0.058622807 -0.12179935 0.67037505
0.06552054 -0.124417 0.67370367
0.071477562 -0.12836581 0.67755556
-0.01079089 -0.11835539 0.67842859
-0.0040193298 -0.11613712 0.6748215
0.004032535 -0.11375262 0.67207557
0.013525465 -0.11104169 0.67085713
0.036737815 -0.11050691 0.67050004
0.045618474 -0.11237606 0.67094433
0.055473655 -0.1142332 0.67347538
0.063091494 -0.1164595 0.67691445
0.099413119 -0.1100015 0.671
0.10581429 -0.11215241 0.67116129
-0.0016145696 -0.10920262 0.6785714
0.0054327035 -0.10728463 0.67745012
0.015004558 -0.10511097 0.67497408
0.024879623 -0.1050169 0.6734935
0.034821726 -0.10485157 0.67401171
0.044724956 -0.10526297 0.67549241
0.05352534 -0.1078841 0.67758626
0.098215006 -0.10496796 0.67268181
0.10307667 -0.10720203 0.6722272
0.018209068 -0.099140473 0.67879999
0.025200153 -0.098453797 0.67847383
0.035177939 -0.098087043 0.67840755
0.041652843 -0.098775998 0.67875004
-0.032551009 -0.15129577 0.68214285
-0.03141842 -0.14478216 0.68425006
-0.027941808 -0.14199701 0.68221432
-0.03134127 -0.13922563 0.6875
-0.024869233 -0.1347302 0.68492311
0.077818826 -0.133597 0.68237513
0.081750862 -0.13509437 0.68568742
-0.022580028 -0.12756963 0.68681258
-0.018471433 -0.12412412 0.68451852
0.069393769 -0.12146708 0.68120009
0.074136853 -0.12551625 0.68431425
-0.013945276 -0.11632876 0.68611366
-0.0071709803 -0.11251779 0.68382609
0.066377714 -0.11329962 0.68402624
0.071227312 -0.11613305 0.68682349
-0.010253494 -0.10916954 0.68800002
-0.0040925327 -0.10512923 0.68482697
0.0038208058 -0.10295614 0.68172711
0.012538788 -0.10092431 0.68120009
0.047987729 -0.10134266 0.6805715
0.056018237 -0.10377908 0.68413049
0.063230254 -0.10681389 0.68611765
0.088851914 -0.10114945 0.68760002
0.092888676 -0.1016115 0.68583345
-0.0016363609 -0.09857516 0.68742859
0.0053594764 -0.0966658 0.68524528
0.014758396 -0.094974123 0.68356556
0.025067542 -0.093792967 0.68298119
0.034779374 -0.093461573 0.68281651
0.045257561 -0.095004283 0.68368995
0.053332865 -0.097089998 0.68584847
0.089070648 -0.099302225 0.68650007
0.093738899 -0.099281184 0.68325007
0.017361507 -0.088458329 0.6878947
0.025174716 -0.087828577 0.68758821
0.034647163 -0.088460453 0.68756002
0.042823412 -0.089265704 0.68800008
0.084313609 -0.19534032 0.69692856
-0.031145861 -0.13706473 0.69120002
-0.028304702 -0.13449557 0.69086671
0.083069913 -0.13228311 0.69072729
-0.024428079 -0.12392119 0.69387889
0.077746518 -0.12347259 0.69199997
0.081864364 -0.12483653 0.69300002
-0.022172509 -0.11729202 0.69605553
-0.016583756 -0.11323287 0.69196671
0.075358324 -0.11464459 0.69406468
0.080103226 -0.11862572 0.69749999
-0.013498614 -0.10635349 0.69397753
-0.0080330065 -0.10267487 0.69149995
0.066621043 -0.10363989 0.69202715
0.075260036 -0.10477337 0.69592983
0.085313357 -0.10476229 0.69575006
0.090928413 -0.10626395 0.69262505
-0.010402527 -0.099741876 0.69800001
-0.0044352142 -0.095501207 0.69426018
0.0038677524 -0.091936357 0.69134617
0.0108882 -0.090130098 0.69000006
0.047810774 -0.090173639 0.69033337
0.055986211 -0.093549348 0.6917634
0.064037234 -0.095633663 0.69563043
0.072797522 -0.099468529 0.69780004
0.085414506 -0.099953152 0.69100004
-0.0018351262 -0.088663533 0.69749999
0.0053475355 -0.085948534 0.69518542
0.014376608 -0.084123932 0.6931113
0.025329661 -0.082901679 0.6920501
0.035353396 -0.083675042 0.69200021
0.045007516 -0.084557407 0.69313365
0.054206681 -0.085252941 0.69557405
0.061628502 -0.088670358 0.69755554
0.075516067 -0.21082431 0.708
-0.03172043 -0.2040915 0.70600009
-0.028737573 -0.20261329 0.70749998
0.077240556 -0.20507991 0.70685011
0.080820993 -0.20236161 0.70375007
-0.031179653 -0.19565035 0.70528573
-0.02917196 -0.19923829 0.708
0.079328105 -0.19780393 0.7063334
0.08198078 -0.19468397 0.70434624
-0.032311052 -0.18797025 0.70300007
0.084146477 -0.18700202 0.70800006
-0.027615 -0.12211967 0.70000005
-0.023328664 -0.11345788 0.70285714
0.079163 -0.11352833 0.70000005
0.083060101 -0.11495253 0.70181072
-0.031654678 -0.10737764 0.70800006
-0.024192419 -0.10639518 0.70642865
-0.016366206 -0.10292155 0.70138717
0.076037683 -0.10035887 0.70060003
0.082947277 -0.10872126 0.69999999
-0.013700915 -0.096037559 0.7051779
-0.0077621704 -0.092435025 0.70118755
0.068271242 -0.092596039 0.7007333
0.073377185 -0.0957691 0.7040295
-0.010960379 -0.089542441 0.70766664
-0.0075507294 -0.22093578 0.71800005
-0.022045437 -0.21327303 0.71622211
-0.017491473 -0.21572816 0.71899992
-0.0094548501 -0.21998285 0.71900004
0.05971415 -0.21811379 0.71700001
0.066084839 -0.21498409 0.71672726
0.072100505 -0.21211721 0.71164286
-0.024314417 -0.20475221 0.7127735
-0.019516731 -0.20587003 0.71814293
0.069335833 -0.20687325 0.7177
0.072561949 -0.20425217 0.7128889
-0.030606622 -0.19363154 0.7125001
-0.025768375 -0.19540666 0.71407014
0.076088518 -0.19529247 0.71419227
0.080605112 -0.19202068 0.71000004
-0.031012276 -0.18390451 0.71544445
-0.027657239 -0.18593228 0.71611762
0.078822702 -0.18806778 0.71618181
0.081631362 -0.18654406 0.71238106
-0.031947989 -0.17799915 0.71457148
-0.028528135 -0.17859033 0.71680009
-0.02795467 -0.11243983 0.71145457
-0.031838518 -0.10475141 0.71210003
-0.02408519 -0.10393962 0.71389997
0.07916037 -0.10035291 0.71100003
0.080406986 -0.10035291 0.71100003
-0.017440105 -0.093131699 0.71226937
-0.0031704651 -0.22190242 0.7252779
0.0041193371 -0.22330278 0.72795445
0.028719598 -0.22209823 0.7280001
0.031272452 -0.22209823 0.72800004
0.045974359 -0.22230393 0.72659105
0.052119363 -0.22201957 0.7235834
-0.013841853 -0.2138028 0.72169757
-0.006133127 -0.21580304 0.72530913
0.000637775 -0.21939416 0.72750008
0.047546014 -0.21830018 0.72761548
0.055384353 -0.21595711 0.7246508
0.063223705 -0.21298887 0.7219032
-0.015157458 -0.2052151 0.72401798
-0.0089284107 -0.20982797 0.72750008
0.057823263 -0.20861726 0.72772735
0.064975873 -0.20535332 0.72433341
0.070427455 -0.20117615 0.72050005
-0.021588517 -0.1940558 0.72431254
-0.01823652 -0.19617088 0.72662956
0.068359002 -0.19665673 0.72650009
0.072061732 -0.19383483 0.72348273
-0.023512257 -0.18477345 0.72380644
-0.019784613 -0.18891114 0.72800004
0.076178044 -0.18548773 0.72511107
0.080218069 -0.18317381 0.72050005
-0.025073668 -0.1791551 0.72285712
0.075311512 -0.179269 0.72600001
-0.026010409 -0.10249119 0.72166675
0.0072120442 -0.22236483 0.7301333
0.015771957 -0.22362182 0.73257494
0.023982828 -0.22317646 0.73187089
0.035181262 -0.22305132 0.73046869
0.041171189 -0.22249508 0.73000002
-0.0023940383 -0.21267092 0.73105258
0.005289414 -0.21487974 0.73307484
0.014808885 -0.21533589 0.73540992
0.025019074 -0.21576121 0.73658723
0.034817725 -0.21511638 0.7351709
0.044467658 -0.2145068 0.73311293
0.051954959 -0.21239009 0.73046672
-0.012161022 -0.20204701 0.73011112
-0.0050015328 -0.204724 0.73417187
0.0035983059 -0.20733801 0.73765635
0.011974171 -0.20936795 0.73825008
0.038223542 -0.20925771 0.73900002
0.046504647 -0.20755769 0.73712921
0.054995146 -0.20449434 0.73422384
0.062118474 -0.20174517 0.73157138
-0.013693745 -0.19408761 0.73278379
-0.0068778638 -0.1964763 0.73723555
0.057719659 -0.19822446 0.73827267
0.064527594 -0.19491516 0.73483932
-0.021369336 -0.18143757 0.73133332
-0.0165409 -0.18557532 0.73489481
0.068249278 -0.18751204 0.73652947
0.071814924 -0.1846803 0.73246151
-0.020603858 -0.17900613 0.73450005
-0.018115439 -0.17856649 0.73800004
0.072316229 -0.17983063 0.73000002
0.017864276 -0.21144804 0.74100006
0.022880707 -0.21155632 0.74100012
0.033130109 -0.21112324 0.74100006
-0.00064961001 -0.20072949 0.74100006
0.0064882534 -0.20355847 0.74173164
0.015124372 -0.20459726 0.7442537
0.024677323 -0.20518446 0.74459732
0.035049714 -0.20505294 0.74339139
0.044500675 -0.20363216 0.74286669
0.050453041 -0.20116256 0.741
-0.003662667 -0.19327289 0.74257886
0.0043309014 -0.19644286 0.74599999
0.014774025 -0.19830024 0.74900001
0.026288372 -0.19872694 0.74846661
0.035358064 -0.19754478 0.74766654
0.045289624 -0.19651021 0.74772096
0.054300148 -0.1946582 0.74431759
0.062127359 -0.19145234 0.74130011
-0.012754841 -0.18376486 0.7435357
-0.0064445026 -0.18603167 0.7462042
0.00065662334 -0.18976414 0.74900001
0.056683268 -0.18778786 0.74804002
0.064404875 -0.18428729 0.74416953
-0.014218463 -0.17771573 0.74500012
-0.00984935 -0.17925817 0.74900001
0.062816963 -0.17882042 0.74900001
0.0070318882 -0.19247043 0.75166672
0.015194355 -0.19490868 0.75230789
0.024897452 -0.19453281 0.75340396
0.034750834 -0.19290765 0.75273329
0.044136319 -0.19215918 0.75146157
-0.0028770447 -0.18310198 0.75315994
0.0047629303 -0.18616208 0.75552827
0.014973855 -0.18761878 0.75608808
0.02519949 -0.18900977 0.75649995
0.035640705 -0.18806012 0.75659996
0.045471981 -0.1859331 0.75591397
0.054567337 -0.18377866 0.75265956
-0.012122109 -0.1763057 0.75416678
-0.0051788748 -0.17743897 0.75633329
0.00088689447 -0.17757994 0.75866669
0.049238861 -0.17632835 0.75900006
0.055609819 -0.17826979 0.75524998
0.060980055 -0.17799576 0.75200003
0.0066269566 -0.18239702 0.76099998
0.015394567 -0.1827163 0.76154274
0.024733162 -0.18381932 0.76248962
0.034049418 -0.18334298 0.7622726
0.043657996 -0.18178284 0.76114285
0.0056874971 -0.1772407 0.76131988
0.014735995 -0.1767675 0.76378566
0.024811845 -0.17637932 0.76500005
0.034103595 -0.1776498 0.76399994
0.044525523 -0.17842765 0.76168424
0.050035749 -0.17879441 0.76100004
