# .PCD v0.7 - Point Cloud Data file format
VERSION 0.7
FIELDS x y z
SIZE 4 4 4
TYPE F F F
COUNT 1 1 1
WIDTH 358
HEIGHT 1
VIEWPOINT 0 0 0 1 0 0 0
POINTS 358
DATA ascii
-0.025271561 -0.095572457 0.59900004
-0.041643418 -0.093964636 0.60900003
-0.033132885 -0.091965616 0.60700005
-0.025880845 -0.092440441 0.60359198
-0.014239551 -0.092194334 0.60607159
-0.0056728306 -0.093900569 0.6084848
0.00088893995 -0.095763557 0.60800004
-0.031321544 -0.088447779 0.60900003
-0.023938233 -0.087747298 0.60846865
-0.016575707 -0.088401161 0.60826093
-0.0080083497 -0.08915963 0.60900003
0.017878365 -0.10128944 0.61785716
0.020790735 -0.1039528 0.61866671
-0.052425954 -0.093130194 0.61600012
-0.04523956 -0.092713952 0.61291838
-0.036224026 -0.09277118 0.61009085
-0.0029994198 -0.091876648 0.61008692
0.0053178901 -0.093394309 0.61328816
0.013864255 -0.095621586 0.61648375
-0.051319014 -0.08907529 0.61879998
-0.044258576 -0.086568817 0.61649168
-0.034989525 -0.084931083 0.61303848
-0.025747728 -0.083199784 0.61273348
-0.014641359 -0.083936512 0.61248136
-0.0047319033 -0.084924132 0.61439085
0.0035301775 -0.086477153 0.61663634
0.010310477 -0.089538351 0.61900002
-0.032537609 -0.078397535 0.61857146
-0.025054293 -0.077396661 0.61739975
-0.015202017 -0.077103049 0.61777765
-0.0062329904 -0.079011895 0.618375
0.02774124 -0.11077736 0.62866664
0.030280067 -0.11065988 0.62800002
0.025062056 -0.10429851 0.62440431
0.030280067 -0.10955878 0.62800002
-0.062801555 -0.094750933 0.62425005
-0.057311594 -0.094099283 0.62045467
0.017382987 -0.092624657 0.62274998
0.022305867 -0.096635498 0.62517941
0.046319559 -0.092087694 0.62900001
-0.061343145 -0.088524193 0.62849998
-0.05475302 -0.08566156 0.62336224
-0.045934007 -0.081821531 0.62140012
-0.03825618 -0.080923147 0.62044442
0.0066368617 -0.082814388 0.62138474
0.014434116 -0.085505858 0.62507516
0.020402662 -0.088227734 0.62900001
-0.051233631 -0.078336656 0.62840003
-0.044613425 -0.075290494 0.62575376
-0.035713531 -0.074384995 0.62224668
-0.025116464 -0.072653852 0.62149024
-0.014329498 -0.072240978 0.62199992
-0.004617664 -0.074416615 0.62273014
0.004182843 -0.075532652 0.62434804
0.0130145 -0.078904763 0.62831253
-0.04106842 -0.068731733 0.62833333
-0.034080241 -0.067258663 0.62654173
-0.02450338 -0.065673009 0.62636012
-0.015163488 -0.066755578 0.62682462
-0.0057211672 -0.067592621 0.62781411
0.00055098499 -0.069423676 0.62849998
0.036115721 -0.11119282 0.63736367
0.028811583 -0.10396688 0.63107693
0.035301991 -0.10489438 0.63525003
0.044759888 -0.10307251 0.63522238
0.052373253 -0.10227351 0.63650006
-0.071470097 -0.096526019 0.63645464
-0.067623541 -0.093136497 0.63281482
0.026355892 -0.093717434 0.63274997
0.034405693 -0.096993998 0.63587999
0.045239467 -0.096405342 0.63211995
0.054680634 -0.094741188 0.63336772
0.062402993 -0.092504323 0.63588244
-0.063873261 -0.085720114 0.63477272
-0.057716053 -0.081684455 0.6310001
0.018562917 -0.082069896 0.6307143
0.024612037 -0.085464381 0.63554543
0.056923997 -0.085940711 0.63357908
0.064019963 -0.085156761 0.63686442
-0.060869597 -0.079297125 0.63700002
-0.054726373 -0.075191364 0.63321322
-0.048279144 -0.071789436 0.6303637
0.0074519594 -0.07206364 0.63071442
0.014970676 -0.074435167 0.63294917
0.022141924 -0.077771768 0.63726324
0.059201572 -0.07671535 0.63661546
0.064031541 -0.077433966 0.63710231
-0.051941689 -0.068179443 0.63707697
-0.044937704 -0.065194458 0.63419712
-0.035475966 -0.062484339 0.63130963
-0.025899248 -0.060748141 0.63033336
-0.014351325 -0.06187892 0.63039398
-0.0044493224 -0.062943585 0.63109088
0.005062832 -0.064961448 0.63370681
0.012936416 -0.066968232 0.63589996
-0.042516824 -0.058973607 0.63736367
-0.034437738 -0.056639452 0.63622236
-0.025051691 -0.055098992 0.63496327
-0.015059968 -0.055082381 0.6344617
-0.0054343562 -0.055885423 0.63577044
0.0039474601 -0.058040105 0.63719356
-0.023251455 -0.049459275 0.63800001
-0.016220087 -0.04977889 0.63800001
0.035022359 -0.11448368 0.64038461
-0.074680604 -0.097420894 0.64050007
0.034993637 -0.092671365 0.64509994
-0.066332854 -0.082759432 0.64095247
0.028540079 -0.083118029 0.64111114
0.033114944 -0.085968718 0.64667583
0.067889065 -0.082476802 0.64000005
-0.063931189 -0.075291805 0.645091
-0.057817768 -0.071684308 0.64133334
0.019194616 -0.071052954 0.64020008
0.025454864 -0.074497692 0.64407021
0.030392721 -0.07725735 0.648
0.05900405 -0.071927428 0.64100003
0.064231619 -0.072427444 0.64141929
-0.062022462 -0.067846164 0.64831257
-0.055344645 -0.064455859 0.64401579
-0.048192557 -0.061559271 0.64069998
0.0095381336 -0.060595199 0.64000005
0.016304433 -0.063693061 0.64196426
0.023357932 -0.06628786 0.64657503
0.059096098 -0.068664044 0.64200002
0.063338295 -0.066309512 0.64412194
-0.052581359 -0.05715964 0.64748156
-0.045233186 -0.054249182 0.64370579
-0.0364298 -0.052231751 0.64109081
-0.0117824 -0.051057067 0.64000005
-0.0031145976 -0.051533617 0.64086366
0.0055749505 -0.053323954 0.64243126
0.014491959 -0.055585563 0.64562488
0.021051396 -0.05974045 0.64900005
-0.04287808 -0.047645949 0.64796013
-0.034527134 -0.044891909 0.6455971
-0.025319612 -0.0448546 0.64327854
-0.015189312 -0.0449371 0.64340216
-0.0053682299 -0.045121383 0.64464557
0.0044364091 -0.045953188 0.64745742
0.011659447 -0.049195684 0.64875007
-0.031970717 -0.038569212 0.64890015
-0.024675818 -0.037741967 0.64810717
-0.015787389 -0.0379472 0.64814287
-0.008388604 -0.038531691 0.64875007
0.039862908 -0.15078579 0.65900004
0.038911022 -0.091627441 0.65080005
0.036765434 -0.084150836 0.65331244
0.041018356 -0.085503057 0.65900004
-0.07062076 -0.074395686 0.65279996
-0.068147905 -0.072922237 0.6505
0.0290615 -0.070659332 0.65000004
0.03304692 -0.075050056 0.65378374
-0.070790395 -0.06848564 0.65650004
-0.065033354 -0.064897709 0.65413338
-0.059832498 -0.062681668 0.65000004
0.027166674 -0.063756369 0.65288568
0.031976871 -0.066725962 0.65691298
0.061159775 -0.063446119 0.65200001
-0.061315421 -0.057541609 0.65700001
-0.056027792 -0.054149054 0.65354353
0.018204391 -0.052863579 0.65026671
0.024416562 -0.05540571 0.65447557
0.030619336 -0.059505504 0.65900004
0.053728271 -0.056039166 0.65900004
-0.05268278 -0.046083383 0.65642434
-0.045912053 -0.044090278 0.65290564
-0.038658898 -0.041166864 0.65040004
-0.0023932999 -0.040686101 0.65000004
0.0069511305 -0.042055804 0.65068179
0.01509126 -0.045016382 0.65375
0.02130357 -0.046579093 0.65673918
-0.043897327 -0.037300803 0.65688884
-0.035192557 -0.034667421 0.6545226
-0.025043678 -0.032829795 0.65268081
-0.014908122 -0.033222981 0.65214002
-0.0047921236 -0.034495108 0.65315074
0.0050104987 -0.035184581 0.65506411
0.013360057 -0.038017407 0.65752172
-0.032566037 -0.028359795 0.65828568
0.035411593 -0.15186761 0.66327274
0.035809778 -0.1468204 0.66495657
0.038998894 -0.082717009 0.66114289
0.043117095 -0.081591658 0.66513336
0.037201189 -0.074205697 0.66252387
0.042801149 -0.076039307 0.66661757
-0.070859216 -0.060318172 0.66800004
-0.067760348 -0.061851323 0.66250014
0.036039032 -0.063757673 0.66494596
0.045309216 -0.062086407 0.66673917
0.05360179 -0.064855255 0.66448838
-0.064084478 -0.054902375 0.66365719
-0.059129193 -0.051013015 0.66125
0.028613253 -0.052804802 0.66192317
0.03473359 -0.055771004 0.66602165
0.045139927 -0.057653002 0.66429418
0.052990627 -0.058158573 0.66159099
-0.061955351 -0.048276894 0.66670007
-0.056379568 -0.044208717 0.66387105
0.026017113 -0.04442415 0.66427082
0.03170272 -0.047727834 0.66720009
-0.052390479 -0.03725763 0.6662001
-0.046414889 -0.033285297 0.66358334
-0.039114676 -0.031002004 0.66100001
0.024228875 -0.16128431 0.67824996
-0.073462285 -0.15185405 0.67814291
-0.069645032 -0.1511952 0.67900002
0.026935607 -0.15543047 0.67637849
0.031149462 -0.15305202 0.67194116
-0.074438058 -0.14512089 0.67566073
-0.069645032 -0.14782208 0.67900008
0.02857203 -0.14774628 0.67744446
0.033011518 -0.14425005 0.6741364
-0.076369323 -0.13541268 0.67648154
0.035066169 -0.13916908 0.67800003
-0.080377057 -0.12357268 0.6762858
-0.07840012 -0.12676105 0.67750007
0.044621635 -0.071230493 0.67149991
0.039382935 -0.067009769 0.67050004
0.044870686 -0.066375956 0.67104268
-0.067862153 -0.052045859 0.67310005
0.03780929 -0.052043907 0.67313331
0.041515864 -0.052181829 0.67650002
-0.064438075 -0.045121267 0.67399991
-0.058858521 -0.042064849 0.67042863
0.0078409063 -0.17069051 0.68800002
-0.064172685 -0.16174431 0.6870001
0.007991693 -0.1684287 0.68800008
0.015343419 -0.16425312 0.68527579
0.022011681 -0.16346294 0.68146163
-0.072178498 -0.15503053 0.68044448
-0.066114061 -0.15523921 0.68498152
0.01737109 -0.15731877 0.6866551
0.022810817 -0.15410621 0.68283337
-0.070877291 -0.1429123 0.68384612
-0.068331383 -0.14622499 0.68615001
0.026211828 -0.1452554 0.68551129
0.030951943 -0.14137582 0.68159997
-0.072953157 -0.1348438 0.68392682
-0.069361866 -0.13812059 0.68800002
0.029241875 -0.13837153 0.68775004
0.03214829 -0.13735373 0.68515795
-0.0753721 -0.12495697 0.68436015
-0.076901197 -0.11863054 0.68000001
0.039940935 -0.053652 0.68000001
-0.051225387 -0.17064929 0.69150001
-0.045548357 -0.17081138 0.69289994
-0.034479193 -0.17138515 0.69717652
-0.024483409 -0.17114495 0.69552636
-0.014086924 -0.1722285 0.69666684
-0.0055381623 -0.17185943 0.69581491
0.0031488114 -0.17099872 0.69120008
-0.060776543 -0.1627384 0.69228572
-0.054279543 -0.16443498 0.69186002
-0.045157928 -0.16506466 0.69480342
-0.035906419 -0.16578148 0.69732088
-0.02479277 -0.16714384 0.69726825
-0.015337992 -0.16783459 0.69773078
-0.0038840279 -0.16671203 0.69734997
0.0045579341 -0.164618 0.69361192
0.010456128 -0.16289091 0.69000006
-0.061756562 -0.15378858 0.69065017
-0.055293363 -0.15523916 0.69316697
-0.046811979 -0.15708187 0.69700009
-0.039774366 -0.15970938 0.69800001
0.0068433033 -0.15816849 0.69715005
0.014527956 -0.15441151 0.69350964
-0.063931897 -0.14507231 0.6922003
-0.057342019 -0.14603601 0.69699991
0.017230811 -0.14738309 0.69591665
0.022189762 -0.1437799 0.69261307
-0.071029723 -0.13234335 0.69250005
-0.065771058 -0.1359081 0.69568527
0.026610881 -0.13620202 0.69386494
0.030872256 -0.13438466 0.69050002
-0.071872972 -0.12399298 0.69285721
-0.068140611 -0.12639305 0.69729418
-0.072524659 -0.11946052 0.69525003
-0.039274666 -0.17244034 0.70000005
-0.033214957 -0.16191076 0.70108694
-0.024865923 -0.16263932 0.70160002
-0.014385447 -0.1635243 0.70176625
-0.0060165362 -0.16274685 0.70103037
0.00061366666 -0.16016699 0.70000005
-0.0513677 -0.15082905 0.70033336
-0.043859039 -0.15383352 0.70198029
-0.034835268 -0.15529563 0.70512003
-0.024820205 -0.15654019 0.70591074
-0.01479869 -0.15648283 0.70605457
-0.0048132678 -0.15539663 0.70526081
0.004195089 -0.15417264 0.70239985
0.011388581 -0.1517359 0.70011109
-0.053524002 -0.14402913 0.7025001
-0.045842841 -0.14597113 0.70517749
-0.036895975 -0.14889424 0.70800006
-0.0024818433 -0.14947824 0.70749998
0.0057532173 -0.14788313 0.7058183
0.01390511 -0.1440499 0.70280766
0.020864666 -0.14114332 0.70000005
-0.062204927 -0.13288063 0.70190489
-0.05645629 -0.13610065 0.70507711
-0.04903372 -0.139653 0.708
0.01683454 -0.13704631 0.70610011
0.022568081 -0.13405605 0.70284218
-0.064352207 -0.12507294 0.70390201
-0.058964599 -0.12910144 0.708
0.023233226 -0.12912971 0.70777786
-0.067685679 -0.11927225 0.7028572
-0.032988966 -0.15000643 0.71000004
-0.024750493 -0.15135619 0.71025008
-0.015102629 -0.15144329 0.71041679
-0.0077359569 -0.15053995 0.71000004
-0.042710453 -0.142579 0.71200001
-0.034787782 -0.14479305 0.713283
-0.025003826 -0.14481783 0.71480298
-0.015165244 -0.14532176 0.71539396
-0.0049012802 -0.14467564 0.71375704
0.0045898482 -0.1432272 0.71147722
0.010581367 -0.14066994 0.71000004
-0.052933808 -0.13318849 0.71150011
-0.045628008 -0.13583939 0.71547371
-0.035265189 -0.13822286 0.71718168
-0.026059354 -0.13912655 0.71809995
-0.0024714582 -0.13792184 0.71838462
0.0054203193 -0.13623664 0.71629077
0.013750712 -0.13359807 0.71251118
-0.061555147 -0.12248564 0.7114616
-0.055270508 -0.12528805 0.71495146
-0.049128689 -0.12795544 0.71744448
0.013707615 -0.12831457 0.71531242
0.020540301 -0.12884369 0.71000004
-0.062107984 -0.11749215 0.71466666
-0.05817885 -0.11765367 0.71723527
-0.0138864 -0.14075761 0.72000003
-0.0088368002 -0.14075761 0.72000003
-0.042784706 -0.13214293 0.72015393
-0.035186689 -0.13307634 0.72209084
-0.025296077 -0.13435718 0.72334886
-0.015210201 -0.1350067 0.72304171
-0.0056442474 -0.13424341 0.72345763
0.0035805015 -0.13181259 0.72133338
-0.051368669 -0.12136153 0.72144455
-0.04452002 -0.12470389 0.72392768
-0.035719652 -0.12686804 0.72670734
-0.026162183 -0.12809907 0.72787499
-0.016298667 -0.1290608 0.72781831
-0.0035389839 -0.12785055 0.72786355
0.0046923398 -0.12641685 0.72252077
-0.060130566 -0.11456455 0.72200006
-0.053828023 -0.11627072 0.72187889
-0.045548622 -0.11748563 0.72692001
-0.033680584 -0.12229053 0.73066658
-0.024770707 -0.12335298 0.7318536
-0.015195353 -0.12434165 0.73240018
-0.0066657355 -0.12501906 0.73083317
-0.042024478 -0.11594063 0.73000002
-0.037074734 -0.11818982 0.73099995
-0.011368029 -0.1181846 0.73400003
-0.0096520996 -0.1183991 0.73400003
