# .PCD v0.7 - Point Cloud Data file format
VERSION 0.7
FIELDS x y z
SIZE 4 4 4
TYPE F F F
COUNT 1 1 1
WIDTH 1432
HEIGHT 1
VIEWPOINT 0 0 0 1 0 0 0
POINTS 1432
DATA ascii
-0.30810174 0.16282555 0.92800015
-0.44336674 0.17585902 0.92737919
-0.43425247 0.17611256 0.927037
-0.42469898 0.17765017 0.9276669
-0.41646191 0.17861049 0.92800009
-0.40270558 0.17220072 0.92800003
-0.39544523 0.17510094 0.92496663
-0.38897833 0.17530704 0.92150003
-0.32157639 0.17686124 0.92000002
-0.31457368 0.17467496 0.92334861
-0.309304 0.1784282 0.92725003
-0.44391814 0.18373412 0.92711782
-0.43446812 0.18430348 0.92377418
-0.42489809 0.18488798 0.92353672
-0.41534895 0.18510149 0.92558533
-0.40637764 0.18726642 0.92642123
-0.39426211 0.18506044 0.92622733
-0.38821033 0.18450899 0.92272735
-0.32207564 0.18200769 0.92000002
-0.31515083 0.18480577 0.92393017
-0.30926397 0.1846751 0.92800003
-0.44012871 0.19281055 0.92800003
-0.43438745 0.19477181 0.92464012
-0.42550778 0.19443899 0.92100006
-0.41479585 0.19478856 0.92278737
-0.40452498 0.19407105 0.92208576
-0.39550036 0.1952187 0.92384422
-0.38565677 0.19494615 0.92240012
-0.37781343 0.19768187 0.92037505
-0.3144626 0.19503807 0.92418909
-0.30996129 0.19525121 0.92800003
-0.4343006 0.20471054 0.92582601
-0.42566055 0.20557491 0.92200017
-0.41270089 0.20465448 0.92090005
-0.40729934 0.20324638 0.92000002
-0.39306682 0.20394127 0.92193943
-0.38538554 0.20511402 0.92437136
-0.37510261 0.2047527 0.92289674
-0.36811042 0.2078876 0.92149997
-0.31442112 0.20450215 0.92381078
-0.30941892 0.20528495 0.92800003
-0.43256128 0.21316394 0.92766666
-0.42507511 0.21489307 0.92422223
-0.41796005 0.2150456 0.92216671
-0.39108294 0.2118866 0.92075002
-0.38430637 0.21342607 0.92321622
-0.37521026 0.2153106 0.92497605
-0.36487871 0.21582663 0.9230001
-0.35720468 0.21597032 0.92060006
-0.31432712 0.21479742 0.9238683
-0.30996129 0.21070859 0.92800003
-0.46182334 0.22806425 0.92800003
-0.45769256 0.22823514 0.92650008
-0.4235585 0.22356087 0.92675018
-0.41523197 0.22517443 0.92355567
-0.40891239 0.22582933 0.92000002
-0.37359491 0.22426689 0.92333335
-0.36531895 0.22525573 0.92596948
-0.35457942 0.22516693 0.92261541
-0.34490356 0.2270487 0.92080009
-0.33621371 0.22737932 0.92191672
-0.32309994 0.22686742 0.92093343
-0.31660518 0.22411147 0.92437035
-0.46203196 0.23486465 0.92800015
-0.45498022 0.23543109 0.92658317
-0.44859293 0.23811144 0.92700005
-0.42060363 0.2302337 0.92800003
-0.41414583 0.2345039 0.92645454
-0.40588221 0.23658083 0.92313349
-0.39842746 0.23873386 0.92000002
-0.37149367 0.23501036 0.9212144
-0.36763623 0.23377258 0.92591667
-0.35473102 0.23282011 0.92706686
-0.34440425 0.23351011 0.92561901
-0.33467773 0.23455797 0.92618734
-0.32550827 0.23426327 0.92667997
-0.31842217 0.23153536 0.92800009
-0.46128097 0.24162336 0.92800003
-0.45357555 0.2446056 0.92533314
-0.44439054 0.24534728 0.92573667
-0.43850166 0.24975882 0.92800003
-0.41084108 0.24162336 0.92800003
-0.40438792 0.24439915 0.92544001
-0.3957513 0.2457923 0.92281824
-0.38782653 0.24787486 0.921
-0.37126893 0.24481678 0.92266679
-0.3675108 0.24598332 0.92665017
-0.45204681 0.25118318 0.92575002
-0.44389331 0.25293863 0.92690921
-0.43850166 0.2546401 0.92800009
-0.40244526 0.25317591 0.92739999
-0.39473385 0.25416315 0.92567736
-0.38524795 0.25494492 0.92385209
-0.37435496 0.25512791 0.92386097
-0.36686715 0.25481454 0.92682606
-0.43150514 0.26668057 0.92800009
-0.42488965 0.26599112 0.92746419
-0.418163 0.26928395 0.92800003
-0.39261761 0.26179931 0.92800009
-0.38541061 0.26154608 0.92710006
-0.37577718 0.26146775 0.92740011
-0.36853665 0.26114848 0.92800003
-0.43144011 0.27211449 0.92725009
-0.42401937 0.27435678 0.92605859
-0.41826126 0.2739372 0.92772734
-0.42368591 0.28239 0.927625
-0.37579718 -0.0008223133 0.93800002
-0.35331798 -0.0019732888 0.93770009
-0.34628054 -0.002607286 0.93500006
-0.38269088 0.0060142986 0.93541664
-0.3750788 0.0051004458 0.93296558
-0.36476806 0.0037972042 0.93282354
-0.35522118 0.0043041701 0.93363345
-0.34569171 0.0029591331 0.93193752
-0.33470827 0.004566995 0.93030012
-0.3285659 0.0040765 0.93000007
-0.38187185 0.011471841 0.93475008
-0.37485391 0.01133121 0.9306668
-0.31470579 0.018751901 0.93000007
-0.31164846 0.023032226 0.93000019
-0.30911878 0.025054256 0.93199998
-0.28593272 0.078625597 0.93100005
-0.28531808 0.085721597 0.9339
-0.33396742 0.097957321 0.93776923
-0.32498091 0.096040212 0.93689996
-0.31756282 0.095661439 0.93400002
-0.29146299 0.097622216 0.93128586
-0.28683269 0.094668798 0.93531817
-0.42184672 0.1083809 0.93800002
-0.41420066 0.10763632 0.93615401
-0.40491825 0.1078357 0.93613338
-0.39562404 0.1085954 0.93725008
-0.38402033 0.10903875 0.93800002
-0.36438075 0.10896879 0.93740004
-0.3560617 0.10936768 0.93800002
-0.34424984 0.10675953 0.9367727
-0.33486664 0.10468508 0.93478125
-0.32485366 0.10473532 0.93339491
-0.31668895 0.10456339 0.93183339
-0.30018032 0.10878469 0.93300003
-0.29430994 0.10509717 0.93479311
-0.28916916 0.10213145 0.93575001
-0.42309001 0.11576077 0.93650013
-0.41433293 0.11470621 0.93352795
-0.4052256 0.11498468 0.93258822
-0.39459416 0.11405323 0.93289751
-0.38457057 0.11529201 0.93307167
-0.37609416 0.11606571 0.93558067
-0.36506283 0.1151106 0.93479425
-0.35533148 0.11481962 0.93537843
-0.34531826 0.11451768 0.93196571
-0.33505282 0.11345497 0.93019378
-0.325196 0.11147869 0.93000025
-0.317967 0.1108808 0.93000007
-0.30264834 0.11551928 0.93339151
-0.29761916 0.11156422 0.93671435
-0.43104738 0.12505087 0.93757153
-0.42480093 0.12497994 0.93461537
-0.41531223 0.12477925 0.93072444
-0.4084653 0.1214797 0.93000007
-0.38308126 0.12284897 0.93027288
-0.37556678 0.12337968 0.93156016
-0.36516687 0.12163035 0.93116665
-0.35573879 0.12319726 0.93216014
-0.34922016 0.12202323 0.93000007
-0.30597758 0.12572512 0.9331305
-0.43195811 0.13505919 0.93710005
-0.42530295 0.13473211 0.93346447
-0.41625598 0.1346453 0.93000025
-0.31179404 0.13731982 0.93000019
-0.30683658 0.13534622 0.93407124
-0.43048102 0.14554946 0.93800002
-0.42512727 0.14511412 0.93419057
-0.41824889 0.14630106 0.93000019
-0.312206 0.14464532 0.93146676
-0.30683014 0.14480896 0.93533325
-0.47267687 0.15402819 0.93733341
-0.4653388 0.15615204 0.93503118
-0.456175 0.1568964 0.93528569
-0.44635835 0.1596119 0.93559998
-0.43072772 0.15673292 0.93800002
-0.42460787 0.155332 0.93557698
-0.41621998 0.15577658 0.93209082
-0.31062931 0.15083049 0.93000007
-0.30745018 0.15426737 0.93383336
-0.47200784 0.16281803 0.93800002
-0.46474588 0.16514766 0.93496555
-0.45457444 0.16474172 0.93220609
-0.44463101 0.16445744 0.93260533
-0.4347662 0.16555232 0.9346751
-0.42439273 0.16580291 0.9351666
-0.41483319 0.16501459 0.93430769
-0.40856409 0.16596989 0.93128574
-0.31062931 0.16876709 0.93000007
-0.30562958 0.16583587 0.93228585
-0.46407825 0.17436492 0.93692863
-0.45502096 0.17481852 0.93183351
-0.44678441 0.17230006 0.93000025
-0.43526828 0.17325124 0.93000025
-0.42465785 0.17295508 0.93161315
-0.41528028 0.17469969 0.93340635
-0.40642777 0.17543963 0.93117398
-0.31062931 0.17284361 0.93000007
-0.30663487 0.17495064 0.93517143
-0.46378469 0.18090892 0.93800002
-0.45522904 0.1845071 0.9343043
-0.44582084 0.18774137 0.93000025
-0.41063944 0.18072481 0.93000007
-0.40412462 0.18380027 0.93010372
-0.39827406 0.18711135 0.93000007
-0.31062931 0.1867037 0.93000007
-0.30691102 0.18533434 0.93444824
-0.45354003 0.19566314 0.93620002
-0.4456403 0.19536081 0.93240911
-0.30695412 0.19544297 0.93403131
-0.45265344 0.20254946 0.93757147
-0.44540742 0.20462859 0.93419057
-0.43944669 0.20790149 0.93000007
-0.30586284 0.20536065 0.93418187
-0.47514486 0.21866512 0.93770009
-0.44298249 0.21400166 0.93527275
-0.43631601 0.21605349 0.93161547
-0.31087983 0.21541475 0.93075007
-0.30591714 0.21495287 0.93486118
-0.48115411 0.22541292 0.93500012
-0.47437564 0.22441879 0.93262875
-0.46569166 0.22461648 0.9331581
-0.45610496 0.22674823 0.93345457
-0.44087613 0.22167087 0.93650007
-0.43484935 0.22453135 0.93511117
-0.42732602 0.22672474 0.93112504
-0.3123149 0.22573631 0.93342853
-0.30748793 0.22398369 0.9365238
-0.47419268 0.2317712 0.93419999
-0.46688882 0.23402107 0.93140012
-0.45140231 0.23223872 0.93225002
-0.44515443 0.23630942 0.93356401
-0.43478915 0.23579705 0.93696761
-0.42491668 0.23523839 0.93300009
-0.41899383 0.23703729 0.93075007
-0.36411324 0.23622774 0.93084025
-0.35539097 0.23809598 0.93192858
-0.34619704 0.23852709 0.93042862
-0.3399801 0.2388829 0.93000007
-0.32265779 0.23782825 0.93042862
-0.3156631 0.23436978 0.93510336
-0.30836749 0.23107004 0.93800002
-0.46145979 0.2437747 0.93000007
-0.44232187 0.24204911 0.93033344
-0.43521324 0.24483652 0.93474543
-0.42493826 0.24516475 0.93622202
-0.41529524 0.2450905 0.93218189
-0.36379904 0.24442254 0.93182766
-0.3554616 0.24540301 0.93563622
-0.34471735 0.24482638 0.93400007
-0.33477476 0.24462083 0.93320692
-0.32539451 0.24336568 0.93495643
-0.31905758 0.2409378 0.93800002
-0.45173714 0.25751719 0.93350005
-0.44518799 0.25810781 0.93128586
-0.43434706 0.25446171 0.93227494
-0.42501175 0.25494581 0.93510413
-0.41525364 0.25481743 0.93690479
-0.40665841 0.25580648 0.9322353
-0.3978664 0.25845009 0.93000007
-0.36272177 0.2547394 0.93258339
-0.35712701 0.25363973 0.93744433
-0.34578276 0.25224462 0.9379999
-0.33703095 0.25127548 0.93800008
-0.45227233 0.26231796 0.93800002
-0.44483989 0.26436269 0.93468738
-0.43614426 0.2635611 0.93055576
-0.42334613 0.26194304 0.93234801
-0.41684413 0.26524043 0.93584836
-0.40414181 0.26341736 0.93508333
-0.39604056 0.2650122 0.93282366
-0.38472396 0.26685527 0.93236864
-0.37483704 0.26657709 0.93275011
-0.3655273 0.26474035 0.93406051
-0.44322687 0.27218571 0.93800002
-0.43567839 0.27382821 0.93240005
-0.4215101 0.27964789 0.93000007
-0.41526768 0.27556154 0.93420595
-0.40868974 0.27054107 0.93800002
-0.39142114 0.27054107 0.93800002
-0.38453555 0.27306446 0.93725014
-0.37547526 0.27247596 0.93778569
-0.36757407 0.27218568 0.93800002
-0.42268687 0.28527871 0.93300003
-0.41514617 0.28406948 0.93454051
-0.42266905 0.29027662 0.93800002
-0.41609052 0.29109892 0.93800008
-0.36343578 -0.010786945 0.94650006
-0.35985765 -0.01080404 0.94800007
-0.37343299 -0.0044535208 0.94581252
-0.36504123 -0.004922484 0.94487488
-0.3573392 -0.0059048971 0.94437498
-0.39206418 0.0078680832 0.94450003
-0.38803306 0.007835866 0.94075006
-0.37205121 0.00082494324 0.94100004
-0.3655307 0.00082511862 0.94120008
-0.39298338 0.012446913 0.94657147
-0.38786069 0.011286791 0.94200009
-0.33454809 0.087706111 0.94740009
-0.32752913 0.087004885 0.94524997
-0.2837494 0.085350581 0.94238472
-0.45127645 0.09806744 0.94800007
-0.44489548 0.095596626 0.94710326
-0.43467468 0.095214695 0.94617224
-0.42553523 0.096042834 0.94634604
-0.41540733 0.097471669 0.94706666
-0.40498304 0.09781146 0.94738472
-0.39636895 0.097222447 0.94786668
-0.35237789 0.098898523 0.94800007
-0.34471902 0.095645249 0.94593096
-0.33561739 0.093009621 0.94272727
-0.32595006 0.090887912 0.94128579
-0.28274357 0.095535196 0.94283348
-0.27894744 0.094644055 0.94700003
-0.45283911 0.10646021 0.94749999
-0.44449091 0.10453016 0.94568545
-0.43434125 0.10467815 0.94370604
-0.42513859 0.10398549 0.94209135
-0.41502398 0.10283891 0.94225031
-0.40501657 0.10305645 0.94350034
-0.39489263 0.104274 0.9446857
-0.38636461 0.10672604 0.94585711
-0.37415788 0.10708691 0.94692856
-0.3647944 0.1054932 0.94357705
-0.35548314 0.10513673 0.94482356
-0.34633687 0.10213597 0.94163644
-0.2917394 0.10901052 0.94060004
-0.28498566 0.10453252 0.94557524
-0.27841181 0.10056068 0.94800007
-0.45340979 0.1133021 0.9466666
-0.444444 0.11445519 0.94548547
-0.43509305 0.11522032 0.94330025
-0.42799193 0.11441596 0.94029999
-0.38149029 0.11030044 0.94600004
-0.37489334 0.11147423 0.94192868
-0.35682085 0.111249 0.94000006
-0.30083659 0.11832054 0.94120008
-0.29407591 0.11475357 0.94477421
-0.28688881 0.11252824 0.94800007
-0.45156044 0.12173393 0.9472
-0.445039 0.12454328 0.94567722
-0.43642431 0.12510373 0.94195014
-0.42933872 0.1211378 0.94000006
-0.3029713 0.12503113 0.9450435
-0.29722008 0.12207018 0.94723088
-0.48119533 0.1371282 0.94800007
-0.45161533 0.1344749 0.94771427
-0.44521078 0.13463925 0.94569987
-0.43670145 0.13500258 0.94064289
-0.30398154 0.13473895 0.94536829
-0.48424926 0.14584625 0.94642842
-0.47433099 0.14585662 0.94478947
-0.46532902 0.14662509 0.94576907
-0.45737103 0.14710115 0.94800013
-0.44473815 0.14374004 0.94671422
-0.43612742 0.14535016 0.9422859
-0.30293965 0.14492759 0.94517404
-0.49116829 0.15374979 0.94800007
-0.48478186 0.15507908 0.94436014
-0.47574461 0.15442865 0.94033349
-0.46380818 0.15117198 0.94230777
-0.45429179 0.15410568 0.94482344
-0.44487706 0.15502137 0.94464999
-0.43561172 0.15485911 0.94212508
-0.30363619 0.15498529 0.94361788
-0.4839969 0.16427492 0.9448095
-0.47588694 0.16551682 0.94078958
-0.43538186 0.16197488 0.94000012
-0.42684078 0.16618241 0.94092309
-0.3029204 0.16467188 0.94571865
-0.48219287 0.17357641 0.94633347
-0.47387224 0.17521976 0.94182169
-0.46779516 0.17525153 0.94000006
-0.30128425 0.17447075 0.9428097
-0.29913619 0.1755262 0.94000006
-0.47332585 0.18450142 0.94611102
-0.46517646 0.18613118 0.94206244
-0.30313981 0.1850635 0.94431823
-0.49443626 0.19807242 0.94746667
-0.48898977 0.19924793 0.94700003
-0.47122237 0.19197948 0.94800007
-0.46429649 0.19442318 0.94461113
-0.45900512 0.19447973 0.94000006
-0.30334622 0.19443303 0.94421053
-0.49446893 0.20454623 0.94606233
-0.48436999 0.20457266 0.943946
-0.47552294 0.20647146 0.9446876
-0.46484154 0.2062726 0.94685012
-0.45553613 0.20667729 0.94085735
-0.30239043 0.20457514 0.94404763
-0.49367559 0.21427178 0.94572216
-0.48486131 0.21475843 0.94220036
-0.47402635 0.21389763 0.94130784
-0.46550328 0.21531209 0.94610006
-0.45511591 0.21541239 0.94519991
-0.44821891 0.21586221 0.94099998
-0.3014898 0.21499252 0.94494742
-0.49487573 0.22280116 0.94620001
-0.4858833 0.22269149 0.94290006
-0.47054207 0.22002579 0.94000006
-0.46348217 0.22164153 0.94400001
-0.45470461 0.22509214 0.94399995
-0.44543985 0.22554173 0.94156039
-0.43856826 0.22859609 0.94000006
-0.30291277 0.22492363 0.94506896
-0.29835773 0.22272944 0.94800007
-0.48468193 0.23422679 0.94600004
-0.47679007 0.2368803 0.9436667
-0.45065707 0.23110555 0.94150007
-0.44518051 0.23229675 0.94120002
-0.43799144 0.23279883 0.94000006
-0.31201574 0.23675731 0.94192857
-0.3064214 0.23408052 0.94611114
-0.47606871 0.24163021 0.94716668
-0.33127481 0.2496922 0.94000006
-0.32282096 0.24706051 0.9425385
-0.31573844 0.24477875 0.94674999
-0.30916178 0.2410132 0.94800007
-0.46129411 0.25793201 0.94300008
-0.45735699 0.25793287 0.94000006
-0.42192215 0.2558727 0.94000006
-0.41780177 0.25903162 0.94000006
-0.35405263 0.25751898 0.94235718
-0.34473544 0.2570439 0.94230771
-0.33496258 0.25557017 0.94343489
-0.32690063 0.25259924 0.94661534
-0.31996581 0.25015509 0.94800007
-0.46229556 0.2654694 0.94631255
-0.45520195 0.26589659 0.94235718
-0.44746819 0.26864573 0.94000006
-0.4138242 0.2664499 0.94020015
-0.40671435 0.26842099 0.94000018
-0.36133587 0.26535505 0.94060004
-0.35642603 0.26478255 0.94523317
-0.34489822 0.26068211 0.94800013
-0.33725226 0.26112533 0.94800007
-0.46308383 0.27120429 0.94749999
-0.45315534 0.27083248 0.9436
-0.444969 0.27445978 0.94239998
-0.43757939 0.2793586 0.94000006
-0.4124454 0.27413949 0.94000024
-0.40581605 0.27584848 0.94333321
-0.39564174 0.27517539 0.94234788
-0.38569659 0.27736422 0.94136357
-0.37537736 0.2769675 0.94107145
-0.36435491 0.27521876 0.94408822
-0.35755816 0.27318344 0.9475714
-0.41120926 0.28529188 0.94000006
-0.40634066 0.28474522 0.94465113
-0.39503756 0.28284994 0.94653338
-0.38514885 0.28297764 0.94499981
-0.37542844 0.28263438 0.94605565
-0.36615735 0.2816512 0.94771433
-0.42377582 0.29593402 0.94449997
-0.41425195 0.2954618 0.94228572
-0.40646401 0.29362872 0.9455483
-0.42385077 0.30001989 0.94800007
-0.41470894 0.30001989 0.94800013
-0.40806031 0.30001989 0.94800013
-0.3625004 -0.013498162 0.95371437
-0.35808012 -0.012439243 0.95658332
-0.38152361 -0.003850671 0.95480001
-0.37682003 -0.0053625698 0.95185721
-0.35494745 -0.008083743 0.95366669
-0.40265179 0.0077480897 0.95537502
-0.39826509 0.0071925237 0.95400012
-0.40233791 0.013200737 0.95612496
-0.39816841 0.014479463 0.95283341
-0.46406209 0.077450961 0.95799989
-0.45626441 0.077343948 0.95795
-0.44530508 0.077286415 0.95773685
-0.43672943 0.077907011 0.95773679
-0.42759189 0.07953243 0.95899999
-0.3376905 0.079308234 0.95900005
-0.47164577 0.089957394 0.95900005
-0.46454942 0.085529968 0.95649987
-0.45476872 0.085321486 0.95448512
-0.44499245 0.085402213 0.95377153
-0.43508437 0.085285619 0.95380563
-0.42556304 0.085582212 0.95592302
-0.41549537 0.087893955 0.95818174
-0.40488893 0.08732345 0.95780003
-0.39514521 0.08855623 0.95814282
-0.38632372 0.088505879 0.95818174
-0.37075898 0.089957394 0.95900005
-0.36492869 0.088920392 0.9587
-0.35493773 0.088178091 0.95688236
-0.34503049 0.086756065 0.95620024
-0.33614722 0.083991036 0.95366681
-0.29004955 0.081550166 0.95900005
-0.28330466 0.086363494 0.95649999
-0.27672735 0.08866398 0.95899993
-0.47187573 0.095582008 0.95810002
-0.46467382 0.095444776 0.9550333
-0.45560679 0.094598562 0.95212513
-0.44520113 0.090874381 0.95100003
-0.43575242 0.091152281 0.95100003
-0.42426845 0.092270561 0.95280021
-0.41535535 0.093514919 0.95430452
-0.40558302 0.093378514 0.95390493
-0.39400214 0.094413362 0.95437038
-0.38580278 0.097064041 0.95685709
-0.37465993 0.09628313 0.95814794
-0.36495969 0.095750012 0.95581806
-0.35545829 0.094503216 0.95334631
-0.34765705 0.091430187 0.95100003
-0.2801739 0.091161057 0.95400006
-0.27478641 0.095500581 0.95563877
-0.26657644 0.095960952 0.95851982
-0.4724288 0.10460291 0.95872724
-0.46472278 0.10514072 0.95437056
-0.45717171 0.10423198 0.95220011
-0.39184368 0.10087891 0.95100003
-0.38461509 0.10365342 0.9538402
-0.37567791 0.10287035 0.95300019
-0.36484119 0.10170308 0.95287508
-0.35932902 0.10087891 0.95100003
-0.28096026 0.10754859 0.95100003
-0.27468115 0.10500755 0.95144755
-0.26528913 0.10515407 0.95635712
-0.25636053 0.10503037 0.95899975
-0.47169727 0.114668 0.95825005
-0.46494851 0.1158276 0.95436013
-0.45747042 0.11718261 0.95137513
-0.2917985 0.11838682 0.95100003
-0.28378615 0.11613321 0.95210016
-0.274811 0.1152763 0.95380008
-0.26416689 0.11496151 0.95289767
-0.25603476 0.11507035 0.95811743
-0.2466504 0.1167936 0.95845455
-0.48123214 0.12849478 0.958
-0.47188598 0.12430693 0.95900005
-0.46488422 0.1255063 0.95559263
-0.45644936 0.12571584 0.95220011
-0.30128404 0.12936093 0.95200008
-0.29437107 0.12552874 0.95457703
-0.28526756 0.12371184 0.95734996
-0.27473447 0.12465007 0.95723069
-0.26434624 0.12548192 0.95422244
-0.25499377 0.12468683 0.95644122
-0.24969482 0.12022343 0.95900005
-0.49464312 0.13507073 0.95574999
-0.48522249 0.13489982 0.95404977
-0.47544518 0.13675873 0.95574296
-0.46567267 0.13580799 0.95665622
-0.45680287 0.13533577 0.9525885
-0.30142784 0.13536161 0.95276487
-0.29785079 0.13508154 0.95705897
-0.27284703 0.13470973 0.95899993
-0.26549873 0.13475616 0.95692581
-0.25796661 0.13220496 0.95850009
-0.49554831 0.14522663 0.95300025
-0.48521921 0.14089699 0.95100003
-0.47480482 0.14102398 0.95185721
-0.46471956 0.14314203 0.95368445
-0.45533481 0.14558497 0.95150018
-0.44870272 0.14790015 0.95100003
-0.30146366 0.14490773 0.95545459
-0.2987043 0.1413736 0.958
-0.27155364 0.1404008 0.95900005
-0.26756018 0.14166187 0.95900005
-0.49553615 0.1547029 0.95320016
-0.45770681 0.15090151 0.95100003
-0.30066174 0.15569232 0.95480001
-0.49488825 0.16502084 0.95550001
-0.48938778 0.16840941 0.95100003
-0.30048713 0.16681124 0.95300007
-0.29814306 0.16544043 0.95489484
-0.49315593 0.17334469 0.95785719
-0.48663944 0.17624575 0.9528001
-0.30071464 0.17595622 0.95350009
-0.29802749 0.17519997 0.9568572
-0.49014169 0.18075551 0.95900005
-0.4847292 0.18606535 0.95542866
-0.47771582 0.18786265 0.95100003
-0.30102596 0.18525918 0.95506674
-0.29842111 0.18421373 0.95790905
-0.49403909 0.19474337 0.95606446
-0.48502505 0.19611996 0.95503139
-0.4759343 0.19607662 0.95304024
-0.46937874 0.19842297 0.95100003
-0.3013069 0.19483021 0.95207161
-0.29885936 0.19576451 0.9560715
-0.48188436 0.20092411 0.95100003
-0.47468472 0.20372963 0.9531365
-0.46812814 0.20342524 0.95100003
-0.30088386 0.20550524 0.95437521
-0.2987538 0.20571947 0.95780003
-0.49883649 0.21759832 0.95100003
-0.30060768 0.21126133 0.95250005
-0.29842067 0.21589859 0.95436841
-0.49581298 0.22617336 0.95241201
-0.46437648 0.22093315 0.95100003
-0.30048713 0.22919483 0.95300007
-0.29771188 0.22501013 0.95572239
-0.4938072 0.23337846 0.95416671
-0.48645169 0.23832633 0.95137507
-0.30243543 0.23562834 0.9546001
-0.29787508 0.23346694 0.95833331
-0.49224409 0.24620271 0.95720005
-0.48508272 0.24496733 0.95368022
-0.477633 0.2468908 0.95250005
-0.3117685 0.24750608 0.95344448
-0.30648518 0.24380821 0.95666659
-0.49028459 0.25058991 0.95600003
-0.48455253 0.25242615 0.95660007
-0.47749978 0.25124761 0.95485717
-0.33132914 0.2589989 0.95200008
-0.32455936 0.25597072 0.95418763
-0.31585014 0.25155094 0.95399994
-0.4668296 0.26491135 0.95175004
-0.35253197 0.26743028 0.95518184
-0.34546134 0.26622599 0.95480967
-0.33488363 0.26507968 0.95499998
-0.32820737 0.26147637 0.95750004
-0.36099643 0.27929285 0.95100003
-0.35474211 0.27479526 0.95611537
-0.34217438 0.27155364 0.95900005
-0.33881149 0.27155364 0.95900005
-0.44555157 0.2828519 0.95175004
-0.40195626 0.28842485 0.95225006
-0.3968468 0.2874774 0.95233339
-0.38434029 0.28796345 0.95100003
-0.37388062 0.28755262 0.95240009
-0.36474827 0.28608254 0.95468199
-0.3584207 0.2822516 0.95600003
-0.40273863 0.29540026 0.95510006
-0.39568093 0.29303178 0.95664996
-0.38509688 0.29287899 0.95633328
-0.37525731 0.29243076 0.95681244
-0.36730567 0.29171047 0.95814288
-0.43229529 0.30554596 0.95750004
-0.4253501 0.30488238 0.95541674
-0.4147822 0.30571777 0.95410013
-0.40488392 0.30493006 0.95621622
-0.39934358 0.30350113 0.95900005
-0.41447657 0.31268439 0.95899993
-0.40595725 0.31302935 0.95899987
-0.41368759 0.0093058171 0.96500009
-0.40902635 0.0092768865 0.96200007
-0.41434872 0.014111702 0.96566677
-0.40809143 0.014366814 0.96377784
-0.4806667 0.067818932 0.96700007
-0.47465545 0.067896001 0.96700007
-0.46362033 0.066890486 0.96586668
-0.45472962 0.066854306 0.9653334
-0.44486454 0.065735675 0.96550018
-0.4378379 0.066928588 0.96640003
-0.42528126 0.068101518 0.96700007
-0.41313031 0.066123463 0.96700007
-0.40658757 0.066840775 0.96700007
-0.39716464 0.068242803 0.96700007
-0.36452678 0.068666667 0.96700007
-0.29077366 0.068666667 0.96700007
-0.28907821 0.068666667 0.96700007
-0.48151442 0.074600831 0.96700007
-0.47511378 0.074134417 0.96567887
-0.46578151 0.072233483 0.96333325
-0.45467076 0.072717763 0.96266669
-0.44541702 0.07210964 0.96294737
-0.43467018 0.073622406 0.96393782
-0.42462039 0.074797802 0.96491462
-0.41498095 0.074216329 0.96481282
-0.40588769 0.075234689 0.96560645
-0.3957234 0.075787649 0.96700019
-0.38487247 0.077709198 0.96700007
-0.37466791 0.075751267 0.96637529
-0.36498499 0.074992515 0.96645987
-0.35425973 0.077897578 0.96700013
-0.34437323 0.077561967 0.96645457
-0.3399424 0.0762963 0.96700007
-0.29291147 0.074219137 0.9663077
-0.28545359 0.074435443 0.96430564
-0.27687839 0.076858126 0.96474999
-0.48434061 0.08493764 0.96665418
-0.47556329 0.08452592 0.96380019
-0.4215892 0.081467845 0.96244442
-0.41477221 0.082792908 0.9622857
-0.40463901 0.082497954 0.96326089
-0.39490178 0.083257735 0.96366668
-0.38493139 0.084013931 0.96400023
-0.37468573 0.084387794 0.9626112
-0.36493888 0.083442822 0.96406686
-0.35516268 0.082781352 0.96404767
-0.34600639 0.081984825 0.96279997
-0.29315352 0.080257371 0.96366674
-0.28458491 0.081992671 0.96200001
-0.27450305 0.083694786 0.96253121
-0.26532254 0.08558578 0.96416146
-0.48488563 0.094878115 0.966308
-0.47740239 0.094178788 0.96285713
-0.39834389 0.091363274 0.96200007
-0.38437605 0.092696004 0.96222222
-0.37716636 0.092112929 0.96200001
-0.27071643 0.09023881 0.96200007
-0.26314965 0.092690192 0.96257895
-0.2558454 0.095964864 0.96415401
-0.24838684 0.099185191 0.96700007
-0.49083954 0.10257614 0.96700007
-0.48491043 0.10510843 0.96555209
-0.47775224 0.10466713 0.96283334
-0.25220579 0.10289572 0.96259999
-0.24766612 0.10582069 0.96566665
-0.49083954 0.11274897 0.96700007
-0.48416731 0.11414049 0.96668434
-0.47699097 0.11409201 0.963
-0.25197521 0.11272822 0.96200001
-0.24504109 0.11356176 0.96385014
-0.49557751 0.12666008 0.96517414
-0.48481667 0.12646604 0.964261
-0.47752699 0.12510817 0.96388233
-0.29264358 0.12903306 0.96200007
-0.28546587 0.12853044 0.96244454
-0.27780062 0.12700902 0.96200007
-0.4967351 0.13071977 0.96200007
-0.48324147 0.13128202 0.96200007
-0.47643137 0.1316645 0.96218187
-0.29382154 0.1350351 0.96388018
-0.28491637 0.13432284 0.9650802
-0.27781919 0.1351123 0.96249998
-0.26172063 0.13802883 0.96200007
-0.25720099 0.13599525 0.96350002
-0.30119094 0.14707471 0.9641667
-0.29770824 0.14299436 0.96514285
-0.28116599 0.14439781 0.96700007
-0.27492979 0.1450806 0.96318525
-0.26390013 0.14550839 0.96302938
-0.25832972 0.14580032 0.96614295
-0.3015655 0.15296659 0.96491671
-0.29932076 0.15811472 0.96450007
-0.27391374 0.15422328 0.96600014
-0.2653164 0.15425302 0.96450025
-0.25855967 0.15004939 0.96700007
-0.29865536 0.16285092 0.9641667
-0.26788479 0.16022223 0.96700007
-0.49689883 0.17673439 0.9629091
-0.29668242 0.17632015 0.96233338
-0.25685173 0.17704037 0.96440011
-0.4959102 0.18555257 0.963355
-0.4899883 0.18806779 0.96200007
-0.2963132 0.18607575 0.96333325
-0.25771195 0.18056791 0.96700007
-0.4967351 0.1921159 0.96200007
-0.29762799 0.19408135 0.96340001
-0.29918727 0.205522 0.96475005
-0.29804459 0.21486977 0.96420002
-0.29616949 0.22541629 0.96500009
-0.29702404 0.23557281 0.96466666
-0.30258614 0.24668653 0.9639231
-0.29914278 0.2430402 0.96483344
-0.48584878 0.25771356 0.96383333
-0.32249412 0.25875604 0.96300006
-0.31480557 0.25569347 0.96513337
-0.3054032 0.25246423 0.96573335
-0.48490536 0.26025516 0.96700007
-0.33218867 0.26767719 0.96320009
-0.32764298 0.26304317 0.9632501
-0.35273346 0.27791649 0.96357143
-0.3457374 0.27479982 0.96337497
-0.33677369 0.27318117 0.96400005
-0.3607648 0.28895086 0.96375006
-0.35681111 0.28379923 0.96562511
-0.40059283 0.29770371 0.96200007
-0.39502668 0.29854709 0.96200001
-0.38456914 0.29770371 0.96200007
-0.37439105 0.29759678 0.9636364
-0.36379638 0.29427171 0.96485007
-0.43179691 0.3086673 0.96200007
-0.42589343 0.30951068 0.96200007
-0.40131572 0.30613723 0.96200001
-0.3957004 0.30429602 0.96417874
-0.38483417 0.30190387 0.96531248
-0.37919557 0.30047968 0.96550006
-0.43217847 0.31467456 0.9647333
-0.42509627 0.31468141 0.96440017
-0.41610759 0.31767923 0.96375006
-0.40450948 0.31576648 0.96410006
-0.39955488 0.31189343 0.96520007
-0.412 0.32129219 0.96700007
-0.42377749 0.018100185 0.97380006
-0.41523352 0.01855009 0.97060013
-0.40902635 0.019558433 0.97000003
-0.42531013 0.022283658 0.97762513
-0.41839966 0.021390667 0.97600001
-0.45784092 0.045441139 0.9780001
-0.4415507 0.048013277 0.97800004
-0.43726379 0.048013277 0.9780001
-0.4223766 0.043882266 0.97800004
-0.41481119 0.045066029 0.97800028
-0.40424559 0.044652361 0.97688586
-0.39772904 0.045631669 0.9780001
-0.31122893 0.04887066 0.97800004
-0.30951416 0.04887066 0.97800004
-0.49342218 0.057015769 0.97800004
-0.48596323 0.057205517 0.97555566
-0.47464556 0.058130365 0.97800004
-0.4647947 0.057383962 0.97700012
-0.45436889 0.055401679 0.9764486
-0.44468921 0.055310991 0.97651649
-0.43525055 0.05459819 0.97676492
-0.42582774 0.05567465 0.9770692
-0.41489938 0.055201266 0.97655576
-0.40510523 0.05469729 0.97488904
-0.39662623 0.055640284 0.97643495
-0.38427773 0.058816265 0.97800004
-0.37508294 0.057921428 0.97778565
-0.36454064 0.056455143 0.97738892
-0.35514268 0.05528352 0.975097
-0.34959275 0.058123 0.97500002
-0.30509192 0.055368692 0.97800004
-0.29745299 0.058977749 0.97500002
-0.49375865 0.066252112 0.97725004
-0.48613077 0.06415505 0.97577441
-0.47451869 0.063499488 0.97337502
-0.46447131 0.062425066 0.9723531
-0.45492741 0.062274627 0.97107708
-0.44434083 0.061344482 0.97084624
-0.43461692 0.064370073 0.97256237
-0.42494807 0.06392397 0.97321427
-0.41587627 0.063379683 0.97221053
-0.40424702 0.063610017 0.97229624
-0.39448965 0.064468898 0.97429758
-0.38513157 0.065325283 0.97600019
-0.374571 0.064529143 0.97312903
-0.3651267 0.064379796 0.97182137
-0.35491854 0.064728059 0.97086835
-0.3482137 0.066183746 0.9745295
-0.30256107 0.064730905 0.97363162
-0.29538304 0.065171696 0.97203684
-0.28501362 0.065803222 0.97214264
-0.27701491 0.066007107 0.97361118
-0.49516207 0.075142398 0.97525936
-0.48617059 0.075251713 0.97104996
-0.43113589 0.07058043 0.97000003
-0.42943516 0.07058043 0.97000003
-0.40316826 0.072470136 0.97000015
-0.39371979 0.073320501 0.97000015
-0.38528851 0.072921082 0.97100002
-0.37664613 0.071670681 0.97037512
-0.3622562 0.07058043 0.97000003
-0.3553097 0.073625252 0.97010696
-0.34637123 0.073262408 0.97050011
-0.30147019 0.072741412 0.97233337
-0.29808989 0.074947983 0.9715001
-0.28147137 0.07058043 0.97000003
-0.27523944 0.074303083 0.97329164
-0.26731092 0.079426527 0.97420007
-0.49474737 0.084527761 0.97394454
-0.4872601 0.080784835 0.97000003
-0.26324141 0.082495145 0.9732309
-0.25673029 0.087120675 0.97385705
-0.49410129 0.094892591 0.97300005
-0.25321257 0.093151674 0.97288895
-0.24807447 0.096435085 0.9746666
-0.49539453 0.10471552 0.97300005
-0.24376446 0.10483197 0.97347999
-0.23920901 0.1071725 0.97800004
-0.49514928 0.11519067 0.97329998
-0.48751128 0.11741152 0.97049999
-0.24153282 0.11412972 0.97257143
-0.23845224 0.11380879 0.97608346
-0.49498677 0.12245183 0.97358841
-0.48764643 0.12233708 0.97133332
-0.29167578 0.13860977 0.97000003
-0.28912467 0.1377594 0.97000003
-0.2576611 0.13690904 0.97000003
-0.30017942 0.14881417 0.97000003
-0.29448822 0.1457869 0.97207129
-0.286506 0.14509983 0.97120816
-0.25679541 0.14595163 0.97075009
-0.30017942 0.15306599 0.97000003
-0.29651695 0.15464213 0.97537047
-0.28513312 0.15511633 0.97423077
-0.27849507 0.15582968 0.97000015
-0.26219639 0.15590055 0.97000009
-0.25751218 0.15327707 0.97092319
-0.29860255 0.16347858 0.97430003
-0.28297731 0.16445273 0.97616673
-0.27481419 0.16517301 0.97237903
-0.26665145 0.16497974 0.97286946
-0.27391297 0.17355928 0.97694117
-0.26535085 0.17455 0.97533351
-0.25936183 0.1760259 0.97000003
-0.29651701 0.18585187 0.97100002
-0.26391026 0.18173914 0.97633338
-0.29690647 0.19564821 0.97340006
-0.30047882 0.20545429 0.97650003
-0.29836825 0.20148429 0.97800004
-0.30001724 0.21112324 0.97500002
-0.29699373 0.21565434 0.97394735
-0.2954801 0.22396174 0.97433352
-0.29615968 0.23592977 0.97357148
-0.30017942 0.24915743 0.97000003
-0.29709333 0.2452836 0.9742381
-0.31236801 0.25879493 0.97000009
-0.30308396 0.25617024 0.97215784
-0.29800868 0.25203151 0.97642863
-0.33078972 0.26821616 0.97333336
-0.32500762 0.26561853 0.97485006
-0.3156859 0.26348341 0.97507697
-0.30634144 0.26184884 0.97609997
-0.35120144 0.27977064 0.97000003
-0.34779993 0.27977064 0.97000003
-0.33459052 0.27533668 0.97495234
-0.3253096 0.27619049 0.97600001
-0.31845617 0.27907586 0.97650003
-0.35507178 0.28634724 0.97419059
-0.3460668 0.28306952 0.97550011
-0.33780771 0.28036326 0.97800004
-0.32237488 0.28036326 0.97800004
-0.36151069 0.2981666 0.97119999
-0.35821995 0.29420319 0.97500008
-0.39270577 0.3078666 0.97100002
-0.38354698 0.30712679 0.97225004
-0.37523904 0.30525294 0.97480965
-0.36486742 0.30329913 0.97428566
-0.35944474 0.30120423 0.97700006
-0.4307633 0.31987375 0.97300005
-0.42773443 0.3188875 0.97000003
-0.40239832 0.3179388 0.9731667
-0.39520451 0.31405935 0.97442865
-0.38601926 0.31194267 0.97687507
-0.4314239 0.32293156 0.9745
-0.42528751 0.32382849 0.97462505
-0.41442958 0.32544211 0.97405553
-0.40509552 0.32427898 0.97660017
-0.39855811 0.32233104 0.977
-0.41411453 0.3300913 0.97800004
-0.41165769 0.019891128 0.98650002
-0.43180874 0.027275294 0.98250002
-0.42515329 0.026081076 0.98371452
-0.4147425 0.025217339 0.98779422
-0.40316585 0.02861177 0.98900002
-0.39969775 0.02861177 0.98900002
-0.38409135 0.02861177 0.98900002
-0.37282002 0.02861177 0.98900002
-0.45345321 0.039016049 0.98900002
-0.44309455 0.036066063 0.98837513
-0.43444705 0.034612805 0.98412019
-0.42464274 0.0342585 0.98530567
-0.41514403 0.034426428 0.98656249
-0.40513352 0.034552414 0.98619986
-0.39484757 0.035621565 0.98779333
-0.38497373 0.034989338 0.98800009
-0.37491173 0.035134111 0.98719996
-0.3694703 0.036341339 0.98700005
-0.47368371 0.047686283 0.98900002
-0.46425623 0.047041427 0.98328584
-0.45463178 0.044843864 0.98586231
-0.44520497 0.044189662 0.98370856
-0.43447381 0.044398203 0.98166692
-0.42646939 0.04529386 0.98100007
-0.41653147 0.04099381 0.98100013
-0.4050647 0.040420469 0.98100007
-0.3943978 0.044393197 0.98261553
-0.38529256 0.044499688 0.98293531
-0.37442079 0.044725209 0.9835313
-0.36550334 0.045189101 0.98349983
-0.35776415 0.04902057 0.98100007
-0.31364495 0.045811012 0.98263645
-0.30968776 0.045719918 0.98400003
-0.49817148 0.058070399 0.98280001
-0.48256874 0.054188441 0.98409098
-0.47589773 0.053657595 0.98504764
-0.46542209 0.052572947 0.98314291
-0.45551863 0.050740588 0.98100013
-0.44806522 0.050740588 0.98100007
-0.42355493 0.052603941 0.98100001
-0.39402035 0.053999573 0.98100013
-0.38555136 0.054121312 0.98100036
-0.37504256 0.053086076 0.98100019
-0.36675513 0.052304246 0.98100001
-0.35776415 0.050740588 0.98100007
-0.49832648 0.06454809 0.98175001
-0.34701401 0.066220775 0.98100007
-0.27334228 0.068305232 0.98271435
-0.34486401 0.071380831 0.98100007
-0.2719532 0.072977021 0.98325008
-0.26644388 0.075791299 0.98426324
-0.26058304 0.081700951 0.98100007
-0.25026292 0.09202107 0.98100007
-0.24639288 0.096321113 0.98100007
-0.24215357 0.10205873 0.98159999
-0.2390565 0.10722089 0.98159999
-0.23477419 0.11641442 0.98442096
-0.2359259 0.12142565 0.98699999
-0.29390842 0.15802684 0.98100001
-0.30014348 0.16770194 0.98100007
-0.29466793 0.1649991 0.98269588
-0.28810716 0.16513652 0.98154551
-0.30024868 0.17218873 0.98700005
-0.29444382 0.172278 0.9883334
-0.28514779 0.17477432 0.98427272
-0.27640718 0.17767805 0.98100007
-0.26746312 0.17974208 0.98100007
-0.28344294 0.18414605 0.98810548
-0.27507666 0.18438484 0.98700005
-0.26638195 0.18558376 0.98575002
-0.29458761 0.19883853 0.98400009
-0.30014348 0.20640239 0.98100007
-0.29444501 0.2052407 0.98250002
-0.28986543 0.20679952 0.98700005
-0.29376265 0.21502233 0.984375
-0.28914613 0.21426435 0.98750007
-0.29256377 0.22557747 0.98411775
-0.28874552 0.22505066 0.98777783
-0.293318 0.23467553 0.98380011
-0.28963608 0.23423639 0.98740005
-0.29244339 0.24451168 0.98373693
-0.28967431 0.24553214 0.98733336
-0.30014348 0.258003 0.98100007
-0.29374349 0.25542173 0.98507696
-0.28910097 0.25213489 0.9883334
-0.32250375 0.26918313 0.98100007
-0.31494346 0.26815528 0.9818182
-0.30388075 0.26640153 0.98581266
-0.29677141 0.2629157 0.98800009
-0.33233243 0.27704605 0.98100001
-0.32455459 0.27550146 0.9844231
-0.31520981 0.27501926 0.9881202
-0.30837134 0.27253434 0.98900002
-0.35260412 0.28939337 0.98100007
-0.34305197 0.28713551 0.98357153
-0.33612993 0.28457335 0.98492867
-0.31559649 0.28091559 0.98900002
-0.3539345 0.29530492 0.98360002
-0.34661648 0.29130054 0.98600006
-0.33813912 0.29045281 0.98900002
-0.37152433 0.3087436 0.98100007
-0.36262861 0.3079004 0.98159999
-0.35812965 0.30448639 0.98390007
-0.39375243 0.31801632 0.98175007
-0.38394994 0.31657389 0.98394126
-0.37514481 0.31519964 0.98565382
-0.36566025 0.31330651 0.98607159
-0.35981467 0.31126139 0.98900002
-0.4300392 0.32966787 0.98700005
-0.42830864 0.32966787 0.98700005
-0.40377468 0.32895383 0.98100007
-0.39549223 0.32454473 0.98471433
-0.38409135 0.32166564 0.98900002
-0.43091059 0.33293694 0.98900002
-0.42559046 0.33332232 0.98757142
-0.41331884 0.33576971 0.98593348
-0.40485638 0.33520013 0.98595029
-0.39849073 0.33355665 0.987625
-0.41084284 0.017881809 0.99500006
-0.40508488 0.01837318 0.99800003
-0.3926321 0.017754838 0.99600005
-0.38735217 0.017946944 0.99380004
-0.37829921 0.01826272 0.99200004
-0.41084018 0.020062517 0.995
-0.40598628 0.02439044 0.99482882
-0.39424479 0.025058748 0.99437505
-0.38471341 0.024489706 0.99236381
-0.37733293 0.025992971 0.99200004
-0.45254731 0.037176218 0.99400002
-0.44874114 0.036525439 0.99200004
-0.39743158 0.031742346 0.99200004
-0.38421282 0.030437866 0.99199998
-0.37829921 0.030437866 0.99200004
-0.48091829 0.04957024 0.99200004
-0.47917899 0.048700586 0.99200004
-0.23045813 0.1174032 0.99200004
-0.22871883 0.11827286 0.99200004
-0.23422182 0.12364227 0.9932
-0.22871883 0.12088181 0.99200004
-0.30207568 0.17671758 0.99300003
-0.29561904 0.17662257 0.99246144
-0.30167648 0.18436609 0.99523079
-0.29510409 0.1847768 0.99500012
-0.28814515 0.1863957 0.99200004
-0.27220151 0.18871479 0.99200004
-0.26872289 0.18871477 0.99200004
-0.2926572 0.19440477 0.99710006
-0.28465384 0.19463269 0.99522251
-0.27506328 0.19319378 0.99457151
-0.26781261 0.19200285 0.99400002
-0.29296508 0.20166878 0.99585718
-0.28959632 0.20035516 0.99800003
-0.29098845 0.21541314 0.9932
-0.28959456 0.21306506 0.99200004
-0.28785524 0.22697952 0.99200004
-0.28916019 0.23481226 0.99350005
-0.28884825 0.24514744 0.99414283
-0.2882565 0.25509813 0.99540007
-0.30003041 0.26872289 0.99200004
-0.29366073 0.26594642 0.99400014
-0.28884739 0.26289883 0.9962858
-0.311046 0.27857897 0.99200004
-0.30474931 0.27497131 0.99408686
-0.29658744 0.2718254 0.99699998
-0.33655584 0.28785524 0.99200004
-0.31133589 0.28089803 0.99200004
-0.30701667 0.28163117 0.99371427
-0.35140336 0.29627097 0.99300003
-0.34574512 0.29533839 0.99424988
-0.33793437 0.29177177 0.99350005
-0.35635948 0.30578622 0.99457139
-0.37134197 0.31916279 0.99200004
-0.36369514 0.31709775 0.99445456
-0.35835248 0.31251788 0.99457151
-0.39310062 0.32729757 0.99425
-0.38525632 0.32578263 0.99449992
-0.37492546 0.32340944 0.99476922
-0.36661091 0.32204294 0.99687505
-0.43133226 0.33859146 0.99800003
-0.42643455 0.33826423 0.99575001
-0.40037805 0.33931822 0.99500006
-0.39732155 0.33480966 0.99500006
-0.43133226 0.34034127 0.99800003
-0.4278326 0.34034127 0.99800003
-0.40276936 0.34201357 0.99414289
-0.39983538 0.34209111 0.99800003
-0.41192111 0.016723294 1.0040001
-0.40512899 0.016609378 1.0034707
-0.3977654 0.017033283 1.0016
-0.40191486 0.021938583 1.001
-0.39928222 0.021938583 1.001
-0.23375945 0.12789641 1.0052
-0.2266569 0.12964322 1.006
-0.23041166 0.13153769 1.0070001
-0.22352877 0.13312422 1.0056363
-0.21938145 0.13304029 1.0050001
-0.30116963 0.19549625 1.0045
-0.29668108 0.19600844 1.0019231
-0.28871176 0.19920233 1.001
-0.27669963 0.19881542 1.002
-0.29277334 0.2060557 1.0056363
-0.28559262 0.20452595 1.0042609
-0.27744484 0.20208152 1.0055001
-0.28871176 0.23781425 1.001
-0.28888962 0.24525696 1.0043334
-0.28578347 0.2558769 1.0034375
-0.29046685 0.26940581 1.001
-0.28590021 0.26508975 1.0037391
-0.30275974 0.27875164 1.002
-0.29443708 0.27608973 1.0037142
-0.28736681 0.27327308 1.005
-0.30408037 0.28387049 1.0058461
-0.29927033 0.28161427 1.0070001
-0.34838471 0.29924229 1.001
-0.35467896 0.30433267 1.0035386
-0.3606703 0.31854823 1.001
-0.35717157 0.31604853 1.0042144
-0.38173136 0.32907873 1.001
-0.3744356 0.3277441 1.0022857
-0.36379105 0.3252103 1.0027368
-0.35855004 0.32268623 1.006
-0.43438396 0.33960927 1.001
-0.3943457 0.33590636 1.0033333
-0.38521987 0.33397925 1.0040001
-0.37639201 0.33085153 1.0055001
-0.36812899 0.33149266 1.0070001
-0.43438396 0.34136435 1.001
-0.40143618 0.34609747 1.002
-0.39900926 0.34326759 1.0040001
-0.41438282 0.015052367 1.01
-0.24030398 0.13489182 1.0190001
-0.23432401 0.13524041 1.0148751
-0.22543934 0.1375263 1.0130001
-0.21935165 0.13764982 1.013
-0.23226407 0.14114508 1.0190001
-0.22407956 0.14341922 1.0178
-0.21805388 0.14309011 1.018
-0.27359891 0.19922251 1.01
-0.28274837 0.20866711 1.0100001
-0.27659217 0.20620833 1.0145
-0.29342949 0.2151105 1.0173637
-0.28520551 0.21460028 1.016158
-0.27782357 0.21171765 1.0190001
-0.29033008 0.22065087 1.0190001
-0.28765011 0.22065087 1.0190001
-0.29130757 0.23729613 1.01
-0.29109117 0.24292272 1.0175
-0.28843954 0.2462976 1.0155001
-0.28521094 0.25531188 1.0117143
-0.2824204 0.26536477 1.0147647
-0.28399119 0.27510184 1.0146958
-0.27961019 0.27425027 1.0190001
-0.30177325 0.28758669 1.0116364
-0.29432735 0.28530154 1.0143203
-0.2873953 0.28347042 1.0181
-0.34283397 0.29601702 1.0140001
-0.30105436 0.29125673 1.016
-0.29658335 0.29167005 1.0190001
-0.35294539 0.3077521 1.0127273
-0.34719238 0.30467096 1.0156472
-0.3552365 0.3129876 1.0171539
-0.34928942 0.31176984 1.0190001
-0.36037135 0.32761031 1.01
-0.35682398 0.32589871 1.0121429
-0.38286275 0.33803251 1.0112858
-0.376259 0.33544227 1.0122501
-0.36376566 0.33337134 1.0153077
-0.35894942 0.33044723 1.016
-0.42530209 0.34838393 1.0123334
-0.41821966 0.34915587 1.01
-0.40110129 0.34974617 1.01
-0.39519745 0.34569669 1.0138891
-0.38508859 0.34297645 1.0150001
-0.3787691 0.34124953 1.0190001
-0.43109557 0.35271454 1.016
-0.42417416 0.35305807 1.0140001
-0.41827783 0.35256115 1.013
-0.40229371 0.3546263 1.0138181
-0.39708328 0.35367832 1.0174288
-0.40110219 0.36000931 1.0190001
-0.39931554 0.36000931 1.0190001
-0.24297124 0.13768707 1.0265
-0.23812634 0.13928041 1.025
-0.24062397 0.14329292 1.028
-0.23447947 0.14567965 1.0257499
-0.22481616 0.14770031 1.0228573
-0.2182488 0.14736155 1.0262001
-0.23251304 0.15050262 1.028
-0.2247287 0.15309705 1.0267498
-0.21822238 0.1535925 1.028
-0.27326578 0.19979759 1.0220001
-0.27357939 0.20598973 1.024143
-0.29476863 0.21843341 1.0220001
-0.28182709 0.21751755 1.0220002
-0.2776596 0.21520941 1.0250001
-0.29346997 0.22562458 1.0266154
-0.28528538 0.22487092 1.0255997
-0.27896717 0.22137499 1.0265
-0.29118484 0.24101144 1.0220001
-0.28804898 0.24862705 1.0220001
-0.2902424 0.2525019 1.0250001
-0.28595084 0.25452867 1.0255712
-0.28301445 0.26551941 1.0267142
-0.28084236 0.27500552 1.0235
-0.27847874 0.27488706 1.0238751
-0.29118484 0.28939292 1.0220001
-0.28458431 0.2847501 1.0258182
-0.34178615 0.29693511 1.0232859
-0.33721071 0.29652548 1.02575
-0.29250729 0.29250991 1.0235001
-0.28886735 0.29156837 1.0265
-0.34463903 0.30371359 1.026
-0.33915663 0.30070484 1.028
-0.35439605 0.31749982 1.0230716
-0.34821916 0.31345814 1.0254999
-0.36033192 0.32438859 1.0250001
-0.35761803 0.32360268 1.0265
-0.37271658 0.33956632 1.0220001
-0.36343682 0.33815038 1.0236365
-0.35890603 0.33198798 1.0235001
-0.38356563 0.34803683 1.0246668
-0.37559482 0.34500745 1.0263333
-0.3663187 0.34337902 1.0262499
-0.39376232 0.35617849 1.0252728
-0.38706237 0.35208881 1.026
-0.42565718 0.36085922 1.0265
-0.40355802 0.36488211 1.026
-0.39716989 0.36122918 1.0250001
-0.2502445 0.14195688 1.0380001
-0.24411172 0.14408375 1.0325835
-0.23951848 0.14551878 1.031
-0.24321914 0.15179835 1.0368572
-0.23507294 0.1544643 1.034077
-0.22445442 0.15877515 1.031
-0.21854933 0.15744951 1.031
-0.22397722 0.16281044 1.0362222
-0.21737725 0.16484912 1.0331668
-0.21748522 0.17016625 1.0380001
-0.27296069 0.20517243 1.031
-0.27635926 0.21623535 1.0329001
-0.30004266 0.2275248 1.034
-0.29765287 0.22648215 1.0320001
-0.28303841 0.22848199 1.0315001
-0.27792305 0.22378846 1.0335001
-0.30211335 0.23022494 1.0380001
-0.29593047 0.23318194 1.0350001
-0.28451762 0.23196793 1.0336001
-0.29475242 0.24485694 1.0345001
-0.28245103 0.25895113 1.031
-0.28280807 0.26466778 1.0350834
-0.28182116 0.2709119 1.0370001
-0.27816719 0.2752192 1.0352501
-0.2831156 0.28613973 1.034
-0.27874449 0.28238237 1.0368334
-0.33405751 0.29853112 1.0338001
-0.29237026 0.29744896 1.0338001
-0.28705278 0.29310688 1.0351112
-0.34360901 0.30688086 1.0320001
-0.33683106 0.30428439 1.0352668
-0.35057372 0.31969404 1.036
-0.34592372 0.31312788 1.0348462
-0.36063349 0.32809514 1.031
-0.3556633 0.32522914 1.0346667
-0.36088493 0.33768517 1.0338
-0.35978436 0.33365548 1.0348001
-0.37437192 0.34942582 1.031
-0.3643004 0.3464447 1.0333573
-0.3598699 0.34174046 1.034
-0.39317188 0.3588258 1.031
-0.38498604 0.35658622 1.0341113
-0.37645638 0.35435164 1.0364168
-0.36682189 0.35182297 1.0370001
-0.43358162 0.36586866 1.0344445
-0.42619359 0.36587811 1.0328463
-0.40263349 0.3682138 1.03325
-0.39507666 0.36463696 1.0349447
-0.3879548 0.36186871 1.0380001
-0.42364126 0.37182325 1.0370001
-0.40448612 0.37354678 1.0380001
-0.40858102 0.38128161 1.0380001
-0.24352485 0.15666209 1.0430001
-0.23682185 0.15879326 1.0430001
-0.24162336 0.16016699 1.044
-0.23359214 0.16439928 1.0449229
-0.22608928 0.16716893 1.0420002
-0.21993901 0.16883285 1.041
-0.23099728 0.17286551 1.0470001
-0.22450081 0.17475119 1.0447894
-0.21784291 0.17522314 1.0430769
-0.22181858 0.18143231 1.0470001
-0.2164862 0.18160713 1.0470001
-0.28017128 0.22906511 1.041
-0.27843219 0.22530749 1.04475
-0.30115181 0.23540708 1.0416
-0.29446918 0.23727877 1.0419232
-0.28375772 0.23621255 1.0429999
-0.27954927 0.23372415 1.0455
-0.30024868 0.24001643 1.041
-0.29485968 0.24290901 1.0438334
-0.28729331 0.24139981 1.0470001
-0.28077969 0.26526532 1.041
-0.27674627 0.26839861 1.0418571
-0.28017128 0.27195778 1.041
-0.27531779 0.27493632 1.0433685
-0.28154019 0.28884107 1.041
-0.27659333 0.28528613 1.0434375
-0.29062682 0.29885346 1.0425
-0.28353205 0.29519215 1.0428751
-0.27659863 0.29407486 1.0457647
-0.33315232 0.30557913 1.0446668
-0.32951534 0.30565071 1.0470001
-0.29207054 0.30305108 1.0436666
-0.28552634 0.30266792 1.044857
-0.27306631 0.30335602 1.0470001
-0.34354734 0.31569046 1.0433077
-0.33835039 0.3133128 1.045
-0.35336024 0.32646319 1.0437
-0.34837085 0.3216185 1.0452
-0.36058465 0.33627668 1.0435714
-0.35793161 0.33225754 1.0460001
-0.36128658 0.3448199 1.0433334
-0.3742227 0.35839188 1.0420001
-0.36359563 0.35498562 1.0436252
-0.39249066 0.36843935 1.0419999
-0.38486651 0.36569542 1.0438697
-0.375929 0.36402038 1.0453334
-0.36699501 0.36225268 1.0470001
-0.42071322 0.37325749 1.041
-0.41623387 0.37262937 1.0435001
-0.40466815 0.37689978 1.0436471
-0.39571369 0.37459433 1.0438751
-0.38825899 0.37173736 1.0470001
-0.41185537 0.38164982 1.044
-0.4041675 0.38170734 1.0427144
-0.39850903 0.38232484 1.0450001
-0.24319132 0.16407858 1.0521111
-0.23784305 0.16695328 1.052143
-0.23471774 0.17465404 1.0517143
-0.22859085 0.17888384 1.0500001
-0.23293158 0.18402269 1.0548334
-0.22538492 0.18589821 1.0518825
-0.21843553 0.18628055 1.0513334
-0.23165917 0.19181378 1.057
-0.22457214 0.19479987 1.0550001
-0.21775961 0.19181378 1.057
-0.22293064 0.20255843 1.0562501
-0.21961288 0.20663996 1.057
-0.27706435 0.21405306 1.057
-0.27944583 0.22763044 1.0555
-0.28128725 0.23702261 1.052
-0.27854699 0.2374043 1.057
-0.29295772 0.24762551 1.0522858
-0.2850906 0.245002 1.0538
-0.27780566 0.24407609 1.057
-0.29259288 0.25212023 1.0553751
-0.28633073 0.25111854 1.057
-0.272468 0.2789115 1.0500001
-0.26929623 0.27944276 1.052
-0.27346835 0.28468427 1.0533571
-0.26875693 0.285429 1.0564001
-0.28075251 0.29916251 1.0500001
-0.27363253 0.2941674 1.0541111
-0.33292049 0.30160102 1.0508001
-0.32647601 0.30514792 1.0532001
-0.28221542 0.30392784 1.05375
-0.27686456 0.30386546 1.0535384
-0.342426 0.31941348 1.0500001
-0.33402717 0.3149609 1.0508001
-0.3268055 0.31410006 1.0545626
-0.35104275 0.32847121 1.0510001
-0.34522751 0.32521617 1.0538888
-0.33528161 0.32169971 1.0565001
-0.35498208 0.33595458 1.0517601
-0.34795213 0.3352108 1.057
-0.36163902 0.347359 1.0510001
-0.35574216 0.34458062 1.054261
-0.34934202 0.34100229 1.057
-0.36144325 0.3509852 1.0526667
-0.35910952 0.3557511 1.0535456
-0.37310931 0.36850682 1.0500001
-0.36468181 0.36652732 1.0508572
-0.35866332 0.36467376 1.054
-0.42042303 0.37976673 1.054
-0.41593623 0.37812564 1.0520002
-0.39232174 0.37788537 1.0513333
-0.38520655 0.3758283 1.0526665
-0.37554562 0.37499657 1.0543501
-0.36553264 0.37391824 1.0555881
-0.35860839 0.37250793 1.057
-0.42042303 0.38161474 1.054
-0.41559523 0.38199049 1.0530001
-0.40962249 0.3801665 1.0500001
-0.39452255 0.38398591 1.0539411
-0.3852492 0.38316423 1.057
-0.37899441 0.38084766 1.057
-0.39382058 0.39011404 1.057
-0.24142349 0.17302945 1.0600001
-0.23882154 0.17934847 1.0600001
-0.23882154 0.181207 1.0600001
