# .PCD v0.7 - Point Cloud Data file format
VERSION 0.7
FIELDS x y z
SIZE 4 4 4
TYPE F F F
COUNT 1 1 1
WIDTH 1493
HEIGHT 1
VIEWPOINT 0 0 0 1 0 0 0
POINTS 1493
DATA ascii
-0.11511552 0.14576137 1.1450002
-0.10881431 0.14348412 1.1481112
-0.38579208 0.15008621 1.149
-0.37661451 0.15142925 1.149
-0.36542243 0.15120542 1.149
-0.35499144 0.15512012 1.145667
-0.34750044 0.15589441 1.1423334
-0.12128806 0.15537322 1.1434
-0.11686492 0.15431549 1.1467502
-0.10979461 0.15008621 1.149
-0.35411182 0.16402662 1.1487501
-0.34504762 0.16514291 1.1436669
-0.33909377 0.16204482 1.141
-0.12316132 0.16641954 1.1422001
-0.11875589 0.16404626 1.1480001
-0.35266536 0.17495351 1.1474001
-0.3444984 0.17458205 1.1423334
-0.33909377 0.17104732 1.141
-0.13103624 0.17804924 1.141
-0.12594919 0.17485787 1.1445792
-0.35291705 0.184844 1.1480001
-0.34463993 0.18534453 1.1428002
-0.33909377 0.18505117 1.141
-0.13408633 0.1862638 1.1419413
-0.12852041 0.18457466 1.1463335
-0.35268328 0.19261652 1.1483334
-0.34570721 0.19384342 1.1446667
-0.14258386 0.19608952 1.1417273
-0.13659771 0.19471638 1.1452355
-0.12994041 0.19239239 1.149
-0.34400401 0.20608723 1.1440001
-0.14350682 0.20549756 1.1427501
-0.13868107 0.20333143 1.1463335
-0.34251681 0.21383916 1.1467143
-0.33484635 0.21768983 1.1422
-0.14468838 0.21523437 1.1446002
-0.33371168 0.22539036 1.1455716
-0.32537571 0.22634828 1.1409999
-0.31908825 0.22706281 1.141
-0.15470394 0.22755535 1.1419231
-0.14730166 0.22447361 1.1452857
-0.33318225 0.23252198 1.1482002
-0.32478881 0.23457934 1.1470002
-0.31497142 0.23481135 1.143
-0.30758506 0.23656543 1.141
-0.29224297 0.23663273 1.1444286
-0.28907996 0.23706557 1.141
-0.16282415 0.23565507 1.1416153
-0.15576382 0.23506905 1.1450002
-0.14807163 0.2316767 1.149
-0.17171417 0.24840204 1.141
-0.16505827 0.24513599 1.1444288
-0.15704548 0.24362333 1.1483334
-0.25907165 0.25507054 1.141
-0.21243212 0.25852549 1.1430001
-0.20979072 0.25997987 1.1450001
-0.18432529 0.25688776 1.1422307
-0.17547055 0.25503707 1.1445297
-0.16756563 0.2521061 1.1480001
-0.23570585 0.26290268 1.149
-0.22664025 0.26491725 1.149
-0.21253818 0.2608881 1.149
-0.20418446 0.26487607 1.1462002
-0.19484335 0.26465216 1.141
-0.18545523 0.26408583 1.1454003
-0.17829032 0.26189539 1.149
-0.20178545 0.27374706 1.1480001
-0.19519857 0.27378067 1.1463336
-0.1883699 0.27119949 1.1466
-0.26574749 -0.041586436 1.1570001
-0.25640059 -0.045266684 1.1547143
-0.24706395 -0.049614951 1.155
-0.28096202 -0.033472009 1.1570001
-0.27450341 -0.035359364 1.1564999
-0.26637116 -0.035984237 1.1543334
-0.25910088 -0.038747206 1.153
-0.28163823 -0.021976573 1.1570001
-0.27629092 -0.02602623 1.1544285
-0.28502434 -0.014339136 1.1564285
-0.27965376 -0.015835816 1.153
-0.16374907 -0.019205136 1.153
-0.28603354 -0.0081144264 1.1570001
-0.2789799 -0.0090971701 1.153
-0.1506087 -0.00303239 1.153
-0.1506087 0.0010107966 1.153
-0.14645292 0.0055156951 1.1556666
-0.31139112 0.01521455 1.1570001
-0.18495972 0.017889552 1.155
-0.15111411 0.017688941 1.153
-0.14707179 0.015029135 1.1556665
-0.18262297 0.02532698 1.1555454
-0.17891102 0.028302306 1.153
-0.15136681 0.025522616 1.153
-0.14827742 0.024586774 1.1565001
-0.32761997 0.039557829 1.1570001
-0.3093625 0.039557829 1.1570001
-0.19237953 0.038881626 1.1570001
-0.1845853 0.036064841 1.1555998
-0.17891102 0.032345496 1.153
-0.15156275 0.035677485 1.1545
-0.14910258 0.033472009 1.1570001
-0.33235338 0.04902466 1.1570001
-0.32484704 0.045849394 1.1556085
-0.31517279 0.044800878 1.1552855
-0.30529159 0.045108583 1.1555882
-0.29427224 0.045795538 1.1544999
-0.28471994 0.046924572 1.1542499
-0.27508137 0.048716292 1.1555454
-0.2643643 0.048409935 1.1569999
-0.25603914 0.048831459 1.1570002
-0.20377529 0.048517115 1.1564286
-0.19583544 0.04467912 1.1554443
-0.18540296 0.042742196 1.1533636
-0.15218081 0.045940757 1.1551818
-0.35196325 0.059843898 1.1570001
-0.34520122 0.059505794 1.1570001
-0.3352426 0.055567779 1.1545999
-0.32412878 0.052224491 1.153
-0.31840095 0.05155063 1.153
-0.28201225 0.055593815 1.153
-0.27493668 0.052965742 1.153
-0.26547197 0.052837096 1.153
-0.25540343 0.053190626 1.1541427
-0.24488917 0.054319251 1.1554999
-0.2354039 0.055413228 1.1552857
-0.22288461 0.05526524 1.1545999
-0.21526742 0.055688135 1.155
-0.2068353 0.053074449 1.1553999
-0.15213268 0.055313922 1.1548181
-0.36007771 0.067958325 1.1570001
-0.35406378 0.066178367 1.1547499
-0.34451652 0.06493628 1.1537999
-0.33794299 0.062332463 1.153
-0.15202287 0.065379173 1.1552222
-0.36307308 0.0762209 1.1561998
-0.35681126 0.075304352 1.153
-0.15086995 0.072901845 1.155
-0.14910258 0.076072752 1.1570001
-0.36401102 0.08441411 1.1561426
-0.35597879 0.086869046 1.153
-0.36332124 0.094953291 1.1567893
-0.35377881 0.095014878 1.153
-0.34602937 0.095351815 1.153
-0.37240532 0.10509742 1.1569998
-0.36430931 0.10425892 1.1535714
-0.35555974 0.10391953 1.153
-0.34549028 0.1028991 1.153
-0.37184358 0.11339911 1.1569999
-0.36388659 0.11410266 1.1537619
-0.35587817 0.11297596 1.153
-0.34468165 0.11219843 1.153
-0.36522114 0.12371923 1.1548666
-0.37247109 0.13597608 1.1558001
-0.3670783 0.13398711 1.1535
-0.38198316 0.14453845 1.155
-0.37437132 0.14393552 1.1535333
-0.10693025 0.14808507 1.1543332
-0.38438353 0.15459554 1.1547142
-0.37420243 0.15582345 1.15325
-0.36573994 0.15650502 1.153
-0.11243127 0.15598881 1.1553999
-0.1069152 0.15150772 1.156
-0.37414926 0.16507249 1.1565998
-0.36469248 0.16464199 1.1540908
-0.35883281 0.16678144 1.153
-0.11618879 0.16479295 1.155
-0.37265506 0.17182299 1.1570001
-0.36412317 0.1746527 1.1557498
-0.35825521 0.17457902 1.153
-0.12150658 0.17517465 1.155
-0.11846834 0.17213525 1.155
-0.36310557 0.18518049 1.1553332
-0.35825521 0.18584217 1.153
-0.12623064 0.18495971 1.155
-0.37292552 0.19846535 1.1570001
-0.36294788 0.19535676 1.1558001
-0.35632855 0.19596079 1.1534001
-0.13230711 0.19744958 1.155
-0.12881652 0.19373195 1.1570001
-0.37369829 0.20271575 1.1570002
-0.36345872 0.20319878 1.1570001
-0.35448498 0.20422253 1.1545384
-0.34872484 0.20923491 1.153
-0.13786633 0.20578609 1.1563333
-0.34757876 0.21508723 1.1536666
-0.14098816 0.21807522 1.1570001
-0.34377205 0.22404119 1.1552222
-0.33861688 0.22844005 1.153
-0.14377916 0.22478084 1.155
-0.34249642 0.23092306 1.1570001
-0.33920425 0.23288825 1.155
-0.32379186 0.23888494 1.153
-0.30124807 0.23633267 1.1570001
-0.29785597 0.23781191 1.1543334
-0.15128256 0.23753722 1.153
-0.14737661 0.23414066 1.1562001
-0.32863426 0.24038988 1.1570001
-0.16139053 0.24899292 1.153
-0.15415682 0.24472126 1.1548181
-0.14910258 0.24038988 1.1570001
-0.25977474 0.25977474 1.153
-0.17149849 0.25775316 1.153
-0.1646916 0.25543502 1.1555712
-0.15856941 0.25256154 1.1570001
-0.24140419 0.26473317 1.1570001
-0.23506129 0.26694611 1.1545
-0.22394256 0.26602396 1.1538
-0.21444601 0.26578051 1.1556666
-0.20840558 0.26809344 1.154
-0.18254986 0.26826543 1.153
-0.17511757 0.26489669 1.1554999
-0.16857722 0.26229882 1.1570001
-0.20493118 0.27532893 1.1537999
-0.19407296 0.27999067 1.153
-0.18551566 0.27481663 1.1553332
-0.17953169 0.2718333 1.1570001
-0.20286067 0.28197634 1.1570001
-0.1960972 0.28410995 1.1566
-0.18967472 0.28096202 1.1570001
-0.28290471 -0.031660818 1.1650001
-0.27887994 -0.032569923 1.161
-0.29207465 -0.021521291 1.169
-0.28523105 -0.025528135 1.1646364
-0.30095646 -0.011956272 1.169
-0.29373783 -0.015308295 1.1641999
-0.28804022 -0.01730277 1.161
-0.30368933 -0.0046361051 1.1690001
-0.29490483 -0.0052377554 1.1665001
-0.285483 -0.0061156265 1.1630001
-0.30545297 0.0043260576 1.1687779
-0.14381759 0.006120448 1.1635001
-0.31137729 0.015325449 1.1655
-0.30847183 0.013322704 1.169
-0.19120479 0.017379917 1.1663333
-0.18829484 0.01933839 1.161
-0.14324659 0.015804691 1.1630001
-0.32281935 0.029719876 1.169
-0.31410834 0.028695052 1.169
-0.19361423 0.026391352 1.1668667
-0.18739015 0.025445249 1.1610001
-0.14537407 0.025709732 1.165923
-0.33192793 0.039831351 1.1650001
-0.32401916 0.036378756 1.1647897
-0.31490988 0.035944965 1.1653811
-0.30461434 0.036389485 1.1666669
-0.29421222 0.036005724 1.1680002
-0.28499296 0.038034048 1.1677691
-0.27580559 0.037662257 1.169
-0.26594168 0.038430873 1.1689999
-0.25558683 0.03822327 1.1686922
-0.24467656 0.03919949 1.169
-0.23878384 0.039968111 1.169
-0.21162602 0.039455697 1.169
-0.20368488 0.036935594 1.1658571
-0.19531801 0.034860127 1.1628
-0.18829484 0.032569923 1.161
-0.1466116 0.036126968 1.1657059
-0.34156013 0.047428545 1.1676668
-0.33562252 0.045339324 1.1641428
-0.30330738 0.04173021 1.161
-0.29414707 0.04173021 1.161
-0.28440067 0.042699609 1.1627779
-0.27516213 0.043873604 1.1639333
-0.26488081 0.043885533 1.1642001
-0.25392228 0.044888794 1.1652107
-0.24495335 0.04584806 1.1666666
-0.23623408 0.046971507 1.1676667
-0.22484621 0.047756769 1.169
-0.21485251 0.046252556 1.1651906
-0.20589657 0.044087946 1.1618574
-0.14730304 0.045256063 1.1654706
-0.36052477 0.058215048 1.1650001
-0.35404003 0.054992188 1.1660668
-0.34592977 0.054507919 1.1644669
-0.33893073 0.051908311 1.161
-0.24112585 0.051485319 1.1630001
-0.2345929 0.051955167 1.162091
-0.22532499 0.051849823 1.1630001
-0.21691918 0.051936951 1.1616668
-0.14706415 0.054127835 1.1650001
-0.37201086 0.068663165 1.169
-0.36543959 0.064415656 1.1663333
-0.35790461 0.061720662 1.1618
-0.14801843 0.064314894 1.1644667
-0.37219498 0.075133719 1.165
-0.36694586 0.073024482 1.1623334
-0.15165369 0.07022889 1.161
-0.14804946 0.07446406 1.1658573
-0.38367233 0.08664111 1.165
-0.37514248 0.08486101 1.163316
-0.36946502 0.084478229 1.161
-0.15013355 0.080684014 1.1650001
-0.14859939 0.080961041 1.169
-0.38501626 0.095024616 1.1666366
-0.37520209 0.094818346 1.1630002
-0.36905789 0.093027838 1.161
-0.38502401 0.10496387 1.1664119
-0.37812278 0.10445999 1.161889
-0.38448772 0.11613692 1.1664286
-0.37702471 0.11554487 1.1616155
-0.3934857 0.12599266 1.1684287
-0.38386104 0.12517731 1.1684667
-0.37492737 0.12513463 1.1638236
-0.39619669 0.13138236 1.169
-0.3830604 0.13461614 1.1680768
-0.37682709 0.13398808 1.1627778
-0.39081097 0.14118192 1.1670001
-0.38688919 0.14189038 1.1644287
-0.39116427 0.15830408 1.1650001
-0.3867678 0.15877835 1.161
-0.11094129 0.15979616 1.161
-0.10695109 0.15652424 1.161889
-0.39172971 0.16418448 1.1656667
-0.38577169 0.16495448 1.1635882
-0.37828603 0.16929573 1.161
-0.11268514 0.16546524 1.1622001
-0.10692954 0.16405152 1.1664286
-0.39156017 0.1745964 1.1674001
-0.38530767 0.17454688 1.1664739
-0.37577236 0.17633568 1.1626668
-0.36946502 0.17709894 1.161
-0.12111939 0.17811675 1.161
-0.11589959 0.17443903 1.1655715
-0.38055107 0.1848098 1.169
-0.37457144 0.18460166 1.165
-0.36859265 0.18451442 1.1610001
-0.12312383 0.1850884 1.165
-0.11892036 0.18278377 1.1674001
-0.38169554 0.19661942 1.1672857
-0.37501332 0.19388388 1.164
-0.36742944 0.19458677 1.1610001
-0.12751846 0.19417202 1.1636667
-0.38193053 0.20547976 1.1644287
-0.37515447 0.20668483 1.1623334
-0.36529195 0.20468159 1.1609999
-0.35746083 0.20936991 1.1650001
-0.1335188 0.2045988 1.1642728
-0.38255191 0.21389525 1.169
-0.37486824 0.21453963 1.1665559
-0.36568159 0.21514475 1.167737
-0.35637709 0.21445704 1.1653078
-0.14171931 0.21614918 1.1630001
-0.13775164 0.21398132 1.1653078
-0.37354809 0.22084942 1.169
-0.36996123 0.22136185 1.169
-0.35458887 0.22136185 1.169
-0.3470732 0.22290039 1.161
-0.14178631 0.22692956 1.1654445
-0.13861267 0.22396787 1.1683334
-0.14403443 0.23495717 1.1652858
-0.32171476 0.24409468 1.1650001
-0.30385354 0.24272469 1.1670001
-0.29821834 0.24325658 1.161
-0.15155587 0.24743056 1.1634001
-0.14757332 0.24254787 1.1674001
-0.16284961 0.25954154 1.161
-0.1556458 0.25516543 1.1642501
-0.27548951 0.26258585 1.1681999
-0.26497513 0.26436374 1.1670001
-0.2548084 0.26710624 1.1689999
-0.24551868 0.26795724 1.1636667
-0.2351141 0.26971966 1.161
-0.22493601 0.26971966 1.161
-0.21577571 0.26971966 1.161
-0.17268842 0.26904112 1.161
-0.16470045 0.26570877 1.1625999
-0.15832898 0.26361069 1.1682001
-0.25386339 0.27538466 1.1689999
-0.24494745 0.27574801 1.1677828
-0.2347527 0.27558169 1.1642501
-0.22524376 0.27630398 1.1667395
-0.21526138 0.27436635 1.1652857
-0.20753126 0.27750269 1.1623334
-0.18273532 0.27784196 1.1623334
-0.17548479 0.27562422 1.1654998
-0.16633278 0.27275699 1.1672221
-0.25272143 0.2830562 1.169
-0.24416417 0.28438842 1.169
-0.23510055 0.2840988 1.1676667
-0.22680154 0.2845282 1.168
-0.21008877 0.28285122 1.169
-0.20503458 0.28570807 1.165
-0.19284426 0.28715953 1.1621429
-0.18613429 0.28423664 1.1676666
-0.24288312 0.290025 1.169
-0.23605096 0.29241624 1.169
-0.22716917 0.29173306 1.169
-0.20302637 0.29276517 1.1676667
-0.19574551 0.29286 1.1659999
-0.18959232 0.290025 1.169
-0.28690407 -0.031878229 1.1730001
-0.29243833 -0.025349518 1.1754
-0.28896073 -0.028793238 1.1730001
-0.29924402 -0.016453281 1.1730001
-0.29665875 -0.0010300833 1.1750001
-0.30201799 0.0072112852 1.1750001
-0.29782447 0.0038654422 1.1745001
-0.14148471 0.0059699244 1.1746
-0.13640881 0.0072228573 1.177
-0.31184787 0.019040762 1.174
-0.30430815 0.015541815 1.1757693
-0.29533648 0.016633498 1.1755716
-0.28552738 0.018553073 1.1758001
-0.274829 0.018046038 1.1763334
-0.26750365 0.017799184 1.177
-0.24351346 0.019604897 1.177
-0.20120814 0.019604897 1.177
-0.19571418 0.016394544 1.1755456
-0.14088121 0.01542495 1.1730001
-0.13517061 0.015649524 1.177
-0.12794773 0.015477551 1.177
-0.32186729 0.029821569 1.1730001
-0.31511942 0.025142679 1.1741431
-0.30507338 0.02581265 1.1740001
-0.29495934 0.025879642 1.1730002
-0.28484738 0.025708256 1.1730002
-0.27456415 0.025708256 1.1730002
-0.26631737 0.026248073 1.1755884
-0.25371718 0.028776774 1.177
-0.24486895 0.025719652 1.1736002
-0.23549846 0.026334666 1.1762309
-0.22445889 0.026896546 1.177
-0.21565384 0.027859593 1.177
-0.20450985 0.026592279 1.1758001
-0.19764502 0.023240259 1.1730001
-0.14184865 0.026174245 1.1734446
-0.13505979 0.025771791 1.1760402
-0.12643968 0.026589636 1.177
-0.32186729 0.031878229 1.1730001
-0.31569731 0.031878229 1.1730001
-0.30609956 0.031878229 1.1730001
-0.29718736 0.031878229 1.1730001
-0.28484741 0.032906562 1.1730002
-0.27410707 0.032792304 1.1730002
-0.26428083 0.033618484 1.1730002
-0.25478843 0.0335453 1.1738002
-0.24589185 0.03441881 1.1730002
-0.23556717 0.034974091 1.1734002
-0.22547095 0.035004426 1.1744002
-0.21536927 0.034835547 1.1742634
-0.20749855 0.033267457 1.1736668
-0.14190954 0.03496322 1.1730002
-0.13471124 0.03496322 1.1730002
-0.1257121 0.034910474 1.177
-0.11711346 0.033534691 1.177
-0.35250196 0.047858551 1.174
-0.34596446 0.045224123 1.1748184
-0.23445922 0.043189857 1.1730002
-0.22554702 0.042847082 1.1730002
-0.21834874 0.040790424 1.1730001
-0.14190954 0.044218186 1.1730002
-0.13492836 0.044292532 1.1749201
-0.1280624 0.04391038 1.177
-0.36320651 0.055719182 1.177
-0.3559491 0.051857207 1.1730002
-0.34860387 0.050388169 1.1730001
-0.14223367 0.054893602 1.1733638
-0.13602035 0.053352021 1.177
-0.12897958 0.050559998 1.177
-0.10008816 0.054687344 1.177
-0.37225544 0.065813117 1.1730001
-0.14313051 0.06487409 1.1746001
-0.13929795 0.061910197 1.177
-0.14440607 0.07439021 1.1745001
-0.1466976 0.082110643 1.1756667
-0.39179373 0.11825795 1.1730001
-0.39267513 0.12384031 1.1730002
-0.38973707 0.12442793 1.1730001
-0.39424959 0.13490693 1.176077
-0.38870877 0.13445415 1.1730002
-0.39385039 0.14088121 1.1730001
-0.10441293 0.16743371 1.1746
-0.39247927 0.17858665 1.1730001
-0.38768041 0.17995775 1.1730001
-0.1119853 0.17627437 1.1743335
-0.1069057 0.17325096 1.1763334
-0.3924419 0.18676244 1.177
-0.38690731 0.18546848 1.1753334
-0.12031461 0.1881844 1.1730001
-0.11577444 0.18477225 1.1762729
-0.391754 0.19157767 1.177
-0.38603514 0.19502956 1.1748183
-0.12402028 0.19345036 1.1750001
-0.1312234 0.20738646 1.174
-0.12797877 0.20258418 1.1754
-0.38459542 0.21800596 1.1730001
-0.36094382 0.21903428 1.1730001
-0.13406952 0.21562617 1.1746001
-0.38412929 0.22336525 1.1755002
-0.37548032 0.22414702 1.1734446
-0.36529776 0.22288768 1.1743335
-0.35624841 0.22412527 1.1738001
-0.13602754 0.22465505 1.1755
-0.37455672 0.23216325 1.177
-0.30747068 0.23960088 1.1730001
-0.14156677 0.23754422 1.1730001
-0.13799365 0.23442017 1.1756668
-0.32365277 0.24660896 1.177
-0.31293255 0.2460777 1.1758573
-0.30703282 0.24618541 1.1735716
-0.29924402 0.24782753 1.1730001
-0.14453854 0.24536689 1.1752857
-0.13929795 0.24041794 1.177
-0.3043918 0.2507363 1.177
-0.29200977 0.25795919 1.177
-0.28763959 0.25773913 1.1760001
-0.15129337 0.25524586 1.174
-0.14806858 0.25279999 1.177
-0.30026448 0.26208651 1.177
-0.29269767 0.26586992 1.177
-0.28505412 0.26512113 1.1738423
-0.27533537 0.26762289 1.1730002
-0.2642808 0.26839414 1.1730001
-0.25605416 0.26633745 1.1730001
-0.15480997 0.26379821 1.1746669
-0.29200977 0.27550039 1.177
-0.28527814 0.27497607 1.1747601
-0.27478936 0.27479142 1.1739602
-0.26428083 0.27456412 1.1730002
-0.25605416 0.27456412 1.1730001
-0.17173111 0.27867743 1.1730001
-0.16464333 0.27659178 1.1744547
-0.15928289 0.27269024 1.1760001
-0.29200977 0.28375509 1.177
-0.28531125 0.2840215 1.1765001
-0.27511659 0.28454909 1.1748949
-0.26420847 0.28470233 1.1738698
-0.25557956 0.28579661 1.1730002
-0.24885586 0.2879324 1.1730001
-0.23651589 0.28896073 1.1730001
-0.2220801 0.28645724 1.1735716
-0.21572968 0.2851359 1.1746002
-0.20875099 0.28896073 1.1730001
-0.1829835 0.28792626 1.1735716
-0.1751691 0.28526658 1.1750871
-0.16767347 0.28323919 1.177
-0.25398713 0.29389891 1.1755456
-0.24533665 0.29458544 1.1732355
-0.23489372 0.29493695 1.1732502
-0.22497809 0.29422355 1.1745002
-0.21427809 0.29269767 1.177
-0.20584308 0.29589647 1.1740001
-0.19366422 0.29705694 1.1735002
-0.18561305 0.2937665 1.1757693
-0.24395569 0.30232814 1.177
-0.23497069 0.30119354 1.1766001
-0.2280359 0.30129629 1.177
-0.20395935 0.30245766 1.1765001
-0.19536106 0.30284405 1.177
-0.29498693 -0.031270698 1.189
-0.29773444 -0.025559917 1.1850001
-0.29257143 -0.0034710157 1.1876668
-0.28386846 -0.0024321654 1.189
-0.27580756 -0.0014592994 1.189
-0.26719078 -0.0010423567 1.189
-0.25468248 -0.001389809 1.189
-0.24584727 -0.0019358053 1.189
-0.29505661 0.0057233186 1.1871998
-0.28485626 0.0052944948 1.1879562
-0.27506396 0.0054807621 1.1864544
-0.26556337 0.0053733829 1.1871665
-0.25506863 0.0052015441 1.1875597
-0.24522142 0.0054858611 1.1875453
-0.23453024 0.0084546702 1.189
-0.22486478 0.007486016 1.189
-0.21598728 0.0064187222 1.1889998
-0.20515472 0.008054574 1.189
-0.19909012 0.0083388528 1.189
-0.13594855 0.0059731347 1.181
-0.12748866 0.0082920976 1.1823335
-0.29368284 0.013007883 1.1818889
-0.28510654 0.013475829 1.1826001
-0.2750403 0.01294822 1.1816667
-0.26344866 0.014924022 1.1822
-0.25476751 0.015303056 1.1844782
-0.24460229 0.0147682 1.1834761
-0.2350411 0.01559532 1.1863331
-0.22487152 0.01583424 1.1839563
-0.21504028 0.015575456 1.1849998
-0.20531446 0.015080544 1.1848093
-0.19791803 0.012951436 1.1820002
-0.13562998 0.011388777 1.1810001
-0.12353209 0.015845498 1.1827143
-0.11792406 0.017946744 1.1844286
-0.26272991 0.024511306 1.1814445
-0.25614399 0.024365077 1.181
-0.23346992 0.022259882 1.1810001
-0.22526111 0.022629647 1.1810001
-0.21431606 0.022777552 1.181
-0.20741379 0.022432439 1.1810001
-0.12339409 0.024565874 1.181
-0.11553214 0.02527456 1.181
-0.12412617 0.034856558 1.1810001
-0.11443011 0.03426493 1.181
-0.10799319 0.036398824 1.1861429
-0.12349033 0.044788901 1.18125
-0.11497065 0.044539534 1.1814799
-0.10625855 0.044927042 1.1821764
-0.13381812 0.057720385 1.1810001
-0.1254871 0.055218462 1.1846665
-0.11546918 0.05513677 1.1865997
-0.10573284 0.054939996 1.1824
-0.13550738 0.065615341 1.183087
-0.12602673 0.065209858 1.1872606
-0.11721773 0.064910389 1.189
-0.10496584 0.065329544 1.1866
-0.098357618 0.067297317 1.1810001
-0.14172502 0.076664105 1.1831818
-0.13462824 0.074830621 1.1878569
-0.12695906 0.074424267 1.189
-0.1018035 0.072617508 1.189
-0.098912835 0.073926665 1.1876668
-0.14282995 0.084605269 1.1860909
-0.13399023 0.083957091 1.1889997
-0.12820987 0.084430888 1.189
-0.14228168 0.093290925 1.189
-0.13385086 0.093628153 1.1889999
-0.12820987 0.092769742 1.189
-0.39860719 0.13873601 1.1810001
-0.10123191 0.16826127 1.1823335
-0.1039545 0.17573597 1.1841429
-0.097981527 0.17303121 1.189
-0.39343047 0.18636179 1.1810001
-0.11212282 0.18540581 1.1815001
-0.10758209 0.18431655 1.1863333
-0.39150766 0.19508825 1.1810001
-0.12327423 0.19751708 1.1816667
-0.11598156 0.19404712 1.18525
-0.12509117 0.20439921 1.1846365
-0.11882865 0.20117484 1.189
-0.13163705 0.21663338 1.1823335
-0.12885882 0.21390514 1.1830002
-0.38452649 0.2279826 1.1810001
-0.37582964 0.22881088 1.1810001
-0.36567894 0.22832498 1.1825001
-0.35853124 0.22796927 1.1820002
-0.13276151 0.22459798 1.1850001
-0.38434786 0.23418781 1.1862001
-0.37478191 0.23513813 1.1826
-0.3647719 0.23525725 1.1832856
-0.35641235 0.23407929 1.1846
-0.13509054 0.23183244 1.1823335
-0.37420607 0.24286911 1.189
-0.36628884 0.24246058 1.187
-0.35961306 0.24078439 1.189
-0.3334755 0.24828513 1.1850001
-0.3250978 0.24951774 1.1810001
-0.31836808 0.24900007 1.1810001
-0.14146741 0.24731088 1.1836667
-0.13977134 0.24330568 1.1810001
-0.34085062 0.25225031 1.189
-0.33475718 0.25500369 1.1878234
-0.32543886 0.25552973 1.1843333
-0.31537098 0.25517827 1.1817999
-0.30513853 0.25668061 1.1816666
-0.29652232 0.25800759 1.181
-0.15012479 0.25987118 1.1810001
-0.14496501 0.25568506 1.184
-0.33221394 0.26431185 1.189
-0.3249948 0.2652235 1.1872855
-0.31464297 0.26511684 1.1851665
-0.30520561 0.26566306 1.1824286
-0.29581234 0.26445627 1.181
-0.15159957 0.26660123 1.1832858
-0.14721423 0.26448008 1.1872224
-0.3244046 0.27518219 1.1889998
-0.31447369 0.27445659 1.1866469
-0.30461097 0.27508494 1.1844782
-0.29648203 0.2742635 1.1813637
-0.16047822 0.27850735 1.1810001
-0.15548973 0.27430612 1.1858572
-0.149057 0.27205509 1.189
-0.32417291 0.28039393 1.189
-0.31523842 0.2812874 1.189
-0.30408758 0.28443336 1.1869999
-0.29599109 0.28579852 1.1839093
-0.28813025 0.2888228 1.1836667
-0.27643666 0.28575477 1.1810001
-0.17083165 0.2888608 1.1810001
-0.16398126 0.28543654 1.1834
-0.15948057 0.28456339 1.189
-0.29588172 0.29240954 1.187
-0.28384537 0.29268438 1.1860001
-0.27383947 0.29463154 1.1856155
-0.26547834 0.2955699 1.1835716
-0.25676513 0.29766122 1.1810001
-0.22233406 0.29651657 1.1818001
-0.21571888 0.29557505 1.1830002
-0.18321516 0.29799187 1.1830001
-0.17521258 0.29410294 1.1839093
-0.16663507 0.29265589 1.1880001
-0.26359048 0.30228755 1.1884286
-0.25491875 0.3052257 1.18625
-0.24656665 0.30620587 1.183
-0.23525494 0.30750239 1.1856668
-0.22567657 0.30429539 1.1871539
-0.21423085 0.3020851 1.1874001
-0.20603333 0.30646163 1.1810001
-0.19358613 0.30749771 1.183
-0.18646164 0.30322292 1.1867778
-0.25329268 0.31218582 1.189
-0.24537078 0.31208158 1.189
-0.204004 0.31395528 1.1876667
-0.1954225 0.31384701 1.187
-0.30116919 -0.030431731 1.197
-0.29807106 -0.030330036 1.1930001
-0.30326793 -0.02308614 1.197
-0.28437927 -0.01154307 1.197
-0.26339188 -0.01154307 1.197
-0.25464711 -0.01189286 1.197
-0.24660195 -0.01154307 1.197
-0.22981203 -0.01154307 1.197
-0.29284173 -0.0010458634 1.1930001
-0.28562841 -0.004320323 1.1940001
-0.275157 -0.0053882436 1.1947143
-0.26491201 -0.0050099548 1.1954446
-0.25543404 -0.0066803098 1.1947502
-0.24514052 -0.0064048278 1.1950002
-0.2352287 -0.0049662399 1.1943915
-0.22546123 -0.0048765154 1.1947393
-0.21507128 -0.0038437934 1.194778
-0.20655559 -0.0028818226 1.1945
-0.2924931 0.0017431056 1.1930001
-0.28761241 0.0010458634 1.1930001
-0.2625117 0.0010458634 1.1930001
-0.24159443 0.0031375897 1.1930001
-0.23531924 0.0033990561 1.1930001
-0.22569728 0.0023008995 1.193
-0.21309467 0.0020917268 1.193
-0.20508428 0.0029474332 1.193
-0.1997599 0.0031375901 1.1930001
-0.11514005 0.065509073 1.193
-0.10981565 0.067981116 1.1930001
-0.12371948 0.07487151 1.1930001
-0.11489958 0.074490331 1.1932107
-0.10651291 0.075137042 1.1930002
-0.099357016 0.07843975 1.1930001
-0.145375 0.088375457 1.1930001
-0.13840258 0.088201143 1.1930001
-0.12349463 0.084774539 1.1938002
-0.11452693 0.085114315 1.1947393
-0.10525427 0.084587187 1.1951821
-0.09946806 0.082717888 1.1943334
-0.14351566 0.094243914 1.193
-0.1362237 0.097788222 1.193
-0.12418628 0.09569025 1.1959094
-0.11501095 0.094653197 1.1970003
-0.10388763 0.092869245 1.197
-0.13339944 0.10406327 1.1950001
-0.12548891 0.10464766 1.1958236
-0.11857881 0.10283826 1.197
-0.13187082 0.11263237 1.197
-0.12529188 0.11113942 1.1960001
-0.10144874 0.17884263 1.1930001
-0.09737283 0.17729825 1.1943334
-0.10362608 0.18579768 1.1939999
-0.098850653 0.18322 1.197
-0.11261021 0.19785653 1.1941427
-0.10742322 0.19310491 1.1955001
-0.12180435 0.20696492 1.1943334
-0.11501545 0.20398907 1.1963334
-0.1255441 0.21357477 1.1954001
-0.13095209 0.22628695 1.1950001
-0.39115289 0.23845685 1.1930001
-0.38696945 0.23845685 1.1930001
-0.35873112 0.2395027 1.1930001
-0.13282464 0.2311358 1.1930001
-0.39427865 0.24496041 1.1966668
-0.38460165 0.24457107 1.1958572
-0.37483445 0.24702942 1.1950001
-0.36692968 0.24660195 1.197
-0.35783517 0.2410053 1.197
-0.14119154 0.24996133 1.1930001
-0.37252632 0.25079942 1.197
-0.36832887 0.25079942 1.197
-0.34167993 0.25512138 1.1943334
-0.33990559 0.25519064 1.1930001
-0.14171448 0.25675943 1.1930001
-0.34209463 0.26339188 1.197
-0.33657476 0.26582885 1.1938
-0.14424695 0.26545906 1.1945
-0.33409765 0.27509829 1.1946665
-0.3252635 0.2792455 1.1930001
-0.15374191 0.27819964 1.1930001
-0.14739758 0.27443984 1.1943333
-0.33284768 0.28335112 1.1962001
-0.32489687 0.28396726 1.1944546
-0.3149243 0.28653941 1.1943333
-0.30852968 0.28970414 1.1930001
-0.16001709 0.28970414 1.1930001
-0.15530482 0.2829484 1.1954001
-0.3046864 0.29212201 1.1943334
-0.29458484 0.2952821 1.1930001
-0.28516826 0.29714605 1.1952858
-0.2792455 0.29807106 1.1930001
-0.17152157 0.29807106 1.1930001
-0.16338174 0.29604536 1.1946666
-0.15845487 0.29172486 1.197
-0.2833299 0.30116919 1.197
-0.27422473 0.30357799 1.1958572
-0.26561135 0.30695719 1.194
-0.22287461 0.30688456 1.1935713
-0.21650533 0.30577651 1.1945
-0.18452659 0.30642921 1.1946001
-0.17589028 0.30133751 1.1952857
-0.16684984 0.30116919 1.197
-0.26319706 0.31353018 1.1961111
-0.25545314 0.31550872 1.194778
-0.24443659 0.31604782 1.1948181
-0.23484163 0.31498513 1.1950002
-0.22742617 0.31363079 1.1955
-0.2117189 0.31555602 1.1947144
-0.2081268 0.31794244 1.1930001
-0.19383334 0.31759384 1.193
-0.1887645 0.31391191 1.1952858
-0.25289816 0.32005784 1.197
-0.24450321 0.32005784 1.197
-0.21249743 0.32215658 1.197
-0.20437071 0.32280225 1.1955
-0.19609824 0.32152152 1.1962
-0.3045347 -0.030558847 1.202
-0.30620599 -0.024269991 1.2036
-0.27356601 -0.021938145 1.2060002
-0.26464197 -0.023341073 1.2045999
-0.25517279 -0.022699993 1.2060001
-0.24739884 -0.0211452 1.2060001
-0.28181854 -0.013196463 1.204
-0.27476391 -0.014531625 1.2028888
-0.26479262 -0.015313923 1.2022352
-0.25510409 -0.015997892 1.2019999
-0.24543726 -0.015328981 1.2034117
-0.23566341 -0.014950489 1.2043155
-0.2254709 -0.013717578 1.2034285
-0.21742444 -0.012293789 1.202
-0.28451341 -0.0094837798 1.202
-0.2750296 -0.0094837798 1.202
-0.2665996 -0.0094837798 1.202
-0.24341702 -0.0094837798 1.202
-0.22234195 -0.0094837798 1.202
-0.21475494 -0.0086407773 1.202
-0.11169785 0.097999059 1.202
-0.10642909 0.096418425 1.202
-0.13593417 0.10748284 1.202
-0.12328914 0.10748284 1.202
-0.11515673 0.10434306 1.2037499
-0.10466874 0.10231927 1.2060002
-0.12588799 0.11545751 1.2043529
-0.11894175 0.1125982 1.2060001
-0.13004299 0.1268712 1.2060001
-0.12780523 0.12297905 1.2048572
-0.13004299 0.13004299 1.2060001
-0.092882834 0.17838062 1.204
-0.10010657 0.18862185 1.202
-0.0958331 0.18427941 1.2042223
-0.10346743 0.19550018 1.2043334
-0.098325178 0.19242132 1.2060001
-0.11310528 0.20738702 1.2025715
-0.10797974 0.20349434 1.2052
-0.12272223 0.21590899 1.2033334
-0.11548681 0.2121065 1.2054288
-0.12813535 0.2219983 1.2030001
-0.39335108 0.24763203 1.202
-0.38778123 0.24973954 1.202
-0.36408597 0.24771376 1.2024
-0.35582373 0.24562171 1.2054287
-0.34808049 0.24824834 1.2050002
-0.39387983 0.25425407 1.2034117
-0.38420501 0.25437942 1.2039999
-0.37505612 0.25613862 1.2040001
-0.36561245 0.25511771 1.2049999
-0.34779647 0.25348502 1.2042223
-0.37286034 0.26501986 1.2060002
-0.36686921 0.26431501 1.2060001
-0.34673083 0.26441339 1.2037778
-0.14436421 0.2687071 1.202
-0.37427002 0.27171582 1.2060001
-0.34117413 0.27262056 1.2030001
-0.14647171 0.27924463 1.202
-0.33530432 0.28598866 1.202
-0.3277173 0.28837717 1.202
-0.15373752 0.28723317 1.2027999
-0.14820401 0.2826812 1.2046667
-0.33356553 0.29233238 1.2060001
-0.32563609 0.29127514 1.2060001
-0.31331423 0.29291594 1.2033334
-0.30874974 0.2961047 1.202
-0.29294342 0.2982122 1.202
-0.15612294 0.29500064 1.2046667
-0.3008194 0.30187666 1.204
-0.29448494 0.30272108 1.2040001
-0.28526849 0.30613276 1.2038822
-0.27671561 0.30748519 1.202
-0.18187782 0.30790672 1.202
-0.17422375 0.30759713 1.2044617
-0.16474752 0.3059229 1.2041335
-0.15869455 0.30281085 1.2052002
-0.2833457 0.3118917 1.2060001
-0.27396837 0.31372344 1.2049092
-0.26607269 0.31665289 1.202
-0.23920201 0.31928727 1.202
-0.22334222 0.31559822 1.2026666
-0.21734539 0.31441164 1.2035002
-0.18406829 0.3149974 1.2043999
-0.17709103 0.31242031 1.2060001
-0.16810434 0.3118917 1.2060001
-0.26314947 0.32391649 1.2055001
-0.25515962 0.32584876 1.2034285
-0.24626115 0.3248089 1.2032307
-0.235378 0.32298678 1.204
-0.22625363 0.32087842 1.2060001
-0.214219 0.3256343 1.2054287
-0.20548189 0.32729578 1.202
-0.19510598 0.32620272 1.2041818
-0.18713503 0.32204139 1.2060001
-0.26114321 0.33092237 1.2060001
-0.25479966 0.33092237 1.2060001
-0.24739884 0.33092237 1.2060001
-0.20556153 0.33182859 1.2060002
-0.19686182 0.33134526 1.2060001
-0.3131884 -0.022992963 1.2157143
-0.30919331 -0.027623767 1.2120001
-0.25564477 -0.026519166 1.21
-0.2445976 -0.022301428 1.2113334
-0.23713307 -0.021017909 1.2108001
-0.31386399 -0.017079877 1.2177501
-0.32380298 0.0074805967 1.2190001
-0.11222912 0.10756174 1.21
-0.10574603 0.1068118 1.2114285
-0.12269535 0.11915946 1.21
-0.11461799 0.11563244 1.2124212
-0.10739157 0.11379035 1.215875
-0.12357993 0.12619752 1.2112308
-0.11557993 0.12459844 1.2156819
-0.13068995 0.13387927 1.2120001
-0.12458525 0.13417478 1.2146502
-0.1170418 0.13357309 1.2165
-0.092558466 0.18639407 1.2108001
-0.088334687 0.18837638 1.2140001
-0.10077284 0.19836336 1.21
-0.094735883 0.19506973 1.21425
-0.088698506 0.19128954 1.2190001
-0.10407647 0.20547278 1.2121763
-0.098646909 0.20316267 1.2165
-0.12198816 0.2195787 1.21
-0.1145604 0.2166605 1.2130909
-0.10738515 0.21340923 1.2162858
-0.1304743 0.22806484 1.21
-0.12475988 0.2246844 1.2146667
-0.11755224 0.22121193 1.2190001
-0.13291296 0.23486668 1.2177501
-0.36172143 0.24928017 1.21
-0.35747838 0.24857299 1.21
-0.3914229 0.25988784 1.21
-0.38152242 0.25918067 1.21
-0.36092934 0.25659552 1.2145001
-0.35631993 0.25508371 1.212375
-0.14213133 0.25434029 1.2190001
-0.38378644 0.2652905 1.2177501
-0.37429911 0.26504013 1.21
-0.3635056 0.26464334 1.2132857
-0.3561531 0.26410484 1.2168572
-0.14367689 0.26713261 1.2140001
-0.37384072 0.27579173 1.2140001
-0.3667835 0.2744247 1.2162499
-0.35443348 0.27115935 1.2177501
-0.34474918 0.27526897 1.21
-0.37167877 0.28490385 1.2190001
-0.36761791 0.28212535 1.2190001
-0.34262764 0.28110316 1.21
-0.1479803 0.28817773 1.2115
-0.33213916 0.29701379 1.2143335
-0.32502005 0.29640538 1.2155715
-0.31637061 0.29619849 1.2110001
-0.30757499 0.29906079 1.2140001
-0.15159948 0.29576704 1.2117144
-0.14779854 0.29382813 1.2158334
-0.33638936 0.3024298 1.219
-0.32487163 0.30242983 1.219
-0.3151105 0.30395439 1.2184443
-0.30563974 0.30634677 1.2161666
-0.29628 0.30796134 1.2113334
-0.16017577 0.3086831 1.21
-0.15474704 0.30446669 1.2140666
-0.14854327 0.30029252 1.2190001
-0.31418505 0.3131164 1.219
-0.30547929 0.3154037 1.2181176
-0.29534078 0.31498718 1.2131177
-0.28516945 0.31522453 1.21
-0.27728438 0.31844214 1.21
-0.18139111 0.31929076 1.21
-0.174639 0.31619379 1.2110001
-0.16446303 0.31538776 1.2134666
-0.1571192 0.31348071 1.2168572
-0.30375794 0.32297698 1.2180909
-0.29484233 0.32428235 1.2179285
-0.28526059 0.32292047 1.2156667
-0.27519023 0.3243947 1.2148
-0.26654699 0.32707614 1.2113334
-0.24249125 0.32904983 1.21
-0.23450553 0.3285217 1.2104001
-0.2247591 0.32574522 1.2115386
-0.21922803 0.32486549 1.2110001
-0.19199876 0.32883766 1.21
-0.18508527 0.32605219 1.212
-0.17643712 0.32320777 1.2160833
-0.16920398 0.32237807 1.2190001
-0.29494923 0.33021492 1.2190001
-0.27143878 0.33021492 1.2190001
-0.26484379 0.3338708 1.2152001
-0.25443882 0.33641723 1.214375
-0.24539906 0.33447319 1.213125
-0.23532343 0.3339335 1.2160001
-0.22481935 0.33297268 1.2154167
-0.21417108 0.33496732 1.2130001
-0.20447959 0.3372595 1.2116667
-0.19428332 0.3363187 1.2129287
-0.18682206 0.33334726 1.2177501
-0.21052536 0.3430388 1.2190001
-0.20497496 0.34268704 1.2177501
-0.19535924 0.34161839 1.2177501
-0.32313672 -0.021284942 1.2262001
-0.31789643 -0.023587594 1.223
-0.33023068 -0.011832369 1.2270001
-0.32458931 -0.015045354 1.2260001
-0.31821194 -0.014804971 1.2238001
-0.33320773 -0.0052123228 1.2263848
-0.32587227 -0.0056196908 1.223941
-0.34098738 0.0032270099 1.2270001
-0.3343057 0.0044714152 1.2265788
-0.32636654 0.0049319514 1.2229999
-0.33023068 0.01398371 1.2270001
-0.33516702 0.024260348 1.2246001
-0.10649133 0.11509669 1.2270001
-0.11043283 0.12544312 1.223
-0.1082885 0.12329879 1.223
-0.11306268 0.13599977 1.2263335
-0.10649133 0.13876143 1.2270001
-0.12115446 0.1404534 1.223
-0.11610749 0.14155333 1.2263335
-0.10649133 0.14091277 1.2270001
-0.091133885 0.19727805 1.223
-0.088670008 0.19722676 1.2260002
-0.095559686 0.20460358 1.2247778
-0.11043283 0.21979348 1.223
-0.10313676 0.21487144 1.2255002
-0.12370205 0.22804204 1.2270001
-0.11759475 0.22445032 1.2250001
-0.10864267 0.22051235 1.2270001
-0.13316566 0.23787166 1.2250001
-0.12865961 0.23158729 1.223
-0.14110433 0.24680007 1.2240001
-0.13683841 0.24397466 1.2247778
-0.14149489 0.25357461 1.2246001
-0.13876143 0.25170678 1.2270001
-0.36131904 0.269113 1.223
-0.35703039 0.269113 1.223
-0.14306411 0.26353917 1.2270001
-0.36348742 0.27615508 1.2237999
-0.35689536 0.27617648 1.225
-0.14521545 0.2721445 1.2270001
-0.36622611 0.28434068 1.2258
-0.14597201 0.28657854 1.2243334
-0.36895481 0.29150656 1.2270001
-0.14485863 0.2950851 1.224
-0.33380011 0.30646002 1.2229999
-0.32486549 0.30878305 1.2229999
-0.31414387 0.30914041 1.223
-0.15203276 0.30813974 1.223
-0.14717321 0.30444792 1.2254002
-0.33410311 0.31431079 1.2270001
-0.32474273 0.3153241 1.2243333
-0.31532019 0.31596348 1.2233999
-0.30985519 0.31843251 1.223
-0.15359159 0.31646383 1.2251819
-0.14898029 0.31248212 1.2270001
-0.31534764 0.32240433 1.2252859
-0.29413015 0.32772458 1.223
-0.28540987 0.32872528 1.223
-0.27876246 0.32915413 1.223
-0.17414077 0.32754546 1.2236668
-0.16467476 0.32476494 1.2248183
-0.157233 0.32294834 1.2256669
-0.29162842 0.33129847 1.223
-0.28435498 0.3337166 1.224
-0.27609497 0.33547416 1.2248824
-0.26804084 0.33773145 1.223
-0.24338108 0.33773145 1.223
-0.23265946 0.33773145 1.223
-0.22622646 0.33773145 1.223
-0.21818523 0.33719537 1.223
-0.18437757 0.33634663 1.2242
-0.17693298 0.33237937 1.2256669
-0.26676616 0.34098738 1.2270001
-0.24632843 0.34098735 1.2270001
-0.23879874 0.34098738 1.2270001
-0.20462537 0.34761119 1.2263335
-0.19484265 0.3470656 1.2256666
-0.18754923 0.34232122 1.2260002
-0.19469626 0.35174409 1.2270001
-0.32941628 -0.020521013 1.2320001
-0.33395249 -0.015131267 1.2328002
-0.33805668 -0.0032401599 1.2320001
-0.34374627 0.0073008798 1.2340001
-0.3364366 0.0091804536 1.2320001
-0.352157 0.016253401 1.2360001
-0.34473976 0.015505895 1.2340001
-0.3355642 0.014871504 1.2320002
-0.32941628 0.011880587 1.2320001
-0.3527762 0.024612291 1.2360001
-0.34503341 0.024876151 1.2337602
-0.33643663 0.022681121 1.2320001
-0.352157 0.032506801 1.2360001
-0.34752467 0.033778131 1.2356365
-0.10836536 0.13644673 1.2320001
-0.092959106 0.20645763 1.233
-0.08839605 0.20312952 1.2346667
-0.10160655 0.21834874 1.233
-0.097258955 0.21411823 1.2342223
-0.11350981 0.22594154 1.233143
-0.10691592 0.22429731 1.2346668
-0.13089859 0.23799922 1.2340001
-0.12538701 0.23239994 1.233
-0.11988592 0.23005135 1.2320001
-0.13400026 0.24596812 1.2360001
-0.14194636 0.25897083 1.2360001
-0.1382591 0.25485924 1.2353334
-0.14266874 0.26763931 1.2360001
-0.35425746 0.27973381 1.2320001
-0.1462806 0.27739137 1.2360001
-0.36421147 0.28748074 1.2328002
-0.35654941 0.28459379 1.2343334
-0.14705276 0.28305811 1.2352002
-0.13977924 0.28605986 1.2360001
-0.36660445 0.29292238 1.2360001
-0.14274187 0.29460961 1.2348573
-0.13977924 0.2925612 1.2360001
-0.14366384 0.30500248 1.2342223
-0.34375238 0.31343725 1.2350001
-0.33779806 0.31830975 1.2350001
-0.15012741 0.31861573 1.2320001
-0.14643228 0.31506172 1.2350001
-0.33446118 0.3221902 1.2346667
-0.32572934 0.32356504 1.2344002
-0.16308805 0.32941628 1.2320001
-0.15300958 0.32597303 1.2330911
-0.14844772 0.32181731 1.2360001
-0.1803689 0.33805668 1.2320001
-0.17423968 0.3357664 1.2345001
-0.16544499 0.33333105 1.2355001
-0.15576175 0.33238202 1.2360001
-0.27433354 0.34237692 1.2320001
-0.2519224 0.34490991 1.2333335
-0.24419305 0.34455246 1.2336
-0.23510183 0.34373665 1.233
-0.19116944 0.34885722 1.2320001
-0.18550307 0.34516004 1.2342224
-0.19564483 0.35292232 1.233
-0.35140568 0.0097914897 1.2410001
-0.34922981 0.0087035466 1.2410001
-0.35507131 0.015631258 1.2436666
-0.34922981 0.011967377 1.2410001
-0.36158526 0.026867496 1.2423334
-0.35726157 0.02530301 1.2415
-0.36219957 0.034845393 1.2422001
-0.35619265 0.03524936 1.2410001
-0.36083451 0.040979203 1.2410001
-0.35665271 0.041178964 1.2426001
-0.090299293 0.20997307 1.2410001
-0.087177485 0.20813206 1.243
-0.092622459 0.21575819 1.243
-0.087315999 0.21064985 1.245
-0.11423405 0.22955604 1.2410001
-0.10346332 0.22762211 1.2423334
-0.097526982 0.22338781 1.243
-0.12440302 0.23682466 1.2426001
-0.11576051 0.23348841 1.2434
-0.13164115 0.24913903 1.2410001
-0.12908536 0.2450821 1.2443333
-0.13288821 0.25488776 1.2425001
-0.14034469 0.2632823 1.2410001
-0.13500486 0.26513931 1.2435263
-0.14121807 0.27536142 1.2415
-0.13642788 0.27512395 1.2434615
-0.14196452 0.28377113 1.2415715
-0.13471133 0.28427264 1.2429999
-0.36337307 0.29673654 1.2410001
-0.35639369 0.29390919 1.2432222
-0.14143264 0.29048088 1.2410001
-0.13481282 0.29492742 1.2419412
-0.36317998 0.3028774 1.245
-0.14034469 0.30788797 1.2410001
-0.13564901 0.30463243 1.2435714
-0.34487805 0.3165915 1.2410001
-0.141031 0.31549492 1.2415715
-0.13669857 0.31476992 1.2443846
-0.34380674 0.32197773 1.245
-0.14367175 0.3256169 1.2427499
-0.13806842 0.3236149 1.245
-0.17080711 0.33835039 1.2410001
-0.16536738 0.33835039 1.2410001
-0.15421596 0.33726242 1.2410001
-0.14645915 0.33508012 1.2436666
-0.24152341 0.34922981 1.2410001
-0.23499575 0.34814185 1.2410001
-0.22955604 0.34487805 1.2410001
-0.18241183 0.34850451 1.2410001
-0.17539237 0.34425271 1.2426667
-0.16480894 0.34315187 1.245
-0.15601292 0.34230524 1.2445
-0.14952865 0.34162384 1.245
-0.24141909 0.35251084 1.2423334
-0.23598105 0.35283229 1.2446363
-0.19069692 0.35742226 1.243
-0.18540432 0.35447192 1.2426001
-0.097127654 0.058497336 1.2590001
-0.097495556 0.061440598 1.2590001
-0.091136076 0.21741115 1.2525001
-0.088138312 0.21606572 1.2536
-0.10232015 0.22994529 1.2550001
-0.094593868 0.22384346 1.25475
-0.12236806 0.23925693 1.25
-0.11466528 0.23724993 1.2529
-0.10595534 0.23372598 1.2564001
-0.12469707 0.24610867 1.2536924
-0.11672314 0.24377193 1.2571819
-0.13040416 0.25642499 1.25
-0.12490177 0.25409797 1.2571669
-0.13079539 0.26599053 1.2537501
-0.12798062 0.2647897 1.2585
-0.1319173 0.27593216 1.2539999
-0.12815455 0.27482712 1.2589999
-0.13127367 0.28528473 1.2548333
-0.12818958 0.2842876 1.2589999
-0.35499313 0.29695556 1.2525713
-0.13092579 0.29485807 1.2550001
-0.12786779 0.29431823 1.2574
-0.36272085 0.30546352 1.25
-0.35779366 0.30530336 1.2532222
-0.13140294 0.30535239 1.2535715
-0.12798062 0.30450624 1.2585
-0.36162499 0.31176457 1.25
-0.35573423 0.31403887 1.2554445
-0.34957084 0.3188875 1.25
-0.13231389 0.31540677 1.2535999
-0.12913562 0.31456116 1.2590001
-0.13457359 0.32500049 1.2531667
-0.1421873 0.3362813 1.2508334
-0.13710086 0.33399892 1.2566364
-0.23122083 0.34957084 1.25
-0.22627789 0.34876868 1.2550001
-0.17423749 0.34884027 1.25
-0.16656667 0.34737918 1.25
-0.15374604 0.34715 1.2514286
-0.14493516 0.34495831 1.2565714
-0.24217917 0.35833749 1.25
-0.23330192 0.35682029 1.252375
-0.22671805 0.3539494 1.2577692
-0.18271048 0.3568691 1.251
-0.17590834 0.35452983 1.2562728
-0.16391449 0.35255438 1.2572857
-0.15491313 0.35257167 1.2572222
-0.14900266 0.35208774 1.2590001
-0.23325278 0.36264002 1.2545455
-0.22798067 0.3625648 1.2583333
-0.18544744 0.36258319 1.253857
-0.10194582 0.058729652 1.2640001
-0.10147329 0.065431774 1.265
-0.095326975 0.065842934 1.2644
-0.089756638 0.067594506 1.2640001
-0.10107704 0.073309496 1.267
-0.094610639 0.072995946 1.2679999
-0.086190864 0.076032542 1.2674285
-0.08448261 0.081147775 1.268
-0.085324213 0.218297 1.2640001
-0.092067532 0.22518294 1.2653333
-0.087260596 0.22226445 1.2664001
-0.10560326 0.23677365 1.268
-0.11376257 0.24682093 1.2648
-0.10907721 0.24145155 1.2653333
-0.12189174 0.25818884 1.2640001
-0.11708838 0.25404474 1.2666667
-0.12321274 0.26464111 1.2645714
-0.11894263 0.26345235 1.268
-0.12335075 0.27492794 1.2659999
-0.12349404 0.28490216 1.2645334
-0.11894263 0.28679621 1.268
-0.12285876 0.2944006 1.2643077
-0.11783101 0.29457754 1.2679999
-0.35668105 0.30588698 1.2665
-0.12324004 0.30461934 1.2648572
-0.11805334 0.30302578 1.268
-0.35543489 0.31100541 1.2670001
-0.12504131 0.3140898 1.2659999
-0.1318647 0.32799956 1.2640001
-0.12790915 0.32352328 1.266
-0.13267781 0.33475125 1.2665
-0.14183766 0.34794548 1.2640001
-0.13678893 0.34350252 1.266
-0.22937807 0.35126981 1.2640001
-0.17244472 0.35764757 1.2650001
-0.16541718 0.35771158 1.2664001
-0.1542218 0.35837153 1.2656
-0.14501937 0.35423064 1.2659999
-0.22716187 0.36013469 1.2640001
-0.2160808 0.36899951 1.2640001
-0.18155067 0.3642129 1.2653333
-0.17531578 0.36221811 1.2668571
-0.16563039 0.36127433 1.268
-0.15562586 0.36127433 1.268
-0.18675104 0.37016723 1.268
-0.1015557 0.079235762 1.273
-0.094540857 0.078598045 1.2729999
-0.088163733 0.079235762 1.273
-0.10195458 0.081787743 1.2780001
-0.09423729 0.083975174 1.2771666
-0.08482518 0.085199364 1.2759166
-0.078273915 0.086103417 1.2754999
-0.092870265 0.22937839 1.2763335
-0.085373744 0.22598931 1.273
-0.10342913 0.23817192 1.2755001
-0.11070064 0.24823999 1.2755001
-0.10573514 0.24362554 1.2772857
-0.11369701 0.25487119 1.2739999
-0.11664549 0.26480287 1.2744999
-0.11754752 0.27462292 1.2748181
-0.11738645 0.28447768 1.2752726
-0.11387409 0.2948693 1.2759999
-0.11424281 0.30502954 1.2758571
-0.35377094 0.31136307 1.273
-0.12254689 0.31773147 1.2746667
-0.11823048 0.31329727 1.2763333
-0.12501563 0.32582685 1.276125
-0.1305716 0.33703101 1.273
-0.12772331 0.33611402 1.278
-0.13352948 0.34544304 1.2752222
-0.12884369 0.3417159 1.2780001
-0.22295561 0.35964197 1.2780001
-0.14117022 0.35795996 1.2746667
-0.13702044 0.35495639 1.2759166
-0.22299992 0.36467934 1.2770909
-0.21606253 0.36713824 1.2751428
-0.18302345 0.3693949 1.273
-0.17543794 0.36689815 1.2746667
-0.16650267 0.36354873 1.2746667
-0.15451263 0.36479339 1.2758571
-0.1445722 0.3635821 1.27675
-0.13668635 0.36188275 1.2780001
-0.22071485 0.37532729 1.2780001
-0.21985134 0.37162688 1.273
-0.1848627 0.37398285 1.2780001
-0.17814042 0.37196615 1.2780001
-0.10122869 0.086606778 1.2830001
-0.095154978 0.087506592 1.2830001
-0.086606778 0.08773154 1.2830001
-0.075359143 0.088856302 1.2830001
-0.10243985 0.09505865 1.2866365
-0.094665311 0.094668046 1.2855002
-0.08550366 0.094503969 1.2833128
-0.076965943 0.094640806 1.2830001
-0.10303462 0.10247006 1.2880001
-0.094848312 0.10162318 1.2880001
-0.083933249 0.10468801 1.2880001
-0.076574638 0.10472791 1.2845
-0.082427703 0.11253828 1.2880001
-0.075727023 0.11527808 1.2857274
-0.074297845 0.12172201 1.2880001
-0.068877943 0.12872273 1.2880001
-0.082107723 0.22832696 1.2830001
-0.10023397 0.23763044 1.2846667
-0.095602356 0.23518637 1.2863334
-0.086716361 0.23087601 1.2846667
-0.10311528 0.24652305 1.2855
-0.098235756 0.24050824 1.2880001
-0.11202244 0.256697 1.28425
-0.10806264 0.2542181 1.2873751
-0.11276709 0.26387843 1.2863334
-0.11464608 0.27553603 1.2863334
-0.11374671 0.2844339 1.2846667
-0.11188827 0.29243881 1.2840002
-0.10952722 0.29696557 1.2880001
-0.11135157 0.30481085 1.2830001
-0.10942093 0.30457264 1.2867501
-0.11421054 0.31580117 1.2852727
-0.10952722 0.31164449 1.2880001
-0.12138076 0.32556018 1.2837143
-0.11709142 0.32419121 1.2873751
-0.12260656 0.33524755 1.2849231
-0.1185604 0.33309826 1.2880001
-0.13159731 0.34867662 1.2830001
-0.12473583 0.34553763 1.2843161
-0.13272208 0.35542521 1.2830001
-0.12599134 0.35418594 1.2876155
-0.21632947 0.36667287 1.2830001
-0.16309068 0.36779761 1.2830001
-0.14172018 0.36779761 1.2830001
-0.13477987 0.36467957 1.2855
-0.12985186 0.36132693 1.2880001
-0.21566701 0.37148926 1.2880001
-0.19233453 0.3745462 1.2830001
-0.18333642 0.37679568 1.2830001
-0.17483327 0.37377948 1.2850001
-0.16877501 0.37176132 1.2863334
-0.15380591 0.37317616 1.286889
-0.1448939 0.37318653 1.2855002
-0.13777576 0.37128058 1.2846667
-0.18292177 0.38052243 1.2880001
-0.17953432 0.38052243 1.2880001
-0.10250513 0.10703574 1.2920001
-0.094765328 0.10684697 1.2919999
-0.088913292 0.10703574 1.2920001
-0.10233329 0.11029255 1.2970001
-0.09497305 0.11412835 1.2962857
-0.085449584 0.11613034 1.2934706
-0.092411019 0.12465551 1.2950001
-0.085654855 0.12336864 1.2946923
-0.075607412 0.12511031 1.295
-0.072770342 0.13530736 1.2970001
-0.06922555 0.1339139 1.2945001
-0.074895382 0.22753534 1.2945
-0.069359235 0.22627029 1.2970001
-0.092618376 0.23854303 1.2936667
-0.086539194 0.23600313 1.2955
-0.07845553 0.23081844 1.2970001
-0.10119626 0.24901102 1.2970001
-0.095838711 0.24341176 1.2948571
-0.088688865 0.24218881 1.2970001
-0.10383502 0.25533792 1.2945
-0.11121261 0.26895827 1.2945001
-0.10722064 0.26469386 1.2958462
-0.11282798 0.27444771 1.2942222
-0.10801848 0.27175176 1.2970001
-0.11090592 0.28389385 1.2953334
-0.10894293 0.28938547 1.2945001
-0.1081029 0.29449102 1.2941428
-0.10713079 0.30551144 1.2941428
-0.10739535 0.31515396 1.295
-0.11273941 0.32584846 1.2942727
-0.10801848 0.32178137 1.2970001
-0.11575198 0.33568802 1.2945
-0.11752577 0.34515485 1.2947272
-0.12289289 0.35735214 1.2920001
-0.11825182 0.35248137 1.2970001
-0.13101023 0.36735722 1.2920001
-0.12630959 0.36389261 1.295125
-0.22627029 0.3786332 1.2970001
-0.21478285 0.37615314 1.2962857
-0.20548102 0.37441784 1.2950001
-0.19721551 0.37814376 1.2953334
-0.17284289 0.37853274 1.2920001
-0.16482268 0.37614989 1.2936666
-0.15545666 0.37745672 1.2919999
-0.14384697 0.37943888 1.2920001
-0.13501368 0.37403801 1.2942222
-0.19670734 0.38090727 1.2970001
-0.18533698 0.3845458 1.2970001
-0.17466921 0.38498008 1.296091
-0.16436496 0.38217065 1.2970001
-0.15496065 0.38274986 1.294
-0.14525577 0.38244277 1.2945001
-0.1398555 0.38090727 1.2970001
-0.1027278 0.11300058 1.302
-0.097781636 0.11680532 1.302
-0.094886884 0.12414406 1.3040001
-0.083704136 0.1282195 1.302
-0.075562 0.12852389 1.302
-0.090172179 0.13354614 1.302
-0.084465072 0.13468754 1.302
-0.075659849 0.13452448 1.302
-0.069626622 0.13811181 1.302
-0.084365956 0.14381389 1.304
-0.075438924 0.1440277 1.303875
-0.069894001 0.14437121 1.307
-0.082497835 0.15010023 1.307
-0.074986465 0.15239184 1.307
-0.069894001 0.15124604 1.307
-0.071909457 0.22942542 1.302
-0.069626622 0.22942542 1.302
-0.081953958 0.2367305 1.302
-0.075200409 0.23566207 1.3036667
-0.06980487 0.23611498 1.3053335
-0.094087638 0.24823983 1.3025
-0.084364794 0.24532741 1.304
-0.076687135 0.24421972 1.3056365
-0.10158638 0.25796092 1.302
-0.094720982 0.25498441 1.30575
-0.084560275 0.25459749 1.3069999
-0.078296565 0.25360444 1.307
-0.10256474 0.26529863 1.302
-0.095335014 0.26410443 1.3061302
-0.08593525 0.26140684 1.307
-0.079060428 0.26009735 1.307
-0.11071774 0.27736506 1.302
-0.10486039 0.27544567 1.303
