# .PCD v0.7 - Point Cloud Data file format
VERSION 0.7
FIELDS x y z
SIZE 4 4 4
TYPE F F F
COUNT 1 1 1
WIDTH 1475
HEIGHT 1
VIEWPOINT 0 0 0 1 0 0 0
POINTS 1475
DATA ascii
-0.18505557 -0.018594099 1.01
-0.17443037 -0.018594099 1.01
-0.16382015 -0.017648257 1.0110911
-0.15462241 -0.016961591 1.0119413
-0.14645067 -0.017531579 1.01
-0.052718543 -0.016259536 1.0116668
-0.048988134 -0.012469707 1.016
-0.24363939 -0.0053555574 1.0180001
-0.23635826 -0.0058948253 1.0128636
-0.046657424 -0.0076320851 1.0118001
-0.27067697 0.0098265568 1.0190001
-0.26674634 0.009111898 1.0190001
-0.24338663 0.0055773533 1.017875
-0.2367647 0.0048713624 1.0105627
-0.27134696 0.01585649 1.0190001
-0.26494229 0.015161879 1.0175602
-0.2556828 0.016353047 1.0175716
-0.2448799 0.015678432 1.0178572
-0.23695524 0.014797123 1.0111541
-0.27216586 0.025013054 1.0190001
-0.26484567 0.025008818 1.0154197
-0.25489408 0.024796672 1.0137273
-0.24511912 0.025098169 1.0141473
-0.23680583 0.024977934 1.0112354
-0.27295586 0.034788322 1.0175
-0.26600459 0.034831066 1.0122502
-0.25589022 0.031344339 1.01
-0.24357244 0.032787707 1.0108573
-0.23744369 0.034531903 1.0100001
-0.27307943 0.043348927 1.0183333
-0.26713783 0.04552393 1.0131875
-0.020364966 0.047813401 1.01
-0.017761268 0.04795542 1.013
-0.27067697 0.056279372 1.0190001
-0.26654109 0.054753177 1.0150527
-0.094253004 0.057052743 1.0103531
-0.08942876 0.057553161 1.01
-0.022555755 0.054890465 1.0130002
-0.017038479 0.055528585 1.0167059
-0.26490253 0.065435678 1.014909
-0.10023228 0.064754978 1.0118001
-0.095124304 0.064902164 1.0140803
-0.088700742 0.065664858 1.0106667
-0.021439761 0.061639309 1.0190001
-0.016973143 0.061639309 1.0190001
-0.28854343 0.079505779 1.0190001
-0.26421764 0.075227283 1.0158421
-0.25943196 0.074671544 1.01
-0.1011126 0.075165771 1.0155715
-0.095274858 0.073399745 1.0185502
-0.087457508 0.075238526 1.0124707
-0.29232505 0.086082593 1.0187693
-0.28508088 0.086183146 1.0171741
-0.27720615 0.08853931 1.01675
-0.26328778 0.085202411 1.0164615
-0.25943196 0.085887037 1.01
-0.090225659 0.083972394 1.0190001
-0.084326461 0.085210219 1.0124644
-0.076044492 0.087506443 1.0113847
-0.29149219 0.093422353 1.0177144
-0.28492144 0.095165074 1.013
-0.27498078 0.094532549 1.013971
-0.26547086 0.094946541 1.0163753
-0.2576611 0.094741367 1.01
-0.10333278 0.096065924 1.0109
-0.084108979 0.093687557 1.0165625
-0.077060424 0.093915872 1.0157692
-0.28333253 0.1015301 1.0106001
-0.27271348 0.10005397 1.01
-0.26380834 0.10224661 1.0114212
-0.25764263 0.10459538 1.0104617
-0.10555612 0.10446738 1.0118464
-0.28240544 0.11589358 1.013
-0.25618538 0.11274517 1.0100001
-0.24703591 0.1195335 1.01
-0.11206035 0.118286 1.0145
-0.10728244 0.11394598 1.01275
-0.25057763 0.12307522 1.01
-0.24722897 0.12419312 1.0102309
-0.11206919 0.12509675 1.01325
-0.10828876 0.12559345 1.0175
-0.11188561 0.13447365 1.0121819
-0.10782605 0.13367063 1.0164999
-0.26636279 0.14639869 1.0121
-0.23818156 0.14963824 1.01
-0.11432959 0.14592916 1.0136667
-0.26197869 0.15718721 1.013
-0.25500479 0.15583625 1.01
-0.24272752 0.15576673 1.0105001
-0.23533493 0.15541568 1.0130002
-0.22737385 0.15650502 1.0105001
-0.18399306 0.15813839 1.01
-0.17797209 0.15849257 1.01
-0.15344231 0.15758573 1.0117501
-0.14536241 0.15715007 1.0119288
-0.13557386 0.15816754 1.0107501
-0.1237078 0.15664023 1.0120002
-0.1172591 0.15375647 1.0152502
-0.26131007 0.16343023 1.015
-0.25371873 0.16583912 1.0135455
-0.24492393 0.16495119 1.0128968
-0.23565041 0.1651361 1.0182003
-0.22538078 0.16494344 1.0150872
-0.21711603 0.16824935 1.0108572
-0.20807683 0.16911776 1.01
-0.19256429 0.16647185 1.0105456
-0.18546581 0.16425541 1.014778
-0.17478614 0.16466583 1.016273
-0.16477656 0.16457285 1.0140589
-0.15542659 0.16242401 1.0166923
-0.14496806 0.16249298 1.017909
-0.13487364 0.16189635 1.0151818
-0.12623811 0.16159172 1.0165001
-0.25196776 0.17254086 1.018
-0.24435505 0.17489444 1.0176554
-0.23771466 0.17387956 1.0184375
-0.22262615 0.17173213 1.0185
-0.21453843 0.17366973 1.0166429
-0.20475455 0.1739406 1.0140001
-0.19508934 0.17367525 1.0145655
-0.18833116 0.17175665 1.0181428
-0.24298394 0.18134463 1.0190001
-0.18008661 -0.1057225 1.0220001
-0.17829472 -0.10124273 1.0220001
-0.18087956 -0.098987505 1.0265
-0.17804633 -0.099044628 1.024
-0.22169848 -0.060381293 1.028
-0.21683192 -0.061102264 1.028
-0.14509533 -0.061153762 1.028
-0.136516 -0.063018948 1.0276842
-0.24134493 -0.052811105 1.028
-0.23467956 -0.054399706 1.0263636
-0.2248797 -0.054875758 1.0260713
-0.21517827 -0.054513264 1.0251304
-0.20612831 -0.05321496 1.0267646
-0.19392471 -0.052843872 1.028
-0.18539245 -0.053300332 1.028
-0.17934145 -0.052270375 1.028
-0.1540449 -0.054236401 1.0269998
-0.1449113 -0.054773502 1.0241599
-0.13539346 -0.056018222 1.0227896
-0.12991323 -0.056445058 1.0220001
-0.090491287 -0.054653153 1.0220001
-0.088085711 -0.055437244 1.0232002
-0.24400352 -0.044948012 1.028
-0.23632976 -0.045069866 1.0235
-0.2266762 -0.049277432 1.0220001
-0.21157297 -0.046973553 1.0220002
-0.20491393 -0.045105953 1.0221999
-0.19536158 -0.044856153 1.0243332
-0.18463713 -0.044672027 1.0238528
-0.1754152 -0.04458154 1.0257498
-0.16469182 -0.044263627 1.0246999
-0.15566531 -0.046253309 1.023
-0.14872825 -0.049277432 1.0220001
-0.082208835 -0.046337385 1.0230001
-0.24537781 -0.03486545 1.0265652
-0.23784493 -0.036122654 1.0230911
-0.20427737 -0.038525995 1.0220001
-0.19538672 -0.037423279 1.0220002
-0.18904616 -0.038525995 1.0220001
-0.17311107 -0.036295537 1.0222503
-0.16700569 -0.036734089 1.0220002
-0.25143853 -0.024933569 1.028
-0.24705426 -0.025662906 1.0251667
-0.048595823 -0.020697661 1.0265
-0.25143853 -0.015320627 1.028
-0.24754052 -0.015977949 1.0238
-0.051069338 -0.01881502 1.0220001
-0.048264004 -0.015940649 1.02425
-0.25138155 -0.0055311406 1.0267143
-0.24817908 -0.0053757201 1.0220002
-0.28027734 0.0090121329 1.028
-0.27449244 0.0062925667 1.0258334
-0.26512849 0.0061206073 1.0248636
-0.25456408 0.0063705533 1.0263748
-0.24814187 0.0054776082 1.0226668
-0.28140387 0.014644716 1.028
-0.27624464 0.015247174 1.0230716
-0.2549485 0.012443798 1.0220002
-0.24907503 0.012543346 1.0220001
-0.28135881 0.023611788 1.028
-0.27719936 0.024606282 1.023286
-0.28207979 0.036048532 1.028
-0.27815449 0.034993466 1.0235002
-0.28099832 0.045240905 1.028
-0.27717519 0.045174122 1.0237499
-0.27555254 0.054392349 1.0254999
-0.01347875 0.055712167 1.0250001
-0.30731374 0.069393426 1.028
-0.27328739 0.064163819 1.026
-0.26968196 0.064508639 1.0220001
-0.021885693 0.064762868 1.026
-0.015364063 0.065716036 1.0255452
-0.0099133467 0.066689789 1.028
-0.30295408 0.074573651 1.0268462
-0.29479289 0.07565324 1.0253102
-0.28521973 0.076375455 1.0265481
-0.27485061 0.075501621 1.0272105
-0.26968196 0.073468171 1.0220001
-0.10124273 0.079739846 1.0220001
-0.095919602 0.0786421 1.0225457
-0.014419414 0.071195856 1.028
-0.29527262 0.082880065 1.0228573
-0.28278968 0.082234256 1.0233334
-0.27497351 0.083752766 1.0247691
-0.26856199 0.08556354 1.0220002
-0.10139132 0.082550004 1.0235001
-0.095156953 0.084977016 1.0244285
-0.29297674 0.092283189 1.0220001
-0.092070684 0.093329236 1.0256001
-0.086447492 0.098104343 1.0229001
-0.076528318 0.098352648 1.0230001
-0.084659643 0.10362031 1.0266
-0.079189733 0.10258842 1.0265
-0.10577291 0.11832413 1.0225002
-0.11020226 0.12812133 1.0220001
-0.10593404 0.12456486 1.0240625
-0.11020226 0.13887277 1.0220001
-0.10783 0.13928041 1.0250001
-0.11050091 0.14514445 1.0220002
-0.10786077 0.14471793 1.0253
-0.11304359 0.15548159 1.0244375
-0.10894073 0.15215865 1.027
-0.18152013 0.16861841 1.0220001
-0.17739877 0.16933517 1.0220001
-0.16407846 0.16901147 1.0227501
-0.15590136 0.16666922 1.0235002
-0.14488192 0.16662188 1.0236669
-0.13544884 0.16684404 1.0232003
-0.12536071 0.16579907 1.0235884
-0.11746841 0.16460504 1.026
-0.25515595 0.17518745 1.0232859
-0.24997097 0.17829472 1.0220001
-0.23295079 0.1751391 1.0233334
-0.22617085 0.17616783 1.0246667
-0.21566875 0.17803873 1.0220002
-0.20786119 0.17829472 1.0220001
-0.19352591 0.17829472 1.0220001
-0.18503229 0.174577 1.0242943
-0.17525132 0.17226189 1.024
-0.16563548 0.17218453 1.0263635
-0.15951476 0.17032932 1.028
-0.13698442 0.17032932 1.028
-0.11986137 0.17032932 1.028
-0.24383669 0.18477091 1.0241001
-0.23541611 0.18380255 1.02512
-0.22638232 0.18258765 1.0275384
-0.21501234 0.18172792 1.0261999
-0.20483772 0.18238235 1.0248126
-0.19516633 0.18213126 1.0259376
-0.24152517 0.19015601 1.028
-0.18226145 -0.095763214 1.0364001
-0.17834496 -0.09656132 1.0326668
-0.17398819 -0.08171621 1.0380001
-0.16430193 -0.081797093 1.0380001
-0.15483767 -0.082004517 1.0361819
-0.14484146 -0.083041176 1.0352002
-0.23295487 -0.070068456 1.0380001
-0.22499256 -0.070750937 1.0380001
-0.21748523 -0.071281761 1.0380001
-0.19428071 -0.070523441 1.0380001
-0.18438672 -0.074128263 1.037158
-0.1750579 -0.075286105 1.0346402
-0.16523257 -0.075328454 1.0324446
-0.15534648 -0.074929476 1.0323931
-0.14467244 -0.07504914 1.0314001
-0.13771074 -0.074397661 1.0317501
-0.24341148 -0.063163541 1.0366668
-0.23468381 -0.064340942 1.0335928
-0.22504102 -0.064530127 1.0316523
-0.21453346 -0.065267809 1.033483
-0.20470868 -0.064119525 1.0356925
-0.19475372 -0.064653836 1.0354075
-0.18439919 -0.064866707 1.0339377
-0.17457959 -0.065127566 1.0318002
-0.16540335 -0.065076716 1.031
-0.15546106 -0.065076731 1.0309998
-0.14529282 -0.066357158 1.031
-0.13518913 -0.066238806 1.031
-0.25159925 -0.054868814 1.0373334
-0.24567536 -0.055512521 1.032389
-0.23545118 -0.058749817 1.031
-0.21240318 -0.058749814 1.031
-0.20456719 -0.057286143 1.0317501
-0.19565833 -0.056371275 1.031
-0.18451427 -0.057286337 1.0312728
-0.17504133 -0.055334218 1.0311072
-0.16540335 -0.055134438 1.031
-0.15817259 -0.057394054 1.031
-0.25263622 -0.044863693 1.0338126
-0.24810496 -0.045418125 1.031
-0.19432631 -0.049711384 1.031
-0.17263407 -0.048988305 1.031
-0.16781358 -0.049108822 1.031
-0.25438982 -0.034705948 1.0339414
-0.25588226 -0.024952842 1.0340528
-0.25649741 -0.015293685 1.0343335
-0.29028362 -0.00090997998 1.0380001
-0.28375989 -0.0030061577 1.0361539
-0.27508044 -0.0027270007 1.0355883
-0.26584542 -0.0019005337 1.0362729
-0.25624633 -0.0045299246 1.0333573
-0.29161263 0.0054534511 1.0373334
-0.28518465 0.0053277947 1.0322224
-0.2760739 0.0017072593 1.031
-0.26379046 0.0021095525 1.0316668
-0.2581118 0.0024532888 1.031
-0.29112172 0.015756622 1.0366668
-0.28656211 0.014965372 1.032154
-0.29028362 0.02092954 1.0380001
-0.28553644 0.025670389 1.0319376
-0.28518116 0.035134908 1.0316924
-0.28472117 0.045098536 1.0330001
-0.31121317 0.059148699 1.0380001
-0.30443889 0.058339827 1.0380001
-0.29704347 0.058368713 1.0380001
-0.2839722 0.055108704 1.0353572
-0.27928758 0.056942131 1.031
-0.31121317 0.06096866 1.0380001
-0.30456769 0.064964503 1.0334841
-0.29476386 0.065286279 1.0340285
-0.28472546 0.065513194 1.0338067
-0.27766067 0.066161327 1.031
-0.020848887 0.069798447 1.034
-0.011749963 0.069595933 1.031
-0.0090384334 0.069595933 1.031
-0.30278751 0.072307467 1.031
-0.29736444 0.071403623 1.031
-0.28410807 0.071704902 1.031
-0.27808246 0.073211312 1.031
-0.020848887 0.07161139 1.034
-0.013615802 0.074011698 1.0358335
-0.0079465443 0.074705586 1.036
-0.10226754 0.087786183 1.0323334
-0.098518923 0.088576645 1.031
-0.0081898198 0.080988221 1.0380001
-0.10217462 0.094914071 1.0360001
-0.096672662 0.095826149 1.0331334
-0.10222108 0.10373772 1.0380001
-0.095068879 0.10474249 1.0349261
-0.086356759 0.10790662 1.0326002
-0.076678962 0.10550623 1.0339
-0.10373772 0.11192754 1.0380001
-0.094749078 0.11111329 1.0372001
-0.085878514 0.11108594 1.0374286
-0.11117273 0.15907642 1.031
-0.106939 0.15523581 1.0337859
-0.15274952 0.1690187 1.031
-0.14642262 0.1690187 1.031
-0.12201885 0.1690187 1.031
-0.11256728 0.16584109 1.035059
-0.10820276 0.1620343 1.0372001
-0.18384174 0.17805713 1.031
-0.17578284 0.17746122 1.0340002
-0.16659705 0.17647594 1.0346668
-0.15640792 0.17216058 1.0325
-0.1444636 0.17461461 1.0332801
-0.13486052 0.17528562 1.0344287
-0.12534146 0.17322658 1.0327224
-0.11581183 0.17292333 1.0352309
-0.25217229 0.18348019 1.031
-0.23319158 0.18890326 1.031
-0.22490159 0.18651566 1.0320715
-0.21467228 0.18661501 1.0325001
-0.20461422 0.18831961 1.03275
-0.19412223 0.18724248 1.0328001
-0.18622348 0.18311644 1.0347859
-0.17471616 0.18108602 1.0380001
-0.14286686 0.18108602 1.0380001
-0.24136737 0.19364077 1.0370001
-0.23509546 0.19373433 1.0363531
-0.22674048 0.19127579 1.0373334
-0.21475528 0.19079246 1.0380001
-0.20535214 0.1920058 1.0380001
-0.19473572 0.19079246 1.0380001
-0.17255956 -0.10004783 1.0470001
-0.1665424 -0.10086372 1.0470001
-0.15787363 -0.10004783 1.0470001
-0.20101354 -0.091786996 1.0470001
-0.19448259 -0.093577385 1.04445
-0.18631294 -0.093371212 1.0425791
-0.17515358 -0.094346277 1.0441073
-0.16471875 -0.094518661 1.0447744
-0.15516366 -0.094321668 1.0462502
-0.14763716 -0.091654971 1.0434
-0.23038536 -0.081690431 1.0470001
-0.2029905 -0.084232226 1.0470001
-0.19496895 -0.085127525 1.0441202
-0.1854609 -0.085202493 1.0433078
-0.17560288 -0.08633735 1.0424211
-0.16490805 -0.086716771 1.0435263
-0.15481082 -0.087008283 1.0431429
-0.14656517 -0.088158123 1.041
-0.24311413 -0.072493315 1.0445
-0.2348548 -0.0754181 1.0437503
-0.22526191 -0.076497898 1.0436089
-0.21481773 -0.075274087 1.0443217
-0.20508587 -0.075056128 1.0436132
-0.19505467 -0.075883083 1.0418401
-0.18638059 -0.078647517 1.0414286
-0.25367334 -0.063840397 1.0452499
-0.24691325 -0.066358961 1.042091
-0.20533724 -0.06844575 1.041
-0.26134309 -0.052270371 1.046
-0.25668833 -0.055470407 1.0432941
-0.26206106 -0.044899359 1.0452
-0.25808844 -0.045349527 1.0415
-0.26272437 -0.034784544 1.0441875
-0.25826862 -0.03832962 1.041
-0.26416752 -0.025128841 1.0437692
-0.29153237 -0.011559376 1.0464
-0.28555179 -0.012459703 1.0457647
-0.27548936 -0.011087364 1.045909
-0.26475781 -0.013396264 1.0440001
-0.30106133 -0.00091786997 1.0470001
-0.29407623 -0.004463932 1.0441875
-0.28534272 -0.0066924728 1.0410001
-0.27501225 -0.0073103481 1.0422001
-0.26519635 -0.0061812731 1.0420589
-0.30093023 0.0048515988 1.0470001
-0.29598022 0.0042376476 1.0429091
-0.30111396 0.01006764 1.044
-0.29631346 0.013836055 1.0422857
-0.29259625 0.024996394 1.043
-0.29252088 0.034845747 1.046
-0.30447736 0.048364948 1.0465715
-0.2935926 0.046002645 1.046
-0.28929737 0.047455721 1.041
-0.31311989 0.0538771 1.0438235
-0.30471563 0.053316545 1.0420911
-0.29477587 0.054067105 1.0425601
-0.28884107 0.0547566 1.041
-0.015268971 0.077444606 1.043077
-0.010999098 0.083409131 1.0454999
-0.0071267737 0.083510384 1.0422
-0.10190329 0.10647555 1.0425
-0.10284648 0.11292727 1.045125
-0.094809853 0.11516605 1.043625
-0.084707975 0.11568969 1.0429412
-0.078156367 0.11372799 1.04475
-0.090869129 0.12024097 1.0470001
-0.085820854 0.12024097 1.0470001
-0.10250162 0.15833476 1.044
-0.098212086 0.15879151 1.0470001
-0.10398029 0.16548771 1.0446925
-0.098212086 0.16246299 1.0470001
-0.16305649 0.17860417 1.0430001
-0.15441556 0.17611983 1.044
-0.12411496 0.17795895 1.041
-0.11310235 0.17608923 1.0423849
-0.10761075 0.17413014 1.045909
-0.18421936 0.18708111 1.0428752
-0.17538646 0.18405318 1.0438
-0.16569468 0.18297493 1.0450714
-0.14003173 0.18213277 1.044
-0.13360459 0.18184286 1.0446666
-0.12444605 0.18152113 1.0463333
-0.1169963 0.1814591 1.0461428
-0.2421024 0.19855785 1.041
-0.23420912 0.19870821 1.0413333
-0.22501962 0.19556889 1.0434
-0.21565014 0.19540736 1.0440001
-0.20526151 0.1948362 1.0434
-0.19512567 0.19446339 1.0431819
-0.18728808 0.19297256 1.0452
-0.24001643 0.20168681 1.041
-0.2346935 0.20356764 1.0443999
-0.22822088 0.20118448 1.0455
-0.1213894 -0.11026976 1.057
-0.11479598 -0.10368774 1.056
-0.10733425 -0.10178582 1.0555
-0.22083759 -0.091476656 1.054
-0.21368539 -0.091950402 1.0552
-0.20699878 -0.092747077 1.0534285
-0.11180481 -0.098868713 1.054
-0.10714149 -0.09672866 1.0558751
-0.26131153 -0.080617391 1.057
-0.25760499 -0.080617391 1.057
-0.24116574 -0.080388576 1.054
-0.23450787 -0.084159173 1.0536112
-0.22469456 -0.085175857 1.0526001
-0.21554315 -0.084772214 1.0526429
-0.20744298 -0.086973228 1.0516667
-0.26145014 -0.075727232 1.056625
-0.25549999 -0.07465902 1.0550478
-0.24690647 -0.075691074 1.052875
-0.2625581 -0.065072663 1.0535455
-0.25692901 -0.06743028 1.0504446
-0.26385036 -0.055681657 1.0516001
-0.26745522 -0.045190413 1.052
-0.27073395 -0.034188248 1.054
-0.2677483 -0.035658039 1.0505716
-0.29345375 -0.022431819 1.055125
-0.28478804 -0.022221131 1.0561001
-0.27365488 -0.023414014 1.0553846
-0.26786551 -0.022092 1.0500001
-0.30168816 -0.011088081 1.054
-0.29573193 -0.015586626 1.0522631
-0.28498733 -0.017410293 1.0516471
-0.27556431 -0.016740246 1.0522858
-0.26878601 -0.0174895 1.0500001
-0.30169138 -0.0049186838 1.0513334
-0.29854885 -0.0064435001 1.0500001
-0.30215019 0.0046200333 1.054
-0.29548049 0.026694499 1.0500001
-0.32154292 0.037992105 1.057
-0.31477821 0.036042057 1.0563077
-0.30562657 0.037010957 1.057
-0.29689509 0.035796754 1.0524
-0.32124254 0.045624655 1.0550001
-0.31499115 0.045083907 1.053167
-0.3048512 0.044175528 1.0530001
-0.29711914 0.043835584 1.0511429
-0.024200559 0.077203296 1.0534
-0.023760006 0.083629906 1.0560001
-0.015433217 0.085245028 1.0530955
-0.0073640002 0.088367999 1.0500001
-0.011768374 0.092948452 1.0557144
-0.0073894234 0.095120788 1.0534
-0.0064864568 0.10193003 1.057
-0.10217707 0.11806683 1.0538
-0.097572997 0.1187445 1.0500001
-0.074752048 0.11628391 1.0527501
-0.10193003 0.1213894 1.057
-0.094532713 0.12313946 1.0527143
-0.085442662 0.12427529 1.0517777
-0.078652337 0.12214378 1.0555
-0.1003345 0.1647695 1.0500001
-0.097942375 0.16487412 1.0506668
-0.15556449 0.1794975 1.0500001
-0.103651 0.17520992 1.0506155
-0.098540209 0.17525932 1.0561429
-0.174895 0.18870248 1.0500001
-0.16516064 0.18700045 1.0525001
-0.15567885 0.18240014 1.0561429
-0.13328014 0.18643717 1.0505716
-0.12570563 0.18666804 1.0517778
-0.11451408 0.18597691 1.0534376
-0.10629688 0.18228424 1.0544001
-0.22276101 0.1997485 1.0500001
-0.21493676 0.1997485 1.0500001
-0.20343049 0.19790749 1.0500001
-0.19441049 0.19809598 1.0510001
-0.18390363 0.19584049 1.0541819
-0.17488053 0.19154158 1.0555
-0.16957451 0.19181378 1.057
-0.13028494 0.19126938 1.054
-0.12377306 0.19185674 1.0552
-0.11818752 0.1934856 1.0560001
-0.23355365 0.20862913 1.053
-0.22504652 0.20516239 1.0538824
-0.2152915 0.20357251 1.0555
-0.20572177 0.20179211 1.0558751
-0.19543956 0.20179288 1.0565715
-0.1884779 0.20182148 1.057
-0.23351245 0.21219979 1.057
-0.22795263 0.21127316 1.057
-0.12400669 -0.12120049 1.0635
-0.12358495 -0.11604419 1.0621904
-0.11540896 -0.11397026 1.064
-0.10887192 -0.11260827 1.066
-0.11390011 -0.1071731 1.0616155
-0.10494752 -0.10444017 1.0645455
-0.10242081 -0.095288664 1.0638236
-0.098815583 -0.092838824 1.0654
-0.26445854 -0.082801603 1.0612501
-0.25523821 -0.084018402 1.0631429
-0.24572086 -0.08492323 1.0633
-0.10102355 -0.088863313 1.067
-0.098217346 -0.088863313 1.067
-0.27033156 -0.073273264 1.067
-0.26634896 -0.075433217 1.0623001
-0.2536898 -0.078987665 1.0600001
-0.24904346 -0.078987665 1.0600001
-0.086368911 -0.070778854 1.067
-0.27285838 -0.063173972 1.0664285
-0.26785681 -0.065104686 1.0609001
-0.084722944 -0.064456552 1.0641364
-0.075842649 -0.062864892 1.0665295
-0.068284445 -0.060801215 1.067
-0.27219245 -0.054994792 1.0633001
-0.26855806 -0.055756003 1.0600001
-0.073947035 -0.057452615 1.0636154
-0.066607282 -0.05417731 1.0634445
-0.27357039 -0.04477093 1.0638334
-0.27483737 -0.034734406 1.0627143
-0.30441999 -0.024265451 1.0644445
-0.29493636 -0.026738537 1.0628463
-0.28567708 -0.026188983 1.0633636
-0.27710351 -0.026379192 1.0618889
-0.30412531 -0.017699899 1.0625001
-0.32084334 0.028997503 1.067
-0.31523094 0.028997505 1.067
-0.30412909 0.028043984 1.0663333
-0.32249424 0.033207402 1.0621667
-0.31453705 0.030709194 1.0615001
-0.30420968 0.032970496 1.0616429
-0.0306658 0.077129133 1.0600001
-0.028807266 0.078987665 1.0600001
-0.022767035 0.083633997 1.0600001
-0.0195146 0.087351069 1.0600001
-0.02147395 0.091499448 1.0650001
-0.015904231 0.095946401 1.0617081
-0.013288764 0.10526446 1.0643809
-0.0076723676 0.10578035 1.0607501
-0.012368111 0.1131838 1.067
-0.0084186299 0.1122484 1.067
-0.10183483 0.12715611 1.0618001
-0.096371964 0.12818332 1.0616364
-0.082780994 0.12928991 1.061
-0.078062788 0.12613392 1.0626
-0.10195896 0.13189188 1.067
-0.093963653 0.13368776 1.0653999
-0.08565817 0.13368747 1.0644001
-0.096346542 0.16650179 1.067
-0.095566921 0.17641434 1.0625001
-0.16173653 0.18843687 1.0623335
-0.1559739 0.1862389 1.0654001
-0.10394881 0.18727557 1.0627857
-0.095932148 0.18465483 1.0646316
-0.18182652 0.19917281 1.0600001
-0.17623828 0.19518757 1.0627502
-0.16545768 0.19153851 1.0623335
-0.11362942 0.19431794 1.0624375
-0.107503 0.19257326 1.0663334
-0.22116546 0.209085 1.0600001
-0.21527234 0.20833121 1.0621819
-0.20526102 0.20632495 1.0615
-0.19465189 0.20582014 1.0614547
-0.18511769 0.20475818 1.0632668
-0.23349103 0.21709231 1.0628
-0.22543161 0.21399392 1.0640668
-0.21545453 0.21264835 1.067
-0.20672414 0.21046574 1.067
-0.19269308 0.21046574 1.067
-0.18895146 0.21046574 1.067
-0.23572165 0.2216906 1.067
-0.1346709 -0.12336504 1.0741999
-0.12639998 -0.12358589 1.0700001
-0.13351721 -0.11940858 1.0725
-0.10532924 -0.1080126 1.0714287
-0.097629547 -0.10140447 1.0760001
-0.094959378 -0.094962984 1.0724736
-0.089363016 -0.09124434 1.0730001
-0.27147168 -0.082663968 1.0715001
-0.25233096 -0.087237097 1.0700001
-0.093874134 -0.086249091 1.0714706
-0.087314442 -0.084125273 1.0745385
-0.27380091 -0.07343661 1.0724444
-0.09171468 -0.075723395 1.0730001
-0.085579664 -0.075284943 1.0717999
-0.078298099 -0.073445454 1.07175
-0.28125834 -0.062083781 1.0730001
-0.27685443 -0.065140553 1.0711818
-0.09124434 -0.067727759 1.0730001
-0.081608899 -0.068476431 1.0700001
-0.075042658 -0.066600375 1.0700001
-0.068476431 -0.062848233 1.0700001
-0.28117383 -0.055706032 1.077
-0.27780372 -0.055460893 1.0723751
-0.28167737 -0.042487651 1.077
-0.278209 -0.043915737 1.0733334
-0.30454829 -0.032263484 1.0737273
-0.29586446 -0.032319486 1.0736667
-0.28444967 -0.032801449 1.0751001
-0.27898645 -0.035697866 1.0715001
-0.30546105 -0.028793531 1.071
-0.29360443 -0.029079033 1.0700001
-0.28556144 -0.029119799 1.0715001
-0.30685526 0.019827571 1.077
-0.33140367 0.02549259 1.077
-0.32514042 0.025535494 1.0742941
-0.315317 0.025803491 1.0732142
-0.30665299 0.025374157 1.072091
-0.021635257 0.09876965 1.0730001
-0.022627119 0.10465069 1.0754
-0.018877164 0.10543904 1.0706667
-0.072431073 0.11946424 1.0730001
-0.021715909 0.11424457 1.077
-0.016176756 0.11607753 1.0731428
-0.0084423004 0.1153781 1.0700001
-0.075248554 0.12451647 1.0748572
-0.021715909 0.1227421 1.077
-0.014296084 0.12495603 1.07556
-0.0081670256 0.12470963 1.075
-0.10140228 0.1361437 1.071
-0.095054053 0.13789089 1.0700001
-0.084623121 0.13800135 1.0708573
-0.079654075 0.13390805 1.0731667
-0.012274209 0.13218379 1.077
-0.0084817503 0.13382843 1.075
-0.10083859 0.14136425 1.075
-0.095149368 0.14168827 1.0746
-0.085600883 0.1419809 1.0754
-0.094337448 0.16802567 1.0707501
-0.092770562 0.17481919 1.0732666
-0.088940814 0.17504913 1.077
-0.1547755 0.18816948 1.0700001
-0.091528676 0.18462892 1.0726668
-0.089696147 0.18411314 1.077
-0.17473954 0.19885868 1.0716667
-0.16512534 0.19471778 1.073
-0.15800032 0.19196063 1.0760001
-0.11084179 0.19820249 1.0715001
-0.10383955 0.1957785 1.0724999
-0.096012026 0.19435726 1.0742631
-0.19886306 0.20918143 1.0700001
-0.18270259 0.20665663 1.0715001
-0.17780085 0.2026196 1.075
-0.11151849 0.20141467 1.0726001
-0.10624323 0.20148866 1.0756667
-0.2237718 0.21786833 1.0718572
-0.21471567 0.21644463 1.0726666
-0.20502658 0.21471518 1.0735238
-0.19555756 0.21379274 1.0728461
-0.18631412 0.2131362 1.0733751
-0.23178571 0.22269495 1.0733334
-0.22789152 0.22286415 1.0756668
-0.14286785 -0.1262252 1.084625
-0.094080359 -0.069372386 1.0840001
-0.29064569 -0.050505642 1.087
-0.28509524 -0.053225439 1.0814285
-0.30188075 -0.041496724 1.0840001
-0.29459059 -0.043038286 1.0861
-0.28588101 -0.044887286 1.0817777
-0.30329952 -0.037232906 1.082
-0.2945759 -0.036662303 1.0826249
-0.28692377 -0.036631916 1.0814545
-0.31637496 -0.00095293665 1.087
-0.31464392 0.0020869926 1.0830001
-0.33138832 0.018054511 1.0841666
-0.32504952 0.016928608 1.0850999
-0.31539112 0.018351264 1.0843847
-0.30922663 0.018969312 1.082
-0.3323268 0.021776401 1.08
-0.325068 0.022092 1.08
-0.31501389 0.02231743 1.08
-0.30865681 0.021776401 1.08
-0.071470253 0.11911708 1.087
-0.072849467 0.12505628 1.08275
-0.022765428 0.12677257 1.0818334
-0.0192516 0.12687118 1.08
-0.076919205 0.1344185 1.0832727
-0.024512291 0.13488899 1.0863683
-0.015132486 0.13567215 1.0815651
-0.0085212002 0.13728601 1.08
-0.1014174 0.14808106 1.0862501
-0.095487021 0.14729966 1.0829999
-0.084231786 0.14675741 1.0824705
-0.078287736 0.14267154 1.0864
-0.022394009 0.14452873 1.087
-0.014545967 0.14313243 1.0853571
-0.10005835 0.1534228 1.087
-0.095837809 0.15242805 1.0867001
-0.086717226 0.15151693 1.087
-0.025014585 0.15485221 1.087
-0.088052399 0.1789452 1.08
-0.086936101 0.18557248 1.0838499
-0.16401953 0.19839185 1.0815001
-0.15518734 0.19484788 1.0849999
-0.092159584 0.19711412 1.0810001
-0.088770777 0.1943312 1.0836667
-0.1817856 0.208296 1.08
-0.17397998 0.20580804 1.0844736
-0.16576463 0.20300169 1.086
-0.10219391 0.20382833 1.0814
-0.095265664 0.20343597 1.0836428
-0.087987818 0.20234023 1.087
-0.19504078 0.2187108 1.08
-0.18569008 0.2154603 1.0837779
-0.2310192 0.2281788 1.08
-0.22435367 0.2253643 1.0830587
-0.21456471 0.22343868 1.0839334
-0.20492163 0.22304495 1.0838666
-0.19545346 0.22296853 1.0856363
-0.18725206 0.22155778 1.087
-0.22694919 0.2318999 1.085
-0.15002397 -0.1290015 1.09
-0.14715727 -0.12804593 1.09
-0.29335895 -0.046822768 1.09
-0.32217062 -0.010578737 1.097
-0.31937143 -0.010549807 1.0940001
-0.32217062 -0.0057702204 1.097
-0.31730115 -0.0055006454 1.0910001
-0.32286116 0.0076804771 1.0950001
-0.31719378 0.0060641952 1.092
-0.33364406 0.012446413 1.0922859
-0.32420078 0.011889416 1.0913572
-0.31668103 0.013711652 1.0913334
-0.070012353 0.11796602 1.0940001
-0.067070261 0.11689649 1.0930001
-0.070674412 0.12736879 1.0924
-0.068679385 0.12426736 1.0931667
-0.072738253 0.13533004 1.0927334
-0.075995602 0.14457978 1.0948182
-0.023464471 0.14407822 1.09
-0.014333501 0.1475668 1.09
-0.093509212 0.15655768 1.0929
-0.085345015 0.15554567 1.0938667
-0.079058968 0.15300114 1.0953335
-0.022814151 0.1550407 1.09
-0.014723427 0.15422358 1.0944347
-0.0086434949 0.15366346 1.0955
-0.023634613 0.16283669 1.0943637
-0.016714701 0.16119814 1.0958
-0.15271232 0.19698575 1.0925556
-0.14645512 0.19584315 1.0963078
-0.084437467 0.19547346 1.0930001
-0.079107471 0.19440843 1.0960001
-0.16342151 0.20630836 1.0936364
-0.15676451 0.20219892 1.0948334
-0.092212185 0.20688017 1.09
-0.086735778 0.20375875 1.0941429
-0.18262458 0.21585236 1.0932223
-0.17581835 0.21381392 1.0943334
-0.16814291 0.21042104 1.0960001
-0.22169146 0.22838043 1.09
-0.21500249 0.22838041 1.09
-0.20429215 0.22834685 1.0911429
-0.19456381 0.22773036 1.0933001
-0.18604727 0.22482765 1.0967501
-0.22435331 0.23472196 1.0946001
-0.21541166 0.23233849 1.0947273
-0.20581041 0.2317225 1.0945001
-0.1958669 0.2317705 1.097
-0.22792369 0.24138753 1.097
-0.33854103 -0.015519192 1.1065
-0.32612261 -0.012599015 1.1055
-0.32700661 -0.0080723464 1.1046667
-0.056920916 0.1089851 1.108
-0.064196549 0.11678339 1.104
-0.065218389 0.12347622 1.1037999
-0.070460327 0.13899024 1.1010001
-0.068539724 0.13649613 1.1074001
-0.072793819 0.1461305 1.1038889
-0.067947581 0.14172128 1.10725
-0.082042851 0.15925965 1.1010001
-0.076408945 0.15475507 1.1032999
-0.010655884 0.15886953 1.105
-0.0087184496 0.15886953 1.105
-0.092377871 0.16311873 1.1053334
-0.084744096 0.16411363 1.1054999
-0.077654473 0.16210508 1.10725
-0.024185654 0.16831334 1.1034
-0.01532859 0.16572602 1.1044167
-0.024053782 0.17333589 1.1073333
-0.01748424 0.17289971 1.108
-0.1434302 0.19864021 1.1010001
-0.13995545 0.19786805 1.1010001
-0.080755897 0.19915499 1.1010001
-0.077216804 0.19786805 1.1010001
-0.15401503 0.20632805 1.1049373
-0.14447743 0.20509443 1.1054089
-0.13852648 0.20052435 1.105
-0.082917206 0.20591904 1.1035
-0.077695839 0.20317462 1.1058571
-0.17413515 0.21809426 1.102
-0.16457562 0.21298736 1.1043333
-0.15638681 0.21078223 1.108
-0.14375931 0.21078223 1.108
-0.084947534 0.21253498 1.1053333
-0.18255654 0.22544484 1.1018
-0.17628859 0.22438502 1.1066427
-0.2219983 0.23840687 1.1010001
-0.21519186 0.23806089 1.1034545
-0.20453733 0.23748216 1.1050665
-0.19415587 0.23597921 1.1036665
-0.18570431 0.23459184 1.1046665
-0.22456753 0.24372107 1.1059374
-0.21563897 0.24186532 1.108
-0.19426933 0.24186532 1.108
-0.1874699 0.24186532 1.108
-0.33368659 -0.014852178 1.1120002
-0.062148508 0.11551413 1.1135
-0.057857528 0.11545403 1.1151818
-0.063048795 0.1259919 1.1141112
-0.059712045 0.12432273 1.1166
-0.064723231 0.13433914 1.1142632
-0.059840389 0.13243365 1.1190001
-0.071164295 0.14915256 1.1120001
-0.066463828 0.14441945 1.115
-0.073332392 0.15546963 1.1153334
-0.068669304 0.15107246 1.1190001
-0.095041275 0.16778252 1.1153001
-0.084162332 0.16864963 1.1120001
-0.075680763 0.16632189 1.1173337
-0.011521679 0.16736075 1.1138
-0.0083979415 0.16618776 1.1138
-0.094204299 0.17298858 1.1182728
-0.085751154 0.17386809 1.1167648
-0.077988707 0.17216375 1.1190001
-0.030220453 0.1774233 1.1120001
-0.024577029 0.17684399 1.1133639
-0.013738059 0.17568524 1.1156316
-0.0088162851 0.17535034 1.1174001
-0.030220453 0.18132272 1.1120001
-0.024472026 0.18465178 1.1166666
-0.015756961 0.18444985 1.1158334
-0.021254783 0.19194704 1.1190001
-0.017069226 0.19207785 1.1190001
-0.13611634 0.20641898 1.1159288
-0.07662724 0.20792255 1.1135001
-0.17059933 0.21934199 1.1120001
-0.16398281 0.21808492 1.1128182
-0.15498219 0.21632138 1.1137729
-0.14560679 0.21643794 1.1132857
-0.13817219 0.21437855 1.1144285
-0.083166413 0.21631008 1.1137273
-0.077673316 0.21317595 1.118
-0.17287399 0.22616597 1.1120002
-0.16509657 0.22528134 1.1132499
-0.15638676 0.22510174 1.1178236
-0.14518651 0.22268473 1.1190001
-0.084168948 0.22189994 1.1190001
-0.18132252 0.23551495 1.1126667
-0.17512958 0.23489839 1.114318
-0.16512491 0.23453243 1.1158094
-0.15833178 0.23288703 1.1190001
-0.22275399 0.24810016 1.1120001
-0.21510692 0.24679902 1.1132354
-0.20539954 0.2458972 1.11305
-0.19528958 0.24623372 1.1129473
-0.18418565 0.24552038 1.114
-0.17643806 0.24342568 1.1190002
-0.16578729 0.24034254 1.1190001
-0.22332524 0.25265479 1.114875
-0.21536635 0.25256917 1.1166667
-0.20466046 0.25264484 1.1170001
-0.19465803 0.25287077 1.1168183
-0.18681766 0.25246802 1.1176667
-0.056116309 0.11518611 1.123
-0.058085304 0.12207758 1.123
-0.060710628 0.13421972 1.123
-0.065961279 0.14865899 1.123
-0.071274169 0.15733069 1.1240001
-0.068065055 0.15487565 1.12525
-0.07206025 0.16287589 1.126
-0.093527175 0.17753756 1.123
-0.082442321 0.17769624 1.1240001
-0.076416619 0.17633675 1.12475
-0.091558188 0.18016289 1.123
-0.086748794 0.18040353 1.1245
-0.023627918 0.18606988 1.123
-0.012010859 0.18606988 1.123
-0.0078759734 0.18508537 1.123
-0.030600926 0.19643821 1.126
-0.02501582 0.19510779 1.1234499
-0.015778247 0.19494759 1.125
-0.13290706 0.20851639 1.123
-0.12832646 0.20828372 1.126
-0.075021625 0.20729659 1.126
-0.030519396 0.20379081 1.123
-0.024949308 0.2024246 1.1255716
-0.017768279 0.20137385 1.126
-0.13291822 0.21526478 1.1243848
-0.12755869 0.21574202 1.126
-0.074835844 0.21556567 1.1243848
-0.15321705 0.22750552 1.1234287
-0.14453731 0.22644143 1.1243638
-0.13607691 0.2233001 1.1258126
-0.12865551 0.22078733 1.126
-0.083465822 0.22640808 1.1245
-0.076995879 0.22111636 1.126
-0.16047296 0.23923269 1.123
-0.15524776 0.2356371 1.1250999
-0.14651778 0.23084661 1.126
-0.17315044 0.24711074 1.1236924
-0.16533451 0.24518731 1.1245002
-0.15695314 0.24184602 1.126
-0.2208205 0.25828135 1.1245
-0.21490562 0.25848088 1.1245
-0.20504752 0.258284 1.1245
-0.19464174 0.25807649 1.1236
-0.18344201 0.25627482 1.1243333
-0.17708151 0.25383639 1.1256667
-0.22012925 0.26158857 1.126
-0.20137385 0.26158857 1.126
-0.19401173 0.26271823 1.1254547
-0.18625736 0.26273537 1.125625
-0.054744322 0.12109748 1.1353334
-0.06064254 0.13818546 1.1340001
-0.058861151 0.1346823 1.138
-0.063046545 0.14475812 1.1335555
-0.070334964 0.15949197 1.13
-0.06494581 0.15541489 1.1339999
-0.070901044 0.16628489 1.13
-0.065455087 0.1640473 1.1348
-0.071425185 0.17559177 1.1316
-0.06766288 0.17364636 1.1374286
-0.090307184 0.18458566 1.132
-0.084083363 0.18528698 1.133059
-0.074698374 0.18458529 1.1329474
-0.06883762 0.18256934 1.138
-0.081807025 0.19055051 1.138
-0.076818794 0.19055051 1.138
-0.012712782 0.19666934 1.1314546
-0.0079561882 0.19493693 1.1345
-0.072039708 0.20787694 1.1345714
-0.068091869 0.20892662 1.1366667
-0.024785472 0.20818098 1.1308
-0.015348873 0.20534593 1.1340002
-0.0079811737 0.20052698 1.138
-0.12438052 0.21486226 1.1318824
-0.11465081 0.21733479 1.1372001
-0.10874349 0.21748698 1.138
-0.070936613 0.21507415 1.1305715
-0.066881649 0.21459548 1.1362859
-0.024649793 0.21516222 1.1329093
-0.01675565 0.21367699 1.1365457
-0.1333559 0.22779964 1.131
-0.12528844 0.22388038 1.1342858
-0.083920792 0.22770415 1.13
-0.074142858 0.22581038 1.1322
-0.068278305 0.22327736 1.1370001
-0.024143049 0.2224752 1.138
-0.018955287 0.22047991 1.138
-0.15120396 0.23746797 1.131
-0.14481452 0.23607054 1.1328236
-0.13572496 0.23320444 1.1345334
-0.12769878 0.23045638 1.138
-0.082947209 0.23563242 1.1335294
-0.074815467 0.23417738 1.1361178
-0.16161437 0.24837369 1.131
-0.15412754 0.24537627 1.1326667
-0.14609455 0.24312478 1.1371112
-0.083933823 0.24219261 1.1353334
-0.17347176 0.25638023 1.1307273
-0.16575319 0.25447759 1.1350527
-0.15446895 0.25223836 1.1380001
-0.22190186 0.26350847 1.13
-0.21496142 0.26523104 1.1337144
-0.20577176 0.26536995 1.133
-0.19506812 0.26760098 1.1311429
-0.18425369 0.26688248 1.131
-0.17602518 0.26389843 1.1338001
-0.16860229 0.26038578 1.138
-0.20052698 0.27036226 1.138
-0.19387308 0.27211821 1.1370001
-0.18575221 0.27271247 1.1357778
-0.17903228 0.27137333 1.1366667
-0.05137179 0.10979461 1.149
-0.052469876 0.11715911 1.1478573
-0.053704001 0.12711889 1.1459233
-0.048349917 0.12691854 1.149
-0.054949757 0.13436553 1.1466668
-0.049357209 0.13296229 1.149
-0.057112638 0.14554845 1.1463336
-0.061016876 0.15204206 1.141
-0.057536643 0.15485121 1.1453079
-0.061016876 0.16804647 1.141
-0.056535985 0.16545895 1.1458572
-0.062934063 0.17587487 1.1428183
-0.057145372 0.17395902 1.1470002
-0.06526915 0.18477283 1.1455001
-0.059430111 0.18030491 1.149
-0.08360222 0.19431841 1.1455001
-0.074789837 0.1961028 1.1436002
-0.068421006 0.19477282 1.1458889
-0.074575529 0.20377408 1.1459233
-0.065520674 0.20566212 1.1457061
-0.0060177911 0.2065793 1.1450001
-0.10402878 0.21906058 1.141
-0.061350301 0.21572633 1.1409999
-0.058293507 0.21659714 1.1465001
-0.012343176 0.21685344 1.1416665
-0.0086500701 0.21425541 1.1474001
-0.12203376 0.22806308 1.141
-0.11494567 0.22584173 1.1436089
-0.10546038 0.22499281 1.1457274
-0.098378658 0.22395414 1.149
-0.063282415 0.22607288 1.1434002
-0.057531696 0.2242623 1.1480001
-0.031008577 0.22906336 1.141
-0.024699606 0.22811688 1.1435456
-0.015339152 0.22477634 1.1463335
-0.13263668 0.2382659 1.141
-0.12509751 0.23590243 1.1435266
-0.11551537 0.23505154 1.1458002
-0.10581215 0.23458491 1.1475457
-0.098042898 0.23671316 1.149
-0.088102371 0.23884286 1.1463333
-0.071019642 0.23906612 1.141
-0.064613603 0.23586383 1.1435456
-0.058758587 0.23301975 1.149
-0.032042794 0.23578939 1.1472858
-0.025725473 0.23486102 1.1468824
-0.018466981 0.23134093 1.149
-0.1426889 0.24655548 1.1414
-0.13538331 0.24535641 1.143182
-0.1268997 0.2437461 1.1473335
-0.11583835 0.2407423 1.149
-0.10576545 0.24074231 1.149
-0.095697157 0.24327828 1.1464739
-0.086179845 0.24348629 1.1430001
-0.07523758 0.24545148 1.1443335
-0.0658314 0.24407044 1.1471541
-0.032233283 0.24074231 1.149
-0.02719683 0.24074231 1.149
-0.16104454 0.25807136 1.141
-0.15509723 0.2581622 1.1414
-0.14482176 0.2555654 1.1420437
-0.13682255 0.25489879 1.1471179
-0.22106114 0.26907441 1.141
-0.17204759 0.26807415 1.141
-0.16439518 0.265273 1.1445792
-0.15456995 0.26455069 1.1474001
-0.14441779 0.26445833 1.1470002
-0.13799873 0.2608881 1.149
-0.22082883 0.27403986 1.145
-0.21577917 0.27443236 1.1455334
-0.20485669 0.27441198 1.1459233
-0.19588405 0.27638251 1.1445557
-0.18505117 0.27707663 1.141
-0.17458452 0.27491203 1.1457061
-0.16792285 0.27099302 1.1470001
-0.19239239 0.2810339 1.149
-0.18367745 0.28088048 1.1470001
-0.17728303 0.2810339 1.149
-0.05172947 0.10548754 1.1570001
-0.048179407 0.10320536 1.1570001
-0.05172947 0.11461627 1.1570001
-0.049614951 0.11492004 1.155
-0.049529035 0.1202848 1.153
-0.052561425 0.13746834 1.153
-0.053093038 0.14489284 1.1557999
-0.053111538 0.15512353 1.1539999
-0.052903548 0.16428579 1.155
-0.053448513 0.17542948 1.1552222
-0.062777512 0.18631095 1.155
-0.057993036 0.18385893 1.1554999
-0.06637565 0.19575763 1.153
-0.081874527 0.20114854 1.153
-0.079852939 0.20317014 1.153
-0.06453301 0.20290819 1.1538
-0.056604616 0.21580508 1.153
-0.0046531716 0.21572001 1.1537999
-0.10006887 0.22945084 1.153
-0.053239442 0.22551689 1.1545999
-0.049700864 0.22517534 1.1570001
-0.011805485 0.22769225 1.1543332
-0.0046009491 0.22332171 1.1566923
-0.10087751 0.23511128 1.153
-0.094530672 0.23649704 1.1553332
-0.089960903 0.23753722 1.153
-0.054978024 0.23467942 1.1552856
-0.022237526 0.23854801 1.153
-0.01563457 0.23385483 1.1547778
-0.12402018 0.24680689 1.1543334
-0.11502831 0.24320984 1.1543334
-0.10392646 0.24384546 1.1541427
-0.072777361 0.24966678 1.153
-0.065099217 0.24860542 1.1543334
-0.05777391 0.24326447 1.1562001
-0.0338706 0.24542469 1.1552223
-0.025986446 0.24334836 1.155
-0.13205527 0.25642744 1.1533999
-0.12780221 0.25560445 1.1570001
-0.10041603 0.25053293 1.1570001
-0.097373113 0.25053293 1.1570001
-0.073537424 0.25342941 1.1554
-0.067451172 0.25154722 1.1570001
-0.035500616 0.25154722 1.1570001
-0.16071667 0.26988271 1.153
-0.15515728 0.26988271 1.153
-0.14373529 0.26947838 1.153
-0.13433023 0.26532501 1.1555998
-0.12759936 0.26229888 1.1570001
-0.21263374 0.27845126 1.155
-0.206384 0.27922097 1.154
-0.17217235 0.27864298 1.153
-0.16514151 0.27523679 1.1556667
-0.15518841 0.27345616 1.1569999
-0.14499523 0.27376753 1.1566
-0.1374381 0.27132612 1.1570001
-0.20499361 0.2823264 1.1556667
-0.19568437 0.28458285 1.1552222
-0.18532582 0.28623044 1.1551818
-0.17519744 0.28420377 1.1551818
-0.16938865 0.28197634 1.1570001
-0.04384122 0.097879834 1.1630001
-0.045864284 0.10583311 1.1626667
-0.051065832 0.11336615 1.1650001
-0.045240581 0.11554573 1.1641113
-0.050044518 0.12357932 1.1650001
-0.046272218 0.12283006 1.1643333
-0.050044518 0.13787775 1.1650001
-0.049872689 0.13943997 1.161
-0.050417274 0.14513093 1.1642001
-0.048166696 0.14859939 1.169
-0.050044518 0.15421882 1.1650001
-0.049872689 0.15368931 1.161
-0.050355148 0.1653557 1.1643333
-0.048166696 0.16499655 1.169
-0.050665781 0.17580235 1.1636667
-0.048744641 0.17457283 1.1645
-0.052709274 0.18536258 1.1628824
-0.047533993 0.18502188 1.1678572
-0.06315995 0.19502816 1.1647142
-0.054441437 0.19349435 1.16625
-0.048166696 0.19369161 1.169
-0.084623754 0.2018753 1.1630001
-0.064342953 0.20119938 1.1650001
-0.056177091 0.21753578 1.165
-0.092939816 0.22979625 1.1650001
-0.051062327 0.22162572 1.165
-0.048267137 0.22676449 1.1644286
-0.0075528338 0.2288228 1.1642001
-0.09460482 0.23332328 1.1635001
-0.051908311 0.23714973 1.161
-0.047061902 0.23476747 1.1643333
-0.013544374 0.23732279 1.1632859
-0.0074207638 0.23438604 1.1675
-0.1221372 0.24936345 1.161
-0.11508265 0.24748276 1.1617274
-0.10687004 0.24651358 1.161
-0.060050789 0.24936345 1.161
-0.052916009 0.24543773 1.1623336
-0.044982471 0.24434647 1.1662003
-0.037973985 0.24540013 1.1636667
-0.024646431 0.24729469 1.1618001
-0.016639384 0.24436434 1.1655715
-0.1235058 0.25525019 1.1628463
-0.1158546 0.25490761 1.1662633
-0.10498015 0.25352743 1.1676667
-0.071071073 0.25741884 1.1636667
-0.063770123 0.25539139 1.1633528
-0.054102778 0.25360528 1.1674001
-0.044529341 0.25369486 1.1686922
-0.036004789 0.25467354 1.1634001
-0.025428137 0.25465733 1.1648098
-0.018959232 0.25261897 1.169
-0.12470755 0.26558027 1.1635264
-0.11788666 0.26436418 1.1677692
-0.06558869 0.26132995 1.169
-0.042017758 0.26337957 1.169
-0.036062341 0.26318738 1.1670001
-0.027401313 0.2630116 1.1685001
-0.16386741 0.27908349 1.161
-0.15617728 0.27831447 1.1610001
-0.14554682 0.27786213 1.161
-0.13473259 0.27544481 1.161
-0.12611713 0.27477747 1.1656318
-0.11922112 0.27226141 1.169
-0.21308698 0.28344035 1.163
-0.20514229 0.28720284 1.1642001
-0.19643733 0.28804022 1.161
-0.17215629 0.28777942 1.1620001
-0.16495718 0.28468877 1.1639334
-0.15395108 0.28359526 1.1665385
-0.1445069 0.2845057 1.1671177
-0.13581081 0.28364879 1.1670001
-0.12868589 0.28086209 1.1650001
-0.20393984 0.29139146 1.169
-0.19438791 0.29359666 1.1658
-0.18499509 0.2939544 1.1642499
-0.17577839 0.29221162 1.165
-0.16807103 0.290025 1.169
-0.043337137 0.12485223 1.177
-0.047423281 0.14742728 1.1760001
-0.047382079 0.15554258 1.1750001
-0.045820482 0.16633786 1.1764287
-0.044590972 0.17480673 1.1745386
-0.043923941 0.18497564 1.1751819
-0.062728129 0.19846769 1.1730001
-0.054501489 0.19846769 1.1730001
-0.045837827 0.1921114 1.1750001
-0.061846726 0.20512755 1.1758001
-0.056527697 0.20408553 1.1762729
-0.060671471 0.21080765 1.1730001
-0.056071527 0.21500741 1.176077
-0.051502414 0.22146791 1.1750001
-0.041736439 0.23589219 1.173889
-0.037081249 0.23794925 1.1750001
-0.0082266396 0.23960088 1.1730001
-0.04010487 0.24165756 1.1730001
-0.037405904 0.24124436 1.1743335
-0.01255334 0.24593849 1.1738001
-0.00927075 0.24310142 1.1750001
-0.11105964 0.25708249 1.1730001
-0.10718945 0.25663862 1.1756668
-0.053130385 0.25811082 1.1730001
-0.046274848 0.25759667 1.1730001
-0.015616503 0.25521648 1.1746668
-0.11313778 0.2652497 1.1750002
-0.062374398 0.26444256 1.1760001
-0.054167736 0.26356873 1.1762942
-0.046118148 0.26510158 1.1755002
-0.035050012 0.26908058 1.1760001
-0.027113253 0.26527143 1.1743335
-0.019604897 0.26105466 1.177
-0.12144551 0.27788666 1.174
-0.11515532 0.27568948 1.1763334
-0.052210934 0.27591315 1.177
-0.044905014 0.27505127 1.1762729
-0.0356756 0.27160135 1.1762002
-0.21450964 0.28854936 1.1730001
-0.16144781 0.28896073 1.1730001
-0.15527783 0.28896073 1.1730001
-0.14910784 0.28896073 1.1730001
-0.1323323 0.28833514 1.1738001
-0.12501706 0.28421256 1.1753335
-0.11556571 0.28272325 1.177
-0.053655505 0.2816914 1.177
-0.047464486 0.2816914 1.177
-0.21310861 0.29134819 1.1743335
-0.20574299 0.2953276 1.1746001
-0.19778214 0.29855847 1.1730001
-0.18304273 0.29924402 1.1730001
-0.17383058 0.29688406 1.1752859
-0.16542928 0.29336882 1.1750001
-0.15561973 0.29332304 1.177
-0.14579886 0.29314402 1.1753335
-0.13620244 0.29200977 1.177
-0.20334838 0.30186898 1.1761112
-0.19458549 0.30439219 1.1751179
-0.18527971 0.3021569 1.1763334
-0.044519763 0.12734723 1.1810001
-0.048661135 0.13873601 1.1810001
-0.046503879 0.14498226 1.1855001
-0.043171596 0.15552461 1.1866668
-0.037524842 0.15948057 1.189
-0.042162612 0.16426769 1.1819232
-0.035212152 0.16523522 1.1831051
-0.040970009 0.17497301 1.1810001
-0.035522923 0.17497301 1.1841111
-0.040723503 0.18463624 1.1810001
-0.035998691 0.1847655 1.1878573
-0.050731823 0.19982126 1.1810001
-0.043605398 0.19450194 1.1843334
-0.037524842 0.19075127 1.189
-0.053697988 0.20660363 1.1842728
-0.048240919 0.20164414 1.1876668
-0.061085258 0.21431607 1.1810001
-0.052096389 0.2141369 1.1820909
-0.048064221 0.21623111 1.189
-0.050731823 0.22052813 1.1810001
-0.04628982 0.22554535 1.1856155
-0.033355415 0.2282761 1.189
-0.041701406 0.23195536 1.1850001
-0.035679135 0.2327259 1.1875455
-0.0041518933 0.23789665 1.1850001
-0.011388777 0.24951774 1.1810001
-0.0056111929 0.24778931 1.1866001
-0.01142735 0.25555709 1.1850001
-0.0076029254 0.25443527 1.1868463
-0.11078174 0.26711857 1.1810001
-0.10808555 0.26606351 1.1855
-0.055908538 0.26815394 1.1810001
-0.0083108004 0.26075134 1.1850001
-0.11078174 0.27436596 1.1810001
-0.10811263 0.27547902 1.1858002
-0.061085258 0.2702246 1.1810001
-0.055908538 0.2702246 1.1810001
-0.040378388 0.27747202 1.1810001
-0.034094002 0.27660236 1.1846668
-0.028080508 0.27352965 1.1863333
-0.1236889 0.2884967 1.1823334
-0.11399627 0.28670612 1.1813077
-0.10794835 0.28232789 1.184
-0.062677287 0.28914657 1.1850001
-0.054618713 0.2871477 1.1818572
-0.044592962 0.28585133 1.183
-0.036397155 0.2821914 1.1863333
-0.22164851 0.29344487 1.187
-0.21510041 0.2964389 1.1827779
-0.20810401 0.29921421 1.1810001
-0.1625489 0.29714355 1.1810001
-0.15426615 0.29766122 1.1810001
-0.14429565 0.29836279 1.1842
-0.13870181 0.29643402 1.1836667
-0.12445522 0.29337338 1.1872857
-0.1157725 0.29284027 1.1849999
-0.10840509 0.29290223 1.189
-0.062193945 0.29359713 1.189
-0.055134095 0.29335266 1.1866
-0.045824245 0.2921347 1.1880001
-0.21260658 0.30075628 1.1830001
-0.20810401 0.30128491 1.1810001
-0.19153851 0.30956766 1.1810001
-0.18494439 0.30693081 1.1846366
-0.17524259 0.30386212 1.1863334
-0.1653599 0.30261528 1.1874617
-0.15513815 0.30281368 1.1876668
-0.14507137 0.30298743 1.1876668
-0.13863343 0.30124107 1.189
-0.19283597 0.31374934 1.189
-0.18762419 0.31166464 1.189
-0.044501357 0.13770416 1.1945
-0.03777732 0.13799216 1.197
-0.042949945 0.14439563 1.1950001
-0.03637816 0.14726157 1.197
-0.04082286 0.15282141 1.194
-0.0357683 0.1537911 1.1961114
-0.032421764 0.16106294 1.193
-0.032421764 0.18442057 1.1930001
-0.042880397 0.19766818 1.1930001
-0.036631163 0.19361587 1.1938001
-0.046701886 0.20626321 1.1956667
-0.044211648 0.21478583 1.1951333
-0.037987195 0.21763936 1.197
-0.042309925 0.22390981 1.193
-0.035529409 0.2246861 1.1938423
-0.038696945 0.2311358 1.1930001
-0.0041876612 0.24652795 1.1946
-0.10423741 0.26549062 1.197
-0.098640777 0.26234251 1.197
-0.1052868 0.27738348 1.197
-0.10626094 0.28504431 1.1954
-0.040788669 0.28970414 1.1930001
-0.03430523 0.285501 1.1938889
-0.22538354 0.29388759 1.1930001
-0.13354321 0.29820433 1.1963334
-0.12404264 0.29779622 1.194
-0.11818255 0.29807106 1.1930001
-0.10895038 0.29123569 1.1950001
-0.064216003 0.29639766 1.1930001
-0.055430759 0.29807106 1.1930001
-0.044876006 0.29661149 1.1955454
-0.038826689 0.29557255 1.197
-0.17256744 0.30852968 1.1930001
-0.16473728 0.3082625 1.1950002
-0.15510145 0.30831823 1.1938
-0.14417973 0.30763322 1.193
-0.13570487 0.3035838 1.1947143
-0.12311538 0.3018074 1.1962001
-0.11818255 0.30016276 1.1930001
-0.063169383 0.30189624 1.1943334
-0.056148376 0.30290797 1.1955715
-0.046801902 0.30200869 1.197
-0.18456355 0.31284484 1.1945
-0.17500634 0.31124631 1.1954
-0.16684982 0.31166288 1.197
-0.1537327 0.31166288 1.197
-0.144733 0.31218889 1.1963334
-0.13956621 0.31166288 1.197
-0.043625388 0.13635567 1.202
-0.038988873 0.13804169 1.202
-0.036530115 0.14436419 1.202
-0.03477386 0.15490174 1.202
-0.041096378 0.19915938 1.202
-0.036881369 0.19775438 1.202
-0.042343978 0.20539188 1.2042222
-0.039118621 0.20510843 1.2060001
-0.041691635 0.21215509 1.204
-0.037802219 0.21433482 1.2044002
-0.033720106 0.22023444 1.202
-0.00105726 0.24528432 1.2060001
0.0021145199 0.24845611 1.2060001
0.0021145199 0.25057063 1.2060001
-0.10192583 0.26822037 1.2036002
-0.098325178 0.26854402 1.2060001
-0.1045368 0.27401841 1.2045001
-0.1033397 0.28585705 1.2042223
-0.10517069 0.29379079 1.2048571
-0.041096378 0.2982122 1.202
-0.038988873 0.2982122 1.202
-0.065008335 0.30873367 1.2042857
-0.05331992 0.30790672 1.202
-0.045180835 0.30573967 1.2029229
-0.18019181 0.31507224 1.202
-0.17550516 0.31612074 1.2060001
-0.16555078 0.31359595 1.2028
-0.15524305 0.31506875 1.2046667
-0.14857922 0.31507224 1.202
-0.061799735 0.31216171 1.205
-0.054884594 0.31243086 1.204
-0.047473837 0.31120208 1.2033334
-0.031823002 0.15805423 1.21
-0.031823002 0.16017577 1.21
-0.035056967 0.20504521 1.2118667
-0.035050187 0.21455678 1.2116001
0.0054676151 0.24540654 1.2174118
0.011755223 0.24258506 1.2190001
-0.094408236 0.25988784 1.21
