# .PCD v0.7 - Point Cloud Data file format
VERSION 0.7
FIELDS x y z
SIZE 4 4 4
TYPE F F F
COUNT 1 1 1
WIDTH 1468
HEIGHT 1
VIEWPOINT 0 0 0 1 0 0 0
POINTS 1468
DATA ascii
-0.19271693 -0.030537453 0.98400009
-0.1860462 -0.032731663 0.98250008
-0.21134067 -0.025118254 0.98800004
-0.20809406 -0.02626464 0.98766667
-0.19697471 -0.028467119 0.98400003
-0.22286984 -0.013965926 0.98699999
-0.21901588 -0.01462017 0.98100001
-0.22422051 -0.0086578131 0.98750001
-0.2187292 -0.0088867703 0.98100013
-0.15142225 0.049320389 0.98700005
-0.10988929 0.049320389 0.98700005
-0.27224535 0.059824608 0.98900002
-0.26560441 0.059014402 0.98863643
-0.25923997 0.059824608 0.98900002
-0.16165611 0.058389682 0.98820001
-0.15454437 0.055658262 0.98520684
-0.14712134 0.056152083 0.98139995
-0.10529808 0.056387924 0.98600006
-0.098840661 0.058957588 0.98900002
-0.28062657 0.066760793 0.98900002
-0.27433756 0.065871112 0.98737943
-0.26474953 0.065418139 0.98545432
-0.25488192 0.065718874 0.98610818
-0.24521518 0.066018075 0.98746675
-0.23449054 0.066235714 0.98795658
-0.22563535 0.066970818 0.9870401
-0.21502177 0.067801222 0.98900002
-0.20516193 0.067602523 0.9868573
-0.19542404 0.068701595 0.98783332
-0.18431525 0.067473769 0.98790926
-0.17487682 0.066696063 0.98673701
-0.1655345 0.063622534 0.98384613
-0.15572262 0.061514053 0.98137504
-0.10415623 0.065424114 0.98478276
-0.095293902 0.06497287 0.98820013
-0.0858353 0.066304468 0.98900014
-0.078899123 0.068494841 0.98900002
-0.28395206 0.075297527 0.98840016
-0.27479288 0.07531371 0.98365706
-0.26502642 0.075322561 0.98100024
-0.25560161 0.073239312 0.98121434
-0.24450022 0.07234253 0.98320007
-0.23516975 0.07394167 0.9831
-0.22508505 0.074918479 0.98233366
-0.21533556 0.073963195 0.98494446
-0.20465289 0.074532129 0.98292845
-0.19529065 0.072670534 0.98299992
-0.18429528 0.07324677 0.98388886
-0.17651832 0.073025346 0.98276472
-0.10514422 0.075317487 0.98286206
-0.095179707 0.07441321 0.98699981
-0.084830865 0.07444296 0.98741668
-0.076639578 0.074905545 0.98861921
-0.28387815 0.084431879 0.98640913
-0.27680033 0.085018143 0.98100001
-0.26918313 0.081700951 0.98100007
-0.11372592 0.087021969 0.98280001
-0.10517044 0.085364178 0.98696542
-0.095324598 0.084926911 0.98849994
-0.084732533 0.084733397 0.9862498
-0.075515322 0.08455909 0.98759264
-0.068494841 0.081500195 0.98900002
-0.28385258 0.095276751 0.9867143
-0.27623418 0.095061094 0.98130018
-0.12126141 0.093741089 0.98100013
-0.11508702 0.094595611 0.98603565
-0.1087001 0.091378033 0.98800004
-0.093109109 0.095016211 0.98890018
-0.084915049 0.095315427 0.98838902
-0.076757066 0.09409754 0.98900008
-0.28284541 0.10438908 0.98816675
-0.27515945 0.10527802 0.98344451
-0.26918313 0.10750125 0.98100013
-0.12240809 0.10492122 0.98100001
-0.11817735 0.10542031 0.98668766
-0.091615468 0.10201975 0.98900002
-0.085835308 0.10352258 0.98900014
-0.078899123 0.10144173 0.98900002
-0.32166564 0.11704814 0.98900002
-0.31493181 0.11574537 0.98846447
-0.30522072 0.11593068 0.98574203
-0.29504085 0.1172565 0.98569566
-0.28207159 0.11492876 0.98900008
-0.27411526 0.11536431 0.98365235
-0.26918313 0.11524133 0.98100007
-0.12189786 0.11431926 0.98340005
-0.11886335 0.11466563 0.98557144
-0.32166564 0.12398434 0.98900002
-0.31539318 0.1247688 0.98563349
-0.30573356 0.12283809 0.98100001
-0.29479039 0.1239799 0.98170596
-0.28505945 0.12303634 0.98492855
-0.27494997 0.12469621 0.98315996
-0.26774979 0.12441477 0.98100001
-0.12126141 0.12126141 0.98100007
-0.11667074 0.12594742 0.98400003
-0.31513065 0.13430206 0.98714292
-0.3087436 0.13502157 0.98100007
-0.12126141 0.13674159 0.98100007
-0.11504606 0.13465591 0.98344451
-0.10988929 0.1384432 0.98700005
-0.31267995 0.14588334 0.98800009
-0.30721468 0.14419501 0.98100007
-0.11485649 0.1450883 0.9841612
-0.10891338 0.14522104 0.98600006
-0.31212842 0.15172908 0.98900002
-0.30487439 0.15474688 0.98417652
-0.29807949 0.15703782 0.98100007
-0.11583836 0.1532398 0.98669249
-0.30300561 0.16487405 0.98787516
-0.29562256 0.16607758 0.98426682
-0.28896335 0.16770196 0.98100007
-0.32356614 0.177017 0.9886924
-0.31490463 0.17638394 0.98703867
-0.30493581 0.17572743 0.98671037
-0.29317424 0.17394969 0.98857152
-0.28584707 0.17648639 0.98290914
-0.11086589 0.17842534 0.98800004
-0.1091336 0.17842534 0.98800004
-0.32251033 0.18470968 0.98733348
-0.31564873 0.18341294 0.98170596
-0.30348325 0.18153083 0.98137504
-0.29505354 0.18429706 0.98535728
-0.28529537 0.18528402 0.98339999
-0.27892989 0.1863355 0.98100001
-0.11205871 0.18497086 0.98137504
-0.10790852 0.1856647 0.98700017
-0.32148477 0.19173694 0.98666668
-0.31572062 0.19420306 0.98308331
-0.29842347 0.19006221 0.98100007
-0.28401828 0.19070722 0.98100001
-0.27864325 0.19092223 0.98100007
-0.11094129 0.19350225 0.98100007
-0.1054747 0.19503878 0.98726088
-0.31303006 0.20119588 0.98500007
-0.30699581 0.20610344 0.98366672
-0.11362363 0.20676561 0.98190004
-0.10821547 0.20518085 0.98753858
-0.3025403 0.21436866 0.986
-0.29786766 0.21694343 0.98200011
-0.12343667 0.21709414 0.98190004
-0.11550274 0.21473168 0.98633337
-0.10988929 0.21026061 0.98700005
-0.30061373 0.22437949 0.98820001
-0.29583561 0.22637269 0.98638892
-0.28810334 0.22833265 0.98100007
-0.14018163 0.22962266 0.98100007
-0.13324983 0.2266961 0.98428583
-0.12513806 0.22442414 0.98631817
-0.11878219 0.22109094 0.98900002
-0.29131985 0.23322928 0.98900002
-0.28551304 0.23435427 0.98445457
-0.27864325 0.23908278 0.98100007
-0.15394178 0.23925479 0.98100007
-0.14378816 0.23664984 0.98215389
-0.13682355 0.23422399 0.98692876
-0.28035799 0.24240184 0.98400003
-0.27440879 0.24625584 0.98431265
-0.26723757 0.24636723 0.98175007
-0.16168189 0.24854289 0.98100007
-0.15465365 0.2446911 0.98433334
-0.14524737 0.24343956 0.98680007
-0.13797365 0.24370876 0.98859996
-0.27354491 0.25105032 0.98680001
-0.26482508 0.25466764 0.98361123
-0.16360235 0.25577664 0.98305261
-0.15870899 0.25311139 0.98688889
-0.26217681 0.26217681 0.98700005
-0.25488237 0.26479745 0.98306257
-0.24540372 0.26727426 0.98220003
-0.20210235 0.26918313 0.98100013
-0.19522226 0.26832312 0.98100001
-0.18318212 0.26875314 0.98100007
-0.17424414 0.26661086 0.98328584
-0.16484916 0.26479909 0.9863103
-0.15866527 0.26097402 0.98900002
-0.25179356 0.2708295 0.98700005
-0.24454148 0.27283737 0.98799998
-0.23526488 0.27748251 0.9830001
-0.20332354 0.27610409 0.98360008
-0.1955952 0.2751804 0.98588455
-0.18554023 0.27433959 0.98657143
-0.17717928 0.27273753 0.98763639
-0.23288079 0.28538209 0.98618197
-0.22584036 0.28673995 0.9830001
-0.21461023 0.28725722 0.98314297
-0.20486441 0.28556693 0.9855001
-0.19796339 0.28200197 0.98824996
-0.22346584 0.29189143 0.98800004
-0.21494786 0.29208836 0.98866671
-0.20543171 0.29189628 0.98874998
-0.23097712 -0.020123007 0.99800003
-0.20958646 -0.02869856 0.99200004
-0.23313554 -0.013843808 0.99725008
-0.22746812 -0.014954911 0.99349999
-0.23241258 -0.0082183983 0.99739999
-0.228284 -0.007392053 0.99200004
-0.1119889 0.039371099 0.99800003
-0.28358513 0.049195137 0.99762505
-0.27459425 0.048821166 0.99609089
-0.26532862 0.048600987 0.9968462
-0.25684956 0.04937011 0.99800009
-0.16244225 0.049286783 0.99799997
-0.15650341 0.048928894 0.99414283
-0.1121726 0.043736503 0.99609095
-0.10515209 0.048179071 0.99711764
-0.098865204 0.049870059 0.99800003
-0.29334456 0.056194458 0.99714291
-0.28454587 0.054836892 0.9951036
-0.27455544 0.054839082 0.99296016
-0.26444376 0.054320052 0.99326938
-0.25464365 0.054784916 0.99417257
-0.24532837 0.055457424 0.99499983
-0.23529191 0.056124426 0.99472731
-0.2252603 0.056968596 0.99593747
-0.21538921 0.057759747 0.99690914
-0.20822936 0.05774428 0.99800003
-0.19423075 0.057015192 0.99800009
-0.18674538 0.057841495 0.99800003
-0.17153475 0.056844193 0.99757153
-0.16518456 0.054725297 0.99542874
-0.1593872 0.052256785 0.99350005
-0.10260437 0.053353496 0.99307138
-0.094944909 0.055282041 0.9952727
-0.085112683 0.056362212 0.99680007
-0.078742199 0.058619194 0.99800003
-0.3025502 0.066993997 0.99718189
-0.29456633 0.064497367 0.99562079
-0.28524634 0.064181134 0.9922145
-0.27785423 0.060440905 0.99200004
-0.25480843 0.060006075 0.99199998
-0.24437261 0.060875732 0.99199998
-0.23524122 0.061020672 0.99199992
-0.22370988 0.061968889 0.99249989
-0.21468322 0.062900953 0.99312514
-0.20464885 0.062978052 0.99550009
-0.19507977 0.063859276 0.99500018
-0.18531942 0.062729418 0.9944784
-0.17513125 0.061708793 0.99519998
-0.16797 0.060921099 0.99275005
-0.093922555 0.060006078 0.99200004
-0.084298782 0.061982036 0.99252927
-0.075188003 0.065067783 0.99499995
-0.067591153 0.066278778 0.99700004
-0.30333665 0.074767634 0.9968335
-0.29552785 0.074971125 0.99440026
-0.28837702 0.073224805 0.99199998
-0.071833365 0.074268393 0.99199986
-0.066808082 0.074275918 0.99549991
-0.30211428 0.085270397 0.99800009
-0.29496393 0.085155897 0.99430794
-0.28959456 0.085226022 0.99200004
-0.10174944 0.089574292 0.99200004
-0.071311571 0.080877759 0.99200004
-0.065223999 0.080877759 0.99200004
-0.30184507 0.09164717 0.99800009
-0.29479006 0.095065869 0.99484998
-0.28959456 0.09479221 0.99199998
-0.11218528 0.098270826 0.99200004
-0.10434691 0.095260382 0.99425024
-0.097655736 0.095481604 0.99237508
-0.07539399 0.098057576 0.99425006
-0.323677 0.10872333 0.99671423
-0.31468552 0.10721898 0.99537492
-0.30706143 0.10811807 0.99620008
-0.29396591 0.10477962 0.99600023
-0.28785539 0.10449629 0.99254537
-0.11339446 0.10467716 0.99499989
-0.10392811 0.10186014 0.99772733
-0.095592462 0.10539535 0.99425
-0.084388986 0.10666299 0.99239987
-0.076252744 0.10423481 0.994591
-0.33134294 0.11714831 0.99725002
-0.32573199 0.11438341 0.99412507
-0.31543568 0.11069445 0.99200004
-0.30385804 0.1113096 0.99387509
-0.29414192 0.11312852 0.9946841
-0.28721756 0.11475853 0.9921999
-0.11667285 0.11318688 0.99470007
-0.092473984 0.11399817 0.99730772
-0.085097052 0.11514342 0.99687469
-0.078467458 0.11571987 0.99707693
-0.33084458 0.12395825 0.99575007
-0.32627872 0.12515344 0.99341166
-0.1181133 0.12248787 0.99800003
-0.083866701 0.12386272 0.99800009
-0.079246573 0.12440747 0.99700004
-0.32423222 0.13456348 0.99523079
-0.31916279 0.13740522 0.99200004
-0.081366941 0.13036208 0.99800003
-0.079617113 0.13036208 0.99800003
-0.32165995 0.14449368 0.99650013
-0.31717497 0.14423822 0.99200004
-0.3210932 0.15136001 0.99800003
-0.31463704 0.15532342 0.99457133
-0.30872694 0.15914656 0.99200004
-0.11252812 0.15667035 0.99375004
-0.10936417 0.15310983 0.99800003
-0.33334199 0.16885827 0.99799997
-0.32530293 0.16789876 0.99750012
-0.3140319 0.16561854 0.99527282
-0.30803123 0.16592984 0.99199998
-0.11247148 0.16454442 0.99660009
-0.10808804 0.16752428 0.99700004
-0.33378184 0.17379867 0.99623537
-0.3257702 0.17281666 0.99278265
-0.31592283 0.17144994 0.99274993
-0.30205962 0.17451043 0.99200004
-0.29672569 0.17619178 0.99199998
-0.11089132 0.17550342 0.99600005
-0.10797415 0.17388044 0.99671429
-0.33109376 0.18869856 0.99650002
-0.32817554 0.18476181 0.99199998
-0.30003041 0.18001825 0.99200004
-0.29568213 0.18059802 0.99200004
-0.1059139 0.18522961 0.99300003
-0.33159214 0.19160601 0.99800003
-0.32526672 0.1949818 0.99470007
-0.31916279 0.19915061 0.99200004
-0.10348874 0.19045408 0.99200004
-0.32148552 0.20354578 0.99650002
-0.31624195 0.20589256 0.99375004
-0.10528647 0.20468862 0.99462509
-0.31232184 0.21355833 0.99700004
-0.30720758 0.21548194 0.9933334
-0.11183396 0.2180132 0.99275005
-0.10748404 0.21484928 0.99564284
-0.30530047 0.22243226 0.995
-0.12227768 0.22845691 0.99275005
-0.11513728 0.22473907 0.99500018
-0.29509774 0.23609215 0.99430758
-0.28785524 0.23915465 0.99200004
-0.13427824 0.23608147 0.99533337
-0.12624449 0.23241301 0.99589998
-0.1170634 0.2311521 0.99800003
-0.29484579 0.24060117 0.99800003
-0.28219372 0.24822466 0.99350005
-0.15218933 0.24872085 0.99200004
-0.14413935 0.24822597 0.99349999
-0.13694848 0.24336705 0.99500006
-0.28347191 0.25197506 0.99800003
-0.27426341 0.25596967 0.99379998
-0.15521359 0.25447661 0.99537498
-0.14741968 0.25143179 0.99700004
-0.27081418 0.26295573 0.99650002
-0.26536649 0.26552418 0.99363637
-0.16088587 0.26785323 0.99200004
-0.15857507 0.2637856 0.99387503
-0.26334891 0.27034822 0.99800003
-0.25483629 0.27440387 0.99620008
-0.24667935 0.27578968 0.99328578
-0.23915467 0.27915871 0.99200004
-0.18349685 0.27915871 0.99199998
-0.17378591 0.27630764 0.99499995
-0.16544272 0.27394316 0.99675006
-0.24210817 0.28114906 0.99700004
-0.23813336 0.28698471 0.99500006
-0.19441772 0.28571451 0.99412519
-0.18535973 0.28399286 0.99610519
-0.17710257 0.2822721 0.99762511
-0.23289789 0.29434949 0.99500012
-0.22392203 0.29558909 0.99387503
-0.21450131 0.29697487 0.99430764
-0.20481308 0.29610211 0.99359995
-0.19735922 0.29391259 0.99588239
-0.22222799 0.30009526 0.99800003
-0.21447778 0.30154982 0.99766666
-0.20552674 0.30129421 0.99762505
-0.19860533 0.30009526 0.99800003
-0.24285872 -0.012596969 1.0025001
-0.23733558 -0.015396897 1.0010002
-0.24413769 -0.0066095851 1.0053499
-0.23711595 -0.0062848907 1.0026155
-0.27407029 0.038602579 1.0070001
-0.26588428 0.038763091 1.0070001
-0.25866139 0.039726149 1.0070001
-0.23394288 0.039726149 1.0070001
-0.22458518 0.036901176 1.0070001
-0.21805242 0.037960541 1.0070001
-0.19333392 0.039726149 1.0070001
-0.18980272 0.039726149 1.0070001
-0.1753158 0.035417333 1.0099999
-0.16243581 0.039726149 1.0070001
-0.15861033 0.03854908 1.0070001
-0.11370386 0.034600008 1.0042306
-0.10663509 0.037516076 1.0052856
-0.30280155 0.047847938 1.0070001
-0.29451841 0.046993852 1.0056154
-0.2850014 0.045336176 1.0035999
-0.27554357 0.044015717 1.0033478
-0.26484573 0.043712068 1.0027726
-0.25518614 0.044918232 1.0047499
-0.24518457 0.046406522 1.0064
-0.23462123 0.045694917 1.0062799
-0.22503504 0.045006242 1.00664
-0.21510577 0.044957392 1.0055999
-0.20478046 0.045808751 1.0065
-0.19509955 0.045330025 1.0070001
-0.1853887 0.045498319 1.0070001
-0.17517285 0.046778932 1.0068001
-0.16508323 0.045133218 1.0048399
-0.1584312 0.044004723 1.0040001
-0.10523566 0.043250803 1.0025789
-0.095173039 0.046307631 1.0042999
-0.088133633 0.047728073 1.002
-0.31162956 0.059147824 1.0070001
-0.30472153 0.054706864 1.0043999
-0.29604739 0.052684717 1.0016431
-0.2509774 0.050019968 1.001
-0.24439573 0.050811954 1.0028002
-0.23460312 0.051589336 1.0022856
-0.22490367 0.052264154 1.0037
-0.21483569 0.052797779 1.0030868
-0.20458803 0.054083548 1.0018708
-0.19524474 0.052751996 1.0021428
-0.18453695 0.053519808 1.0044285
-0.17604323 0.053959087 1.0036249
-0.16804956 0.05045874 1.001
-0.093249798 0.051103007 1.0016
-0.08694122 0.051593147 1.00175
-0.076415464 0.056687091 1.0019232
-0.31204775 0.065227948 1.0055
-0.30534393 0.063311741 1.0015001
-0.073538139 0.060901504 1.001
-0.064060666 0.06844838 1.001
-0.31297222 0.075097181 1.0056363
-0.30823711 0.075468734 1.001
-0.063300908 0.076115772 1.0029286
-0.059147824 0.075038284 1.0070001
-0.31192574 0.084210128 1.0053637
-0.30714017 0.085121706 1.0010002
-0.33886674 0.099459589 1.0040001
-0.31228763 0.095551215 1.0056154
-0.30514571 0.095811777 1.0009999
-0.34164488 0.1059364 1.0070001
-0.33471417 0.10535426 1.0041034
-0.32496154 0.10450468 1.0033182
-0.3150185 0.10285474 1.0028
-0.30460835 0.10452802 1.0013331
-0.29924229 0.10706028 1.001
-0.11097256 0.10863069 1.002
-0.10530519 0.10600723 1.001
-0.34164488 0.11329309 1.0070001
-0.33645979 0.11434275 1.0028948
-0.30187488 0.111448 1.001
-0.11362771 0.11567239 1.005579
-0.10430489 0.11415137 1.004409
-0.096695185 0.1161207 1.0015626
-0.33643365 0.12471722 1.003625
-0.11484645 0.12454843 1.0056363
-0.10299168 0.12239821 1.00625
-0.095050626 0.12493083 1.0025427
-0.086398132 0.12708423 1.0010002
-0.33232728 0.13393119 1.0043334
-0.32790869 0.13718927 1.001
-0.11476444 0.1324205 1.0070001
-0.093571477 0.13411677 1.005421
-0.085954942 0.13417107 1.0035499
-0.07985644 0.13250904 1.001
-0.33105126 0.14213133 1.0070001
-0.32644972 0.14570777 1.00325
-0.091811545 0.14036573 1.0070001
-0.089163139 0.14124852 1.0070001
-0.32358497 0.15519005 1.0043751
-0.31854823 0.15795779 1.001
-0.10905558 0.15752648 1.0016
-0.34321836 0.16658263 1.0053999
-0.33586842 0.16505931 1.0038799
-0.32440531 0.16429575 1.0034705
-0.31854823 0.16322306 1.001
-0.11002167 0.16459242 1.0040001
-0.10809869 0.16463815 1.0025002
-0.34441 0.17484175 1.0033333
-0.33910781 0.1753833 1.001
-0.111448 0.17199849 1.001
-0.10771845 0.17572805 1.001
-0.34258544 0.18275882 1.0058751
-0.33709341 0.18531847 1.003625
-0.10472154 0.18579745 1.0051539
-0.33506572 0.19268936 1.0025001
-0.3282012 0.19744724 1.001
-0.10220179 0.19294995 1.0050001
-0.32517806 0.20566601 1.0040001
-0.10271861 0.20631585 1.0026
-0.09968248 0.20642409 1.0062501
-0.32230434 0.21252167 1.0045
-0.31661069 0.21584775 1.0034547
-0.10306241 0.21558025 1.0026876
-0.099756777 0.21805242 1.0070001
-0.31272826 0.22337992 1.0048572
-0.30822057 0.22663832 1.0028
-0.11049712 0.22890966 1.0030001
-0.10637666 0.22411387 1.0037
-0.30543372 0.23491994 1.0055001
-0.13182743 0.23817061 1.0025001
-0.12434593 0.23712127 1.0037693
-0.11443995 0.23329239 1.0052857
-0.10858481 0.23217727 1.0070001
-0.29309773 0.24380802 1.0040001
-0.13492209 0.24281223 1.0049231
-0.12888929 0.2410053 1.0070001
-0.28374946 0.25694174 1.0058
-0.27818123 0.25887528 1.001
-0.15281373 0.25747874 1.00325
-0.14725141 0.25588447 1.0058
-0.27611634 0.26378864 1.0044286
-0.15619738 0.26468691 1.00475
-0.25481677 0.27901232 1.0040001
-0.24834476 0.27993631 1.001
-0.17112094 0.27993631 1.001
-0.16421808 0.27745131 1.0028001
-0.1590402 0.27251533 1.006
-0.25248176 0.28249708 1.0070001
-0.24471061 0.28467831 1.0035715
-0.18437396 0.28885597 1.0015
-0.17452854 0.28605667 1.0039999
-0.1677072 0.28268906 1.0058
-0.24277091 0.29132509 1.0070001
-0.23378026 0.29881054 1.0025001
-0.22728372 0.29924229 1.001
-0.19302885 0.29546842 1.0033078
-0.18605645 0.29309502 1.0058461
-0.17744347 0.29044229 1.0070001
-0.23444006 0.30270803 1.0061001
-0.22576709 0.30299965 1.0040001
-0.21535273 0.30674678 1.0043
-0.20445143 0.30557162 1.0034707
-0.19715868 0.30264562 1.0055001
-0.20922439 0.31162956 1.0070001
-0.25298631 -0.002071271 1.0133334
-0.24637821 -0.0022651118 1.0113333
-0.25377166 0.0054336158 1.0183753
-0.24760477 0.0034731585 1.0180001
-0.26174372 0.016973143 1.0190001
-0.25509915 0.015449138 1.0188893
-0.24562317 0.016672298 1.0188334
-0.23487589 0.017860943 1.0187
-0.22516452 0.016785074 1.0190002
-0.21529093 0.016973145 1.0190001
-0.20635767 0.018759791 1.0190001
-0.1840246 0.018759791 1.0190001
-0.17482865 0.017078239 1.0190001
-0.16791469 0.018127421 1.0170001
-0.27345622 0.027891539 1.0190001
-0.26491448 0.02602848 1.0182801
-0.25522098 0.024984201 1.017917
-0.24496478 0.024941428 1.0161003
-0.23499066 0.024921151 1.0153335
-0.22440203 0.024688374 1.0145884
-0.21502942 0.025162915 1.0161878
-0.20555675 0.025906382 1.0190005
-0.19491227 0.025811566 1.0180771
-0.18478122 0.025015904 1.0148752
-0.17478542 0.024775064 1.0138826
-0.16638324 0.025915101 1.0128573
-0.12166467 0.027529962 1.013
-0.11826859 0.027448433 1.0100001
-0.31352407 0.037409119 1.016
-0.2931608 0.035230361 1.0188334
-0.28485733 0.035266843 1.0156541
-0.27563262 0.033957221 1.0131429
-0.26453549 0.034087248 1.0131156
-0.25462502 0.035368055 1.0132649
-0.24494082 0.035794619 1.0140003
-0.23531638 0.035364617 1.0128968
-0.22578549 0.032170743 1.0100001
-0.21423328 0.03452041 1.0116074
-0.20544623 0.035565462 1.0145004
-0.19492096 0.035401031 1.011219
-0.18509273 0.035423465 1.0102001
-0.16507797 0.03514063 1.0100001
-0.15849257 0.038073633 1.01
-0.12130436 0.030990167 1.01
-0.11864807 0.030990167 1.01
-0.10271027 0.037188198 1.0100001
-0.096866414 0.039136149 1.01
-0.32313913 0.047040377 1.0166667
-0.31544912 0.044696067 1.0157002
-0.30524883 0.043986395 1.0142001
-0.29519856 0.042181946 1.013706
-0.28760293 0.041970562 1.0115
-0.25057763 0.042500801 1.01
-0.24526502 0.042279441 1.0100001
-0.23570235 0.041615367 1.01
-0.20512538 0.041910511 1.0100001
-0.19568077 0.041615367 1.01
-0.18594101 0.042058084 1.01
-0.17552012 0.042705126 1.0100001
-0.16911776 0.041615367 1.01
-0.10005397 0.041615367 1.01
-0.096512228 0.042500798 1.0100001
-0.32358834 0.05526872 1.0168334
-0.3156426 0.054553218 1.0121603
-0.30901623 0.0504697 1.01
-0.32384565 0.065302625 1.0169375
-0.31750453 0.065240338 1.0119091
-0.32374352 0.074415967 1.0157144
-0.31813598 0.075206168 1.0122499
-0.061094899 0.078803569 1.01
-0.057889804 0.077716284 1.016
-0.32272968 0.084918939 1.0175
-0.31772375 0.085597269 1.013
-0.062164433 0.08170183 1.013
-0.057150662 0.082155839 1.018625
-0.34113553 0.098866962 1.016
-0.3352268 0.098964274 1.0170001
-0.32368967 0.095814638 1.0164
-0.31783327 0.094992004 1.0127001
-0.35220355 0.10659263 1.0170909
-0.3449921 0.10505288 1.0116364
-0.33464941 0.10090379 1.011875
-0.32589352 0.10054723 1.012
-0.31875598 0.10005397 1.01
-0.35174322 0.1150845 1.0176364
-0.34527346 0.11530282 1.0117143
-0.11067917 0.11776263 1.01
-0.10802287 0.11776263 1.0100001
-0.35107607 0.12059865 1.0190001
-0.3451589 0.12500899 1.0142
-0.111579 0.1260207 1.0112858
-0.10641702 0.12591697 1.011059
-0.34240913 0.13524406 1.0156666
-0.33731931 0.13638452 1.0115001
-0.11254548 0.13390568 1.0148751
-0.10463137 0.13455035 1.0137001
-0.097151168 0.13790128 1.0105001
-0.08588703 0.13901304 1.01
-0.34124953 0.14293173 1.0190001
-0.33592716 0.14475082 1.013923
-0.11345206 0.14025176 1.0190001
-0.10290569 0.14335217 1.01775
-0.095068961 0.14486042 1.0125911
-0.087244555 0.1449877 1.0110714
-0.35323662 0.15966949 1.0175
-0.34543365 0.1589928 1.0165999
-0.33413428 0.15505336 1.0151668
-0.32755476 0.15723465 1.011875
-0.09486188 0.15255016 1.0175999
-0.087555327 0.15206358 1.0156666
-0.35333857 0.16527861 1.0170909
-0.34534952 0.16200791 1.0106925
-0.33338326 0.16197197 1.0116366
-0.32785425 0.16126788 1.0107501
-0.35355976 0.17246769 1.017
-0.34519526 0.18573748 1.0105001
-0.34266269 0.19036816 1.01
-0.33447114 0.19961701 1.012
-0.1015927 0.19733311 1.0112
-0.3403562 0.20725101 1.0190001
-0.3345412 0.20564409 1.0140002
-0.32849577 0.20896226 1.01
-0.1009394 0.20187879 1.01
-0.097840376 0.20807683 1.01
-0.33347267 0.21364143 1.0140002
-0.32646382 0.21611042 1.0121818
-0.10005397 0.21427485 1.01
-0.095884301 0.2152562 1.0127276
-0.32391834 0.22322734 1.0134
-0.31800097 0.22517602 1.0116667
-0.10207147 0.22615574 1.0110002
-0.096767172 0.22483361 1.0161874
-0.31431973 0.23309077 1.0139232
-0.30738425 0.23696539 1.0112857
-0.12130436 0.23818156 1.01
-0.11479048 0.23782536 1.0117143
-0.10420165 0.2346113 1.0138401
-0.098684788 0.2332412 1.0178001
-0.31085196 0.24137789 1.016
-0.30532932 0.24401805 1.0165999
-0.29793912 0.24724849 1.0145
-0.13289136 0.24677174 1.0113335
-0.12451051 0.24542844 1.0148948
-0.11569097 0.24412769 1.0165296
-0.10559082 0.24030396 1.0190001
-0.29033008 0.25995708 1.0190001
-0.14446415 0.25758591 1.016
-0.1375718 0.25281051 1.0190001
-0.11702535 0.25370383 1.0190001
-0.28347608 0.26523462 1.01525
-0.27796382 0.2690832 1.013
-0.15236293 0.26565969 1.013
-0.14668719 0.26339871 1.0178001
-0.27611494 0.27166146 1.016
-0.2652902 0.27810353 1.0148001
-0.1610124 0.27859735 1.011
-0.15657124 0.27385142 1.0134615
-0.2616387 0.28482619 1.0172
-0.25580901 0.28688607 1.015077
-0.24870741 0.28774539 1.012
-0.17088863 0.28865126 1.01
-0.16474473 0.28550467 1.01375
-0.15943411 0.28235152 1.016
-0.25404269 0.29285064 1.0187273
-0.24704525 0.29461491 1.0173335
-0.19036816 0.29839104 1.01
-0.18384986 0.29750428 1.0115
-0.17505109 0.29496503 1.0146501
-0.16753376 0.29246423 1.017875
-0.24137789 0.30194503 1.016
-0.23542669 0.30843121 1.0155715
-0.22441807 0.3081471 1.0118001
-0.20099336 0.30901623 1.01
-0.19438766 0.3060095 1.0142858
-0.18571939 0.30317992 1.0173846
-0.17955799 0.30104995 1.0190001
-0.23494403 0.31176984 1.0190001
-0.22394073 0.31291133 1.0168999
-0.21523441 0.31529301 1.0147647
-0.2049603 0.31500819 1.0145004
-0.19813295 0.31418166 1.0168183
-0.21261096 0.32070309 1.0190001
-0.24197578 -0.00135182 1.028
-0.23882154 -0.00090121332 1.028
-0.18655115 -0.00090121332 1.028
-0.26215595 0.0091387238 1.0220001
-0.25785536 0.0059132921 1.0220001
-0.24509314 0.0064241802 1.0252221
-0.23539971 0.0077711581 1.0278125
-0.22529718 0.0082053421 1.0267646
-0.21485597 0.0079779588 1.0266
-0.20492011 0.0075842943 1.0267142
-0.19405067 0.0076800119 1.027294
-0.18461581 0.0062316069 1.0268887
-0.17753562 0.0078622755 1.025375
-0.27207172 0.018162429 1.0256001
-0.26480305 0.015121678 1.0221877
-0.25713861 0.0134393 1.0220001
-0.24420442 0.012909793 1.0238463
-0.23517141 0.013461984 1.0238751
-0.22468516 0.012443795 1.0220002
-0.21425717 0.013446489 1.0226002
-0.20486185 0.014617083 1.0227826
-0.19535975 0.015367666 1.0230343
-0.18503153 0.014416275 1.0224999
-0.17599082 0.012671339 1.0220002
-0.29368567 0.028002782 1.0250001
-0.28454959 0.027206426 1.0256314
-0.27520806 0.024213009 1.0230001
-0.26789007 0.02150288 1.0220002
-0.21054903 0.021502879 1.0220001
-0.20373979 0.02132369 1.0220001
-0.19595779 0.020862913 1.0220002
-0.31253183 0.037963349 1.0262001
-0.30340052 0.036332764 1.0252143
-0.29760244 0.033165615 1.0225002
-0.33296371 0.049494408 1.0265
-0.32881486 0.049277432 1.0220001
-0.3108958 0.0403179 1.0220001
-0.30820793 0.0403179 1.0220001
-0.33341745 0.054573372 1.0266362
-0.32881486 0.054653157 1.0220001
-0.33498645 0.065735735 1.0271817
-0.32900792 0.063647933 1.0226002
-0.33396196 0.074351855 1.0267999
-0.32881486 0.077947937 1.0220001
-0.3327384 0.08548969 1.0265
-0.32820058 0.085578606 1.0236365
-0.061777599 0.086940557 1.0250001
-0.055883836 0.087211922 1.0236365
-0.34196007 0.09808892 1.0265
-0.33340696 0.09527155 1.0263333
-0.32844746 0.093798459 1.0233334
-0.056776438 0.091022544 1.028
-0.36228776 0.10904681 1.028
-0.35711411 0.10856947 1.0235001
-0.36231247 0.11465701 1.026909
-0.35739473 0.11526724 1.0229232
-0.36198735 0.12496824 1.028
-0.35590237 0.12519993 1.025409
-0.35300672 0.13437434 1.0274545
-0.34839588 0.13558745 1.02425
-0.11139687 0.13827547 1.0220001
-0.35147321 0.14149049 1.028
-0.34602994 0.14534514 1.0252143
-0.33956632 0.1496242 1.0220001
-0.11110707 0.14399378 1.0230001
-0.10612919 0.14619938 1.0222145
-0.099450819 0.1496242 1.0220001
-0.35147321 0.15590991 1.028
-0.34485394 0.15489468 1.0252856
-0.33920795 0.15607509 1.0220001
-0.11047184 0.15447874 1.0245
-0.10526771 0.15495621 1.0243331
-0.09531565 0.15748103 1.0220002
-0.086573221 0.15814827 1.024143
-0.36283743 0.16566195 1.027
-0.35784379 0.16575137 1.0220001
-0.10366496 0.16290516 1.0266362
-0.095245644 0.16356862 1.0253911
-0.08750283 0.16290863 1.0266666
-0.35711411 0.17496732 1.0235001
-0.34135821 0.21144497 1.0220001
-0.092193067 0.22679982 1.0250001
-0.095005319 0.23480742 1.0247142
-0.30695605 0.24811211 1.0232
-0.12573212 0.24997097 1.0220001
-0.11331372 0.24742827 1.0226002
-0.10600565 0.24495511 1.0255455
-0.098134935 0.24158977 1.027
-0.30731374 0.25143853 1.028
-0.29563391 0.25969058 1.0250001
-0.14139961 0.25858656 1.0230001
-0.13571911 0.25410241 1.0230001
-0.12400512 0.25320914 1.0235001
-0.11536679 0.25345984 1.0238463
-0.29291382 0.2651155 1.0266666
-0.28849697 0.26520216 1.0220001
-0.14499566 0.26630688 1.0235002
-0.28411907 0.27351052 1.0256001
-0.27665371 0.27593696 1.0226002
-0.1528134 0.27461812 1.0253751
-0.14781184 0.27133825 1.026
-0.27218834 0.28371754 1.0273999
-0.26683199 0.28625634 1.0241818
-0.16216755 0.28879562 1.0220001
-0.15891396 0.28568462 1.028
-0.26317143 0.29413378 1.0253334
-0.25647858 0.29694805 1.0233334
-0.24997097 0.29835245 1.0220001
-0.17112708 0.29835245 1.0220001
-0.1640783 0.29514584 1.0239999
-0.15904924 0.29563391 1.0250001
-0.26045066 0.30010405 1.028
-0.25274649 0.30131909 1.026
-0.2459992 0.30323005 1.0258182
-0.19083805 0.30910391 1.0220001
-0.1838824 0.30731392 1.0232002
-0.17588712 0.30291316 1.0247002
-0.1675014 0.30123559 1.0272499
-0.23432684 0.31671759 1.0255456
-0.22647125 0.3180958 1.0246667
-0.1936072 0.31554019 1.0235001
-0.18571121 0.3118135 1.0260907
-0.22369391 0.32277739 1.0275
-0.21527325 0.32495177 1.0254617
-0.204877 0.32259142 1.0250001
-0.19617651 0.32216403 1.0265
-0.21111536 -0.01000978 1.0380001
-0.20390742 -0.012005072 1.0357778
-0.19733913 -0.012352526 1.031
-0.23454475 -0.0034098576 1.0330001
-0.22509953 -0.0021673897 1.0356923
-0.21439542 -0.0040491237 1.0358638
-0.20442715 -0.0050166952 1.0339335
-0.19499992 -0.0050244187 1.0322416
-0.18799941 -0.0036153733 1.031
-0.24192874 0.003615373 1.031
-0.2347334 0.0027115301 1.031
-0.2244686 0.0028134184 1.0320001
-0.21489367 0.0029383132 1.0315626
-0.20547374 0.0022596084 1.031
-0.19593316 0.0030128115 1.031
-0.18619172 0.00090384332 1.031
-0.3124291 0.029884689 1.033
-0.30269235 0.028058719 1.0324286
-0.2914623 0.024439275 1.0325
-0.2861217 0.02363844 1.0314287
-0.3130548 0.034021992 1.0329287
-0.30711091 0.032812644 1.0326251
-0.33713356 0.049711384 1.031
-0.34174046 0.057107821 1.034
-0.337937 0.055536155 1.031
-0.3412447 0.063358456 1.0325
-0.33848932 0.061913267 1.031
-0.34201428 0.078184344 1.033
-0.33853051 0.076938458 1.0325
-0.34307516 0.085086696 1.0367693
-0.3378779 0.08490321 1.0328463
-0.34327835 0.094011515 1.0365386
-0.33736986 0.094825417 1.0323334
-0.061357606 0.092189975 1.0343333
-0.055028215 0.094102286 1.0350002
-0.048635714 0.095002607 1.0370001
-0.36155239 0.13392676 1.0345
-0.35752797 0.13540675 1.033125
-0.35494959 0.14506002 1.0355002
-0.3542355 0.15284994 1.0357778
-0.34978735 0.15274952 1.031
-0.36846676 0.16660845 1.031
-0.10573018 0.16684195 1.032154
-0.094233595 0.16875552 1.0316001
-0.085102178 0.16710281 1.0327144
-0.10410183 0.17482878 1.0368574
-0.095444262 0.17475744 1.0351741
-0.08781369 0.17264648 1.0357143
-0.091506466 0.2378322 1.0335001
-0.088455655 0.23750301 1.0366668
-0.10221846 0.2477306 1.0318573
-0.094752476 0.24475606 1.034889
-0.088268057 0.24205467 1.0380001
-0.31212315 0.25388443 1.0380001
-0.30757323 0.25843433 1.0380001
-0.13740698 0.25843433 1.0380001
-0.11117272 0.25397998 1.031
-0.10570102 0.25439379 1.034654
-0.097655401 0.25150621 1.0372001
-0.300623 0.26520395 1.036
-0.29696536 0.26708636 1.03275
-0.14155339 0.26411226 1.0317501
-0.10898545 0.26066107 1.036
-0.29503009 0.27416408 1.0347779
-0.28697026 0.27702796 1.031
-0.27386454 0.27928758 1.031
-0.15274952 0.27808246 1.031
-0.14652376 0.27482983 1.0346365
-0.29028362 0.28209379 1.0380001
-0.28439865 0.28336164 1.0355002
-0.27616039 0.2843025 1.0318573
-0.16044578 0.28553909 1.034
-0.15511335 0.28332272 1.0347334
-0.27415243 0.29274759 1.0349168
-0.26747495 0.29644001 1.0325
-0.16109166 0.29631749 1.0352501
-0.26378375 0.30185562 1.034
-0.255559 0.30560109 1.0327274
-0.24891853 0.30775514 1.0325
-0.17375661 0.30714002 1.0318183
-0.16526926 0.3045091 1.0342144
-0.25479442 0.31030318 1.0380001
-0.19071095 0.31905669 1.031
-0.18486986 0.31663117 1.0332729
-0.17681482 0.31266525 1.035154
-0.1683463 0.31030318 1.0380001
-0.24068007 0.32333046 1.036
-0.23446892 0.32419452 1.0337858
-0.22575092 0.32650915 1.0323334
-0.21431302 0.32885683 1.0315001
-0.20563918 0.32751518 1.0323334
-0.19434671 0.32496369 1.0346364
-0.18745588 0.32122293 1.0380001
-0.22478873 0.33104774 1.036
-0.21302123 0.33086276 1.034
-0.20292553 0.33032274 1.0380001
-0.19837564 0.33032274 1.0380001
-0.2237277 -0.010603032 1.0452857
-0.21469609 -0.012791334 1.0421251
-0.20837927 -0.013080743 1.041
-0.23063785 -0.0073245503 1.044
-0.22503971 -0.0063984138 1.0422857
-0.21720117 -0.007757185 1.041
-0.31120002 0.028290911 1.041
-0.30937478 0.028290911 1.041
-0.31120002 0.03011613 1.041
-0.30937478 0.03011613 1.041
-0.34648761 0.058711242 1.041
-0.3458792 0.06205748 1.041
-0.35053691 0.079625882 1.044
-0.34770441 0.079397067 1.041
-0.35053691 0.081456363 1.044
-0.34770441 0.08487273 1.041
-0.34770441 0.090348393 1.041
-0.063386381 0.094496265 1.0435714
-0.053129759 0.098553613 1.0422857
-0.045646608 0.098141409 1.0413749
-0.054460287 0.10127166 1.0470001
-0.044422671 0.10304055 1.0447501
-0.038370948 0.10726266 1.0457143
-0.033961188 0.11106227 1.0470001
-0.36413136 0.13841252 1.041
-0.36351034 0.14519651 1.0434
-0.35865572 0.14693022 1.041
-0.36119825 0.15205805 1.04175
-0.35865572 0.15240586 1.041
-0.11042581 0.17430851 1.041
-0.10738815 0.17730144 1.0425
-0.091808565 0.17905408 1.041
-0.086697951 0.17430851 1.041
-0.11074404 0.18304801 1.044
-0.10486668 0.18570195 1.0442226
-0.095649891 0.18418473 1.0446668
-0.08877828 0.18030228 1.044
-0.10555505 0.19183482 1.0470001
-0.091304392 0.24743699 1.0415
-0.088251404 0.24582171 1.0450001
-0.32138562 0.25739697 1.0470001
-0.31604305 0.25571734 1.0426154
-0.13411739 0.25924119 1.0464
-0.10129971 0.25826862 1.041
-0.095051385 0.25548801 1.044158
-0.089033388 0.25057852 1.0470001
-0.32125449 0.26159295 1.0470001
-0.31372425 0.26410028 1.0454999
-0.30616948 0.26551589 1.042125
-0.14076285 0.266702 1.044
-0.13584524 0.2627829 1.0450909
-0.10323329 0.26319307 1.0446
-0.098212086 0.26159295 1.0470001
-0.31192634 0.27247632 1.0465
-0.30495396 0.27451891 1.0438125
-0.2932815 0.28415209 1.041375
-0.28655952 0.28792846 1.041
-0.27834606 0.28199649 1.041
-0.15353632 0.28697202 1.0425
-0.14871687 0.2830818 1.0450001
-0.29104632 0.29013109 1.044
-0.28373754 0.29288527 1.0436667
-0.27739665 0.29688317 1.0419999
-0.16062725 0.29647201 1.0470001
-0.15695727 0.29127362 1.0452858
-0.27479467 0.30107889 1.046
-0.26359177 0.30751801 1.044
-0.16390844 0.30826914 1.0422
-0.26267388 0.31026635 1.044
-0.25367701 0.31522956 1.0457143
-0.24914253 0.31302524 1.041
-0.17405887 0.31705633 1.0422498
-0.16620892 0.31443834 1.0453124
-0.24127752 0.32809907 1.0425
-0.2372786 0.32945222 1.041
-0.1921044 0.32762697 1.041
-0.18465932 0.32522097 1.0445001
-0.17586809 0.3226817 1.0466666
-0.16888808 0.32033664 1.0470001
-0.24070811 0.33040163 1.044
-0.23355384 0.33361748 1.04475
-0.22625934 0.33481872 1.0435001
-0.21378382 0.33578688 1.0443751
-0.20501213 0.3358964 1.044
-0.19512984 0.33482116 1.0450002
-0.18887232 0.33305117 1.0465715
-0.19642419 0.34052977 1.0470001
-0.072996527 0.089628644 1.054
-0.068571113 0.088957116 1.057
-0.073073894 0.092975095 1.05525
-0.067022435 0.095345587 1.0536667
-0.061947603 0.10139819 1.0546666
-0.054142859 0.10506228 1.0527501
-0.04558545 0.10810905 1.0512309
-0.050965015 0.11026976 1.057
-0.04346747 0.11354412 1.054889
-0.03575756 0.11572877 1.0536191
-0.028725736 0.11953613 1.057
-0.035212193 0.1213894 1.057
-0.36912051 0.1463595 1.0500001
-0.093408123 0.18847807 1.0508001
-0.088432699 0.18666039 1.0530001
-0.10259937 0.1945972 1.052
-0.095248714 0.19399527 1.0537223
-0.086589046 0.19469668 1.057
-0.33245665 0.2453528 1.057
-0.086178087 0.24774925 1.0505716
-0.33171839 0.25225383 1.054
-0.32688075 0.25399083 1.0524
-0.09130308 0.25823268 1.052
-0.086838737 0.25387111 1.0538
-0.32344618 0.26447406 1.0511429
-0.31749362 0.26776296 1.0505
-0.13398001 0.26688141 1.0527272
-0.10156184 0.2684792 1.0500001
-0.096270546 0.26429194 1.0519001
-0.32063031 0.27073395 1.054
-0.31481099 0.2733885 1.0500001
-0.30836749 0.27707049 1.0500001
-0.14332405 0.27527204 1.0525
-0.13762848 0.27340895 1.0560001
-0.10071672 0.27073395 1.054
-0.098868713 0.27073395 1.054
-0.29788783 0.28590029 1.052
-0.150962 0.28903699 1.0500001
-0.14648461 0.28465405 1.0547143
-0.29143029 0.2951228 1.052
-0.28737891 0.29628178 1.0506667
-0.16170117 0.29660612 1.054
-0.15529799 0.29531083 1.0537778
-0.1491885 0.29374382 1.057
-0.28269753 0.30176795 1.0526667
-0.27461022 0.30630127 1.0529166
-0.26970649 0.30652651 1.0500001
-0.16100466 0.30350685 1.0555
-0.159154 0.30165619 1.0555
-0.27335781 0.31320319 1.057
-0.26462272 0.31451908 1.0538571
-0.25681949 0.3175725 1.0500001
-0.16228169 0.31570521 1.0530001
-0.25502586 0.32063031 1.054
-0.17461573 0.32722685 1.0522857
-0.1646487 0.3249763 1.0548422
-0.24326682 0.33592665 1.0527
-0.23656221 0.33797008 1.0516001
-0.22368151 0.33966449 1.0500001
-0.215397 0.33966449 1.0500001
-0.19146401 0.33966449 1.0500001
-0.18440317 0.3347978 1.0520589
-0.17580825 0.33417889 1.057
-0.16864789 0.3308093 1.057
-0.24296412 0.34341151 1.057
-0.23605132 0.34258687 1.055909
-0.22392653 0.34237036 1.0555
-0.21472624 0.3437047 1.054625
-0.20448752 0.34460369 1.0534286
-0.19517846 0.34492433 1.0528235
-0.18611056 0.34327525 1.0562001
-0.073876701 0.096179098 1.0600002
-0.069230363 0.097572997 1.0600001
-0.07275369 0.10214 1.0640001
-0.064741775 0.1053553 1.0625499
-0.05742868 0.10760908 1.0600001
-0.062010426 0.11249065 1.0663333
-0.054646865 0.11406256 1.0645001
-0.046424024 0.11680605 1.0606923
-0.0390292 0.1198754 1.0600001
-0.043860503 0.12344218 1.0644286
-0.03456679 0.12571162 1.0608751
-0.027894303 0.12552252 1.0606002
-0.040222343 0.13002107 1.067
-0.033453222 0.13367178 1.0641428
-0.027375933 0.13370858 1.0621001
-0.10129007 0.19979233 1.0600001
-0.093855932 0.19942062 1.0600001
-0.086886436 0.19839843 1.0600001
-0.10211072 0.20572254 1.0646999
-0.094573043 0.20456634 1.0640951
-0.087137066 0.20359483 1.0636668
-0.35077626 0.23198003 1.067
-0.34537742 0.23531017 1.0655454
-0.34014228 0.24136123 1.0630001
-0.33630362 0.24508677 1.0616667
-0.32988966 0.24625567 1.0600001
-0.083361357 0.25824541 1.0625
-0.12916806 0.26855806 1.0600001
-0.091796815 0.26608515 1.062
-0.08598756 0.26315895 1.0648888
-0.14155829 0.27908978 1.0600001
-0.13410844 0.27552691 1.0635834
-0.12953363 0.27118194 1.0630001
-0.094146989 0.27064335 1.0633334
-0.30400607 0.28903964 1.067
-0.14269973 0.28548911 1.0626364
-0.13843969 0.2824918 1.067
-0.15275392 0.29853043 1.0625
-0.14631186 0.29335609 1.0645556
-0.28636143 0.30626202 1.064
-0.27970928 0.3094458 1.0600001
-0.16076313 0.3094458 1.0600001
-0.15513596 0.3047277 1.0650526
-0.28222618 0.31306818 1.066
-0.27484688 0.31599411 1.06275
-0.26773027 0.31895041 1.06225
-0.15846433 0.31447262 1.0627273
-0.27126697 0.32177874 1.067
-0.26492411 0.32279462 1.0648
-0.25821224 0.32471442 1.0633334
-0.16076313 0.32896039 1.0600001
-0.15764269 0.32552576 1.0616877
-0.1732872 0.33727437 1.0616
-0.16527419 0.3357681 1.0644118
-0.15788406 0.33476812 1.0656667
-0.24315812 0.34568718 1.0600001
-0.2346558 0.34748903 1.0626667
-0.22496779 0.34687534 1.0615
-0.21492098 0.34836671 1.0612857
-0.209085 0.34847501 1.0600001
-0.18269217 0.34646851 1.0614445
-0.17683035 0.34323543 1.0641819
-0.23665704 0.35077626 1.067
-0.22430971 0.35152459 1.067
-0.21584673 0.35280386 1.0658572
-0.20644513 0.35058144 1.06075
-0.19274867 0.35284415 1.0642
-0.18810688 0.35286656 1.0654
-0.073271006 0.10614689 1.0715001
-0.067538396 0.1097499 1.0700001
-0.072195917 0.11170377 1.0730001
-0.06516812 0.11589325 1.0714999
-0.057274386 0.11830354 1.0710001
-0.062000498 0.12242737 1.077
-0.055001728 0.12477756 1.0755236
-0.047024485 0.12656079 1.0708181
-0.050041009 0.13123962 1.077
-0.043790419 0.13437954 1.0741498
-0.035772871 0.13776836 1.0706667
-0.028140999 0.13976696 1.0700001
-0.041071393 0.14209758 1.077
-0.03493771 0.14444873 1.0742381
-0.0282462 0.14499979 1.074
-0.03340001 0.1533096 1.0769999
-0.02769565 0.15452917 1.0769999
-0.094741367 0.20918143 1.0700001
-0.086360216 0.20839003 1.0707501
-0.10129718 0.21459524 1.071
-0.095392652 0.21489578 1.0725454
-0.087697931 0.21248998 1.0756668
-0.096512064 0.2218084 1.0730001
-0.35340625 0.23748724 1.075
-0.34988642 0.23732243 1.0700001
-0.083145253 0.24591269 1.0747499
-0.076477766 0.24723768 1.077
-0.081377283 0.25279981 1.0743999
-0.079161242 0.25775009 1.075
-0.12851056 0.26827753 1.0700001
-0.090989232 0.26921555 1.0700001
-0.084370948 0.26782814 1.0726364
-0.078983374 0.26415601 1.074
-0.13179368 0.2781269 1.0700001
-0.1272476 0.27454236 1.0740714
-0.091699623 0.27259746 1.0710001
-0.085664004 0.27266175 1.0762
-0.14164303 0.28985229 1.0700001
-0.13485403 0.28579348 1.0731304
-0.12793504 0.28325099 1.077
-0.30556098 0.29425958 1.0746666
-0.14302473 0.29613152 1.071
-0.13795599 0.29454529 1.0760001
-0.29172838 0.30673689 1.0700001
-0.28985229 0.30861297 1.0700001
-0.15149239 0.30673689 1.0700001
-0.14592724 0.30450469 1.0733478
-0.13879299 0.30119023 1.077
-0.29397348 0.31237519 1.0765001
-0.28744233 0.31408367 1.0726668
-0.1540506 0.31477132 1.0711904
-0.14778957 0.31255448 1.0755
-0.27362737 0.3250235 1.0707501
-0.26648238 0.32709986 1.0708572
-0.25566283 0.32780197 1.0714
-0.15440822 0.3241334 1.0748125
-0.27185169 0.33017284 1.0730001
-0.2653763 0.3320452 1.0751818
-0.25621039 0.33255321 1.0762727
-0.1541542 0.3356033 1.0735333
-0.18104044 0.34988642 1.0700001
-0.17353953 0.3470113 1.0709231
-0.16456465 0.34487236 1.0711999
-0.15595029 0.34456903 1.0735999
-0.23443154 0.35506859 1.0728
-0.22582774 0.356282 1.0718333
-0.21583596 0.35712984 1.0724287
-0.20595951 0.35644495 1.0728
-0.19494578 0.35728145 1.0703751
-0.18426843 0.35655349 1.0731249
-0.17507793 0.35403645 1.0749999
-0.16585918 0.35249016 1.077
-0.1572043 0.35170335 1.077
-0.19324376 0.36292985 1.0752858
-0.18828548 0.36337134 1.0756668
-0.0549144 0.1297116 1.08
-0.052214526 0.13481089 1.0829
-0.047813397 0.13775939 1.08
-0.043932583 0.14548901 1.0826428
-0.038818799 0.14864761 1.08
-0.042091396 0.15361851 1.085
-0.037810728 0.15555798 1.0812223
-0.0274572 0.1581156 1.08
-0.040976275 0.16199923 1.087
-0.034853138 0.16425119 1.0846087
-0.027171187 0.16433534 1.0827498
-0.032832999 0.17352109 1.087
-0.027156865 0.1743035 1.0857648
-0.027846925 0.18222266 1.087
-0.091059364 0.21911582 1.082
-0.086447209 0.21628526 1.0836667
-0.092187636 0.2233475 1.0841111
-0.086717226 0.22171658 1.087
-0.35810035 0.23936376 1.0835
-0.075409159 0.25498593 1.08205
-0.063846759 0.25252822 1.087
-0.075286984 0.2642065 1.0849999
-0.12275613 0.27553442 1.0829231
-0.11903489 0.27616292 1.0862499
-0.083339721 0.27636695 1.0816666
-0.077826478 0.27509281 1.0841111
-0.12385695 0.28518257 1.0830454
-0.11911708 0.28206927 1.087
-0.31437832 0.29413784 1.0851817
-0.3096036 0.2925612 1.08
-0.13313921 0.2953696 1.0825293
-0.12557939 0.29355964 1.0858461
-0.30429238 0.30524048 1.0852499
-0.29792637 0.30854318 1.0816
-0.14193514 0.30718049 1.0807999
-0.13600224 0.30504969 1.085619
-0.30240726 0.31191561 1.0847501
-0.298242 0.31149721 1.08
-0.14376524 0.31615159 1.0826666
-0.137759 0.31439888 1.0864545
-0.15135275 0.32610497 1.08
-0.14463861 0.32533166 1.0840333
-0.13775899 0.32530764 1.0864545
-0.2723628 0.33485159 1.08
-0.26501107 0.33718598 1.0804
-0.25482395 0.33710438 1.0805714
-0.15169255 0.33448729 1.0822222
-0.14491333 0.3347404 1.0859565
-0.26379368 0.34211013 1.085
-0.25721633 0.34179363 1.0840001
-0.15153007 0.34574592 1.082
-0.14834046 0.34369245 1.087
-0.17326438 0.35883722 1.08
-0.16458859 0.35668385 1.0818182
-0.15408663 0.35577723 1.0845882
-0.14961106 0.35258657 1.087
-0.23419449 0.36341077 1.08375
-0.22579014 0.3645592 1.0841428
-0.21433009 0.36283445 1.0838572
-0.20579803 0.36238122 1.0838001
-0.19637576 0.36754668 1.0847501
-0.18420728 0.36624336 1.0841175
-0.17482968 0.36313972 1.0848333
-0.16476493 0.36096364 1.0864
-0.15818748 0.36116299 1.087
-0.19101164 0.3715699 1.0840001
-0.18755408 0.37162018 1.0860001
-0.054467298 0.13855717 1.09
-0.052364111 0.14414033 1.0921539
-0.048423208 0.14603548 1.0916001
-0.051354956 0.15444955 1.097
-0.046374019 0.15551923 1.0933751
-0.050970275 0.16252787 1.097
-0.045070119 0.16426384 1.0937369
-0.039178234 0.16817974 1.09
-0.042122606 0.17291427 1.097
-0.03732565 0.17581758 1.091643
-0.034802157 0.18457216 1.0924762
-0.028985521 0.1876096 1.09
-0.03254813 0.19377716 1.0965716
-0.028871456 0.19442469 1.0936667
-0.08343938 0.2196278 1.0940001
-0.093728818 0.22858995 1.0910001
-0.084737591 0.22484893 1.0921668
-0.36331972 0.23823264 1.095143
-0.092474014 0.23262672 1.095
-0.37025577 0.24138753 1.097
-0.36566681 0.24345717 1.0942
-0.0716675 0.25418073 1.09
-0.067845233 0.25572437 1.09
-0.072051257 0.26619634 1.0922501
-0.068318196 0.26274738 1.0925001
-0.11563178 0.27748048 1.092375
-0.083134301 0.27998102 1.09
-0.074565314 0.27429366 1.0940001
-0.11690334 0.28501081 1.0941876
-0.32241029 0.29629615 1.0951999
-0.31724811 0.29813677 1.09
-0.12289526 0.29706362 1.0915716
-0.11901379 0.29369926 1.0948335
-0.32120889 0.30485997 1.097
-0.31492117 0.30573225 1.0943158
-0.30826578 0.305208 1.09
-0.13193758 0.30667326 1.0917143
-0.12550256 0.3048338 1.09552
-0.3202472 0.31063017 1.097
-0.31407332 0.31364536 1.0963334
-0.30834839 0.31294912 1.0930001
-0.13324219 0.31537873 1.0934615
-0.12761064 0.31403315 1.097
-0.13357824 0.32437173 1.0936112
-0.12982994 0.32313231 1.097
-0.1404683 0.33731502 1.09
-0.13627608 0.33434325 1.0932001
-0.14340393 0.34499353 1.092375
-0.13889745 0.34442717 1.097
-0.15029924 0.35803944 1.092
-0.14573525 0.35373983 1.0945001
-0.23248906 0.36961725 1.0913334
-0.22373691 0.36805099 1.0916001
-0.21429679 0.36825916 1.0925001
-0.20486648 0.3676126 1.092
-0.19875787 0.36980429 1.09
-0.1806021 0.36980429 1.09
-0.17441234 0.36835906 1.0905715
-0.1656291 0.36684096 1.0929333
-0.15451775 0.36510912 1.0938667
-0.14762147 0.36256212 1.097
-0.22568862 0.37199083 1.0955
-0.21429226 0.37339967 1.0961429
-0.20513694 0.37360263 1.0960001
-0.19722567 0.37477523 1.09475
-0.18458584 0.37645701 1.0942942
-0.17607644 0.37482089 1.0961177
-0.16445126 0.3719044 1.097
-0.15675764 0.3702558 1.097
-0.18753214 0.38179621 1.097
-0.053086549 0.15572055 1.101
-0.052314382 0.16505091 1.1010001
-0.048582237 0.16826828 1.1010001
-0.046312649 0.17538801 1.1045882
-0.043798201 0.18446839 1.1066427
-0.039645497 0.18566222 1.103
-0.041767906 0.19232664 1.108
-0.037048604 0.19558077 1.1034704
-0.034750979 0.20487943 1.1066362
-0.027768793 0.2051643 1.1031429
-0.031568766 0.2112679 1.108
-0.025129408 0.21417636 1.1063637
-0.083157092 0.22917031 1.103
-0.37414491 0.23725559 1.1035001
-0.36865255 0.23666297 1.103
-0.094590575 0.2326156 1.1010001
-0.086672463 0.23460867 1.1046873
-0.37353626 0.24081987 1.1010001
-0.36967543 0.24033728 1.1010001
-0.065838292 0.26764068 1.1021429
-0.071833387 0.27584931 1.1023333
-0.066115156 0.27423277 1.1058666
-0.11247142 0.28620762 1.1021999
-0.10886623 0.28662547 1.1068001
-0.073755719 0.28305432 1.107
-0.068965614 0.28169054 1.108
-0.11505379 0.29469594 1.1042141
-0.10898509 0.29198682 1.108
-0.32527578 0.30018032 1.1010001
-0.12065125 0.30693677 1.1010001
-0.11689933 0.30583888 1.1066248
-0.12306428 0.31622693 1.101
-0.11569557 0.31473142 1.1064998
-0.10976217 0.31277362 1.108
-0.13030335 0.32913661 1.1010001
-0.1250729 0.32554057 1.1036817
-0.11872024 0.32187313 1.107
-0.13156903 0.33508083 1.1015
-0.12591347 0.3345032 1.1063528
-0.13498102 0.34485197 1.10575
-0.12854154 0.34159026 1.108
-0.14198756 0.35719484 1.1018001
-0.13774982 0.35434312 1.104357
-0.15153797 0.36967543 1.1010001
-0.14401437 0.36545774 1.1025498
-0.13877721 0.36392626 1.107
-0.23068519 0.37546667 1.1010001
-0.22495259 0.37699616 1.1023333
-0.2158853 0.37868404 1.101
-0.20655493 0.3783623 1.1010001
-0.19497243 0.37932754 1.1010001
-0.17212911 0.37804055 1.101
-0.16514909 0.37698212 1.1016666
-0.15513694 0.37601772 1.1044999
-0.14596827 0.37325478 1.1053637
-0.22310859 0.38122243 1.1065
-0.21492857 0.38266644 1.1059999
-0.20483528 0.38183278 1.1058571
-0.1968292 0.38298938 1.1060001
-0.18242468 0.38318837 1.1010001
-0.17580201 0.38280672 1.1033751
-0.16568682 0.38256449 1.1068749
-0.1583295 0.38173923 1.108
-0.051667225 0.17839816 1.1120001
-0.052085981 0.18523294 1.114
-0.048850983 0.18446392 1.1120001
-0.051887661 0.19483402 1.1167779
-0.045782443 0.19474211 1.1132272
-0.050030489 0.20110294 1.1190001
-0.045426834 0.20469725 1.1149473
-0.039481558 0.20813119 1.1120001
-0.085437968 0.21591908 1.117
-0.041670244 0.21363804 1.1157999
-0.034450196 0.21616516 1.1131999
-0.027506119 0.21789952 1.1126001
-0.082956627 0.22209121 1.1176667
-0.079460189 0.22170374 1.1190001
-0.033668436 0.22436571 1.1158824
-0.025132019 0.22504482 1.1152353
-0.082414009 0.23648773 1.115875
-0.032372668 0.23445661 1.1190002
-0.025137868 0.23298511 1.1190002
-0.01765782 0.23249462 1.1190001
-0.083354659 0.24331555 1.1162728
-0.033680651 0.24099654 1.1190001
-0.02844871 0.24034254 1.1190001
-0.062445845 0.2764574 1.113
-0.058725711 0.2756972 1.1165
-0.10471345 0.2887024 1.1163334
-0.095073618 0.28839853 1.118
-0.088950984 0.28835759 1.115
-0.073177993 0.28686461 1.113
-0.065009214 0.28522712 1.1156316
-0.11210813 0.29830509 1.1120001
-0.10414312 0.29474133 1.1159545
-0.096900016 0.29353398 1.1190001
