# .PCD v0.7 - Point Cloud Data file format
VERSION 0.7
FIELDS x y z
SIZE 4 4 4
TYPE F F F
COUNT 1 1 1
WIDTH 1475
HEIGHT 1
VIEWPOINT 0 0 0 1 0 0 0
POINTS 1475
DATA ascii
-0.25256154 -0.012932367 1.1570001
-0.24454311 -0.014318924 1.1562499
-0.23598482 -0.01286333 1.1560767
-0.22618963 -0.01217164 1.1570001
-0.19170333 -0.011157337 1.1570001
-0.18561752 -0.011157337 1.1570001
-0.17851739 -0.011157337 1.1570001
-0.1524836 -0.012509741 1.1570001
-0.14490005 -0.015546341 1.1548822
-0.13847914 -0.016172748 1.153
-0.092342809 -0.016606169 1.155
-0.085888684 -0.01204608 1.1556667
-0.076072752 -0.011157337 1.1570001
-0.065422565 -0.011157337 1.1570001
-0.059843898 -0.011157337 1.1570001
-0.27323684 -0.0027888957 1.1565001
-0.26481757 -0.0045155501 1.1553634
-0.25484911 -0.0043948125 1.1564283
-0.24468489 -0.0049837767 1.1553332
-0.23509078 -0.005389607 1.1561577
-0.22537819 -0.0077087046 1.1569999
-0.2130037 -0.0010143033 1.1570001
-0.20543543 -0.0027308166 1.1569998
-0.19542271 -0.0045179408 1.1566361
-0.1855924 -0.0050713746 1.1568397
-0.17590964 -0.0044910787 1.1560473
-0.1649626 -0.0023052348 1.1569999
-0.15546946 -0.0055397591 1.1546469
-0.14858711 -0.0090971701 1.153
-0.083779171 -0.0076915226 1.1542
-0.075377353 -0.0059659109 1.1549999
-0.066911213 -0.0055996389 1.1555262
-0.057815295 -0.0091287298 1.1570001
-0.29252666 0.0083109755 1.1562001
-0.28489077 0.0051992764 1.1559333
-0.27616841 0.0033442134 1.153923
-0.26543519 0.001819434 1.153
-0.25480968 0.0026301751 1.1543332
-0.24521928 0.0037062543 1.153
-0.23508906 0.0035978397 1.1547776
-0.22478433 0.0058713877 1.155
-0.21462983 0.0054697571 1.1559333
-0.20564789 0.0047934987 1.1545651
-0.19625184 0.0038454689 1.1543332
-0.18488955 0.0034125349 1.15325
-0.17486782 0.0010107966 1.153
-0.16487417 0.0010114979 1.1537999
-0.067513406 0.0053099706 1.1537499
-0.31240541 0.019271763 1.1570001
-0.30367014 0.017219312 1.1553999
-0.29642117 0.012644602 1.154
-0.19811615 0.011118763 1.153
-0.17688942 0.014151153 1.153
-0.085051149 0.016964894 1.1541764
-0.075349554 0.016236123 1.1532353
-0.06614989 0.015700594 1.153421
-0.059740454 0.016204307 1.155
-0.32291666 0.026361806 1.1565001
-0.31507203 0.025325868 1.1556084
-0.30688888 0.023869526 1.1537999
-0.093679503 0.025067843 1.1552498
-0.084998623 0.021706091 1.1570001
-0.074652724 0.022923255 1.1569999
-0.065875262 0.023788974 1.1560585
-0.059843898 0.02434328 1.1570001
-0.32153416 0.034486312 1.1570001
-0.31619528 0.035319731 1.1547776
-0.10006887 0.035377882 1.153
-0.097935937 0.03478701 1.1556667
-0.32153416 0.04564365 1.1570001
-0.31503046 0.045727234 1.1548332
-0.10006887 0.04245346 1.153
-0.098217353 0.046575546 1.155
-0.31353098 0.055485774 1.1559999
-0.30748433 0.058019727 1.153
-0.31240541 0.062886804 1.1570001
-0.30666712 0.065993212 1.1555712
-0.31152788 0.077625908 1.155
-0.30776325 0.074829638 1.1552223
-0.086928517 0.075809747 1.153
-0.3316772 0.087230086 1.1570001
-0.32614598 0.086186796 1.1545384
-0.31669712 0.081580408 1.156
-0.33201531 0.093654007 1.1570001
-0.32821491 0.094785489 1.1543332
-0.3316772 0.10244463 1.1570001
-0.32652363 0.10450505 1.1541427
-0.32251486 0.11178406 1.1556667
-0.31661761 0.11579645 1.1545999
-0.071766563 0.11826321 1.153
-0.31269035 0.12402344 1.1558001
-0.30829298 0.12736037 1.153
-0.071766563 0.12365413 1.153
-0.069865949 0.12352934 1.155
-0.32153416 0.13895956 1.1570001
-0.31427035 0.13824269 1.1558571
-0.3048242 0.1342949 1.1543999
-0.072015539 0.13693094 1.1570001
-0.32348332 0.14443047 1.1567142
-0.31711447 0.14417635 1.153
-0.073306866 0.14479466 1.155
-0.069986932 0.14504538 1.1570001
-0.32153416 0.1531598 1.1570001
-0.31661233 0.1553717 1.1543332
-0.083380841 0.15697621 1.1552222
-0.077964596 0.1518825 1.155
-0.31326696 0.16309287 1.1554999
-0.30742967 0.1667475 1.1545
-0.091127746 0.167069 1.155
-0.088120952 0.16267268 1.1554
-0.30326137 0.17339788 1.155
-0.29769146 0.17922136 1.155
-0.10167185 0.17856079 1.154
-0.096561849 0.17470476 1.1545999
-0.29302278 0.18382815 1.1556666
-0.28617665 0.18800052 1.1545
-0.11030424 0.18721597 1.1543332
-0.10635316 0.18333641 1.1553999
-0.2833755 0.19390267 1.1565001
-0.2764661 0.19576111 1.1545999
-0.26920882 0.19845307 1.153
-0.11055906 0.19170333 1.1570001
-0.27310115 0.20362139 1.1570001
-0.26526934 0.20407064 1.1557999
-0.25699922 0.20836878 1.1556667
-0.11275984 0.20628791 1.1545999
-0.25363535 0.2142805 1.1552857
-0.24688709 0.21656319 1.153
-0.23753722 0.21934287 1.153
-0.22844005 0.21934287 1.153
-0.12271287 0.21710999 1.1536666
-0.11772611 0.215551 1.1543332
-0.25154722 0.22010382 1.1570001
-0.24525854 0.22091527 1.1570001
-0.23475331 0.2226066 1.1547778
-0.22484101 0.22447725 1.1548181
-0.21666344 0.22718272 1.1537999
-0.14130938 0.22662063 1.153
-0.13492413 0.22560038 1.1547142
-0.12647866 0.2225436 1.1565001
-0.21484908 0.2310604 1.156
-0.20431155 0.23538645 1.1556667
-0.1959258 0.2364313 1.155
-0.18510695 0.23851065 1.1538
-0.14313544 0.23461454 1.1554614
-0.13895956 0.23024686 1.1570001
-0.18416047 0.24194069 1.1563333
-0.17601641 0.24588233 1.1549999
-0.164086 0.24730825 1.153
-0.1537659 0.24595244 1.1545384
-0.14737661 0.24184516 1.1562001
-0.17243156 0.25053293 1.1570001
-0.16533144 0.25053293 1.1570001
-0.15924563 0.25053293 1.1570001
-0.22798944 -0.080406986 1.161
-0.22798944 -0.078371368 1.161
-0.24260376 -0.044019479 1.1676668
-0.16089725 -0.042017758 1.169
-0.25202471 -0.032268051 1.1623334
-0.24612042 -0.03533522 1.1665556
-0.22033702 -0.031769522 1.169
-0.21367566 -0.032794345 1.169
-0.18139373 -0.032794345 1.169
-0.17456767 -0.034196682 1.16875
-0.16474347 -0.035497874 1.1684784
-0.1571133 -0.035553481 1.1689999
-0.26380739 -0.024734022 1.1618572
-0.25514576 -0.025685979 1.1615924
-0.24494997 -0.02552199 1.1642311
-0.23480269 -0.024667162 1.1667778
-0.22497767 -0.025571346 1.1665002
-0.21475568 -0.025570143 1.1665387
-0.20613503 -0.023693532 1.1671538
-0.19472237 -0.024055297 1.1675
-0.18488538 -0.02554344 1.1651602
-0.17452411 -0.02551847 1.1642001
-0.16443002 -0.025534322 1.1650004
-0.15460967 -0.025403028 1.166667
-0.14542638 -0.023941699 1.1637692
-0.093344703 -0.02563097 1.1622308
-0.085799307 -0.023472209 1.1640769
-0.077620067 -0.021447649 1.1650001
-0.28285122 -0.011273056 1.169
-0.27361447 -0.013008201 1.1635001
-0.26550445 -0.015324279 1.1648334
-0.25601313 -0.016081396 1.161
-0.24664928 -0.018659851 1.1610001
-0.23492204 -0.016913414 1.1620667
-0.22429319 -0.016231392 1.1609999
-0.21478695 -0.015269819 1.1611599
-0.20472078 -0.015280477 1.1618
-0.19475554 -0.015629862 1.1615218
-0.18422364 -0.016284961 1.1609999
-0.17468551 -0.015677603 1.1611999
-0.16547161 -0.015366614 1.1623845
-0.1562994 -0.015877206 1.161706
-0.14893954 -0.018659851 1.161
-0.09058509 -0.01933839 1.161
-0.083962657 -0.016722828 1.1621765
-0.074374534 -0.016082697 1.1636666
-0.067062363 -0.01504097 1.1610001
-0.29166472 -0.0026645407 1.169
-0.2846331 -0.0047562253 1.1661767
-0.27650678 -0.0063527981 1.1625385
-0.26564839 -0.0091602895 1.161
-0.25597921 -0.0086513851 1.161
-0.23435074 -0.0040712398 1.1610001
-0.22412176 -0.0033248463 1.161
-0.21524256 -0.0057675899 1.1609999
-0.20539406 -0.0079389168 1.1610001
-0.19745514 -0.0091602895 1.161
-0.17302769 -0.0081424797 1.161
-0.16619386 -0.0072700712 1.1610001
-0.15877835 -0.0091602895 1.161
-0.061699975 -0.0036644668 1.1614001
-0.055532198 -0.0040772515 1.1638571
-0.30256507 0.0071457098 1.165
-0.29487324 0.0042201481 1.1627142
-0.28736168 0.0016963501 1.161
-0.23104286 0.00101781 1.161
-0.22493601 0.0020356199 1.1610001
-0.21781135 0.0020356199 1.161
-0.062265791 0.0044796988 1.1643846
-0.057105191 0.002251806 1.1674001
-0.31176722 0.015840052 1.166
-0.3060798 0.013825159 1.1621429
-0.061278999 0.011234484 1.1650001
-0.32722592 0.029007586 1.161
-0.092111804 0.028498679 1.161
-0.084274679 0.026361277 1.1609999
-0.075225405 0.028036039 1.1610001
-0.064885385 0.028753132 1.1610001
-0.33326548 0.036578696 1.1669999
-0.32695633 0.035934567 1.16275
-0.093560688 0.035872139 1.1620525
-0.08466506 0.035705823 1.1635604
-0.074384019 0.035664868 1.1622801
-0.064406224 0.035855815 1.163
-0.058015171 0.039694589 1.161
-0.33277479 0.045238633 1.169
-0.32590005 0.045216192 1.1633999
-0.094813526 0.044554524 1.1659412
-0.084580839 0.044489235 1.167353
-0.07458277 0.044954412 1.1654003
-0.065350905 0.044928946 1.1647501
-0.3318378 0.051856063 1.169
-0.32498664 0.054812532 1.1650001
-0.31857452 0.054961741 1.161
-0.097025082 0.050044518 1.1650001
-0.073113114 0.052249733 1.1686363
-0.065605462 0.053330369 1.1670002
-0.32355136 0.063685447 1.1689999
-0.31637585 0.065680161 1.1645555
-0.32360756 0.076376267 1.1685555
-0.31608614 0.073916152 1.1641428
-0.33286983 0.084589042 1.1625999
-0.3253814 0.081597939 1.1635001
-0.31857452 0.080406986 1.161
-0.34304771 0.096990183 1.1668181
-0.33652496 0.094471283 1.1610001
-0.34372574 0.10186744 1.169
-0.33572927 0.10584395 1.1634616
-0.33406281 0.11340363 1.1680001
-0.32620239 0.11650301 1.164
-0.32476309 0.12441111 1.1679999
-0.31805182 0.12656583 1.1632223
-0.07022889 0.12824406 1.161
-0.068428218 0.12970722 1.1650001
-0.32419556 0.13529252 1.1671538
-0.31596261 0.13409032 1.1628668
-0.07084506 0.13456093 1.1615715
-0.066677518 0.13663447 1.1666
-0.33299103 0.14757954 1.1663333
-0.32826287 0.14698867 1.1616668
-0.070907429 0.14690392 1.161
-0.065852448 0.14378777 1.1676667
-0.33274198 0.15313601 1.1678572
-0.32671085 0.15519068 1.1646001
-0.080406986 0.15877835 1.161
-0.074090064 0.15533131 1.1637499
-0.068545692 0.15141612 1.1670001
-0.32340825 0.16387945 1.1665
-0.31669515 0.16713694 1.1625
-0.09058509 0.16997427 1.161
-0.084384635 0.16524553 1.1640769
-0.077499956 0.16217194 1.1683334
-0.3207697 0.1711455 1.169
-0.31450579 0.1742153 1.1666666
-0.30739236 0.17696422 1.1623334
-0.09381789 0.17517219 1.1658001
-0.088854551 0.17055988 1.1650001
-0.3112047 0.18446819 1.169
-0.30487785 0.18474698 1.1675
-0.29720491 0.18664427 1.1634001
-0.10304463 0.18671055 1.1638
-0.098287486 0.18387644 1.1661431
-0.29321188 0.1941822 1.1670001
-0.28674188 0.19745734 1.164
-0.1110687 0.19666524 1.1623334
-0.1067303 0.19281915 1.1661999
-0.290025 0.2018902 1.169
-0.28435647 0.20356512 1.167909
-0.27615547 0.20665121 1.1658
-0.26689678 0.20832187 1.1619999
-0.11094129 0.20254418 1.161
-0.1081646 0.20438929 1.1676668
-0.27362785 0.21077199 1.169
-0.2643905 0.21426336 1.1669999
-0.25907162 0.21482162 1.1650001
-0.11463679 0.21500111 1.1634001
-0.25518101 0.22238666 1.169
-0.24375522 0.22540379 1.1634001
-0.23441277 0.22771129 1.1632859
-0.22748053 0.22849834 1.161
-0.13129748 0.22900724 1.161
-0.1242843 0.22613354 1.1636667
-0.11808302 0.22378349 1.1667778
-0.23468454 0.23161006 1.169
-0.22399302 0.23384562 1.1657271
-0.21586603 0.23633091 1.1670001
-0.20763324 0.23714973 1.161
-0.19541952 0.23918535 1.161
-0.14147559 0.23918535 1.161
-0.13531655 0.23495814 1.1630952
-0.12824704 0.23256584 1.1666
-0.20256785 0.24144627 1.1670001
-0.19443916 0.2439256 1.1655715
-0.18529667 0.24705727 1.1626
-0.14434011 0.2458121 1.1628827
-0.13749886 0.24287823 1.1670001
-0.18441144 0.25244209 1.1670001
-0.17530042 0.25446931 1.1631818
-0.16501409 0.25569722 1.1643333
-0.15478273 0.25500363 1.1652106
-0.14620978 0.25248498 1.1681111
-0.19914448 -0.050559998 1.177
-0.18057142 -0.051591836 1.177
-0.17670205 -0.052365713 1.177
-0.24213652 -0.042530607 1.1736668
-0.23835427 -0.047464486 1.177
-0.22425252 -0.040929522 1.177
-0.21488498 -0.04362765 1.1754763
-0.20511107 -0.044324089 1.1757201
-0.19522962 -0.043998178 1.1766522
-0.1847831 -0.043797113 1.176158
-0.17508774 -0.044291686 1.1748335
-0.16685551 -0.043216158 1.1736668
-0.2419299 -0.036032461 1.1743335
-0.23514485 -0.034281813 1.1754001
-0.22518861 -0.034940068 1.1741766
-0.21504951 -0.035477385 1.1730002
-0.20463768 -0.03496322 1.1730002
-0.19435439 -0.03496322 1.1730002
-0.18554012 -0.03525703 1.1730002
-0.17841525 -0.037534047 1.1730001
-0.15287839 -0.033934891 1.1730002
-0.14705119 -0.031878229 1.1730001
-0.2369566 -0.028058721 1.1730002
-0.20360933 -0.027764915 1.1730002
-0.19641103 -0.02879324 1.1730002
-0.1511645 -0.029821569 1.1730001
-0.14705119 -0.029821569 1.1730001
-0.29718736 -0.0010283299 1.1730001
-0.2879324 -0.0092549697 1.1730001
-0.051130999 -0.0017150523 1.1743335
-0.048496325 -0.0010318366 1.177
-0.31058285 0.0072228564 1.177
-0.30952734 0.0092549697 1.1730001
-0.054623052 0.0024041121 1.1756667
-0.31364065 0.01336829 1.1730001
-0.30952734 0.01131163 1.1730001
-0.3362639 0.046274852 1.1730001
-0.091521367 0.04833151 1.1730001
-0.087509744 0.048386451 1.1743335
-0.33574703 0.055376519 1.1740668
-0.09484569 0.053611383 1.1760001
-0.084793352 0.053855773 1.1763334
-0.076485656 0.056186814 1.1744287
-0.063345306 0.057468127 1.1735716
-0.33279935 0.064324401 1.1752859
-0.32639194 0.068075448 1.1730001
-0.09344507 0.064244755 1.1756668
-0.088995911 0.065779589 1.177
-0.07419426 0.062926121 1.1766924
-0.064687282 0.064601213 1.1761304
-0.33178139 0.074953124 1.1758573
-0.32629815 0.07344836 1.1734002
-0.092549697 0.07095477 1.1730001
-0.088661678 0.072166324 1.1760001
-0.062483445 0.073489696 1.177
-0.33420724 0.081238069 1.1730001
-0.3512584 0.10507026 1.1750001
-0.34599158 0.10606387 1.1746001
-0.3428255 0.11152748 1.1743335
-0.33705115 0.11696073 1.1747143
-0.33329263 0.12428565 1.1744287
-0.32803726 0.12854125 1.1730001
-0.33100513 0.13395806 1.174143
-0.32803726 0.13368289 1.1730001
-0.064585663 0.13431749 1.1747143
-0.33947426 0.14961632 1.177
-0.062322859 0.14600895 1.1764287
-0.34095758 0.15451251 1.1750001
-0.33649394 0.15661985 1.1738002
-0.07095477 0.15939115 1.1730001
-0.067847863 0.15528871 1.1762002
-0.33325198 0.16250157 1.1756667
-0.32766205 0.16702236 1.1746
-0.082266398 0.16864613 1.1730001
-0.074666895 0.16517125 1.1755456
-0.069133058 0.16199836 1.177
-0.32455716 0.1738316 1.1752857
-0.3181653 0.17831242 1.1730001
-0.093684398 0.17810331 1.1743335
-0.085788622 0.17287011 1.1755
-0.079451419 0.17025305 1.177
-0.32090122 0.18057142 1.177
-0.315718 0.1839094 1.1746
-0.09769135 0.18612772 1.1730001
-0.311584 0.19024105 1.1730001
-0.30370045 0.19389267 1.1743335
-0.29701349 0.19720937 1.1736668
-0.1039243 0.19668674 1.1756667
-0.097491078 0.19510226 1.1761112
-0.30095235 0.20189603 1.177
-0.29443386 0.20311889 1.1747779
-0.28553295 0.20806544 1.1730001
-0.11021891 0.20499359 1.1750001
-0.10507363 0.20425431 1.1767143
-0.09769135 0.20052435 1.1730001
-0.28073409 0.21080765 1.1730001
-0.27452165 0.21524903 1.1747779
-0.26770857 0.21834874 1.1730001
-0.11109442 0.21909332 1.177
-0.10834285 0.21978121 1.177
-0.26286617 0.22271572 1.1743335
-0.25630465 0.22630712 1.174143
-0.2467992 0.22880343 1.1730001
-0.11400156 0.22573975 1.1758001
-0.10782693 0.22597224 1.177
-0.2507363 0.23009957 1.177
-0.24392432 0.23258816 1.1756667
-0.23424095 0.23607533 1.1747779
-0.22383316 0.23891532 1.1730001
-0.2159493 0.23960088 1.1730001
-0.1305979 0.23960088 1.1730001
-0.12463727 0.2344459 1.1750001
-0.11762938 0.2311314 1.177
-0.10731101 0.23009957 1.177
-0.22390856 0.24179374 1.177
-0.2146825 0.24355499 1.1762002
-0.20544493 0.2456065 1.1746669
-0.19692519 0.24937002 1.1730001
-0.13445525 0.24568476 1.1747779
-0.12897958 0.24248162 1.177
-0.20223999 0.2507363 1.177
-0.19453396 0.25343892 1.1758573
-0.18599771 0.25703195 1.1743335
-0.14363043 0.25648054 1.1740911
-0.13826612 0.2538318 1.177
-0.18160325 0.26105466 1.177
-0.17504096 0.26153114 1.1745001
-0.16531774 0.26228815 1.1742002
-0.15571456 0.26336035 1.1750002
-0.14704038 0.26144683 1.1756667
-0.21427874 -0.062392499 1.189
-0.20591283 -0.063015193 1.189
-0.19387834 -0.061499044 1.189
-0.18866655 -0.061499044 1.189
-0.23309223 -0.052030746 1.187
-0.22459936 -0.052150268 1.1850002
-0.2148122 -0.055004358 1.1837199
-0.20499803 -0.055289622 1.1837271
-0.19487634 -0.055137489 1.1848458
-0.18569693 -0.054742217 1.1833529
-0.17290233 -0.050731823 1.1810001
-0.24123497 -0.042449076 1.1810001
-0.23493697 -0.044304252 1.1823912
-0.22565256 -0.046272554 1.18275
-0.2174221 -0.048661135 1.1810001
-0.19257386 -0.048661135 1.1810001
-0.18636179 -0.048661135 1.1810001
-0.2339876 -0.038307704 1.1810001
-0.054118093 0.0047337078 1.1845556
-0.048078448 0.0017302477 1.1836667
-0.31577972 0.011388777 1.1810001
-0.34062797 0.047625795 1.1810001
-0.34062797 0.05901457 1.1810001
-0.092737183 0.056352258 1.1810001
-0.087175906 0.057358019 1.1810001
-0.34108943 0.065319203 1.1826
-0.33786702 0.066607088 1.1810001
-0.094216242 0.067297317 1.1810001
-0.084350027 0.064861223 1.181
-0.076787956 0.067469873 1.181
-0.068332657 0.069368005 1.1810001
-0.34178165 0.072719499 1.1850001
-0.33703622 0.074829295 1.1822
-0.084391005 0.074517824 1.186
-0.075181857 0.074328803 1.1842941
-0.067097671 0.076497398 1.1823334
-0.084778339 0.08373598 1.189
-0.071922608 0.080261461 1.189
-0.063583754 0.082346179 1.189
-0.35261461 0.10889515 1.1830001
-0.3521184 0.1145967 1.1883334
-0.34637475 0.11615443 1.1839091
-0.34338233 0.12528481 1.1838573
-0.33832625 0.12797448 1.182
-0.34323314 0.13386838 1.189
-0.33700582 0.13506867 1.1838572
-0.05901457 0.14805409 1.1810001
-0.063806437 0.1553749 1.1834999
-0.059000254 0.15479304 1.1876667
-0.34094778 0.16518557 1.1850001
-0.33604541 0.16737518 1.1840001
-0.072209567 0.16826124 1.1823335
-0.065998502 0.16473129 1.1861764
-0.33336064 0.17433456 1.1867143
-0.32772255 0.17734528 1.1830001
-0.091110215 0.1791144 1.1810001
-0.084607005 0.17718318 1.1850001
-0.076398872 0.17330098 1.1850002
-0.068795539 0.17198884 1.189
-0.32496542 0.18358505 1.1858001
-0.31888574 0.18636179 1.1810001
-0.09449283 0.1853545 1.1845001
-0.084430896 0.1803277 1.189
-0.31112725 0.19497593 1.1830001
-0.30791354 0.19636054 1.1826001
-0.10042831 0.19878592 1.1810001
-0.095237382 0.19234329 1.1834
-0.3054105 0.20430191 1.189
-0.29712427 0.20787901 1.1836667
-0.10249899 0.20534308 1.1810001
-0.2929557 0.21088655 1.1850001
-0.28537881 0.21505232 1.1860911
-0.27643666 0.21845745 1.1810001
-0.28039393 0.22202197 1.189
-0.27462277 0.22486815 1.1862309
-0.2664668 0.22776699 1.1850001
-0.11243828 0.22549777 1.1810001
-0.1076757 0.2246695 1.1810001
-0.27413979 0.23036082 1.189
-0.26520726 0.23353927 1.1882001
-0.25525075 0.23507039 1.1841111
-0.24591586 0.23741695 1.1826001
-0.23853399 0.23956934 1.1830001
-0.12397631 0.23862405 1.1827143
-0.11481636 0.23509307 1.18525
-0.10865187 0.23550028 1.186
-0.25433505 0.24182676 1.189
-0.24495381 0.2431297 1.189
-0.23422234 0.24461299 1.1850001
-0.2256442 0.24572851 1.181923
-0.21500629 0.24848239 1.1810001
-0.20810401 0.24951774 1.1810001
-0.13247573 0.24800579 1.1836667
-0.12611435 0.24461396 1.1856667
-0.11987101 0.24078439 1.189
-0.23244554 0.25120795 1.189
-0.22477032 0.25182778 1.187
-0.214645 0.25337014 1.1874001
-0.20576493 0.25635549 1.1858001
-0.19613664 0.25725576 1.1816669
-0.18946783 0.25987118 1.1810001
-0.13421932 0.25519478 1.18575
-0.20221719 0.26163152 1.189
-0.19416754 0.26262936 1.1872224
-0.18503305 0.26513994 1.1850001
-0.1753335 0.26766211 1.1834002
-0.16653453 0.26776645 1.1823334
-0.15374915 0.26769203 1.1815716
-0.14383964 0.26676694 1.18575
-0.13730891 0.26405939 1.1878573
-0.17422698 0.2724449 1.1876668
-0.16436537 0.27186623 1.1855716
-0.15515299 0.27282292 1.1878
-0.14697228 0.27205509 1.189
-0.20254886 -0.065192141 1.1930001
-0.19766818 -0.064096481 1.193
-0.061912831 0.0094443299 1.197
-0.054646358 0.008628373 1.193
-0.047105052 0.0049748644 1.194
-0.056141295 0.01154307 1.197
-0.082623206 0.07843975 1.1930001
-0.07843975 0.07843975 1.1930001
-0.083156481 0.084935583 1.1960771
-0.074540563 0.085091665 1.1931742
-0.066079549 0.086046025 1.193
-0.081747852 0.094325386 1.1955001
-0.075127237 0.094449632 1.1963688
-0.066551276 0.093278646 1.1955
-0.35454768 0.11818255 1.1930001
-0.35175872 0.12166876 1.1930001
-0.3482725 0.13282464 1.1930001
-0.056825239 0.15722813 1.1930001
-0.34408903 0.168384 1.1930001
-0.062472139 0.16787495 1.1943334
-0.057761084 0.16421267 1.1943333
-0.34244442 0.17454521 1.197
-0.33757406 0.177422 1.194
-0.073097341 0.17761758 1.1945999
-0.065529518 0.17326376 1.1960001
-0.059814088 0.17104732 1.197
-0.32425532 0.18993597 1.197
-0.093081839 0.18668661 1.193
-0.085996874 0.18529382 1.195154
-0.076604009 0.18154101 1.197
-0.093393929 0.19203471 1.197
-0.2938236 0.21669491 1.197
-0.28857675 0.21931833 1.197
-0.29067549 0.22141707 1.197
-0.28433368 0.22495294 1.1953334
-0.2792455 0.22904406 1.1930001
-0.28228053 0.23191077 1.197
-0.27808306 0.23610824 1.197
-0.26629832 0.23767398 1.1943334
-0.11399911 0.2395027 1.1930001
-0.26310083 0.24143487 1.1956667
-0.25480777 0.24643187 1.1947143
-0.24499814 0.24709187 1.1935713
-0.23845685 0.24891546 1.1930001
-0.12325123 0.24781504 1.194
-0.11502691 0.24346788 1.1949999
-0.10981565 0.24159443 1.1930001
-0.24345383 0.25079942 1.197
-0.23457281 0.25493252 1.1952858
-0.22516218 0.25762886 1.1946001
-0.21705863 0.25766477 1.1938
-0.13073291 0.25728238 1.1930001
-0.12691215 0.25367689 1.1964285
-0.21371718 0.26254275 1.1958572
-0.20463504 0.26469839 1.1950001
-0.19583735 0.26705423 1.1946001
-0.18930127 0.26878688 1.1930001
-0.13327934 0.26551703 1.1946
-0.18506755 0.27288249 1.1956667
-0.17530061 0.27657256 1.1950001
-0.16549025 0.27721992 1.1958572
-0.15478778 0.27715379 1.1930001
-0.14607225 0.27471343 1.193
-0.13708854 0.27287063 1.1960001
-0.15845487 0.2801818 1.197
-0.044269916 0.0081021525 1.2055558
-0.039118621 0.0095153395 1.2060001
-0.06026382 0.01374438 1.2060001
-0.054242875 0.013737951 1.2053334
-0.046344858 0.012228497 1.2054287
-0.035946839 0.01162986 1.2060001
-0.072791971 0.098107763 1.2033334
-0.065332711 0.096945301 1.202
-0.074672714 0.10144144 1.2053334
-0.06621062 0.10180729 1.2042859
-0.055848926 0.16860053 1.202
-0.35291341 0.1748708 1.2060001
-0.34692538 0.17619276 1.2046667
-0.062473018 0.17664191 1.2033334
-0.05738017 0.17284769 1.2046667
-0.34222612 0.18245274 1.2030001
-0.33560601 0.18551174 1.2041818
-0.32982481 0.18862185 1.202
-0.083315775 0.18772502 1.2030001
-0.075601988 0.18426013 1.2033335
-0.065671802 0.1809745 1.2044001
-0.33197963 0.19242132 1.2060001
-0.32509956 0.19476694 1.2048002
-0.091676541 0.19283687 1.202
-0.087603547 0.19210047 1.204
-0.31375372 0.20407046 1.2030001
-0.30531812 0.214744 1.2045881
-0.29715845 0.21812694 1.202
-0.10466874 0.21250926 1.2060001
-0.30290499 0.22149596 1.2060001
-0.29544052 0.22451793 1.2038667
-0.28925529 0.22708385 1.202
-0.29286101 0.23153992 1.2060001
-0.2844632 0.23515277 1.2038181
-0.27551496 0.23754337 1.2032001
-0.27383032 0.24211253 1.2060001
-0.26672193 0.24560168 1.2046667
-0.25711581 0.24973954 1.202
-0.11591286 0.2481589 1.202
-0.26114321 0.25057063 1.2060001
-0.25328928 0.25419548 1.2060002
-0.24529867 0.25437921 1.2040001
-0.23894075 0.2590287 1.2060001
-0.12375046 0.25630206 1.2042222
-0.11735586 0.25127545 1.2060001
-0.23365445 0.26114321 1.2060001
-0.22396617 0.26447743 1.2045456
-0.21524562 0.26803225 1.2042222
-0.20653565 0.26818022 1.202
-0.13004299 0.26854402 1.2060001
-0.12828715 0.2624577 1.2037144
-0.20405118 0.27171582 1.2060001
-0.19482766 0.27288154 1.2031429
-0.18524581 0.27812514 1.204
-0.1717618 0.27924463 1.202
-0.1455363 0.27842143 1.2030001
-0.13308327 0.27543482 1.2037778
-0.18290597 0.28087875 1.2060001
-0.17492306 0.28135213 1.202
-0.16521408 0.28270805 1.2037779
-0.15466094 0.28294221 1.2037779
-0.14273009 0.28101972 1.2060001
-0.13578239 0.28108013 1.2060002
-0.060563639 0.017002072 1.2120001
-0.055694133 0.017149353 1.2117144
-0.045133896 0.016242476 1.2103077
-0.036220565 0.015948253 1.2125386
-0.060913429 0.020304477 1.2190001
-0.053460263 0.020867545 1.216143
-0.044791535 0.021331489 1.2165
-0.035241559 0.021893581 1.2181667
-0.027354337 0.02309286 1.2156669
-0.082527652 0.10247006 1.21
-0.075107537 0.10670199 1.2107058
-0.067120232 0.10744777 1.2105001
-0.074324682 0.11469205 1.2161428
-0.066113889 0.11431701 1.2145455
-0.053321056 0.16956794 1.2165
-0.054135647 0.17503621 1.2146153
-0.35301292 0.18452138 1.219
-0.3451485 0.18746179 1.21325
-0.33838457 0.18987723 1.21
-0.081679031 0.18987723 1.21
-0.07371641 0.18748815 1.2128334
-0.064956315 0.18564439 1.2146666
-0.057647191 0.18255289 1.2177501
-0.34452465 0.19519597 1.2166922
-0.33618674 0.19605219 1.2110001
-0.32777691 0.19836336 1.21
-0.084423877 0.19342686 1.2190001
-0.078916222 0.19089723 1.2165
-0.34161392 0.20268853 1.2190001
-0.33431125 0.20369239 1.2176363
-0.32445407 0.20425034 1.2134376
-0.31610674 0.2066451 1.2105715
-0.32380295 0.21052535 1.2190001
-0.31452706 0.21527176 1.214125
-0.3086831 0.2195787 1.21
-0.1113805 0.21745716 1.21
-0.10609917 0.21752642 1.2143334
-0.3152537 0.22121193 1.2190001
-0.30530792 0.22643265 1.2126
-0.10855588 0.22030458 1.2140001
-0.3027288 0.23229386 1.2173334
-0.2945497 0.23476458 1.2117144
-0.28746778 0.23867249 1.21
-0.2924557 0.24258506 1.2190001
-0.28542376 0.24375054 1.2153333
-0.27628556 0.24600066 1.2121251
-0.26625243 0.24928017 1.21
-0.27313882 0.25221068 1.2180001
-0.26486829 0.25568491 1.2163845
-0.25660121 0.25766021 1.2120001
-0.24645145 0.25918067 1.21
-0.12198816 0.25988784 1.21
-0.11463523 0.2562139 1.2146193
-0.25447035 0.26276749 1.2167778
-0.24474925 0.26371643 1.2167777
-0.23515882 0.26521665 1.2137501
-0.22700407 0.26837397 1.21
-0.12454284 0.26583698 1.2142727
-0.11677682 0.26181826 1.2165
-0.23296715 0.27037013 1.2190001
-0.22472548 0.27291894 1.2148751
-0.21460889 0.27496785 1.2135454
-0.2053725 0.27624241 1.2138001
-0.19594587 0.27746886 1.2108001
-0.1304743 0.27792084 1.21
-0.12713015 0.27389187 1.2165999
-0.20304477 0.2810567 1.2190001
-0.19483258 0.28290361 1.2177501
-0.18463856 0.28566366 1.2143334
-0.17495781 0.28694832 1.2127779
-0.16441885 0.28746778 1.21
-0.15487194 0.28746778 1.21
-0.14532503 0.28659421 1.21
-0.13445903 0.28593597 1.2125001
-0.12930745 0.28212535 1.2190001
-0.17419104 0.29174328 1.2190001
-0.16575147 0.29179686 1.2158751
-0.15455797 0.29179686 1.215875
-0.14503706 0.29399028 1.2165002
-0.13747682 0.2909455 1.2156668
-0.06131319 0.023664739 1.2270001
-0.055432331 0.024495119 1.2254002
-0.044754125 0.02613879 1.2252223
-0.035628755 0.027036255 1.2253336
-0.026253035 0.028096039 1.2258571
-0.023664739 0.03119443 1.2270001
-0.067175902 0.11876598 1.2260001
-0.073145561 0.12155071 1.2270001
-0.06669154 0.12155071 1.2270001
-0.051010162 0.17666191 1.2250001
-0.048405148 0.1721072 1.2270001
-0.35560083 0.18476947 1.223
-0.065401964 0.1897729 1.223
-0.055675972 0.18482426 1.2247144
-0.35145515 0.19363269 1.223
-0.094350368 0.19835022 1.223
-0.083902262 0.19577193 1.2270001
-0.074379608 0.19424801 1.2256668
-0.066097602 0.19238801 1.2260002
-0.34356499 0.20712291 1.2241429
-0.33594453 0.20835708 1.223
-0.095734626 0.20115028 1.2270001
-0.34313872 0.21190698 1.2270001
-0.33362952 0.21227871 1.225
-0.32311106 0.21550484 1.2229999
-0.31843251 0.21764916 1.223
-0.10370563 0.21664448 1.2246001
-0.32057685 0.22408214 1.223
-0.31484258 0.22575951 1.2243334
-0.10549192 0.22409301 1.2254002
-0.30482283 0.23577805 1.2243334
-0.29698923 0.23909242 1.223
-0.29437432 0.24541494 1.2246001
-0.28583878 0.24938519 1.223
-0.29258221 0.25063109 1.2270001
-0.28400755 0.25347814 1.2262001
-0.2754961 0.25587481 1.2241429
-0.11061342 0.25344259 1.2250001
-0.10840655 0.25652406 1.2243334
-0.2721445 0.2613878 1.2270001
-0.26520932 0.26354071 1.2247778
-0.2558116 0.26833424 1.2243334
-0.24644439 0.26850036 1.2230002
-0.23909242 0.269113 1.223
-0.12115446 0.26804084 1.223
-0.11489412 0.2665475 1.2248461
-0.10840655 0.26296875 1.2243334
-0.25278243 0.27268234 1.2270001
-0.24440415 0.27271375 1.2263335
-0.23583314 0.27427974 1.2250001
-0.22647543 0.27799305 1.2243334
-0.21657699 0.27983463 1.223
-0.12371629 0.2753461 1.2245002
-0.11939937 0.27322018 1.2270001
-0.22158802 0.28074986 1.2270001
-0.21418543 0.28331089 1.2256669
-0.20522341 0.28559765 1.2247142
-0.19627398 0.288326 1.2256669
-0.1897729 0.28841195 1.223
-0.12740615 0.28339005 1.2254002
-0.19039358 0.29150656 1.2270001
-0.18435453 0.29282299 1.225
-0.17579322 0.29599401 1.2242
-0.16502403 0.29676011 1.2250001
-0.15553732 0.29651532 1.2235715
-0.14418274 0.29659826 1.2243334
-0.13505489 0.29394406 1.2246001
-0.17103153 0.30011192 1.2270001
-0.14844246 0.30011192 1.2270001
-0.061662979 0.028128726 1.2340001
-0.055152413 0.028386904 1.2335001
-0.046442289 0.02916144 1.2320001
-0.033481654 0.02916144 1.2320001
-0.051594753 0.032111716 1.2346667
-0.044380639 0.033559076 1.2347693
-0.035348076 0.033367395 1.2343335
-0.026272196 0.035084449 1.2340001
-0.02275476 0.04117528 1.2360001
-0.070203468 0.12420613 1.2320001
-0.066963308 0.12420613 1.2320001
-0.046041828 0.17357089 1.2328001
-0.052377075 0.18649206 1.2337143
-0.048760198 0.18203807 1.2360001
-0.091804534 0.19980986 1.2320001
-0.086044252 0.19872981 1.2320002
-0.074215099 0.19888411 1.2320002
-0.064095736 0.19661969 1.2340001
-0.058055788 0.19328456 1.2340001
-0.095075548 0.20379484 1.2352002
-0.085601233 0.20175889 1.2360001
-0.076811776 0.20121428 1.2340001
-0.34275565 0.21611936 1.2346668
-0.33493811 0.21780297 1.2346667
-0.32833037 0.21804804 1.2333335
-0.1014639 0.21605678 1.233143
-0.32077584 0.22789125 1.2320001
-0.31861573 0.22789125 1.2320001
-0.10222897 0.22582845 1.2340002
-0.31516692 0.23367083 1.2340001
-0.30889523 0.23761174 1.2320001
-0.10718565 0.2316951 1.2350001
-0.30310124 0.24461804 1.2354287
-0.29809472 0.24733222 1.2320001
-0.29425141 0.25422454 1.2340001
-0.28633967 0.25690469 1.2344002
-0.27973381 0.25813276 1.2320001
-0.11124549 0.25165242 1.2320001
-0.10817891 0.25639167 1.2340001
-0.28064203 0.26113796 1.2360001
-0.27630779 0.26330507 1.2360001
-0.2674228 0.26850635 1.2350001
-0.11124549 0.26893327 1.2320001
-0.10659721 0.2654765 1.2337779
-0.26330507 0.27197355 1.2360001
-0.25524238 0.27608603 1.2350001
-0.24566597 0.27700388 1.2326669
-0.23329152 0.27973381 1.2320001
-0.12204602 0.27865374 1.2320001
-0.11593078 0.27451161 1.2333335
-0.10943956 0.27197355 1.2360001
-0.243801 0.28064203 1.2360001
-0.23513252 0.28172559 1.2360001
-0.22465403 0.28415632 1.2340002
-0.21696681 0.28796628 1.2333335
-0.12474316 0.2848886 1.234286
-0.21274859 0.2917836 1.2350001
-0.2059027 0.29244959 1.2340001
-0.19561379 0.29331794 1.2328001
-0.18592085 0.29725575 1.233
-0.14148699 0.29917479 1.2320001
-0.13422748 0.29547665 1.2328001
-0.12894364 0.29147765 1.2360001
-0.1837464 0.30178899 1.2353334
-0.17575613 0.3031323 1.2342857
-0.16535686 0.30153054 1.2328001
-0.15425126 0.30238336 1.2333335
-0.1447005 0.30259305 1.2336
-0.13752165 0.30211756 1.2352002
-0.060029749 0.03601785 1.245
-0.055394061 0.035167862 1.2424287
-0.045330971 0.037715364 1.2410001
-0.033034846 0.037393633 1.2423334
-0.051298149 0.041475099 1.245
-0.044749446 0.041475095 1.245
-0.034719758 0.043963745 1.2445296
-0.025515035 0.045145698 1.2438002
-0.017994022 0.047442131 1.244
-0.022374725 0.051843874 1.245
-0.016371749 0.054299634 1.245
-0.015644116 0.062940277 1.245
-0.044605672 0.1784227 1.2410001
-0.044441447 0.18467519 1.2432222
-0.05340641 0.19603607 1.2432858
-0.048178971 0.19250318 1.2434
-0.092523694 0.20827144 1.2416668
-0.084996343 0.20649926 1.243
-0.078779899 0.20439161 1.2423334
-0.094196469 0.21479112 1.2430003
-0.087861724 0.21228702 1.245
-0.34052625 0.22302838 1.2410001
-0.33554831 0.22375202 1.2432858
-0.32811719 0.22535086 1.2418001
-0.096241571 0.22356842 1.2440001
-0.31819317 0.23646417 1.243
-0.10301759 0.23618168 1.2427778
-0.098295256 0.23413549 1.2438571
-0.31106326 0.24339335 1.245
-0.30742511 0.24775915 1.245
-0.11023645 0.2488506 1.245
-0.10718039 0.24382992 1.245
-0.30293745 0.25171992 1.243
-0.29578295 0.25867364 1.245
-0.10591606 0.2545535 1.243
-0.29141715 0.26085654 1.245
-0.28555855 0.26330703 1.2442
-0.27896059 0.26588774 1.243
-0.10284907 0.2634854 1.2436666
-0.26303944 0.27613685 1.245
-0.25784257 0.27960142 1.2410001
-0.11217622 0.27844891 1.2423334
-0.1050007 0.2754057 1.2433333
-0.25369507 0.2825501 1.2420001
-0.24498381 0.28494754 1.2432224
-0.23492299 0.28670725 1.2435
-0.22762446 0.28788945 1.2423334
-0.121487 0.28757969 1.2410001
-0.11545737 0.28498515 1.2441429
-0.10805355 0.28050265 1.245
-0.22356753 0.29227453 1.244
-0.21543996 0.29613611 1.2438573
-0.20453335 0.29700851 1.2410001
-0.19474186 0.29809648 1.2410001
-0.13164115 0.29918441 1.2410001
-0.12443801 0.29466051 1.2433333
-0.11896805 0.2925086 1.245
-0.2051926 0.30014876 1.245
-0.19434635 0.3021929 1.2444285
-0.18592961 0.3071804 1.2444286
-0.17549762 0.30848342 1.2434
-0.16505714 0.30747223 1.2432222
-0.15617129 0.30752254 1.2432858
-0.14498051 0.30848342 1.2434001
-0.13414206 0.30583522 1.2415
-0.12879109 0.30233166 1.245
-0.16480894 0.31106326 1.245
-0.14297995 0.31106326 1.245
-0.13643125 0.31106326 1.245
-0.06136667 0.035066664 1.25
-0.060270835 0.040545832 1.25
-0.054558109 0.044131469 1.2530833
-0.045044471 0.047243271 1.2531334
-0.036162499 0.049312498 1.25
-0.0295875 0.049312498 1.25
-0.043045208 0.051874995 1.2590001
-0.034998231 0.054806575 1.2552668
-0.025903309 0.055505607 1.250625
-0.018629167 0.056983329 1.25
-0.024803452 0.064398341 1.2546366
-0.016626349 0.065042458 1.2504166
-0.02260967 0.072236896 1.2580001
-0.016545914 0.072807752 1.2583333
-0.040545832 0.17862083 1.25
-0.037258334 0.177525 1.25
-0.041303422 0.18568604 1.2508334
-0.038507584 0.18263596 1.2550001
-0.044653747 0.19435336 1.2525001
-0.097529165 0.20930417 1.25
-0.082187496 0.20930417 1.25
-0.075338095 0.20764697 1.2576667
-0.066121705 0.20441632 1.2570001
-0.083955556 0.21536614 1.2546667
-0.078364357 0.21081115 1.2590001
-0.34216738 0.22774485 1.2550001
-0.33600003 0.22893712 1.2525001
-0.092740625 0.22582252 1.2511111
-0.087449543 0.22370966 1.2556667
-0.34105051 0.23067817 1.2590001
-0.33383399 0.23552781 1.2567693
-0.32679152 0.23507576 1.253
-0.3188875 0.23998749 1.25
-0.093902394 0.23553666 1.2543334
-0.089033686 0.23546098 1.2589999
-0.34243801 0.24270965 1.2560002
-0.339405 0.24573931 1.2570001
-0.32389918 0.24375142 1.2581111
-0.31524357 0.24700359 1.2554286
-0.10446944 0.24619722 1.25
-0.096632123 0.24530809 1.2534707
-0.31296122 0.25235111 1.2570001
-0.30518651 0.2568002 1.2545
-0.1021134 0.2545577 1.2525001
-0.095869042 0.25492179 1.2570001
-0.30131647 0.26158243 1.2590001
-0.29440942 0.26554298 1.25425
-0.2862606 0.26868519 1.253
-0.10092274 0.26509923 1.25475
-0.097495556 0.26415777 1.2589999
-0.29248667 0.27151594 1.2590001
-0.28418079 0.2731548 1.2574002
-0.27571079 0.27425122 1.2552222
-0.26810661 0.27688494 1.2516667
-0.10119538 0.27373567 1.2520001
-0.098789923 0.27573413 1.255625
-0.27041221 0.28144944 1.2590001
-0.26548648 0.28311071 1.2565715
-0.25573415 0.28691196 1.2520001
-0.24875416 0.28820416 1.25
-0.11155583 0.28645083 1.25
-0.10450588 0.28577322 1.2517649
-0.097722523 0.28363994 1.2556667
-0.25275266 0.29138297 1.2590001
-0.24534832 0.2915574 1.2550001
-0.23559152 0.29273266 1.2532856
-0.22689712 0.29606262 1.2523333
-0.21807083 0.29916251 1.25
-0.12273333 0.29916251 1.25
-0.114652 0.29518652 1.2511765
-0.10593516 0.29394698 1.2565833
-0.098231375 0.29027924 1.2590001
-0.22332776 0.30162901 1.2580001
-0.21403685 0.3042728 1.2552501
-0.20494187 0.30528083 1.2531111
-0.1960519 0.30687717 1.2516667
-0.13040416 0.30792916 1.25
-0.12450367 0.30457029 1.2524
-0.11568756 0.30299854 1.2568183
-0.10926861 0.30131647 1.2590001
-0.19495875 0.31170863 1.2564001
-0.18486807 0.31370959 1.2533749
-0.17470257 0.31549963 1.2546667
-0.16515407 0.31530499 1.2531667
-0.15512751 0.31576636 1.255
-0.14584957 0.31441328 1.2540001
-0.13296294 0.31373775 1.2535
-0.12737748 0.31155372 1.2580001
-0.05651344 0.049310744 1.2640001
-0.051562529 0.055057168 1.2668571
-0.045039125 0.055983935 1.2662857
-0.038783733 0.058729652 1.2640001
-0.050022598 0.061138734 1.268
-0.043352921 0.062250346 1.268
-0.03548966 0.064322352 1.265
-0.029180141 0.069071978 1.2640001
-0.03379304 0.072254866 1.2679999
-0.025354283 0.076060683 1.2658461
-0.016621599 0.077567466 1.2640001
-0.02284983 0.083618023 1.268
-0.015936486 0.085496902 1.2645
-0.021120653 0.090040676 1.268
-0.014310707 0.094940528 1.2670586
-0.012227746 0.10171263 1.268
-0.035349302 0.18386085 1.268
-0.041064821 0.1931174 1.266
-0.038906466 0.19008587 1.268
-0.072026931 0.20943215 1.2640001
-0.066486403 0.20721595 1.2640001
-0.080891788 0.218297 1.2640001
-0.076084144 0.21353933 1.2670001
-0.082923315 0.22623844 1.2640001
-0.078924544 0.22343427 1.268
-0.34349903 0.23652349 1.2666668
-0.084011547 0.23474726 1.2642667
-0.078183465 0.2341799 1.268
-0.34018874 0.24267536 1.2640001
-0.33494022 0.24362278 1.2647272
-0.32556173 0.24799427 1.2640001
-0.09197285 0.24599968 1.2640001
-0.086446099 0.24411379 1.2653333
-0.33014914 0.25011301 1.268
-0.3234795 0.25159517 1.268
-0.31625402 0.25567105 1.268
-0.30916175 0.25818884 1.2640001
-0.09197285 0.25486451 1.2640001
-0.087577499 0.25464663 1.266857
-0.31014013 0.26122913 1.268
-0.30397677 0.26489711 1.2664001
-0.093209893 0.26530793 1.2646154
-0.087316006 0.2639538 1.2672
-0.29364827 0.27517983 1.2640001
-0.28545433 0.27768943 1.2653333
-0.27813476 0.27813476 1.2640001
-0.093363687 0.27441156 1.2659999
-0.087817453 0.27012205 1.268
-0.28234977 0.28123817 1.268
-0.27492464 0.2842983 1.2662222
-0.26594561 0.28810772 1.2640001
-0.095076829 0.28449175 1.266
-0.26269054 0.29212373 1.2670001
-0.25524396 0.29516524 1.2648
-0.24406601 0.29735231 1.2662858
-0.23751178 0.29855233 1.266
-0.10249986 0.29752663 1.2640001
-0.096854135 0.29476181 1.2666667
-0.23208289 0.30167153 1.2666668
-0.22454588 0.30680525 1.268
-0.21718889 0.30805364 1.2640001
-0.12078363 0.30916175 1.2640001
-0.11203449 0.30726933 1.2653333
-0.10564798 0.30344322 1.2663332
-0.098933585 0.30124721 1.268
-0.22232267 0.31014013 1.268
-0.21427205 0.31152457 1.2664001
-0.20389163 0.31193203 1.2640001
-0.19634409 0.31614354 1.2653333
-0.18948624 0.3180266 1.2640001
-0.14206383 0.31852981 1.266
-0.12563686 0.31502178 1.2657778
-0.11523724 0.31051067 1.268
-0.18424027 0.32074952 1.266
-0.1756988 0.32365364 1.2657778
-0.1644057 0.32354698 1.265
-0.15518653 0.32353157 1.2657144
-0.14527506 0.3204962 1.265
-0.13429131 0.32158321 1.2659999
-0.12783553 0.32125625 1.268
-0.044683702 0.065910645 1.2742499
-0.042782295 0.07414154 1.2774999
-0.035619408 0.077020861 1.2763332
-0.041454058 0.081787743 1.2780001
-0.033974994 0.083628379 1.2775832
-0.026640147 0.085981205 1.2737142
-0.023502119 0.093778692 1.2765
-0.018227944 0.098579705 1.273
-0.013730991 0.10547304 1.2761817
-0.00784266 0.10867686 1.2780001
-0.01232418 0.11091762 1.2780001
-0.036132108 0.18736237 1.2746667
-0.041454058 0.19830726 1.2780001
-0.038054563 0.19363615 1.2767501
-0.06274128 0.20839068 1.2780001
-0.050417099 0.20278879 1.2780001
-0.048176341 0.20278879 1.2780001
-0.074091092 0.21681634 1.274111
-0.067507133 0.21222259 1.2763335
-0.075539097 0.2249988 1.2757272
-0.34707496 0.23659129 1.273
-0.075782046 0.2331616 1.275
-0.34409896 0.24440326 1.273
-0.33703101 0.24886726 1.273
-0.082870945 0.24727717 1.2739999
-0.078986794 0.24368265 1.2780001
-0.333619 0.25391483 1.2746665
-0.32507393 0.25609428 1.2742499
-0.31805906 0.25779521 1.273
-0.082743749 0.25494695 1.2754999
-0.079546981 0.25880778 1.2780001
-0.33051211 0.26328927 1.2780001
-0.32410994 0.26264909 1.278
-0.31532955 0.26389462 1.2754999
-0.30764309 0.2674672 1.273
-0.082849979 0.26445496 1.2752222
-0.079546981 0.26440966 1.2780001
-0.31146562 0.27001157 1.2780001
-0.30375412 0.27339512 1.2758571
-0.090395726 0.27565119 1.273
-0.085566245 0.27497783 1.2759166
-0.079546981 0.27001157 1.2780001
-0.30138221 0.28345615 1.2780001
-0.29352874 0.28358734 1.2763333
-0.28443035 0.28606716 1.273
-0.27788317 0.28904313 1.273
-0.091644861 0.28499833 1.2748749
-0.087763101 0.28196231 1.2780001
-0.2924192 0.29017842 1.2780001
-0.28345615 0.29297936 1.2780001
-0.27401957 0.29513672 1.2772857
-0.26510814 0.29607224 1.2744285
-0.25556323 0.2979711 1.273
-0.093101248 0.29527909 1.2751428
-0.27299926 0.30212915 1.2780001
-0.26247376 0.30276579 1.2767501
-0.25494695 0.30191305 1.2754999
-0.24513228 0.30326557 1.2751428
-0.23587167 0.30518118 1.2751428
-0.10322969 0.30745709 1.273
-0.096557625 0.30433992 1.2757777
-0.22569327 0.31390825 1.277
-0.21572752 0.31587684 1.275
-0.2061692 0.31763786 1.2751428
-0.12270615 0.31814495 1.2763335
-0.11470248 0.31552422 1.2757777
-0.10573514 0.31305152 1.2772857
-0.19306742 0.32029104 1.273
-0.18338507 0.32539281 1.2755001
-0.17074749 0.32698703 1.273
-0.16628349 0.328475 1.273
-0.15308879 0.32741514 1.2746667
-0.14452901 0.32558244 1.2780001
-0.13166042 0.32709923 1.2763335
-0.12675214 0.32347792 1.275
-0.1624551 0.33125901 1.2780001
-0.15573283 0.33051211 1.2780001
-0.046115298 0.073109619 1.2830001
-0.039366715 0.079858199 1.2830001
-0.036011603 0.087774828 1.2836251
-0.033269644 0.093786813 1.2863334
-0.02663766 0.096418291 1.2838334
-0.023697471 0.10438031 1.2871667
-0.018236071 0.10738746 1.2840002
-0.021453787 0.11178552 1.2880001
-0.015301592 0.11450056 1.2858573
-0.01354976 0.12081869 1.2880001
-0.031118453 0.18708563 1.2830001
-0.028119083 0.18783547 1.2830001
-0.034734093 0.19458708 1.2857274
-0.054704096 0.20744084 1.2852223
-0.04450392 0.20586923 1.2864616
-0.03853038 0.2055539 1.2872858
-0.070860088 0.21820408 1.2830001
-0.064910419 0.21547422 1.2855002
-0.058715627 0.21115042 1.2880001
-0.041778427 0.21453786 1.2880001
-0.037907068 0.21373133 1.2880001
-0.071309999 0.22562751 1.2830001
-0.066401042 0.22483589 1.2869285
-0.041778427 0.2224419 1.2880001
-0.039520133 0.2201836 1.2880001
-0.073178656 0.23389533 1.2842501
-0.068125181 0.23222782 1.2880001
-0.077005669 0.24454485 1.2855
-0.32955566 0.25982034 1.2830001
-0.077296406 0.25563329 1.2853334
-0.33116171 0.2672644 1.2863334
-0.32540664 0.2670916 1.2855
-0.31830803 0.26881844 1.2830001
-0.074741095 0.26585159 1.2853334
-0.31421515 0.27405038 1.2846667
-0.30706036 0.27706671 1.2830001
-0.082107723 0.27556702 1.2830001
-0.076955989 0.27442384 1.2846667
-0.30350637 0.28184253 1.2870001
-0.083907254 0.28421226 1.2865001
-0.077911116 0.28115752 1.2880001
-0.28119081 0.29693753 1.2830001
-0.091105826 0.2950629 1.2830001
-0.088449813 0.29094347 1.2880001
-0.28006607 0.3003118 1.2830001
-0.27272093 0.3025907 1.2855
-0.26666573 0.30598447 1.2865715
-0.25352162 0.30751032 1.2830001
-0.24688555 0.30818516 1.2830001
-0.23844981 0.3093099 1.2830001
-0.092556164 0.30580401 1.283625
-0.089202583 0.30374047 1.2880001
-0.26196203 0.31164449 1.2880001
-0.25593993 0.31164452 1.2880001
-0.24615398 0.31164449 1.2880001
-0.23426574 0.31538895 1.2852727
-0.22832696 0.31830803 1.2830001
-0.10288227 0.31653154 1.2840002
-0.095883228 0.31388149 1.2867501
-0.22270313 0.32055753 1.2830001
-0.21398622 0.32196349 1.2830001
-0.2054169 0.3241331 1.2844286
-0.19627754 0.32544431 1.2867501
-0.18558595 0.32843089 1.2830001
-0.14846876 0.32843089 1.2830001
-0.13722113 0.32955566 1.2830001
-0.12313691 0.32581264 1.2843636
-0.11531833 0.32340556 1.2861819
-0.10670435 0.32321823 1.2880001
-0.1863092 0.33083996 1.2880001
-0.17230941 0.33298895 1.2846667
-0.16494541 0.33603352 1.2857778
-0.15492611 0.33502984 1.2857778
-0.14453077 0.33083996 1.2880001
-0.13298288 0.3324517 1.2855
-0.12633841 0.33164585 1.2867501
-0.035714738 0.098069854 1.2932501
-0.032196313 0.1026473 1.2961667
-0.027201943 0.10653881 1.2928333
-0.024080278 0.11459572 1.2942222
-0.013365309 0.11756942 1.2920001
-0.0079285735 0.1189286 1.2920001
-0.021603696 0.12166292 1.2970001
-0.014327692 0.12497672 1.2945
-0.0074983053 0.12566245 1.2960001
-0.012507403 0.13132773 1.2970001
-0.00682222 0.13189624 1.2970001
-0.031177554 0.19670711 1.2932501
-0.027596297 0.19469304 1.2936667
-0.034140352 0.20454551 1.2942727
-0.028425917 0.20125549 1.2970001
-0.060596954 0.21690312 1.2920001
-0.05439936 0.21614024 1.296643
-0.046438783 0.21520412 1.2919999
-0.034722753 0.21561834 1.2945
-0.061618268 0.22379662 1.2936667
-0.05457776 0.22172216 1.2970001
-0.046192192 0.22285679 1.2941428
-0.037886728 0.2230233 1.294
-0.071357161 0.23785719 1.2920001
-0.065707825 0.23521601 1.2947778
-0.073514089 0.246096 1.295125
-0.069359235 0.2452209 1.2970001
-0.072800063 0.25423235 1.2934999
-0.067740649 0.25596029 1.2965
-0.071357161 0.26390824 1.2920001
-0.066982999 0.26471096 1.295077
-0.33087766 0.27402583 1.2970001
-0.32399717 0.27463576 1.2945
-0.31518555 0.27946752 1.2932501
-0.072771572 0.27680871 1.293
-0.067871094 0.27404711 1.29575
-0.32291842 0.28084806 1.2970001
-0.30402678 0.28768498 1.2950001
-0.29788783 0.28882658 1.2920001
-0.08219517 0.28853971 1.2932501
-0.076427907 0.28525868 1.296375
-0.30245173 0.29221842 1.2970001
-0.29788783 0.29109192 1.2920001
-0.085012473 0.29547501 1.2953335
-0.27070415 0.30694905 1.2920001
-0.26843885 0.30694905 1.2920001
-0.085514285 0.30434683 1.2941875
-0.26164293 0.31147966 1.2920001
-0.25484699 0.31544393 1.2920001
-0.24344261 0.31514028 1.294
-0.23898984 0.31601027 1.2920001
-0.09296634 0.31631601 1.2932501
-0.087437861 0.3126623 1.2953334
-0.20161229 0.32733682 1.2920001
-0.19620472 0.32851419 1.2936667
-0.11485104 0.32914907 1.2920001
-0.1047352 0.32736275 1.293
-0.097861782 0.32310444 1.2950001
-0.21035178 0.33087766 1.2970001
-0.20580363 0.33087766 1.2970001
-0.19670732 0.33239368 1.2970001
-0.18497097 0.33364663 1.2945001
-0.17548265 0.33807889 1.2970001
-0.15159231 0.33834508 1.2936667
-0.14533642 0.33678624 1.2942727
-0.1364578 0.33700433 1.2955714
-0.12445613 0.33515975 1.2945
-0.11470526 0.33390349 1.2955
-0.1057444 0.33239368 1.2970001
-0.16335426 0.34224805 1.2970001
-0.15577401 0.34224805 1.2970001
-0.1398555 0.34224802 1.2970001
-0.036688499 0.10582594 1.302
-0.032043044 0.11329133 1.3053334
-0.027209628 0.11683196 1.3040001
-0.021714741 0.1268598 1.3036667
-0.019404139 0.12783903 1.302
-0.021770263 0.13291317 1.307
-0.015422594 0.13549984 1.3029375
-0.0053847367 0.1366315 1.3034286
-0.014125729 0.14361185 1.3063333
-0.0050695753 0.14458306 1.3059286
-0.0034374099 0.15010023 1.307
-0.024028264 0.19720733 1.3053335
-0.019478656 0.19822398 1.307
-0.030818338 0.20659702 1.302
-0.024692811 0.20544714 1.3049411
-0.05364674 0.21801122 1.302
-0.030818339 0.21458696 1.302
-0.026550639 0.2144794 1.3055001
-0.060495261 0.228284 1.302
-0.054865416 0.22632825 1.3038751
-0.04812374 0.22801486 1.307
-0.033768322 0.22522202 1.3057501
-0.027499281 0.22114004 1.307
-0.061503075 0.23572552 1.3040001
-0.058435969 0.23145227 1.307
-0.041248918 0.23030646 1.307
-0.034374103 0.23030646 1.307
-0.071909457 0.24768814 1.302
-0.066014484 0.24569526 1.3035386
-0.062675327 0.25448215 1.3035386
-0.055969428 0.25637302 1.3029091
-0.062017158 0.26518995 1.302
-0.055565961 0.26515406 1.3058463
-0.32758754 0.27736506 1.302
-0.062842257 0.2751644 1.3033637
-0.056908231 0.27461088 1.307
-0.33228296 0.28072181 1.307
-0.32884556 0.28186762 1.307
-0.072762452 0.28648415 1.3036667
-0.065503813 0.28417674 1.3055292
-0.058435969 0.28301343 1.307
-0.081040822 0.29791063 1.302
-0.075727277 0.29562429 1.3043078
-0.081040822 0.30532986 1.302
-0.076841265 0.30394402 1.3047274
-0.24882956 0.31845617 1.302
-0.090172179 0.31845617 1.302
-0.084053263 0.31563681 1.3045001
-0.078296565 0.31127656 1.307
-0.094275855 0.32566264 1.3042728
-0.088226855 0.32197073 1.307
-0.20356506 0.33393681 1.3045001
-0.1951828 0.33367512 1.302
-0.18605147 0.33671889 1.302
-0.13811181 0.33900174 1.302
-0.12327336 0.33900174 1.302
-0.11528341 0.33900174 1.302
-0.10458733 0.33634663 1.3038751
-0.098233655 0.33409029 1.3060001
-0.17501773 0.34280646 1.302
-0.16270408 0.3471784 1.307
-0.15381578 0.34708834 1.3045001
-0.14511813 0.34590617 1.3034286
-0.13523996 0.34324721 1.3036667
-0.12474748 0.34380609 1.3055001
-0.11522178 0.34383908 1.3065001
-0.10770551 0.34144938 1.307
-0.15239185 0.35176161 1.307
-0.021853546 0.13802239 1.312
-0.015719218 0.1468405 1.312
0.0046007466 0.14837408 1.312
-0.012679449 0.15447167 1.3149168
-0.0046794713 0.15439509 1.3123335
0.0041115666 0.15388094 1.3127145
0.01039113 0.15355781 1.317
-0.01270027 0.16163979 1.317
-0.0046182801 0.16048522 1.317
0.0023091401 0.16048522 1.317
-0.019553173 0.20473322 1.312
-0.023250427 0.21709089 1.3130001
-0.019553173 0.21278453 1.312
-0.031055041 0.22773695 1.312
-0.025362736 0.22424443 1.315125
-0.055464946 0.23497471 1.3156365
-0.046124354 0.23292947 1.3153332
-0.061749898 0.24584939 1.3148571
-0.05883836 0.24573319 1.3160001
-0.057509333 0.25189087 1.312
