# .PCD v0.7 - Point Cloud Data file format
VERSION 0.7
FIELDS x y z
SIZE 4 4 4
TYPE F F F
COUNT 1 1 1
WIDTH 1464
HEIGHT 1
VIEWPOINT 0 0 0 1 0 0 0
POINTS 1464
DATA ascii
-0.23738454 0.085051432 0.99263149
-0.22002229 0.080877759 0.99200004
-0.21359091 0.083892569 0.99293739
-0.20719932 0.085385196 0.99252176
-0.10330361 0.085447773 0.99517643
-0.062118843 0.081366941 0.99800003
-0.24210815 0.093523681 0.99700004
-0.23809128 0.095323473 0.99300003
-0.21132576 0.092183255 0.99200004
-0.20743926 0.092099227 0.99242866
-0.10648412 0.094889581 0.99564284
-0.23628116 0.10429037 0.99453843
-0.20213227 0.10547654 0.99200004
-0.19915061 0.10696736 0.99200004
-0.11163148 0.10715447 0.99371433
-0.10771011 0.10443643 0.99687505
-0.23469354 0.11504146 0.99414283
-0.20088992 0.11218528 0.99200004
-0.1134875 0.11513191 0.99447048
-0.10936417 0.1119889 0.99800003
-0.23115158 0.12357873 0.99500006
-0.22732405 0.12803105 0.99350005
-0.11404187 0.12538494 0.99521434
-0.22443841 0.13514991 0.9946
-0.12088181 0.13827488 0.99200004
-0.11521199 0.13549197 0.99528575
-0.2223445 0.14440037 0.99524999
-0.21828298 0.14784107 0.99200004
-0.18418092 0.14738251 0.99319994
-0.17652373 0.14779164 0.99312502
-0.12398162 0.14598462 0.99428576
-0.11712885 0.14402983 0.99742842
-0.22135307 0.15136001 0.99800003
-0.21510299 0.15496796 0.99523073
-0.20588465 0.15889496 0.99260008
-0.19145459 0.15536715 0.99309087
-0.18564926 0.15414071 0.99638462
-0.17452088 0.15373264 0.99635011
-0.16543651 0.15686163 0.99361527
-0.15568274 0.15839362 0.9933334
-0.14429237 0.15614119 0.99499995
-0.13491812 0.15440412 0.99548012
-0.12618695 0.15324077 0.99705267
-0.21122611 0.16169678 0.99700004
-0.20432781 0.16443089 0.99626321
-0.19550063 0.16470149 0.99523067
-0.18941873 0.16142151 0.99800003
-0.16244222 0.16215061 0.99800009
-0.15546438 0.16141169 0.99739999
-0.14786035 0.16010913 0.99800003
-0.14071885 -0.10364112 1.0070001
-0.13592707 -0.10260709 1.0055001
-0.15778904 -0.09321969 1.0055001
-0.14301413 -0.099756777 1.0070001
-0.13791369 -0.099261463 1.002
-0.15755102 -0.08801733 1.0040001
-0.072944149 -0.013002939 1.0055002
-0.065846123 -0.013197153 1.0033571
-0.21316303 -0.0030558577 1.0070001
-0.20436896 -0.0019127402 1.0070001
-0.19745368 -0.0020598744 1.0070001
-0.18274029 -0.00088280335 1.0070001
-0.17258805 -0.0013242051 1.0070001
-0.16684984 -0.0017656066 1.0070001
-0.14389694 -0.002006371 1.0070001
-0.13502866 -0.0017653436 1.0067
-0.12500837 -0.002926083 1.0060527
-0.11858992 -0.0038254813 1.0070001
-0.074491575 -0.0056199678 1.0026957
-0.066693299 -0.0078978902 1.0010002
-0.052920379 -0.0049504568 1.0015454
-0.048005611 -0.0022037209 1.0047501
-0.22158363 0.0070624268 1.0070001
-0.2149602 0.0055078226 1.0056875
-0.20539771 0.0047113644 1.0043213
-0.19510448 0.0030508514 1.0038234
-0.18466482 0.0037597851 1.0048181
-0.17494006 0.0046918034 1.0048
-0.16556443 0.0053624851 1.004387
-0.15497756 0.0041454439 1.0044286
-0.14544329 0.0041629099 1.0028261
-0.13563517 0.0019586077 1.0021538
-0.12473915 0.00087842002 1.002
-0.051775057 0.0017550867 1.001
-0.045375913 0.0054481332 1.0030999
-0.039666973 0.0088135684 1.0055001
-0.22236834 0.014615301 1.0070001
-0.21569906 0.014965472 1.0042399
-0.20797777 0.011846835 1.001
-0.16761078 0.011408064 1.001
-0.041829567 0.011993092 1.001
-0.039080262 0.013171698 1.00175
-0.22273476 0.025572555 1.0059285
-0.21664718 0.0232081 1.0024118
-0.02895893 0.028081387 1.001
-0.2232537 0.035593662 1.0042856
-0.21850829 0.03422419 1.001
-0.025887525 0.035716012 1.001
-0.22381419 0.044967875 1.0057369
-0.21843405 0.045387078 1.002
-0.022831518 0.044789292 1.0017501
-0.018502049 0.04669565 1.0050001
-0.25230521 0.057735335 1.0070001
-0.24524423 0.05578262 1.0055
-0.23538861 0.056260251 1.0056363
-0.22460912 0.056309931 1.0058571
-0.2183249 0.053262617 1.0015
-0.091139145 0.056538858 1.001
-0.08524254 0.056661092 1.0024211
-0.078978896 0.057040315 1.001
-0.023090255 0.054271154 1.0047826
-0.01853887 0.0520854 1.0070001
-0.25304022 0.065529086 1.0061177
-0.24586822 0.064200573 1.0019544
-0.2340972 0.06192774 1.0020002
-0.22485349 0.064611591 1.0036248
-0.21739499 0.065483056 1.0016429
-0.095766336 0.064313069 1.0037498
-0.083451554 0.063123308 1.0057647
-0.076821774 0.065571688 1.0026001
-0.25240678 0.075016983 1.0067
-0.24695326 0.075742051 1.0019232
-0.22114092 0.071081012 1.001
-0.21763074 0.071081012 1.001
-0.10091748 0.077223815 1.001
-0.099608183 0.072283357 1.0055001
-0.080335103 0.072389871 1.0070001
-0.075724088 0.075201094 1.003647
-0.064938203 0.07985644 1.001
-0.055809598 0.078134798 1.0014286
-0.25218746 0.083866321 1.0070001
-0.2473478 0.08472643 1.0036471
-0.10091748 0.087754332 1.001
-0.099410057 0.084453247 1.0035001
-0.073728703 0.083793767 1.0061177
-0.065455273 0.085464656 1.0034444
-0.055166546 0.081972718 1.0037692
-0.24654356 0.095094226 1.004375
-0.10245319 0.09521345 1.0010002
-0.098603748 0.095081292 1.0042499
-0.071507066 0.091811545 1.0070001
-0.066940263 0.091394499 1.0065714
-0.24346465 0.10445493 1.005
-0.23956932 0.10706028 1.001
-0.10330242 0.10516632 1.0031176
-0.09887322 0.10389902 1.003143
-0.24070124 0.11447731 1.0045002
-0.11087747 0.11720525 1.0022
-0.10552903 0.11402121 1.0046817
-0.099657714 0.11200645 1.006
-0.27364501 0.12428598 1.0061429
-0.26378161 0.1265057 1.0070001
-0.25639132 0.1290154 1.0070001
-0.23520112 0.12596545 1.0048182
-0.11084529 0.12492412 1.0035001
-0.10757314 0.12397645 1.0058
-0.26309574 0.13489909 1.0064
-0.2552892 0.13587698 1.0058386
-0.24983335 0.13860013 1.0070001
-0.23286094 0.13501571 1.0055
-0.2290388 0.13689676 1.001
-0.11089028 0.13503878 1.0031818
-0.10858481 0.1324205 1.0070001
-0.26333758 0.14327648 1.0057501
-0.25513443 0.14506038 1.0053447
-0.24857222 0.14427529 1.0070001
-0.23157398 0.1443409 1.0065714
-0.22749072 0.14528723 1.0028751
-0.11242652 0.14486797 1.0026364
-0.26219258 0.15095937 1.0070001
-0.25418851 0.15354893 1.0070001
-0.24766026 0.15367569 1.0070001
-0.22378731 0.15468062 1.0046923
-0.21814156 0.15840898 1.002
-0.18296778 0.15839657 1.001
-0.17717719 0.1582962 1.00175
-0.13514167 0.15883534 1.001
-0.12380234 0.15706457 1.00275
-0.11678939 0.15281326 1.0040001
-0.25386903 0.1640753 1.0070001
-0.24850914 0.16376002 1.0070001
-0.22158363 0.16155301 1.0070001
-0.21514808 0.16512299 1.0038421
-0.20789213 0.16807248 1.002
-0.1915876 0.16836576 1.0034001
-0.18495366 0.16508111 1.0041935
-0.17500556 0.1635922 1.0061177
-0.16574635 0.16554482 1.0034705
-0.15519674 0.16500852 1.0042144
-0.14437829 0.16299595 1.0042144
-0.13540867 0.16247 1.0048572
-0.12765336 0.16190614 1.0070001
-0.25218749 0.17096956 1.0070001
-0.2125461 0.17138715 1.006
-0.20399734 0.17379704 1.0048572
-0.19554068 0.17380092 1.0043
-0.18575943 0.17252363 1.0066251
-0.16420142 0.17038104 1.0070001
-0.14393716 -0.10451894 1.010375
-0.16523881 -0.094227508 1.0149502
-0.16400094 -0.088065855 1.013
-0.11166541 -0.087545685 1.0190001
-0.12345729 -0.032695636 1.0190001
-0.08307907 -0.031266317 1.0190001
-0.079505779 -0.031266317 1.0190001
-0.22347973 -0.02248197 1.0190001
-0.21594062 -0.022170661 1.0190001
-0.1840246 -0.020546436 1.0190001
-0.17955799 -0.020546436 1.0190001
-0.15097164 -0.020546436 1.0190001
-0.14389949 -0.023524182 1.0190004
-0.13489184 -0.024119733 1.0190004
-0.12481003 -0.023992116 1.0190004
-0.081458285 -0.02727573 1.0166
-0.074983142 -0.024914274 1.0146767
-0.06877555 -0.022574166 1.0136001
-0.23137075 -0.011613203 1.0190001
-0.22429734 -0.014900097 1.0180773
-0.2145804 -0.015139997 1.0156403
-0.20551793 -0.013739295 1.0175002
-0.19489549 -0.013395576 1.018625
-0.18479274 -0.014887693 1.0179203
-0.17568362 -0.014327553 1.0186088
-0.16600424 -0.012601987 1.0186667
-0.15311562 -0.013935843 1.0190001
-0.14464673 -0.015180448 1.0185004
-0.13484479 -0.015182392 1.0186403
-0.12473503 -0.015149589 1.0163004
-0.118812 -0.014293173 1.0190001
-0.081053093 -0.012469707 1.016
-0.076281652 -0.016005972 1.0110589
-0.068460278 -0.017337088 1.0104285
-0.23273751 -0.004582921 1.0182
-0.22472274 -0.0055651907 1.0146878
-0.21542346 -0.0070411293 1.0112355
-0.20542549 -0.0068493965 1.0108184
-0.19469188 -0.0056165908 1.0110002
-0.18487853 -0.0056790197 1.0122731
-0.17522497 -0.0057914397 1.0124829
-0.16427451 -0.005907129 1.0117589
-0.15495394 -0.0055807806 1.0131819
-0.14534189 -0.0066178367 1.0120456
-0.13490355 -0.0071043982 1.0123752
-0.1248525 -0.0082524689 1.0111539
-0.11888213 -0.0079881856 1.0120001
-0.081292421 -0.0080399103 1.0190001
-0.078959614 -0.0079864338 1.012
-0.045300212 -0.0037009213 1.01325
-0.23270151 0.00534942 1.017
-0.22548412 0.0047701113 1.0112859
-0.21870203 0.0017708667 1.01
-0.1912536 0.00088543334 1.01
-0.18859729 0.00088543334 1.01
-0.16380517 0.00088543334 1.01
-0.042604685 0.0035491849 1.0124999
-0.23251988 0.015144418 1.0162001
-0.22673668 0.015394664 1.0113636
-0.25995708 0.029479669 1.0190001
-0.23336582 0.024938533 1.0160002
-0.22680612 0.023565149 1.0106001
-0.26324624 0.036613688 1.0186667
-0.25506729 0.035800416 1.0169681
-0.2464354 0.036607407 1.0185
-0.23402546 0.034891032 1.0160002
-0.22826472 0.034531899 1.01
-0.26316682 0.044131968 1.0175883
-0.25489649 0.044908904 1.0133334
-0.24501666 0.044142462 1.0136
-0.2353632 0.044955466 1.0143126
-0.22873695 0.04692797 1.01
-0.016873203 0.048843484 1.013
-0.26257959 0.054780893 1.0172857
-0.25588006 0.054049391 1.0124003
-0.24475905 0.050975658 1.0100001
-0.23468786 0.051902309 1.0113848
-0.22684804 0.051886387 1.0100001
-0.020364966 0.059324034 1.01
-0.016193019 0.056237623 1.0122501
-0.26254448 0.064856604 1.0157501
-0.25777045 0.064409576 1.0104287
-0.093048647 0.067477278 1.0108572
-0.085792959 0.066973545 1.0101876
-0.021585872 0.062402595 1.0120001
-0.015832601 0.063408218 1.0164615
-0.26199684 0.074447021 1.0176667
-0.25727358 0.074899368 1.0116364
-0.10005397 0.0770327 1.01
-0.094738126 0.075336076 1.0157002
-0.085578203 0.074974708 1.0135175
-0.078803569 0.078803569 1.01
-0.26174372 0.083972394 1.0190001
-0.25679806 0.085472122 1.0125715
-0.096624218 0.084515147 1.0171055
-0.083890855 0.084776722 1.0152501
-0.077366851 0.08666873 1.0105001
-0.2549828 0.095199123 1.014895
-0.097085573 0.092632107 1.016
-0.082471274 0.09407343 1.0181
-0.075505264 0.095324852 1.0122503
-0.066504613 0.095770888 1.0115001
-0.28371948 0.10844944 1.0190001
-0.27501893 0.1061902 1.0172694
-0.26599607 0.10774246 1.0183686
-0.25574514 0.10535305 1.0169313
-0.24811323 0.1062335 1.0115
-0.081292421 0.10094553 1.0190001
-0.074692883 0.10329928 1.0169133
-0.067561053 0.10268265 1.0185
-0.28358993 0.11468539 1.0174211
-0.27437699 0.11532714 1.0133104
-0.26498759 0.11559407 1.0143336
-0.25515342 0.11513763 1.0170349
-0.2462182 0.11489318 1.013
-0.10235943 0.11815064 1.0118001
-0.098575026 0.11811242 1.013
-0.28229016 0.12059865 1.0190001
-0.27256921 0.12368264 1.0108572
-0.26429036 0.12258001 1.0103002
-0.25443396 0.12422603 1.0135677
-0.24515842 0.12513267 1.0141252
-0.23862427 0.12617426 1.01
-0.10347223 0.12561524 1.0140502
-0.098983727 0.1257403 1.0172001
-0.27264816 0.13371721 1.012625
-0.26799116 0.13517614 1.0100001
-0.25078878 0.13279895 1.0108572
-0.24505602 0.13515729 1.0133432
-0.23768547 0.13541651 1.0109001
-0.10651962 0.13485798 1.0135
-0.26208827 0.14963824 1.01
-0.24392353 0.1454381 1.0120772
-0.23609257 0.14592783 1.0114213
-0.11112188 0.14698192 1.01
-0.10836985 0.14384155 1.0166
-0.26204631 0.1560356 1.0141251
-0.2554073 0.1567217 1.0100001
-0.24323733 0.15523033 1.0118263
-0.23530838 0.15556146 1.0139647
-0.22765292 0.15628299 1.0104285
-0.12130436 0.15849257 1.01
-0.11361491 0.15582931 1.0130001
-0.1097979 0.15353918 1.01825
-0.26228115 0.16333856 1.01675
-0.25404117 0.1646805 1.0107895
-0.2443213 0.16519377 1.0120628
-0.23534948 0.16492507 1.0169002
-0.22535065 0.16536774 1.0136001
-0.21870203 0.16911776 1.01
-0.17555727 0.16815184 1.0100001
-0.15323552 0.16851649 1.010375
-0.14620565 0.16747183 1.0107501
-0.13526112 0.16734259 1.0117501
-0.12425363 0.16556381 1.0131501
-0.11703357 0.16428833 1.0158421
-0.25057763 0.17265952 1.01
-0.24529625 0.17508981 1.0138003
-0.23601802 0.17510211 1.018273
-0.22505569 0.17535052 1.0183228
-0.21529229 0.17607325 1.0143334
-0.20580001 0.17771912 1.0100001
-0.19426407 0.17903461 1.0100001
-0.18376043 0.17714217 1.012
-0.17584302 0.17438447 1.014174
-0.16517286 0.17449915 1.0142858
-0.15700175 0.17386614 1.0162308
-0.14332636 0.17135866 1.0172857
-0.13519509 0.17227845 1.0167999
-0.12587443 0.17110866 1.0183333
-0.11791868 0.17062476 1.0190001
-0.24330349 0.18261376 1.0181
-0.23467679 0.18321525 1.0182942
-0.2254467 0.18270275 1.0186
-0.21499313 0.18164241 1.0190001
-0.20477562 0.18326952 1.0162143
-0.19522436 0.18384001 1.015
-0.18591456 0.18283214 1.016
-0.17129453 -0.092371739 1.0230001
-0.17206103 -0.088273905 1.024
-0.16983224 -0.087162584 1.0250001
-0.2225997 -0.041455813 1.028
-0.21719241 -0.041275568 1.028
-0.13302931 -0.042160414 1.0271817
-0.12713596 -0.042800967 1.0256001
-0.083136931 -0.041230507 1.028
-0.075995348 -0.041275594 1.0267142
-0.23265387 -0.033558689 1.027625
-0.22515033 -0.035125658 1.0272999
-0.21604362 -0.034548234 1.0270525
-0.20689283 -0.032057445 1.028
-0.19466208 -0.031542465 1.028
-0.18397628 -0.032057445 1.028
-0.17934145 -0.031542465 1.028
-0.161918 -0.032143276 1.028
-0.15453483 -0.033484787 1.026421
-0.14460157 -0.034388795 1.0257143
-0.1353893 -0.035163771 1.0243075
-0.12727809 -0.035152998 1.0220002
-0.083995119 -0.036165319 1.0239286
-0.075765617 -0.035365168 1.0241921
-0.24062397 -0.021629121 1.028
-0.2346237 -0.025030162 1.0259309
-0.22560269 -0.026807686 1.023
-0.21467093 -0.026383214 1.0235599
-0.20528227 -0.025394656 1.0257058
-0.19503392 -0.025070433 1.0243634
-0.18490876 -0.025736855 1.0238998
-0.17525497 -0.024472965 1.0259309
-0.16434561 -0.024908049 1.0268887
-0.15528204 -0.025269104 1.0230343
-0.14678702 -0.028073208 1.0220002
-0.13528895 -0.029566461 1.0220001
-0.12812133 -0.028670505 1.0220002
-0.24062397 -0.0135182 1.028
-0.23472361 -0.015671093 1.0240453
-0.22846811 -0.017023113 1.0220001
-0.21054903 -0.01881502 1.0220001
-0.20477512 -0.018018616 1.0220002
-0.19538675 -0.01771231 1.0220002
-0.18904616 -0.01881502 1.0220001
-0.17343096 -0.018047059 1.0220002
-0.16448708 -0.016594201 1.0230498
-0.15623187 -0.015791178 1.0220002
-0.049422082 -0.011681584 1.0250001
-0.24152517 -0.0054072798 1.028
-0.23745388 -0.0056763436 1.0227503
-0.047108561 -0.0071820919 1.0235001
-0.24270013 0.0063019185 1.0272499
-0.2386747 0.0053836107 1.0235001
-0.26135188 0.018925481 1.028
-0.25774699 0.018925481 1.028
-0.24315076 0.015609854 1.0272499
-0.2384581 0.015244941 1.0230001
-0.27126521 0.028838826 1.028
-0.2652905 0.025127057 1.0274826
-0.25533646 0.025393361 1.0255624
-0.24549982 0.025823258 1.0263333
-0.23921953 0.025086693 1.0220002
-0.27235314 0.034962051 1.027
-0.26645318 0.033518396 1.0233638
-0.25534669 0.031358365 1.0220001
-0.24445643 0.033768319 1.0226667
-0.23921953 0.035838135 1.0220001
-0.27228773 0.04394969 1.026909
-0.26776433 0.045487709 1.0223751
-0.27126521 0.053772394 1.028
-0.2679055 0.055466808 1.0246251
-0.26835558 0.063394144 1.0267143
-0.014764979 0.067794226 1.0236363
-0.0099133467 0.069393426 1.028
-0.26580304 0.075654402 1.0250001
-0.01491512 0.072574645 1.0276666
-0.0099133467 0.072998278 1.028
-0.29109192 0.089220122 1.028
-0.28499064 0.087674394 1.0267999
-0.2775737 0.088318899 1.028
-0.26577905 0.086133733 1.0256001
-0.092462704 0.086257935 1.0224618
-0.088699378 0.086907476 1.0220001
-0.29241219 0.093920343 1.0274545
-0.28471145 0.09520258 1.0244997
-0.2755295 0.095526896 1.0266285
-0.26545146 0.095489912 1.0259309
-0.093142249 0.092654496 1.026091
-0.086757869 0.095733501 1.0239412
-0.064604633 0.099596784 1.0235001
-0.28353649 0.10282589 1.0235001
-0.27400464 0.10158362 1.0228573
-0.26517487 0.10282754 1.0226924
-0.084203079 0.10457657 1.0253999
-0.075960167 0.10824529 1.0228573
-0.065556079 0.10327449 1.0244
-0.081109196 0.11084924 1.028
-0.075727537 0.11174276 1.027
-0.27766225 0.13928041 1.0250001
-0.10223278 0.13941629 1.026
-0.10386663 0.1453893 1.0256521
-0.098987505 0.14218524 1.0265
-0.11020226 0.15858375 1.0220001
-0.10567993 0.15401021 1.0257826
-0.11183117 0.16539626 1.0225627
-0.1079552 0.16463274 1.0261999
-0.23169354 0.1747109 1.0220001
-0.17381495 0.17829472 1.0220001
-0.16754328 0.17829472 1.0220001
-0.15343039 0.1766368 1.0245001
-0.14512984 0.17601305 1.024
-0.13420276 0.17759746 1.024
-0.12546471 0.17601398 1.025
-0.11498017 0.17313217 1.0240769
-0.10904681 0.17213173 1.028
-0.24446046 0.18699452 1.02425
-0.23562528 0.18832049 1.0233636
-0.22477223 0.187647 1.0233848
-0.21546777 0.18591088 1.0238001
-0.20637134 0.18823563 1.0230002
-0.19454812 0.18857217 1.0226668
-0.1833663 0.18654308 1.0233847
-0.17590261 0.18296663 1.0252142
-0.16491972 0.18140377 1.0239092
-0.15793151 0.18133017 1.0265
-0.14149049 0.18114388 1.028
-0.13808411 0.18165341 1.0267999
-0.2430272 0.19135763 1.028
-0.23421258 0.19311556 1.0271817
-0.22594823 0.19257405 1.0268461
-0.21448877 0.19015601 1.028
-0.20528026 0.1917717 1.0270001
-0.19533606 0.19173436 1.0267999
-0.18516457 0.19057007 1.027
-0.1753456 -0.091288179 1.031
-0.17637898 -0.088188499 1.0317501
-0.13740698 -0.070978433 1.0380001
-0.16409974 -0.060968656 1.0380001
-0.15403278 -0.06219564 1.0372001
-0.14441359 -0.063851282 1.0355002
-0.13564536 -0.064029656 1.0352728
-0.12962569 -0.060733713 1.034
-0.2332582 -0.050655555 1.0380001
-0.22476506 -0.051504869 1.0380001
-0.21492724 -0.051685236 1.0376365
-0.20747544 -0.050958879 1.0380001
-0.17158179 -0.052879948 1.0380001
-0.16445473 -0.055426307 1.0364002
-0.15501368 -0.055298001 1.0340402
-0.14499357 -0.055279873 1.0337002
-0.13497092 -0.055258263 1.0332803
-0.12907368 -0.054888394 1.0320001
-0.085234791 -0.050655555 1.0380001
-0.2411447 -0.040949099 1.0380001
-0.23476395 -0.044652753 1.0345386
-0.22539775 -0.046137754 1.0318751
-0.21486391 -0.045444462 1.0322858
-0.20526172 -0.04424227 1.0343931
-0.19442579 -0.042906035 1.0357502
-0.18543835 -0.043075982 1.0361054
-0.17495568 -0.04414067 1.0376192
-0.16509414 -0.045449771 1.0339146
-0.15490811 -0.045099147 1.0321615
-0.14461493 -0.045192156 1.0309998
-0.13533865 -0.046857148 1.031
-0.12834576 -0.048807543 1.031
-0.090997994 -0.048228938 1.0380001
-0.084427536 -0.045989204 1.0330558
-0.24282756 -0.034291219 1.0356154
-0.23637345 -0.035953853 1.0312308
-0.21240318 -0.037057579 1.031
-0.20468369 -0.036202159 1.031143
-0.19520773 -0.035714976 1.0318401
-0.18514997 -0.036633663 1.0317501
-0.17512429 -0.035242453 1.0326668
-0.16596924 -0.035695273 1.0319546
-0.1558719 -0.038043588 1.031
-0.14642262 -0.038865265 1.031
-0.2502445 -0.02092954 1.0380001
-0.24459346 -0.025266018 1.0329502
-0.23951848 -0.029826829 1.031
-0.17211761 -0.028277384 1.031
-0.1690187 -0.028019143 1.031
-0.25115448 -0.01455968 1.0380001
-0.24516879 -0.015379179 1.0319475
-0.25206447 -0.0045499001 1.0380001
-0.24650778 -0.0058169337 1.032143
-0.26844409 0.0081898198 1.0380001
-0.25114572 0.0055843666 1.0374286
-0.246998 0.0050829132 1.0326155
-0.2741349 0.014849434 1.0355601
-0.26495659 0.014065879 1.0334002
-0.25476274 0.014941374 1.033393
-0.24799459 0.01497678 1.0320001
-0.28091291 0.02727047 1.0370001
-0.27531022 0.024840388 1.0328697
-0.26844147 0.020788396 1.031
-0.25126845 0.020788396 1.031
-0.24855691 0.022596082 1.031
-0.28118908 0.035403747 1.0355
-0.276802 0.03547585 1.031
-0.28142929 0.042714119 1.0366668
-0.27687356 0.045720067 1.0326668
-0.27539438 0.054243136 1.0347002
-0.27214351 0.065605097 1.0332857
-0.29343203 0.077297442 1.0373334
-0.28578925 0.078493811 1.0371113
-0.27328441 0.076347627 1.0356364
-0.26844147 0.07562156 1.031
-0.020902656 0.075433664 1.0366668
-0.015624227 0.076418102 1.0330627
-0.0087450417 0.075495228 1.0320001
-0.29459992 0.084826529 1.0336958
-0.28430909 0.082819767 1.0325
-0.27443668 0.084854797 1.0327002
-0.26844147 0.081345901 1.031
-0.012436394 0.080988221 1.0380001
-0.0072798398 0.080988221 1.0380001
-0.2964606 0.091288179 1.031
-0.27205685 0.091288179 1.031
-0.09530706 0.09728194 1.0318183
-0.094911069 0.10382023 1.0357621
-0.088576041 0.10669182 1.0331
-0.090997994 0.11283752 1.0380001
-0.084800333 0.11533031 1.0345002
-0.074160688 0.11659047 1.0345001
-0.083328173 0.12180733 1.0380001
-0.076438315 0.12193733 1.0380001
-0.10268363 0.13577224 1.0351539
-0.1021343 0.14461493 1.031
-0.098518923 0.14823031 1.031
-0.1020411 0.15668216 1.0319
-0.098645605 0.1552359 1.0355
-0.1035806 0.16480711 1.0354446
-0.098637275 0.16227451 1.0370001
-0.15274952 0.17986482 1.031
-0.14732647 0.17986482 1.031
-0.12201885 0.17896098 1.031
-0.1142335 0.17757356 1.032125
-0.1072657 0.17510581 1.0349232
-0.25109312 0.18945293 1.034
-0.24855691 0.18890326 1.031
-0.1742961 0.18742913 1.0328335
-0.16484946 0.18640913 1.0332
-0.15463154 0.18328275 1.0355556
-0.14616945 0.18248308 1.0355999
-0.13358293 0.18489702 1.0345715
-0.12476787 0.18391854 1.0360001
-0.11520322 0.1824763 1.0369334
-0.2445098 0.1959011 1.0326924
-0.23576404 0.19766358 1.031
-0.22368766 0.19675101 1.0336001
-0.21538445 0.19465786 1.0339376
-0.20513219 0.19648756 1.0343077
-0.19606693 0.195393 1.03425
-0.18455558 0.19447513 1.0343335
-0.17626224 0.19231896 1.0364166
-0.16743632 0.19018582 1.0380001
-0.13285708 0.19018582 1.0380001
-0.24272488 0.20185469 1.036
-0.23462403 0.20283844 1.0360001
-0.22640757 0.20095058 1.0372001
-0.18422359 -0.083115898 1.0434
-0.17546533 -0.08444345 1.0449548
-0.16888808 -0.081690431 1.0470001
-0.14823601 -0.082149364 1.0470001
-0.19183482 -0.07985469 1.0470001
-0.18435067 -0.076041989 1.0470004
-0.17531317 -0.075265333 1.0470004
-0.1658445 -0.074135989 1.0468893
-0.15501687 -0.073837608 1.0468639
-0.14541094 -0.074850224 1.0448713
-0.13962933 -0.07027097 1.041
-0.22340956 -0.061864436 1.0470001
-0.21440579 -0.062089622 1.0466666
-0.20468502 -0.062415164 1.0470001
-0.19587344 -0.062598728 1.0470001
-0.18483289 -0.064781375 1.0462226
-0.17479181 -0.064976685 1.0438801
-0.16486259 -0.065561153 1.04268
-0.15541299 -0.066468507 1.0423999
-0.14828992 -0.067903094 1.0419999
-0.25057852 -0.050482851 1.0470001
-0.24418063 -0.053216867 1.0447502
-0.235039 -0.054494482 1.0436667
-0.22524375 -0.056499906 1.0434287
-0.21489401 -0.056766044 1.0426501
-0.2044632 -0.055349093 1.0435314
-0.19496527 -0.054920971 1.0441003
-0.18549637 -0.055029694 1.0433229
-0.17639357 -0.055390846 1.0412402
-0.091260999 -0.050193548 1.041
-0.088083088 -0.051510304 1.0430001
-0.25241426 -0.044363718 1.0470001
-0.24589492 -0.04479073 1.0426959
-0.20168681 -0.047455721 1.041
-0.19595452 -0.047315236 1.0412501
-0.18411906 -0.047455724 1.041
-0.17932786 -0.046999417 1.041
-0.25296959 -0.034832161 1.0454999
-0.24781862 -0.036186978 1.0419232
-0.25352469 -0.024709862 1.044
-0.25653172 -0.014698517 1.0444739
-0.27536097 -0.00091787003 1.0470001
-0.25718597 -0.0045761997 1.0439999
-0.2824465 0.0056004394 1.0456667
-0.27507642 0.0045657852 1.0424401
-0.26543301 0.004573476 1.0443218
-0.2566244 0.004464657 1.0434706
-0.28444999 0.01487539 1.0441252
-0.27834606 0.01186393 1.041
-0.26009384 0.01003871 1.041
-0.25826862 0.01003871 1.041
-0.28521654 0.023384763 1.0442727
-0.2838217 0.033766571 1.041
-0.2850669 0.045667563 1.0437273
-0.28360388 0.054524194 1.0447896
-0.27773765 0.058711242 1.041
-0.30413041 0.066475525 1.0464
-0.29572645 0.066536091 1.0457369
-0.2831997 0.065719321 1.0459999
-0.27775377 0.06487263 1.0422
-0.30336234 0.073781155 1.0433334
-0.29475728 0.072523378 1.0416316
-0.28462964 0.073850937 1.0431602
-0.27712712 0.073969357 1.0416924
-0.020990029 0.079397067 1.041
-0.30145061 0.08373744 1.0419999
-0.02111101 0.082608297 1.0470001
-0.014443961 0.085019439 1.0437393
-0.0065813125 0.086484924 1.0428002
-0.0040808041 0.092320658 1.0445454
-0.10129971 0.10860059 1.041
-0.098105572 0.10814428 1.041
-0.00091786997 0.10004783 1.0470001
-0.10117435 0.11432084 1.0460001
-0.095270827 0.11500131 1.0436089
-0.07027097 0.11955191 1.041
-0.10004783 0.12941967 1.0470001
-0.093176953 0.12288912 1.0460999
-0.085440338 0.12636067 1.044
-0.074781775 0.12524621 1.0428002
-0.068544373 0.12246726 1.0425
-0.084444046 0.1312554 1.0470001
-0.09701544 0.15376031 1.044
-0.10129971 0.16883285 1.041
-0.097786024 0.16821817 1.0452857
-0.10261597 0.17543371 1.0436844
-0.098843291 0.17114988 1.044
-0.16084948 0.18918248 1.0425
-0.15467504 0.18744273 1.0439999
-0.14770672 0.18611918 1.04325
-0.13451871 0.18781514 1.041
-0.12447745 0.1886968 1.0415
-0.11455753 0.18772553 1.0432
-0.10633764 0.18437697 1.0456876
-0.24914253 0.19803637 1.041
-0.21555848 0.19949654 1.041
-0.20259942 0.19986159 1.041
-0.19513975 0.19856401 1.0413749
-0.18481235 0.19890013 1.0414286
-0.17481202 0.1955592 1.044
-0.1641909 0.19165125 1.044
-0.13160388 0.19283816 1.0425
-0.12535946 0.19314405 1.0448
-0.11676148 0.19195755 1.046
-0.24670891 0.20351203 1.041
-0.23497064 0.20736265 1.0419999
-0.22480004 0.20555942 1.0430001
-0.21521302 0.20430796 1.0460527
-0.20476143 0.20486137 1.0454211
-0.19496173 0.20358753 1.0452353
-0.18519121 0.20446707 1.0446522
-0.17898464 0.2019314 1.0470001
-0.23222111 0.21080415 1.0470001
-0.22487815 0.21019223 1.0470001
-0.21937093 0.21019223 1.0470001
-0.1942255 -0.080083497 1.0500001
-0.1702925 -0.085606493 1.0500001
-0.16492561 -0.082803443 1.0518001
-0.15572487 -0.082009122 1.0510668
-0.22294879 -0.073204294 1.057
-0.21034651 -0.075057574 1.057
-0.2042269 -0.074726701 1.0545002
-0.19487537 -0.074594699 1.0526668
-0.18747516 -0.073333167 1.0500001
-0.16366489 -0.077874303 1.0500001
-0.15617816 -0.078242503 1.0500001
-0.25076216 -0.061072543 1.0555
-0.24565057 -0.062263031 1.0558001
-0.23516463 -0.062658809 1.0555001
-0.22503369 -0.066068523 1.0534667
-0.21547328 -0.066127367 1.0524668
-0.2055345 -0.067283228 1.0513334
-0.19528636 -0.067227028 1.0504706
-0.18870249 -0.069037497 1.0500001
-0.25344053 -0.054322068 1.0531667
-0.24540529 -0.057623297 1.0500001
-0.23426725 -0.058912002 1.0500001
-0.092223577 -0.054412946 1.052
-0.088367999 -0.054309499 1.0500001
-0.25620341 -0.045929618 1.052
-0.25804788 -0.034308173 1.052
-0.26149389 -0.02494818 1.054
-0.25851789 -0.025485285 1.0506667
-0.2625069 -0.015685758 1.0525
-0.29096392 -0.0046331831 1.057
-0.28482348 -0.0044078277 1.0546471
-0.27621281 -0.0041575916 1.0531667
-0.26577562 -0.0037484204 1.0532942
-0.29203695 0.0051593082 1.0565716
-0.28730083 0.0040600188 1.0524
-0.26418349 0.00092049997 1.0500001
-0.29322463 0.01403859 1.0538
-0.28934383 0.0119665 1.0500001
-0.29180127 0.02494818 1.054
-0.28873014 0.026080832 1.0500001
-0.29106209 0.03049222 1.054
-0.28811648 0.034979001 1.0500001
-0.3057901 0.049111743 1.057
-0.29189056 0.049111743 1.057
-0.31192097 0.056458563 1.0558001
-0.30453318 0.05516227 1.0546668
-0.29536059 0.055097967 1.0544349
-0.28811648 0.058359701 1.0500001
-0.31175804 0.063208252 1.0517778
-0.30686021 0.062383309 1.0516667
-0.2944335 0.061886396 1.0514287
-0.28811648 0.064789042 1.0500001
-0.30526584 0.088538073 1.052
-0.021957695 0.086912379 1.0524
-0.017507909 0.088913284 1.0510001
-0.3046855 0.091129497 1.0500001
-0.013944051 0.093993746 1.0535716
-0.0053197476 0.096966743 1.0518463
0.00092225336 0.095916107 1.052
-0.0040886896 0.10429252 1.0527618
0.0015414722 0.10315181 1.0536667
-0.101255 0.1187445 1.0500001
-0.0013899549 0.11397631 1.057
0.00092663668 0.11459406 1.057
-0.10043006 0.1239256 1.0510001
-0.09587007 0.12636864 1.0502501
-0.089288503 0.1297905 1.0500001
-0.074560501 0.12887001 1.0500001
-0.1003345 0.132552 1.0500001
-0.09626063 0.13210788 1.0538
-0.08481171 0.13401808 1.0523334
-0.07698638 0.13303693 1.0538334
-0.095945023 0.17701742 1.0523751
-0.10241299 0.18615474 1.0507274
-0.095877111 0.18539827 1.0545883
-0.08988376 0.18440069 1.057
-0.17373925 0.1983432 1.0523334
-0.16522059 0.19666122 1.0546924
-0.15652499 0.19367531 1.0540001
-0.1491885 0.19181378 1.057
-0.12224627 0.19747268 1.0516001
-0.11442639 0.19654505 1.0532001
-0.10586839 0.19448379 1.0539999
-0.099150121 0.19274043 1.057
-0.21519536 0.20904465 1.0519999
-0.20307048 0.20921884 1.0513334
-0.19511127 0.2087445 1.0508001
-0.18218243 0.20860517 1.0513334
-0.17739199 0.20403741 1.0531429
-0.1213894 0.20200679 1.057
-0.1186095 0.20200679 1.057
-0.2341018 0.21456091 1.0542858
-0.22523925 0.21435924 1.0544446
-0.21498482 0.21251643 1.0555
-0.20542988 0.21242003 1.0540001
-0.19552451 0.21264382 1.0557501
-0.18617256 0.21230498 1.0535716
-0.17884088 0.21034652 1.057
-0.12021467 -0.095985353 1.0630001
-0.1131838 -0.092604935 1.067
-0.10944219 -0.092604928 1.067
-0.11131299 -0.088863313 1.067
-0.10538132 -0.085614093 1.0653335
-0.24414027 -0.070155248 1.067
-0.23436844 -0.072829746 1.0650834
-0.22488788 -0.073103741 1.0609
-0.21620427 -0.073621444 1.0630001
-0.2613517 -0.064168669 1.067
-0.25529572 -0.064357124 1.0621177
-0.24496277 -0.067343369 1.061231
-0.23551632 -0.067061491 1.0610911
-0.22767033 -0.069694996 1.0600001
-0.21651913 -0.069694996 1.0600001
-0.26191294 -0.055188794 1.067
-0.25792426 -0.055603284 1.0606
-0.26190403 -0.04474229 1.0631667
-0.074114092 -0.046942614 1.0678333
-0.065301538 -0.04322638 1.064111
-0.058709491 -0.040071558 1.0630001
-0.26279485 -0.034480177 1.0630001
-0.26664215 -0.02385385 1.064
-0.29218754 -0.011778367 1.0662
-0.28585097 -0.011287085 1.0646363
-0.27282599 -0.01122484 1.067
-0.26762208 -0.01492262 1.0636667
-0.30026448 -0.00280621 1.067
-0.29459244 -0.0049310303 1.0610501
-0.28362423 -0.0083693173 1.0607501
-0.2745235 -0.0075601786 1.0631112
-0.26893809 -0.0074459687 1.0615001
-0.30101281 0.0046770168 1.067
-0.29623523 0.0038053705 1.0610909
-0.29761869 0.014739648 1.0604285
-0.29664922 0.024335014 1.0617144
-0.29489285 0.034932539 1.0641111
-0.31357157 0.04740195 1.0648888
-0.30469698 0.046732474 1.0628948
-0.29559445 0.045308713 1.0624707
-0.3143698 0.053091593 1.0625
-0.3094458 0.051109668 1.0600001
-0.29736534 0.051109668 1.0600001
-0.31218538 0.091325872 1.0630001
-0.021373134 0.095714465 1.0600001
-0.01633493 0.098144196 1.0604285
-0.013307753 0.10444003 1.0641578
-0.0079106018 0.10748284 1.0615001
0.0027878 0.1087242 1.0600001
-0.010289436 0.1122484 1.067
-0.0050777015 0.11504278 1.0630555
0.00092926668 0.11553881 1.0600001
-0.0031759001 0.12269519 1.0651
0.00092926668 0.12173393 1.0600001
-0.094754413 0.13700929 1.0622501
-0.08456327 0.13846073 1.0600001
-0.074065112 0.13618132 1.0627501
-0.10008816 0.14311671 1.067
-0.094899461 0.14157534 1.0647779
-0.084613614 0.14289333 1.0635626
-0.077301249 0.14246485 1.0652223
-0.091973327 0.17402393 1.0636364
-0.086568549 0.1774212 1.0618001
-0.090138875 0.18492407 1.0600001
-0.086203903 0.18610853 1.0650001
-0.17191434 0.19979233 1.0600001
-0.1650997 0.19979233 1.0600001
-0.15413019 0.19694799 1.0617001
-0.14745913 0.19154261 1.0623335
-0.1031486 0.19839843 1.0600001
-0.094483271 0.19482414 1.06208
-0.088128664 0.19369949 1.0656667
-0.17350522 0.20578517 1.0636154
-0.16573867 0.2033997 1.0633
-0.15768808 0.20185395 1.0643334
-0.1141739 0.20487684 1.0617223
-0.10557289 0.20356719 1.0630715
-0.097096093 0.20073475 1.0650001
-0.23506151 0.21920174 1.064
-0.22490597 0.21878731 1.0632858
-0.21500815 0.21708703 1.0637778
-0.20503771 0.21760255 1.0615002
-0.19504268 0.21723287 1.0613849
-0.18439193 0.21572049 1.0634
-0.17866203 0.21233656 1.067
-0.23277108 0.22248749 1.0663333
-0.22645251 0.2234921 1.0666667
-0.20298253 0.2216906 1.067
-0.19924091 0.2216906 1.067
-0.13312797 -0.11141207 1.077
-0.12643872 -0.11102778 1.0763334
-0.11896542 -0.11046789 1.077
-0.13300979 -0.10780002 1.0730001
-0.12478683 -0.10537551 1.0750999
-0.11593751 -0.1032804 1.0742221
-0.10896309 -0.10144962 1.0715001
-0.12134557 -0.09876965 1.0730001
-0.11479588 -0.09627904 1.0704
-0.1052487 -0.094611436 1.0708888
-0.096875392 -0.092634529 1.0755001
-0.10217112 -0.086772643 1.0712
-0.095431067 -0.085302882 1.0751666
-0.24360478 -0.072956927 1.0715001
-0.23919851 -0.074104629 1.0700001
-0.22043782 -0.077856764 1.0700001
-0.21762374 -0.077856764 1.0700001
-0.10036957 -0.079732835 1.0700001
-0.095989481 -0.078110211 1.0735
-0.076477766 -0.070812747 1.077
-0.26452541 -0.062848233 1.0700001
-0.25983524 -0.068476431 1.0700001
-0.091584489 -0.068924412 1.077
-0.085104845 -0.064993925 1.076586
-0.076208003 -0.064338438 1.0769999
-0.27097678 -0.051929351 1.077
-0.26580092 -0.055373423 1.0706
-0.084377207 -0.056937024 1.0729412
-0.075073138 -0.055361796 1.0727586
-0.068476431 -0.051591832 1.0700001
-0.26710936 -0.045142487 1.0728333
-0.068476431 -0.048777733 1.0700001
-0.26747733 -0.03525028 1.0738889
-0.29360443 -0.021574767 1.0700001
-0.28790545 -0.021640297 1.0732501
-0.27213967 -0.025000341 1.0760001
-0.26865494 -0.028179135 1.0715001
-0.30189836 -0.013690464 1.077
-0.29566398 -0.016189938 1.0721667
-0.28534076 -0.01622396 1.0727499
-0.27505812 -0.014937963 1.0720555
-0.30487266 -0.0023569183 1.075
-0.3039228 0.0050028446 1.0700001
-0.30298477 0.010318367 1.0700001
-0.30232683 0.027825838 1.0760001
-0.29923263 0.026264932 1.0700001
-0.32120663 0.036822628 1.077
-0.31494811 0.037901677 1.077
-0.30334505 0.035879608 1.0748461
-0.29923263 0.032831166 1.0700001
-0.32136407 0.042412259 1.075
-0.31546396 0.042524058 1.0716
-0.30512464 0.041957669 1.070923
-0.29923263 0.041273467 1.0700001
-0.31611723 0.089113168 1.0700001
-0.31779641 0.092166945 1.0706002
-0.021683648 0.10464998 1.0754001
-0.017837217 0.10607977 1.0708182
-0.014877278 0.1152728 1.07388
-0.0084423004 0.1181922 1.0700001
-0.01415752 0.12493998 1.0764781
-0.0064306194 0.12604907 1.0711538
-0.070898667 0.13634673 1.0726001
-0.068796419 0.1319401 1.075
-0.01038587 0.13123962 1.077
-0.0066014752 0.13330856 1.0754
-0.10036957 0.14633319 1.0700001
-0.094897307 0.14707394 1.0717647
-0.08585947 0.14845289 1.071
-0.075158678 0.14624922 1.0725999
-0.095325753 0.15289907 1.0766
-0.085289709 0.15283608 1.0755454
-0.076604664 0.15227175 1.0755001
-0.092054814 0.17565814 1.0715001
-0.089363016 0.17496338 1.0730001
-0.15102337 0.19792503 1.0700001
-0.14676555 0.1950614 1.0731667
-0.090989232 0.1998011 1.0700001
-0.085250936 0.1957856 1.0745833
-0.1716601 0.20918143 1.0700001
-0.16465898 0.20801787 1.07125
-0.15531465 0.20332399 1.07375
-0.10364454 0.20770086 1.0734286
-0.094721049 0.20566846 1.0735292
-0.08782997 0.20402655 1.0751818
-0.24107456 0.21856177 1.0700001
-0.22043782 0.21856177 1.0700001
-0.18396017 0.21850127 1.072
-0.17500107 0.21381745 1.0732499
-0.16510421 0.21190278 1.0762001
-0.11046789 0.21243826 1.077
-0.10732066 0.2118088 1.077
-0.24188285 0.22215652 1.0715001
-0.23545508 0.22606903 1.0707499
-0.22409232 0.22626024 1.070923
-0.21606494 0.22360177 1.0739167
-0.2053306 0.22637327 1.0735292
-0.19551477 0.22505523 1.0725293
-0.18577003 0.22223468 1.0756668
-0.23046252 0.23046252 1.0730001
-0.2272656 0.23229416 1.0756668
-0.1252932 -0.11203799 1.08
-0.11635295 -0.1078189 1.082
-0.091839589 -0.086158805 1.08
-0.088224553 -0.082888037 1.08
-0.092478819 -0.074605837 1.0811429
-0.085397005 -0.074685723 1.0802758
-0.078584403 -0.072903603 1.08
-0.080477998 -0.069116399 1.08
-0.075744003 -0.066275999 1.08
-0.27552742 -0.051560123 1.0825001
-0.27533361 -0.04499121 1.0842222
-0.27524865 -0.035158619 1.0838888
-0.28328183 -0.024346719 1.0840768
-0.27683881 -0.025767796 1.0823077
-0.30564424 -0.014890581 1.08
-0.28292277 -0.019140089 1.0808001
-0.27867478 -0.0192516 1.08
-0.30739442 -0.0072588003 1.08
-0.32113966 0.029541036 1.087
-0.31542203 0.029541036 1.087
-0.30780673 0.027548373 1.0836667
-0.32203209 0.032960039 1.082
-0.3147254 0.033961959 1.0815294
-0.30842012 0.034558199 1.08
-0.060035009 0.10863478 1.087
-0.056206021 0.10764941 1.0866666
-0.060035009 0.11149359 1.087
-0.021803284 0.11281063 1.0813333
-0.0198828 0.1164564 1.08
-0.064799696 0.1248347 1.087
-0.018259713 0.12511286 1.08
-0.068325214 0.13450763 1.0862501
-0.020011669 0.13817582 1.087
-0.014252972 0.13548012 1.0835713
-0.00789 0.13854839 1.08
-0.07137163 0.14464781 1.0855
-0.068763629 0.14152801 1.0864
-0.020488137 0.14294051 1.087
-0.0146046 0.14516656 1.085724
-0.0075974562 0.14527936 1.0831001
-0.092722692 0.15729123 1.0830001
-0.084514342 0.1576373 1.0832
-0.074808083 0.15596025 1.0847501
-0.068929084 0.15723455 1.087
-0.020011669 0.15151693 1.087
-0.014000015 0.15486309 1.0863999
-0.0064161592 0.15499176 1.0838124
-0.086717233 0.1610463 1.087
-0.075281993 0.1610463 1.087
-0.068169594 0.16000921 1.08
-0.015655389 0.16267991 1.087
-0.0057176198 0.16295217 1.087
-0.1505412 0.1997748 1.08
-0.14580721 0.19788119 1.08
-0.082201526 0.19725069 1.0828
-0.078617275 0.19773436 1.087
-0.16000921 0.20924281 1.08
-0.15350108 0.20562017 1.0837142
-0.14792225 0.20161001 1.0857999
-0.084171154 0.20538419 1.0832728
-0.17460699 0.21858265 1.0825
-0.16483778 0.21510819 1.0841111
-0.15835872 0.21104054 1.0860001
-0.10399137 0.21520357 1.0847646
-0.094803385 0.2140853 1.084125
-0.086837091 0.21159802 1.0851429
-0.2452212 0.22439159 1.08
-0.22155121 0.2281788 1.08
-0.21508279 0.22834782 1.0808001
-0.190938 0.2275476 1.08
-0.18467976 0.22654545 1.082294
-0.17732461 0.2234434 1.0845833
-0.10387009 0.22012837 1.087
-0.095293663 0.22012837 1.087
-0.23098765 0.23667778 1.0813333
-0.2238825 0.2356524 1.0836666
-0.21542767 0.233686 1.0844499
-0.20505244 0.23403017 1.0856667
-0.19509795 0.23164654 1.0856
-0.18582265 0.23156361 1.087
-0.22608927 0.24130666 1.0847501
-0.11604787 -0.11029343 1.0940001
-0.28474867 -0.044269595 1.0956365
-0.27998102 -0.042044934 1.09
-0.28463686 -0.035752218 1.0937144
-0.27998102 -0.035355967 1.09
-0.28427625 -0.02977204 1.0955
-0.32011482 0.027711432 1.09
-0.31509352 0.02413919 1.0928
-0.30864802 0.0229336 1.09
-0.060274344 0.11576734 1.0913334
-0.05682582 0.11509464 1.0925001
-0.063001983 0.12649094 1.0931251
-0.058663905 0.12598315 1.097
-0.063632183 0.13452718 1.091059
-0.0200669 0.13664603 1.09
-0.070839927 0.1483846 1.092
-0.066120319 0.14422329 1.0930834
-0.021978034 0.14456359 1.09
-0.094601102 0.15957963 1.09
-0.071333706 0.15487872 1.0922501
-0.069756366 0.1576685 1.09
-0.020964982 0.15743995 1.0941429
-0.01548018 0.15728627 1.09
-0.092529751 0.1625272 1.0937501
-0.084624313 0.16418305 1.0933572
-0.075533703 0.16511616 1.0938823
-0.069756366 0.16435747 1.09
-0.021022467 0.16531304 1.09
-0.01410228 0.16590501 1.0907501
-0.0076568066 0.16561987 1.092
-0.020466367 0.17524916 1.0943333
-0.015900919 0.17424572 1.0946429
-0.0076936269 0.1711832 1.097
-0.081223167 0.19971344 1.09
-0.15084453 0.20697457 1.0913334
-0.14440955 0.20552698 1.0949445
-0.13848528 0.20676623 1.097
-0.08128278 0.20559902 1.0908
-0.077804953 0.20479468 1.0957
-0.16298321 0.21827385 1.0927144
-0.15487218 0.2135215 1.0954667
-0.14564461 0.21146788 1.097
-0.1003345 0.21882476 1.09
-0.094123319 0.21882476 1.09
-0.08495789 0.2158917 1.0924286
-0.079821378 0.21061303 1.097
-0.17407005 0.22544992 1.0934001
-0.16645218 0.22244263 1.0957143
-0.1003345 0.22073589 1.09
-0.094075106 0.22100592 1.0913334
-0.087130323 0.22215347 1.097
-0.21353789 0.23871867 1.0906668
-0.20343341 0.23823103 1.0938572
-0.19489463 0.23713873 1.0951334
-0.18482119 0.23660028 1.09375
-0.17905478 0.23449042 1.0955715
-0.23220269 0.24175836 1.09
-0.22319691 0.24580748 1.0947778
-0.21531922 0.24360713 1.0948666
-0.20556408 0.24210881 1.097
-0.19714919 0.24138753 1.097
-0.18464704 0.24138753 1.097
-0.29237536 -0.041767906 1.108
-0.292687 -0.038767077 1.1055
-0.054395411 0.08450716 1.1079999
-0.049538679 0.085478507 1.108
-0.049538683 0.092277922 1.108
-0.05330747 0.1179289 1.1056668
-0.056178257 0.12492841 1.1027777
-0.06080823 0.13802503 1.1010001
-0.057373453 0.13194236 1.1018
-0.062912121 0.14615665 1.104125
-0.066355042 0.1533822 1.105
-0.093995981 0.16745187 1.1025001
-0.086225428 0.16859002 1.101
-0.070460327 0.16891176 1.1010001
-0.068747759 0.16459197 1.1045001
-0.092847005 0.17260876 1.106125
-0.084332354 0.17350724 1.1056666
-0.074547462 0.17354712 1.1043749
-0.068872243 0.17266695 1.1065
-0.012395452 0.17687355 1.1049
-0.0077566002 0.17740591 1.1058334
-0.021170748 0.18555701 1.1048572
-0.015481996 0.18415569 1.1039284
-0.007749733 0.18115002 1.105
-0.13545114 0.20816362 1.1010001
-0.07546895 0.20852108 1.10375
-0.15319222 0.21843596 1.1025
-0.14509764 0.21710795 1.1024998
-0.13640532 0.21428055 1.1054116
-0.12870343 0.2132106 1.108
-0.080667794 0.2164043 1.102
-0.076372959 0.21253605 1.1058888
-0.17292951 0.22799732 1.102
-0.16379367 0.22501929 1.1026666
-0.15528785 0.22234307 1.1061429
-0.14521633 0.22195271 1.108
-0.092660159 0.22489393 1.1010001
-0.083515048 0.22574306 1.1045624
-0.17537692 0.23448491 1.1052855
-0.16782711 0.23193598 1.1079999
-0.22296351 0.24998939 1.1010001
-0.21416937 0.24827348 1.101
-0.20460998 0.24700093 1.1024284
-0.19474411 0.24558708 1.1030951
-0.18458275 0.24593408 1.1029998
-0.17746821 0.24489139 1.1053571
-0.2237335 0.25416902 1.108
-0.21377595 0.25317833 1.1050833
-0.20519912 0.25221515 1.1069999
-0.1943341 0.25203654 1.1075714
-0.18546441 0.25222215 1.1076249
-0.29635543 -0.041918691 1.1120001
-0.29733026 -0.038994133 1.1120001
-0.051731847 0.083802082 1.1134286
-0.048489314 0.084611185 1.1136667
-0.053156685 0.094200112 1.1146001
-0.051992469 0.10104197 1.1190001
-0.052493777 0.11575288 1.1158333
-0.052211769 0.12409588 1.1173078
-0.048068509 0.12360474 1.1190001
-0.061802369 0.13831958 1.1190001
-0.057432074 0.1373512 1.1151249
-0.061415758 0.14525315 1.1120001
-0.058877312 0.14446953 1.1167144
-0.063356459 0.15684436 1.115
-0.059840392 0.15205345 1.1190001
-0.067312971 0.16443788 1.1174285
-0.09273468 0.17766395 1.1135001
-0.084860101 0.17849442 1.1126001
-0.075063705 0.17839816 1.1120001
-0.068218984 0.17691483 1.117
-0.0039099334 0.17790197 1.115
-0.091232069 0.18148315 1.1190001
-0.084833436 0.18239193 1.1169091
-0.07568457 0.18299171 1.1170716
-0.069650292 0.18148315 1.1190001
-0.011515892 0.18678996 1.1131999
-0.006200565 0.18469419 1.1173334
-0.022605602 0.19464855 1.1141428
-0.014501016 0.19474162 1.1153332
-0.0088289101 0.19227403 1.1190001
-0.13355491 0.20959346 1.1120001
-0.02156635 0.20488313 1.1182001
-0.016516738 0.20431262 1.1183848
-0.13355491 0.2160925 1.1120001
-0.12630011 0.21867211 1.113
-0.074587978 0.2177497 1.1146667
-0.069650292 0.21876077 1.1190001
-0.16242155 0.22875762 1.1127501
-0.15495202 0.22741257 1.1126431
-0.14521912 0.22693345 1.1145624
-0.13542077 0.22476318 1.11615
-0.12730716 0.22317941 1.1158571
-0.080912828 0.22519112 1.1120001
-0.075448014 0.22480693 1.1177367
-0.068996303 0.22268473 1.1190001
-0.17310609 0.23800348 1.1120001
-0.16409053 0.23589259 1.1131052
-0.15558742 0.23507881 1.1168635
-0.14420553 0.23131743 1.1190001
-0.079460189 0.23053265 1.1190001
-0.17335196 0.24475518 1.1146666
-0.16615979 0.24378139 1.1174614
-0.15793939 0.24191213 1.1190001
-0.22226657 0.25736129 1.1120001
-0.2154109 0.25835627 1.1132858
-0.20465273 0.25734884 1.113091
-0.19494127 0.25656286 1.1122001
-0.18353483 0.25659001 1.112231
-0.17616265 0.25507712 1.1152942
-0.22146213 0.26376235 1.1168001
-0.21571192 0.26205739 1.1167779
-0.20557855 0.26242596 1.118
-0.19386159 0.26232767 1.1157
-0.18459804 0.26385689 1.1153685
-0.1779364 0.26333749 1.1178572
-0.054147318 0.09943416 1.123
-0.05259968 0.10600796 1.1243638
-0.051790617 0.11443239 1.12525
-0.051193826 0.12896906 1.123
-0.048240338 0.12896906 1.123
-0.052317716 0.13128784 1.126
-0.057178393 0.14491957 1.1245
-0.060134511 0.15773118 1.1245
-0.063476659 0.16510688 1.1255001
-0.068586595 0.17097425 1.123
-0.084561333 0.18705735 1.1242001
-0.073907927 0.18773432 1.124125
-0.068038099 0.18360731 1.1248
-0.0039432468 0.18730554 1.1245
-0.076008752 0.19051544 1.126
-0.0068947636 0.19555211 1.1237501
-0.012995357 0.20575979 1.123
-0.0080944393 0.20394036 1.126
-0.021687856 0.21293662 1.1245
-0.01523072 0.21226312 1.1250001
-0.13192254 0.22938772 1.123
-0.12595123 0.22687204 1.1242001
-0.07383725 0.22938772 1.123
-0.068945013 0.22587915 1.1235001
-0.15062799 0.23726368 1.123
-0.14538236 0.23624022 1.1246156
-0.13585456 0.23324202 1.1251819
-0.12773418 0.23157993 1.126
-0.074921951 0.23265234 1.1245
-0.06811174 0.23098764 1.126
-0.17031792 0.24907765 1.123
-0.1634807 0.24817635 1.1233751
-0.15492928 0.24555464 1.1248947
-0.14905612 0.24283315 1.126
-0.1717782 0.25565416 1.1243638
-0.16537915 0.25430942 1.1256472
-0.15794027 0.2517173 1.126
-0.21194819 0.26617047 1.1245
-0.20505145 0.26617047 1.1245
-0.19493924 0.26756555 1.1238573
-0.18016289 0.2687676 1.123
-0.1746874 0.26485655 1.1246365
-0.19051544 0.27145982 1.126
-0.18459268 0.27145982 1.126
-0.052503567 0.1099603 1.13
-0.047992826 0.10757343 1.1326667
-0.052008253 0.11441815 1.13
-0.047119431 0.11373033 1.1340001
-0.052925531 0.13430358 1.132
-0.056532726 0.14579725 1.1313334
-0.057366993 0.15512234 1.1336364
-0.062189758 0.16675662 1.13
-0.057211265 0.16450854 1.1349999
-0.063769042 0.17518966 1.1335294
-0.05812709 0.17239065 1.1366667
-0.087175727 0.18921097 1.13
-0.065518402 0.18517289 1.1339999
-0.084013306 0.19461542 1.1345334
-0.074262217 0.1954719 1.1332501
-0.067208014 0.19338892 1.1345714
-0.0036410887 0.19639204 1.1333333
-0.080809377 0.20252228 1.138
-0.077483892 0.20185716 1.138
-0.004087239 0.20614424 1.1305
-0.021832507 0.21832682 1.132
-0.014510427 0.2169774 1.131091
-0.0061961454 0.21406919 1.1349231
-0.12183774 0.22698125 1.1336
-0.11775491 0.22654784 1.1364
-0.065718085 0.22773311 1.1323999
-0.022698494 0.22455306 1.1347274
-0.015996596 0.22418316 1.1358666
-0.0079811737 0.22047991 1.138
-0.1426512 0.23874263 1.13
-0.1348362 0.23764192 1.13
-0.1246029 0.23569396 1.1344001
-0.11871996 0.23245168 1.138
-0.080525339 0.23759946 1.1340001
-0.073987 0.23763548 1.1307273
-0.06535282 0.235434 1.1325884
-0.02095058 0.23045638 1.138
-0.017957639 0.23045638 1.138
-0.15156689 0.24864897 1.13
-0.14488989 0.24552773 1.1334547
-0.13511771 0.24428023 1.1342224
-0.1277768 0.24335565 1.1365
-0.082149275 0.24405277 1.1372001
-0.074574009 0.24460629 1.1342003
-0.066391133 0.24399503 1.1359999
-0.16394982 0.25805998 1.13
-0.15444812 0.25522539 1.132
-0.14426343 0.25451276 1.1369568
-0.13747571 0.25160649 1.138
-0.081807025 0.2543999 1.138
-0.075222559 0.25160646 1.138
-0.20307982 0.26846164 1.13
-0.17217207 0.26687664 1.13
-0.16492584 0.26462099 1.1333333
-0.15478872 0.26284152 1.1380002
-0.14520293 0.26183689 1.1380001
-0.21293269 0.27263719 1.135
-0.20447022 0.27263719 1.135
-0.19573928 0.27446696 1.1333847
-0.18576466 0.27680624 1.1322857
-0.17535576 0.27453628 1.1348422
-0.16810346 0.27185872 1.138
-0.19154815 0.28133637 1.138
-0.18256934 0.2810038 1.138
-0.17857875 0.2803387 1.138
-0.041227002 0.11664401 1.1470001
-0.052014388 0.13903846 1.141
-0.049013555 0.1370379 1.141
-0.052104503 0.14529505 1.143
-0.049357209 0.14404246 1.149
-0.052002598 0.15512258 1.1432223
-0.049357209 0.15411538 1.149
-0.051973682 0.16566308 1.1432858
-0.053503733 0.17543064 1.1435002
-0.049357209 0.17526846 1.149
-0.061016876 0.18605146 1.141
-0.055613007 0.18427767 1.1465557
-0.049357209 0.18030491 1.149
-0.08702407 0.19705451 1.141
-0.063209906 0.19632785 1.1445556
-0.057919174 0.19088146 1.149
-0.0010037833 0.19373018 1.1450001
0.0010002767 0.19905506 1.141
-0.083689809 0.20172246 1.141
-0.074063428 0.20657647 1.1438572
-0.066288933 0.20490876 1.1457502
0.00100203 0.20240831 1.1430001
-0.072356075 0.21460909 1.1481112
-0.065697014 0.21534194 1.1478573
-0.057187486 0.21554165 1.1471335
-0.063698374 0.22406951 1.1442502
-0.055322174 0.22532049 1.1474286
-0.025006916 0.22906336 1.141
-0.011028759 0.22759581 1.1436667
-0.0050122547 0.22581807 1.1438003
0.0016723876 0.22639127 1.1443334
-0.11377852 0.2359477 1.1422501
-0.10698537 0.23725939 1.147154
-0.099721707 0.23872773 1.149
-0.08302296 0.23906612 1.141
-0.061016876 0.2310639 1.141
-0.055194486 0.23545264 1.1448404
-0.023300128 0.23545998 1.1464547
-0.015423962 0.2354105 1.1445003
-0.0054841344 0.23313168 1.149
-0.13103624 0.24906889 1.141
-0.12325372 0.24612546 1.1416154
-0.11519144 0.24541196 1.1426003
-0.10648092 0.24402004 1.1472502
-0.084897712 0.24715251 1.146
-0.061859876 0.24764307 1.1418002
-0.055449706 0.24502486 1.1461431
-0.021153091 0.2417496 1.149
-0.016318098 0.24154814 1.149
-0.13355987 0.25624496 1.1420667
-0.12612627 0.25506344 1.1452106
-0.11634177 0.25303516 1.1465001
-0.085323676 0.25355142 1.1450002
-0.074615411 0.25592524 1.1431818
-0.065230921 0.25491592 1.1447779
-0.057079762 0.25215825 1.149
