# .PCD v0.7 - Point Cloud Data file format
VERSION 0.7
FIELDS x y z
SIZE 4 4 4
TYPE F F F
COUNT 1 1 1
WIDTH 1469
HEIGHT 1
VIEWPOINT 0 0 0 1 0 0 0
POINTS 1469
DATA ascii
-0.027906783 0.066976018 1.1235001
-0.252507 0.076403603 1.126
-0.24563932 0.074828714 1.124655
-0.23398203 0.074274808 1.123
-0.20152317 0.070680082 1.125
-0.19752374 0.071422689 1.1237501
-0.024433415 0.076343238 1.123
-0.24398845 0.085193537 1.1250626
-0.23526187 0.086120218 1.1232725
-0.22781253 0.0888016 1.123
-0.024884509 0.085000619 1.124125
-0.016512673 0.083549179 1.1245
-0.24250412 0.092460863 1.126
-0.23516203 0.095573775 1.1257598
-0.22590411 0.095658571 1.1235294
-0.025743416 0.09607546 1.1246667
-0.23263286 0.10167404 1.126
-0.22300608 0.10487839 1.1255716
-0.2171362 0.10599748 1.123
-0.030519396 0.10927913 1.123
-0.026616257 0.1049896 1.1245
-0.23592328 0.11944233 1.126
-0.22062281 0.11351956 1.126
-0.21479602 0.11559593 1.1251428
-0.20638947 0.11723465 1.1237501
-0.19985282 0.1191241 1.123
-0.033183292 0.1157616 1.1243334
-0.028626673 0.11154531 1.126
-0.24375211 0.12696919 1.1246667
-0.23512922 0.1244255 1.1243848
-0.22451954 0.12624206 1.1245788
-0.21415292 0.12375712 1.1251177
-0.20532236 0.12395489 1.1260002
-0.1991965 0.12339025 1.123
-0.052178323 0.12896906 1.123
-0.043165665 0.12772806 1.1242001
-0.037292879 0.12450963 1.1254001
-0.24439448 0.13511625 1.1250001
-0.23765747 0.13763264 1.123
-0.053219628 0.13423362 1.1242001
-0.045812469 0.13208398 1.1255714
-0.24250412 0.1418172 1.126
-0.23478369 0.14485636 1.1248
-0.22619539 0.14602396 1.1236924
-0.21954276 0.14865899 1.123
-0.056228742 0.14550453 1.12525
-0.22337036 0.15379371 1.1257502
-0.21669033 0.15575609 1.1239232
-0.0545711 0.15504025 1.1236
-0.21387745 0.16188879 1.126
-0.20537569 0.16545449 1.1245002
-0.19985282 0.16637993 1.123
-0.061235696 0.16716753 1.123
-0.055780016 0.16458592 1.1242001
-0.20137385 0.17077291 1.126
-0.19672734 0.17186646 1.1254001
-0.18353955 0.17705725 1.1247143
-0.1781939 0.1781939 1.123
-0.091558188 0.1752404 1.123
-0.086266518 0.17585573 1.123
-0.074643508 0.17725702 1.1233001
-0.066283174 0.1731052 1.1243125
-0.057253346 0.17077291 1.126
-0.18143387 0.18222357 1.126
-0.17563899 0.18369134 1.1245002
-0.16814058 0.18788309 1.126
-0.086164586 0.18265358 1.1246001
-0.075470321 0.18154156 1.1260002
-0.17077291 0.19051544 1.126
-0.16411398 0.19207805 1.1246365
-0.15478657 0.19422391 1.1246002
-0.14505608 0.19589636 1.1245002
-0.13636886 0.19749182 1.1245
-0.12503108 0.19985282 1.123
-0.086461157 0.19586793 1.1232998
-0.14214624 0.20236097 1.126
-0.1348456 0.20195299 1.1257274
-0.12574238 0.20390704 1.1253078
-0.11489619 0.20469263 1.1246156
-0.10588161 0.20667268 1.1235001
-0.095777452 0.20590043 1.123
-0.086835057 0.20484327 1.1246156
-0.10496446 0.21091606 1.126
-0.096146144 0.21144255 1.1260002
-0.14454383 -0.10207575 1.1353334
-0.1362121 -0.10253054 1.13
-0.12615608 -0.10194582 1.1305715
-0.11748911 -0.10045022 1.13
-0.16168889 -0.091045335 1.135
-0.15404962 -0.093863256 1.1354119
-0.14589357 -0.09512639 1.1310667
-0.1396793 -0.0980727 1.13
-0.12283853 -0.097082071 1.13
-0.11554386 -0.096811898 1.13
-0.0980727 -0.094110169 1.13
-0.17059758 -0.081807025 1.138
-0.16456759 -0.084137946 1.1318947
-0.15627244 -0.085194468 1.13
-0.085854888 -0.082222559 1.13
-0.17059758 -0.076818794 1.138
-0.16606906 -0.077576935 1.1316
-0.12283853 -0.078260034 1.13
-0.084203832 -0.078260034 1.13
-0.071820915 -0.072316237 1.13
-0.067363068 -0.070334964 1.13
-0.0713256 -0.064391173 1.13
-0.065096699 -0.063709117 1.1320002
-0.05865426 -0.061636679 1.1340001
-0.063613981 -0.055372026 1.1310525
-0.05509292 -0.054192349 1.1332729
-0.048712861 -0.05169528 1.1340001
-0.060758848 -0.045238923 1.13
-0.054617811 -0.044691272 1.13288
-0.048884686 -0.048884686 1.138
-0.072785124 -0.032203473 1.1328572
-0.06184382 -0.034106094 1.13
-0.054641794 -0.034776945 1.13336
-0.048884686 -0.030927047 1.138
-0.070832916 -0.028931754 1.138
-0.063604616 -0.025101071 1.1317999
-0.054797653 -0.025001219 1.1331668
-0.048884686 -0.028931754 1.138
-0.091783494 -0.010974113 1.138
-0.084225655 -0.011843765 1.1362222
-0.074692003 -0.011952473 1.1359999
-0.064069659 -0.014638898 1.1338181
-0.055718303 -0.014925249 1.1350002
-0.20252228 -0.00099764671 1.138
-0.19482614 -0.0015677306 1.138
-0.18855523 -0.00099764671 1.138
-0.10130935 -0.0016615755 1.1366667
-0.094605178 -0.0049827625 1.1359203
-0.084479168 -0.0049715424 1.1336802
-0.074361183 -0.0049604611 1.13096
-0.064408265 -0.0049554124 1.1303197
-0.056415249 -0.0052218651 1.1339999
-0.23444697 0.0079811737 1.138
-0.22414565 0.0069777886 1.1372727
-0.21492586 0.0054424307 1.1347619
-0.20571202 0.0051356587 1.1345001
-0.19529921 0.0045779529 1.1326153
-0.18523848 0.0052944827 1.1340003
-0.17529108 0.0061840061 1.1346668
-0.1652354 0.0059119896 1.1338097
-0.15512431 0.0063211354 1.1331581
-0.14431491 0.0065148016 1.1344446
-0.1341971 0.0057069156 1.1356844
-0.12463886 0.0057684667 1.1356
-0.11479738 0.0053222813 1.1360872
-0.10416115 0.005128792 1.1333333
-0.094771862 0.0041613611 1.1307999
-0.084203832 0.0019812663 1.13
-0.074297495 0.0018711961 1.13
-0.055391733 0.0051560523 1.1332382
-0.24043283 0.0149647 1.138
-0.2339219 0.015174731 1.1380002
-0.22471578 0.014914026 1.1342001
-0.21502912 0.014863709 1.1303197
-0.19656996 0.011746081 1.13
-0.17336082 0.010896967 1.13
-0.16543576 0.010896967 1.13
-0.15503412 0.010896967 1.13
-0.14562309 0.010896967 1.13
-0.13571677 0.0118876 1.13
-0.12448623 0.011406749 1.1315
-0.11531273 0.013172293 1.1311429
-0.10797904 0.012029119 1.13
-0.060428634 0.011887601 1.13
-0.054134652 0.014434716 1.1321819
-0.047718719 0.01888866 1.1340001
-0.24043283 0.024941167 1.138
-0.23407285 0.024567051 1.1380002
-0.22456153 0.024840001 1.1334002
-0.21744405 0.02427052 1.13
-0.20704237 0.020803301 1.13
-0.052107316 0.021595808 1.13
-0.047177527 0.025160626 1.133
-0.24043284 0.031924695 1.138
-0.23444696 0.03491763 1.1380001
-0.22444209 0.034760181 1.1327999
-0.21694873 0.035238244 1.13
-0.044119127 0.034780171 1.1336
-0.037748516 0.03689339 1.1374285
-0.23045638 0.040903512 1.138
-0.22424504 0.044405229 1.1344707
-0.20585361 0.04814478 1.13
-0.04316619 0.041927896 1.132
-0.037179433 0.043340296 1.1340001
-0.22280777 0.052210178 1.138
-0.2146495 0.054409362 1.1322857
-0.20563509 0.054404184 1.1301817
-0.26238108 0.067341149 1.138
-0.25495136 0.066635422 1.1345333
-0.24483588 0.065549247 1.133
-0.23533726 0.0640966 1.1326667
-0.22413971 0.063160606 1.1346667
-0.21452737 0.063400097 1.13225
-0.20517093 0.063912027 1.1310908
-0.19741908 0.063542053 1.13
-0.02783592 0.066607378 1.1340001
-0.27036226 0.076818794 1.138
-0.26428807 0.075314216 1.136
-0.2563099 0.073504977 1.13
-0.20506109 0.070334964 1.13
-0.26388294 0.084494643 1.1377145
-0.25514409 0.084387995 1.1324348
-0.24864897 0.087175727 1.13
-0.021945972 0.086229682 1.1305715
-0.017349232 0.087749071 1.131
-0.26038578 0.090785846 1.138
-0.25356054 0.093875229 1.1374286
-0.24620716 0.094744287 1.1316667
-0.2347801 0.0980727 1.13
-0.022319933 0.093753643 1.1316667
-0.016918382 0.09455622 1.1353334
-0.25040931 0.10076232 1.138
-0.24446999 0.10415872 1.1351112
-0.23500454 0.10575721 1.1305997
-0.22729532 0.1077589 1.13
-0.022810865 0.10542167 1.1314286
-0.017270917 0.1038017 1.1366667
-0.24412322 0.11519166 1.1371112
-0.23539434 0.11551486 1.1336923
-0.22561096 0.11632055 1.1303807
-0.03120495 0.11838068 1.13
-0.025103917 0.11465614 1.1349412
-0.25390518 0.12637311 1.1364616
-0.24674727 0.12317909 1.1324615
-0.23279883 0.12283853 1.13
-0.2258644 0.12250832 1.13
-0.033112977 0.12551299 1.1321818
-0.027748004 0.12252569 1.1362857
-0.26038578 0.132687 1.138
-0.25490272 0.1344201 1.1357778
-0.24894238 0.13786052 1.1313334
-0.052503567 0.13868867 1.13
-0.043827537 0.13590668 1.1303077
-0.035925139 0.13439323 1.1345
-0.25413787 0.14261852 1.1376363
-0.24575914 0.1456859 1.1332728
-0.2374218 0.1489252 1.13
-0.052996602 0.14549944 1.1321332
-0.045319147 0.14329302 1.1354738
-0.037532434 0.1418324 1.1366667
-0.24292065 0.15340184 1.1369091
-0.23476344 0.15464905 1.1335001
-0.22660738 0.15701538 1.13
-0.052623961 0.15225361 1.1326667
-0.048712861 0.15011513 1.1340001
-0.23245168 0.16062111 1.138
-0.22475664 0.16290009 1.1344
-0.21531919 0.16647185 1.1318462
-0.20836322 0.16873787 1.13
-0.051439993 0.16564547 1.1328
-0.21337189 0.17348941 1.1373333
-0.20552364 0.17375326 1.1325455
-0.19483741 0.17664658 1.1320001
-0.18745296 0.1795162 1.1313334
-0.062923037 0.17721115 1.1303333
-0.054546092 0.17511088 1.133765
-0.19210045 0.18445767 1.1373333
-0.18582003 0.18568747 1.1326667
-0.17562513 0.18864489 1.13
-0.082874462 0.18775991 1.1308
-0.074163593 0.18727419 1.1317501
-0.06521523 0.184543 1.1342354
-0.058196053 0.18123914 1.138
-0.19055051 0.19154815 1.138
-0.18489718 0.19254579 1.138
-0.17553464 0.19398481 1.1347274
-0.16606219 0.19727503 1.1318182
-0.15552942 0.1991173 1.13
-0.14958563 0.1991173 1.13
-0.081657678 0.19517007 1.1321818
-0.07542038 0.19424953 1.1362858
-0.06883762 0.19055051 1.138
-0.17059758 0.20052698 1.138
-0.1633016 0.20237991 1.1372001
-0.15367198 0.20401126 1.1343077
-0.1453996 0.20424826 1.1313335
-0.13567002 0.20673203 1.131
-0.12502393 0.20856324 1.1305715
-0.11828162 0.20823112 1.13
-0.082198024 0.20581792 1.1321819
-0.078814089 0.20451756 1.138
-0.14366111 0.21050344 1.138
-0.13327552 0.2127068 1.1373333
-0.12364612 0.21324706 1.1355999
-0.11458083 0.21411632 1.1337143
-0.10463414 0.2162212 1.1324
-0.093846224 0.21620016 1.1315999
-0.086208694 0.21394826 1.1350909
-0.10375526 0.22214265 1.138
-0.094776429 0.22167706 1.138
-0.16131397 -0.10228742 1.1476668
-0.15443812 -0.10301111 1.1426667
-0.1477946 -0.10575844 1.1416668
-0.16414414 -0.094465502 1.1463335
-0.15732105 -0.098199517 1.143
-0.17353092 -0.084755041 1.1475
-0.1750493 -0.076475583 1.1453334
-0.16904676 -0.075020753 1.141
-0.046452522 -0.043445844 1.1436666
-0.077561326 -0.032233283 1.149
-0.044178542 -0.035145275 1.1454446
-0.094537884 -0.022264119 1.1485556
-0.085081801 -0.024469143 1.1469049
-0.075507306 -0.024946718 1.1458336
-0.068907931 -0.023906175 1.1458
-0.044276312 -0.024702186 1.1454003
-0.22059651 -0.01108019 1.149
-0.21415827 -0.011938071 1.1484287
-0.20539556 -0.011579013 1.1485001
-0.19440696 -0.01108019 1.149
-0.18433407 -0.01108019 1.149
-0.17291813 -0.01108019 1.149
-0.11281648 -0.01108019 1.149
-0.10466874 -0.013713805 1.1480001
-0.095681034 -0.015419921 1.1456959
-0.085498452 -0.016800659 1.1440002
-0.07519608 -0.017046781 1.1436669
-0.069261052 -0.017064316 1.1450001
-0.045526095 -0.015322874 1.1453481
-0.23401251 -0.0022156877 1.1486001
-0.22464144 -0.0050264569 1.1460003
-0.2154274 -0.0048508896 1.1438336
-0.20572224 -0.0055613355 1.143182
-0.19545618 -0.0065477211 1.1433531
-0.18500708 -0.0055212467 1.1438335
-0.17513472 -0.0051050331 1.1456156
-0.16514386 -0.0046951347 1.1463336
-0.15456589 -0.0048545604 1.1458697
-0.14481656 -0.0042968621 1.1457274
-0.13497353 -0.0031503311 1.145
-0.12551604 -0.0040214462 1.1454003
-0.11553379 -0.0040233741 1.1460001
-0.10585639 -0.0054793265 1.1450002
-0.05101411 -0.0040011066 1.141
-0.047392938 -0.0057978015 1.1465386
-0.25327966 0.0076221153 1.1484287
-0.24494588 0.0056521478 1.1458423
-0.23507708 0.0042276764 1.1432223
-0.22622456 0.0026688653 1.1426667
-0.21806031 0.0010002767 1.141
-0.18105008 0.0010002767 1.141
-0.17504841 0.0010002767 1.141
-0.16504565 0.0010002767 1.141
-0.15437603 0.0013337022 1.1409999
-0.14704067 0.0020005533 1.1409999
-0.13663778 0.0014003873 1.141
-0.12436774 0.0030008301 1.141
-0.11141995 0.0010037833 1.1450001
-0.10903016 0.0010002767 1.141
-0.047828831 0.0050220722 1.1462001
-0.25494704 0.015722468 1.1477501
-0.24637297 0.015023611 1.1424003
-0.23506501 0.011003044 1.141
-0.045853857 0.01461647 1.1454444
-0.2557196 0.025168398 1.1484001
-0.24650288 0.02505075 1.1430002
-0.23456487 0.026507331 1.141
-0.041972421 0.025066528 1.1438571
-0.039010789 0.029008023 1.141
-0.25505948 0.034863535 1.1478237
-0.24594322 0.035345942 1.1434351
-0.23406473 0.035009686 1.1409999
-0.039010789 0.031008577 1.141
-0.25394899 0.043313473 1.149
-0.24530445 0.044885658 1.1446366
-0.23526607 0.045185734 1.1411669
-0.22906335 0.047013 1.141
-0.2518225 0.059430111 1.149
-0.24512677 0.055287078 1.1466843
-0.23549129 0.055117749 1.1430802
-0.22592947 0.056149237 1.1414446
-0.27107498 0.069019087 1.141
-0.26653647 0.067634396 1.1430001
-0.25496447 0.062232815 1.1450001
-0.24588014 0.061385956 1.1416668
-0.23266435 0.061817098 1.141
-0.22706281 0.061016876 1.141
-0.2810339 0.078568622 1.149
-0.2745834 0.076017581 1.1439337
-0.2685743 0.072520055 1.141
-0.27414307 0.084806874 1.1465002
-0.26806134 0.085486047 1.1418
-0.27096102 0.092670679 1.149
-0.26468602 0.095323831 1.1459414
-0.25704545 0.096863553 1.142
-0.011003044 0.096026555 1.141
-0.00900249 0.099027388 1.141
-0.25493708 0.10511245 1.1460001
-0.24906889 0.10802988 1.141
-0.012022607 0.10646437 1.1430001
-0.0085461847 0.10809782 1.1470001
-0.2537528 0.11607023 1.1463336
-0.24906889 0.11403154 1.141
-0.021005809 0.11903292 1.141
-0.015607589 0.11530309 1.1447779
-0.0090656104 0.11180919 1.149
-0.27163255 0.12859736 1.149
-0.26468846 0.12732911 1.1436666
-0.25724599 0.12310482 1.1440001
-0.023807796 0.12616628 1.1446364
-0.017773248 0.12308254 1.1476668
-0.27156803 0.13561827 1.1458889
-0.26521316 0.13544685 1.1425557
-0.25907165 0.13903846 1.141
-0.031008577 0.13803819 1.141
-0.028091468 0.1344513 1.1445
-0.27196831 0.1410206 1.149
-0.2644839 0.143796 1.1456667
-0.25562972 0.14744762 1.1426001
-0.042547699 0.1486717 1.1420001
-0.034924407 0.14618552 1.1442728
-0.029211409 0.14001331 1.149
-0.25454485 0.1541903 1.1468184
-0.24701957 0.15651745 1.1424546
-0.05101411 0.15704344 1.141
-0.044954494 0.15548261 1.1450001
-0.038113587 0.15375192 1.1484287
-0.25121814 0.1625766 1.149
-0.24480087 0.16410358 1.1462309
-0.23576438 0.16463196 1.1438236
-0.22666284 0.16790982 1.1423334
-0.046307873 0.16308688 1.1483334
-0.23268397 0.17090355 1.149
-0.22439063 0.17503843 1.1447649
-0.21686994 0.17678823 1.143
-0.20520189 0.17917506 1.1418002
-0.19705451 0.17904954 1.141
-0.04776036 0.17696919 1.1470001
-0.22261108 0.18231948 1.149
-0.21358143 0.18343285 1.1465001
-0.20503636 0.18462262 1.1452224
-0.19706072 0.18571584 1.1417999
-0.061016876 0.18905228 1.141
-0.054532062 0.18579176 1.1440002
-0.047928244 0.1826725 1.1470001
-0.20212953 0.19407122 1.149
-0.19518982 0.19481516 1.1432501
-0.18576421 0.19762653 1.1433334
-0.17670575 0.19872938 1.1420001
-0.072646298 0.19890383 1.143
-0.064966619 0.19538338 1.1442941
-0.055783175 0.19232541 1.1486001
-0.19390333 0.20095435 1.149
-0.18453118 0.20265238 1.1484287
-0.17487499 0.20459935 1.1464287
-0.16582149 0.20567389 1.1422
-0.1568947 0.20863527 1.1423334
-0.07452818 0.20498295 1.1458001
-0.067206368 0.20288083 1.1485001
-0.16318098 0.21102725 1.149
-0.15360194 0.21329884 1.1476667
-0.14511903 0.21517132 1.1438572
-0.13584712 0.21701333 1.143
-0.12567241 0.21851277 1.1427779
-0.1163398 0.21963656 1.1440001
-0.082794681 0.21871975 1.1434001
-0.078078948 0.21458627 1.1467779
-0.14202788 0.22059651 1.149
-0.13430534 0.22328262 1.149
-0.12655538 0.22317281 1.148
-0.11483609 0.22464103 1.1465001
-0.10626209 0.22693649 1.1435001
-0.095004357 0.22736174 1.1437502
-0.085106201 0.22500853 1.1450001
-0.078680538 0.22440185 1.149
-0.11248072 0.23134093 1.149
-0.10572934 0.23361027 1.1486001
-0.095404752 0.23455463 1.149
-0.086770833 0.23297176 1.149
-0.079575911 0.23066941 1.149
-0.17243156 -0.10041603 1.1570001
-0.16568562 -0.10054262 1.1537999
-0.17418051 -0.093993574 1.1566923
-0.16765052 -0.096811764 1.1543332
-0.18280809 -0.082449332 1.1563333
-0.17737399 -0.086536631 1.1545
-0.19508433 -0.072015539 1.1570001
-0.18436624 -0.07475692 1.1551175
-0.17891102 -0.075809747 1.153
-0.19525337 -0.068465479 1.1569999
-0.18625046 -0.068402871 1.1551819
-0.043537896 -0.043032497 1.155
-0.090272993 -0.031443402 1.1570001
-0.083185703 -0.033995621 1.1559089
-0.079179071 -0.03335629 1.153
-0.041442662 -0.03942107 1.153
-0.037860766 -0.03436254 1.1559091
-0.013185943 -0.039557829 1.1570001
-0.23024686 -0.02130037 1.1570001
-0.22754204 -0.021976573 1.1570001
-0.20488927 -0.02130037 1.1570001
-0.19576055 -0.02130037 1.1570001
-0.18536395 -0.022061097 1.1570001
-0.17953169 -0.022314673 1.1570001
-0.14504537 -0.02130037 1.1570001
-0.13625474 -0.02130037 1.1570001
-0.10282184 -0.02270529 1.1547143
-0.094596714 -0.026661284 1.1547778
-0.087265454 -0.028639236 1.153
-0.036625426 -0.025112854 1.1555262
-0.24038988 -0.011157337 1.1570001
-0.23285507 -0.013185943 1.1570002
-0.22505775 -0.014314543 1.1557498
-0.2152928 -0.016641513 1.1552856
-0.2055532 -0.016550591 1.1556666
-0.19552401 -0.016212199 1.1555998
-0.1854243 -0.016214829 1.1557999
-0.17617849 -0.014957942 1.1553527
-0.16559692 -0.012661549 1.1553332
-0.15420182 -0.013015062 1.1554615
-0.14498518 -0.015209922 1.1565198
-0.13484778 -0.015209639 1.1565198
-0.12492295 -0.013945624 1.1543332
-0.11444455 -0.014924591 1.1539999
-0.10699395 -0.017889552 1.155
-0.041442662 -0.01212956 1.153
-0.036433112 -0.015628707 1.1561576
-0.25053293 -0.0010143033 1.1570001
-0.24341935 -0.0038855327 1.1553332
-0.23561206 -0.0067737335 1.1542307
-0.22945084 -0.0090971701 1.153
-0.16172746 -0.0090971701 1.153
-0.15869507 -0.0090971701 1.153
-0.14454392 -0.0090971701 1.153
-0.13519405 -0.0083390716 1.153
-0.12432799 -0.0090971701 1.153
-0.11523081 -0.0090971701 1.153
-0.043347102 -0.004508697 1.1548181
-0.039557829 -0.0091287298 1.1570001
-0.27081898 0.0091287298 1.1570001
-0.2646983 0.0077556754 1.1538889
-0.25658423 0.0039177136 1.1539999
-0.24764518 0.0010107966 1.153
-0.044609621 0.004309474 1.1565001
-0.27263531 0.015501596 1.1567142
-0.26506105 0.015175101 1.1539999
-0.25926936 0.012634958 1.153
-0.043149006 0.014786387 1.1554
-0.27229434 0.02443549 1.1569999
-0.26487517 0.025273597 1.1531999
-0.041442662 0.02122673 1.153
-0.27081898 0.034993462 1.1570001
-0.26524553 0.03543381 1.1547998
-0.25977474 0.037399478 1.153
-0.26481858 0.045263276 1.1558887
-0.25673282 0.047054134 1.1533077
-0.26135215 0.054096181 1.1570001
-0.25519955 0.055381015 1.153
-0.24966678 0.055593815 1.153
-0.26225042 0.062776342 1.155
-0.28403386 0.079852939 1.153
-0.28465694 0.084872574 1.1562728
-0.27864295 0.088613175 1.153
-0.28212124 0.093750603 1.1570002
-0.27571279 0.095423162 1.1544285
-0.26988271 0.098047279 1.153
-0.2739971 0.1037959 1.1564999
-0.26556924 0.10455739 1.1532105
-0.25977474 0.10815524 1.153
-0.27149519 0.11123526 1.1570001
-0.26525798 0.11421175 1.1563332
-0.25887623 0.11377078 1.153
-0.01113805 0.11543246 1.155
-0.0080863731 0.11320923 1.153
-0.26453 0.12226409 1.155
-0.25977474 0.1202848 1.153
-0.023248322 0.12837118 1.153
-0.015186106 0.12542206 1.1547778
-0.024149286 0.13376842 1.1547143
-0.018595561 0.13152133 1.1570001
-0.27440017 0.144291 1.155
-0.26685032 0.1480817 1.153
-0.031334698 0.14656551 1.153
-0.028302306 0.14151153 1.153
-0.26403281 0.15352114 1.1555454
-0.2584821 0.15681112 1.154
-0.035392348 0.15522347 1.1535
-0.26067597 0.16228853 1.1570001
-0.25569728 0.16521396 1.1541427
-0.24663438 0.16880304 1.153
-0.043715302 0.16538851 1.1548181
-0.03746435 0.16200975 1.155
-0.25205439 0.17192443 1.1570001
-0.24412212 0.17418779 1.1561428
-0.23583259 0.17533186 1.1545554
-0.22945084 0.17891102 1.153
-0.046177167 0.17443275 1.1558571
-0.23092306 0.18358891 1.1570001
-0.2251659 0.18488461 1.1552222
-0.21628195 0.18751949 1.1534444
-0.20923491 0.18901898 1.153
-0.04640187 0.1866179 1.1534444
-0.21390471 0.19456625 1.1563846
-0.20702331 0.19614145 1.1547499
-0.061658595 0.19912694 1.153
-0.055276942 0.19710873 1.1540909
-0.048012398 0.19441399 1.1543334
-0.20319337 0.20217906 1.156
-0.19450641 0.2046304 1.1547143
-0.18563475 0.20774354 1.1549999
-0.17709631 0.20947687 1.1543332
-0.071766563 0.20923491 1.153
-0.064970501 0.20639233 1.1550001
-0.058336787 0.20338579 1.1558571
-0.047672257 0.20184636 1.1570001
-0.17408879 0.21400438 1.1560769
-0.16556709 0.21551582 1.1548666
-0.15505621 0.21732128 1.153
-0.074349612 0.21473004 1.1547778
-0.068364047 0.21280083 1.1570001
-0.16446206 0.22068344 1.1570002
-0.15455449 0.22390747 1.1569998
-0.14513871 0.22530164 1.1548822
-0.13474782 0.22727519 1.1535
-0.12416143 0.22707708 1.154143
-0.11826321 0.22844005 1.153
-0.075621039 0.22458798 1.154
-0.14436917 0.23058496 1.1570001
-0.13467696 0.23159927 1.1570001
-0.12501289 0.23100761 1.1570001
-0.11502673 0.23491266 1.155
-0.10411205 0.23753722 1.153
-0.095014885 0.2395588 1.153
-0.085231513 0.23748966 1.1539999
-0.078288257 0.23325033 1.1537999
-0.10447325 0.24038987 1.1570001
-0.17675968 -0.094656326 1.161
-0.19065835 -0.081566818 1.1630001
-0.18623978 -0.085381038 1.1631819
-0.19357064 -0.075461023 1.1614445
-0.18829484 -0.077353559 1.161
-0.20217659 -0.062856898 1.1627779
-0.19512157 -0.062748842 1.1615
-0.18705419 -0.064658895 1.1634001
-0.20393984 -0.057390105 1.169
-0.19745427 -0.057802577 1.1670001
-0.18446821 -0.042017758 1.169
-0.175928 -0.042017758 1.169
-0.1670462 -0.042017758 1.169
-0.13015257 -0.042017758 1.169
-0.12810291 -0.042017758 1.169
-0.091788463 -0.04265305 1.1676668
-0.085551389 -0.044378683 1.1663334
-0.043235738 -0.046643633 1.1650001
-0.036900993 -0.044145498 1.1668462
-0.026425013 -0.043218791 1.1681999
-0.019405017 -0.041873984 1.1650001
-0.2106012 -0.033306755 1.169
-0.20451015 -0.035605077 1.167316
-0.19520488 -0.035776805 1.1658001
-0.18483435 -0.035745662 1.1648401
-0.17471571 -0.035765585 1.1654801
-0.16631857 -0.035057683 1.1675
-0.15782279 -0.031769522 1.169
-0.143787 -0.033797428 1.1681999
-0.13509512 -0.035680901 1.165522
-0.12613799 -0.034698326 1.1658423
-0.11572625 -0.033797432 1.1682
-0.10487177 -0.03297757 1.1681999
-0.095170051 -0.035926387 1.1651669
-0.086055219 -0.037512127 1.1616668
-0.033772957 -0.036542594 1.1624287
-0.025513982 -0.035723779 1.1642003
-0.015782071 -0.0352793 1.1650002
-0.0085401945 -0.034502383 1.169
-0.23307849 -0.02137401 1.161
-0.22351742 -0.024370706 1.1650001
-0.21450326 -0.024816597 1.1646
-0.20468594 -0.025860706 1.1621428
-0.19449866 -0.026220724 1.1609999
-0.18422364 -0.027226418 1.161
-0.17506334 -0.025445253 1.1609999
-0.16529119 -0.025623843 1.1626551
-0.15492418 -0.025613191 1.1643045
-0.14529039 -0.025375513 1.161909
-0.13518369 -0.026000418 1.1609998
-0.12544523 -0.025497852 1.1634002
-0.11531594 -0.025514118 1.1640402
-0.1058659 -0.026814189 1.1631176
-0.097200848 -0.029007584 1.161
-0.03189138 -0.02612379 1.1610001
-0.025445249 -0.025445247 1.1609998
-0.01565578 -0.025600996 1.1639566
0.00307447 -0.025620583 1.169
-0.25108171 -0.01229788 1.169
-0.24398611 -0.01377258 1.1636667
-0.23537622 -0.016147573 1.1615715
-0.22464521 -0.018175179 1.1610001
-0.17363837 -0.018524142 1.161
-0.1654333 -0.01761594 1.1610001
-0.15657309 -0.017642038 1.1610001
-0.12420926 -0.018494535 1.1627142
-0.11672308 -0.018944593 1.1618
-0.032569919 -0.01391007 1.1610001
-0.025445247 -0.01526715 1.1609998
-0.015452127 -0.015202641 1.1624998
-0.0085401945 -0.011956272 1.169
-0.25345266 -0.0042619151 1.1650001
-0.24669887 -0.0071326843 1.162143
-0.04173021 -0.00101781 1.161
-0.035476949 -0.0049213138 1.1618334
-0.025479056 -0.0050925571 1.1624401
-0.015274866 -0.0050925557 1.1617999
-0.0080812098 -0.0060315635 1.1685555
-0.04206948 0.0054283198 1.1610001
-0.035959985 0.0049464446 1.1665003
-0.025562374 0.0051155607 1.1662804
-0.015329569 0.0051113521 1.1659604
-0.0082999878 0.0055671255 1.1672223
-0.28086209 0.019405017 1.1650001
-0.27786213 0.018320579 1.161
-0.041766156 0.014771394 1.1620001
-0.038738322 0.012912774 1.169
-0.023058526 0.015030742 1.1689999
-0.015531171 0.015274383 1.1680002
-0.0091918502 0.01531975 1.1650001
-0.28186557 0.024541989 1.1663333
-0.27705032 0.026609268 1.1623334
-0.015372348 0.023570938 1.1689999
-0.0081845596 0.022509294 1.1670001
-0.27637297 0.035610378 1.1650001
-0.27618477 0.044837937 1.1676668
-0.26870185 0.04885488 1.161
-0.27362785 0.052778404 1.169
-0.26725096 0.055617489 1.1662
-0.27198812 0.06456387 1.169
-0.26754349 0.062099185 1.1667143
-0.29058474 0.087022752 1.161
-0.28804022 0.088549472 1.161
-0.29224968 0.093890123 1.1683334
-0.28654796 0.095149495 1.1624546
-0.28390396 0.10588805 1.1669999
-0.27826923 0.10646292 1.161
-0.28286332 0.11285909 1.1682001
-0.27590063 0.11589631 1.1638234
-0.26971966 0.11806596 1.161
-0.01119591 0.11908377 1.161
-0.0061250953 0.11785854 1.1650001
-0.27341762 0.12353526 1.1670001
-0.26971966 0.12519063 1.161
-0.012240604 0.12616138 1.1636667
-0.0061390046 0.12386277 1.1676666
-0.022278981 0.13702762 1.1627144
-0.016256299 0.13548714 1.1646923
-0.28182641 0.14859939 1.169
-0.27833903 0.14681888 1.1630001
-0.026004758 0.14434326 1.1658889
-0.01844682 0.14142561 1.169
-0.27503794 0.15346108 1.1669999
-0.26723728 0.15716371 1.1626
-0.032642394 0.15505663 1.1636667
-0.27157819 0.16089725 1.169
-0.26600066 0.16410008 1.1669999
-0.04173021 0.16895646 1.161
-0.035697624 0.1658954 1.1635456
-0.26132995 0.1711455 1.169
-0.25531402 0.17560422 1.1655715
-0.24783674 0.17760785 1.161
-0.043259699 0.17508905 1.1656667
-0.038536806 0.17221911 1.1670001
-0.25147855 0.18187004 1.1676668
-0.24530305 0.18433431 1.1665001
-0.23668483 0.18286027 1.1615715
-0.22595382 0.18829484 1.161
-0.04313755 0.18171634 1.1623334
-0.22360501 0.19370958 1.166
-0.21832025 0.19694623 1.161
-0.046426952 0.19796623 1.164
-0.21326305 0.20363852 1.1655715
-0.20460138 0.20635216 1.1644286
-0.19711657 0.20812435 1.1626
-0.061068602 0.20865105 1.161
-0.053633589 0.20550184 1.1631335
-0.046390962 0.20316605 1.1645555
-0.21008877 0.21008877 1.169
-0.20234315 0.21189646 1.1676668
-0.19477691 0.21421 1.1667143
-0.18458197 0.21543206 1.16325
-0.17709894 0.21781135 1.161
-0.071857378 0.21801491 1.161
-0.06364055 0.21527454 1.1625556
-0.055466175 0.21287079 1.1674
-0.18446821 0.22264287 1.169
-0.17516804 0.22500627 1.1654446
-0.16544493 0.22612138 1.1618572
-0.15843908 0.22765017 1.1610001
-0.072237186 0.22555888 1.1633334
-0.065786168 0.22270796 1.168
-0.17319515 0.23058525 1.169
-0.16451946 0.23319128 1.1672223
-0.15472583 0.23470558 1.1645554
-0.1453329 0.23531836 1.1620001
-0.13555378 0.23622446 1.1610001
-0.12512822 0.23582669 1.1620002
-0.11755706 0.23867644 1.161
-0.081424803 0.23918535 1.161
-0.074551903 0.23469718 1.1650001
-0.15167385 0.24083348 1.169
-0.14527945 0.24042144 1.1670001
-0.13501264 0.24221082 1.1675453
-0.12533742 0.24202451 1.1675454
-0.11467331 0.24453697 1.1658
-0.10505021 0.24580163 1.1634002
-0.095465928 0.24556033 1.1646667
-0.08459086 0.24450643 1.1646923
-0.078138173 0.24124201 1.1676668
-0.11273056 0.25108171 1.169
-0.10611612 0.25113693 1.1676668
-0.19295345 -0.060878363 1.177
-0.10008816 -0.060878363 1.177
-0.21080765 -0.051416501 1.1730001
-0.20438059 -0.052701905 1.1730002
-0.19661057 -0.053733177 1.1742002
-0.17352052 -0.052279722 1.177
-0.16498165 -0.054652978 1.1762002
-0.15595667 -0.054508213 1.1768334
-0.1459652 -0.052306179 1.177
-0.13465469 -0.052107755 1.177
-0.12471323 -0.05330202 1.1767778
-0.11577206 -0.053449139 1.177
-0.10132636 -0.053861875 1.177
-0.094671011 -0.053784486 1.177
-0.088823691 -0.052142203 1.1754
-0.043263499 -0.051505916 1.1750002
-0.036071036 -0.050502721 1.1756667
-0.21304218 -0.043496761 1.1748463
-0.20483355 -0.045001674 1.1730002
-0.19484882 -0.045151331 1.1746844
-0.18450454 -0.046386261 1.1757693
-0.17527975 -0.04562179 1.1738001
-0.16518718 -0.044685606 1.1730002
-0.15548544 -0.044278502 1.1746001
-0.14527422 -0.04430544 1.1752402
-0.13502517 -0.04544358 1.1738424
-0.12425322 -0.044555668 1.1747394
-0.11437594 -0.044310898 1.1754001
-0.10452881 -0.044620007 1.1764784
-0.095605753 -0.045597184 1.1744287
-0.089464709 -0.04833151 1.1730001
-0.033934891 -0.046862464 1.1730002
-0.21557888 -0.034939148 1.1748464
-0.16247614 -0.035991549 1.1730002
-0.15493505 -0.035305995 1.1730002
-0.1467941 -0.036762796 1.1730002
-0.12237126 -0.038048211 1.1730001
-0.11352161 -0.037727054 1.1736668
-0.10570693 -0.036779016 1.1735002
-0.0061699799 -0.031878229 1.1730001
-0.22109094 -0.029821569 1.1730001
-0.21697764 -0.029821569 1.1730001
-0.01131163 -0.024679922 1.1730001
-0.0075486847 -0.026594998 1.1743336
-0.01131163 -0.01748161 1.1730001
-0.0092865303 -0.019604897 1.177
-0.25502583 -0.0082266396 1.1730001
-0.031878229 0.0092549697 1.1730001
-0.04010487 0.01748161 1.1730001
-0.034760028 0.0158964 1.173889
-0.028081324 0.015741361 1.1730002
-0.01131163 0.01748161 1.1730001
-0.285092 0.029332828 1.174
-0.040173247 0.024725506 1.1750001
-0.035075955 0.025792236 1.1768
-0.025768006 0.02576548 1.1755601
-0.015427917 0.027614532 1.1733079
-0.0082266396 0.027764911 1.1730002
-0.28456184 0.03425071 1.1750002
-0.033637878 0.034463346 1.177
-0.023732243 0.035082448 1.177
-0.015465803 0.035053164 1.1760001
-0.007899059 0.035375744 1.1752223
-0.28387037 0.04430439 1.1753334
-0.02166857 0.040241629 1.177
-0.016361983 0.041126061 1.177
-0.28265449 0.054598622 1.1750001
-0.27669388 0.055149678 1.1733079
-0.27572015 0.063179031 1.1750001
-0.29556927 0.095975094 1.1735716
-0.29330942 0.10361017 1.1760001
-0.28896073 0.10488966 1.1730001
-0.29200977 0.11040653 1.177
-0.2873129 0.11568201 1.1746668
-0.29304162 0.12175673 1.177
-0.28428876 0.12242715 1.1760001
-0.27864483 0.12624858 1.1746
-0.0051479619 0.12880424 1.1754001
-0.011730677 0.13480452 1.1738001
-0.0072175972 0.13200086 1.1763334
-0.28581876 0.14961632 1.177
-0.02393892 0.1480131 1.1745001
-0.016408706 0.14498454 1.1754616
-0.28242663 0.15476879 1.1743335
-0.27730635 0.15802005 1.1730002
-0.031878229 0.15836282 1.1730001
-0.028295586 0.15385763 1.1761112
-0.2816914 0.16199836 1.177
-0.27485543 0.16446704 1.1742309
-0.26770857 0.1689889 1.1730001
-0.031932585 0.16481508 1.1750001
-0.27175352 0.17074573 1.1756667
-0.26473317 0.17511535 1.1750002
-0.25708249 0.17892942 1.1730001
-0.041201577 0.17820442 1.1750001
-0.036864709 0.17649843 1.1746
-0.25494739 0.18515705 1.1750001
-0.24165756 0.1881844 1.1730001
-0.23808192 0.18861222 1.1756667
-0.042305302 0.18160325 1.177
-0.25279999 0.19295344 1.177
-0.24600592 0.19297244 1.1747501
-0.23306359 0.19387661 1.1763334
-0.22726093 0.19641103 1.1730001
-0.23216324 0.20203361 1.177
-0.22400579 0.20377298 1.1755456
-0.21645805 0.20753729 1.173889
-0.20875099 0.20875099 1.1730001
-0.047303177 0.20875099 1.1730001
-0.21441463 0.21426821 1.1758573
-0.2059405 0.21612355 1.1745558
-0.19778214 0.21834874 1.1730001
-0.1881844 0.21903428 1.1730001
-0.053356212 0.21672991 1.1750001
-0.047303181 0.21183598 1.1730001
-0.20285909 0.22267036 1.177
-0.19450836 0.22431071 1.1746472
-0.18594076 0.22688697 1.1730002
-0.063635647 0.22633621 1.1746001
-0.057312079 0.22350605 1.1764287
-0.19243753 0.2306155 1.177
-0.18395481 0.23406911 1.1762002
-0.17555411 0.23518887 1.1751177
-0.16564278 0.23765995 1.1735716
-0.15939115 0.23960088 1.1730001
-0.07204359 0.23671664 1.174
-0.067069381 0.23113142 1.177
-0.16509387 0.24144979 1.177
-0.15519865 0.24447547 1.1750001
-0.14522667 0.24616435 1.1748669
-0.13496831 0.24705628 1.1730002
-0.12484396 0.24748136 1.174143
-0.1175724 0.24919863 1.1730001
-0.093578018 0.24988419 1.1730001
-0.084528722 0.24947286 1.1730001
-0.076142572 0.24547952 1.1751819
-0.14239347 0.2507363 1.177
-0.13517061 0.2507363 1.177
-0.12485223 0.25132591 1.177
-0.11462346 0.25522363 1.1758001
-0.10485394 0.25531271 1.1755
-0.09589278 0.25262815 1.1762002
-0.085524626 0.25348815 1.1754001
-0.077903666 0.25125223 1.177
-0.15322642 -0.071922608 1.189
-0.14384522 -0.071922608 1.189
-0.13368224 -0.072704375 1.189
-0.12612516 -0.071922608 1.189
-0.11882865 -0.071922608 1.189
-0.19146925 -0.061395597 1.187
-0.18412922 -0.064196914 1.1889999
-0.17504315 -0.064600259 1.1884999
-0.16553821 -0.065354198 1.1863331
-0.15485105 -0.065481633 1.1854799
-0.14474997 -0.06561026 1.1878797
-0.1347473 -0.065904409 1.1883041
-0.12539226 -0.064000174 1.187
-0.11536042 -0.065204859 1.1836665
-0.105536 -0.063708134 1.181
-0.098357618 -0.061085258 1.1810001
-0.19275239 -0.055169184 1.1845001
-0.18519254 -0.054877382 1.1851903
-0.17600061 -0.05717897 1.1825386
-0.15081501 -0.058324341 1.1810001
-0.144144 -0.057337902 1.1813636
-0.13580252 -0.057289001 1.181
-0.12557235 -0.058422945 1.1810001
-0.1130595 -0.056736816 1.181
-0.1065023 -0.055425379 1.181
-0.097667389 -0.058324341 1.1810001
-0.19153851 -0.048661135 1.1810001
-0.18946783 -0.048661135 1.1810001
-0.21845745 -0.038307704 1.1810001
-0.0020706865 -0.030024957 1.1810001
-0.0034604955 -0.025593407 1.1836667
0.0010370966 -0.026962761 1.1830001
-0.0093338694 -0.0165953 1.1830001
-0.29283252 0.035307311 1.1845001
-0.28834313 0.03675469 1.1810001
-0.033036862 0.034919307 1.181
-0.027954269 0.035201676 1.1810001
-0.2940582 0.045209631 1.1865386
-0.2888608 0.044519763 1.1810001
-0.031658918 0.045154031 1.1840001
-0.025015963 0.044746406 1.1812105
-0.015194777 0.045821421 1.1818888
-0.0072595603 0.044605326 1.1831335
-0.29331103 0.054767046 1.1868184
-0.28843516 0.054991983 1.1835001
-0.031710349 0.051467784 1.1860001
-0.024315942 0.053081453 1.1871819
-0.016184939 0.054905321 1.1877271
-0.0083388528 0.051075477 1.189
-0.2908175 0.063583754 1.189
-0.28405112 0.06479954 1.1842941
-0.27850735 0.067297317 1.1810001
-0.022931846 0.061499044 1.189
-0.016052293 0.062332928 1.189
-0.30332577 0.10710214 1.189
-0.29691911 0.10727122 1.1834
-0.30158851 0.11500669 1.189
-0.2961528 0.11558037 1.1847144
-0.29462814 0.1245614 1.1865001
-0.28685579 0.12679094 1.1828182
0.0010353433 0.12941791 1.1810001
-0.29290223 0.13081576 1.189
-0.28568375 0.13193394 1.1850001
-0.011388777 0.13977134 1.1810001
-0.0046294425 0.13598379 1.1828668
0.0017355076 0.13597509 1.187
-0.29290223 0.14801463 1.189
-0.28983915 0.14855555 1.1850001
-0.011818344 0.14576845 1.1826001
-0.0057221497 0.14260326 1.1873335
0.0020847134 0.14071815 1.189
-0.29326272 0.15421617 1.1854002
-0.28789908 0.15577121 1.183
-0.02384031 0.15615481 1.1824546
-0.016265966 0.15347703 1.1844667
-0.29185987 0.16364999 1.189
-0.28557572 0.16571394 1.1865386
-0.27794367 0.16904676 1.1830001
-0.030126652 0.16310413 1.1850001
-0.026691871 0.16259158 1.1863334
-0.28143629 0.17407356 1.189
-0.27476436 0.17543051 1.184077
-0.26815394 0.1791144 1.1810001
-0.27413979 0.1810226 1.189
-0.26514205 0.18474057 1.1867143
-0.2592724 0.18564381 1.1830001
-0.040446769 0.18253076 1.1830001
-0.037660722 0.18208222 1.1823335
-0.26232642 0.19144617 1.189
-0.25576368 0.19588239 1.1843334
-0.24330568 0.19671524 1.1810001
-0.23667948 0.19712935 1.181
-0.25253695 0.20361213 1.1874001
-0.24505651 0.20506415 1.1859412
-0.23624758 0.20566933 1.1836667
-0.22715433 0.20727572 1.1810001
-0.24391146 0.2115984 1.189
-0.23400688 0.2133977 1.1874001
-0.22545962 0.21518171 1.1845999
-0.21801384 0.21801384 1.1823335
-0.047625795 0.2174221 1.1810001
-0.22202197 0.22202197 1.189
-0.2142963 0.22408311 1.1841429
-0.20555238 0.22668743 1.1818
-0.19878592 0.22881088 1.1810001
-0.053468775 0.22573714 1.1827143
-0.047386024 0.22444025 1.1880001
-0.2115984 0.23140317 1.189
-0.20488469 0.23264813 1.1876668
-0.1946819 0.23561327 1.1850001
-0.18689619 0.23780096 1.1815716
-0.071438693 0.23916431 1.1810001
-0.064858258 0.2359308 1.1822631
-0.056727495 0.23420326 1.1873335
-0.04690605 0.23036082 1.189
-0.19214107 0.24217421 1.189
-0.18550791 0.24261077 1.1843334
-0.17472644 0.24371678 1.1857274
-0.16545534 0.24616204 1.1836667
-0.15633684 0.24882752 1.1810001
-0.072249904 0.24613702 1.1830001
-0.066969857 0.24460651 1.1865386
-0.058371976 0.24078439 1.189
-0.17303121 0.25225031 1.189
-0.16568036 0.25216579 1.1886001
-0.15444455 0.25394064 1.1863334
-0.14484723 0.25610429 1.1852667
-0.13504799 0.25660095 1.1850002
-0.12518068 0.25641051 1.1833335
-0.11630356 0.25918093 1.1810001
-0.10456967 0.25904292 1.1810001
-0.09421625 0.25717926 1.181
-0.084898151 0.25849071 1.1810001
-0.074871406 0.25550768 1.1833528
-0.068968028 0.25427607 1.1875
-0.13133693 0.26163152 1.189
-0.12341668 0.26193264 1.1880001
-0.115393 0.26404744 1.1858001
-0.10517317 0.26365995 1.1878002
-0.094495177 0.26302734 1.1866668
-0.085149765 0.26357123 1.1874001
-0.07700289 0.26188633 1.187
-0.15110928 -0.080801487 1.197
-0.14483218 -0.081113234 1.1954
-0.13909982 -0.080531478 1.1930001
-0.18302608 -0.072164565 1.193
-0.17464298 -0.074101992 1.1935457
-0.16434541 -0.074765131 1.1940528
-0.15482397 -0.076292038 1.1944287
-0.14540748 -0.07594721 1.1932666
-0.13586715 -0.076728337 1.193
-0.12559867 -0.07254488 1.193
-0.19139299 -0.06379766 1.1930001
-0.18616366 -0.066935256 1.1930001
-0.12654947 -0.066935256 1.1930001
-0.0027227513 -0.022845406 1.1954
0.00104937 -0.02413551 1.197
-0.0056616892 -0.017197046 1.1962
-0.031207407 0.056345992 1.1946
-0.02593521 0.058030948 1.1938888
-0.011504496 0.057522487 1.1930001
-0.0064361119 0.05509023 1.1952857
-0.28970414 0.067981116 1.1930001
-0.024953878 0.065093227 1.1943334
-0.015548503 0.065610491 1.1930001
-0.0094443299 0.062962197 1.197
-0.02273635 0.071007371 1.197
-0.015916998 0.071770065 1.1959091
-0.2970252 0.12864119 1.1930001
-0.2961269 0.13339828 1.1950001
-0.004766047 0.14734419 1.1938889
0.0024456077 0.14527126 1.1950001
-0.012214597 0.15600781 1.1943334
-0.0060299323 0.15183276 1.1965001
-0.29284173 0.168384 1.1930001
-0.030330036 0.168384 1.1930001
-0.024700582 0.16601424 1.1952858
-0.018506726 0.16168332 1.1950001
-0.29277423 0.17209668 1.197
-0.28605095 0.17498763 1.1952223
-0.28060156 0.1840595 1.197
-0.27479324 0.18687275 1.1939231
-0.26774102 0.18930127 1.1930001
-0.27313384 0.19239897 1.1960001
-0.26478592 0.1950236 1.1945384
-0.26297215 0.20126915 1.197
-0.25800982 0.20561287 1.1954
-0.25297847 0.21232042 1.1954
-0.2445567 0.21357317 1.1942
-0.23656237 0.21719986 1.194
-0.23243888 0.22280011 1.1954
-0.22487535 0.22574808 1.194
-0.21858543 0.2279982 1.1930001
-0.046366606 0.22764958 1.1930001
-0.22141707 0.23191077 1.197
-0.21526299 0.23487365 1.1952858
-0.20498921 0.23741098 1.193
-0.19906266 0.23880546 1.1930001
-0.053089302 0.23674093 1.1941429
-0.047893759 0.23527832 1.1963334
-0.2040275 0.24180482 1.1969999
-0.19495423 0.24467744 1.194
-0.18435086 0.24818246 1.1936667
-0.17555563 0.24936371 1.193
-0.168384 0.24996133 1.1930001
-0.063134901 0.24696225 1.1936666
-0.056899574 0.24485344 1.1959091
-0.18413596 0.25296625 1.1956667
-0.17542611 0.25607327 1.1946667
-0.16436571 0.25754222 1.1941999
-0.1568795 0.25832823 1.1930001
-0.065115169 0.25373122 1.1952858
-0.15417147 0.2618472 1.1963334
-0.14512525 0.26360327 1.1947778
-0.13514255 0.26483926 1.1950001
-0.1251096 0.26639536 1.194778
-0.11504497 0.26878688 1.1930001
-0.10473574 0.26818925 1.193
-0.096070014 0.26818925 1.193
-0.083857052 0.268318 1.1935714
-0.074068017 0.26669556 1.195154
-0.068209052 0.26234251 1.197
-0.12067755 0.27178684 1.197
-0.11471796 0.27265006 1.1956667
-0.10563459 0.27290031 1.195182
-0.096044719 0.27225673 1.1964285
-0.085348755 0.27213663 1.197
-0.078702748 0.27178684 1.197
-0.16501203 -0.08162526 1.2040001
-0.15575825 -0.082490832 1.2025
-0.14857922 -0.083246514 1.202
-0.16438553 -0.079031497 1.202
-0.0010537533 -0.020021314 1.202
0.0036933967 -0.021619478 1.2030001
-0.0025626218 -0.014319473 1.2037143
0.0029043965 -0.016101737 1.2045001
-0.0052687665 -0.0094837798 1.202
-0.021799779 0.075605489 1.2033334
-0.014778147 0.076843336 1.2040001
-0.0084580798 0.077179976 1.2060001
-0.01480164 0.081409022 1.2060001
-0.30277845 0.13382667 1.202
0.0042150132 0.14857922 1.202
-0.011591286 0.15911674 1.202
-0.0050975247 0.15643854 1.2029999
0.00269838 0.15325594 1.2037778
-0.021075066 0.16754678 1.202
-0.015124838 0.16474649 1.2037778
-0.0095153395 0.16176078 1.2060001
-0.29503471 0.17638662 1.2030001
-0.28978217 0.17703056 1.202
-0.03066054 0.17233337 1.2060001
-0.02325972 0.17021886 1.2060001
-0.017973419 0.17021886 1.2060001
-0.29215616 0.18502049 1.2060002
-0.28607798 0.18538783 1.2026665
-0.29286101 0.19136406 1.2060001
-0.28390989 0.19328748 1.2048001
-0.27543521 0.19704138 1.2030001
-0.2687071 0.19915938 1.202
-0.042290401 0.19136406 1.2060001
-0.2729753 0.20323472 1.2053334
-0.26580656 0.20639497 1.2035384
-0.2630845 0.21236829 1.2052
-0.25636864 0.21623281 1.2048572
-0.24783805 0.21778153 1.2030001
-0.25057063 0.22096734 1.2060001
-0.24338837 0.22225487 1.2053334
-0.23702788 0.22611862 1.2043334
-0.22866447 0.22866447 1.202
-0.2325972 0.23153993 1.2060001
-0.22560385 0.23573811 1.2043999
-0.21812694 0.23920201 1.202
-0.047576699 0.23999801 1.2060001
-0.22202459 0.24211253 1.2060001
-0.21462166 0.24356322 1.2048
-0.20594555 0.24626678 1.2033334
-0.19757876 0.24921265 1.202
-0.052887298 0.24606004 1.203143
-0.049121387 0.2440263 1.205
-0.20334633 0.2519803 1.2060002
-0.19495705 0.25476834 1.2050771
-0.1866927 0.25721073 1.203143
-0.062010579 0.2559621 1.2040001
-0.056309301 0.25347164 1.2054287
-0.18210119 0.26240852 1.2053334
-0.17462069 0.26409423 1.2045456
-0.16483466 0.26458266 1.2040001
-0.15554427 0.26747251 1.2044617
-0.14436421 0.2687071 1.202
-0.13698792 0.2687071 1.202
-0.12961166 0.2687071 1.202
-0.070601471 0.2687071 1.202
-0.066467553 0.26429352 1.2035
-0.14346476 0.27266043 1.2055001
-0.13447656 0.27335316 1.2046667
-0.12547061 0.27407742 1.2045455
-0.1141566 0.27748838 1.202
-0.10406811 0.27847317 1.2025715
-0.094775431 0.27649742 1.2031429
-0.085277647 0.27671283 1.2042222
-0.075137928 0.2750378 1.2043334
-0.068721898 0.27277309 1.2060001
-0.11524133 0.28059679 1.2060001
-0.10396389 0.28158358 1.2060001
-0.097267918 0.2801739 1.2060001
-0.22228059 -0.080149248 1.2190001
-0.21052536 -0.084423877 1.2190001
-0.20825568 -0.081814036 1.2120001
-0.22382702 -0.076562151 1.21725
-0.21564573 -0.076020591 1.2157224
-0.20825392 -0.078628227 1.2120001
-0.22334926 -0.066612929 1.2190001
-0.21836217 -0.0680378 1.2190001
-0.22228059 -0.052364178 1.2190001
0.0084861331 -0.020154567 1.21
-0.0010607666 -0.011668433 1.21
0.0069031655 -0.013980203 1.2113334
0.013040746 -0.014100197 1.214125
-0.0017717434 -0.0088686524 1.2143334
0.0060491464 -0.0092419656 1.2165002
0.01282388 -0.0096179098 1.2190001
-0.0222761 0.078496732 1.21
-0.011668433 0.079557501 1.21
-0.0095469002 0.079557501 1.21
-0.020187881 0.082878307 1.2120001
-0.014577373 0.084675319 1.2114545
-0.0081504676 0.085169338 1.2126667
-0.011697364 0.093576267 1.2130002
-0.0087331776 0.092242345 1.2150002
-0.0010607666 0.15805423 1.21
0.0066508311 0.15662155 1.21325
-0.01220846 0.16721013 1.2110001
-0.0048131086 0.16570957 1.2142382
0.003531483 0.16386411 1.2167692
-0.30019698 0.17714803 1.21
-0.032602649 0.17612176 1.2126667
-0.024009584 0.17490934 1.2133572
-0.014899076 0.17454621 1.214
-0.0081930337 0.1734786 1.219
-0.30180961 0.18556051 1.2165
-0.29626459 0.18527052 1.2104001
-0.035217453 0.18249042 1.2173334
-0.30118936 0.19369775 1.2140001
-0.29550681 0.19614542 1.213143
-0.28727254 0.19705831 1.2106668
-0.043361686 0.19459794 1.2148571
-0.03892488 0.19303235 1.2165
-0.29406872 0.20223789 1.2180002
-0.28494677 0.204391 1.2155334
-0.2766462 0.20653641 1.2117144
-0.2810567 0.21159402 1.2190001
-0.27490863 0.21409339 1.217
-0.26683843 0.21604903 1.2126667
-0.25776631 0.2195787 1.21
-0.27108255 0.22192436 1.2190001
-0.26463777 0.22307248 1.2185454
-0.25468937 0.22573659 1.2142001
-0.24673039 0.22577234 1.2105001
-0.25327164 0.2318985 1.2190001
-0.24364248 0.23376402 1.2155455
-0.23497851 0.23586251 1.2110001
-0.045612965 0.23867249 1.21
-0.23427305 0.24238606 1.2180001
-0.22519949 0.24579395 1.2148889
-0.21427485 0.2482194 1.21
-0.044643179 0.24527723 1.2158887
-0.22121193 0.25113431 1.2190001
-0.2151446 0.25331029 1.2161
-0.20570213 0.25628164 1.2111818
-0.1967722 0.25935745 1.21
-0.0604637 0.25988784 1.21
-0.053708456 0.25687596 1.2108001
-0.0459233 0.25383192 1.2150588
-0.20316269 0.26288474 1.2165
-0.19515908 0.26506186 1.21425
-0.18671267 0.26503444 1.210889
-0.17623542 0.26859576 1.2110001
-0.16866189 0.26837397 1.21
-0.062416911 0.26560295 1.2113334
-0.054560024 0.2639524 1.2166922
-0.19128954 0.27037013 1.2190001
-0.18434326 0.27143878 1.2190001
-0.17370336 0.27296105 1.2155715
-0.16490953 0.27450085 1.2136111
-0.15492474 0.27572739 1.2136154
-0.14550517 0.276939 1.2115
-0.134783 0.27850723 1.2105715
-0.12623124 0.27898163 1.21
-0.071778543 0.27827445 1.21
-0.065200441 0.27479884 1.214375
-0.058776118 0.27037013 1.2190001
-0.15424277 0.2810567 1.2190001
-0.14519155 0.28183496 1.2177501
-0.1347162 0.28303206 1.2142223
-0.12471869 0.28499922 1.2145333
-0.11536554 0.28558379 1.2110001
-0.10501187 0.2861107 1.2118461
-0.094308928 0.28541505 1.2132778
-0.084815383 0.28537855 1.2138234
-0.075310372 0.28496385 1.2135788
-0.069320224 0.285817 1.2165
-0.11417038 0.29236317 1.2171251
-0.10557785 0.29194644 1.2165
-0.096179098 0.29174328 1.2190001
-0.2312299 -0.072549723 1.223
-0.2251543 -0.073443182 1.223
-0.23388183 -0.065475926 1.2267647
-0.22534354 -0.065149687 1.2229998
-0.21826184 -0.065401964 1.2230002
-0.23392656 -0.055238813 1.227
-0.22559582 -0.055184871 1.2229998
-0.21979348 -0.057896823 1.223
-0.23308773 -0.045444723 1.2262729
-0.22670299 -0.045864765 1.223
-0.23299012 -0.038939256 1.2270001
-0.22874424 -0.038659245 1.2250001
-0.0032243801 -0.0059100483 1.2260001
0.0053706351 -0.0060146349 1.2254001
0.015805172 -0.0058283308 1.2252858
0.02043773 0.00107567 1.2270001
0.0075121564 0.16601028 1.2243334
0.011793797 0.16296881 1.223
-0.025731921 0.17905128 1.223
-0.011793797 0.17905128 1.223
-0.0050051822 0.17521526 1.2236668
0.0021443267 0.17154613 1.223
-0.033493575 0.18572691 1.2246002
-0.026891747 0.18250535 1.2270001
-0.035423197 0.19529535 1.2245386
-0.2948131 0.20681557 1.2241429
-0.28841195 0.20907184 1.223
-0.04295842 0.20082241 1.2250001
-0.037617765 0.20152418 1.2260001
-0.29150656 0.21190698 1.2270001
-0.28526819 0.21426843 1.2237273
-0.27811915 0.21893576 1.223
-0.28290117 0.22158802 1.2270001
-0.27455494 0.2251996 1.223889
-0.26653981 0.22794192 1.223
-0.044409804 0.22604434 1.2270001
-0.2721445 0.23126905 1.2270001
-0.26448351 0.23225829 1.2254001
-0.25488344 0.23570611 1.2252858
-0.24766973 0.23748417 1.223
-0.043157071 0.23447113 1.2246001
-0.24377978 0.24378118 1.225
-0.23560277 0.24697402 1.2238001
-0.22837079 0.24981405 1.223
-0.23461559 0.25230438 1.2270001
-0.22508126 0.2553148 1.2248462
-0.21764916 0.2576766 1.223
-0.042886533 0.25839135 1.223
-0.039747894 0.25459996 1.2254002
-0.21376128 0.26225096 1.2252858
-0.20605841 0.26680246 1.2242
-0.052997835 0.26886016 1.2238001
-0.046225753 0.26455703 1.2262728
-0.20222595 0.2721445 1.2270001
-0.19463889 0.27317318 1.2247144
-0.18573761 0.27574456 1.2246666
-0.17619216 0.2773329 1.223
-0.061828088 0.27769029 1.223
-0.055574398 0.27465603 1.2258574
-0.18286391 0.28074986 1.2270001
-0.17533422 0.28118014 1.2270001
-0.16404024 0.28373531 1.2252858
-0.15545239 0.28485364 1.2244546
-0.14502609 0.2870459 1.2254002
-0.13509257 0.28841195 1.223
-0.064309143 0.28518113 1.2255715
-0.059161849 0.28074986 1.2270001
-0.14198844 0.29150656 1.2270001
-0.13445875 0.29150656 1.2270001
-0.12421753 0.29282185 1.2250001
-0.11556366 0.29695562 1.2243334
-0.10375234 0.29695562 1.2243334
-0.095204368 0.29512143 1.2241429
-0.084785417 0.29406205 1.2242
-0.075224325 0.2943452 1.2238889
-0.068151884 0.29303616 1.2262002
-0.11186968 0.30011192 1.2270001
-0.10649133 0.30011192 1.2270001
-0.23869179 -0.061563041 1.2320001
-0.24134339 -0.054390151 1.2326669
-0.23869179 -0.052922618 1.2320001
-0.24235626 -0.045509521 1.2360001
-0.23846094 -0.043943793 1.2326669
-0.24163388 -0.031423241 1.2360001
-0.23823006 -0.036398027 1.2333335
-0.0043202136 -0.0021601066 1.2320002
0.0049202433 -0.0020401005 1.2320002
0.013500667 -0.00162008 1.2320001
-0.0038648476 0.0020103219 1.2348573
0.005778987 0.0027089 1.2360001
0.015151721 0.003248927 1.2346667
0.020554326 0.0043289801 1.2340001
0.0086404271 0.16956837 1.2320001
0.011880587 0.16848832 1.2320001
-0.0032401599 0.17748876 1.2320001
0.0057228804 0.17359202 1.234286
-0.031321548 0.18900934 1.2320001
-0.027051428 0.18565194 1.234286
-0.017336961 0.18312164 1.2360001
-0.031321548 0.19548966 1.2320001
-0.02925612 0.19395725 1.2360001
-0.30133489 0.20845029 1.2320001
-0.29917479 0.20845029 1.2320001
-0.044527654 0.2059921 1.2328002
-0.035840832 0.20566441 1.2332308
-0.29383767 0.2162047 1.2337779
-0.28837425 0.21925083 1.2320001
-0.043080747 0.21540698 1.2356924
