# .PCD v0.7 - Point Cloud Data file format
VERSION 0.7
FIELDS x y z
SIZE 4 4 4
TYPE F F F
COUNT 1 1 1
WIDTH 1455
HEIGHT 1
VIEWPOINT 0 0 0 1 0 0 0
POINTS 1455
DATA ascii
-0.13418767 -0.16228889 1.0342001
-0.12610802 -0.16394781 1.0314616
-0.11659579 -0.16359565 1.031
-0.15014669 -0.15105668 1.0380001
-0.14594221 -0.15198536 1.034
-0.13551435 -0.15686397 1.0319
-0.15274952 -0.14732647 1.031
-0.147688 -0.14732647 1.031
-0.032839641 -0.11358298 1.031
-0.028953562 -0.10314959 1.032125
-0.20350675 -0.093942881 1.0354002
-0.19738458 -0.094726458 1.034
-0.031634517 -0.093095861 1.031
-0.027687864 -0.094704911 1.0346472
-0.064608581 -0.080988221 1.0380001
-0.05186886 -0.080988221 1.0380001
-0.031634517 -0.084057428 1.031
-0.028486991 -0.085826717 1.0349334
-0.080988221 -0.070068456 1.0380001
-0.074398965 -0.072943456 1.0374668
-0.064847581 -0.075139858 1.0353705
-0.055352908 -0.074534908 1.0368001
-0.049075101 -0.074425839 1.0328
-0.031921037 -0.074589275 1.0355002
-0.091543987 -0.061696649 1.0380001
-0.084069453 -0.064084969 1.0361819
-0.075564988 -0.065480068 1.0325716
-0.065076716 -0.068692088 1.031
-0.054790113 -0.068159014 1.0323848
-0.049711384 -0.068692088 1.031
-0.035360966 -0.065284759 1.0343001
-0.19018582 -0.050048899 1.0380001
-0.18432149 -0.052071076 1.0380001
-0.17537507 -0.052576851 1.0376002
-0.16450416 -0.051868856 1.0380001
-0.15489346 -0.05278888 1.0365455
-0.14477916 -0.052364469 1.0357778
-0.13451375 -0.053626366 1.0367502
-0.12511255 -0.05280083 1.0354167
-0.11525115 -0.052354883 1.0368001
-0.10447336 -0.053213172 1.0362858
-0.095040269 -0.055039648 1.0350436
-0.085527174 -0.0555549 1.0325557
-0.077730522 -0.058749817 1.031
-0.03548922 -0.059148699 1.0380001
-0.19200577 -0.044361528 1.0380001
-0.18449286 -0.044900786 1.0339669
-0.17479683 -0.045096517 1.0320647
-0.16544497 -0.045436375 1.0320716
-0.15548442 -0.04712588 1.0317501
-0.14503238 -0.047843445 1.0318334
-0.1359024 -0.0488437 1.03175
-0.12473039 -0.049711384 1.031
-0.11398235 -0.048145499 1.0326365
-0.10654492 -0.049087744 1.032125
-0.091890745 -0.049108822 1.031
-0.089480489 -0.049711384 1.031
-0.033675771 -0.044042729 1.0342859
-0.02727047 -0.040909648 1.0370001
-0.19284175 -0.035112955 1.0376002
-0.18557142 -0.035303853 1.0325602
-0.17534564 -0.035249885 1.031
-0.16788891 -0.034120087 1.031
-0.032190446 -0.036070827 1.0322858
-0.026561165 -0.035198081 1.0318183
-0.19263124 -0.025036164 1.0369091
-0.1856135 -0.025350394 1.0328002
-0.17534564 -0.025307607 1.0309998
-0.1690187 -0.029826829 1.031
-0.02729607 -0.0271153 1.031
-0.19079246 -0.015772987 1.0380001
-0.18455561 -0.014820925 1.0353335
-0.17458622 -0.015376802 1.0318401
-0.1690187 -0.011749963 1.031
-0.1824282 -0.0062103062 1.0370001
-0.17489579 -0.0054352749 1.0336668
-0.16721104 -0.0047318856 1.031
-0.015378488 -0.0021959248 1.0320001
-0.22294509 0.0081898198 1.0380001
-0.21290073 0.0075095263 1.0358182
-0.2048859 0.0068730675 1.0345002
-0.19466166 0.0070491247 1.0340436
-0.18454666 0.0050826073 1.0347828
-0.17490961 0.0048590717 1.0329632
-0.16530213 0.0047282004 1.0312308
-0.15832324 0.0067788251 1.031
-0.013774538 0.0055291364 1.0340002
-0.22294509 0.01091976 1.0380001
-0.21508154 0.014699911 1.0351602
-0.20593362 0.01488963 1.031
-0.19748977 0.012201886 1.031
-0.15998027 0.011749963 1.031
-0.011759607 0.014083775 1.0320001
-0.0084276665 0.015810279 1.0330001
-0.2126257 0.023788175 1.0356001
-0.20555098 0.025440862 1.0322223
-0.1997494 0.028019143 1.031
-0.011749963 0.020788396 1.031
-0.0058822418 0.025370872 1.0335938
-0.21081203 0.030635992 1.0380001
-0.20373735 0.034844432 1.0357502
-0.19564931 0.035712861 1.0313001
-0.0058373818 0.033952177 1.034389
0.00090997998 0.03002934 1.0380001
-0.20171224 0.041555751 1.0380001
-0.19411096 0.04424493 1.0337729
-0.18614015 0.046460997 1.0314287
-0.17986482 0.049711384 1.031
-0.01176136 0.04795016 1.0320001
-0.0087186527 0.044445649 1.0346155
-0.19200578 0.050958879 1.0380001
-0.18364362 0.054769494 1.0361178
-0.17526391 0.055808511 1.0322859
-0.1690187 0.058749817 1.031
-0.012433199 0.055964582 1.0343573
-0.008635167 0.051818892 1.0370001
-0.21364307 0.067237414 1.0380001
-0.20436893 0.067111857 1.0345557
-0.1945975 0.066431127 1.0336002
-0.1848449 0.065578587 1.0342668
-0.1751617 0.065443076 1.0332502
-0.16559093 0.065868184 1.0313334
-0.15600337 0.067788243 1.031
-0.14913414 0.069595933 1.031
-0.022124311 0.067411162 1.0331428
-0.017249135 0.063639462 1.0356365
-0.21121648 0.072899498 1.0380001
-0.20486555 0.075240359 1.0340002
-0.19613403 0.07456708 1.031
-0.18601097 0.071765162 1.031
-0.17218216 0.071855545 1.031
-0.16476785 0.072510056 1.0317501
-0.15494537 0.074006073 1.0312858
-0.14823031 0.074115157 1.031
-0.04282007 0.076683156 1.0312728
-0.034510296 0.076778531 1.0320715
-0.026143329 0.074813187 1.0352858
-0.20290776 0.083604686 1.0365715
-0.19511785 0.085564904 1.0327919
-0.18709557 0.088576645 1.031
-0.042648192 0.084058426 1.0323751
-0.035950035 0.083069116 1.0358825
-0.028209379 0.080988221 1.0380001
-0.20110558 0.090088017 1.0380001
-0.19356975 0.093328528 1.0376002
-0.18503819 0.095487259 1.0337275
-0.17650788 0.09714479 1.0313334
-0.042762559 0.095504433 1.0342501
-0.039129138 0.098277837 1.0380001
-0.18358903 0.10367212 1.0358949
-0.17496115 0.10431406 1.0331668
-0.16748962 0.10725947 1.0316001
-0.05277504 0.108266 1.0320001
-0.045137126 0.10511459 1.0342859
-0.038219161 0.1046477 1.0380001
-0.17289619 0.11132088 1.0380001
-0.16438101 0.11337356 1.0333078
-0.15568615 0.11566475 1.0317501
-0.14636983 0.11723664 1.0313334
-0.13828804 0.11840348 1.031
-0.084618732 0.11596541 1.0330871
-0.075165175 0.11516424 1.0330002
-0.065319866 0.11511063 1.0338573
-0.054964446 0.11413135 1.0359526
-0.045438334 0.11277684 1.0380001
-0.15196666 0.12193732 1.0380001
-0.14435339 0.1225846 1.0347334
-0.13546281 0.12514095 1.0353127
-0.12663144 0.12843977 1.03175
-0.08416494 0.12427796 1.0331432
-0.07552962 0.12418965 1.0370401
-0.066428542 0.12102733 1.0380001
-0.13012713 0.1319471 1.0380001
-0.12350488 0.13302605 1.0345834
-0.11456032 0.1337008 1.0330626
-0.10486863 0.13690013 1.0341667
-0.097615078 0.13828804 1.031
-0.082358189 0.13513079 1.0323848
-0.077151522 0.134791 1.0368236
-0.10246374 0.14177488 1.0380001
-0.094814345 0.1433582 1.0349501
-0.08545962 0.14321233 1.035091
-0.078713268 0.14241186 1.0380001
-0.14206734 -0.1617713 1.0455
-0.13962933 -0.16153197 1.041
-0.14534083 -0.15630615 1.0426668
-0.13962933 -0.15970674 1.041
-0.15879151 -0.14226985 1.0470001
-0.16062725 -0.13859837 1.0470001
-0.025700361 -0.10096569 1.0470001
-0.062874094 -0.091328062 1.0470001
-0.058364086 -0.093200482 1.0456667
-0.022726268 -0.094423585 1.044
-0.20533724 -0.088523172 1.041
-0.072491482 -0.083502769 1.0467
-0.064864151 -0.08517576 1.0446525
-0.056479875 -0.08496277 1.043143
-0.023480056 -0.084785067 1.0436667
-0.018459387 -0.084953971 1.0470001
-0.19611822 -0.070675991 1.0470001
-0.12941967 -0.070675991 1.0470001
-0.09270487 -0.070675991 1.0470001
-0.084300935 -0.07363645 1.0445294
-0.076297447 -0.07766933 1.0438124
-0.054365482 -0.078614831 1.041
-0.030145058 -0.072163694 1.0419999
-0.024746021 -0.075162418 1.0456003
-0.01927527 -0.077101082 1.0470001
-0.21233392 -0.062109202 1.0470001
-0.20390485 -0.063295268 1.046357
-0.19530486 -0.065104485 1.0459203
-0.1851965 -0.065097071 1.0458004
-0.1753615 -0.064979076 1.0463753
-0.16542126 -0.063952513 1.046182
-0.15466535 -0.063713133 1.0461178
-0.14476274 -0.063960284 1.0463184
-0.13446702 -0.064506009 1.0461432
-0.12523691 -0.06509722 1.0458002
-0.11700304 -0.063122839 1.0458461
-0.10463718 -0.061803248 1.0470001
-0.094693281 -0.065096445 1.0441668
-0.087999798 -0.067903094 1.0419999
-0.031900771 -0.064718656 1.0439999
-0.027536102 -0.066316105 1.0470001
-0.22287554 -0.053319898 1.0470001
-0.21535151 -0.054984622 1.0453002
-0.20501377 -0.054914393 1.044
-0.19491979 -0.055029944 1.0431726
-0.18561971 -0.056972034 1.0419474
-0.17483352 -0.057093702 1.0424211
-0.16526486 -0.057163179 1.0432501
-0.15474063 -0.057444133 1.042125
-0.14511038 -0.057274833 1.0424999
-0.13522737 -0.058174059 1.0422502
-0.12489551 -0.057685856 1.0420715
-0.11520229 -0.057239451 1.0429502
-0.10560897 -0.05806382 1.043
-0.098561883 -0.059319649 1.041
-0.033476494 -0.055260018 1.0454117
-0.22345036 -0.045995485 1.0470001
-0.21538018 -0.044906508 1.0454402
-0.20501374 -0.044846758 1.0440003
-0.19637419 -0.04527545 1.0418572
-0.032010388 -0.047102641 1.04325
-0.02745457 -0.043016277 1.044
-0.22365431 -0.038856495 1.0470001
-0.21464252 -0.035073757 1.0470004
-0.20429491 -0.034811445 1.0440971
-0.19700095 -0.034624759 1.0414616
-0.21189685 -0.025044739 1.0470001
-0.20433608 -0.024739467 1.0452002
-0.19712374 -0.024640471 1.0410001
-0.21019223 -0.0183574 1.0470001
-0.20419554 -0.014931169 1.0458218
-0.19570743 -0.014111893 1.0429566
-0.02111101 -0.01376805 1.0470001
-0.018348195 -0.011927488 1.0465
-0.2267139 -0.00091786991 1.0470001
-0.21378776 -0.0013764761 1.046625
-0.20415817 -0.0043379455 1.0468639
-0.19497041 -0.004576935 1.0441202
-0.18682431 -0.0035200673 1.0410001
-0.01738956 -0.0064066797 1.044
-0.23507814 0.0045823357 1.0457503
-0.2253989 0.0044969846 1.0436401
-0.21629785 0.0036001606 1.0431176
-0.20512158 0.0015227697 1.043
-0.19552366 0.001826272 1.0422001
-0.18708505 0.00091260998 1.041
-0.24139981 0.011014439 1.0470001
-0.23522279 0.014400096 1.0451788
-0.22573276 0.014875469 1.0418574
-0.2190264 0.01916481 1.041
-0.0082134902 0.01003871 1.041
-0.23288886 0.024042144 1.0467
-0.22512567 0.024775444 1.0438931
-0.21745558 0.024993129 1.0418181
-0.23038536 0.032125447 1.0470001
-0.22452942 0.033590004 1.0457729
-0.21548559 0.035094518 1.0449233
-0.2078553 0.037710071 1.0418571
-0.0021931571 0.036763452 1.0431
0.0015267149 0.034799721 1.0445
-0.21239513 0.044118952 1.0470001
-0.20515124 0.045566935 1.0441667
-0.19925319 0.04654311 1.041
-0.0040520788 0.045126665 1.0444286
-0.23038536 0.059661549 1.0470001
-0.22532295 0.058909036 1.0458751
-0.21508753 0.059049632 1.0470001
-0.20436087 0.055186879 1.0466789
-0.19521275 0.055524565 1.0435386
-0.18760654 0.057755176 1.041
-0.01003871 0.059319649 1.041
-0.0057489919 0.05411882 1.0437858
-0.23160918 0.065474726 1.0470001
-0.22515084 0.064488545 1.0431602
-0.21578015 0.063937515 1.042737
-0.20541789 0.062417354 1.0445
-0.19593199 0.061741881 1.0422857
-0.18799767 0.06114487 1.041
-0.013737446 0.065033436 1.0448182
-0.0082608303 0.06149729 1.0470001
-0.23038536 0.071593866 1.0470001
-0.22402731 0.07473179 1.044522
-0.21616086 0.075259849 1.0419133
-0.022154134 0.077428848 1.042125
-0.01862712 0.074208952 1.0450001
-0.22212455 0.082608297 1.0470001
-0.21491835 0.084133983 1.0456668
-0.20754643 0.086126037 1.042091
-0.033114769 0.08683864 1.0445
-0.025279745 0.083835192 1.0459285
-0.2111101 0.090869129 1.0470001
-0.2038656 0.093979612 1.0445625
-0.19595128 0.097154126 1.0421999
-0.041067451 0.093998827 1.041
-0.037697706 0.093795128 1.0442727
-0.20101354 0.10004783 1.0470001
-0.19432841 0.10372773 1.0446
-0.18814451 0.1076437 1.0434999
-0.035632819 0.10506692 1.0422
-0.18173826 0.11106227 1.0470001
-0.17552207 0.11357504 1.0435715
-0.16592069 0.11806672 1.044
-0.15788153 0.11955191 1.041
-0.06114487 0.11955191 1.041
-0.053674497 0.11881668 1.0416666
-0.044087883 0.11698958 1.0418183
-0.038117029 0.11221728 1.0435001
-0.16355279 0.12180351 1.046625
-0.15508056 0.12587765 1.0446668
-0.14592029 0.12765704 1.0416
-0.13871673 0.12867801 1.041
-0.071555287 0.12758394 1.0419999
-0.06473925 0.12590779 1.0441365
-0.055570904 0.12437371 1.0457144
-0.04568205 0.12255695 1.0464001
-0.15144855 0.13217327 1.0470001
-0.14437969 0.13385417 1.0460873
-0.13486068 0.13478246 1.0440003
-0.12634981 0.13709006 1.0425
-0.11510107 0.13793647 1.0419999
-0.10860059 0.13962933 1.041
-0.072328858 0.13459393 1.0444
-0.067266755 0.13256665 1.0470001
-0.13378784 0.1416789 1.0467
-0.12501581 0.14228314 1.0462942
-0.11376084 0.14267871 1.0458461
-0.10555681 0.14593345 1.044
-0.095642962 0.14861716 1.0418571
-0.083695807 0.14821847 1.0415
-0.075695843 0.14537615 1.0443159
-0.10142463 0.15190749 1.0470001
-0.09443225 0.15219283 1.0458
-0.085261971 0.15219285 1.0458
-0.078477889 0.15190749 1.0470001
-0.15165953 -0.16308805 1.057
-0.14770168 -0.16247176 1.0530001
-0.15474832 -0.15382168 1.057
-0.14728001 -0.1592465 1.0500001
-0.16218016 -0.14347339 1.0541251
-0.17444924 -0.13282885 1.0566001
-0.16672044 -0.13521177 1.0537368
-0.18069415 -0.12324268 1.057
-0.17587565 -0.12670211 1.057
-0.16772123 -0.12880249 1.057
-0.062084656 -0.10193003 1.057
-0.024012484 -0.10345689 1.0536667
-0.018996052 -0.10239336 1.057
-0.073736325 -0.092456229 1.054625
-0.065752804 -0.095447257 1.0519
-0.059832498 -0.098493502 1.0500001
-0.021171499 -0.098493502 1.0500001
-0.015706824 -0.094231613 1.0544119
-0.0083397301 -0.091737032 1.057
-0.20663998 -0.08803048 1.057
-0.18162078 -0.080617391 1.057
-0.17587563 -0.081358701 1.057
-0.13213839 -0.081358701 1.057
-0.1253607 -0.082338281 1.057
-0.11953613 -0.082470663 1.057
-0.10378331 -0.080617391 1.057
-0.096370213 -0.080617391 1.057
-0.083600961 -0.082907289 1.0536876
-0.075918689 -0.086985968 1.0518
-0.069037497 -0.089288503 1.0500001
-0.013411249 -0.084797993 1.0536803
-0.0045538107 -0.084749728 1.0551537
0.0039739809 -0.083546847 1.0554117
0.010193003 -0.081544027 1.057
-0.21034652 -0.071351022 1.057
-0.2042668 -0.074649028 1.0553157
-0.19521426 -0.074903734 1.0536088
-0.18457611 -0.074533448 1.0535382
-0.17485946 -0.07461746 1.0539583
-0.16480219 -0.075286925 1.0563331
-0.15496446 -0.073967122 1.0559499
-0.14519168 -0.074250907 1.0555239
-0.13511674 -0.07500729 1.0544136
-0.1248672 -0.074880332 1.0544167
-0.11525754 -0.074210137 1.0557648
-0.10467777 -0.07469628 1.0551251
-0.095310569 -0.075262636 1.0527272
-0.088285096 -0.076444082 1.0505716
-0.014410243 -0.0746978 1.0529232
-0.004543032 -0.074998543 1.0540003
0.0046187704 -0.074833453 1.0538403
0.010151216 -0.07413619 1.0526667
-0.23187627 -0.062019892 1.0558751
-0.22514454 -0.064444639 1.0551333
-0.21546552 -0.065248951 1.0527694
-0.20632477 -0.067769676 1.0510911
-0.171213 -0.069037497 1.0500001
-0.16406918 -0.068549074 1.0505716
-0.15569541 -0.06848228 1.050889
-0.14538814 -0.068549074 1.0505716
-0.13715449 -0.068577245 1.0500001
-0.12518799 -0.068117 1.0500001
-0.11416689 -0.066758163 1.0508001
-0.10524201 -0.066464365 1.0510434
-0.097879827 -0.06842383 1.0500001
-0.023616567 -0.064351104 1.0510526
-0.015471494 -0.065854549 1.0553635
-0.0038068758 -0.066365138 1.0563332
0.0044750175 -0.065896548 1.0562502
0.013095147 -0.064282082 1.0561429
-0.23396888 -0.054295968 1.0559565
-0.2255225 -0.05671696 1.0500001
-0.0303765 -0.054309499 1.0500001
-0.025721721 -0.055585973 1.0540526
-0.019459371 -0.058378108 1.057
-0.23357429 -0.045587383 1.0553638
-0.22502041 -0.04426768 1.0500001
-0.0303765 -0.047866002 1.0500001
-0.025783837 -0.04674942 1.0547777
0.015752824 -0.043551922 1.057
-0.2316802 -0.035680454 1.0552857
-0.2250549 -0.034468614 1.0519047
-0.21999949 -0.031296998 1.0500001
-0.23073253 -0.028725736 1.057
-0.22449724 -0.024962947 1.0547367
-0.21757828 -0.025008062 1.0506155
-0.22331944 -0.018532734 1.057
-0.21537487 -0.014675206 1.0537037
-0.2089535 -0.011046 1.0500001
-0.021171499 -0.016569 1.0500001
-0.018123038 -0.014434025 1.0513334
-0.25204515 -0.00092663668 1.057
-0.24542144 -0.00092611072 1.0564001
-0.23460412 -0.0021582805 1.0535834
-0.22459888 -0.0036292651 1.0543077
-0.21550195 -0.0058529666 1.0534999
-0.2089535 -0.0064435001 1.0500001
-0.015325186 -0.0075705424 1.0532
-0.2515462 0.0038362932 1.0565716
-0.24494594 0.0044434252 1.0521818
-0.22368149 0.00092049997 1.0500001
-0.25111854 0.010193003 1.057
-0.24500659 0.015080462 1.0530952
-0.24271366 0.023866812 1.0551001
-0.23748213 0.025737179 1.0518183
-0.23505943 0.034556933 1.0539498
-0.22525947 0.038266499 1.0500001
-0.21999949 0.0395815 1.0500001
0.0056625153 0.037519578 1.0511429
0.0101255 0.036820002 1.0500001
-0.23113199 0.04227696 1.0560001
-0.22493279 0.045413923 1.0550478
-0.21744518 0.045764044 1.0510001
-0.00092049997 0.045564748 1.0500001
0.0043596211 0.044854607 1.0543811
0.010178538 0.04441807 1.0555
-0.24185216 0.058378108 1.057
-0.23351049 0.056756821 1.0534616
-0.22481218 0.054312777 1.0539472
-0.21516408 0.05419771 1.0525652
-0.2089535 0.053388998 1.0500001
-0.002968783 0.056017246 1.0513334
0.00092488335 0.053337861 1.0549999
-0.24139456 0.064745337 1.0549999
-0.2368691 0.065055482 1.0517777
-0.01136686 0.066976167 1.0513334
-0.0059680273 0.065161355 1.0549092
-0.23506829 0.074532531 1.0536842
-0.228284 0.077322006 1.0500001
-0.013998614 0.074571557 1.0541539
-0.0083397301 0.071351022 1.057
-0.23007765 0.080388576 1.054
-0.22551565 0.084776834 1.0533999
-0.21701673 0.08868815 1.0516001
-0.0303765 0.089288503 1.0500001
-0.0240645 0.087969214 1.0513334
-0.017837411 0.084179036 1.0551429
-0.21326214 0.094364308 1.0541111
-0.20779769 0.097169384 1.0516001
-0.033300035 0.095195346 1.0519444
-0.025949214 0.094754577 1.0548
-0.20420867 0.10340523 1.054
-0.1966496 0.10813934 1.0517143
-0.033106264 0.10192426 1.0550001
-0.0277991 0.10100339 1.057
-0.19472112 0.1113992 1.0560001
-0.18312602 0.1146864 1.0549999
-0.17531361 0.11810555 1.0525001
-0.041422501 0.1187445 1.0500001
-0.037904143 0.11680532 1.0546666
-0.17323567 0.12382134 1.0558462
-0.16586497 0.12613784 1.0522667
-0.054572497 0.12873849 1.0500001
-0.044565238 0.12654606 1.0536251
-0.038918741 0.12324268 1.057
-0.16370581 0.13127352 1.057
-0.15515339 0.13442588 1.0543573
-0.14669177 0.13928673 1.0550001
-0.064276695 0.13646945 1.0514209
-0.056450032 0.13403058 1.0534002
-0.049111743 0.13065577 1.057
-0.14293064 0.14246732 1.05525
-0.13578881 0.14584337 1.0510911
-0.12494047 0.14740162 1.0514547
-0.11672124 0.14588124 1.0513638
-0.071799003 0.14497875 1.0500001
-0.066939645 0.14385992 1.0556667
-0.12416931 0.15104178 1.057
-0.11409356 0.15103936 1.05375
-0.10490908 0.15399538 1.0518463
-0.094840519 0.15706377 1.0521818
-0.084847309 0.15678482 1.052
-0.074846044 0.15492809 1.0526112
-0.068879992 0.15474832 1.057
-0.095906898 0.16077146 1.057
-0.084588692 0.16057289 1.057
-0.075057566 0.16123477 1.057
-0.15492202 -0.16315268 1.0600001
-0.15594004 -0.15640467 1.0603751
-0.16540946 -0.14450097 1.0600001
-0.17191434 -0.13846073 1.0600001
-0.17492341 -0.12336624 1.0617694
-0.16843528 -0.1265578 1.0615001
-0.18863969 -0.11567821 1.067
-0.023783527 -0.11146597 1.0640001
-0.019643471 -0.11131299 1.067
-0.16486482 -0.10078972 1.067
-0.15498881 -0.10433646 1.0685
-0.1466753 -0.10294203 1.0684999
-0.13261595 -0.10264095 1.0684999
-0.12467566 -0.1048099 1.0682777
-0.11505461 -0.10214604 1.0670002
-0.10501755 -0.10319799 1.0685
-0.092604928 -0.10008816 1.067
-0.082627296 -0.10133537 1.067
-0.075005159 -0.10436347 1.0649999
-0.06700933 -0.10475763 1.0616111
-0.022931993 -0.10753646 1.0605
-0.014540584 -0.10522443 1.063
-0.0049016625 -0.10204947 1.0655001
0.0031803711 -0.10046232 1.067
-0.19924091 -0.096346542 1.067
-0.18463333 -0.094380558 1.0683
-0.1745539 -0.093487687 1.0658571
-0.16532035 -0.094336309 1.0653999
-0.15519746 -0.094429187 1.0664666
-0.14517891 -0.094683141 1.0685
-0.1348055 -0.094420761 1.06636
-0.12470213 -0.094837494 1.0623447
-0.11496557 -0.094468988 1.0628386
-0.10493376 -0.094582632 1.0638274
-0.094684586 -0.094042391 1.0653075
-0.084802568 -0.094122373 1.0629599
-0.07590773 -0.097140379 1.0612353
-0.069694996 -0.09943153 1.0600001
-0.011860972 -0.097910844 1.061125
-0.0044979206 -0.095631517 1.061625
0.0046684607 -0.094260626 1.0645198
0.011807027 -0.093361899 1.0659093
-0.21450448 -0.082973734 1.0634615
-0.20535187 -0.084164023 1.0627499
-0.19595549 -0.085322991 1.0676
-0.18562782 -0.085097276 1.0626086
-0.17440632 -0.085177995 1.0602399
-0.16464736 -0.084652379 1.06108
-0.15492152 -0.084949888 1.0622855
-0.14481242 -0.084574372 1.0626665
-0.13545561 -0.085405305 1.0611999
-0.12511308 -0.087097622 1.0600002
-0.11486819 -0.084887728 1.0614444
-0.10522962 -0.085004374 1.0614347
-0.094989009 -0.08513049 1.0618887
-0.086449556 -0.086656064 1.0603334
0.0057614534 -0.087908626 1.0600001
0.013006578 -0.085930057 1.0646666
-0.2246701 -0.072292857 1.0663334
-0.21528471 -0.075590558 1.0622916
-0.20815574 -0.078058399 1.0600001
-0.19142893 -0.078987665 1.0600001
-0.18771186 -0.078987665 1.0600001
-0.15518753 -0.078987665 1.0600001
-0.1463595 -0.078987665 1.0600001
-0.1142998 -0.078290716 1.0600001
-0.1087242 -0.078987665 1.0600001
-0.24306256 -0.062242746 1.0650001
-0.23558332 -0.064420499 1.060231
-0.22409354 -0.068912819 1.0606668
-0.21698377 -0.069230363 1.0600001
-0.012293984 -0.061885849 1.0606667
-0.005831189 -0.062107448 1.0602728
0.0052658445 -0.060712088 1.0600001
0.012080466 -0.061517455 1.0600001
-0.24465778 -0.055045146 1.0641905
-0.23789227 -0.058543801 1.0600001
-0.021992644 -0.051729176 1.0600001
-0.01475158 -0.054876834 1.0635171
-0.0046621477 -0.054979239 1.063
0.0046475949 -0.054850087 1.0604799
0.013018017 -0.054866053 1.0607501
-0.24348374 -0.045489103 1.0641177
-0.23882155 -0.043675531 1.0600001
-0.021736659 -0.045954283 1.0626668
-0.017236304 -0.047469828 1.0655453
-0.0036556206 -0.045631863 1.0662726
0.0046609738 -0.044757247 1.0636998
0.012727906 -0.045195382 1.0624285
-0.24537741 -0.034651387 1.0683
-0.2375742 -0.034901585 1.0616876
-0.00093540334 -0.03741613 1.067
0.0052596712 -0.036120966 1.06675
0.0130711 -0.036411799 1.0651251
-0.24143799 -0.026295226 1.067
-0.2351623 -0.024979925 1.0637895
-0.22952886 -0.023231665 1.0600001
-0.23531452 -0.014687868 1.0677222
-0.22483829 -0.013938996 1.0600001
-0.24311444 -0.0041358629 1.0648571
-0.23489703 -0.0067073763 1.0651819
-0.22501528 -0.0075668856 1.0600001
-0.26311558 0.0070823398 1.067
-0.25617811 0.0061480636 1.0626
-0.26097754 0.010289436 1.067
-0.25522995 0.014221597 1.0645883
-0.24997275 0.017656066 1.0600001
-0.25243899 0.023586059 1.0655
-0.24718721 0.026247224 1.0616001
-0.24432589 0.033771459 1.0650834
-0.23718829 0.039374899 1.061
-0.24039866 0.040222343 1.067
-0.23472306 0.045933641 1.0630715
-0.22952886 0.049251132 1.0600001
0.0083633997 0.049251132 1.0600001
0.012453196 0.048246324 1.0651667
-0.24398401 0.05773617 1.0622501
-0.23569787 0.053745478 1.061625
-0.22674106 0.051109668 1.0600001
0.0056417184 0.055452991 1.062579
0.012134138 0.053002194 1.0647779
-0.25245494 0.064127095 1.067
-0.24661922 0.065144323 1.0615555
-0.0020462277 0.066816822 1.0615001
0.0036867065 0.063885003 1.0642105
-0.25162348 0.070155248 1.067
-0.2453492 0.075252861 1.0641112
-0.23820202 0.078368157 1.0600001
-0.010701032 0.077704221 1.0615001
-0.0054322905 0.074936174 1.0645295
0.0015590056 0.070778854 1.067
-0.24164586 0.082627289 1.067
-0.23481084 0.084182739 1.0639377
-0.22705083 0.087041318 1.0600001
-0.013748544 0.083659418 1.0632501
-0.0084186299 0.081380092 1.067
-0.23104462 0.090734124 1.067
-0.22433403 0.093156867 1.0647334
-0.21651749 0.09745913 1.0610001
-0.022312483 0.09761814 1.0605
-0.018976912 0.094256856 1.0646667
-0.21454932 0.10406497 1.0637647
-0.20748772 0.10720834 1.0613334
-0.031348873 0.10677727 1.0621667
-0.024862409 0.10473687 1.0635
-0.0195146 0.10129007 1.0600001
-0.21140115 0.11131299 1.067
-0.20426457 0.11301409 1.0639168
-0.19504747 0.1155175 1.0626252
-0.18594533 0.11711808 1.0609233
-0.17934847 0.1198754 1.0600001
-0.034927279 0.11596064 1.0625001
-0.19222538 0.12207013 1.067
-0.18551737 0.12463757 1.0638636
-0.17757456 0.12675051 1.0605003
-0.040944278 0.12935084 1.0615001
-0.037183497 0.12646228 1.0628184
-0.18277781 0.13151772 1.067
-0.17373435 0.13382795 1.0631177
-0.16506748 0.13621403 1.0617777
-0.15762313 0.13809407 1.0607501
-0.052372798 0.13728702 1.0605
-0.044836473 0.13500915 1.063148
-0.037603211 0.13338852 1.067
-0.16276018 0.1412459 1.067
-0.1543017 0.14283934 1.0627694
-0.14570279 0.14458698 1.0613
-0.06304305 0.14619787 1.0611539
-0.055028908 0.14422195 1.0639524
-0.04864097 0.14311671 1.067
-0.13331136 0.15270464 1.0634
-0.12477932 0.15333177 1.0621667
-0.11486496 0.15443535 1.0633334
-0.1074995 0.15780649 1.0626
-0.065302208 0.15474227 1.0627
-0.10255498 0.16310231 1.0648571
-0.094330162 0.16576004 1.0631579
-0.085049361 0.16612791 1.0636315
-0.074980333 0.16619399 1.0638
-0.067562073 0.16416077 1.0635334
-0.15102337 -0.16790797 1.0700001
-0.17415999 -0.12251704 1.0738572
-0.15012303 -0.12179793 1.077
-0.14364873 -0.12233745 1.077
-0.13474159 -0.12378094 1.07575
-0.12587427 -0.12295847 1.0766363
-0.10480287 -0.12179793 1.077
-0.095361173 -0.12179793 1.077
-0.084125549 -0.12434719 1.0769999
-0.077736653 -0.12242737 1.077
-0.19042076 -0.112564 1.0700001
-0.18451492 -0.11387697 1.0714399
-0.17536569 -0.1146432 1.0744705
-0.16427654 -0.11282798 1.0751176
-0.1548657 -0.11564464 1.073875
-0.14472209 -0.11531733 1.0729001
-0.13471685 -0.11554485 1.0728847
-0.12509812 -0.1154776 1.0729231
-0.11477567 -0.11460911 1.0755453
-0.10458347 -0.11495112 1.0747333
-0.095184065 -0.1149801 1.075
-0.085572474 -0.11512519 1.0749354
-0.07591597 -0.11465956 1.0735
-0.068668425 -0.11193894 1.0730001
-0.19260277 -0.10410476 1.0724
-0.18508375 -0.10428812 1.0716799
-0.17532858 -0.10434703 1.0708076
-0.16529126 -0.10553589 1.0703157
-0.11600974 -0.10661757 1.0714999
-0.094886161 -0.1043532 1.0707499
-0.086228192 -0.10500631 1.0709473
-0.07651671 -0.10894587 1.0700001
-0.0140705 -0.1097499 1.0700001
-0.20386039 -0.092193663 1.0703751
-0.19467963 -0.094403781 1.0701109
-0.17728829 -0.097743079 1.0700001
-0.13976696 -0.097555466 1.0700001
-0.09661743 -0.09661743 1.0700001
-0.2243176 -0.082544483 1.0724
-0.21856177 -0.083484963 1.0700001
-0.20449127 -0.089113168 1.0700001
0.016944652 -0.083305247 1.07375
0.021635257 -0.085600361 1.0730001
-0.23183766 -0.075776957 1.0724
-0.22624148 -0.077083886 1.0708333
-0.25498748 -0.05243862 1.0745833
-0.26153508 -0.04815267 1.077
-0.25326315 -0.045661017 1.0739374
-0.24804281 -0.043283541 1.0700001
-0.021574767 -0.040335432 1.0700001
-0.014008397 -0.043904617 1.0710799
-0.007507226 -0.042929165 1.0703751
-0.2531254 -0.034564149 1.0739286
-0.021635257 -0.034804545 1.0730001
-0.015057128 -0.034828648 1.0738332
-0.0050325999 -0.034553241 1.0729564
0.0036479074 -0.03199736 1.0700001
0.013757822 -0.031580459 1.0700001
-0.25263268 -0.026124984 1.0749091
-0.24634117 -0.024964485 1.0705999
-0.022172779 -0.024591627 1.0730001
-0.017236248 -0.025884718 1.0748823
-0.003671577 -0.026220907 1.0767777
0.0047025448 -0.025401482 1.0733199
0.013982066 -0.02528361 1.0748749
-0.25020504 -0.019827571 1.077
-0.2443461 -0.015461852 1.0737618
-0.021715909 -0.019827571 1.077
-0.016995061 -0.01793923 1.077
-0.00094416999 -0.0188834 1.077
0.0051541924 -0.018078821 1.0766922
0.01312904 -0.018275872 1.0766363
-0.24520138 -0.006810714 1.071625
-0.23919851 -0.0084423004 1.0700001
-0.26421273 0.0059408783 1.0700001
-0.2654238 0.014884667 1.0720416
-0.25889719 0.017822633 1.0700001
-0.26273537 0.023568681 1.0752858
-0.25642028 0.026440337 1.07075
-0.25417075 0.034282662 1.0741999
-0.2473557 0.037000593 1.0712001
-0.25083449 0.041228756 1.077
-0.24405761 0.044227339 1.0733124
-0.23919851 0.047839701 1.0700001
-0.25407729 0.058714371 1.0728573
-0.24497777 0.054121893 1.0744615
-0.23919851 0.052529864 1.0700001
0.013485471 0.057386603 1.0731111
-0.26104939 0.06597092 1.075
-0.25683105 0.065082856 1.0702727
0.0078208894 0.066319689 1.0705
0.010898219 0.064180769 1.0742857
-0.26153508 0.070812747 1.077
-0.25448832 0.073605664 1.0718333
-0.24857883 0.0787948 1.0700001
-0.0022795838 0.07818865 1.0708573
0.0045025116 0.074379176 1.0739443
-0.25020504 0.082142793 1.077
-0.24431534 0.085204199 1.0727
-0.23796484 0.088462673 1.0712001
-0.01244594 0.087338798 1.0737778
-0.0052252524 0.083726436 1.0752727
0.00094416999 0.08025445 1.077
-0.24076335 0.091584489 1.077
-0.23412235 0.0949395 1.0738461
-0.22739768 0.096920982 1.0707501
-0.017900655 0.095164403 1.0747778
-0.23226583 0.10291452 1.077
-0.22484402 0.10403038 1.0731052
-0.21730791 0.10841846 1.0707501
-0.029079033 0.1097499 1.0700001
-0.21472187 0.11385262 1.0733
-0.20617104 0.11783986 1.0719001
-0.19886306 0.11913023 1.0700001
-0.032370441 0.11642125 1.0717273
-0.02674596 0.11226479 1.0743001
-0.20283648 0.12261748 1.0747143
-0.19535494 0.12545294 1.0716666
-0.033871185 0.12326372 1.0733334
-0.19235952 0.13211031 1.0738333
-0.18536384 0.13432856 1.0714999
-0.17694487 0.13798755 1.0707501
-0.041273467 0.13976696 1.0700001
-0.034196898 0.1356118 1.0737332
-0.029269271 0.13690464 1.077
-0.17376323 0.14172958 1.0747143
-0.164554 0.14405842 1.0726
-0.15515193 0.14763014 1.0726001
-0.14654097 0.14935638 1.0715001
-0.054141473 0.1492867 1.0710001
-0.044405166 0.14524472 1.0727221
-0.036078557 0.14220212 1.0760001
-0.15153928 0.15201136 1.077
-0.14443828 0.15228796 1.0745
-0.13392662 0.15609887 1.0733333
-0.12482996 0.1576785 1.0706
-0.11705195 0.15805043 1.0710001
-0.061626013 0.15641296 1.0705001
-0.055714458 0.15433629 1.0737619
-0.047523219 0.15075247 1.077
-0.12468146 0.16240616 1.0757999
-0.11443584 0.16347103 1.075647
-0.10554418 0.16622382 1.0712306
-0.098493502 0.16978404 1.0700001
-0.063154906 0.16502947 1.0723636
-0.059482709 0.16145307 1.077
-0.10421179 0.1718708 1.0752223
-0.095001519 0.17466111 1.0741763
-0.085046798 0.17410408 1.0749375
-0.074034087 0.17409658 1.0752307
-0.066256538 0.17328614 1.0766
-0.14961106 -0.14008169 1.087
-0.13436408 -0.14008169 1.087
-0.1263594 -0.14046288 1.087
-0.10101128 -0.14103463 1.087
-0.17010489 -0.13019201 1.0840001
-0.16454537 -0.13186119 1.086
-0.15492661 -0.13348842 1.0868499
-0.14520472 -0.13429777 1.0858461
-0.13521075 -0.13442077 1.0848749
-0.12490045 -0.13401864 1.0848333
-0.11578181 -0.13198173 1.087
-0.10432751 -0.13367797 1.087
-0.094767466 -0.1339467 1.0843041
-0.087529905 -0.13240121 1.0813334
-0.17179102 -0.12347849 1.0806667
-0.16499418 -0.12421557 1.082724
-0.1551806 -0.12526788 1.0832999
-0.14538154 -0.12628853 1.0806153
-0.1347612 -0.1284492 1.08
-0.12423264 -0.12648524 1.08075
-0.11506813 -0.12481873 1.0823182
-0.1052412 -0.12586479 1.0815001
-0.095710956 -0.12559023 1.0809412
-0.088052407 -0.127818 1.08
-0.1671102 -0.1171665 1.08
0.018062841 -0.081761874 1.0845001
0.022821387 -0.083041072 1.0846666
0.013341113 -0.079093739 1.087
-0.26036999 -0.050180398 1.08
-0.26314607 -0.043944113 1.0830715
-0.25752959 -0.042606 1.08
-0.26336089 -0.035332609 1.0850714
-0.2581608 -0.0356628 1.08
-0.26261017 -0.025862249 1.086
-0.25732195 -0.024751224 1.0813334
-0.012308399 -0.024980955 1.08
-0.007439143 -0.023670001 1.08
-0.25421229 -0.015645456 1.0834736
-0.2490084 -0.012308399 1.08
-0.012553379 -0.015818669 1.083111
-0.0050195116 -0.014912757 1.0829642
0.0044049923 -0.012876687 1.0811764
0.012738551 -0.013579372 1.080889
-0.25320712 -0.0070384061 1.085
-0.2490084 -0.0085212002 1.08
-0.010482303 -0.0066705565 1.087
-0.0032399849 -0.0078140814 1.087
0.0057684151 -0.0057656304 1.0859411
0.0111855 -0.0054711672 1.085875
-0.27350187 0.018656051 1.082
-0.26983801 0.0198828 1.08
-0.27416202 0.023322947 1.085875
-0.26651055 0.026287979 1.0818571
-0.26365805 0.035283014 1.0835
-0.25784519 0.038187601 1.08
-0.26304725 0.043858118 1.0853635
-0.25546578 0.044992123 1.0814544
-0.24853499 0.046866599 1.08
-0.26078701 0.051140934 1.087
-0.25435424 0.05339044 1.0818824
-0.24853501 0.051600598 1.08
0.017357999 0.059017196 1.08
-0.26369959 0.069244392 1.082
0.014442525 0.065278985 1.0849091
-0.26328155 0.074545451 1.0855
-0.25734305 0.077184543 1.0816
0.0080556897 0.077236965 1.081
0.01117772 0.074431852 1.085
-0.25414225 0.084601916 1.0842727
-0.24767797 0.088496342 1.0808001
-0.0104148 0.089946002 1.08
-0.0043558935 0.08773075 1.0807
0.0041607148 0.083535537 1.0843124
-0.25157529 0.091481917 1.087
-0.24446963 0.094647415 1.0837693
-0.23840424 0.096384242 1.08
-0.013424898 0.093972281 1.0827143
-0.0055694631 0.091945425 1.0844287
-0.24150647 0.10187042 1.086
-0.23581709 0.10636171 1.0825999
-0.22782929 0.10838523 1.0813333
-0.018105797 0.10005835 1.087
-0.23346496 0.11197504 1.0855
-0.22443828 0.11426395 1.0845293
-0.21716852 0.11759497 1.08175
-0.027147209 0.1171395 1.0828
-0.21293648 0.12199402 1.0843333
-0.20621566 0.12639518 1.084
-0.1997748 0.127818 1.08
-0.032487165 0.12596647 1.0836
-0.029477624 0.12266904 1.0846667
-0.20140737 0.13189165 1.0862499
-0.19587362 0.13422292 1.082
-0.18911102 0.13779446 1.0840001
-0.031446911 0.13626994 1.087
-0.029541036 0.13626994 1.087
-0.18137561 0.14516401 1.087
-0.17531191 0.14706647 1.0842857
-0.16541198 0.14834252 1.0817143
-0.040712401 0.14864761 1.08
-0.035369627 0.14576973 1.0855833
-0.17243446 0.15338099 1.0867
-0.1643739 0.15477629 1.0854347
-0.15545847 0.15546143 1.0823157
-0.14541878 0.1569611 1.083077
-0.13854839 0.1574844 1.08
-0.051771022 0.15759239 1.0816001
-0.044750683 0.15449081 1.0834705
-0.039070401 0.15246987 1.087
-0.1610463 0.1610463 1.087
-0.1544393 0.16205649 1.0861
-0.14547457 0.16451143 1.08575
-0.13574994 0.16470246 1.0828332
-0.12544462 0.1666607 1.0818182
-0.11526706 0.16800265 1.0806667
-0.061039671 0.16857685 1.0823334
-0.055306219 0.16346999 1.0844705
-0.048599768 0.16199923 1.087
-0.14103463 0.17057566 1.087
-0.13381635 0.1712658 1.086
-0.12505499 0.17179056 1.085909
-0.11513807 0.17203812 1.0854
-0.10539112 0.17659399 1.0829999
-0.096258007 0.1789452 1.08
-0.084813997 0.17863749 1.0810001
-0.075810626 0.17887656 1.0828573
-0.063628867 0.17570342 1.0833846
-0.10196421 0.18296383 1.087
-0.094437711 0.18329269 1.0839999
-0.08507625 0.18299206 1.0843333
-0.074980043 0.18248367 1.0865715
-0.066681571 0.18242459 1.086625
-0.14434291 -0.15238626 1.097
-0.13816471 -0.15226968 1.097
-0.15206721 -0.14420949 1.0937001
-0.14465825 -0.14466086 1.09276
-0.13522956 -0.1454152 1.0923685
-0.12529732 -0.14418165 1.0936154
-0.11410896 -0.14302503 1.0949376
-0.10645413 -0.14198367 1.0911429
-0.1548018 -0.13855717 1.09
-0.1462017 -0.13855717 1.09
-0.12135696 -0.13855717 1.09
-0.11518253 -0.13694006 1.09
-0.1075968 -0.13817494 1.09
0.026727187 -0.08208067 1.0941429
0.03173621 -0.081744783 1.097
0.016158428 -0.075545341 1.0927334
0.023642167 -0.077514097 1.095
-0.27106297 -0.023493038 1.097
-0.26589695 -0.022256374 1.092
-0.27087978 -0.017631227 1.097
-0.26445153 -0.014370012 1.09295
-0.25871837 -0.011954227 1.0910001
-0.26472133 -0.0059530917 1.0954
-0.25811654 -0.0057452349 1.0925001
-0.01089346 -0.0043956069 1.09
-0.0051600602 -0.00401338 1.09
0.0026278084 -0.0026278084 1.09
0.012422367 -0.0019111333 1.09
-0.010511233 0.00095556665 1.09
-0.0044503412 0.0045383126 1.0913913
0.0047876877 0.0047928067 1.09236
0.011504672 0.0048009772 1.0936
-0.0028811649 0.011525975 1.0955
0.005020183 0.011430369 1.0966668
-0.2760863 0.027949326 1.0924546
-0.2745305 0.035215441 1.0960588
-0.26900691 0.036381666 1.092
-0.27378905 0.043904636 1.0966668
-0.26789042 0.046047401 1.0917778
-0.28177908 0.052893683 1.097
-0.27504715 0.050970275 1.097
-0.26456973 0.054776009 1.0934286
0.0172002 0.066889666 1.09
0.020103719 0.066058591 1.092
-0.27120036 0.07693626 1.097
-0.26669088 0.076827295 1.0927001
0.015967119 0.075667247 1.0925555
0.020497927 0.073665716 1.0960001
-0.27023864 0.081744783 1.097
-0.26352599 0.085037217 1.0955385
-0.25857285 0.08632116 1.0916001
0.0064610336 0.087794662 1.0915
0.013438035 0.084559567 1.0946667
-0.26062161 0.092323519 1.097
-0.25480354 0.095125474 1.0944287
-0.24749176 0.097467802 1.09
-0.011791752 0.097209476 1.0906668
-0.0046424223 0.095863238 1.0926154
0.0044515538 0.092364796 1.0943637
-0.25141689 0.10152794 1.0960001
-0.24574025 0.10440552 1.0942501
-0.014547699 0.10249373 1.0943334
-0.24189284 0.11316452 1.0958
-0.23520851 0.11635865 1.0951
-0.22825944 0.11796602 1.0940001
-0.02460891 0.11793241 1.0936667
-0.22440454 0.12157197 1.0962501
-0.214912 0.12613937 1.0927778
-0.031533699 0.1290015 1.09
-0.028359165 0.12646118 1.0940001
-0.21157473 0.13271506 1.097
-0.20500302 0.13364235 1.0927501
-0.19710253 0.13837466 1.0946001
-0.032144736 0.1328882 1.0945001
-0.029244943 0.13327765 1.09375
-0.19307351 0.14441797 1.0965385
-0.1864468 0.1453407 1.0921333
-0.032489266 0.14811283 1.09
-0.1920201 0.15162855 1.097
-0.18461691 0.15295534 1.0943573
-0.17648642 0.15636462 1.0929
-0.16817974 0.15957963 1.09
-0.043000501 0.15830554 1.09
-0.035223383 0.15403152 1.0928824
-0.1740683 0.16060446 1.097
-0.163452 0.16400506 1.0940001
-0.1551303 0.16700368 1.0923001
-0.053559072 0.16785625 1.0910001
-0.044954147 0.16412273 1.0940001
-0.038788702 0.1612456 1.097
-0.15321293 0.17166607 1.0964
-0.14496568 0.17357677 1.0951
-0.13511705 0.17669097 1.0959092
-0.12512945 0.17709552 1.0919286
-0.11626097 0.17737596 1.0918462
-0.10989016 0.17869097 1.09
-0.060911387 0.1782725 1.0913334
-0.055944294 0.17401488 1.0949286
-0.04904687 0.17022149 1.097
-0.13175336 0.18176194 1.097
-0.12521945 0.18218064 1.0966251
-0.11370075 0.18191594 1.0960001
-0.10536206 0.18554688 1.0925715
-0.094601102 0.18824664 1.09
-0.084366016 0.1876163 1.0905001
-0.075765714 0.18694784 1.0918462
-0.063897423 0.18615995 1.0931053
-0.058663905 0.18176194 1.097
-0.10097885 0.19137897 1.097
-0.095055558 0.19106495 1.0951999
-0.085450098 0.19106492 1.0952002
-0.075012855 0.19137897 1.097
-0.065395832 0.19137897 1.097
-0.15312693 -0.15215822 1.102
-0.14960755 -0.15346839 1.1010001
-0.13432769 -0.15462516 1.102357
-0.12430488 -0.15144801 1.105625
-0.15346839 -0.14960755 1.1010001
-0.13126856 -0.14960755 1.1010001
-0.12374838 -0.14775379 1.1015714
-0.11640433 -0.14729103 1.1010001
0.03281714 -0.080112427 1.1010001
0.01737378 -0.070460327 1.1010001
0.025249863 -0.073211089 1.1025
0.034280252 -0.074294172 1.1066248
0.01737378 -0.068529911 1.1010001
0.024272621 -0.068928264 1.1073999
-0.27315444 -0.020269411 1.1010001
-0.26350233 -0.00289563 1.1010001
0.01447815 0.0067564701 1.1010001
-0.0023492163 0.016176004 1.1037143
0.0044558626 0.016080111 1.1047331
0.010652669 0.012593609 1.1046667
-0.0019426933 0.02039828 1.108
0.0029140399 0.020883953 1.108
-0.28280607 0.038052738 1.1035
-0.27765873 0.03764319 1.1010001
-0.28408727 0.045638386 1.1076665
-0.27658626 0.046222832 1.101
-0.29043266 0.052452721 1.108
-0.28647134 0.052173764 1.1062
-0.27395445 0.054321386 1.1042222
-0.26832837 0.056947391 1.1010001
0.02219983 0.068529911 1.1010001
-0.27510765 0.077725559 1.1036667
0.024635648 0.075420074 1.1049284
0.030111747 0.078679077 1.108
-0.27394202 0.084710009 1.1047692
-0.26800665 0.086547166 1.101
0.016794655 0.087448023 1.1010001
0.022572646 0.084007569 1.1065332
-0.27163604 0.091840468 1.1073999
-0.26585802 0.094222486 1.1054444
-0.25866663 0.098250084 1.1023334
-0.0016086833 0.098773159 1.1010001
0.0048403395 0.097146139 1.1037
0.014431068 0.093710609 1.1059999
0.021045843 0.090982802 1.108
-0.26129225 0.10004871 1.108
-0.2545644 0.10580286 1.1055
-0.24850959 0.10830164 1.103
-0.020269411 0.10713831 1.1010001
-0.014044091 0.10729818 1.1051251
-0.006249039 0.10347041 1.1049091
0.0038853865 0.10053438 1.108
-0.25157878 0.11267621 1.108
-0.24567901 0.11493198 1.1037776
-0.23840687 0.11872083 1.1010001
-0.022340974 0.11753295 1.108
-0.24153788 0.12222531 1.1065
-0.23492713 0.12225092 1.1079999
-0.22473164 0.1260388 1.1058999
-0.21853547 0.12860611 1.103
-0.02569212 0.12459975 1.1018
-0.22257712 0.13487843 1.1079999
-0.2155026 0.13588525 1.1041874
-0.20640789 0.13784641 1.1014999
-0.026106257 0.13199137 1.103
-0.21385694 0.1421888 1.1074544
-0.20497398 0.14439419 1.104357
-0.19804354 0.14627318 1.101
-0.20242059 0.15171267 1.1062857
-0.19516566 0.15547119 1.1044284
-0.18537681 0.15832086 1.1021429
-0.033782348 0.15861617 1.1010001
-0.18426323 0.16212705 1.1074001
-0.17513388 0.16371498 1.1036999
-0.16630565 0.16775498 1.1044999
-0.042469241 0.16794655 1.1010001
-0.036277749 0.16441363 1.1046922
-0.16231818 0.17363743 1.1065
-0.15542649 0.17589743 1.1041429
-0.14623226 0.17799139 1.1025714
-0.13995545 0.17856385 1.1010001
-0.052915819 0.17711714 1.1025
-0.046619065 0.17417693 1.1046427
-0.039825212 0.17192836 1.108
-0.15055872 0.18164183 1.108
-0.14356469 0.18188159 1.1065
-0.13496777 0.18330055 1.1026922
-0.12410939 0.18681562 1.1031666
-0.11533983 0.18675211 1.1029285
-0.10906873 0.18821596 1.1010001
-0.055614948 0.18461031 1.1044443
-0.049538679 0.18164183 1.108
-0.11308627 0.19171144 1.10725
-0.1054272 0.19406946 1.1049999
-0.094283216 0.19639532 1.1052306
-0.084582448 0.19639887 1.1042498
-0.074617483 0.19672379 1.1054
-0.06527441 0.19582772 1.1051248
-0.058551103 0.19183016 1.107
-0.090335242 0.20106876 1.108
-0.085478507 0.20106876 1.108
0.038994133 -0.073114 1.1120001
0.018572183 -0.067446351 1.115
0.02474561 -0.065707602 1.1163572
0.033685762 -0.066962384 1.1165882
0.044144548 -0.066707321 1.1190001
0.0087736798 0.018522214 1.1120001
0.012235857 0.018105578 1.11625
-0.00097485335 0.022421626 1.1120001
0.0057508233 0.024462504 1.1160001
0.011444884 0.022889765 1.1190001
-0.29148114 0.038019281 1.1120001
-0.28888154 0.039319083 1.1120001
0.00294297 0.03041069 1.1190001
-0.29187649 0.043595754 1.115
-0.28738675 0.045428168 1.1120002
-0.27588347 0.05881615 1.1120001
0.028270746 0.077013411 1.1120001
-0.27783319 0.088711649 1.1120001
0.026928309 0.085467897 1.1129001
0.030860795 0.085328348 1.115
-0.28104091 0.09596695 1.1170001
-0.2762351 0.095111214 1.1143529
-0.26747143 0.097616829 1.1135001
0.016205885 0.098194212 1.1134001
0.023569964 0.093514137 1.115
-0.27271521 0.10202296 1.1190001
-0.26471257 0.1042956 1.11575
-0.25833613 0.10820872 1.1120001
-0.0032565242 0.10612605 1.114
0.0047120033 0.10394207 1.1156363
0.013057073 0.10151538 1.117
-0.26145619 0.11163473 1.1170001
-0.25517207 0.11413746 1.1144547
-0.24761274 0.11893211 1.1120001
-0.021224428 0.11515071 1.113125
-0.016291829 0.1132294 1.1150001
-0.0088289101 0.11085187 1.1190001
-0.25015244 0.12066177 1.1190001
-0.24404983 0.12365661 1.1165
-0.23479733 0.12680477 1.112643
-0.22844063 0.1290056 1.1120001
-0.023315953 0.12497071 1.115
-0.23531027 0.13433667 1.1149564
-0.22811568 0.1355046 1.1120002
-0.024437083 0.13196024 1.115
-0.23249464 0.14224355 1.1190001
-0.22459118 0.14348726 1.1146667
-0.21536578 0.14720683 1.1131539
-0.20861861 0.14817771 1.1120001
-0.21396759 0.15177992 1.1170001
-0.20532595 0.15599327 1.1144167
-0.20282297 0.16167046 1.1176667
-0.19400212 0.16291025 1.1154001
-0.18507235 0.16682571 1.1150001
-0.17514865 0.16832466 1.1120001
-0.033832844 0.16760306 1.1154001
-0.18192089 0.1721227 1.1176667
-0.17415021 0.1742595 1.1160001
-0.16628788 0.1763662 1.1125001
-0.042494114 0.1775593 1.114375
-0.036699019 0.17431356 1.1175386
-0.17167325 0.18148315 1.1190001
-0.1644409 0.18240747 1.1159091
-0.15575536 0.18528779 1.1152999
-0.14611502 0.18650468 1.1146003
-0.13803577 0.18778618 1.1127501
-0.052363593 0.18766598 1.113
-0.046002075 0.18461166 1.11655
-0.038258608 0.18148315 1.1190001
-0.14126256 0.19129305 1.1190001
-0.13394678 0.19163123 1.11525
-0.12483704 0.19329633 1.1154445
-0.11550594 0.19582528 1.115
-0.1043093 0.19887006 1.1120001
-0.097485334 0.19984493 1.1120001
-0.061415758 0.19887008 1.1120001
-0.054543655 0.19482985 1.1151
-0.04708752 0.19129305 1.1190001
-0.11183286 0.20110294 1.1190001
-0.10412657 0.20433846 1.1165625
-0.095108643 0.20561403 1.1160001
-0.084953636 0.20565242 1.1152778
-0.075690828 0.20497452 1.1161766
-0.065170571 0.20483285 1.1154118
-0.057329077 0.20318374 1.117154
0.024651341 -0.061529905 1.1248001
0.034987982 -0.062090576 1.1242501
0.043704372 -0.063715719 1.1236315
0.028626673 -0.058240473 1.126
0.032575179 -0.058240473 1.126
0.046394955 -0.058240473 1.126
0.050343461 -0.058240473 1.126
0.0078759734 0.028550403 1.123
0.012142126 0.027894072 1.123
0.0068996591 0.032528717 1.1243335
0.011328944 0.032019153 1.1237501
-0.28156602 0.09943416 1.123
0.02362792 0.09697292 1.123
-0.28058153 0.10435665 1.123
-0.27552837 0.10636574 1.1239474
-0.26811126 0.1086228 1.123
-0.00295349 0.10927913 1.123
0.0060233818 0.10831498 1.1243334
0.014038282 0.1049199 1.1237501
0.021689173 0.1015386 1.1245
-0.27382892 0.11194016 1.126
-0.26485607 0.11451911 1.1245
-0.25793815 0.11813961 1.123
-0.013807499 0.11572117 1.125
-0.0036133276 0.11144624 1.125
0.00098712661 0.11154531 1.126
-0.26158857 0.12141658 1.126
-0.25470069 0.12327271 1.1249092
-0.24673545 0.12766032 1.1238573
-0.02148517 0.12634923 1.1242001
-0.018340567 0.12365524 1.1248001
-0.24398905 0.13259232 1.1245
-0.23681514 0.14222455 1.1240001
-0.22703913 0.14806899 1.126
-0.22256432 0.15155433 1.125
-0.21535806 0.15580137 1.1248001
-0.20969778 0.15850396 1.123
-0.21223223 0.16090165 1.126
-0.20536166 0.16394773 1.1248751
-0.1963464 0.16735229 1.1238573
-0.19199333 0.1714716 1.1253999
-0.18431947 0.17490213 1.1243335
-0.1781939 0.17720941 1.123
-0.033173651 0.17572637 1.1240001
-0.18064418 0.18064418 1.126
-0.17522347 0.18245713 1.125
-0.16485015 0.18788309 1.126
-0.041151959 0.18646367 1.123
-0.035878796 0.18394995 1.1248463
-0.16090165 0.19051544 1.126
-0.15333368 0.19314778 1.126
-0.14514284 0.1944571 1.1250001
-0.13543153 0.19691871 1.1246365
-0.12580137 0.19773187 1.1240001
-0.1181396 0.19985282 1.123
-0.050910372 0.19806004 1.1240001
-0.044148155 0.19248173 1.1246667
-0.03849794 0.19051544 1.126
-0.1332621 0.20038672 1.126
-0.12536508 0.20038672 1.126
-0.11480013 0.20353857 1.1247143
-0.10787537 0.20786753 1.1237501
-0.07383725 0.20969778 1.123
-0.065961272 0.20969778 1.123
-0.053333573 0.20512664 1.1243334
-0.10430638 0.21157415 1.126
-0.094851494 0.21261917 1.124125
-0.085314184 0.21279556 1.1243334
-0.074951492 0.21204376 1.1250001
-0.064163238 0.21223223 1.126
-0.058240473 0.21223223 1.126
0.01888866 -0.061636679 1.1340001
0.020803301 -0.060428634 1.13
0.038634699 -0.060428634 1.13
0.040615965 -0.060428634 1.13
0.018955287 -0.055868212 1.138
0.02470403 -0.05454576 1.1348335
0.035008963 -0.054044269 1.1321818
0.044437118 -0.054097511 1.133273
0.052014388 -0.053003266 1.1355
0.028931754 -0.048884686 1.138
0.036039475 -0.046998393 1.1366667
0.045154359 -0.045241114 1.1380004
0.053496338 -0.044527657 1.1371112
0.056266222 -0.038033552 1.1374286
0.027240839 0.096829236 1.1340001
0.032002091 0.094590075 1.1357144
-0.28431177 0.10203523 1.13
0.016113572 0.10757928 1.131
0.023882447 0.10447792 1.1350001
-0.27546096 0.11644939 1.1336666
-0.26687664 0.11828162 1.13
-0.01192968 0.11730852 1.1340001
-0.0055437898 0.11444332 1.1351429
0.0055148709 0.11396778 1.1339999
0.014381592 0.11205178 1.1368572
-0.27135989 0.12071525 1.138
-0.26385778 0.12579408 1.1357778
-0.25557265 0.12728925 1.1305715
-0.020803301 0.12977296 1.13
-0.015477174 0.12369642 1.1340001
-0.26138341 0.13069171 1.138
-0.25450757 0.13408867 1.1365715
-0.24786991 0.13554026 1.1339999
-0.022864051 0.13454145 1.1339999
-0.01826798 0.13120368 1.1366667
-0.24362531 0.14346159 1.138
-0.23488387 0.1467277 1.1324
-0.2288363 0.14958563 1.13
-0.02584764 0.14017373 1.1340001
-0.23224741 0.15200874 1.1370001
-0.22505182 0.15507706 1.1331112
-0.21826954 0.15883154 1.13
-0.22221453 0.16109802 1.1366667
-0.21476325 0.16419129 1.1335557
-0.20583123 0.168384 1.1315
-0.030791163 0.16686386 1.133
-0.21050344 0.17059758 1.138
-0.20286593 0.17386879 1.1351429
-0.1959389 0.17531729 1.1327692
-0.1877031 0.17807078 1.1311429
-0.030709634 0.17534208 1.13
-0.028565308 0.1740499 1.1366667
-0.19055051 0.18256934 1.138
-0.1846685 0.18317729 1.1325001
-0.17606929 0.18623993 1.1315
-0.16893776 0.1887738 1.1313334
-0.03210739 0.18650417 1.1304001
-0.028210159 0.18553051 1.1357778
-0.17159523 0.19154815 1.138
-0.16358273 0.19366494 1.1328572
-0.1551861 0.19703148 1.1314546
-0.14562309 0.19872105 1.13
-0.044119764 0.19769678 1.1321819
-0.034904227 0.19464113 1.1337649
-0.027275905 0.19213833 1.1356
-0.15463524 0.20172414 1.138
-0.14406261 0.20357046 1.1347272
-0.13521113 0.20510367 1.1324
-0.1254427 0.20554832 1.1326668
-0.11630736 0.2078107 1.1317778
-0.051017616 0.20753768 1.13
-0.045616265 0.20456336 1.1356471
-0.12071525 0.21050344 1.138
-0.11449162 0.21244824 1.1356001
-0.10464342 0.21537499 1.1344445
-0.094205342 0.21660206 1.1311429
-0.083739787 0.21713047 1.1326667
-0.074637994 0.21695361 1.1351999
-0.06457562 0.21657033 1.1331999
-0.054552995 0.21461479 1.1340001
-0.048884686 0.21349639 1.138
-0.093778789 0.22047991 1.138
-0.085465066 0.22047991 1.138
-0.074823499 0.22047991 1.138
-0.06484703 0.22047992 1.138
0.025109485 -0.045790933 1.1456002
0.034038745 -0.043148927 1.1446924
0.042011619 -0.041011345 1.141
