# .PCD v0.7 - Point Cloud Data file format
VERSION 0.7
FIELDS x y z
SIZE 4 4 4
TYPE F F F
COUNT 1 1 1
WIDTH 1462
HEIGHT 1
VIEWPOINT 0 0 0 1 0 0 0
POINTS 1462
DATA ascii
-0.20498352 0.017879397 1.149
-0.19261624 0.017347772 1.149
-0.18474592 0.017909775 1.1478002
-0.17526846 0.019138509 1.149
-0.16620284 0.019138509 1.149
-0.15713724 0.019138509 1.149
-0.14706434 0.019138509 1.149
-0.12792583 0.019138509 1.149
-0.10173629 0.019138509 1.149
-0.094994433 0.017454142 1.1486667
-0.085292093 0.01544523 1.1481305
-0.075492471 0.015096584 1.1482002
-0.065473847 0.015109353 1.149
-0.056408245 0.015109355 1.149
-0.21052361 0.025182251 1.149
-0.20447987 0.025182249 1.149
-0.19475985 0.025278682 1.148579
-0.18553261 0.025261885 1.1450003
-0.17541772 0.025055869 1.1434003
-0.16523521 0.024910888 1.1439233
-0.15511827 0.025077615 1.1445203
-0.14510497 0.02508224 1.1446804
-0.13520627 0.025229881 1.1438335
-0.12536323 0.024737054 1.1448263
-0.11595156 0.025788318 1.1463336
-0.10522359 0.025659954 1.1460911
-0.095344499 0.024082908 1.1448004
-0.085002318 0.024289889 1.143286
-0.07520815 0.025066109 1.1438802
-0.065333992 0.025124602 1.1466002
-0.056396749 0.025512362 1.1487778
-0.047342628 0.029211409 1.149
-0.20458589 0.0344069 1.149
-0.19556667 0.035423242 1.1460437
-0.18569995 0.035132416 1.1450003
-0.17509861 0.035019215 1.1413202
-0.16599327 0.034377933 1.141
-0.15581232 0.032855246 1.1409999
-0.14579032 0.031758782 1.1409999
-0.13803819 0.031008577 1.141
-0.12236718 0.031675428 1.141
-0.11469839 0.031342 1.1409999
-0.10702959 0.031008577 1.141
-0.071019642 0.031008577 1.141
-0.065060757 0.031030318 1.1418
-0.055146623 0.034940325 1.1461112
-0.049357209 0.039284311 1.149
-0.20313683 0.044880364 1.149
-0.19559924 0.045010109 1.145167
-0.18564829 0.045157906 1.1446804
-0.1750484 0.045012455 1.1410003
-0.16530661 0.045360375 1.1410002
-0.15837713 0.046346154 1.1409999
-0.051740576 0.041726124 1.1423334
-0.048461255 0.044441447 1.1436666
-0.2004507 0.05439366 1.149
-0.1946504 0.055017069 1.1454213
-0.18530872 0.055093475 1.1426003
-0.17512316 0.055038918 1.1414803
-0.16504568 0.055015203 1.1410003
-0.15904398 0.05101411 1.141
-0.043808084 0.056469787 1.1462002
-0.038188186 0.057279933 1.1463333
-0.19313177 0.065384082 1.1474001
-0.18569992 0.065245911 1.1450003
-0.17556559 0.065211147 1.1443603
-0.16539361 0.064757042 1.1410002
-0.043569248 0.065505095 1.1433531
-0.036817256 0.065976948 1.1467501
-0.24225324 0.077561326 1.149
-0.23531468 0.076737024 1.1487334
-0.22558904 0.075832479 1.1464548
-0.21559444 0.075581647 1.1443046
-0.20558748 0.076178372 1.1455717
-0.19516025 0.075795323 1.1459094
-0.18553263 0.075451039 1.1450003
-0.17566209 0.075283751 1.1450003
-0.16591132 0.075438611 1.1431822
-0.15837713 0.078355007 1.141
-0.043043848 0.07285402 1.141889
-0.035181087 0.075397789 1.1467602
-0.028367704 0.077854842 1.1474001
-0.24244693 0.085154735 1.149
-0.23517245 0.085868232 1.1486365
-0.2255021 0.08505974 1.1450003
-0.21544081 0.084950104 1.1411742
-0.20555684 0.083773166 1.1409999
-0.19572079 0.081355833 1.1409999
-0.18452004 0.083104618 1.1421429
-0.17544624 0.084211722 1.1436002
-0.16530918 0.084154226 1.1428001
-0.15618607 0.084594831 1.1409999
-0.14392871 0.087690927 1.1409999
-0.13903846 0.088024348 1.141
-0.033790138 0.084986597 1.1450001
-0.028283698 0.085076503 1.1476668
-0.23335552 0.094013743 1.149
-0.22512536 0.095475644 1.1464002
-0.21653728 0.095358431 1.1423335
-0.20905782 0.09802711 1.141
-0.032285709 0.094456449 1.1438
-0.029211408 0.095692553 1.149
-0.22413635 0.10475338 1.1480771
-0.21530436 0.10506296 1.143167
-0.20722397 0.10619605 1.1409999
-0.031030318 0.10509988 1.1417999
-0.028807849 0.10585341 1.1463335
-0.22059651 0.11180919 1.149
-0.21420421 0.114849 1.1471335
-0.20546085 0.11518786 1.1441669
-0.19590946 0.11618921 1.1414446
-0.033712108 0.11631285 1.1437502
-0.029211408 0.11583835 1.149
-0.24376418 0.12994041 1.149
-0.23542766 0.12978961 1.1476668
-0.2216038 0.12994041 1.149
-0.20265241 0.12469944 1.1484287
-0.19544989 0.12525193 1.1453481
-0.18671586 0.12662311 1.1424285
-0.06201715 0.1290357 1.141
-0.055015218 0.1290357 1.141
-0.044335261 0.12746525 1.1434617
-0.035895023 0.12499189 1.1470002
-0.029211409 0.12188209 1.149
-0.24359024 0.13392322 1.146143
-0.23548447 0.13518645 1.1450003
-0.22589295 0.13551804 1.1465002
-0.21600629 0.13656747 1.1470002
-0.20447989 0.13799873 1.149
-0.19315296 0.13572079 1.1479335
-0.1851524 0.13578451 1.1450003
-0.17573777 0.13571857 1.1437829
-0.16625908 0.13714983 1.1419231
-0.072620086 0.13563752 1.1409999
-0.064888641 0.13588837 1.1435456
-0.05522798 0.13500093 1.143609
-0.045950167 0.1345522 1.1468825
-0.039284311 0.13195498 1.149
-0.24074231 0.14202788 1.149
-0.23396251 0.14458033 1.1472502
-0.22491921 0.14446588 1.1456319
-0.21555306 0.14529684 1.1448464
-0.20539354 0.14450485 1.1447335
-0.19618241 0.14266786 1.1444668
-0.18488893 0.14506298 1.143364
-0.17553794 0.14544491 1.1442003
-0.16544051 0.14538389 1.1437204
-0.15719733 0.14565566 1.1409999
-0.071019642 0.1420393 1.141
-0.065361872 0.14506847 1.1455456
-0.055865858 0.1429577 1.149
-0.048014153 0.14135635 1.149
-0.22381985 0.15230225 1.149
-0.21481112 0.15500781 1.1459414
-0.20596527 0.15504377 1.1430002
-0.1760487 0.15104178 1.141
-0.16460109 0.1519309 1.1409999
-0.15664332 0.15144189 1.141
-0.065241247 0.1549149 1.1450002
-0.21253818 0.16267733 1.149
-0.2047891 0.16446277 1.1465001
-0.19592012 0.16586824 1.1427143
-0.18705173 0.16904676 1.141
-0.12220488 0.1652813 1.1425999
-0.1171251 0.16739939 1.141889
-0.093025722 0.16904676 1.141
-0.085023515 0.16904676 1.141
-0.073952176 0.16746381 1.1413636
-0.066321351 0.16494553 1.1454211
-0.19421409 0.17437716 1.1478573
-0.18507594 0.1747144 1.1438891
-0.17641377 0.17698635 1.1424286
-0.12241844 0.17559932 1.1446002
-0.11537112 0.17556612 1.1443603
-0.10545715 0.17531931 1.1438335
-0.095276125 0.17450838 1.1440002
-0.085231818 0.17447802 1.1438004
-0.075359493 0.17484415 1.1462003
-0.06723661 0.17275023 1.149
-0.18257131 0.18282314 1.149
-0.17448406 0.18499425 1.1450002
-0.16657549 0.18660441 1.1423334
-0.15504289 0.18905228 1.141
-0.12184177 0.1819285 1.1423334
-0.1147198 0.18422037 1.1434445
-0.1057047 0.18530649 1.1474349
-0.096048065 0.1827935 1.149
-0.085907444 0.18217561 1.149
-0.077225566 0.18097645 1.149
-0.17023201 0.19339968 1.149
-0.16483699 0.19499214 1.1465002
-0.15524718 0.19481793 1.1446192
-0.14534381 0.19646871 1.1434001
-0.13596772 0.19856653 1.1425
-0.12603486 0.19905506 1.141
-0.11103071 0.19505395 1.141
-0.1055956 0.19485059 1.1454803
-0.16015911 0.2004507 1.149
-0.15461902 0.2004507 1.149
-0.14404246 0.20165944 1.149
-0.13464609 0.20409927 1.1468464
-0.12540786 0.20466955 1.1444002
-0.11521433 0.20438199 1.1428002
-0.1052185 0.20450965 1.1460912
-0.12591125 0.21052361 1.149
-0.11583834 0.21164282 1.149
-0.10702457 0.21178271 1.149
-0.14336491 -0.092987351 1.1543334
-0.13776658 -0.094475038 1.1538
-0.15436803 -0.083868608 1.1553999
-0.14613418 -0.088026471 1.1541427
-0.13847914 -0.089960903 1.153
-0.16305347 -0.073931932 1.1552222
-0.1574391 -0.077539422 1.1536666
-0.16634575 -0.069986932 1.1570001
-0.047629301 -0.042564794 1.156
-0.047385585 -0.035439249 1.155
-0.072321668 -0.024915392 1.1554
-0.069744967 -0.022237526 1.153
-0.044586521 -0.024978055 1.153923
-0.072015539 -0.019271763 1.1570001
-0.068145528 -0.014718627 1.1548461
-0.045411393 -0.015723016 1.1545999
-0.083317779 -0.0015939053 1.1570002
-0.075227506 -0.0032119604 1.1569999
-0.066044122 -0.0048969137 1.1559998
-0.055920742 -0.0036552278 1.1533077
-0.04896855 -0.0054002665 1.1556667
-0.22010382 0.0081144264 1.1570001
-0.21491961 0.0077763256 1.1570001
-0.206773 0.0085491287 1.1570002
-0.19576056 0.0081144255 1.1569999
-0.18561751 0.0081144255 1.1569999
-0.17709737 0.0087230084 1.1570001
-0.16600764 0.0091287298 1.1570001
-0.09360081 0.0062501947 1.1563333
-0.086498067 0.0042972006 1.1539999
-0.074729696 0.0028489276 1.1533636
-0.065976411 0.003885248 1.1540525
-0.055099461 0.0039929394 1.153842
-0.049700864 0.0010143033 1.1570001
-0.22162527 0.015383598 1.1569999
-0.21466164 0.015184393 1.155
-0.20537263 0.013878614 1.1553528
-0.19626594 0.013908535 1.1539999
-0.18478397 0.013288454 1.1543332
-0.17510727 0.014424716 1.1558568
-0.16489957 0.014644396 1.1559089
-0.15476112 0.01484269 1.1557825
-0.14473277 0.015199358 1.1560473
-0.13465028 0.015579743 1.1556666
-0.12491392 0.015782733 1.1551175
-0.11445116 0.017722549 1.1553332
-0.10417995 0.015297443 1.1549999
-0.095721304 0.012949769 1.1542
-0.088950105 0.011118763 1.153
-0.051550634 0.015161949 1.153
-0.049107797 0.017718747 1.155
-0.22284842 0.026073564 1.1569998
-0.21534996 0.025275294 1.1532667
-0.19912694 0.022237526 1.153
-0.11341138 0.021631049 1.153
-0.10714445 0.02122673 1.153
-0.05299462 0.024403518 1.153
-0.047884408 0.025459714 1.1539999
-0.22358143 0.035114221 1.1569998
-0.21458907 0.035428382 1.1545999
-0.20856105 0.038747206 1.153
-0.05155063 0.03335629 1.153
-0.047419403 0.035132915 1.1544285
-0.22162527 0.045643646 1.1569999
-0.21495903 0.045628577 1.1565998
-0.20767123 0.046187762 1.1536666
-0.046319854 0.046319854 1.1570001
-0.22061096 0.053758077 1.1570001
-0.214018 0.054011654 1.1570001
-0.20604509 0.055397347 1.1558887
-0.19912694 0.059637003 1.153
-0.042116527 0.054246087 1.153
-0.038410276 0.053572223 1.153
-0.25368851 0.068634532 1.1570001
-0.24368739 0.067472279 1.1561428
-0.2338298 0.068594195 1.1563333
-0.22422841 0.067744285 1.1558571
-0.21492411 0.067633964 1.1564285
-0.20515867 0.066526197 1.1567998
-0.19818524 0.065723881 1.1533999
-0.25458717 0.075702362 1.1552498
-0.24681276 0.07485842 1.153
-0.23580442 0.072344162 1.153
-0.22641845 0.071766563 1.153
-0.2132781 0.071766563 1.153
-0.20547788 0.071866155 1.1545999
-0.19811615 0.071766563 1.153
-0.25450283 0.083550185 1.1566
-0.24815057 0.086423106 1.153
-0.026280712 0.089960903 1.153
-0.25154722 0.0923016 1.1570001
-0.24482627 0.095099494 1.1539999
-0.23764023 0.096068203 1.1535
-0.025718069 0.094777122 1.155
-0.2424185 0.10325608 1.1569999
-0.23468813 0.10382902 1.1557367
-0.22793466 0.10663905 1.153
-0.026207365 0.10382412 1.1547778
-0.24038988 0.11055906 1.1570001
-0.23024686 0.11157337 1.1570001
-0.22513875 0.11484848 1.1554998
-0.21866901 0.11758935 1.153
-0.026431987 0.11394533 1.1547778
-0.25053293 0.12780222 1.1570001
-0.24474677 0.1266177 1.1554614
-0.23475176 0.1276675 1.1547778
-0.22407211 0.12484746 1.1560473
-0.21548021 0.12531976 1.1555998
-0.20783469 0.12587601 1.1542
-0.031334698 0.12736037 1.153
-0.028562676 0.12458537 1.1554
-0.25087103 0.13524045 1.1570001
-0.24663438 0.13544674 1.153
-0.22742926 0.13039277 1.153
-0.2143309 0.13212904 1.1537273
-0.20526397 0.13347039 1.1533999
-0.19811614 0.13443595 1.153
-0.041490588 0.13661768 1.1543332
-0.037485197 0.13497305 1.1556668
-0.25053293 0.14200246 1.1570001
-0.24513572 0.1439117 1.1546665
-0.23888494 0.14791323 1.153
-0.054715976 0.14752129 1.1534444
-0.04543383 0.14521803 1.1551334
-0.039557829 0.14200246 1.1570001
-0.24140419 0.1521455 1.1570001
-0.23363592 0.15373503 1.155857
-0.22568873 0.15672854 1.1534001
-0.061701376 0.1547606 1.1538
-0.057426054 0.1533667 1.1559998
-0.22280863 0.16307744 1.1570001
-0.21558751 0.16576049 1.1545384
-0.20822412 0.16880304 1.153
-0.061701376 0.16487697 1.1538
-0.059843898 0.16127422 1.1570001
-0.2130037 0.17141727 1.1570001
-0.20489578 0.17440091 1.1555262
-0.19764784 0.1778222 1.1538
-0.065813996 0.17593013 1.155
-0.19421485 0.18234001 1.1564286
-0.18608902 0.18608667 1.1546665
-0.10006887 0.18901898 1.153
-0.094123751 0.18850678 1.1545
-0.084763542 0.18803059 1.1548181
-0.0754181 0.18576545 1.1547499
-0.069078706 0.18293069 1.1554
-0.1825746 0.19170333 1.1570001
-0.17500949 0.19528644 1.1566
-0.1004058 0.19508375 1.153
-0.095585711 0.19407144 1.1564283
-0.1640331 0.20200461 1.155
-0.15325746 0.20495188 1.1562001
-0.14544526 0.20686653 1.1567142
-0.13696295 0.20872951 1.153
-0.10013831 0.20533128 1.1537999
-0.09838742 0.20488928 1.1570001
-0.14261106 0.21280083 1.1570001
-0.13477892 0.21422783 1.1559331
-0.12454415 0.21553075 1.1549999
-0.11397561 0.21640989 1.1545999
-0.10442118 0.21552518 1.1542
-0.09838742 0.214018 1.1570001
-0.11055906 0.22010382 1.1570001
-0.10650185 0.22010382 1.1570001
-0.15371285 -0.092694595 1.1655715
-0.14961807 -0.091602899 1.161
-0.1711455 -0.080961041 1.169
-0.16441007 -0.083958231 1.1658572
-0.15770905 -0.086628258 1.1625001
-0.17404403 -0.073852487 1.1662307
-0.16738585 -0.075344935 1.1614001
-0.18139373 -0.068663165 1.169
-0.17565519 -0.065657958 1.16575
-0.16895646 -0.068193272 1.161
-0.044783637 -0.04173021 1.161
-0.043891069 -0.03484913 1.1644286
-0.080961041 -0.021521291 1.169
-0.076476194 -0.024332937 1.1661999
-0.042311002 -0.028038867 1.1630001
-0.03884159 -0.024280818 1.166
-0.092668489 -0.011775825 1.1680001
-0.083894126 -0.013702008 1.1660668
-0.07561928 -0.015083142 1.1631054
-0.042166092 -0.013646369 1.1618
-0.037997991 -0.015051239 1.1669999
-0.22412401 -0.0026186034 1.1685556
-0.21458487 -0.0039334185 1.1664739
-0.20473671 -0.0046302611 1.1657621
-0.19545805 -0.0043391241 1.1661431
-0.18519495 -0.0030723664 1.1671333
-0.17548555 -0.0027572515 1.1674615
-0.16636299 -0.001708039 1.169
-0.15269868 -0.0010248233 1.169
-0.10270705 -0.0023900855 1.1676667
-0.094788857 -0.0049395785 1.164667
-0.084884137 -0.0064527527 1.161889
-0.075063482 -0.0078880265 1.1610001
-0.044517823 -0.0047577675 1.163
-0.038233791 -0.0055971122 1.1689999
-0.2444015 0.0073111481 1.1678571
-0.23434453 0.0063291243 1.1652665
-0.22523192 0.0050917217 1.1625239
-0.21475792 0.0029080284 1.1610001
-0.20457982 0.0037319702 1.1609999
-0.19440173 0.00305343 1.161
-0.18422364 0.0030534298 1.161
-0.17464353 0.0041845245 1.1612221
-0.16535167 0.004472258 1.1627392
-0.1551657 0.0050921352 1.1629201
-0.14522122 0.0051769349 1.1631668
-0.13523865 0.0050925566 1.1634002
-0.12648384 0.0061865333 1.1652355
-0.11521751 0.0079025114 1.1668181
-0.10490908 0.0052668676 1.1636666
-0.096725978 0.0030537809 1.1614001
-0.046031058 0.0049199322 1.1646365
-0.25210655 0.015372351 1.1689999
-0.24469428 0.015042962 1.1651821
-0.23479562 0.015534344 1.1611737
-0.2272848 0.015110563 1.1610001
-0.14452901 0.01119591 1.161
-0.13740435 0.01119591 1.161
-0.12329644 0.012226578 1.1623334
-0.11513554 0.012930226 1.1622308
-0.10788786 0.01221372 1.161
-0.04741101 0.014383629 1.1642728
-0.25176492 0.023912543 1.169
-0.24423409 0.025547503 1.1656402
-0.23409629 0.025445249 1.1609999
-0.22773498 0.023918536 1.1610001
-0.043897524 0.024613781 1.1645557
-0.24367736 0.035606489 1.1667145
-0.23430057 0.035654034 1.1619999
-0.22798944 0.037658971 1.161
-0.042748023 0.035623349 1.1610001
-0.039694589 0.039694589 1.161
-0.24259032 0.044067401 1.169
-0.23435439 0.044625588 1.1644286
-0.2272848 0.045801457 1.1610001
-0.043808412 0.04526443 1.1621429
-0.039103717 0.044888839 1.1636668
-0.24364282 0.055458311 1.1684285
-0.23414393 0.054098953 1.1679999
-0.22617047 0.055299692 1.16275
-0.216115 0.05597955 1.1610001
-0.042819906 0.051997729 1.1630001
-0.039193723 0.050782669 1.1663333
-0.26409057 0.066837594 1.1657999
-0.25430635 0.064192548 1.1650001
-0.24474083 0.062525205 1.1642001
-0.23554246 0.063375875 1.1637502
-0.22519806 0.06215724 1.1623336
-0.21504872 0.062086407 1.1610001
-0.20865105 0.06310422 1.161
-0.27216381 0.0751049 1.169
-0.26518217 0.074452676 1.1634002
-0.25954154 0.072943047 1.161
-0.27191982 0.085401945 1.169
-0.26491567 0.084932737 1.1659093
-0.25750592 0.086106725 1.161
-0.26326782 0.0927075 1.1685001
-0.25584668 0.095715359 1.1639334
-0.022391818 0.09770976 1.161
-0.01933839 0.098727569 1.161
-0.25288981 0.10492142 1.1671537
-0.24636137 0.10616766 1.1622001
-0.23850681 0.10822713 1.161
-0.022391822 0.10483442 1.1610001
-0.017877428 0.10573754 1.1653334
-0.252646 0.11641987 1.1683332
-0.24444653 0.11581933 1.1644547
-0.23499224 0.11505322 1.1613998
-0.22900724 0.11908377 1.161
-0.02268949 0.11549263 1.162091
-0.01711949 0.11507681 1.1671333
-0.26237345 0.12716088 1.1684285
-0.25533953 0.12505729 1.1647894
-0.24387346 0.12261616 1.1623334
-0.23479362 0.12365083 1.1615715
-0.22900724 0.12315501 1.161
-0.024374511 0.12546864 1.16475
-0.019471643 0.12195398 1.169
-0.26327053 0.13441242 1.1678571
-0.25581098 0.13507834 1.1625386
-0.033624548 0.13586462 1.1623334
-0.027977942 0.13307509 1.1676667
-0.26250118 0.14362167 1.169
-0.25577238 0.14473365 1.165
-0.24732783 0.14860027 1.161
-0.042408749 0.14758246 1.161
-0.036485031 0.14419134 1.165
-0.25216061 0.15184364 1.1676668
-0.24516961 0.15587476 1.1656153
-0.23656812 0.15717895 1.1610001
-0.053849395 0.15679897 1.1626667
-0.046219554 0.15358505 1.1637692
-0.039968111 0.15064903 1.169
-0.24370298 0.16130719 1.169
-0.23408286 0.16457665 1.166
-0.22582915 0.16636734 1.1614001
-0.21882915 0.16997427 1.161
-0.060119752 0.1660959 1.1623334
-0.055753693 0.16335511 1.167909
-0.2232195 0.17253633 1.1680001
-0.21529859 0.1757821 1.1639092
-0.20865105 0.17709894 1.161
-0.061743259 0.17530942 1.1655715
-0.21141255 0.18077305 1.1650001
-0.20423883 0.18464218 1.1644666
-0.19542041 0.18726811 1.1622002
-0.07022889 0.18829484 1.161
-0.064516537 0.18494424 1.1641113
-0.19432698 0.19385561 1.1680768
-0.18525137 0.19602413 1.1638892
-0.17659003 0.19643733 1.161
-0.09271089 0.19750512 1.1621429
-0.084621653 0.19575897 1.1630002
-0.07442645 0.19517094 1.1644547
-0.066283695 0.19294392 1.1672223
-0.18207695 0.20257342 1.169
-0.17494498 0.20461726 1.1669999
-0.16569316 0.20650303 1.1638
-0.15843908 0.20729397 1.1610001
-0.14758246 0.20865105 1.161
-0.094118066 0.20452474 1.1647649
-0.086131178 0.20348006 1.1673332
-0.077886567 0.2018902 1.169
-0.17217031 0.21008877 1.169
-0.16462509 0.21174192 1.1684287
-0.15478146 0.21297547 1.1646
-0.14579944 0.21505262 1.1616668
-0.13638654 0.21882915 1.161
-0.12519063 0.21882915 1.161
-0.10076319 0.21577573 1.161
-0.096034937 0.21432786 1.1654444
-0.14425638 0.22098136 1.1670001
-0.13466118 0.22350959 1.1660908
-0.12569438 0.22383207 1.1645001
-0.11572789 0.22387362 1.1652857
-0.10508398 0.22413276 1.1652666
-0.097815841 0.22324462 1.1663333
-0.17402062 -0.091646209 1.1746
-0.16593985 -0.091729432 1.1756667
-0.15802003 -0.093578033 1.1730001
-0.18201441 -0.081238069 1.1730001
-0.17501754 -0.085677311 1.1743335
-0.1682054 -0.087701865 1.1730002
-0.18333331 -0.074968815 1.1763847
-0.17786165 -0.076913469 1.1750001
-0.19249485 -0.063400634 1.177
-0.18553084 -0.064662419 1.1746843
-0.17892942 -0.060671471 1.1730001
-0.19088978 -0.05881469 1.177
-0.18676245 -0.05881469 1.177
-0.04421819 -0.04010487 1.1730001
-0.081515096 -0.03405061 1.177
-0.07918141 -0.031878229 1.1730001
-0.04175169 -0.035050012 1.1760001
-0.20946284 -0.02166857 1.177
-0.19088978 -0.022700407 1.177
-0.18383889 -0.023388298 1.177
-0.17850775 -0.023732243 1.177
-0.092865303 -0.02166857 1.177
-0.084761113 -0.024541585 1.1762002
-0.07918141 -0.027764909 1.1730001
-0.035273358 -0.025763819 1.1754616
-0.028891426 -0.02166857 1.177
-0.23009957 -0.011350203 1.177
-0.22407228 -0.012635177 1.1765001
-0.21520764 -0.015289941 1.1755002
-0.20515682 -0.015283073 1.1750002
-0.19483575 -0.014903889 1.1759092
-0.1847914 -0.015644701 1.1765001
-0.17622513 -0.013959046 1.1764667
-0.16406202 -0.011350203 1.177
-0.15787101 -0.011350203 1.177
-0.14254086 -0.013413876 1.177
-0.13502865 -0.015300465 1.1765001
-0.12814558 -0.013743795 1.1756667
-0.10418879 -0.01341091 1.1766924
-0.095342979 -0.015850684 1.1757501
-0.086881869 -0.017912228 1.1742002
-0.03320678 -0.015810365 1.1737275
-0.026154814 -0.015208373 1.177
-0.017999819 -0.013643173 1.177
-0.24392462 -0.0023211939 1.1765001
-0.23426209 -0.0048115361 1.1754446
-0.22573851 -0.0070425337 1.1733079
-0.21560653 -0.0089121936 1.1730002
-0.20875099 -0.0092549697 1.1730001
-0.19366883 -0.0089121936 1.1730002
-0.18509939 -0.0082266405 1.1730002
-0.17464678 -0.0077921893 1.1738573
-0.1652752 -0.0057024835 1.1748669
-0.15572485 -0.0047441693 1.1756001
-0.14527966 -0.0049860417 1.1760001
-0.13487884 -0.005150767 1.1744403
-0.12546493 -0.004845249 1.1760001
-0.11099614 -0.0042747525 1.177
-0.10580627 -0.0063291579 1.1750002
-0.099748008 -0.0092549697 1.1730001
-0.033447903 -0.0046301153 1.1740001
-0.026077328 -0.0057220031 1.177
-0.016509388 -0.0061910204 1.177
-0.26260242 0.0087706121 1.177
-0.25440356 0.0065250304 1.1756668
-0.24535914 0.002337751 1.1737275
-0.23583035 0.0017138832 1.1730002
-0.12294811 0.0030877949 1.1746001
-0.11475199 0.0030888473 1.1750001
-0.041025367 0.0063248994 1.174143
-0.036254402 0.0039539128 1.1760001
-0.26240477 0.015111688 1.1753334
-0.25708249 0.01542495 1.1730002
-0.042974114 0.015074921 1.1748183
-0.26238063 0.025775166 1.1760001
-0.25611702 0.02645004 1.1732858
-0.042161528 0.02159493 1.1730001
-0.26293075 0.034988645 1.177
-0.25519043 0.034984481 1.1737502
-0.24988419 0.035991549 1.1730001
-0.26188013 0.04189257 1.177
-0.25523838 0.044495717 1.1750954
-0.24703649 0.045167413 1.1730002
-0.23960088 0.047303177 1.1730001
-0.038048211 0.04833151 1.1730001
-0.26105466 0.057782851 1.177
-0.25504562 0.054620918 1.1755884
-0.24622791 0.054044444 1.1730002
-0.23857255 0.054758571 1.1730002
-0.038177956 0.052623671 1.177
-0.27384904 0.067948096 1.1743335
-0.26378462 0.062818803 1.1747143
-0.25605416 0.060671467 1.1730001
-0.28190064 0.076912299 1.1750001
-0.27693719 0.074909888 1.1730002
-0.28191268 0.083936095 1.1762002
-0.27640992 0.085508838 1.1732669
-0.27322266 0.094281264 1.1753334
-0.26596352 0.09713044 1.1730002
-0.27137303 0.10008816 1.177
-0.26298332 0.10408542 1.1755456
-0.25759667 0.10643215 1.1730001
-0.26200402 0.11513291 1.1761112
-0.25708249 0.11414464 1.1730002
-0.01439662 0.11825795 1.1730001
-0.27362576 0.12821864 1.1763334
-0.2657809 0.12340122 1.1744287
-0.016714325 0.12462322 1.1748463
-0.27344361 0.13426764 1.1744119
-0.26839414 0.13471124 1.1730001
-0.025346011 0.13519183 1.1754
-0.018894797 0.13158269 1.1756667
-0.27106562 0.14326516 1.1756667
-0.26580444 0.14524889 1.1736668
-0.033996254 0.14524525 1.1750001
-0.029235372 0.14204952 1.177
-0.26144683 0.15219373 1.1756667
-0.25578257 0.15612946 1.175182
-0.24988419 0.15939115 1.1730001
-0.042810764 0.1569768 1.1747143
-0.038177956 0.15271184 1.177
-0.25320148 0.16250272 1.1756667
-0.24577498 0.16528396 1.1746669
-0.23795554 0.16802911 1.1730001
-0.053416956 0.16643487 1.1743335
-0.0479392 0.16340847 1.1760001
-0.24351345 0.17025305 1.177
-0.23370187 0.17490169 1.175154
-0.22579756 0.17609596 1.1736156
-0.21903428 0.17995775 1.1730001
-0.060671471 0.17790109 1.1730001
-0.056711037 0.17364347 1.1762002
-0.23078746 0.18125932 1.177
-0.224742 0.18233684 1.1765556
-0.21526346 0.18519038 1.1748669
-0.20875099 0.1881844 1.1730001
-0.060723193 0.18422449 1.174
-0.20495053 0.19487864 1.1747779
-0.19743936 0.19692519 1.1730001
-0.06373883 0.19579542 1.1747779
-0.20172405 0.2027559 1.177
-0.19430196 0.20426549 1.1754446
-0.18579958 0.206384 1.1739233
-0.17927219 0.20806544 1.1730001
-0.083586447 0.20755456 1.1735002
-0.075606838 0.20489669 1.1755456
-0.069133058 0.20120814 1.177
-0.18366693 0.21152651 1.177
-0.17450744 0.21341778 1.1747779
-0.16584167 0.21606216 1.1750001
-0.15580063 0.21859653 1.1743335
-0.14910784 0.21903428 1.1730001
-0.091916166 0.21573101 1.1736668
-0.086904228 0.21387783 1.1761429
-0.079451419 0.21152651 1.177
-0.15236789 0.22253276 1.177
-0.14593633 0.22428076 1.1758573
-0.13708115 0.22777756 1.1756667
-0.1233996 0.22931759 1.1730001
-0.11414464 0.22931759 1.1730001
-0.10454688 0.22931759 1.1730001
-0.094571419 0.22547805 1.1744287
-0.13310693 0.23078747 1.177
-0.12453948 0.23283848 1.1765001
-0.11448057 0.23412172 1.1764667
-0.10443292 0.23391046 1.1761429
-0.096476734 0.23164733 1.177
-0.18118508 -0.084898151 1.1810001
-0.1791144 -0.085933499 1.1810001
-0.19010955 -0.075836048 1.1850001
-0.18736936 -0.075710393 1.1830002
-0.19153851 -0.067297317 1.1810001
-0.17615828 -0.063583754 1.189
-0.19396771 -0.054617412 1.1861763
-0.18598543 -0.057384256 1.1830001
-0.20586348 -0.04138064 1.1875
-0.19331709 -0.044179883 1.189
-0.18539058 -0.041247543 1.189
-0.17449051 -0.041068852 1.189
-0.16535567 -0.041978545 1.189
-0.15858711 -0.043332256 1.189
-0.1440537 -0.041068852 1.189
-0.13376909 -0.040999364 1.189
-0.085473247 -0.04065191 1.189
-0.041804433 -0.041114207 1.1823335
-0.037524842 -0.04065191 1.189
-0.21318652 -0.033194039 1.1862309
-0.2052622 -0.034384444 1.1885197
-0.19455487 -0.03433745 1.1867598
-0.18466696 -0.034485262 1.1849998
-0.17522083 -0.034079541 1.1838332
-0.16544171 -0.034341238 1.1869197
-0.15541984 -0.034211326 1.1884997
-0.14455225 -0.034189269 1.1876664
-0.13506499 -0.034549389 1.1872855
-0.12587021 -0.033289839 1.1866
-0.11612784 -0.032875463 1.1871176
-0.10632037 -0.030749522 1.189
-0.093564406 -0.032256678 1.1868463
-0.086168207 -0.034264985 1.1842
-0.041114207 -0.037660722 1.1823335
-0.034173898 -0.034464553 1.1846362
-0.024994643 -0.032287635 1.1880001
-0.018414969 -0.031618152 1.189
-0.23036082 -0.021889489 1.189
-0.22496769 -0.024782605 1.1876667
-0.2152025 -0.024956558 1.1858888
-0.20501833 -0.025119314 1.185842
-0.19566983 -0.024953268 1.1826
-0.18662064 -0.026918925 1.1810001
-0.17424218 -0.02503095 1.181
-0.16481194 -0.024879625 1.1824
-0.15455317 -0.024897862 1.1831999
-0.14464366 -0.025128968 1.1832223
-0.13529702 -0.024644075 1.1821111
-0.12553008 -0.02489979 1.1834
-0.11523135 -0.024918023 1.1842
-0.10481725 -0.024912063 1.1837999
-0.094964802 -0.02552448 1.18225
-0.08731395 -0.027264038 1.1810001
-0.030853231 -0.026297722 1.1810001
-0.024667585 -0.025085934 1.1823334
-0.016615245 -0.024929551 1.1847501
-0.24391146 -0.011465923 1.189
-0.23389974 -0.014350156 1.1858002
-0.22608039 -0.017625386 1.1825384
-0.20189194 -0.019671524 1.1810001
-0.19567989 -0.019671524 1.1810001
-0.17290233 -0.017224349 1.181
-0.16464311 -0.015705483 1.1811665
-0.15409358 -0.01570271 1.1809999
-0.14598341 -0.016645135 1.181
-0.13770066 -0.019671524 1.1810001
-0.124231 -0.016082084 1.1814209
-0.1149231 -0.015530151 1.1809999
-0.10494616 -0.018353812 1.181
-0.098357618 -0.019671524 1.1810001
-0.02174221 -0.01863618 1.1810001
-0.014123867 -0.01659026 1.18275
-0.0057948921 -0.015014501 1.1869047
0.0010423567 -0.014592994 1.189
-0.26075134 -0.0010388499 1.1850001
-0.25415203 -0.004222319 1.1839334
-0.24532002 -0.0062890309 1.1820666
-0.23874409 -0.008638381 1.1823335
-0.16151357 -0.0082827471 1.1810001
-0.15219547 -0.0082827471 1.1810001
-0.14805409 -0.00931809 1.1810001
-0.12237759 -0.0064191287 1.1810001
-0.11630356 -0.0055218302 1.181
-0.023812898 -0.0010353433 1.1810001
-0.013710969 -0.0033458474 1.1832223
-0.0072752065 -0.0059415461 1.1858574
-0.26386374 0.0051771547 1.1815001
-0.25754166 0.0031060297 1.1810001
-0.11802913 0.0010353433 1.1810001
-0.032111827 0.0062965574 1.1816154
-0.02486507 0.0051830285 1.1817999
-0.015537865 0.0051802243 1.1817999
-0.0070135524 0.0051955637 1.1855001
-0.28039393 0.017720064 1.189
-0.27383193 0.016197139 1.1850001
-0.26711857 0.01604782 1.1810001
-0.040378388 0.016565492 1.1810001
-0.034281611 0.015416476 1.1851665
-0.024967115 0.015607648 1.1866
-0.015566477 0.01556704 1.1837199
-0.0072794314 0.01560379 1.1866001
-0.28039393 0.021889489 1.189
-0.27466473 0.024969876 1.1867501
-0.26746371 0.024503125 1.1810001
-0.041104704 0.024979739 1.187
-0.037829045 0.022559846 1.1876668
-0.023453023 0.023974203 1.189
-0.015608525 0.024970794 1.1867999
-0.007288022 0.02498237 1.1873335
-0.28039393 0.035440125 1.189
-0.27467602 0.034334823 1.1867999
-0.2675623 0.033870518 1.1810001
-0.01470881 0.033239596 1.189
-0.0062541398 0.030228343 1.189
-0.27443624 0.04450703 1.1864736
-0.26580715 0.045348041 1.181
-0.03635975 0.048825949 1.1850001
-0.2730099 0.054047763 1.1881112
-0.26564527 0.054579709 1.1821111
-0.25987118 0.054873195 1.1810001
-0.036237016 0.050731823 1.1810001
-0.26837194 0.061984718 1.1850001
-0.29191685 0.079991452 1.1850001
-0.28782547 0.079721436 1.1810001
-0.2939527 0.084391311 1.1884286
-0.28718007 0.085014574 1.1826
-0.2908175 0.091727391 1.189
-0.28463423 0.094472334 1.1857058
-0.27798969 0.096804596 1.1810001
-0.28233242 0.10522515 1.1883848
-0.27475068 0.10514514 1.1849998
-0.2671186 0.10664037 1.1810001
-0.28039393 0.11153216 1.189
-0.27425265 0.11517341 1.1873529
-0.26706016 0.11453403 1.1828183
-0.27506179 0.1243747 1.1831819
-0.0126926 0.12616001 1.182
-0.0093391296 0.12556176 1.1836667
-0.2815862 0.13544033 1.1823334
-0.27781713 0.13908112 1.1810001
-0.023295226 0.13770066 1.1810001
-0.016624056 0.13509715 1.1854001
-0.28380191 0.14402546 1.1871539
-0.27646515 0.14523591 1.1833335
-0.031851228 0.14802393 1.1874001
-0.02494783 0.14346018 1.1858001
-0.019804776 0.14071815 1.189
-0.27393639 0.15288101 1.1881112
-0.26662579 0.15594108 1.1847144
-0.25987118 0.15840752 1.1810001
-0.040378388 0.15840752 1.1810001
-0.036112748 0.1540757 1.1855001
-0.26352206 0.16463552 1.1873335
-0.25615722 0.16590881 1.1822308
-0.24951774 0.16876096 1.1810001
-0.050731823 0.16876096 1.1810001
-0.044019561 0.16512643 1.1835715
-0.038567197 0.16156529 1.189
-0.25349131 0.17336661 1.187
-0.2452402 0.17561853 1.1853335
-0.23884913 0.17771305 1.182
-0.053077638 0.176185 1.1833335
-0.047178172 0.17500439 1.1854001
-0.24356401 0.1810226 1.189
-0.234587 0.18497482 1.1835455
-0.22538003 0.18755582 1.182
-0.2174221 0.18946783 1.1810001
-0.056659114 0.18402986 1.186
-0.047948405 0.1803277 1.189
-0.23225005 0.19163319 1.1880001
-0.22471873 0.1936602 1.1871541
-0.21565129 0.19537309 1.1842942
-0.20810401 0.19982126 1.1810001
-0.062120602 0.19878592 1.1810001
-0.058802705 0.19404636 1.1836668
-0.21344583 0.20094925 1.1876668
-0.20500179 0.20534573 1.1830001
-0.19982126 0.20706867 1.1810001
-0.073052198 0.20776254 1.1820002
-0.065601073 0.20500211 1.1855
-0.20117484 0.2115984 1.189
-0.19510636 0.2127521 1.1838001
-0.18495141 0.21630262 1.1846364
-0.1760328 0.21807721 1.182143
-0.083482772 0.21779206 1.1830001
-0.076108947 0.21452123 1.1854705
-0.069837898 0.2115984 1.189
-0.1803277 0.22202197 1.189
-0.17411456 0.22304481 1.1875
-0.1649238 0.22417644 1.1856666
-0.15554543 0.22637677 1.1850001
-0.14576845 0.22870672 1.1826001
-0.09022741 0.22609058 1.1830001
-0.085681178 0.22323495 1.1853637
-0.16156529 0.23140317 1.189
-0.1551374 0.23227179 1.189
-0.14433257 0.2334878 1.1875455
-0.13533574 0.23544374 1.1849999
-0.12535496 0.2376174 1.1817273
-0.1149231 0.23916431 1.1810001
-0.10387944 0.2388192 1.1810001
-0.094113015 0.23542184 1.1829998
-0.13342166 0.24130557 1.189
-0.12511349 0.24293348 1.1878573
-0.11543193 0.24333882 1.1862
-0.10460555 0.24307838 1.1835456
-0.096773773 0.24280687 1.187
-0.1783929 -0.061912831 1.197
-0.15005991 -0.061912831 1.197
-0.20185162 -0.051247302 1.1930001
-0.19906266 -0.05264179 1.1930001
-0.18547146 -0.054636996 1.1952859
-0.17314605 -0.054217454 1.197
-0.16412453 -0.05392877 1.1951177
-0.15436058 -0.055614363 1.1947145
-0.1458246 -0.054529447 1.194895
-0.13529333 -0.052964553 1.1963334
-0.12461269 -0.053780217 1.1970003
-0.11473111 -0.053168084 1.1970001
-0.10454349 -0.054698415 1.1970003
-0.096891835 -0.054217454 1.1970003
-0.20352502 -0.046017982 1.193
-0.19731955 -0.045669366 1.193
-0.18497373 -0.04642038 1.1943336
-0.17502499 -0.046268351 1.1946473
-0.1650721 -0.047412474 1.193
-0.1542341 -0.045341253 1.1930001
-0.14558418 -0.045913406 1.1930002
-0.13513656 -0.04618312 1.1930002
-0.12465973 -0.045047868 1.1949203
-0.11449339 -0.045300458 1.1943916
-0.10522111 -0.044759259 1.1948184
-0.095237941 -0.045004796 1.1938003
-0.08834333 -0.044696845 1.1935714
-0.033467628 -0.040788669 1.1930001
-0.22067717 -0.030330036 1.1930001
-0.15165018 -0.038696945 1.1930001
-0.14955845 -0.038696945 1.1930001
-0.12445774 -0.038696945 1.1930001
-0.11399911 -0.037501667 1.193
-0.10543297 -0.035210732 1.1930002
-0.096393734 -0.036779527 1.193
-0.030330036 -0.038696945 1.1930001
-0.026669515 -0.03712815 1.1930001
-0.23253028 -0.024403477 1.193
-0.22276889 -0.02823831 1.1930001
-0.011504496 -0.023008995 1.1930001
-0.0094127702 -0.021963131 1.1930001
-0.24357176 -0.015453661 1.1949999
-0.23767245 -0.017256744 1.193
0.0020987401 -0.01154307 1.197
-0.0020969866 -0.00837918 1.1950001
-0.28459996 0.017798712 1.1941429
-0.034513488 0.019871403 1.1930001
-0.29067549 0.02833299 1.197
-0.28519642 0.025354778 1.1951334
-0.040788669 0.02823831 1.1930001
-0.033898275 0.025531368 1.1930001
-0.026669515 0.026146585 1.193
-0.29174852 0.033189137 1.1956667
-0.28570107 0.034010064 1.19375
-0.041577086 0.031097412 1.1956667
-0.034046311 0.03433378 1.1966367
-0.025119657 0.034537334 1.1938002
-0.016213292 0.035175264 1.1932501
-0.0076743406 0.035406668 1.1936666
-0.28385448 0.044421308 1.1954615
-0.2792455 0.049155578 1.1930001
-0.034769129 0.044703167 1.1970003
-0.025011435 0.04488723 1.1965792
-0.015888559 0.044875249 1.1950003
-0.0073455903 0.040925428 1.197
-0.28228053 0.051419131 1.197
-0.27746353 0.054095883 1.1943334
-0.034629211 0.052118707 1.197
-0.02203677 0.051419131 1.197
-0.016440131 0.052818295 1.197
-0.27397498 0.063171722 1.1943334
-0.033579841 0.066110313 1.197
-0.30116919 0.088147081 1.197
-0.29699185 0.08770027 1.1956668
-0.30116919 0.09234456 1.197
-0.29515192 0.094889961 1.196
-0.28970414 0.098311156 1.1930001
-0.29207465 0.10318806 1.197
-0.28793386 0.10505418 1.1943334
-0.28390622 0.11523817 1.1950001
-0.2792455 0.11713669 1.1930001
-0.28321031 0.12325971 1.1958572
-0.2792455 0.12236601 1.1930001
-0.013203827 0.13602729 1.1954
-0.0083809337 0.13200144 1.1950001
-0.28342897 0.14955845 1.1930001
-0.024403477 0.14816397 1.193
-0.018070072 0.14404817 1.1950001
-0.28387228 0.15242369 1.1963334
-0.27686143 0.15596601 1.194
-0.032232933 0.1555205 1.1938
-0.025595162 0.15336704 1.1966
-0.019938029 0.15005991 1.197
-0.27288207 0.16282213 1.1956668
-0.26871279 0.16709749 1.1950001
-0.041834533 0.168384 1.1930001
-0.036438648 0.16334198 1.1952223
-0.26359615 0.17304963 1.1963334
-0.25631747 0.17844522 1.1950001
-0.043998145 0.17180738 1.1950001
-0.25289816 0.18154101 1.197
-0.24540377 0.18385847 1.1949999
-0.2395027 0.1882554 1.1930001
-0.053090308 0.18649243 1.1941429
-0.048513275 0.18393022 1.1943334
-0.23348819 0.19509779 1.1943334
-0.22766727 0.19783385 1.194
-0.057618916 0.19276321 1.1950001
-0.22489743 0.20183794 1.1954
-0.21400674 0.20443855 1.1941429
-0.061705936 0.2081268 1.1930001
-0.057383012 0.2056511 1.1940908
-0.20516366 0.21196353 1.194
-0.19509895 0.2181325 1.1943334
-0.071467333 0.21719094 1.193
-0.064802602 0.21504207 1.195316
-0.058097929 0.21351008 1.1962
-0.19203471 0.22141707 1.197
-0.18524992 0.22529739 1.1946473
-0.17602034 0.2281372 1.1943333
-0.168384 0.22904406 1.1930001
-0.083008736 0.22784227 1.1952224
-0.07459601 0.22361779 1.1956667
-0.066634998 0.22194175 1.197
-0.18154101 0.23191077 1.197
-0.17297387 0.23377633 1.1958001
-0.16509035 0.23494512 1.19375
-0.15463836 0.23770979 1.193
-0.14583984 0.23857304 1.193
-0.13909982 0.2395027 1.1930001
-0.090990111 0.2395027 1.1930001
-0.087869428 0.23367438 1.1952858
-0.16370171 0.24030572 1.197
-0.15495697 0.2410053 1.197
-0.14403458 0.24296905 1.1963334
-0.13496882 0.24566758 1.1950001
-0.12511699 0.2473907 1.1935713
-0.11459674 0.24876606 1.193
-0.1056322 0.24828796 1.1930001
-0.093983047 0.2457715 1.1948183
-0.13117126 0.25079942 1.197
-0.12487502 0.25079942 1.197
-0.1150809 0.25219858 1.197
-0.10514687 0.25163892 1.197
-0.098640777 0.25079942 1.197
-0.19283687 -0.079031497 1.202
-0.17092371 -0.071541257 1.2060001
-0.16810434 -0.071893677 1.2060001
-0.15494733 -0.071776211 1.2060002
-0.14738204 -0.07168223 1.2060001
-0.17348467 -0.064206056 1.2047367
-0.16507976 -0.064253412 1.2052381
-0.15563393 -0.065360583 1.2043998
-0.14470735 -0.064434744 1.2048571
-0.13464218 -0.063156232 1.205111
-0.1242675 -0.061606869 1.2046669
-0.11463661 -0.06371244 1.2052
-0.10675139 -0.063017517 1.2034545
-0.18150902 -0.054268301 1.202
-0.17597681 -0.055465743 1.2019999
-0.16754679 -0.057956439 1.202
-0.14225669 -0.057956439 1.202
-0.13533203 -0.057053216 1.202
-0.12645039 -0.057956435 1.202
-0.11433223 -0.056902677 1.202
-0.10853659 -0.057956435 1.202
-0.18019181 -0.049526405 1.202
-0.0052687665 -0.0031612599 1.202
-0.29294342 0.025290079 1.202
-0.29315418 0.035616864 1.202
-0.28978217 0.036881365 1.202
-0.041141968 0.036924616 1.2033334
-0.038988873 0.036881369 1.202
-0.29283202 0.045724545 1.2027272
-0.28872842 0.046013895 1.202
-0.031963855 0.044608891 1.202
-0.02845134 0.049526405 1.202
-0.011591286 0.049526405 1.202
-0.0080787744 0.046013892 1.202
-0.29266533 0.053884488 1.2052002
-0.28506657 0.054901835 1.2043334
-0.27924463 0.056902681 1.202
-0.033258978 0.055782307 1.2043334
-0.024872478 0.055262286 1.2027059
-0.014171413 0.056104522 1.2024444
-0.0078019821 0.055255253 1.2027999
-0.28205347 0.063083172 1.2060002
-0.27766401 0.063752078 1.202
-0.033221573 0.062750638 1.2029999
-0.024421256 0.063247249 1.2055788
-0.014902358 0.061606094 1.2046667
-0.0078237234 0.061109625 1.2060001
-0.0317178 0.070836417 1.2060001
-0.30600327 0.087942645 1.2028
-0.30418345 0.095540293 1.2019999
-0.2982122 0.096945301 1.202
-0.30328226 0.10273891 1.2040001
-0.29632211 0.10575636 1.2035384
-0.29542321 0.11380098 1.2056669
-0.28943092 0.11556161 1.202
-0.30131909 0.1215849 1.2060001
-0.29180378 0.12369943 1.2060001
-0.28828761 0.12379409 1.2028
-0.011610573 0.13721761 1.204
-0.015135358 0.14644308 1.2046667
-0.29074651 0.1533027 1.2060001
-0.28537229 0.15663102 1.2037143
-0.27924463 0.15911674 1.202
-0.023473626 0.15694174 1.2035
-0.017429886 0.15264872 1.205
-0.28087875 0.1638753 1.2060001
-0.27649742 0.16589865 1.2031429
-0.03295609 0.16505003 1.2030001
-0.02780962 0.16228677 1.2046667
-0.27322719 0.17264196 1.2052
-0.26655298 0.1764462 1.2031429
-0.042748895 0.17416035 1.204
-0.037004098 0.17021886 1.2060001
-0.26296785 0.1823525 1.2046667
-0.25521931 0.18446587 1.2046667
-0.24634157 0.18924955 1.2060001
-0.049526405 0.18862185 1.202
-0.24422705 0.19136406 1.2060001
-0.23621316 0.1974867 1.2046667
-0.053741422 0.19143187 1.202
-0.049526405 0.19072935 1.202
-0.23153993 0.20299393 1.2060001
-0.22377968 0.20687476 1.2052
-0.21574309 0.20814908 1.2028
-0.058052868 0.20265552 1.204
-0.2141539 0.21368399 1.2060002
-0.20688356 0.21652688 1.2031429
-0.20413649 0.22244909 1.2051113
-0.19623525 0.22632247 1.2042499
-0.18862185 0.22866447 1.202
-0.073532462 0.22834246 1.2040001
-0.063779689 0.22401682 1.2025001
-0.19338791 0.23263852 1.2054287
-0.18450126 0.23534019 1.2045716
-0.17697446 0.23819382 1.2040001
-0.084744647 0.23642081 1.2033334
-0.075897537 0.23192468 1.2048572
-0.17214285 0.2425497 1.2046667
-0.16478035 0.24520445 1.2041818
-0.15538691 0.24596937 1.2034285
-0.14547633 0.24738307 1.2037144
-0.13804169 0.24973954 1.202
-0.091676541 0.24973954 1.202
-0.088531062 0.2438799 1.2042859
-0.14167285 0.25057063 1.2060001
-0.13412356 0.25428456 1.2046667
-0.12431786 0.25641465 1.2045455
-0.1146857 0.25729641 1.2041818
-0.10483164 0.25637385 1.2034545
-0.095516331 0.25395605 1.2048571
-0.15168963 -0.081679031 1.21
-0.14850733 -0.081679031 1.21
-0.16335808 -0.07266251 1.21
-0.15444764 -0.07701166 1.21
-0.1449033 -0.075998239 1.2102104
-0.13565944 -0.073527724 1.2108668
-0.12471993 -0.073225059 1.215923
-0.11615395 -0.071601748 1.21
-0.14214273 -0.068949834 1.21
-0.13356666 -0.068073161 1.2105715
-0.12513101 -0.067257859 1.2113334
-0.11721472 -0.067358688 1.21
-0.0027695654 -0.0044667916 1.2144001
0.0031998334 -0.0069208457 1.2155
-0.29584569 0.056300282 1.2182857
-0.28852853 0.058342166 1.21
-0.29381058 0.063906133 1.2163334
-0.286791 0.064997815 1.2105001
-0.024044044 0.068596244 1.21
-0.014769205 0.067107312 1.2115455
-0.0074762129 0.066583216 1.2184445
-0.031318039 0.074848041 1.2110001
-0.024455931 0.074447058 1.2130998
-0.015655983 0.074355833 1.2156153
-0.025189767 0.081065245 1.219
-0.015317413 0.080861688 1.2190001
-0.30549133 0.10805829 1.2108001
-0.30443934 0.11527533 1.2132307
-0.29701465 0.1173915 1.21
-0.30175745 0.12112552 1.2120001
-0.29667434 0.12426618 1.2115
-0.0078624729 0.13841042 1.2126
-0.012108169 0.14551859 1.2116001
-0.0086906468 0.14471149 1.2175714
-0.29448792 0.15715739 1.2162001
-0.28958929 0.15805423 1.21
-0.020154567 0.15805423 1.21
-0.014217621 0.15509157 1.214
-0.0096179098 0.15174925 1.2190001
-0.29248831 0.16402057 1.2182857
-0.28611109 0.16600601 1.2132307
-0.031823002 0.16866189 1.21
-0.02406965 0.16532859 1.2137501
-0.017429886 0.16185896 1.2173334
-0.28462514 0.17438635 1.2176363
-0.27616403 0.1758972 1.2116001
-0.042499047 0.17744084 1.2120001
-0.035756104 0.17301229 1.2150002
-0.028853729 0.17205372 1.2190001
-0.2810567 0.18060298 1.2190001
-0.27511632 0.18350658 1.2176363
-0.26591492 0.18630013 1.2127779
-0.25539088 0.18787983 1.2108001
-0.24928017 0.1877557 1.21
-0.26353073 0.19299939 1.2190001
-0.25477096 0.19514911 1.2163913
-0.24523324 0.19664939 1.2135834
-0.23867249 0.19836336 1.21
-0.055342212 0.19582629 1.2140001
-0.25414869 0.20423241 1.2185454
-0.24516565 0.20544532 1.2170554
-0.23579703 0.20617162 1.21225
-0.22700407 0.20897104 1.21
-0.057006568 0.20299698 1.2155001
-0.24472237 0.21180776 1.2190001
-0.23448589 0.21377063 1.2180001
-0.22543257 0.21479918 1.2129376
-0.21707143 0.21745716 1.21
-0.22310579 0.22353324 1.2165
-0.21484169 0.22548023 1.2131876
-0.20694819 0.22696026 1.2105715
-0.062219009 0.22814703 1.21325
-0.21266268 0.23261094 1.2190001
-0.20446302 0.23361446 1.2142308
-0.19595471 0.23711117 1.2115
-0.18881646 0.23867249 1.21
-0.081679031 0.23761174 1.21
-0.075474389 0.237067 1.2126364
-0.066261753 0.23206134 1.2142501
-0.058776118 0.2318985 1.2190001
-0.20197611 0.24044774 1.2190001
-0.19442274 0.24260609 1.2175714
-0.18533672 0.24499013 1.2149999
-0.17580147 0.2462603 1.2116667
-0.16760114 0.24928017 1.21
-0.083929703 0.24559146 1.2119231
-0.076698296 0.24310112 1.2167273
-0.18167163 0.25113431 1.2190001
-0.17475842 0.2515772 1.2170001
-0.16410857 0.25395495 1.2148181
-0.15417428 0.25455377 1.2128667
-0.1453086 0.25551718 1.2133999
-0.13471738 0.25837246 1.21
-0.12835276 0.25988784 1.21
-0.1018336 0.25988784 1.21
-0.093305223 0.2571491 1.2107273
-0.085496336 0.25394222 1.2160667
-0.14213133 0.26182088 1.2190001
-0.13474067 0.26450357 1.2165834
-0.12484666 0.26520625 1.2142143
-0.115255 0.26438534 1.2135834
-0.10568392 0.26315954 1.2136668
-0.094738811 0.26385629 1.2167271
-0.087629847 0.26182088 1.2190001
-0.12503283 0.27037013 1.2190001
-0.20049454 -0.080412246 1.223
-0.20224898 -0.074665703 1.2255001
-0.19835024 -0.076123595 1.223
-0.13015607 -0.076372571 1.2270001
-0.0021443267 -0.0021443267 1.223
0.0053783497 -0.0032270099 1.2270001
-0.0032270099 0.00107567 1.2270001
-0.011793797 0.076123595 1.223
-0.0082292696 0.075844526 1.2243334
-0.023182197 0.086283289 1.2258571
-0.016094722 0.083698876 1.224
-0.0085773058 0.080412246 1.223
-0.021513401 0.091431953 1.2270001
-0.01721072 0.092507616 1.2270001
-0.0046472098 0.14622575 1.2234445
-0.30406553 0.15653585 1.2229999
-0.29913357 0.157608 1.223
-0.011793797 0.157608 1.223
-0.005524002 0.15490589 1.2258571
0.0021460799 0.15786575 1.2250001
-0.30501583 0.16272105 1.2262729
-0.29757309 0.16511628 1.2241429
-0.020371104 0.16832964 1.223
-0.015043601 0.16506198 1.2258
-0.0096810302 0.16027483 1.2270001
0.0032270099 0.16027483 1.2270001
-0.29270059 0.1726183 1.223
-0.28801158 0.17853171 1.2243334
-0.0322701 0.17533422 1.2270001
-0.024285946 0.17365959 1.2258002
-0.01828639 0.17103153 1.2270001
-0.2839348 0.18410352 1.2245001
-0.27626073 0.18762858 1.223
-0.2721445 0.19254492 1.2270001
-0.26574335 0.19498055 1.2230002
-0.053308051 0.1978517 1.2243334
-0.2626096 0.20411415 1.2243333
-0.25555831 0.20792201 1.2238001
-0.054448638 0.20292391 1.2247143
-0.25451824 0.2129053 1.2250001
-0.24531657 0.21597961 1.2243334
-0.23672105 0.21848257 1.2236668
-0.24274285 0.22122945 1.2270001
-0.23445216 0.2240383 1.2254618
-0.22766244 0.2268047 1.2238001
-0.2242993 0.23228298 1.2258574
-0.21549928 0.23662196 1.225
-0.20835705 0.23837765 1.223
-0.064630352 0.23775987 1.2253333
-0.21190698 0.24202575 1.2270001
-0.20439768 0.24361053 1.2255001
-0.19606358 0.24722494 1.2243334
-0.1897729 0.24981405 1.223
-0.074046396 0.24698114 1.2241429
-0.069323726 0.243442 1.2260002
-0.19362059 0.25116894 1.2270001
-0.18435454 0.25416204 1.2250001
-0.17521738 0.25702038 1.2248183
-0.16725749 0.25839135 1.223
-0.081974469 0.2573832 1.2250001
-0.075757906 0.25216776 1.2270001
-0.16457751 0.26181808 1.2270001
-0.1548574 0.26289725 1.225
-0.14499804 0.26578829 1.2251539
-0.13723691 0.269113 1.223
-0.11257715 0.269113 1.223
-0.10475828 0.2685712 1.2247144
-0.094757445 0.2689023 1.2236668
-0.086752966 0.26509765 1.2255001
-0.13342428 0.27265015 1.2254001
-0.12489365 0.27396226 1.2255001
-0.11673991 0.27239734 1.2262001
-0.10075442 0.2728616 1.2270001
-0.095017515 0.2728616 1.2270001
-0.20673905 -0.081179328 1.2346667
-0.21172765 -0.07303194 1.2360001
-0.2067516 -0.074263312 1.2336668
-0.21237774 -0.066097163 1.2360001
-0.20768233 -0.065374784 1.2360001
-0.21237777 -0.054177999 1.2360001
-0.20912708 -0.05526156 1.2360001
-0.0010800533 -0.0010800533 1.2320001
0.0054055266 -0.0014406556 1.2326669
0.01191916 -0.0010835599 1.2360001
-0.0018059332 0.0025283066 1.2360001
0.0056585912 0.0020467243 1.2360001
0.013363906 0.0018059332 1.2360001
-0.0068403375 0.074883699 1.2320002
-0.023786072 0.094704904 1.2332002
-0.0043202131 0.15876783 1.2320001
-0.30613515 0.16812831 1.2320002
-0.01261348 0.16758944 1.2333335
-0.0056969309 0.16391449 1.2338668
0.0019469013 0.16373467 1.2336
-0.31098172 0.17336959 1.2360001
-0.30487439 0.1734681 1.2360001
-0.29693636 0.17643093 1.2346667
-0.034561709 0.1782088 1.2320001
-0.023761174 0.17748876 1.2320002
-0.015382937 0.17472696 1.2332308
-0.29283264 0.18245257 1.2344002
-0.28621414 0.18828928 1.2320001
-0.023442844 0.18237822 1.2342224
-0.017698146 0.18167688 1.2360001
-0.28342834 0.19271888 1.2360001
-0.27573553 0.19522175 1.2344
-0.26893327 0.19872981 1.2320001
-0.050762508 0.19872981 1.2320001
-0.2730571 0.20262574 1.2360001
-0.26882806 0.20554677 1.2340001
-0.051537484 0.20434867 1.2333335
-0.26406908 0.21374404 1.2345001
-0.25602818 0.21852553 1.2340001
-0.24949232 0.21925083 1.2320001
-0.25030234 0.22212979 1.2360001
-0.24448772 0.22501753 1.2340001
-0.23761174 0.22789125 1.2320001
-0.23545162 0.23059137 1.2320001
-0.22472683 0.23727229 1.2336
-0.059402931 0.23761174 1.2320001
-0.21555831 0.24465428 1.2342223
-0.20599353 0.24792485 1.2328001
-0.070203468 0.24949232 1.2320001
-0.064865269 0.2454123 1.2332002
-0.059499368 0.24232644 1.2340001
-0.20370927 0.25246948 1.2360001
-0.194915 0.25520512 1.2335001
-0.18754268 0.25780225 1.233
-0.073921934 0.25613886 1.2328002
-0.067541905 0.25102472 1.2360001
-0.18348683 0.26170453 1.2342857
-0.17518122 0.26385519 1.2335001
-0.16509187 0.26578626 1.233143
-0.15627739 0.26781183 1.2328001
-0.14796731 0.26893327 1.2320001
-0.083280824 0.26652917 1.2337143
-0.077366181 0.26200479 1.2360001
-0.15278196 0.27197355 1.2360001
-0.14453278 0.27314329 1.2342857
-0.13600571 0.2769793 1.2332002
-0.12528619 0.27865374 1.2320001
-0.11485034 0.27663812 1.2336001
-0.10577977 0.27607399 1.2333335
-0.094786368 0.27715409 1.2333335
-0.088086769 0.27335379 1.2344
-0.13436145 0.28118381 1.2360001
-0.12406762 0.28118381 1.2360001
-0.11485736 0.28064203 1.2360001
-0.10077108 0.28064203 1.2360001
-0.2139242 -0.081858747 1.245
-0.22229987 -0.070830286 1.243
-0.21648805 -0.07518246 1.2428463
-0.23029594 -0.064395547 1.245
-0.22464019 -0.064336523 1.2438891
-0.21671832 -0.06462384 1.2410001
-0.22435217 -0.054820281 1.2433531
-0.21621059 -0.05606534 1.2409999
-0.20924777 -0.059111584 1.2410001
-0.22301961 -0.047659978 1.245
-0.21776488 -0.047907203 1.2420001
0.0059329881 0.0064196349 1.2432222
0.014792998 0.0066971071 1.2432858
-0.0021776399 0.16890298 1.243
0.0010879433 0.16863121 1.2410001
-0.31006384 0.1784227 1.2410001
-0.3050904 0.17857814 1.2410001
-0.0070821517 0.1735355 1.243
0.0021829 0.1724491 1.245
-0.31106326 0.18227215 1.245
-0.30398884 0.18290217 1.2443333
-0.2965169 0.18540922 1.2426001
-0.034412045 0.18326855 1.2432858
-0.029374469 0.18168654 1.2410001
-0.013078114 0.18307079 1.243
-0.0098230503 0.18008925 1.245
-0.29141715 0.19100375 1.245
-0.28462327 0.19749196 1.2423333
-0.27960142 0.19909362 1.2410001
-0.2815941 0.20410115 1.245
-0.27568823 0.20633866 1.2415715
