# .PCD v0.7 - Point Cloud Data file format
VERSION 0.7
FIELDS x y z
SIZE 4 4 4
TYPE F F F
COUNT 1 1 1
WIDTH 1484
HEIGHT 1
VIEWPOINT 0 0 0 1 0 0 0
POINTS 1484
DATA ascii
-0.20455287 0.11519326 1.0844165
-0.19492707 0.11478371 1.0834229
-0.18506391 0.1148383 1.0825599
-0.1745349 0.11497503 1.0826205
-0.16437823 0.11497068 1.0838398
-0.15545236 0.11540012 1.0855651
-0.27471346 0.12620936 1.0868
-0.26543853 0.12709844 1.0868
-0.2540096 0.12748206 1.0852001
-0.24649297 0.12801115 1.087
-0.21059901 0.12102295 1.087
-0.20488138 0.12102295 1.087
-0.19465798 0.12204465 1.0866666
-0.18463539 0.123682 1.0864285
-0.17447203 0.12384646 1.085909
-0.16467606 0.12470003 1.0857998
-0.15552111 0.12445945 1.0866086
-0.27311164 0.13169584 1.087
-0.26514804 0.1344267 1.0857776
-0.25503218 0.13432916 1.0844443
-0.24531041 0.13496122 1.0839394
-0.23509249 0.13526292 1.0830666
-0.22589162 0.13725957 1.0848
-0.2182225 0.13817582 1.087
-0.16295217 0.13169584 1.087
-0.15914042 0.13055232 1.087
-0.26314667 0.14062622 1.087
-0.254244 0.14361186 1.0861818
-0.24493685 0.14525206 1.0844284
-0.23407026 0.14499056 1.0809599
-0.22458044 0.14463581 1.0828927
-0.21507883 0.14450866 1.0840625
-0.20655796 0.14677653 1.0845624
-0.24369414 0.15280923 1.0867
-0.2344555 0.15411863 1.0844998
-0.22486065 0.15452744 1.0842608
-0.21449387 0.15474604 1.0843213
-0.20428349 0.1548782 1.0838399
-0.19667147 0.15664814 1.087
-0.21202841 0.16152276 1.087
-0.20462023 0.16307929 1.0862499
-0.19611438 0.16371454 1.087
-0.19137897 -0.091361813 1.097
-0.1920201 -0.088156134 1.097
-0.18762138 -0.084008157 1.0964
-0.18435211 -0.079008356 1.0964
-0.25164571 0.017631227 1.097
-0.2479271 0.016733637 1.097
-0.23428573 0.016053051 1.097
-0.22532147 0.01600953 1.097
-0.21515927 0.016873522 1.097
-0.20441538 0.017417517 1.097
-0.19515495 0.016342292 1.0966001
-0.18526931 0.015896389 1.097
-0.1747214 0.014696755 1.0967858
-0.16461253 0.015155897 1.0968572
-0.15517366 0.015896391 1.097
-0.14829466 0.016733637 1.097
-0.25376424 0.025046103 1.097
-0.24595827 0.025962444 1.0968696
-0.23484235 0.025718769 1.09675
-0.22500366 0.024999904 1.0968335
-0.21424638 0.024977377 1.0959001
-0.20473816 0.024621351 1.0932692
-0.19489697 0.024926044 1.091125
-0.18469693 0.024719942 1.092
-0.17519687 0.024712229 1.0916207
-0.16532396 0.023624547 1.0915385
-0.15475349 0.024989806 1.0927577
-0.14552096 0.02557051 1.0959616
-0.13944699 0.029812803 1.097
-0.2535691 0.035262454 1.097
-0.24475341 0.035511278 1.09484
-0.23507479 0.035500024 1.09448
-0.22497575 0.035572767 1.0967001
-0.214206 0.035352938 1.094875
-0.20493521 0.035573047 1.0911429
-0.1962734 0.035738192 1.09
-0.18203545 0.034878183 1.09
-0.17104644 0.036311533 1.09
-0.15138982 0.032827076 1.0906668
-0.14445163 0.035120636 1.0931305
-0.13726713 0.036352389 1.097
-0.2525433 0.042122606 1.097
-0.24464574 0.044736978 1.0963182
-0.23510349 0.045102429 1.0946
-0.22493385 0.045179453 1.0965
-0.21452411 0.04524247 1.0935714
-0.20476429 0.044911627 1.09
-0.19512671 0.045039043 1.09
-0.14107496 0.043038197 1.0910001
-0.1355754 0.045328125 1.0941305
-0.12982994 0.048085168 1.097
-0.30293655 0.058663905 1.097
-0.29596421 0.057942625 1.097
-0.24234924 0.050970275 1.097
-0.2352124 0.054310929 1.097
-0.22523974 0.054087106 1.0968125
-0.2144368 0.054811522 1.0968801
-0.20482621 0.055082187 1.0955653
-0.19509247 0.054977417 1.0911765
-0.13296102 0.051791213 1.0911429
-0.12675484 0.055216622 1.0949475
-0.31063017 0.066357531 1.097
-0.30463105 0.064579062 1.09675
-0.29466224 0.064304732 1.09484
-0.28497297 0.064692989 1.0942222
-0.27498603 0.065679379 1.092926
-0.2657651 0.06414292 1.0921178
-0.25451195 0.065434076 1.09324
-0.24529523 0.065557778 1.0936539
-0.2354237 0.065845124 1.0947309
-0.22618528 0.065919064 1.0965716
-0.21157473 0.060587309 1.097
-0.20460238 0.062751137 1.097
-0.19490163 0.064434789 1.0942501
-0.18378733 0.0688008 1.09
-0.17372203 0.069374137 1.09
-0.16674638 0.069278583 1.09
-0.15957963 0.069756366 1.09
-0.12297091 0.064475439 1.0916251
-0.3027077 0.07291317 1.0967501
-0.29494792 0.074940875 1.0958999
-0.28525379 0.07548932 1.0934167
-0.27507812 0.07512302 1.0904139
-0.26689714 0.075930797 1.09
-0.23071411 0.070839927 1.092
-0.22407007 0.072096571 1.0933334
-0.214561 0.075168543 1.0946667
-0.2051412 0.07600724 1.0953201
-0.19503678 0.075292982 1.0967693
-0.18525778 0.07583528 1.09492
-0.17553587 0.075782157 1.09416
-0.16506608 0.075865984 1.0924286
-0.15655367 0.07596755 1.09
-0.14524613 0.079312034 1.09
-0.13377933 0.0774009 1.09
-0.12424354 0.075984277 1.0930371
-0.29346746 0.084703878 1.097
-0.28519031 0.085461788 1.09532
-0.27509305 0.085309274 1.0933599
-0.26686797 0.084662512 1.0916001
-0.20258014 0.081223167 1.09
-0.19394825 0.083225004 1.093154
-0.18500842 0.085016966 1.0939565
-0.17571437 0.0854543 1.0952801
-0.16494989 0.085352205 1.0939333
-0.1544456 0.085577115 1.0924783
-0.14456019 0.085209228 1.0920401
-0.13518149 0.085331537 1.09364
-0.12585722 0.085509025 1.0959201
-0.29139611 0.091361813 1.097
-0.28501487 0.093836233 1.0968236
-0.27546647 0.095023483 1.0948399
-0.26565963 0.095457405 1.0924761
-0.25832152 0.096193708 1.09
-0.17295757 0.092689969 1.09
-0.16404496 0.094773002 1.0928462
-0.15481688 0.095198214 1.0968801
-0.14517017 0.095178641 1.0966401
-0.13569756 0.095086634 1.0965
-0.12818131 0.092735685 1.097
-0.2739076 0.10352499 1.0968
-0.2652598 0.1045959 1.0954348
-0.25617641 0.10480936 1.0927999
-0.24598344 0.10653353 1.0905715
-0.16253771 0.10236837 1.0913334
-0.15469746 0.10457094 1.0923104
-0.14616571 0.10427286 1.0965264
-0.30259326 0.11656608 1.0966251
-0.29581302 0.11686905 1.0965716
-0.28513604 0.1175308 1.0964546
-0.27603686 0.11804628 1.0947692
-0.2644684 0.11059588 1.097
-0.2538043 0.1123983 1.0958
-0.24530715 0.11497139 1.0953636
-0.23563018 0.11673388 1.0918947
-0.22512498 0.11755424 1.0914286
-0.2173914 0.11896805 1.09
-0.15057056 0.11424062 1.0905001
-0.14593768 0.11492351 1.0948421
-0.30359086 0.12421088 1.0967144
-0.29449847 0.12492662 1.0947241
-0.2856133 0.12456108 1.094
-0.27510813 0.12271958 1.0916923
-0.26610166 0.12349365 1.0950909
-0.25500736 0.12430221 1.0949167
-0.24499507 0.12393079 1.0945001
-0.23525485 0.12577172 1.0933332
-0.22564477 0.12578721 1.0952801
-0.21545887 0.12598883 1.0938077
-0.20503435 0.12647417 1.0929
-0.19523345 0.12685037 1.0910001
-0.18506141 0.12868297 1.09
-0.1748687 0.1290015 1.09
-0.15084301 0.12627129 1.09
-0.14682889 0.12487302 1.0957143
-0.30101314 0.13175336 1.097
-0.29402062 0.134997 1.0962106
-0.28560546 0.13560607 1.0949091
-0.27670893 0.13532789 1.0913334
-0.2317249 0.13139042 1.09
-0.2247092 0.13355255 1.0930625
-0.21473238 0.13513532 1.0943449
-0.20481998 0.13558491 1.0968801
-0.19503547 0.13546856 1.0959201
-0.1849349 0.13511105 1.0930001
-0.17540182 0.13515246 1.0933201
-0.16582187 0.13582443 1.0921429
-0.15491094 0.13513623 1.0932143
-0.14740516 0.13601632 1.0967693
-0.28412992 0.14308009 1.097
-0.27526763 0.14509346 1.0949231
-0.26524797 0.14566132 1.0918236
-0.25772473 0.14698067 1.0917143
-0.21118023 0.1404683 1.09
-0.20399727 0.1439907 1.0937059
-0.19503294 0.14507172 1.0959201
-0.18560873 0.14521721 1.097
-0.17503001 0.14341402 1.097
-0.16473979 0.14435168 1.097
-0.15566954 0.1427341 1.0967274
-0.14714061 0.14137039 1.097
-0.27336419 0.15170869 1.097
-0.26435754 0.1528473 1.0965385
-0.25494385 0.15402079 1.0947895
-0.24683291 0.15643689 1.0917779
-0.23634349 0.15926111 1.09
-0.22455816 0.15957963 1.09
-0.20103544 0.15029924 1.092
-0.19373228 0.15395728 1.0920455
-0.18538225 0.15464771 1.0956801
-0.25162306 0.16038486 1.0955
-0.24445382 0.16396248 1.09565
-0.23513405 0.16507567 1.0947499
-0.22518469 0.16496287 1.095
-0.21548231 0.16544676 1.0924375
-0.20558402 0.16848919 1.0920001
-0.19349799 0.16670612 1.0916001
-0.18553056 0.16462335 1.0952963
-0.2336939 0.17118318 1.097
-0.2252309 0.17060617 1.097
-0.21411014 0.17214489 1.097
-0.20420168 0.17246546 1.097
-0.19458465 0.17374773 1.097
-0.18534808 0.17532231 1.0966786
-0.17911725 0.176713 1.097
-0.18368535 0.18320449 1.097
-0.17887682 0.18176194 1.097
-0.23215185 -0.10004871 1.108
-0.22299342 -0.10088129 1.1079999
-0.2142193 -0.10169253 1.1079999
-0.20500405 -0.10310167 1.1076469
-0.19567238 -0.10177556 1.1079999
-0.18941259 -0.10004871 1.108
-0.2358606 -0.095456891 1.1079999
-0.22340973 -0.097458452 1.1079999
-0.21423592 -0.097026743 1.1079999
-0.20441279 -0.09774369 1.1061
-0.19432724 -0.096114576 1.1021764
-0.18520749 -0.094256125 1.1060998
-0.17768693 -0.091410413 1.1075714
-0.19014637 -0.089764528 1.1010001
-0.18347521 -0.085514076 1.1012105
-0.17561418 -0.084175549 1.1057497
-0.16869055 -0.081269331 1.108
-0.18049426 -0.077216804 1.1010001
-0.17475952 -0.075315177 1.1056498
-0.16743588 -0.073943757 1.1079999
-0.17192836 -0.068965614 1.108
-0.1647404 -0.067605726 1.1079999
-0.25546417 -0.00097134669 1.108
-0.17387106 -0.00097134669 1.108
-0.29043266 0.0067994264 1.108
-0.28460458 0.0072851009 1.1079999
-0.27506003 0.0051101292 1.1079999
-0.26553088 0.0052982555 1.1079999
-0.25524342 0.0048497911 1.1070399
-0.24586809 0.0056185569 1.1058999
-0.23500958 0.0066557634 1.104875
-0.22526766 0.0067854002 1.1059997
-0.21481012 0.0064793988 1.1061051
-0.20473181 0.0067903106 1.1068
-0.19461921 0.0063313381 1.1064117
-0.18476047 0.0049963794 1.1043748
-0.17497636 0.0048289602 1.1027199
-0.1654097 0.0048306789 1.1033998
-0.1552864 0.0060707973 1.1045908
-0.14861605 0.007770773 1.108
-0.29043266 0.015541546 1.108
-0.28476647 0.014570204 1.1079999
-0.27459982 0.014541475 1.1059228
-0.26485923 0.014277359 1.1052607
-0.2560218 0.014291006 1.1024735
-0.24463727 0.013836282 1.1011666
-0.23671776 0.012306427 1.101
-0.22548792 0.012399238 1.101
-0.21469025 0.012547731 1.101
-0.20583104 0.012789032 1.101
-0.19497241 0.011582521 1.101
-0.18518244 0.011168858 1.101
-0.17856385 0.01061731 1.1010001
-0.1640857 0.01061731 1.1010001
-0.15417226 0.011265067 1.1014445
-0.14477481 0.014930326 1.1044735
-0.13852648 0.018405616 1.105
-0.29431805 0.022340974 1.108
-0.2838645 0.024191162 1.1079999
-0.27456403 0.024255998 1.1066798
-0.26455662 0.024680955 1.1020907
-0.25936574 0.024957571 1.101
-0.24265377 0.022006789 1.101
-0.23840685 0.02219983 1.1010001
-0.14285108 0.02123462 1.1010001
-0.13612062 0.025114231 1.1034136
-0.28349447 0.034274653 1.1079999
-0.27470616 0.034795195 1.107793
-0.26537776 0.035285234 1.1040453
-0.25908998 0.036540091 1.101
-0.13243128 0.034369718 1.1017058
-0.12704368 0.035880543 1.1062499
-0.29723209 0.049538679 1.108
-0.28120485 0.043710601 1.108
-0.27423099 0.045080323 1.1075712
-0.26497468 0.045815285 1.1057389
-0.25629982 0.046030514 1.1032351
-0.24934591 0.048582237 1.1010001
-0.13107553 0.043048363 1.1010001
-0.12535851 0.045745138 1.1038636
-0.11947564 0.049538679 1.108
-0.32336172 0.057507481 1.1076665
-0.31633961 0.057086781 1.1066152
-0.30536994 0.055169925 1.1041764
-0.29480919 0.054514222 1.1047058
-0.28539753 0.056802072 1.1048822
-0.27475008 0.055869192 1.1067916
-0.26489046 0.055306379 1.1067998
-0.25499633 0.055263981 1.1059598
-0.24557808 0.055491142 1.1018889
-0.23776339 0.056625649 1.101
-0.22558334 0.055844299 1.101
-0.12221459 0.054210916 1.1024547
-0.11791166 0.055799831 1.107
-0.32418481 0.064857736 1.1076841
-0.31535476 0.06467618 1.1028945
-0.30983239 0.06080823 1.1010001
-0.27605006 0.06080823 1.1010001
-0.26542836 0.061029151 1.105
-0.25626326 0.06080823 1.1010001
-0.24484162 0.06080823 1.1010001
-0.23695907 0.061290834 1.1010001
-0.22477327 0.063341908 1.101
-0.21549357 0.065004803 1.101
-0.20601872 0.06767194 1.101
-0.12065125 0.063703865 1.1010001
-0.11718361 0.064885318 1.1047331
-0.32345846 0.074793696 1.1079999
-0.31530869 0.074876778 1.105478
-0.30732283 0.075093344 1.101
-0.21446964 0.070846409 1.1010001
-0.20398106 0.071425535 1.101
-0.19690284 0.073355958 1.1010001
-0.12065125 0.074321173 1.1010001
-0.11550811 0.0747784 1.1040432
-0.32151574 0.081593119 1.108
-0.31549057 0.084336162 1.1078749
-0.30486327 0.084638625 1.1033748
-0.29728469 0.086868905 1.101
-0.12065126 0.085903689 1.1010001
-0.11570556 0.083946414 1.1040907
-0.10976217 0.082564466 1.108
-0.31180227 0.090335242 1.108
-0.30406857 0.093551725 1.1072499
-0.29477692 0.095529325 1.103294
-0.28649098 0.09910278 1.1018
-0.13094683 0.09812969 1.1010001
-0.12426881 0.096054956 1.1022999
-0.11762181 0.09274058 1.1071817
-0.32345843 0.10976217 1.108
-0.31568766 0.10976217 1.108
-0.30014613 0.10976217 1.108
-0.2937046 0.1056723 1.1079999
-0.28505012 0.1055408 1.1044499
-0.27691337 0.10761133 1.1014444
-0.14252935 0.10681657 1.101
-0.13522154 0.1052836 1.1017666
-0.12562014 0.10526132 1.1061362
-0.11947564 0.10004871 1.108
-0.32429844 0.11554172 1.1075499
-0.31524608 0.11496568 1.1045908
-0.30657315 0.11410017 1.1035881
-0.29486805 0.11298371 1.1044616
-0.28529006 0.11314603 1.1031333
-0.27467921 0.11390962 1.1026314
-0.26542881 0.11551679 1.1035597
-0.25578067 0.11589944 1.101
-0.1424911 0.11472037 1.1029999
-0.13690792 0.11346378 1.1061817
-0.32422483 0.1245117 1.1076665
-0.31531975 0.1247744 1.1032999
-0.3091889 0.12579903 1.101
-0.26467922 0.12239698 1.1032223
-0.25602195 0.12137516 1.101
-0.14308451 0.12514907 1.1028333
-0.13890257 0.12465615 1.108
-0.31368992 0.13421345 1.1071817
-0.30551744 0.13500465 1.1033332
-0.2982499 0.13899024 1.1010001
-0.14271715 0.1346482 1.1021763
-0.1383155 0.13509201 1.1033334
-0.30438042 0.14256252 1.1075
-0.29483274 0.14499739 1.1050667
-0.28716993 0.14612214 1.102
-0.20365931 0.14381629 1.1010001
-0.18049426 0.14864233 1.1010001
-0.17486387 0.14767712 1.101
-0.16389266 0.14922145 1.1010001
-0.15470937 0.14767715 1.101
-0.14466159 0.14548182 1.1023844
-0.13605312 0.14525856 1.1055623
-0.29043266 0.15055872 1.108
-0.28496608 0.15169019 1.1056249
-0.27456 0.15655942 1.1051
-0.26532519 0.15816556 1.1023333
-0.25899804 0.15861617 1.1010001
-0.18049426 0.15539882 1.1010001
-0.17506373 0.15563451 1.1037915
-0.16520871 0.15498804 1.1032856
-0.15508568 0.15509081 1.1056665
-0.14464147 0.15369745 1.1064998
-0.13695987 0.15153007 1.1079999
-0.27294841 0.1602722 1.108
-0.26474187 0.1636437 1.1069089
-0.2556704 0.16578113 1.1044736
-0.24934591 0.16698134 1.1010001
-0.22778955 0.16891176 1.1010001
-0.18062541 0.16517083 1.1018
-0.17639412 0.16546908 1.1065261
-0.16512893 0.16059597 1.1079999
-0.15573925 0.1602722 1.108
-0.25222635 0.17257594 1.108
-0.24522085 0.17349762 1.1055999
-0.23503514 0.17649265 1.1057333
-0.2251558 0.17527433 1.1027499
-0.21549091 0.17686351 1.1015713
-0.20544033 0.177003 1.1024284
-0.19659187 0.17755343 1.1015713
-0.18049426 0.17084217 1.1010001
-0.17492729 0.17501374 1.104565
-0.2331232 0.18164183 1.108
-0.22340973 0.18261318 1.1079999
-0.21517554 0.18173683 1.1056249
-0.20422563 0.18237035 1.1079999
-0.19412123 0.18394783 1.1050624
-0.18482786 0.18676086 1.1017272
-0.17525513 0.18464801 1.1039
-0.19135529 0.19135529 1.108
-0.18578973 0.19204599 1.1069999
-0.17905158 0.19200285 1.108
-0.23053265 -0.11085187 1.1190001
-0.22423865 -0.11242924 1.1151819
-0.21503092 -0.11339837 1.113826
-0.20511258 -0.11232568 1.1141428
-0.19498964 -0.11217197 1.1137646
-0.18668845 -0.11099775 1.1126001
-0.25113344 -0.10431194 1.1190001
-0.24415816 -0.10334222 1.1165715
-0.23503391 -0.10404183 1.1143
-0.22593753 -0.10559693 1.113
-0.21593003 -0.10674644 1.1120002
-0.20634395 -0.10788376 1.1120001
-0.19421868 -0.10610667 1.1126667
-0.18438686 -0.10439002 1.1128399
-0.17562263 -0.1024033 1.1124618
-0.25211442 -0.096137017 1.1190001
-0.24580359 -0.095409773 1.1139499
-0.23415978 -0.097290359 1.1120001
-0.2266534 -0.096997902 1.1120001
-0.21349289 -0.093910873 1.1120001
-0.20894356 -0.093910873 1.1120001
-0.18181014 -0.097972751 1.1120001
-0.17403452 -0.095210686 1.1120001
-0.16538931 -0.093650378 1.1121579
-0.1589011 -0.090661362 1.1120001
-0.17098927 -0.086372003 1.1120001
-0.16444957 -0.085087359 1.1122609
-0.15633191 -0.084036961 1.1161112
-0.16307904 -0.076038554 1.1120002
-0.155084 -0.075366423 1.1142306
-0.14661841 -0.074626714 1.1177368
-0.17124923 -0.066614978 1.1120001
-0.16400033 -0.064415298 1.1120002
-0.15503453 -0.065330096 1.11224
-0.14577642 -0.065354094 1.1166399
-0.16171747 -0.05793627 1.1126001
-0.15487473 -0.055741161 1.11225
-0.14502861 -0.055514541 1.1151427
-0.13831958 -0.05101148 1.1190001
-0.1533836 -0.046513431 1.1154287
-0.14528485 -0.045088552 1.1150625
-0.13896871 -0.044074412 1.1172223
-0.15009147 -0.038258608 1.1190001
-0.14407772 -0.034437303 1.1166362
-0.13904986 -0.038190231 1.1170001
-0.17167325 -0.02158178 1.1190001
-0.16774929 -0.021581778 1.1190001
-0.15009147 -0.02060079 1.1190001
-0.14518651 -0.023298513 1.1190001
-0.29429698 -0.01079089 1.1190001
-0.28469428 -0.011650024 1.1176667
-0.27526265 -0.01175645 1.1174001
-0.26650229 -0.011117888 1.1190001
-0.25669238 -0.011117887 1.1190001
-0.18403319 -0.012152704 1.1178001
-0.17498773 -0.014348175 1.116739
-0.16596127 -0.014426902 1.1171818
-0.15496258 -0.01457954 1.1189998
-0.14446113 -0.014252049 1.1175454
-0.30359095 -0.0042069168 1.1168822
-0.29441217 -0.0051457281 1.1144348
-0.28532594 -0.0048017325 1.1137826
-0.27499539 -0.0047470587 1.1130345
-0.26468873 -0.0045513101 1.1144782
-0.2548357 -0.0051292013 1.1151198
-0.2450017 -0.0030543073 1.1165884
-0.23557495 -0.0022282472 1.1175454
-0.22366571 -0.002550574 1.1190002
-0.21444774 -0.0025846525 1.1179092
-0.20480914 -0.0019609281 1.1178001
-0.19390681 -0.0029373972 1.1155
-0.18458074 -0.0048868908 1.114
-0.17460527 -0.0054111448 1.1126819
-0.16494989 -0.0048833136 1.1133599
-0.15500773 -0.0051075229 1.1165712
-0.14463502 -0.0048958333 1.11628
-0.13751498 -0.0032984188 1.1182729
-0.31430918 0.0072593256 1.1190002
-0.30472124 0.0050699725 1.1145715
-0.29538056 0.0049590357 1.112
-0.28563201 0.0026246051 1.1120002
-0.2739338 0.0019497066 1.1120001
-0.26353535 0.0016247556 1.1120001
-0.24329555 0.0018104418 1.1120001
-0.23527524 0.0019516352 1.1136
-0.22555669 0.0019518107 1.1138
-0.21539505 0.0016265088 1.114
-0.20493957 0.0019507583 1.1131999
-0.19545808 0.0017059933 1.1120001
-0.16085079 0.00097485335 1.1120001
-0.15422432 0.0015322882 1.1124287
-0.14516804 0.0046257894 1.1139563
-0.13686925 0.0050807837 1.1170952
-0.32078373 0.012752871 1.1190001
-0.31513253 0.01448101 1.1168947
-0.30532855 0.014631425 1.1127199
-0.29571965 0.014538032 1.112
-0.14291349 0.01150327 1.1120001
-0.13475145 0.014528874 1.1152759
-0.12617984 0.014592226 1.1190002
-0.3145797 0.023969293 1.1174003
-0.30536208 0.024390375 1.1128399
-0.29538056 0.024452567 1.112
-0.28953144 0.024858758 1.1120001
-0.13145602 0.021800218 1.1135
-0.1272179 0.025494752 1.1157335
-0.31311417 0.034156285 1.1190002
-0.30477506 0.034155883 1.113174
-0.29538056 0.035094723 1.1119999
-0.28823164 0.036719471 1.1120001
-0.27978289 0.039968986 1.1120001
-0.12306926 0.034546442 1.1147059
-0.11804581 0.035969634 1.1190001
-0.31431231 0.047547497 1.1174617
-0.30471331 0.045211837 1.1149628
-0.29482141 0.045769542 1.1131999
-0.28631863 0.046195872 1.1121429
-0.27880806 0.048742667 1.1120001
-0.12104356 0.043601748 1.1135
-0.11779393 0.044179954 1.116154
-0.35217538 0.055916429 1.1190001
-0.34353673 0.058726627 1.1185555
-0.33392483 0.056769367 1.1152668
-0.32573804 0.053124499 1.1134287
-0.31534639 0.05301635 1.1130835
-0.30610394 0.051667225 1.1120001
-0.29213104 0.052317128 1.1120001
-0.28541538 0.052533761 1.1120001
-0.27848309 0.052967031 1.1120001
-0.11480914 0.055828366 1.1172223
-0.10431194 0.059186395 1.1190001
-0.35099822 0.065726332 1.1190001
-0.34447801 0.065568522 1.1163
-0.33473846 0.065385453 1.1131999
-0.32852557 0.06921459 1.1120001
-0.11233442 0.065447368 1.1142668
-0.10577304 0.066448987 1.1183333
-0.34436402 0.075032935 1.1188
-0.33417848 0.07500118 1.1138095
-0.32852557 0.075063713 1.1120001
-0.11071549 0.074228115 1.1120001
-0.10599308 0.074981391 1.1172222
-0.33335397 0.084414244 1.1166155
-0.32563955 0.085176788 1.1125001
-0.11099403 0.085926354 1.1120001
-0.10692903 0.08509703 1.1175715
-0.33059362 0.091232069 1.1190001
-0.32436994 0.094200872 1.1169335
-0.3153547 0.094968461 1.1127826
-0.30772871 0.097160377 1.1120001
-0.11344796 0.095562294 1.1141053
-0.1081055 0.094378643 1.1185001
-0.33255562 0.10888989 1.1190001
-0.32459065 0.10558238 1.1158236
-0.31552219 0.1045211 1.1142799
-0.30539522 0.10439937 1.1129599
-0.29844436 0.10570195 1.1120001
-0.12145011 0.10681942 1.1127501
-0.11572012 0.10423578 1.1155416
-0.10888989 0.10104197 1.1190001
-0.34412792 0.11609859 1.1187502
-0.33384863 0.11527963 1.1139524
-0.32462615 0.11015843 1.1120001
-0.31195307 0.11015843 1.1120001
-0.30610394 0.11015843 1.1120001
-0.13398559 0.11669986 1.1132859
-0.12485361 0.11434212 1.1147618
-0.1180458 0.11150587 1.1190001
-0.34372377 0.12307652 1.1190002
-0.33458054 0.12467089 1.1145883
-0.32755071 0.12868065 1.1120001
-0.13447995 0.12446859 1.11584
-0.12660679 0.12288605 1.1178
-0.33277553 0.13173984 1.1178571
-0.32461214 0.13439256 1.114875
-0.31752846 0.13706025 1.1127501
-0.1373762 0.13389818 1.1148889
-0.32274571 0.14093556 1.1190001
-0.31508335 0.14464532 1.1173334
-0.30573779 0.14740194 1.1135
-0.29927996 0.14915256 1.1120001
-0.13745432 0.14135373 1.1120001
-0.31162781 0.15074547 1.1190001
-0.30492634 0.15393247 1.1174999
-0.2948125 0.15527928 1.11465
-0.28547049 0.15755022 1.1139168
-0.27858275 0.15932979 1.115
-0.14376965 0.15859689 1.1126001
-0.13549843 0.1561196 1.1162668
-0.29233503 0.16186334 1.1190001
-0.28518781 0.1636852 1.1190002
-0.27517912 0.16528153 1.1155626
-0.26605022 0.16815138 1.113
-0.17316447 0.16660494 1.1125456
-0.16506363 0.16609339 1.1134211
-0.15491426 0.16571043 1.1144347
-0.14713751 0.16334261 1.1169093
-0.27271521 0.17314473 1.1190001
-0.26447964 0.17454091 1.1150908
-0.25569984 0.17627268 1.112643
-0.24468818 0.17839816 1.1120001
-0.17078343 0.1746839 1.1131999
-0.16604285 0.17471461 1.1163332
-0.1563044 0.17232724 1.1190001
-0.26339582 0.18197364 1.1190001
-0.25461808 0.18314132 1.1179335
-0.24418432 0.18436427 1.1157894
-0.23503718 0.1850224 1.1129473
-0.225941 0.18634699 1.1120002
-0.21547347 0.18665273 1.1129231
-0.20622814 0.18672673 1.1122502
-0.19838265 0.18765926 1.1120001
-0.17092429 0.18489718 1.1120001
-0.16687931 0.18518959 1.116294
-0.24034254 0.19129305 1.1190001
-0.23381715 0.19212112 1.1172857
-0.22515979 0.19257654 1.1150666
-0.21521302 0.19258067 1.1164999
-0.2044974 0.19245142 1.1143334
-0.19546974 0.19430459 1.1143
-0.18429595 0.19689718 1.1133637
-0.17429584 0.19471203 1.1135453
-0.16725333 0.19384965 1.1175715
-0.19227403 0.20110294 1.1190001
-0.18501349 0.20225999 1.1178
-0.17559721 0.20142995 1.1190001
-0.24447836 -0.11286148 1.126
-0.23496653 -0.11190445 1.123
-0.25509065 -0.10492885 1.1234616
-0.24539848 -0.10821451 1.1242001
-0.2382482 -0.10927913 1.123
-0.26158857 -0.094764158 1.126
-0.25679004 -0.095056146 1.1240001
-0.26356283 -0.086867146 1.126
-0.25862718 -0.089828528 1.126
-0.14275202 -0.07482174 1.123
-0.14111118 -0.065961279 1.123
-0.13630925 -0.063769147 1.1245788
-0.14078303 -0.058085304 1.123
-0.13591935 -0.054589 1.1249412
-0.15477243 -0.041402776 1.1245
-0.13475195 -0.044753887 1.1250626
-0.16485015 -0.030600926 1.126
-0.1521637 -0.035019327 1.12525
-0.144721 -0.030519396 1.123
-0.13722104 -0.034675602 1.1247501
-0.30255434 -0.021223223 1.126
-0.29547989 -0.021058701 1.126
-0.2852796 -0.020729659 1.126
-0.27540833 -0.020729659 1.126
-0.26751134 -0.020729659 1.126
-0.18196036 -0.022045828 1.126
-0.17462391 -0.024760967 1.1246667
-0.16401494 -0.025203291 1.1241428
-0.15495265 -0.024649693 1.124565
-0.14432409 -0.025203137 1.1235294
-0.13830741 -0.024897529 1.126
-0.32180327 -0.010858393 1.126
-0.31371883 -0.013636756 1.1251177
-0.3046006 -0.014789332 1.1244398
-0.29456115 -0.015764441 1.1237499
-0.2847729 -0.016753102 1.1240002
-0.27491918 -0.016753102 1.1240002
-0.26562178 -0.015394596 1.12375
-0.25538024 -0.013805088 1.1247501
-0.24579453 -0.012691626 1.1260002
-0.23715718 -0.012092302 1.126
-0.22407775 -0.010858393 1.126
-0.21552266 -0.011516478 1.126
-0.20507556 -0.011598739 1.126
-0.19414316 -0.012465802 1.125182
-0.18522228 -0.016757244 1.1243638
-0.1781939 -0.018705437 1.123
-0.16309829 -0.016736442 1.123
-0.15653497 -0.018705437 1.123
-0.14143936 -0.018049106 1.123
-0.13839817 -0.014556503 1.125625
-0.33226684 -0.0017768278 1.126
-0.32498875 -0.0043526492 1.1247647
-0.31503895 -0.0049224827 1.1229997
-0.30486581 -0.0088604698 1.123
-0.26778311 -0.0088604698 1.123
-0.25104666 -0.0088604698 1.123
-0.24546711 -0.0078878077 1.1245
-0.23431365 -0.0067858645 1.1244117
-0.22534014 -0.0064759362 1.1238573
-0.21522653 -0.006621839 1.1247145
-0.20481008 -0.0069055022 1.1250001
-0.19619237 -0.00733166 1.1233335
-0.13580671 -0.0053194379 1.1242001
-0.33349293 0.0051434496 1.126
-0.3249715 0.0049240612 1.1232998
-0.316286 0.0028222236 1.123
-0.13205437 0.0049254424 1.124125
-0.12854153 0.0065729548 1.125
-0.33279333 0.01428043 1.1260002
-0.32581598 0.015134722 1.1244117
-0.31996143 0.018705437 1.123
-0.12404658 0.018705437 1.123
-0.33156487 0.024239443 1.126
-0.32536322 0.02464937 1.12465
-0.31956762 0.02618761 1.123
-0.12335707 0.024041444 1.1239002
-0.33068743 0.032575179 1.126
-0.32555065 0.034337327 1.1258421
-0.3183206 0.035113718 1.123
-0.12207758 0.030519396 1.123
-0.33266172 0.04836921 1.126
-0.32491887 0.044882372 1.1252501
-0.31663874 0.042948667 1.123
-0.11400729 0.046765588 1.1243334
-0.36030123 0.058240473 1.126
-0.35371652 0.056160759 1.1239001
-0.34485114 0.054655723 1.124154
-0.33637899 0.051955275 1.1242858
-0.3288219 0.050209329 1.123
-0.11309911 0.053930577 1.1248462
-0.10872255 0.054974779 1.1248751
-0.36030123 0.06416323 1.126
-0.35512149 0.064477324 1.1238333
-0.10652254 0.061235689 1.123
-0.35456976 0.075009309 1.1241666
-0.34605056 0.079251982 1.123
-0.10247795 0.077845372 1.1240001
-0.098253451 0.077223666 1.1245
-0.35141706 0.082918644 1.126
-0.34442353 0.085291274 1.1250526
-0.33786279 0.087274268 1.1236001
-0.10393044 0.086170048 1.1255
-0.34253296 0.091802776 1.126
-0.33475849 0.094660498 1.1247501
-0.32901877 0.097858973 1.123
-0.10488852 0.09483403 1.1245
-0.33433878 0.10640385 1.1250001
-0.3288219 0.10238765 1.123
-0.11223262 0.10731013 1.123
-0.10858393 0.10266117 1.126
-0.35301524 0.11635523 1.1248001
-0.34508881 0.11230426 1.1251428
-0.33768237 0.11124812 1.123
-0.12185725 0.11857384 1.1240001
-0.11806999 0.11531235 1.1242001
-0.36030123 0.12437795 1.126
-0.35426939 0.12413647 1.1244
-0.34599978 0.12649441 1.1232728
-0.13093805 0.12896906 1.123
-0.12453848 0.12591942 1.1239002
-0.3440243 0.13221666 1.1255
-0.33630165 0.13618545 1.1245002
-0.32980639 0.13881403 1.123
-0.13394567 0.13493411 1.1245002
-0.12758611 0.13301532 1.126
-0.33424109 0.1433308 1.1260002
-0.32570323 0.14523683 1.124125
-0.31930509 0.14800267 1.123
-0.13622348 0.14214624 1.126
-0.32205003 0.15325141 1.126
-0.31528458 0.15511814 1.1243125
-0.30617845 0.15850396 1.123
-0.13192254 0.15850396 1.123
-0.31193203 0.16188878 1.126
-0.3040773 0.1626247 1.1253078
-0.29550004 0.16586958 1.1242353
-0.28451952 0.16834892 1.123
-0.14343406 0.16578132 1.1245002
-0.13511626 0.16352198 1.1250001
-0.29120237 0.17274718 1.126
-0.28491136 0.17386049 1.1252856
-0.27608615 0.17523824 1.1234
-0.16134629 0.1767139 1.1236001
-0.15400693 0.17581622 1.1243126
-0.14806899 0.17274718 1.126
-0.27275372 0.18267678 1.125
-0.26578072 0.18529336 1.1242501
-0.25598419 0.18796186 1.1245
-0.24907765 0.18803886 1.123
-0.16303569 0.18365265 1.1246365
-0.15734799 0.18143389 1.126
-0.2532967 0.19130515 1.126
-0.24548963 0.19382906 1.1246001
-0.23606566 0.19662477 1.1248
-0.22506487 0.19841246 1.126
-0.21480425 0.19790462 1.1247143
-0.20587078 0.19759576 1.1236001
-0.19788383 0.19985282 1.123
-0.16495696 0.19617391 1.1245
-0.22012925 0.20038672 1.126
-0.21371293 0.20038672 1.126
-0.20343782 0.20182253 1.1260002
-0.19337912 0.20503511 1.1249093
-0.18354627 0.20621336 1.124125
-0.17407829 0.20588681 1.1244
-0.16633418 0.2036863 1.1257694
-0.19051544 0.21025798 1.126
-0.18755406 0.21025798 1.126
-0.25129065 -0.11326241 1.13
-0.24864897 -0.11194157 1.13
-0.26053655 -0.10005397 1.13
-0.25063023 -0.1099603 1.13
-0.24765834 -0.1099603 1.13
-0.27135989 -0.091783494 1.138
-0.26592553 -0.092824779 1.1304445
-0.2716507 -0.083902255 1.1374286
-0.26657546 -0.086504593 1.1313334
-0.13175423 -0.060428634 1.13
-0.12977296 -0.061419267 1.13
-0.13138953 -0.054980326 1.1320001
-0.12905526 -0.051425856 1.1353334
-0.17259288 -0.040903512 1.138
-0.16268858 -0.043538768 1.1373335
-0.15806825 -0.042750359 1.1339999
-0.13224955 -0.043092549 1.13
-0.12840645 -0.044687208 1.1327692
-0.3122634 -0.030927047 1.138
-0.29231048 -0.030927047 1.138
-0.28183517 -0.031425871 1.138
-0.27435282 -0.030927047 1.138
-0.18294144 -0.034018762 1.1375556
-0.1754842 -0.034514066 1.1331303
-0.16531399 -0.035130464 1.1323076
-0.15684292 -0.033691298 1.1302857
-0.13254716 -0.034405045 1.1328235
-0.12869641 -0.036912929 1.138
-0.32373634 -0.022197638 1.138
-0.31408888 -0.024793088 1.1350911
-0.30472389 -0.025692331 1.1337895
-0.29436079 -0.025995934 1.1333686
-0.28471872 -0.025844133 1.1336
-0.27448139 -0.025595747 1.1330477
-0.2648409 -0.024624834 1.1346666
-0.25486833 -0.024765687 1.1375004
-0.24577218 -0.023420809 1.1367502
-0.23843755 -0.02095058 1.138
-0.22114499 -0.021615677 1.138
-0.21474344 -0.021948228 1.138
-0.20573238 -0.021214584 1.1368572
-0.19364865 -0.023752116 1.1366667
-0.18610363 -0.025404256 1.1323529
-0.17864423 -0.028067945 1.13
-0.15552944 -0.028728366 1.13
-0.13463345 -0.024992365 1.1342666
-0.33256918 -0.013213995 1.1375
-0.32567245 -0.015300027 1.1347501
-0.31787106 -0.017133322 1.1305715
-0.26350844 -0.018822033 1.13
-0.25504336 -0.017864715 1.1320001
-0.24485795 -0.017705161 1.1323334
-0.2350039 -0.015040196 1.1344707
-0.22482045 -0.015178842 1.1337334
-0.21503019 -0.015942877 1.1325265
-0.20492417 -0.016393768 1.1311764
-0.19571987 -0.017155828 1.1306155
-0.18921097 -0.018822033 1.13
-0.13630083 -0.01580669 1.1348889
-0.352548 -0.0019917868 1.136
-0.34503436 -0.0041423882 1.1352632
-0.33567867 -0.005396259 1.1328572
-0.32889026 -0.0079250671 1.13
-0.21298617 -0.0089157 1.13
-0.13508293 -0.0059604561 1.133
-0.35375199 0.0049823886 1.1366668
-0.34516767 0.004959303 1.1314
-0.33945704 0.0042927447 1.13
-0.13175423 0.00099063327 1.13
-0.1277917 0.0049531665 1.13
-0.3534767 0.014949595 1.1367692
-0.34533629 0.015087139 1.1346669
-0.33780599 0.015519922 1.13
-0.35385758 0.025401622 1.1380002
-0.34545475 0.024888568 1.1356003
-0.3370887 0.025165914 1.1318183
-0.12250832 0.02344499 1.13
-0.11986663 0.028728366 1.13
-0.35276788 0.03491763 1.1380001
-0.34547946 0.034731489 1.1373336
-0.33580163 0.034857359 1.132
-0.32988089 0.038634699 1.13
-0.35083905 0.044229001 1.138
-0.34403732 0.045383003 1.1371583
-0.33483407 0.044208292 1.1314286
-0.32938558 0.042597234 1.13
-0.35216928 0.050879981 1.138
-0.34573102 0.050918557 1.13
-0.33978724 0.050522301 1.13
-0.3721222 0.067839973 1.138
-0.36547515 0.065916248 1.1314546
-0.37101373 0.0743801 1.138
-0.36416581 0.074422091 1.1318667
-0.35959989 0.078260034 1.13
-0.096091434 0.078260034 1.13
-0.36276078 0.084712654 1.1368001
-0.35594597 0.084879361 1.1314286
-0.34705186 0.087505937 1.13
-0.1010446 0.085194461 1.13
-0.095784076 0.084695794 1.1318823
-0.36100557 0.094206341 1.138
-0.3544772 0.094596013 1.1358001
-0.34611577 0.095560074 1.1347059
-0.33820459 0.096867584 1.1313334
-0.10145593 0.09491004 1.1324
-0.095658936 0.091901749 1.1353334
-0.35392776 0.10411402 1.1372384
-0.3451449 0.10595643 1.1363159
-0.33775905 0.10340897 1.1315
-0.11194157 0.10797903 1.13
-0.10655857 0.10411683 1.1327693
-0.35562599 0.11298172 1.1355
-0.34596074 0.11034954 1.1340001
-0.11412346 0.11441152 1.1348572
-0.10874349 0.11073878 1.138
-0.3628611 0.12824406 1.1340001
-0.356628 0.12878233 1.13
-0.12195397 0.12641883 1.131
-0.11858143 0.12375869 1.1348
-0.36129478 0.13105056 1.1353334
-0.35481015 0.13420294 1.1356
-0.34654176 0.1361572 1.1320001
-0.13274486 0.1396793 1.13
-0.12394291 0.13451354 1.1345
-0.35017398 0.14166583 1.138
-0.34462255 0.14331254 1.1368001
-0.33548507 0.14612906 1.1317145
-0.32988089 0.14958563 1.13
-0.13269168 0.14473894 1.1324
-0.12758656 0.14353749 1.137
-0.33365437 0.15429012 1.1366668
-0.32635278 0.15573588 1.1315
-0.31898391 0.15949197 1.13
-0.13222063 0.15011513 1.1340001
-0.3240644 0.16352709 1.136
-0.31539351 0.16514255 1.1321537
-0.3063671 0.16812305 1.1317778
-0.14166057 0.16939829 1.13
-0.13515131 0.16888019 1.1315
-0.31283349 0.17202279 1.138
-0.30350888 0.1750195 1.1356
-0.29574025 0.17509723 1.1326667
-0.28629303 0.17930464 1.13
-0.1448565 0.17584044 1.1317778
-0.13796604 0.17321004 1.1345714
-0.29316562 0.18313943 1.138
-0.28420737 0.18477772 1.1342354
-0.27604577 0.1867189 1.1322222
-0.26747102 0.18921097 1.13
-0.16111906 0.18789245 1.131
-0.15449339 0.18587559 1.1326001
-0.14772065 0.18291359 1.136
-0.2803387 0.19055051 1.138
-0.27435285 0.1925458 1.138
-0.2642802 0.19419871 1.1351429
-0.25542828 0.19602126 1.1329089
-0.24738306 0.19879819 1.131
-0.23676136 0.1991173 1.13
-0.161828 0.19578801 1.1336666
-0.15556319 0.19246119 1.1375
-0.2537348 0.20185719 1.138
-0.24377342 0.20376587 1.1358181
-0.23541096 0.20300689 1.1340002
-0.2248051 0.20345736 1.133
-0.21493992 0.20501202 1.133077
-0.20625861 0.20626125 1.1324999
-0.19814771 0.20807157 1.132
-0.18425781 0.20902362 1.13
-0.16237469 0.20554394 1.1320001
-0.15862583 0.20451756 1.138
-0.20302111 0.21224934 1.138
-0.19428484 0.21488026 1.1340001
-0.18533109 0.21447273 1.1348572
-0.17517664 0.21407105 1.1337501
-0.16605411 0.21253528 1.132
-0.19254582 0.22047991 1.138
-0.28255811 -0.082454592 1.1470001
-0.27631024 -0.084423222 1.143
-0.2825979 -0.076753832 1.1479093
-0.27577344 -0.077080444 1.1446364
-0.12792583 -0.061444689 1.149
-0.30117971 -0.053386368 1.149
-0.29177836 -0.052714843 1.149
-0.28405577 -0.05137179 1.149
-0.27438581 -0.052580535 1.149
-0.26491725 -0.052379079 1.149
-0.25484437 -0.052379079 1.149
-0.24880064 -0.05137179 1.149
-0.17138322 -0.053386364 1.149
-0.16626558 -0.053487863 1.1463335
-0.12502001 -0.054818984 1.1465385
-0.30353007 -0.041970417 1.149
-0.29399171 -0.043687634 1.1482002
-0.28434083 -0.045152955 1.1468184
-0.27459124 -0.045072876 1.1463848
-0.26515707 -0.045433078 1.1467144
-0.25568628 -0.044986147 1.1445003
-0.24591008 -0.04489303 1.1473706
-0.23872773 -0.041298889 1.149
-0.21334401 -0.041701805 1.149
-0.20649445 -0.042306177 1.149
-0.18386392 -0.042409003 1.1478573
-0.1753139 -0.045484468 1.1447897
-0.16709827 -0.046346601 1.1434617
-0.12303183 -0.045195967 1.1456667
-0.11986752 -0.045328051 1.149
-0.32162416 -0.031861283 1.1476668
-0.31360751 -0.033290759 1.142
-0.30454549 -0.034941446 1.1440003
-0.29510039 -0.035590123 1.1434001
-0.2853938 -0.035775527 1.1418422
-0.27455127 -0.036348909 1.1430002
-0.26492906 -0.035001248 1.143667
-0.2553913 -0.035056673 1.1424403
-0.24521649 -0.035197608 1.1447145
-0.23536339 -0.034172006 1.1480478
-0.22472423 -0.034421828 1.1472224
-0.21461007 -0.034971561 1.1469262
-0.20492598 -0.034866236 1.1488097
-0.19477183 -0.034777366 1.1464002
-0.18726696 -0.035919517 1.1433333
-0.12393235 -0.034777731 1.1450001
-0.11830061 -0.034359779 1.149
-0.10878732 -0.032233283 1.149
-0.33219767 -0.023064807 1.1436667
-0.32563275 -0.027119951 1.1456155
-0.24254124 -0.027691269 1.1416668
-0.23533936 -0.025415368 1.143609
-0.22598472 -0.025517857 1.1433638
-0.21546298 -0.027060302 1.1431334
-0.20492296 -0.026368866 1.1421113
-0.19719337 -0.02702781 1.1418
-0.13103624 -0.021005809 1.141
-0.12548234 -0.025097527 1.1451602
-0.11724856 -0.027599743 1.149
-0.10526181 -0.02744865 1.149
-0.34212631 -0.012658191 1.1458
-0.33611718 -0.01624551 1.1438
-0.23306446 -0.019005256 1.141
-0.22806308 -0.019005256 1.141
-0.13190128 -0.014264463 1.142
-0.12703076 -0.015815284 1.1455001
-0.34309492 -0.00900249 1.141
-0.33909377 -0.00900249 1.141
-0.13173907 -0.0058667785 1.1421429
-0.12953749 -0.0066481144 1.149
-0.36156279 0.0078295097 1.1450001
-0.36343718 0.014965061 1.1468825
-0.35709876 0.015004151 1.141
-0.36373544 0.025511978 1.1478237
-0.3577247 0.022046413 1.1430001
-0.36321968 0.034135886 1.1482729
-0.35759878 0.035764199 1.1436666
-0.35658932 0.044811793 1.1472223
-0.35825947 0.052714843 1.149
-0.38176292 0.077561326 1.149
-0.37774971 0.075767025 1.1468183
-0.37445641 0.085317247 1.1474764
-0.36772957 0.086869426 1.1442001
-0.37540105 0.095374465 1.149
-0.36761254 0.09599828 1.1482729
-0.093918696 0.097737297 1.1446002
-0.089648813 0.09770713 1.149
-0.37840524 0.10240781 1.149
-0.36393872 0.10483073 1.1485556
-0.347096 0.10202822 1.141
-0.10227232 0.10713781 1.1421429
-0.097509749 0.10483807 1.1467144
-0.11169755 0.11836607 1.141
-0.10485397 0.11569798 1.1446002
-0.099721707 0.11382377 1.149
-0.11306092 0.12542337 1.143
-0.10739035 0.1241487 1.1466668
-0.36418575 0.13588807 1.1482
-0.35684919 0.13853408 1.1423334
-0.12103347 0.13903846 1.141
-0.11683828 0.1347091 1.1450001
-0.36161712 0.1410206 1.149
-0.3556827 0.14485669 1.1468463
-0.34662157 0.14775287 1.1434
-0.12366842 0.14572616 1.1435455
-0.11912643 0.14362429 1.1483334
-0.35355878 0.15008621 1.149
-0.3441 0.15295839 1.1460001
-0.33787873 0.15674596 1.1436667
-0.13296229 0.15411536 1.149
-0.12616022 0.1520893 1.1472224
-0.33313692 0.16460906 1.1442729
-0.32561329 0.1674784 1.1416668
-0.3313984 0.17023201 1.149
-0.32428646 0.17194676 1.1470001
-0.31454393 0.17501791 1.1434
-0.30816147 0.17967722 1.1450001
-0.13446203 0.17703164 1.1424999
-0.12948805 0.17766964 1.1450001
-0.30392477 0.18326037 1.1470001
-0.2950961 0.18638021 1.1430001
-0.14319278 0.18633126 1.1422307
-0.13714561 0.18382196 1.1467144
-0.29110682 0.19239239 1.149
-0.28457263 0.19473909 1.1458572
-0.27482364 0.19694595 1.1413332
-0.26757401 0.19855493 1.141
-0.15332048 0.19699888 1.1417273
-0.14595897 0.19475661 1.1454706
-0.1387623 0.1910502 1.1470001
-0.2810339 0.2004507 1.149
-0.27452433 0.20358078 1.1462001
-0.26514307 0.20423584 1.1432223
-0.25601533 0.20606259 1.143154
-0.24592713 0.20839922 1.1414999
-0.2346212 0.20858245 1.1425
-0.22637148 0.20890503 1.1432858
-0.21906058 0.20905782 1.141
-0.1542422 0.20488217 1.1450002
-0.1474001 0.20112224 1.149
-0.26390997 0.21052361 1.149
-0.25439671 0.21276204 1.149
-0.24520834 0.21506365 1.1463335
-0.23524491 0.21486357 1.1458001
-0.22548389 0.21511464 1.1468949
-0.21571641 0.2146042 1.1456668
-0.20624313 0.21666615 1.1431334
-0.19905506 0.21806031 1.141
-0.18305063 0.21906058 1.141
-0.17804924 0.21906058 1.141
-0.16377899 0.21785004 1.1421429
-0.15772812 0.21399084 1.146
-0.24074231 0.22059651 1.149
-0.23570585 0.22059651 1.149
-0.2216038 0.22059651 1.149
-0.2132097 0.22126804 1.149
-0.20406696 0.22439107 1.1478001
-0.1958196 0.22517942 1.1447501
-0.18513176 0.22497353 1.1446002
-0.17483616 0.22492106 1.1446193
-0.16648398 0.22377205 1.1463335
-0.19138509 0.23066941 1.149
-0.18433407 0.23066941 1.149
-0.17627575 0.23066942 1.149
-0.27796909 -0.091982499 1.153
-0.28537664 -0.085342042 1.1543332
-0.27999067 -0.087939307 1.153
-0.29009864 -0.074798957 1.153
-0.28661576 -0.074265063 1.1534444
-0.2789644 -0.072523423 1.1543332
-0.29161221 -0.063393965 1.1570001
-0.28510377 -0.066098772 1.1569997
-0.27487621 -0.061872505 1.1570001
-0.26574749 -0.061872505 1.1570001
-0.25314113 -0.062741913 1.1570002
-0.24471758 -0.064036354 1.1569998
-0.17507011 -0.063085154 1.1559999
-0.30088046 -0.052224491 1.153
-0.29398265 -0.055520084 1.1536316
-0.28486514 -0.056908913 1.1545554
-0.27584654 -0.05757346 1.1549999
-0.26528591 -0.057717543 1.1549999
-0.25528759 -0.057746414 1.1555713
-0.24452113 -0.055657562 1.1542856
-0.21351084 -0.052236624 1.1570001
-0.20644026 -0.052928753 1.1566
-0.19981776 -0.05172947 1.1570001
-0.18257459 -0.053758074 1.1570001
-0.17623076 -0.056457724 1.1545554
-0.12174305 -0.056827463 1.1533999
-0.11599497 -0.054653328 1.1559331
-0.30305928 -0.046971723 1.1533636
-0.29504028 -0.04818131 1.153
-0.24225426 -0.048855171 1.153
-0.23496205 -0.045748726 1.1558145
-0.22465104 -0.045319613 1.1560475
-0.21531263 -0.046187963 1.1536666
-0.20522955 -0.045799695 1.1542172
-0.19576067 -0.04543836 1.1559998
-0.18585037 -0.047191951 1.1544999
-0.11446929 -0.045352012 1.1538333
-0.10569422 -0.042582769 1.1565001
-0.33053049 -0.031334698 1.153
-0.32711816 -0.032570798 1.1537999
-0.31031457 -0.03942107 1.153
-0.23450482 -0.038747203 1.153
-0.22540765 -0.03942107 1.153
-0.20317014 -0.03942107 1.153
-0.19811615 -0.03942107 1.153
-0.11411361 -0.036122683 1.153
-0.1039015 -0.035692945 1.1545651
-0.097937107 -0.03478818 1.1556667
-0.1202848 -0.02122673 1.153
-0.114124 -0.023728326 1.1532353
-0.1041318 -0.024635393 1.1532105
-0.097289838 -0.024831146 1.1559999
-0.3434644 -0.017198447 1.1539999
-0.12305062 -0.015000165 1.1548181
-0.11480069 -0.017980831 1.1569999
-0.1036971 -0.016323827 1.1558888
-0.095451362 -0.014577323 1.1567498
-0.13039277 -0.0010107966 1.153
-0.12763609 -0.0050623119 1.1554999
-0.094465449 -0.0035838718 1.1569998
-0.13084513 0.0010143033 1.1570001
-0.0923016 0.0010143033 1.1570001
-0.37096238 0.019205136 1.153
-0.36894077 0.01819434 1.153
-0.3712993 0.02594378 1.153
-0.36894074 0.023248322 1.153
-0.37192762 0.036485989 1.156
-0.36772785 0.03618652 1.153
-0.37123504 0.04530555 1.1570001
-0.36472487 0.045225523 1.1544735
-0.37022072 0.05172947 1.1570001
-0.36451975 0.052652016 1.155
-0.38359731 0.076820545 1.153
-0.38208115 0.082885325 1.153
-0.37431085 0.10426072 1.1545999
-0.36793 0.10613365 1.153
-0.092749231 0.10550912 1.155
-0.088950105 0.10006887 1.153
-0.37022075 0.11258767 1.1570001
-0.36602074 0.11236525 1.1547143
-0.10006887 0.11826321 1.153
-0.096780926 0.11350378 1.1560001
-0.10187042 0.122449 1.1543332
-0.37096238 0.13847914 1.153
-0.36792997 0.13746835 1.153
-0.1130453 0.13441861 1.1547778
-0.37123501 0.14403106 1.1570001
-0.36544421 0.14454326 1.1542307
-0.35883281 0.14858711 1.153
-0.11716563 0.14519314 1.1535714
-0.36179331 0.15252203 1.156
-0.3553215 0.15482031 1.1551175
-0.34676841 0.1575297 1.1543332
-0.13219239 0.15770234 1.1545999
-0.12379713 0.1548323 1.1543334
-0.11786038 0.15225904 1.1539999
-0.34210253 0.16379084 1.1556667
-0.33760607 0.16779225 1.153
-0.33300015 0.17556585 1.1561112
-0.32574618 0.17644969 1.1553999
-0.31950554 0.17851739 1.1570001
-0.31238234 0.18337967 1.1556667
-0.30527902 0.18755056 1.1543332
-0.13307503 0.18622606 1.1540666
-0.12814032 0.18696992 1.1570001
-0.30200201 0.19255194 1.156
-0.29531604 0.19576082 1.1551538
-0.28706625 0.19912694 1.153
-0.14268598 0.19834642 1.1543332
-0.13486803 0.19397388 1.1567142
-0.29110506 0.20286067 1.1570001
-0.28545544 0.2058949 1.1557366
-0.2762363 0.20836852 1.153
-0.15145673 0.20880301 1.1543334
-0.14582413 0.20521641 1.1557692
-0.28163823 0.2126656 1.1570001
-0.27446958 0.21400382 1.156
-0.26568246 0.21497419 1.1535714
-0.25657389 0.21715282 1.153
-0.23753722 0.21934287 1.153
-0.21732128 0.21934287 1.153
-0.15471518 0.21526742 1.155
-0.26428235 0.22100542 1.1570001
-0.25445515 0.22369671 1.1555455
-0.24497263 0.22444554 1.1556666
-0.23409982 0.22469978 1.1552856
-0.22509588 0.22521323 1.1554443
-0.21532844 0.22491366 1.1545999
-0.206809 0.22783358 1.153
-0.16284978 0.22617126 1.1537999
-0.15741989 0.2233496 1.1569999
-0.2130037 0.23024686 1.1570001
-0.20582603 0.23218624 1.1565557
-0.19535401 0.23463042 1.1545999
-0.18529755 0.23567364 1.1549999
-0.17484047 0.23503521 1.1545999
-0.16616797 0.23263703 1.1565557
-0.15924563 0.23024686 1.1570001
-0.27567747 -0.080961041 1.169
-0.29211146 -0.07022889 1.161
-0.27552181 -0.073954567 1.1671818
-0.26506755 -0.073244736 1.169
-0.25500131 -0.074316323 1.1672859
-0.24528982 -0.07399369 1.1662729
-0.23541471 -0.071797736 1.1681111
-0.22853561 -0.070712812 1.169
-0.21470048 -0.070712812 1.169
-0.20701432 -0.070712812 1.169
-0.1924618 -0.072352529 1.169
-0.18650885 -0.072465509 1.1671818
-0.29312927 -0.066157654 1.161
-0.28396899 -0.062086411 1.161
-0.27575591 -0.065503575 1.1619999
-0.26509333 -0.066081949 1.1638236
-0.25573599 -0.066179007 1.1613637
-0.24320123 -0.067677788 1.162143
-0.23458819 -0.064142898 1.1652858
-0.2245108 -0.064708807 1.1685003
-0.21467766 -0.064407974 1.1660911
-0.20556721 -0.063850269 1.1660911
-0.1953283 -0.064162433 1.1681306
-0.18474233 -0.064413682 1.1631666
-0.23523386 -0.054991364 1.1615999
-0.22536294 -0.055069216 1.1631998
-0.21548493 -0.05597955 1.1610001
-0.20365453 -0.056534719 1.1610001
-0.19463579 -0.05503099 1.1623999
-0.1864628 -0.055572428 1.1610001
-0.11094129 -0.053943932 1.161
-0.1050142 -0.053290404 1.1654214
-0.097762652 -0.051777691 1.1656667
-0.23918535 -0.049872689 1.161
-0.22697163 -0.049872689 1.161
-0.19236609 -0.049872689 1.161
-0.11094129 -0.049872689 1.161
-0.10436467 -0.046427801 1.1610001
-0.094650842 -0.045286771 1.1620909
-0.088418409 -0.043950804 1.166
-0.095395461 -0.0375489 1.1645555
-0.09770976 -0.02748087 1.161
-0.12179793 -0.011874449 1.161
-0.11486713 -0.01308613 1.1610001
-0.10657924 -0.012359121 1.1610001
-0.095674142 -0.01323153 1.161
-0.12367246 -0.0048424872 1.1635
-0.11547498 -0.0051048999 1.1656402
-0.10489417 -0.0050904523 1.1616399
-0.096110351 -0.0074154725 1.1610001
-0.12572995 0.0044691078 1.1660525
-0.11460433 0.0039703138 1.1684999
-0.10505535 0.0051018144 1.1634003
-0.095118977 0.0055516902 1.1609998
-0.088854551 0.0091918502 1.1650001
-0.11273056 0.013322704 1.169
-0.10493093 0.014884525 1.1671821
-0.095112905 0.015344999 1.1666002
-0.089037605 0.015355518 1.1674001
-0.10227738 0.023161005 1.169
-0.094968155 0.02486047 1.1687895
-0.08915963 0.0263038 1.169
-0.091209278 0.031769522 1.169
-0.08915963 0.031769522 1.169
-0.37353626 0.047837071 1.161
-0.36946502 0.04885488 1.161
-0.37482321 0.050044518 1.1650001
-0.36946502 0.051908311 1.161
-0.37557188 0.10890567 1.161
-0.09058509 0.10788786 1.161
-0.08706931 0.10644557 1.1630001
-0.37575573 0.11216111 1.1615715
-0.093366325 0.11607745 1.1640002
-0.088629074 0.11401244 1.1674001
-0.1037123 0.12785891 1.1636667
-0.096765377 0.12281332 1.1650001
-0.11190842 0.13800223 1.1626002
-0.10603404 0.13379556 1.16725
-0.38089266 0.14654973 1.169
-0.37628967 0.14566496 1.164
-0.36844721 0.14961807 1.161
-0.11505836 0.14481142 1.1644286
-0.10863127 0.1404008 1.169
-0.38020945 0.15167385 1.169
-0.37376308 0.15430352 1.1656153
-0.36562616 0.15620372 1.1622308
-0.35318008 0.15979616 1.161
-0.12417282 0.15826945 1.161
-0.11908377 0.15776055 1.161
-0.37303567 0.16089725 1.169
-0.36518747 0.16462365 1.16725
-0.35508797 0.16554289 1.1656002
-0.34635431 0.16553789 1.1620001
-0.13095121 0.16369295 1.1670001
-0.12459338 0.16293241 1.1675454
-0.11949405 0.16034672 1.1650001
-0.36176264 0.1711455 1.169
-0.35868818 0.17217033 1.169
-0.34459487 0.17485566 1.16725
-0.33825219 0.17608112 1.161
-0.34194937 0.18207695 1.169
-0.33508712 0.18518858 1.1664002
-0.32532194 0.18521526 1.1653811
-0.31723478 0.1855547 1.1635455
-0.32223374 0.19369161 1.169
-0.31500107 0.1953429 1.1666002
-0.30624059 0.19575904 1.1626002
-0.13455448 0.19806583 1.161
-0.31333971 0.20291503 1.169
-0.3045516 0.20439771 1.16575
-0.29637587 0.20561592 1.1632501
-0.14248525 0.20740043 1.1621429
-0.13708939 0.20299481 1.1646364
-0.3027328 0.21131857 1.169
-0.29345569 0.21404283 1.1663333
-0.28505781 0.21646199 1.1631819
-0.27723932 0.21816568 1.1618
-0.15136765 0.21751216 1.1632859
-0.14553401 0.21371412 1.1646924
-0.13835114 0.21008877 1.169
-0.29104984 0.22033702 1.169
-0.28475448 0.22267945 1.169
-0.2751717 0.22433972 1.166846
-0.26482171 0.22692065 1.1633334
-0.25547031 0.228193 1.161
-0.24783674 0.22849834 1.161
-0.23816754 0.22798944 1.161
-0.15327193 0.2259465 1.1638888
-0.14791617 0.22102022 1.169
-0.26645404 0.23161006 1.169
-0.2541967 0.23294832 1.168
-0.2445384 0.23369455 1.1656153
-0.23408753 0.23392139 1.1643335
-0.22521155 0.23444903 1.1635264
-0.21567369 0.23503795 1.1625003
-0.20663208 0.23687971 1.163
-0.19745514 0.23918535 1.161
-0.17506331 0.23918535 1.161
-0.1646577 0.23666884 1.1613637
-0.15547772 0.23441131 1.1625556
-0.22238667 0.24083348 1.169
-0.21320596 0.24130139 1.1684285
-0.20385902 0.24205984 1.1672223
-0.1947706 0.2448272 1.1652225
-0.18494107 0.24421063 1.1655334
-0.1749475 0.24422269 1.1682727
-0.16415037 0.24256563 1.1674615
-0.15730117 0.24192522 1.1676668
-0.27231839 -0.083001621 1.1736668
-0.26465189 -0.083899319 1.1746472
-0.2546615 -0.083860688 1.1747144
-0.2450954 -0.083967924 1.1752002
