# .PCD v0.7 - Point Cloud Data file format
VERSION 0.7
FIELDS x y z
SIZE 4 4 4
TYPE F F F
COUNT 1 1 1
WIDTH 1466
HEIGHT 1
VIEWPOINT 0 0 0 1 0 0 0
POINTS 1466
DATA ascii
-0.096651934 -0.073983394 1.1044116
-0.070460327 -0.074321173 1.1010001
-0.067900896 -0.074692443 1.1065
-0.24251288 -0.061842401 1.108
-0.23533455 -0.062032696 1.1071817
-0.22826646 -0.061194841 1.108
-0.14084527 -0.061194841 1.108
-0.13501717 -0.061518621 1.1079999
-0.12478123 -0.063200064 1.1067998
-0.11519712 -0.064861305 1.1041999
-0.10568953 -0.0656 1.1019999
-0.096842736 -0.067242958 1.101
-0.072252914 -0.064366549 1.1034615
-0.068318047 -0.06669914 1.1079999
-0.2622636 -0.051481374 1.108
-0.25469288 -0.05386328 1.1063333
-0.24568515 -0.055979945 1.1046498
-0.23479332 -0.057853643 1.1029166
-0.22507605 -0.055085696 1.1037998
-0.21546789 -0.054422621 1.1048635
-0.20486549 -0.053011499 1.1047331
-0.19400615 -0.053560879 1.1053998
-0.18591148 -0.053173337 1.1058462
-0.17473449 -0.052560642 1.1079999
-0.16519889 -0.054163624 1.1051998
-0.15526642 -0.053323377 1.1029998
-0.144246 -0.05486691 1.1043333
-0.13511752 -0.055557728 1.1033041
-0.12432003 -0.057145257 1.101923
-0.11528897 -0.05801985 1.101
-0.074076898 -0.056465462 1.1052727
-0.26427492 -0.044675659 1.1078333
-0.25588468 -0.046054803 1.1038823
-0.24998939 -0.048260503 1.1010001
-0.22392872 -0.04922571 1.1010001
-0.21500053 -0.048501808 1.101
-0.20631364 -0.048501804 1.101
-0.19442086 -0.047846835 1.101
-0.18450361 -0.047592275 1.101
-0.17495598 -0.047366358 1.1026
-0.16517271 -0.047330584 1.1017998
-0.15588142 -0.047777895 1.101
-0.14960755 -0.048260503 1.1010001
-0.074591182 -0.043592248 1.105
-0.27197707 -0.03278295 1.1079999
-0.26516664 -0.035589967 1.1063844
-0.25738612 -0.035943236 1.1014444
-0.071375743 -0.035789039 1.1032
-0.067548625 -0.031351645 1.1059999
-0.27294841 -0.02428367 1.1079999
-0.26512483 -0.024730604 1.1044543
-0.2585384 -0.02219983 1.101
-0.066599488 -0.027991092 1.1010001
-0.27186912 -0.01500191 1.1079999
-0.26593465 -0.014557051 1.1070998
-0.25771108 -0.014478152 1.101
-0.061883904 -0.015471414 1.103
-0.27100572 -0.0087421201 1.108
-0.26331034 -0.0058235717 1.1071427
-0.25625786 -0.0041831615 1.1016666
-0.24998939 -0.00096520997 1.1010001
-0.26129225 0.0042091687 1.108
-0.25538307 0.0048487298 1.1061738
-0.24612854 0.0041021425 1.101
-0.29140401 0.018455587 1.108
-0.28357801 0.016450299 1.104
-0.27493781 0.012567485 1.1029999
-0.2653189 0.012730327 1.1051427
-0.25625846 0.011588949 1.1016666
-0.24998939 0.01061731 1.1010001
-0.29290518 0.0249901 1.1079999
-0.28518361 0.024719704 1.1027141
-0.27894568 0.029921509 1.1010001
-0.29043266 0.033025786 1.108
-0.28499955 0.034898914 1.1057498
-0.27788877 0.036499314 1.1014
-0.043434449 0.03957361 1.1010001
-0.28201434 0.043710601 1.108
-0.27603897 0.044877443 1.1036153
-0.043005846 0.046300184 1.1049
-0.038494725 0.046691943 1.1069999
-0.27444327 0.053077053 1.1075
-0.26446012 0.056962144 1.1043333
-0.25598794 0.05699493 1.1018889
-0.043836948 0.054738082 1.1051251
-0.27294841 0.068965614 1.108
-0.2642681 0.065265156 1.1078498
-0.25529292 0.065167695 1.1049544
-0.24950679 0.063703865 1.1010001
-0.05115613 0.068529911 1.1010001
-0.046182044 0.065545484 1.1041428
-0.28368473 0.076683789 1.10725
-0.27531338 0.0739334 1.1043683
-0.26540202 0.071910821 1.1035556
-0.25447586 0.071189128 1.1023334
-0.24902418 0.071425542 1.1010001
-0.054095421 0.075378418 1.1032666
-0.048985943 0.072268017 1.1065
-0.28244603 0.084075451 1.1079999
-0.27670127 0.085483372 1.1046363
-0.072942302 0.088937208 1.101
-0.063703865 0.087282553 1.101
-0.058069527 0.08299382 1.1040001
-0.27407482 0.093658008 1.1064444
-0.26508433 0.09767469 1.103111
-0.074416809 0.094939664 1.1038998
-0.065492302 0.094253704 1.1058332
-0.059091717 0.091059364 1.105
-0.27100572 0.10102005 1.108
-0.26463521 0.10471399 1.1072499
-0.25700334 0.10647441 1.1021
-0.07517796 0.10453797 1.1041666
-0.26129225 0.11170486 1.108
-0.25368279 0.11291891 1.1062857
-0.24630708 0.11651576 1.1033635
-0.074503735 0.11563146 1.10375
-0.24299359 0.12173963 1.1065
-0.23636353 0.12545696 1.1056427
-0.22502863 0.12789397 1.108
-0.21427661 0.12837292 1.1010001
-0.081560239 0.12789032 1.1010001
-0.075498194 0.12548669 1.1029999
-0.23215185 0.1311318 1.108
-0.22114325 0.13242693 1.108
-0.21282516 0.13425332 1.1043333
-0.20567061 0.1366159 1.1023636
-0.19883326 0.13995545 1.1010001
-0.11138524 0.13686678 1.1010001
-0.1052079 0.13757078 1.101
-0.094803549 0.13679023 1.1022776
-0.085588127 0.13341224 1.1048419
-0.078679077 0.13210315 1.108
-0.20450518 0.14288647 1.1068749
-0.19406337 0.14478661 1.1038462
-0.18495108 0.14696221 1.1016666
-0.17624733 0.14922146 1.1010001
-0.11099915 0.14188586 1.1010001
-0.10531493 0.14541039 1.1030908
-0.095894344 0.14347444 1.106235
-0.19135529 0.15055872 1.108
-0.1847638 0.15370867 1.1070623
-0.17494154 0.15560724 1.1024781
-0.16523476 0.15613422 1.101
-0.15546478 0.15814574 1.1025383
-0.14690496 0.15848748 1.1010001
-0.11164262 0.15861617 1.1010001
-0.10649941 0.15438154 1.1049047
-0.17146285 0.16177568 1.105
-0.16455999 0.1628163 1.1067998
-0.15527669 0.16276994 1.1079999
-0.14428364 0.16384941 1.1059091
-0.13540563 0.16756497 1.1038461
-0.12428188 0.16780853 1.1032499
-0.11518142 0.16551937 1.1040798
-0.10732453 0.16373686 1.1062499
-0.13307449 0.17192836 1.108
-0.12627506 0.17192836 1.108
-0.21287483 -0.13047168 1.1190001
-0.20959346 -0.13160519 1.1120001
-0.22188872 -0.12023045 1.115
-0.21561641 -0.12453921 1.1139473
-0.20959346 -0.12575608 1.1120001
-0.22300199 -0.11355174 1.1147
-0.21558762 -0.11531868 1.1144826
-0.20792262 -0.11734153 1.1123334
-0.22366571 -0.10888989 1.1190001
-0.10575072 -0.092801653 1.1190001
-0.066752024 -0.091501497 1.1143335
-0.12262375 -0.081422172 1.1190001
-0.1139887 -0.083321787 1.118143
-0.10476374 -0.084593005 1.1149091
-0.063517123 -0.084720053 1.1146924
-0.056161679 -0.082157917 1.1190001
-0.24295853 -0.071612269 1.1190001
-0.23641859 -0.072593264 1.1190001
-0.22170375 -0.073574252 1.1190001
-0.21463028 -0.07440035 1.1190001
-0.20796989 -0.073574252 1.1190001
-0.16522194 -0.072427377 1.1181111
-0.15513757 -0.073358133 1.1176668
-0.14860465 -0.072180934 1.1176667
-0.13170193 -0.072877586 1.1183335
-0.12437346 -0.075392097 1.1155
-0.11575317 -0.076051071 1.1137222
-0.10574366 -0.078157961 1.1124285
-0.06343209 -0.075145416 1.1131999
-0.054906912 -0.075500704 1.1184666
-0.044253543 -0.074228242 1.1190001
-0.2629053 -0.061802369 1.1190001
-0.25413278 -0.064195529 1.1159232
-0.24555011 -0.066056974 1.1140527
-0.23475967 -0.067266434 1.1138824
-0.22536163 -0.065468714 1.1145217
-0.21518642 -0.065622896 1.114862
-0.20493254 -0.065262675 1.1163598
-0.19484483 -0.063645117 1.1168667
-0.18514109 -0.063675515 1.1174003
-0.17503026 -0.064147606 1.1175883
-0.16511227 -0.065461375 1.1144398
-0.15540355 -0.06548474 1.1148798
-0.14576466 -0.06563925 1.1146666
-0.13506979 -0.066399515 1.1137778
-0.12597272 -0.067914784 1.1120001
-0.064380504 -0.064895809 1.1136316
-0.054914046 -0.065702148 1.1185998
-0.043787826 -0.066172235 1.119
-0.036787126 -0.064990588 1.1190001
-0.27402526 -0.052257519 1.1176667
-0.26476192 -0.055595078 1.1149377
-0.25617763 -0.058842886 1.1125001
-0.22129171 -0.059466053 1.1120001
-0.2134929 -0.058686174 1.1120001
-0.20513491 -0.058355462 1.1125003
-0.19624677 -0.058133345 1.1126001
-0.18385918 -0.057429146 1.1128002
-0.1753632 -0.057573635 1.1130714
-0.1641003 -0.059141103 1.1120001
-0.15500167 -0.058491208 1.1120002
-0.1468779 -0.058816154 1.1120001
-0.072584368 -0.053358316 1.1124287
-0.066244371 -0.055718672 1.1167499
-0.055916429 -0.059186392 1.1190001
-0.046106528 -0.059840389 1.1190001
-0.038258608 -0.057878409 1.1190001
-0.28485596 -0.042779088 1.1174445
-0.27436018 -0.045948729 1.1129999
-0.26710981 -0.048742667 1.1120001
-0.07282076 -0.045897566 1.1139287
-0.068669304 -0.044144548 1.1190002
-0.29135403 -0.03531564 1.1190001
-0.28541523 -0.034423981 1.1158571
-0.27666336 -0.035582148 1.1120001
-0.071164295 -0.038019281 1.1120001
-0.067222916 -0.035692282 1.115375
-0.28438523 -0.024962353 1.1166667
-0.27880806 -0.024371333 1.1120002
-0.28331134 -0.014508435 1.1168183
-0.27732968 -0.014764131 1.1122146
-0.2821981 -0.0081749167 1.1190001
-0.27445462 -0.0047900234 1.1144761
-0.26724908 -0.0034816188 1.1120001
-0.28053772 0.0087973503 1.115
-0.27335671 0.0052806893 1.1160001
-0.26576129 0.0049901926 1.1123531
-0.29522121 0.017077029 1.1132501
-0.28611946 0.013647946 1.1120001
-0.26808468 0.01169824 1.1120001
-0.30163601 0.025380377 1.1135001
-0.29786199 0.023662347 1.1120002
-0.30306435 0.034261711 1.1166
-0.29563484 0.034882795 1.112
-0.28855658 0.039968986 1.1120001
-0.3014591 0.04082666 1.1176667
-0.29478589 0.044073246 1.1171335
-0.28571025 0.045900077 1.1139288
-0.27880806 0.048742667 1.1120001
-0.034918159 0.04779464 1.1126001
-0.28383029 0.052625816 1.1185555
-0.27406833 0.057394221 1.1125387
-0.041550316 0.057158489 1.1126001
-0.035824951 0.056026921 1.1146249
-0.28173262 0.06921459 1.1120001
-0.27412507 0.065475382 1.1131428
-0.26808468 0.065315172 1.1120001
-0.041523319 0.065462016 1.1144999
-0.035886001 0.064780347 1.1184669
-0.2917009 0.075938039 1.1153334
-0.28664458 0.074076332 1.1131819
-0.27978289 0.071164295 1.1120001
-0.051667225 0.078963116 1.1120001
-0.044489745 0.07556729 1.1159599
-0.038258608 0.071612269 1.1190001
-0.29247105 0.084620722 1.1164545
-0.28687942 0.085421085 1.1123002
-0.053709466 0.085611984 1.11605
-0.046084173 0.082121529 1.1185
-0.29135403 0.091232069 1.1190001
-0.28487438 0.094721526 1.1150526
-0.27761659 0.096293844 1.1120001
-0.063365467 0.098460175 1.1120001
-0.057556596 0.094568342 1.1162728
-0.2821981 0.10169596 1.1190001
-0.27480292 0.10462481 1.1141176
-0.26743475 0.10755882 1.1120001
-0.072116747 0.10487057 1.1133332
-0.06585253 0.10437669 1.1153911
-0.059186395 0.10169596 1.1190001
-0.27247238 0.11173379 1.118
-0.26484773 0.11433054 1.1158125
-0.25558674 0.11754154 1.1136
-0.072222814 0.11393462 1.1150001
-0.068996303 0.11150587 1.1190001
-0.25393596 0.1232963 1.1176668
-0.24515146 0.12652491 1.114091
-0.23415975 0.1288756 1.1120001
-0.22519113 0.12835568 1.1120001
-0.071612269 0.12066177 1.1190001
-0.24428564 0.13348404 1.1168334
-0.23527931 0.13533238 1.1136191
-0.22609892 0.13582803 1.1139565
-0.2173923 0.13794176 1.1120001
-0.083188757 0.13832584 1.1131251
-0.075541496 0.13573001 1.1157058
-0.24034254 0.14028157 1.1190001
-0.23268193 0.1424858 1.1183333
-0.22476022 0.14456156 1.1156667
-0.21510932 0.14551222 1.1133845
-0.2057782 0.14651406 1.1124617
-0.19789521 0.14837268 1.1120001
-0.093371429 0.14737993 1.1133333
-0.085743867 0.14448766 1.1167059
-0.076377086 0.14140269 1.1190001
-0.21106188 0.15234508 1.1163334
-0.20387942 0.15303509 1.1154166
-0.19476771 0.15570769 1.1138636
-0.18742433 0.15814058 1.1135
-0.10172472 0.15600863 1.1136001
-0.095998585 0.15330921 1.1174167
-0.089270093 0.15107246 1.1190001
-0.19327986 0.16133296 1.1153334
-0.18474436 0.16128474 1.115
-0.1647951 0.16714947 1.1176001
-0.1540385 0.16663447 1.1144444
-0.14649276 0.16797636 1.114
-0.10357109 0.1656346 1.1160715
-0.15009147 0.17167325 1.1190001
-0.14417335 0.17350394 1.1152308
-0.13540728 0.17641787 1.1137367
-0.12448224 0.17640841 1.1148125
-0.11457052 0.17528309 1.1150999
-0.10802726 0.1735125 1.1182001
-0.13428476 0.18299358 1.118077
-0.1269401 0.18226793 1.1190001
-0.11673781 0.18148315 1.1190001
-0.21514042 -0.13236906 1.1240001
-0.21618074 -0.11154531 1.126
-0.22570635 -0.10686892 1.1242858
-0.21884888 -0.1094251 1.1245
-0.22309062 -0.091802776 1.126
-0.19446395 -0.091802776 1.126
-0.14552879 -0.09486492 1.1299998
-0.13571674 -0.094110176 1.1299996
-0.11306528 -0.092543557 1.1253999
-0.10866459 -0.0948627 1.1248
-0.064791076 -0.093733631 1.1255
-0.23570392 -0.083467044 1.126
-0.22359984 -0.085960679 1.1256843
-0.21459182 -0.085415192 1.124846
-0.20420876 -0.084980682 1.12585
-0.19446395 -0.085880034 1.1259999
-0.18508627 -0.0834122 1.1260002
-0.17387532 -0.082495585 1.126
-0.16423321 -0.084275953 1.1260002
-0.15465049 -0.085498475 1.1254781
-0.14518988 -0.08571551 1.1259999
-0.13558474 -0.0843703 1.1260002
-0.12597983 -0.085303284 1.1248751
-0.11622384 -0.088265032 1.1243638
-0.10927913 -0.089589193 1.123
-0.060764104 -0.089012645 1.1240001
-0.054474145 -0.086028002 1.1246876
-0.044408076 -0.084871076 1.1257
-0.26158857 -0.07206025 1.126
-0.25401747 -0.072505809 1.12525
-0.24550869 -0.075305834 1.1246876
-0.2344659 -0.077031076 1.1244284
-0.22613576 -0.076190688 1.1235294
-0.21626109 -0.079416059 1.123
-0.20432034 -0.076678574 1.1239543
-0.19459569 -0.075530104 1.1251427
-0.18480423 -0.075374164 1.1259998
-0.17475192 -0.076115526 1.1251248
-0.16472436 -0.077931091 1.1232144
-0.15479931 -0.078302987 1.1235001
-0.14452939 -0.07614553 1.1241738
-0.13585846 -0.076723613 1.124263
-0.12896906 -0.079744227 1.123
-0.044021066 -0.079181656 1.123
-0.037681986 -0.075119808 1.1237501
-0.27145982 -0.062188983 1.126
-0.26529506 -0.064953737 1.1244999
-0.25629732 -0.067930266 1.123
-0.20182182 -0.069899261 1.123
-0.19537783 -0.068825267 1.123
-0.18325701 -0.068492837 1.123
-0.17589672 -0.069242932 1.123
-0.14078303 -0.069899261 1.123
-0.13881403 -0.069899261 1.123
-0.045146205 -0.061179437 1.123
-0.034457382 -0.064115345 1.123
-0.2821458 -0.051568452 1.1240001
-0.27516624 -0.055596568 1.1238571
-0.2687676 -0.058085304 1.123
-0.062055372 -0.052205674 1.1236001
-0.053945728 -0.053858973 1.1241738
-0.044368416 -0.054225162 1.1246798
-0.034342501 -0.054058965 1.1246248
-0.028575825 -0.054851864 1.1240001
-0.29470375 -0.041536469 1.1242858
-0.2850118 -0.047748089 1.123
-0.063850701 -0.044622444 1.1248751
-0.0543884 -0.045978535 1.128
-0.044640057 -0.047491755 1.126
-0.035426877 -0.045078788 1.126
-0.028626673 -0.043433573 1.126
-0.2953639 -0.034350667 1.1238
-0.064762585 -0.037805665 1.125
-0.040472195 -0.03849794 1.126
-0.035040714 -0.035556607 1.128
-0.028626675 -0.034549434 1.126
-0.2933211 -0.024998564 1.1247647
-0.28845751 -0.022643423 1.123
-0.030600926 -0.02665242 1.126
-0.29366231 -0.014797838 1.1253333
-0.28812936 -0.014111119 1.123
-0.29150197 -0.0073975325 1.12525
-0.28551629 -0.0042702425 1.1243333
-0.29317662 0.0088841403 1.126
-0.28442672 0.0049274662 1.1242632
-0.27795625 0.0042661522 1.123
-0.2923131 0.012416231 1.1242
-0.28785831 0.010843929 1.1245
-0.307861 0.036448076 1.1237501
-0.30425602 0.04528556 1.1248463
-0.29633349 0.048240338 1.123
-0.30170292 0.051896036 1.1254001
-0.29471135 0.054213688 1.1243198
-0.28648853 0.056335084 1.123
-0.29317662 0.061969619 1.126
-0.28503132 0.064132787 1.1240798
-0.032844607 0.067005388 1.1240001
-0.028626673 0.066137485 1.126
-0.29229254 0.071962938 1.1245
-0.28922811 0.070085995 1.126
-0.040364362 0.079744227 1.123
-0.036309198 0.07492169 1.1245002
-0.30107364 0.085880019 1.126
-0.29738739 0.08839532 1.1245
-0.050209329 0.089589193 1.123
-0.045251142 0.086472653 1.1243638
-0.29340136 0.095170826 1.1243334
-0.053647488 0.094199076 1.1242858
-0.29120237 0.10167404 1.126
-0.2851136 0.10495811 1.1246365
-0.27861255 0.10927913 1.123
-0.060906064 0.10781965 1.1242001
-0.057175763 0.1025231 1.1245
-0.28133109 0.11154531 1.126
-0.27491742 0.11537232 1.1248001
-0.26811126 0.11846777 1.123
-0.070085995 0.11746807 1.126
-0.065376177 0.1135081 1.1242501
-0.27145982 0.12141658 1.126
-0.26532292 0.12526548 1.1250868
-0.25636294 0.12739387 1.123
-0.26257569 0.13128784 1.126
-0.25463009 0.13360098 1.1246876
-0.24809682 0.13768591 1.1245
-0.24408522 0.14226845 1.1253999
-0.23665632 0.14507766 1.1243638
-0.082369559 0.14800267 1.123
-0.076872796 0.14586279 1.1242001
-0.22277486 0.1517396 1.1254001
-0.21401274 0.15484302 1.125
-0.20561574 0.15798877 1.124
-0.093801484 0.15706603 1.1236668
-0.086030185 0.15347716 1.1242858
-0.079957262 0.1520175 1.126
-0.20405318 0.16174777 1.126
-0.19313318 0.16488726 1.124
-0.18617208 0.16721925 1.126
-0.17305101 0.16791901 1.1254001
-0.10140315 0.16834892 1.123
-0.097228371 0.16234192 1.1253333
-0.17077291 0.17077291 1.126
-0.16411443 0.17271464 1.1257859
-0.15495062 0.17438631 1.1244284
-0.14813505 0.17769623 1.1240001
-0.10510504 0.17589001 1.1240002
-0.14434785 0.18327801 1.1252002
-0.13497898 0.18761981 1.1238573
-0.1250039 0.18486381 1.1243638
-0.11465643 0.18282095 1.1236001
-0.10872297 0.18212733 1.1253999
-0.13424923 0.19051544 1.126
-0.21609028 -0.1115369 1.138
-0.15130974 -0.11140388 1.138
-0.14419968 -0.11213794 1.1370001
-0.13445853 -0.11197312 1.1376365
-0.12470584 -0.11173642 1.1380001
-0.11830266 -0.11034954 1.1340001
-0.23194972 -0.10203522 1.13
-0.22405654 -0.10328266 1.1318179
-0.21638599 -0.10350663 1.1374668
-0.20376933 -0.10151055 1.138
-0.19402426 -0.10310854 1.1367694
-0.18508817 -0.10391876 1.136435
-0.17775117 -0.10271246 1.1375
-0.16297917 -0.102939 1.1380001
-0.15431137 -0.10453477 1.1356003
-0.1444377 -0.10447589 1.1319999
-0.13471721 -0.10408264 1.1314813
-0.12440966 -0.10416364 1.1332309
-0.11564308 -0.10359481 1.1335
-0.1099603 -0.1010446 1.13
-0.064527929 -0.10125991 1.1323999
-0.057163049 -0.10090521 1.1340001
-0.23411366 -0.093563981 1.1305997
-0.22522773 -0.095171191 1.1302104
-0.21510522 -0.095012382 1.1317143
-0.20541705 -0.094404578 1.1314999
-0.19522856 -0.095293753 1.1304209
-0.18545656 -0.094219558 1.1312797
-0.17549625 -0.094757035 1.1351429
-0.1647824 -0.094422817 1.1336799
-0.15530428 -0.094477437 1.1306314
-0.12571153 -0.094535738 1.1312799
-0.11649998 -0.095691673 1.1302857
-0.1099603 -0.0980727 1.13
-0.063130356 -0.096271545 1.13
-0.054510605 -0.094155133 1.1305215
-0.046559766 -0.092489131 1.13
-0.2433048 -0.083239511 1.1317779
-0.23402499 -0.086046003 1.1303334
-0.2288363 -0.086185098 1.13
-0.20506109 -0.088166364 1.13
-0.18450545 -0.087423384 1.13
-0.1757993 -0.086489908 1.13
-0.16791235 -0.087671041 1.13
-0.13373549 -0.088166364 1.13
-0.12283853 -0.088166364 1.13
-0.034879681 -0.083263859 1.1330589
-0.0281673 -0.081188105 1.1340001
-0.26038578 -0.076818794 1.138
-0.25587696 -0.075077146 1.1317778
-0.033821099 -0.076204412 1.1348001
-0.028931754 -0.078814089 1.138
-0.27506584 -0.061089057 1.13
-0.27638671 -0.058447365 1.13
-0.060428634 -0.043587867 1.13
-0.044454668 -0.042844895 1.13
-0.032407865 -0.042880271 1.13
-0.062289324 -0.03431233 1.1333846
-0.054703936 -0.034805704 1.1344802
-0.044757921 -0.034516413 1.1303331
-0.30251345 -0.024045916 1.1336
-0.29818064 -0.022784567 1.13
-0.064619102 -0.028830061 1.1340001
-0.051684011 -0.026338322 1.1368572
-0.0447147 -0.024835549 1.1333603
-0.034869708 -0.024702569 1.1309999
-0.30379939 -0.015051051 1.1352501
-0.29818064 -0.014859499 1.13
-0.043121263 -0.015202934 1.1372501
-0.034765512 -0.015695421 1.1360953
-0.028863959 -0.014927295 1.1353334
-0.30312607 -0.0052927737 1.1376926
-0.2954936 -0.0044306731 1.1313335
-0.032922339 -0.0089788204 1.138
-0.30095676 0.0033254887 1.138
-0.29395056 0.0043788981 1.1316471
-0.28827429 0.0049531665 1.13
-0.30029166 0.0149647 1.138
-0.29724786 0.01192968 1.1340001
-0.31435743 0.036575284 1.1362857
-0.31372365 0.044553701 1.1365715
-0.30917755 0.048712861 1.1340001
-0.31146526 0.052077156 1.138
-0.30536824 0.055793516 1.1324
-0.30309606 0.064275749 1.1366668
-0.29632875 0.066092953 1.1320001
-0.030709634 0.066372432 1.13
-0.028728366 0.064391166 1.13
-0.30228695 0.072828203 1.138
-0.29773706 0.071867965 1.1333333
-0.032103732 0.074913897 1.1326667
-0.028266655 0.073493302 1.138
-0.30214316 0.088166364 1.13
-0.04118317 0.086834706 1.132
-0.036321647 0.083585851 1.1339999
-0.3102681 0.092781141 1.138
-0.30408558 0.093654305 1.1355386
-0.29821309 0.096758574 1.132
-0.052255996 0.096764013 1.1331999
-0.04543807 0.092124961 1.133
-0.30079049 0.10225878 1.138
-0.2951223 0.10480711 1.1352308
-0.28629303 0.10896967 1.13
-0.057459891 0.10517721 1.1340001
-0.29231048 0.11140388 1.138
-0.28532377 0.11535969 1.136
-0.27836445 0.1175008 1.1326667
-0.070334964 0.11986663 1.13
-0.063411638 0.11723586 1.1322223
-0.058447365 0.11194157 1.13
-0.28193495 0.12231149 1.138
-0.27545619 0.12502417 1.1331428
-0.070334964 0.12283853 1.13
-0.064919718 0.12215108 1.136182
-0.058861151 0.12071525 1.138
-0.27203843 0.13253154 1.1366667
-0.26452717 0.13549908 1.1336666
-0.25555596 0.13852094 1.1313334
-0.26138341 0.14066818 1.138
-0.25446889 0.14233033 1.1353334
-0.24588281 0.14614326 1.1340001
-0.073953845 0.14731261 1.1308
-0.24242814 0.15130974 1.138
-0.23548813 0.15213275 1.1369091
-0.22470443 0.15639459 1.1362858
-0.21571399 0.15713236 1.1304445
-0.084232233 0.1577646 1.1304001
-0.076989055 0.15431651 1.1340001
-0.22147755 0.16062111 1.138
-0.21432339 0.16356555 1.1353334
-0.20551318 0.16657133 1.1343333
-0.19497143 0.16778474 1.1305715
-0.18496539 0.1679831 1.13
-0.17811587 0.16781329 1.13
-0.10005397 0.16939829 1.13
-0.094047263 0.16589251 1.13225
-0.085325614 0.16270058 1.1344
-0.20052698 0.17159523 1.138
-0.19514103 0.1737337 1.1356668
-0.18465394 0.17473915 1.1314735
-0.17561269 0.17561209 1.1306665
-0.16633636 0.1778637 1.13
-0.1575107 0.17930463 1.13
-0.10113129 0.17546679 1.1322222
-0.097626857 0.17373303 1.138
-0.18125084 0.18324614 1.136
-0.17469814 0.18355757 1.1340001
-0.16506776 0.18474995 1.1336001
-0.15511528 0.18458712 1.1323156
-0.14654686 0.18760841 1.1305715
-0.12360684 0.18868637 1.1316001
-0.11550912 0.18855394 1.1314546
-0.10444168 0.18544164 1.1336001
-0.09876702 0.18456462 1.138
-0.16161875 0.19055051 1.138
-0.15343806 0.19094956 1.138
-0.14359537 0.193369 1.1355
-0.13534188 0.19475789 1.1329092
-0.12563358 0.19343725 1.1348572
-0.11871995 0.19354345 1.138
-0.10375525 0.19055051 1.138
-0.09876702 0.19055051 1.138
-0.16620284 -0.13296229 1.149
-0.19188875 -0.12238573 1.149
-0.18404627 -0.12245768 1.149
-0.17403041 -0.12574728 1.1474764
-0.16519363 -0.12517892 1.1464548
-0.15506898 -0.1245905 1.1461114
-0.14549325 -0.12419893 1.1445558
-0.13570121 -0.12378871 1.1445003
-0.12881885 -0.12212697 1.1450001
-0.21110967 -0.1143375 1.1440001
-0.20498149 -0.11455506 1.1462002
-0.19504215 -0.11529347 1.1462729
-0.18537045 -0.1151728 1.1440003
-0.17531897 -0.1152132 1.1427602
-0.16527796 -0.11519705 1.1426003
-0.15579467 -0.11571062 1.1431822
-0.14558321 -0.11756727 1.1413332
-0.13520406 -0.11753249 1.1409999
-0.12663503 -0.11703236 1.1409999
-0.21280888 -0.10677954 1.1409999
-0.20545161 -0.10658136 1.1412354
-0.19632336 -0.107668 1.1414
-0.18505119 -0.10903016 1.141
-0.17347655 -0.10631511 1.1409999
-0.16633169 -0.10645802 1.1409999
-0.02316767 -0.081590489 1.149
-0.25707111 -0.079021856 1.141
-0.026284657 -0.076354451 1.146
-0.061102439 -0.025037777 1.1426001
-0.056348044 -0.024495624 1.1432225
-0.061230782 -0.01438756 1.1450001
-0.055185217 -0.015051837 1.1445203
-0.048219103 -0.014585689 1.1432222
-0.03600996 -0.011003044 1.141
-0.028007746 -0.011003044 1.141
-0.31125259 -0.00100729 1.149
-0.30712306 -0.0025041983 1.1430001
-0.061016876 -0.00900249 1.141
-0.05490987 -0.0051721875 1.1423336
-0.045152437 -0.0050142896 1.1445202
-0.035362255 -0.0046624569 1.1439569
-0.028056841 -0.0057577272 1.143
-0.31192413 0.0036933965 1.149
-0.30648413 0.0056044273 1.1435884
-0.052561205 0.0032723774 1.1475002
-0.046179675 0.0031655182 1.1487143
-0.035255145 0.0020145802 1.149
-0.029211409 0.0020145799 1.149
-0.30505711 0.012613188 1.1458889
-0.029211409 0.018131219 1.149
-0.031897519 0.022496143 1.149
-0.028440528 0.022417828 1.1450001
-0.32121068 0.038143765 1.1450001
-0.31908825 0.039010789 1.141
-0.32291147 0.045653783 1.145889
-0.31891045 0.045046814 1.1418002
-0.32020688 0.05119295 1.1450001
-0.31509706 0.055864122 1.1446668
-0.31334504 0.063794509 1.1478001
-0.30772945 0.066762194 1.1434001
-0.025006918 0.069019087 1.141
-0.30513057 0.072521664 1.1436667
-0.023975765 0.075732991 1.1450002
-0.019071883 0.075283751 1.1450001
-0.032396633 0.08784347 1.143
-0.027491389 0.084659554 1.1473335
-0.31062752 0.097200416 1.1430001
-0.30748504 0.097426943 1.141
-0.043933418 0.097393721 1.1433334
-0.035601083 0.095143929 1.1472002
-0.029211409 0.09166339 1.149
-0.31089142 0.10363281 1.1476668
-0.30516475 0.10563935 1.1459233
-0.29708216 0.10903016 1.141
-0.05294336 0.10639182 1.1466668
-0.046431653 0.10393698 1.1478573
-0.039284311 0.10173629 1.149
-0.30150172 0.11235097 1.1476668
-0.29511574 0.11577819 1.1453078
-0.28907996 0.11803265 1.141
-0.057015769 0.11503182 1.141
-0.29144052 0.12241217 1.1476668
-0.28587222 0.1258539 1.1466001
-0.064394094 0.12744395 1.1476668
-0.27551529 0.13474366 1.1470001
-0.071268618 0.13551074 1.1450001
-0.067604735 0.13510066 1.1472223
-0.27096102 0.1410206 1.149
-0.26516908 0.14404248 1.149
-0.25574207 0.14642526 1.1440001
-0.24994205 0.14956371 1.1450001
-0.069261052 0.14153345 1.1450001
-0.25397986 0.15340854 1.1487334
-0.24603739 0.15529308 1.1462309
-0.23559058 0.15798169 1.1460001
-0.22893186 0.1587465 1.1436667
-0.073186181 0.15807731 1.1436666
-0.25081521 0.16015911 1.149
-0.24448368 0.1607347 1.149
-0.23413365 0.16347027 1.1482002
-0.22547494 0.16518842 1.1441582
-0.21738614 0.16815655 1.1427143
-0.083380423 0.16801776 1.1425
-0.076399744 0.16486742 1.1467144
-0.22583441 0.17144075 1.149
-0.21496439 0.17384388 1.1462309
-0.20549355 0.17471829 1.1422634
-0.19595224 0.17892532 1.1423334
-0.18905228 0.17904952 1.141
-0.093020461 0.1759332 1.1431818
-0.086031891 0.17449808 1.1466473
-0.077561334 0.17073566 1.149
-0.20447989 0.18151364 1.149
-0.19463994 0.18402898 1.1452858
-0.18624346 0.18544228 1.1434001
-0.17683005 0.18857361 1.1432858
-0.093792818 0.18457603 1.1463335
-0.088842981 0.18191656 1.149
-0.1903778 0.1903778 1.149
-0.18332678 0.19138509 1.149
-0.17372318 0.19317643 1.1476667
-0.16529714 0.19439982 1.1447145
-0.15541168 0.19596359 1.1447335
-0.14565864 0.1980387 1.1441112
-0.13303679 0.19905506 1.141
-0.12429944 0.19868287 1.1421429
-0.11475573 0.19629668 1.1428461
-0.10527451 0.19551216 1.1436669
-0.096415214 0.1943437 1.1456667
-0.16015911 0.2004507 1.149
-0.15008621 0.2004507 1.149
-0.14119156 0.20424493 1.1476668
-0.13525224 0.20432588 1.1460001
-0.12610587 0.20428292 1.1471335
-0.1156145 0.20201761 1.149
-0.10576545 0.2004507 1.149
-0.099721707 0.2004507 1.149
-0.17141727 -0.14098816 1.1570001
-0.16837436 -0.14098816 1.1570001
-0.19390267 -0.13205646 1.1565001
-0.18536878 -0.13402149 1.1560473
-0.17498845 -0.13513848 1.1537999
-0.16601971 -0.13438128 1.1540909
-0.15734734 -0.13106664 1.153
-0.20511109 -0.12299751 1.1563333
-0.19599456 -0.12568846 1.1534705
-0.18522948 -0.12672912 1.1536154
-0.17891102 -0.12837118 1.153
-0.16071667 -0.12837118 1.153
-0.15869507 -0.12837118 1.153
-0.20620251 -0.11826321 1.153
-0.023454102 -0.074039839 1.1540909
-0.018839391 -0.074748978 1.1554
-0.031334698 -0.068734169 1.153
-0.025585737 -0.069166593 1.1559999
-0.044437997 0.0074539781 1.1544545
-0.035434697 0.007089369 1.1548666
-0.029313102 0.0070755766 1.153
-0.044905975 0.012632687 1.1569999
-0.034294527 0.014849135 1.1565293
-0.027893342 0.013185943 1.1570001
-0.033472009 0.02130037 1.1570001
-0.32850891 0.04548585 1.153
-0.31612667 0.067976072 1.153
-0.31303778 0.072523415 1.1543334
-0.01819434 0.077831343 1.153
-0.02307632 0.085835479 1.1545999
-0.01859556 0.08418718 1.1570001
-0.032399848 0.098217353 1.155
-0.028028494 0.094220333 1.1556667
-0.31132537 0.10815524 1.153
-0.30829298 0.10815524 1.153
-0.042839486 0.10693258 1.1543334
-0.035816509 0.10373742 1.1563333
-0.31186715 0.11036795 1.155
-0.30559203 0.11546314 1.1545384
-0.054434281 0.11461627 1.1570001
-0.048010647 0.11121762 1.1554
-0.30225691 0.12183581 1.1562001
-0.29590148 0.12585197 1.1545999
-0.29353938 0.13165656 1.1570001
-0.28344551 0.1336748 1.156111
-0.27594748 0.13780527 1.153
-0.065777756 0.13661768 1.1543332
-0.27463922 0.14475271 1.1559998
-0.26757231 0.14685431 1.153
-0.068855152 0.14378735 1.155
-0.27149519 0.1518074 1.1570001
-0.26440099 0.15352115 1.1555454
-0.25804195 0.15638468 1.153
-0.071766563 0.15364109 1.153
-0.069744967 0.15869507 1.153
-0.26067597 0.16127422 1.1570001
-0.25412771 0.16379203 1.1556665
-0.24469188 0.16616756 1.1543332
-0.23759267 0.16674748 1.1545
-0.072624996 0.16608994 1.1538
-0.069744967 0.16678146 1.153
-0.24140419 0.17141727 1.1570001
-0.23302092 0.17257214 1.1556667
-0.22495574 0.17669202 1.1549999
-0.21782669 0.17840563 1.153
-0.081943788 0.17856079 1.1539999
-0.077694386 0.17507005 1.1543334
-0.22111812 0.18156029 1.1570001
-0.21411063 0.18202728 1.1556667
-0.20493908 0.18590665 1.155
-0.19845308 0.18834512 1.153
-0.091982499 0.18800819 1.153
-0.086271696 0.18413398 1.1547778
-0.20184636 0.19170333 1.1570001
-0.19542404 0.19339658 1.156
-0.18613957 0.195087 1.1549999
-0.17557728 0.19736549 1.1560001
-0.16779225 0.19912694 1.153
-0.095177948 0.19845805 1.155
-0.16480398 0.20228995 1.1556667
-0.15497239 0.20298724 1.1554
-0.14546253 0.20718351 1.1559089
-0.13568696 0.20959786 1.155
-0.12393223 0.2089684 1.1547143
-0.11442996 0.20719378 1.1551331
-0.10474528 0.20521086 1.1548461
-0.098274045 0.20364237 1.1556667
-0.14200246 0.21198939 1.1570001
-0.13476452 0.21278384 1.1558001
-0.1275813 0.21263725 1.155
-0.1740455 -0.14147559 1.161
-0.19440171 -0.13638654 1.161
-0.18625923 -0.13943997 1.161
-0.20636098 -0.1269718 1.1610001
-0.015117969 -0.072387233 1.1630001
-0.024962448 -0.065969557 1.1642728
-0.015627334 -0.066610381 1.1664286
-0.0092234099 -0.068663165 1.169
-0.025445249 0.0091602895 1.161
-0.04427474 0.017557222 1.1610001
-0.038167875 0.016030507 1.1610001
-0.026971966 0.012722625 1.161
-0.043447774 0.022236649 1.1634001
-0.037342668 0.023673154 1.1638
-0.016736193 0.085142985 1.1621429
-0.02383076 0.095460355 1.1630001
-0.01872531 0.093286097 1.165
-0.034077104 0.1074467 1.1623335
-0.027792484 0.10383885 1.1664546
-0.31214797 0.11684448 1.1623335
-0.053909026 0.1170099 1.1642728
-0.044724908 0.11480627 1.1632859
-0.036625523 0.11312419 1.166
-0.31239283 0.1249589 1.1683334
-0.30604038 0.12574731 1.1630001
-0.057390105 0.12195398 1.169
-0.31052145 0.13015257 1.169
-0.30368423 0.13359457 1.1672223
-0.29450765 0.13588355 1.1641428
-0.28677899 0.13766967 1.1632222
-0.27989775 0.13943997 1.161
-0.064342953 0.13889906 1.1650001
-0.30027324 0.1404008 1.169
-0.29319263 0.14300942 1.1689999
-0.28460088 0.14511345 1.1656666
-0.27826923 0.14676818 1.161
-0.07022889 0.14758244 1.161
-0.066485323 0.14490862 1.1667778
-0.28336364 0.15116143 1.169
-0.2756668 0.15562703 1.1653334
-0.26712501 0.1570145 1.163
-0.07022889 0.15470712 1.161
-0.068240263 0.15379241 1.1618
-0.2650778 0.16489519 1.1682727
-0.25682738 0.16726011 1.161
-0.24936345 0.16997427 1.161
-0.071239516 0.16390914 1.1642001
-0.068428218 0.16238935 1.1650001
-0.25369138 0.17301877 1.1677999
-0.24438696 0.17596178 1.1650001
-0.23613122 0.17638727 1.1630001
-0.07307297 0.17574942 1.1642001
-0.24288313 0.18139373 1.169
-0.23313634 0.18237524 1.1674
-0.22513223 0.18481068 1.1646668
-0.21554898 0.18715887 1.1642728
-0.20763324 0.18829484 1.161
-0.083177902 0.18685521 1.1635455
-0.076669209 0.1841055 1.1660908
-0.21384646 0.19266677 1.169
-0.20510422 0.19439733 1.163
-0.19508027 0.19813369 1.1610001
-0.18218799 0.19847295 1.161
-0.17811675 0.19847295 1.161
-0.091917619 0.19609894 1.1650001
-0.087590985 0.19257008 1.1663334
-0.20291501 0.2018902 1.169
-0.19494428 0.20293999 1.1664544
-0.18431173 0.20338337 1.1650002
-0.17509273 0.20479208 1.1652666
-0.16487384 0.20723917 1.1645001
-0.15585993 0.20781296 1.1620001
-0.14758246 0.20559762 1.161
-0.101781 0.20865105 1.161
-0.094681107 0.20506713 1.1645
-0.16602138 0.21008877 1.169
-0.15423159 0.21270475 1.1672858
-0.14543916 0.21459326 1.1633999
-0.13555528 0.2181129 1.1626002
-0.12495096 0.21609855 1.1631539
-0.11502963 0.21501477 1.1637499
-0.10510321 0.21429713 1.1639999
-0.096179165 0.21397181 1.1663334
-0.14245044 0.22102022 1.169
-0.13425186 0.22238664 1.169
-0.12491886 0.2206592 1.1680001
-0.11682986 0.22033702 1.169
-0.10624001 0.22033702 1.169
-0.098383039 0.22033702 1.169
-0.16199836 -0.14136162 1.177
-0.16303019 -0.13620244 1.177
-0.15993468 -0.13723427 1.177
-0.023177752 -0.06231916 1.1750001
-0.015451251 -0.062215276 1.1750001
-0.0072148871 -0.063630931 1.1759092
-0.013413876 -0.05881469 1.177
-0.042231664 0.026783921 1.1750001
-0.038177956 0.027859589 1.177
-0.01647841 0.097513974 1.1750001
-0.023905434 0.10580987 1.1743335
-0.018779429 0.1029773 1.177
-0.040241629 0.11866122 1.177
-0.031986937 0.11453387 1.177
-0.028272325 0.11205746 1.177
-0.31726742 0.12601236 1.1750001
-0.053939834 0.12333852 1.1756667
-0.046432652 0.12072489 1.177
-0.31518885 0.1317028 1.1736668
-0.30747485 0.13688534 1.1740001
-0.062454317 0.13726731 1.1743335
-0.30301633 0.14326398 1.1756668
-0.29576519 0.14698389 1.1745001
-0.28896073 0.14910784 1.1730001
-0.063483819 0.14481306 1.1743335
-0.29200977 0.15167999 1.177
-0.28545442 0.15414834 1.1738001
-0.27867743 0.15939115 1.1730001
-0.2732386 0.16398105 1.1737275
-0.26685163 0.16916029 1.1730001
-0.27137303 0.17025305 1.177
-0.26372275 0.17473495 1.1744287
-0.25582564 0.17767255 1.1730002
-0.24885586 0.17995775 1.1730001
-0.26208651 0.18057142 1.177
-0.25413296 0.18376884 1.1760001
-0.24514261 0.18446159 1.1746002
-0.23609546 0.18644719 1.1750001
-0.22931759 0.1881844 1.1730001
-0.073883884 0.1866674 1.1738001
-0.23147535 0.19226556 1.177
-0.22465222 0.19361188 1.1751333
-0.21596289 0.19692302 1.1740001
-0.20875099 0.19846769 1.1730001
-0.084612794 0.19600455 1.1746668
-0.077512458 0.19314149 1.1750001
-0.21511461 0.20204936 1.1765556
-0.20629387 0.20361248 1.1754
-0.19426562 0.20764267 1.1740001
-0.18612772 0.20875101 1.1730001
-0.17995775 0.20875099 1.1730001
-0.091521367 0.20772266 1.1730001
-0.088070668 0.20447302 1.1750001
-0.19295345 0.21152651 1.177
-0.18446338 0.21228878 1.1755002
-0.17480674 0.21298748 1.1745386
-0.16523398 0.2143095 1.1743335
-0.1556599 0.21762189 1.1744547
-0.14936209 0.21837941 1.1750001
-0.092601717 0.21572985 1.1736668
-0.089769788 0.21462204 1.177
-0.15236789 0.22253279 1.177
-0.14512284 0.22456986 1.1755456
-0.13475576 0.22631009 1.1734002
-0.12521534 0.22510083 1.1746002
-0.11401463 0.22347474 1.1747143
-0.10435852 0.22328962 1.1752857
-0.096651629 0.22277872 1.1754
-0.13517061 0.23009959 1.177
-0.12897958 0.23009957 1.177
-0.1675082 -0.14258866 1.1843334
-0.16461959 -0.13935721 1.1810001
-0.15840752 -0.13977134 1.1810001
-0.025883583 -0.061775487 1.1810001
-0.011388777 -0.061085258 1.1810001
-0.0051767165 -0.061085258 1.1810001
-0.023907574 -0.056471657 1.1856668
-0.015860919 -0.055076595 1.1855216
-0.0058055436 -0.05628762 1.1852353
-0.040515151 0.032204349 1.1850001
-0.02174221 0.10871105 1.1810001
-0.014818917 0.1049616 1.182647
-0.033624545 0.11856332 1.1863333
-0.024586117 0.11462504 1.1850001
-0.016996328 0.11275443 1.1872222
-0.32349789 0.127363 1.1850001
-0.31992108 0.12734723 1.1810001
-0.061085258 0.12941791 1.1810001
-0.054552142 0.12745261 1.1841112
-0.047440816 0.12293291 1.1850001
-0.32050407 0.13736139 1.187
-0.31701845 0.13601162 1.1843333
-0.061758097 0.13338441 1.1840001
-0.056900635 0.1339304 1.1873335
-0.32000348 0.1417605 1.189
-0.3147884 0.14489822 1.188
-0.3067233 0.14661482 1.1840001
-0.061085258 0.14391272 1.1810001
-0.30341595 0.15414962 1.1874616
-0.29539159 0.15576069 1.1839334
-0.28831288 0.15764046 1.1830001
-0.29373613 0.16302457 1.189
-0.28442508 0.1649662 1.18625
-0.277439 0.16757102 1.1823335
-0.28039393 0.17198884 1.189
-0.27462882 0.17476244 1.1866001
-0.26860803 0.17838237 1.1830001
-0.071438693 0.1791144 1.1810001
-0.27205509 0.1803277 1.189
-0.26471183 0.18397988 1.1856667
-0.2567327 0.18669581 1.1818001
-0.24330568 0.18946783 1.1810001
-0.071438693 0.18532646 1.1810001
-0.068678074 0.18522477 1.187
-0.25336877 0.19132847 1.1874001
-0.24467726 0.19470493 1.1876667
-0.23569758 0.19560517 1.1843847
-0.22693393 0.19895336 1.1820002
-0.082827464 0.19982126 1.1810001
-0.07443662 0.19635479 1.1831539
-0.069373965 0.19312456 1.1882
-0.23363683 0.20236611 1.189
-0.22467555 0.20446838 1.1849999
-0.21540488 0.20812243 1.187
-0.20696609 0.2090438 1.1863333
-0.083010398 0.20615636 1.1836668
-0.076729298 0.20370679 1.1871819
-0.21993725 0.2115984 1.189
-0.20338023 0.21274976 1.1876668
-0.19523612 0.21518138 1.1846
-0.18542425 0.21773311 1.1845556
-0.17576437 0.21823566 1.1816669
-0.16772562 0.21845745 1.1810001
-0.085830875 0.21430746 1.1862308
-0.18189123 0.22254315 1.189
-0.17456417 0.22357702 1.1871819
-0.16489479 0.22413379 1.1854444
-0.15526451 0.22658135 1.1846668
-0.14736387 0.22812064 1.1810001
-0.12268818 0.22829321 1.1810001
-0.11513935 0.22832114 1.1832223
-0.10474501 0.22816303 1.1830001
-0.093269855 0.22524177 1.1831539
-0.088123754 0.22479117 1.1882
-0.15426879 0.23140317 1.189
-0.14491758 0.2331387 1.1854446
-0.13501047 0.23541103 1.1846666
-0.12573978 0.23319824 1.1854
-0.11570158 0.23244552 1.189
-0.10684156 0.23192436 1.189
-0.093812101 0.23036082 1.189
-0.026178144 -0.052351613 1.1943333
-0.011504496 -0.051247302 1.1930001
-0.0043348661 -0.051894035 1.1941429
0.00104937 -0.052468501 1.197
-0.023863966 -0.047463395 1.1965001
-0.015724665 -0.046432864 1.1958238
-0.0052468502 -0.048271023 1.1970001
0.01364181 -0.03567858 1.197
-0.011504496 0.10772392 1.1930001
-0.0094127702 0.10667805 1.1930001
-0.021963131 0.11818255 1.1930001
-0.016308131 0.11745591 1.1947144
-0.044821925 0.12538835 1.1952223
-0.034745608 0.12342571 1.1954615
-0.025440468 0.12243886 1.1955453
-0.016630491 0.12121958 1.1964285
-0.32317176 0.13909982 1.1930001
-0.053713493 0.13540904 1.1947143
-0.049320389 0.13117126 1.197
-0.31689659 0.14746673 1.1930001
-0.05761658 0.14247645 1.1950001
-0.31281087 0.15464312 1.1940908
-0.30783245 0.15722813 1.1930001
-0.067159683 0.15425739 1.197
-0.31376162 0.16265234 1.197
-0.30448702 0.1639799 1.196077
-0.29626387 0.16735002 1.1941429
-0.28970414 0.168384 1.1930001
-0.070190318 0.16656753 1.1950001
-0.29224956 0.171572 1.197
-0.28546688 0.17375481 1.1954
-0.27866429 0.17809659 1.1950001
-0.070151158 0.17554694 1.1943334
-0.067045718 0.17809483 1.1950001
-0.27447382 0.18228705 1.1950001
-0.26609465 0.18804806 1.1950001
-0.070072845 0.18093435 1.1930001
-0.066386461 0.18482852 1.1956667
-0.26190591 0.19171384 1.1950001
-0.25535876 0.19616663 1.1950002
-0.24745126 0.19934157 1.1930001
-0.070072845 0.1997599 1.1930001
-0.066912092 0.19535151 1.1952858
-0.25289816 0.20112924 1.197
-0.24318266 0.20370197 1.1956667
-0.23549536 0.20618938 1.1938889
-0.22695234 0.2081268 1.1930001
-0.072002389 0.20575491 1.1938
-0.066809893 0.20462716 1.197
-0.22458811 0.21171689 1.1947143
-0.21510857 0.214303 1.1942308
-0.20573048 0.21680681 1.1947144
-0.1997599 0.21858543 1.1930001
-0.081765331 0.21659841 1.1935713
-0.075468533 0.21395156 1.1956668
-0.068209052 0.21092337 1.197
-0.20042966 0.22141707 1.197
-0.19338368 0.22269678 1.194
-0.18568364 0.22653246 1.1947144
-0.17535643 0.22869545 1.193
-0.168384 0.22904406 1.1930001
-0.084016167 0.22493494 1.195353
-0.077653378 0.22141707 1.197
-0.17330414 0.23235202 1.1956667
-0.16417751 0.23347113 1.1949999
-0.15449311 0.23599233 1.1952223
-0.14432913 0.2379339 1.1930001
-0.13596223 0.2395027 1.1930001
-0.12393481 0.23767246 1.193
-0.11450484 0.23656978 1.1934444
-0.105253 0.23613244 1.195182
-0.095365502 0.23579499 1.1954001
-0.087773837 0.23398036 1.1955001
-0.14481306 0.24083041 1.197
-0.13518639 0.24208045 1.1954
-0.12487502 0.24135511 1.197
-0.11438133 0.24030571 1.197
-0.104937 0.24030572 1.197
-0.093393929 0.24030572 1.197
0.0031612599 -0.051633913 1.202
-0.023533825 -0.042501386 1.202
-0.014401294 -0.042501379 1.202
-0.0052704033 -0.043213006 1.2022666
0.0049022436 -0.045036502 1.2019998
0.011591286 -0.041096378 1.202
-0.02220246 -0.039118621 1.2060001
-0.014785275 -0.038370531 1.2046667
-0.0043800771 -0.038514469 1.2060002
0.0058405865 -0.036821749 1.2046666
0.012307815 -0.034457676 1.2033335
-0.01160093 0.11389916 1.2030001
-0.043906387 0.12820666 1.202
-0.033720106 0.12750416 1.202
-0.023353146 0.12702325 1.203143
-0.014767449 0.12392034 1.2030001
-0.051805738 0.13638654 1.2060001
-0.045435879 0.1313796 1.2053335
-0.034184739 0.13004299 1.2060001
-0.027488761 0.13004299 1.2060001
-0.060902029 0.14820634 1.2046667
-0.055960439 0.14507677 1.2044001
-0.32192951 0.15410222 1.204
-0.31858477 0.15560424 1.202
-0.064263925 0.15523362 1.2045715
-0.058149301 0.15118818 1.2060001
-0.31221029 0.16461571 1.2025715
-0.3066422 0.16824929 1.202
-0.066799611 0.16502868 1.2060002
-0.3118917 0.17021886 1.2060001
-0.30368066 0.17338109 1.2051113
-0.29590687 0.17599814 1.2033333
-0.28767467 0.17808431 1.202
-0.071462937 0.17566238 1.2046667
-0.066582054 0.17414942 1.2055557
-0.29391828 0.18079145 1.2060001
-0.28337505 0.18196312 1.2050002
-0.27468997 0.18729483 1.203143
-0.063646436 0.18486445 1.2050002
-0.27277309 0.19136406 1.2060001
-0.26496929 0.19626692 1.2041539
-0.063797034 0.1962183 1.2042857
-0.26325774 0.20193666 1.2060001
-0.25564441 0.20519224 1.2040001
-0.24694473 0.20688543 1.2025
-0.23920201 0.20969692 1.202
-0.063644834 0.20588429 1.2033333
-0.25162786 0.21039474 1.2060001
-0.24422705 0.21109958 1.2060001
-0.23514172 0.21374275 1.2055001
-0.22627793 0.21693166 1.2037144
-0.21285817 0.21812694 1.202
-0.071713954 0.21725467 1.2030001
-0.065374307 0.21417397 1.2045456
-0.22165814 0.22060089 1.204
-0.21427137 0.22167218 1.2060002
-0.20489374 0.22428399 1.2041818
-0.19759832 0.2275365 1.2053334
-0.081139006 0.22866447 1.202
-0.074754871 0.22396502 1.2034285
-0.068721898 0.22202459 1.2060001
-0.19315949 0.23168458 1.2040001
-0.18489985 0.23413384 1.2052002
-0.17465907 0.23776931 1.2042222
-0.16543928 0.2387805 1.202
-0.15806299 0.23920201 1.202
-0.08417622 0.23564318 1.2040001
-0.079294503 0.23153993 1.2060001
-0.16281804 0.24211253 1.2060001
-0.15445815 0.24206345 1.2040001
-0.14416277 0.24574505 1.2042222
-0.13457623 0.24672601 1.2040001
-0.1248309 0.24509437 1.2033334
-0.11505022 0.24487929 1.2040001
-0.1046141 0.24386497 1.2033334
-0.095699854 0.24276829 1.2040001
-0.088515282 0.24130951 1.202
-0.023873584 -0.034148213 1.2132223
-0.014863257 -0.033520479 1.2111429
-0.0056700846 -0.03365621 1.2124443
0.0044611814 -0.0320867 1.2120001
0.011668433 -0.030762233 1.21
-0.022798009 -0.02814129 1.219
-0.01484426 -0.026327245 1.2163078
-0.004971005 -0.024852738 1.2187825
0.0053336401 -0.024538251 1.2172
0.013287053 -0.024980031 1.2126666
0.0066256709 -0.016671045 1.219
0.012802511 -0.014936536 1.2171251
0.014604975 -0.0081930347 1.2190001
-0.011668433 0.11986663 1.21
-0.0085492535 0.11220895 1.2190001
-0.014887553 0.12761024 1.2129999
-0.051977567 0.13896044 1.21
-0.045608204 0.13668573 1.2139999
-0.035910457 0.13274246 1.21375
-0.022897989 0.13260077 1.214875
-0.016869871 0.13261932 1.2180002
-0.052084353 0.1454366 1.2125455
-0.04737711 0.14284377 1.2190001
-0.061170876 0.15734705 1.21
-0.053959846 0.15460014 1.2138095
-0.061813772 0.16441883 1.21
-0.055368513 0.16505907 1.2147
-0.31402439 0.17458069 1.21425
-0.30730098 0.17648877 1.2117144
-0.062888317 0.17457189 1.21
-0.055597708 0.175211 1.2145555
-0.3109791 0.18060298 1.2190001
-0.30321795 0.18235824 1.2136
-0.29419985 0.18604454 1.2139091
-0.28589794 0.18631174 1.2113334
-0.27898163 0.18987723 1.21
-0.06106985 0.18563417 1.21
-0.055350792 0.1851411 1.215579
-0.3018955 0.19289254 1.2190001
-0.29174328 0.19128954 1.2190001
-0.28488439 0.1930562 1.2179999
-0.27503079 0.19599432 1.2128333
-0.061372928 0.19472644 1.21
-0.055025645 0.19548327 1.2165
-0.272228 0.20390631 1.2177501
-0.26613125 0.20518072 1.2126667
-0.25882709 0.20897104 1.21
-0.0604637 0.20366719 1.21
-0.056894567 0.20500769 1.2169167
-0.26502687 0.21052536 1.2190001
-0.25419098 0.2144127 1.2154446
-0.24530151 0.21573083 1.2134
-0.23473251 0.21806332 1.21
-0.062916867 0.21725678 1.2105715
-0.058655575 0.21543032 1.2165
-0.24151641 0.22121193 1.2190001
-0.23407352 0.22340007 1.2173334
-0.2246201 0.22569315 1.2143334
-0.21548395 0.22649537 1.2119092
-0.20631911 0.22753444 1.21
-0.19836336 0.22806484 1.21
-0.073192894 0.22806484 1.21
-0.064148329 0.22523284 1.2135999
-0.058776118 0.22121193 1.2190001
-0.21334314 0.23256318 1.2180001
-0.20464374 0.23393494 1.2147501
-0.19515958 0.23640463 1.2125001
-0.18563417 0.2382482 1.21
-0.082476214 0.23822832 1.2113334
-0.075216867 0.23391202 1.2124705
-0.06695246 0.23287652 1.2171251
-0.19663283 0.24044774 1.2190001
-0.18345273 0.24258506 1.2190001
-0.17351513 0.24469295 1.2142859
-0.16554053 0.24645089 1.2143333
-0.15554747 0.24659957 1.2117144
-0.14744657 0.24857299 1.21
-0.13259584 0.24928017 1.21
-0.12517047 0.24928017 1.21
-0.11562357 0.24928017 1.21
-0.10430872 0.24892658 1.21
-0.09414304 0.24689345 1.21
-0.084425189 0.24442488 1.2140001
-0.077299498 0.2411602 1.2190001
-0.16457313 0.25113431 1.2190001
-0.1548316 0.25092828 1.2180001
-0.14425416 0.25332466 1.2158334
-0.13513887 0.25325724 1.2138
-0.12456951 0.25340182 1.2145001
-0.11532034 0.25399637 1.2167778
-0.10489365 0.25447229 1.2167778
-0.094582193 0.25283319 1.2161428
-0.087864794 0.25150338 1.2173334
-0.024949983 -0.023936763 1.2248824
-0.015184996 -0.021318655 1.2247144
-0.0096494695 -0.021443266 1.223
-0.014844246 -0.017856123 1.2270001
-0.0046035019 -0.016103489 1.2247143
0.0040756231 -0.01330254 1.2237999
-0.00107567 -0.0096810302 1.2270001
0.0065275929 -0.0075215986 1.2257693
0.013747185 -0.0045069433 1.2250001
0.01613505 0.0026891751 1.2270001
-0.0075247809 0.11674272 1.2262001
-0.0075296899 0.12155071 1.2270001
-0.041951131 0.13876143 1.2270001
-0.035949908 0.13681391 1.2240001
-0.025963884 0.13582495 1.2238001
-0.015010287 0.13402042 1.223
-0.044528801 0.14598717 1.2251538
-0.039799791 0.14091277 1.2270001
-0.050391678 0.15975234 1.223
-0.045840021 0.15470813 1.2248464
-0.050391678 0.16511315 1.223
-0.046584785 0.16408107 1.2270001
-0.31736034 0.17905128 1.223
-0.050424643 0.17487413 1.2238001
-0.048405148 0.17533422 1.2270001
-0.31503528 0.18276359 1.2252858
-0.30270743 0.18762858 1.223
-0.29913357 0.1897729 1.223
-0.050474085 0.18471716 1.2250001
-0.3021009 0.19517036 1.2246001
-0.29519755 0.19572699 1.2239411
-0.28602737 0.1980511 1.2238001
-0.050515287 0.19346017 1.2260001
-0.048405148 0.19792327 1.2270001
-0.29913357 0.20049454 1.223
-0.28417337 0.20249961 1.2258574
-0.27679905 0.20556255 1.2238001
-0.051895257 0.20555894 1.2247779
-0.27400011 0.21167672 1.2256669
-0.26482853 0.21499951 1.2250001
-0.25517488 0.21925741 1.223
-0.24981405 0.21979348 1.223
-0.056065243 0.21514496 1.224
-0.25547162 0.22212584 1.2270001
-0.24462886 0.22421335 1.2256669
-0.23633946 0.22748448 1.2240001
-0.057476021 0.22534432 1.2255001
-0.23369987 0.23154852 1.2262001
-0.22475393 0.23484221 1.2257694
-0.2159185 0.23702945 1.2243333
-0.20835705 0.23837765 1.223
-0.071834944 0.23909242 1.223
-0.064648382 0.23712185 1.2250001
-0.059097558 0.23316908 1.2256669
-0.21405832 0.24202575 1.2270001
-0.20439768 0.24253663 1.2255002
-0.19459334 0.24549942 1.225
-0.18575872 0.24628282 1.2248183
-0.17745294 0.24826059 1.2238001
-0.081484407 0.24659757 1.223
-0.074892275 0.24498935 1.2251819
-0.068305045 0.24256358 1.2270001
-0.18824224 0.25063109 1.2270001
-0.17443007 0.25250778 1.2256669
-0.16444425 0.25580168 1.2260002
-0.1552116 0.25542819 1.2247778
-0.14579929 0.25802013 1.2241429
-0.13419154 0.2587294 1.2246001
-0.12457784 0.25881392 1.2250001
-0.11293454 0.2576766 1.223
-0.10411089 0.25795829 1.2243334
-0.095422536 0.25839135 1.223
-0.084891081 0.25467807 1.2257695
-0.14091277 0.2613878 1.2270001
-0.13617982 0.26224834 1.2270001
-0.12316421 0.26192564 1.2270001
-0.11590849 0.26175901 1.2258574
-0.104706 0.26096174 1.2250001
-0.094382808 0.26164764 1.2262001
-0.089280613 0.2613878 1.2270001
-0.028081387 -0.020521013 1.2320001
-0.023392705 -0.015730906 1.2344617
-0.01522786 -0.013851333 1.2327275
-0.0072003561 -0.012600622 1.2320002
-0.014519705 -0.0093186162 1.2360001
-0.0048714615 -0.0057330499 1.2344002
0.0041404967 -0.0030604433 1.2323335
0.011880587 -0.0010800533 1.2320001
-0.0016253398 0.0027088998 1.2360001
0.0054072798 0.005412891 1.2342401
0.014853145 0.0060772728 1.2322503
0.0067180716 0.013436146 1.2360001
0.015145949 0.015150333 1.2342502
0.02058764 0.018420519 1.2360001
0.016253401 0.0216712 1.2360001
-0.0068403375 0.11916589 1.2320001
-0.0071451841 0.12279645 1.2352002
-0.035680335 0.13875763 1.2333335
-0.03878022 0.14539291 1.2337143
-0.042122081 0.1539076 1.2320001
-0.039554495 0.15281704 1.2328001
-0.041776516 0.16563836 1.2334547
-0.035757478 0.16795179 1.2360001
