# .PCD v0.7 - Point Cloud Data file format
VERSION 0.7
FIELDS x y z
SIZE 4 4 4
TYPE F F F
COUNT 1 1 1
WIDTH 1473
HEIGHT 1
VIEWPOINT 0 0 0 1 0 0 0
POINTS 1473
DATA ascii
-0.26405203 0.035092775 1.0148891
-0.25462049 0.035360839 1.0145001
-0.24529739 0.03567604 1.0175003
-0.23488992 0.035364464 1.0140437
-0.27067697 0.041986197 1.0190001
-0.26554185 0.044330753 1.0154002
-0.25481266 0.043409731 1.0105627
-0.24505588 0.043226928 1.0122858
-0.23542799 0.044518784 1.0110387
-0.22932723 0.045157101 1.01
-0.030990167 0.041615367 1.01
-0.021991821 0.045357056 1.0108184
-0.264595 0.0549163 1.0158334
-0.25943196 0.0504697 1.01
-0.23286897 0.0504697 1.01
-0.021270564 0.054949466 1.0110002
-0.017761268 0.059500244 1.013
-0.26357463 0.065042816 1.0140001
-0.10005397 0.069063798 1.01
-0.094568953 0.065905467 1.0113335
-0.087867185 0.066926807 1.0105456
-0.02219866 0.063054837 1.013
-0.016671507 0.065292194 1.0162143
-0.26283368 0.075018726 1.0163
-0.25943196 0.07349097 1.01
-0.10105304 0.076182008 1.013375
-0.095034555 0.074265033 1.0168078
-0.087146901 0.07518252 1.0126843
-0.26233926 0.082483523 1.0190001
-0.25943196 0.089428768 1.01
-0.1015329 0.084559269 1.013
-0.092682295 0.083749071 1.0190001
-0.08493337 0.085622661 1.0123479
-0.075331092 0.089517318 1.011
-0.066208899 0.086940318 1.0111539
-0.058754552 0.082186803 1.0123999
-0.2917594 0.098086901 1.0190001
-0.2845 0.096431911 1.0190002
-0.27658665 0.097647108 1.0190001
-0.26152781 0.095994413 1.0170001
-0.25774863 0.095476747 1.0115
-0.10271537 0.095167279 1.013
-0.084025584 0.0947119 1.0160002
-0.074790955 0.09547469 1.0119618
-0.067513064 0.093634225 1.0133001
-0.29033008 0.10094553 1.0190001
-0.28339782 0.10411222 1.0167145
-0.27514249 0.10497282 1.0169379
-0.26556158 0.10560025 1.0174549
-0.25678641 0.1051553 1.0142633
-0.10518204 0.10441417 1.0119568
-0.081292421 0.10094553 1.0190001
-0.076892704 0.10204758 1.0175
-0.28243423 0.11546884 1.0163
-0.27479857 0.11536693 1.0135808
-0.26520804 0.11569194 1.0151668
-0.25527024 0.11509331 1.0145603
-0.24788472 0.11762939 1.0107501
-0.11116485 0.11684109 1.0112001
-0.10675953 0.11444348 1.0144212
-0.28320563 0.12225571 1.0179092
-0.27506408 0.12394753 1.0133159
-0.26340792 0.12280595 1.0111541
-0.25521195 0.12393451 1.0127782
-0.24806912 0.1249187 1.0106001
-0.11146651 0.12520719 1.0111251
-0.1055732 0.12489605 1.0162815
-0.099158891 0.12059865 1.0190001
-0.27005717 0.13901304 1.01
-0.26828629 0.13901304 1.01
-0.24683912 0.13429071 1.0100001
-0.11202303 0.13523676 1.0123079
-0.10616152 0.13354753 1.0142002
-0.27197948 0.14553243 1.0110002
-0.26828629 0.1460965 1.01
-0.24414682 0.1457991 1.0106668
-0.23924407 0.14822154 1.01
-0.11288317 0.1447508 1.0139232
-0.10917539 0.14279146 1.018
-0.2726714 0.15451971 1.0118001
-0.26828629 0.1514091 1.01
-0.25057763 0.1567217 1.01
-0.24374051 0.15610172 1.0114212
-0.23596068 0.15573691 1.0132402
-0.2284418 0.15760714 1.01
-0.12130436 0.15760714 1.01
-0.1164647 0.1552444 1.0125265
-0.25394279 0.16610086 1.0112275
-0.24537455 0.16496384 1.0132649
-0.23548903 0.16502328 1.0175002
-0.2255291 0.16570474 1.0128126
-0.18278731 0.16699997 1.0108184
-0.17588408 0.16597137 1.0117649
-0.16388451 0.16890633 1.0105001
-0.15530461 0.16733813 1.0132308
-0.14490189 0.16666295 1.013
-0.13487297 0.16593473 1.0121667
-0.12444846 0.16492295 1.0149567
-0.11738754 0.16404565 1.0173846
-0.25329903 0.17385234 1.0108824
-0.24488147 0.17516783 1.015143
-0.23553507 0.17458184 1.0182502
-0.22483657 0.17481008 1.0175601
-0.21604501 0.17592299 1.0131766
-0.20594698 0.17757234 1.0115
-0.19439791 0.17711531 1.011
-0.18504804 0.17535841 1.0139546
-0.17499769 0.17142965 1.0177143
-0.16466707 0.1717786 1.0135001
-0.15528397 0.17105199 1.018
-0.1442717 0.17129473 1.0190001
-0.13640487 0.17178716 1.0181819
-0.25080335 0.18054381 1.0145
-0.24514745 0.18288612 1.01825
-0.23494403 0.18134463 1.0190001
-0.22300471 0.18107769 1.0175
-0.21602446 0.18121116 1.01825
-0.20456862 0.18161291 1.01675
-0.19489615 0.18205938 1.0151428
-0.18688916 0.18235137 1.0173635
-0.15141611 -0.11109821 1.0220001
-0.17331712 -0.092631474 1.0258572
-0.13428079 -0.062183719 1.028
-0.1328789 -0.055374555 1.028
-0.12887351 -0.052270375 1.028
-0.23197231 -0.043077998 1.028
-0.22528553 -0.044314612 1.027516
-0.21664619 -0.044592045 1.02755
-0.2090815 -0.040554598 1.028
-0.15500869 -0.040554598 1.028
-0.14358309 -0.042510122 1.0277272
-0.13511236 -0.045164496 1.0254412
-0.12884398 -0.043650404 1.0230001
-0.091072083 -0.042172924 1.0235001
-0.086298235 -0.042982694 1.0240625
-0.24062397 -0.031542465 1.028
-0.23372303 -0.034210604 1.0268749
-0.22528546 -0.035676908 1.0234286
-0.2153077 -0.035437498 1.0247777
-0.20545605 -0.034845401 1.0266069
-0.19507371 -0.033006627 1.0254284
-0.18497463 -0.033060562 1.0265999
-0.17560787 -0.03295866 1.028
-0.16415267 -0.034252837 1.0267367
-0.15493776 -0.03522291 1.0242221
-0.14532962 -0.035215169 1.0235598
-0.13621888 -0.036892835 1.0222503
-0.12760934 -0.035198167 1.0220002
-0.085712872 -0.038525995 1.0220001
-0.076955929 -0.035468057 1.0224288
-0.24325827 -0.024887353 1.028
-0.23658651 -0.025780616 1.0236362
-0.21168245 -0.026400134 1.0226668
-0.20505905 -0.025779219 1.0221152
-0.1966273 -0.027774556 1.0220002
-0.18348175 -0.026260052 1.0235651
-0.17493238 -0.025399029 1.0252812
-0.16498333 -0.025172444 1.0231248
-0.15576789 -0.027646562 1.0220002
-0.1490269 -0.028969159 1.0220001
-0.24452807 -0.014994663 1.0274706
-0.23791939 -0.01552145 1.0229232
-0.17650281 -0.01881502 1.0220001
-0.24511486 -0.0052895611 1.0259598
-0.23921953 -0.0080635799 1.0220001
-0.051294208 -0.0072005019 1.0265
-0.046995308 -0.0031892338 1.0255455
-0.24459766 0.0050616888 1.0251579
-0.043005757 0.00089595333 1.0220001
-0.27284235 0.017348357 1.028
-0.26475263 0.017225832 1.0278234
-0.25504333 0.018024269 1.028
-0.24415532 0.015593062 1.025
-0.27393734 0.02498227 1.0259999
-0.26559055 0.022279754 1.0235002
-0.25484285 0.022421516 1.0231252
-0.24622467 0.024869783 1.0237142
-0.27462792 0.035383668 1.0244
-0.24459524 0.031358365 1.0220001
-0.27544132 0.045502115 1.0257499
-0.26968196 0.049277432 1.0220001
-0.27395374 0.054433767 1.0262501
-0.26968196 0.054653153 1.0220001
-0.27103788 0.063261725 1.026
-0.26808661 0.063663311 1.0227501
-0.021534439 0.068193711 1.0235001
-0.01881502 0.068988405 1.0220001
-0.27126521 0.073899493 1.028
-0.26801929 0.074614346 1.0254287
-0.096583769 0.079381458 1.0220001
-0.016114568 0.07288447 1.0263636
-0.29290175 0.086350918 1.0275714
-0.28542373 0.086228304 1.0261427
-0.27820227 0.08913333 1.0270001
-0.26655146 0.085128799 1.0265
-0.10124273 0.086907476 1.0220001
-0.09581995 0.085627429 1.0232272
-0.29336184 0.09317793 1.0243077
-0.28536114 0.09198454 1.0220002
-0.27460653 0.093978442 1.0248798
-0.26709282 0.095214471 1.0246667
-0.1009391 0.0937557 1.0250001
-0.094310924 0.092734128 1.0257499
-0.08839307 0.09735892 1.0226002
-0.26609814 0.10124273 1.0220001
-0.091022544 0.10093589 1.028
-0.085347585 0.10511001 1.024739
-0.075772591 0.10630824 1.024308
-0.10323276 0.11789647 1.0240002
-0.082911626 0.11084924 1.028
-0.079973914 0.11052575 1.0250001
-0.28578845 0.12647985 1.0232
-0.10253815 0.12226841 1.0230001
-0.099450819 0.1227456 1.0220001
-0.10572249 0.1384248 1.0220001
-0.11109821 0.14872825 1.0220001
-0.1056736 0.14429562 1.0230589
-0.11201509 0.1552455 1.0244001
-0.10806604 0.15287051 1.0272501
-0.12184966 0.16933517 1.0220001
-0.11287225 0.16582482 1.0245714
-0.10883465 0.16640185 1.026
-0.23250102 0.17588362 1.0228573
-0.22757214 0.17650281 1.0220001
-0.18111539 0.17573637 1.0227501
-0.17522404 0.17657159 1.0236876
-0.16517733 0.17712848 1.025
-0.15527222 0.17398904 1.0261999
-0.14343721 0.17553128 1.0226002
-0.13432479 0.17629933 1.0240626
-0.12574454 0.17328072 1.0241177
-0.11557798 0.17310277 1.0252
-0.10904681 0.17032932 1.028
-0.24405694 0.18759914 1.0222502
-0.23641647 0.18518385 1.025409
-0.22612338 0.18507433 1.0267999
-0.21464224 0.18545932 1.0244374
-0.20577434 0.18656254 1.0250001
-0.19553535 0.18716198 1.0236667
-0.18578583 0.18596607 1.0238001
-0.14218262 0.18087956 1.0265
-0.13878685 0.18114388 1.028
-0.24355543 0.19273418 1.026125
-0.23671871 0.19075681 1.028
-0.21538998 0.19015601 1.028
-0.2090815 0.19015601 1.028
-0.19195844 0.19135763 1.028
-0.1881686 0.19117092 1.0270001
-0.18073711 -0.090820909 1.036
-0.17760521 -0.092643946 1.031
-0.17563316 -0.089058369 1.034
-0.14433265 -0.073014058 1.0362501
-0.13778394 -0.07161139 1.034
-0.18108602 -0.06096866 1.0380001
-0.1735462 -0.061488654 1.0380001
-0.16414261 -0.062453866 1.037077
-0.15463868 -0.063855611 1.0355716
-0.14453931 -0.064543985 1.0331614
-0.13632642 -0.064359188 1.0322354
-0.24175136 -0.050655555 1.0380001
-0.23424248 -0.053410981 1.0350715
-0.22452201 -0.054381896 1.0346844
-0.21519779 -0.055039212 1.0341483
-0.20782396 -0.052990995 1.0362222
-0.18199599 -0.053688817 1.0380001
-0.1751588 -0.055568662 1.0364617
-0.16482183 -0.055169843 1.0340003
-0.1547938 -0.055218492 1.0325602
-0.14461493 -0.055134431 1.031
-0.13546352 -0.05490848 1.031
-0.24179536 -0.044165667 1.0358182
-0.23536079 -0.045915246 1.031
-0.22415315 -0.049711384 1.031
-0.21240321 -0.046096012 1.031
-0.20509058 -0.045043044 1.0330335
-0.19530623 -0.04205991 1.0354167
-0.18417363 -0.043389563 1.0354002
-0.17491601 -0.045315783 1.0338002
-0.16551547 -0.045225207 1.0317001
-0.15547512 -0.045761582 1.0310938
-0.14637506 -0.046666861 1.031
-0.2502445 -0.03002934 1.0380001
-0.24390355 -0.035699721 1.034706
-0.23771082 -0.036541097 1.031
-0.2024609 -0.038865265 1.031
-0.19483794 -0.037449274 1.0318
-0.18495357 -0.037867323 1.0325001
-0.1743558 -0.037065115 1.0312001
-0.16721101 -0.03796142 1.031
-0.25187021 -0.024553329 1.0372001
-0.24760333 -0.025740689 1.0318183
-0.054491848 -0.022343779 1.036
-0.049856033 -0.020848887 1.034
-0.25255969 -0.014935371 1.0352727
-0.24855691 -0.017173024 1.031
-0.052497867 -0.016066231 1.0325
-0.048889361 -0.013807889 1.0348889
-0.25356066 -0.0057400237 1.0337778
-0.051668979 -0.009971207 1.034
-0.04629552 -0.0055791065 1.0354286
-0.28118381 0.0072798398 1.0380001
-0.27432749 0.0072504291 1.0344502
-0.26654252 0.0083142342 1.0347501
-0.25348666 0.0057135872 1.0345001
-0.24855691 0.0090384334 1.031
-0.28244302 0.015281254 1.0365456
-0.2754342 0.014353113 1.0313751
-0.26441202 0.012410094 1.0324287
-0.25529253 0.013292757 1.0328423
-0.2485569 0.015365337 1.031
-0.28257966 0.024478093 1.0342222
-0.27902934 0.024662009 1.031
-0.28320676 0.035817679 1.0357778
-0.27928758 0.035249889 1.031
-0.28241071 0.045257915 1.0325001
-0.27928758 0.042480636 1.031
-0.28166443 0.055111211 1.03475
-0.27836445 0.055168636 1.0316001
-0.27578813 0.064965323 1.0333573
-0.30344212 0.077719577 1.0357001
-0.29438874 0.075061738 1.0353705
-0.28580841 0.077297404 1.0358126
-0.27572179 0.075479716 1.034737
-0.021666316 0.074076951 1.0358572
-0.015568405 0.077498533 1.0333637
-0.30257994 0.084246248 1.0333751
-0.29627985 0.08357539 1.031
-0.28337997 0.082387924 1.0327501
-0.27436545 0.085011661 1.0320002
-0.013245265 0.082201533 1.0380001
-0.0081898198 0.085538119 1.0380001
-0.30185562 0.091553807 1.034
-0.29917213 0.091288179 1.031
-0.27205685 0.091288179 1.031
-0.10115623 0.098139323 1.0333334
-0.096208341 0.097030021 1.0326365
-0.10179888 0.10452741 1.0368
-0.095264219 0.10490565 1.0340801
-0.089740857 0.10968328 1.034
-0.073368445 0.10915048 1.03325
-0.10191776 0.11010758 1.0380001
-0.093949519 0.11273867 1.0370835
-0.085042953 0.11543632 1.0347502
-0.076596312 0.11412064 1.036643
-0.29013371 0.12744191 1.031
-0.084628142 0.12102734 1.0380001
-0.10213429 0.14913414 1.031
-0.10456727 0.15563564 1.0345501
-0.099187821 0.1546966 1.0380001
-0.10911199 0.16230869 1.0343333
-0.15538478 0.17769988 1.0337694
-0.147614 0.17779823 1.033
-0.13196112 0.17986482 1.031
-0.12509081 0.17847741 1.032125
-0.11406962 0.17822099 1.0354445
-0.10736647 0.17683856 1.0357502
-0.23183581 0.18709557 1.031
-0.22598045 0.18797956 1.032125
-0.21963392 0.18890326 1.031
-0.18285514 0.18502997 1.0336001
-0.17496157 0.18327631 1.0340835
-0.16512443 0.18361825 1.0338002
-0.15722199 0.18085341 1.0366668
-0.14392412 0.18193419 1.0325
-0.13464303 0.18318973 1.0338889
-0.12517105 0.18110882 1.0346667
-0.11738742 0.181541 1.0380001
-0.24323568 0.19621627 1.0314286
-0.23430957 0.19553067 1.032577
-0.22599238 0.19268566 1.0362222
-0.21476653 0.1931733 1.0330001
-0.20501101 0.19364792 1.0327224
-0.19558217 0.19498776 1.0339446
-0.18768667 0.1935818 1.03425
-0.24159005 0.20071809 1.036
-0.23464635 0.20114414 1.0368572
-0.18343461 -0.090348393 1.041
-0.17164169 -0.090869129 1.0470001
-0.1679702 -0.090869129 1.0470001
-0.19254303 -0.084014967 1.0465714
-0.18526508 -0.084873691 1.0452225
-0.1750803 -0.08501792 1.0456252
-0.16735831 -0.085055962 1.0470002
-0.15695576 -0.081690431 1.0470001
-0.14869493 -0.081690431 1.0470001
-0.21019223 -0.070675991 1.0470001
-0.20468502 -0.070675991 1.0470001
-0.19378531 -0.074347481 1.0470001
-0.18526405 -0.075207785 1.046167
-0.1750285 -0.075146914 1.0453002
-0.16505122 -0.075027198 1.0454574
-0.15472212 -0.075076781 1.0443003
-0.14777543 -0.077427536 1.042125
-0.25057852 -0.06149729 1.0470001
-0.24429643 -0.06216367 1.046625
-0.23478617 -0.062982433 1.0458461
-0.22490291 -0.064512342 1.0444093
-0.2150798 -0.064785078 1.0449647
-0.20489629 -0.06490548 1.0460004
-0.19528288 -0.065097034 1.0458002
-0.18530816 -0.065263845 1.0428463
-0.1752255 -0.065596312 1.0412859
-0.16567752 -0.067093275 1.0412501
-0.15751648 -0.068080701 1.041
-0.25208601 -0.054675598 1.0464
-0.2452883 -0.055304121 1.0430002
-0.23517989 -0.05823585 1.0423636
-0.22693568 -0.058711242 1.041
-0.21172552 -0.059319649 1.041
-0.20380069 -0.055572178 1.0428215
-0.1949285 -0.054908693 1.0439003
-0.18681851 -0.055266954 1.0420501
-0.2540713 -0.044674329 1.0453125
-0.24749899 -0.044988599 1.0412143
-0.20106219 -0.048438028 1.0425
-0.1955369 -0.046514511 1.0428752
-0.18723984 -0.047104426 1.0418571
-0.2549901 -0.034627691 1.0436542
-0.24914253 -0.036504399 1.041
-0.059490599 -0.03020292 1.044
-0.26228136 -0.02478249 1.0470001
-0.25674078 -0.024669576 1.0422
-0.057548787 -0.026796192 1.0419999
-0.2608434 -0.01464384 1.044
-0.25750664 -0.015021604 1.0412728
-0.04654311 -0.01003871 1.041
-0.29188263 -0.00091786997 1.0470001
-0.28541112 -0.0017322933 1.0453334
-0.27598006 -0.0013758185 1.045875
-0.26162547 -0.0038874685 1.0443749
-0.25826862 -0.00182522 1.041
-0.29277897 0.005155622 1.0456874
-0.28469649 0.0040451908 1.0422857
-0.27477425 0.0018254828 1.0413001
-0.26465091 0.0036140769 1.0426959
-0.25826862 0.0036504399 1.041
-0.29332179 0.0140665 1.045435
-0.28631067 0.013191363 1.0410001
-0.29136562 0.022554357 1.0458
-0.28695065 0.025422705 1.041
-0.28784427 0.03386914 1.044
-0.28912905 0.041304149 1.0470001
-0.31115794 0.058743678 1.0470001
-0.3028971 0.058743674 1.0470001
-0.29402435 0.059661549 1.0470001
-0.28685147 0.057683792 1.0444286
-0.3111667 0.064491987 1.046
-0.30487961 0.065186627 1.0448753
-0.29479012 0.064996861 1.0443003
-0.28503141 0.065204985 1.0435911
-0.31026635 0.072303958 1.044
-0.3049067 0.072851591 1.0416666
-0.29477301 0.07027097 1.041
-0.28476357 0.072523363 1.0416316
-0.025343383 0.075168207 1.0447999
-0.31026635 0.083286837 1.044
-0.022200355 0.084580272 1.0464
-0.01519777 0.086084276 1.0430001
-0.0073008798 0.088523172 1.041
-0.30385968 0.094269723 1.044
-0.014135197 0.091236278 1.0470001
-0.0062094298 0.093549393 1.0450001
-0.10293153 0.11503478 1.0433078
-0.095850699 0.11668977 1.0425999
-0.074125595 0.11778934 1.0415455
-0.10127735 0.12144288 1.0455
-0.093584232 0.12329195 1.0450715
-0.085002132 0.12522253 1.0426
-0.077161565 0.12273157 1.04475
-0.10221232 0.15970674 1.041
-0.098140419 0.15821883 1.0462501
-0.10518275 0.16544196 1.0441307
-0.098986626 0.16039711 1.0455
-0.15423109 0.17978416 1.041
-0.1069482 0.17415449 1.044
-0.18235369 0.1883606 1.0422857
-0.17493854 0.18834102 1.0423334
-0.16481903 0.18832421 1.0445
-0.15499616 0.18354587 1.0437
-0.145382 0.18500735 1.0430001
-0.13438319 0.1885373 1.0453635
-0.12491199 0.18696104 1.0438502
-0.11494164 0.18556091 1.044143
-0.1082733 0.18568647 1.0456667
-0.24914253 0.19986159 1.041
-0.2260385 0.19668211 1.0422001
-0.21498485 0.19855785 1.041
-0.20585875 0.19907935 1.041
-0.19666746 0.19894898 1.041
-0.18413156 0.19528343 1.044522
-0.17594489 0.19209203 1.0464001
-0.16840416 0.19128516 1.044
-0.13371906 0.19142258 1.04475
-0.12483031 0.19183482 1.0470001
-0.11840523 0.19183482 1.0470001
-0.24382304 0.20402721 1.043625
-0.23448446 0.20605206 1.044
-0.22608586 0.20188406 1.0458
-0.21355402 0.2027901 1.0455
-0.20473531 0.20393547 1.0454999
-0.19496042 0.20248108 1.043
-0.18687904 0.20217337 1.0466666
-0.23405685 0.21019223 1.0470001
-0.20307033 -0.081043594 1.0545
-0.19695368 -0.081618711 1.0508001
-0.16276114 -0.085104413 1.0500001
-0.23416039 -0.072358109 1.0566667
-0.22496699 -0.073184952 1.0547857
-0.21476981 -0.073167533 1.0514376
-0.20488578 -0.075438924 1.0522224
-0.19790749 -0.075296909 1.0500001
-0.26038489 -0.060231384 1.057
-0.25459248 -0.063048728 1.0545
-0.24507627 -0.0668438 1.0534376
-0.23576786 -0.067825437 1.0525833
-0.22736351 -0.069037497 1.0500001
-0.2163175 -0.069037497 1.0500001
-0.093590304 -0.063937932 1.057
-0.26223817 -0.050965015 1.057
-0.2567634 -0.054905631 1.0518183
-0.087103844 -0.054671563 1.057
-0.26188013 -0.044461779 1.0534285
-0.2586605 -0.046025001 1.0500001
-0.26272151 -0.035135362 1.0521818
-0.058912002 -0.031296998 1.0500001
-0.26591754 -0.024284834 1.052
-0.28633073 -0.010193003 1.057
-0.27706435 -0.010193003 1.057
-0.26607633 -0.014411523 1.053
-0.29398283 -0.0032312837 1.052875
-0.28473872 -0.0062394012 1.0536876
-0.27514115 -0.0056402981 1.0538999
-0.26723602 -0.0046100132 1.0511429
-0.30119157 0.0055492995 1.0555
-0.2973215 0.0034979 1.0500001
-0.30153421 0.014168101 1.054
-0.29806492 0.01612716 1.0510001
-0.2937403 0.025357584 1.052
-0.29235429 0.035048548 1.052
-0.30486348 0.049111743 1.057
-0.29491049 0.046808917 1.0552
-0.28995749 0.046025001 1.0500001
-0.32154292 0.052818291 1.057
-0.31484944 0.054369535 1.0546666
-0.30502814 0.053960085 1.0522499
-0.29582298 0.055130284 1.0525833
-0.28995749 0.053388998 1.0500001
-0.3102085 0.0616735 1.0500001
-0.026694499 0.077322006 1.0500001
-0.0230125 0.089288503 1.0500001
-0.021198383 0.093090892 1.0513334
-0.014283881 0.094922304 1.0512
-0.0078242496 0.097112745 1.0500001
-0.010789721 0.10143004 1.0549999
-0.00588468 0.10497771 1.0526875
-0.072719499 0.1169035 1.0500001
-0.0046287999 0.11387023 1.0560001
-0.10098761 0.12681246 1.052
-0.095990442 0.12712649 1.0508001
-0.085606493 0.12917684 1.0500001
-0.077281974 0.12655063 1.0536667
-0.10100339 0.13065577 1.057
-0.094448678 0.13195774 1.0547143
-0.08617869 0.13315223 1.0553077
-0.078764118 0.13065577 1.057
-0.10107557 0.16682208 1.0513334
-0.09667661 0.16507922 1.0543001
-0.10276601 0.17551498 1.0504001
-0.1610875 0.18870249 1.0500001
-0.15678482 0.18767942 1.052
-0.10392836 0.18505955 1.0534617
-0.18018129 0.19866143 1.054
-0.175556 0.19607684 1.054
-0.16444936 0.19314647 1.0558335
-0.13179632 0.19447213 1.0513334
-0.12381387 0.19617778 1.0532728
-0.11481166 0.19373946 1.0533335
-0.10637608 0.19367248 1.055182
-0.25201449 0.20539773 1.0530001
-0.2455482 0.208232 1.051
-0.2310455 0.208033 1.0500001
-0.22461188 0.20723781 1.0521053
-0.21598922 0.20662697 1.0518463
-0.20496468 0.20864667 1.0500001
-0.19514601 0.206192 1.0500001
-0.18388233 0.20583193 1.0555714
-0.17884088 0.20386007 1.057
-0.24478257 0.21214835 1.0536667
-0.23186804 0.21432316 1.05375
-0.22595605 0.21467224 1.0567274
-0.21467392 0.21207936 1.0564001
-0.20799881 0.21262452 1.0545001
-0.12160243 -0.10289437 1.067
-0.11475089 -0.1027055 1.0661111
-0.10830341 -0.10270326 1.0650001
-0.12021467 -0.099712946 1.0630001
-0.11394905 -0.096797474 1.0622104
-0.10570662 -0.094655663 1.0635924
-0.099712946 -0.09412156 1.0630001
-0.21620002 -0.081075013 1.0630001
-0.209085 -0.080846198 1.0600001
-0.10531256 -0.087014422 1.0650002
-0.26284835 -0.072026059 1.067
-0.25543579 -0.073365793 1.0650713
-0.24518268 -0.073651627 1.0634001
-0.23438647 -0.075790077 1.0614445
-0.22476777 -0.078082308 1.0614547
-0.21583746 -0.078595042 1.0618572
-0.209085 -0.078987665 1.0600001
-0.26301664 -0.064383775 1.0644286
-0.25639728 -0.067717426 1.0602144
-0.24997273 -0.069694996 1.0600001
-0.091793932 -0.064814523 1.0612501
-0.088780031 -0.063550442 1.066
-0.26427478 -0.054945692 1.0623077
-0.090223908 -0.056740496 1.061
-0.08552821 -0.057332862 1.0651001
-0.2668069 -0.045658752 1.0628889
-0.065067075 -0.043780856 1.0624286
-0.27033156 -0.032739114 1.067
-0.26695111 -0.036277343 1.061
-0.28903964 -0.027126696 1.067
-0.27147955 -0.024768025 1.066
-0.29383728 -0.012481821 1.0652728
-0.28498885 -0.014172903 1.0638571
-0.27493367 -0.014605048 1.0630832
-0.30178431 -0.0037375221 1.0646666
-0.29521447 -0.0073186639 1.0622858
-0.30524865 0.003922557 1.0648
-0.30437165 0.01960665 1.0650001
-0.30113816 0.024087643 1.0648
-0.2976149 0.02638182 1.0620002
-0.30026448 0.031803712 1.067
-0.29794621 0.034562234 1.0654
-0.32323912 0.04345838 1.0654707
-0.31537309 0.045741588 1.0649599
-0.30482003 0.04496678 1.0642999
-0.29747593 0.043424953 1.0615001
-0.3150214 0.051109668 1.0600001
-0.015814191 0.099525332 1.061
-0.071090654 0.10944219 1.067
-0.06736628 0.10833993 1.0623335
-0.014343685 0.10544621 1.0635237
-0.0083633997 0.10779493 1.0600001
-0.068494402 0.11431266 1.063
-0.011579716 0.11371646 1.0650001
-0.0072632716 0.11527175 1.0621002
-0.073533267 0.12659045 1.0617501
-0.010289436 0.12160243 1.067
-0.0074832267 0.12160243 1.067
-0.10129007 0.13288513 1.0600001
-0.095995054 0.13637334 1.0618126
-0.083373614 0.13704331 1.062091
-0.078281574 0.13483033 1.0648571
-0.092052191 0.14158122 1.066
-0.085783713 0.14155348 1.0652858
-0.092926666 0.16633873 1.0600001
-0.094749324 0.17551632 1.0658158
-0.086057112 0.17866203 1.067
-0.15147047 0.18864113 1.0600001
-0.14961194 0.18864113 1.0600001
-0.10129007 0.18864113 1.0600001
-0.095709793 0.18498586 1.066577
-0.17315336 0.19855331 1.0600001
-0.16494396 0.1968185 1.063
-0.15801181 0.19271272 1.064
-0.11403429 0.19873032 1.0600001
-0.10320487 0.19668271 1.0623637
-0.099031769 0.1936692 1.0642858
-0.25497806 0.2084516 1.0615001
-0.18053284 0.20672414 1.067
-0.17573063 0.20297182 1.064
-0.1674372 0.20111172 1.067
-0.12072109 0.20389514 1.0620002
-0.11495915 0.20380406 1.0642222
-0.10717877 0.20395224 1.0645385
-0.25395453 0.21193855 1.0650001
-0.22352584 0.21731767 1.062889
-0.21521163 0.21589369 1.0627275
-0.20538422 0.21526548 1.0630001
-0.19500369 0.21183239 1.0665556
-0.18608962 0.21334182 1.0633848
-0.23078293 0.22334091 1.0615001
-0.22716273 0.22290264 1.0638572
-0.12228623 -0.11099827 1.0730001
-0.11883714 -0.11068472 1.0730001
-0.12299898 -0.10703573 1.0710001
-0.11573777 -0.10684597 1.0733635
-0.10036957 -0.09192726 1.0700001
-0.096435972 -0.092669219 1.075
-0.10135538 -0.086963437 1.0705001
-0.096178122 -0.085950948 1.0761577
-0.26546344 -0.070352502 1.0700001
-0.25514507 -0.075980701 1.0700001
-0.084660582 -0.071756922 1.077
-0.076477766 -0.070812747 1.077
-0.26621383 -0.064724296 1.0700001
-0.084220164 -0.065268092 1.0724583
-0.077193365 -0.064613312 1.0764667
-0.27376223 -0.053433269 1.0731
-0.26893526 -0.057730474 1.0707501
-0.081270292 -0.055425275 1.07175
-0.075807862 -0.055049878 1.0726923
-0.068668425 -0.051736481 1.0730001
-0.27335992 -0.04533647 1.073
-0.073608853 -0.046939276 1.0742631
-0.068553232 -0.046015181 1.0712001
-0.2745876 -0.035451699 1.0755999
-0.30275592 -0.022771919 1.0758573
-0.29529575 -0.023796242 1.0724615
-0.2873069 -0.023550658 1.0745333
-0.27610171 -0.025441255 1.0748889
-0.31063193 -0.01793923 1.077
-0.30496597 -0.015173082 1.0725666
-0.29613563 -0.017026117 1.0704285
-0.28582841 -0.01924349 1.0707501
-0.27671984 -0.0196987 1.0700001
-0.30614153 -0.0056301728 1.070375
-0.3079876 0.0015633889 1.0700001
-0.30947822 0.019753929 1.0730001
-0.31063193 0.02266008 1.077
-0.30568144 0.02619268 1.0734166
-0.32410562 0.035228167 1.0733333
-0.31471503 0.035141021 1.0728147
-0.30531773 0.035342246 1.07225
-0.32362151 0.040335432 1.0700001
-0.3151792 0.040335432 1.0700001
-0.30620089 0.041139461 1.0700001
-0.06420356 0.091584489 1.077
-0.071331389 0.10671329 1.0734
-0.066772632 0.10659317 1.0728334
-0.022619754 0.10649308 1.075
-0.018948274 0.10674819 1.0700001
-0.065259196 0.11558037 1.0744287
-0.023417277 0.1129683 1.0762727
-0.016741177 0.11575377 1.0725999
-0.07089971 0.12657049 1.0726001
-0.066864237 0.12496499 1.0742308
-0.014218865 0.12507071 1.0741904
-0.007321394 0.12595613 1.0706002
-0.10162028 0.1391416 1.0700001
-0.075323515 0.13491543 1.0740714
-0.012274209 0.13123962 1.077
-0.0084870094 0.13296551 1.0756668
-0.10215919 0.14445801 1.077
-0.095172144 0.14563735 1.0734999
-0.085378401 0.14656612 1.0716875
-0.077186435 0.14439116 1.072125
-0.094416998 0.1510672 1.077
-0.084408797 0.15163369 1.0769999
-0.077736653 0.15075247 1.077
-0.088487811 0.17635028 1.0700001
-0.086638607 0.18540435 1.0723684
-0.16227977 0.19917573 1.0700001
-0.15462695 0.19567074 1.0730624
-0.14893836 0.19220889 1.0730001
-0.094154455 0.19462191 1.0714762
-0.088279888 0.19402692 1.077
-0.17366794 0.20701019 1.0743001
-0.16504873 0.20416558 1.0732143
-0.15893529 0.20173764 1.077
-0.11444007 0.20918143 1.0700001
-0.10310088 0.20445058 1.0732858
-0.094787017 0.20241822 1.0754615
-0.089224063 0.20346864 1.077
-0.22043782 0.21856177 1.0700001
-0.20264201 0.21766481 1.0708573
-0.19580325 0.21699481 1.0708572
-0.1840512 0.21666084 1.0730001
-0.17089477 0.21054991 1.077
-0.16900642 0.21054991 1.077
-0.11309351 0.21204376 1.075
-0.10817628 0.21164925 1.0730001
-0.23046252 0.22858119 1.0730001
-0.2250087 0.22474544 1.0726428
-0.21572322 0.2224254 1.0745556
-0.20450363 0.22253606 1.0761112
-0.1945747 0.22317827 1.0756665
-0.18864705 0.22252189 1.0732501
-0.092179745 -0.090279132 1.0840001
-0.091582514 -0.083991162 1.0825833
-0.087618276 -0.082296558 1.0840001
-0.092813283 -0.078241915 1.0840001
-0.084897801 -0.075422794 1.0807999
-0.078111 -0.072903596 1.08
-0.27368832 -0.061769933 1.0840001
-0.27646559 -0.0577548 1.08
-0.28239834 -0.042406294 1.0846001
-0.27867481 -0.043868396 1.08
-0.28403199 -0.034890592 1.0846922
-0.27876493 -0.035031598 1.08
-0.30124721 -0.027558893 1.0840001
-0.28420201 -0.02635587 1.0813333
-0.27930599 -0.0274572 1.08
-0.32595518 0.01995644 1.0840001
-0.31593972 0.019031119 1.0855
-0.3314454 0.026460078 1.0857999
-0.32490647 0.025211688 1.0846549
-0.31600195 0.025546692 1.0833808
-0.3096036 0.0274572 1.08
-0.33043319 0.032191198 1.08
-0.3252258 0.031244399 1.08
-0.31339079 0.031244399 1.08
-0.062867619 0.095844924 1.0837647
-0.058129136 0.0962466 1.087
-0.064070307 0.10417734 1.0822666
-0.065262571 0.11473533 1.0852001
-0.021776401 0.11835 1.08
-0.065407515 0.12670405 1.0813333
-0.022735471 0.12488312 1.0855556
-0.019092297 0.12605865 1.0811429
-0.072398819 0.13549006 1.0838001
-0.068779759 0.13280916 1.0846667
-0.023108711 0.13198173 1.087
-0.014515221 0.13530537 1.0829046
-0.10404422 0.14599644 1.081375
-0.099413998 0.14864761 1.08
-0.074323513 0.1426363 1.0823334
-0.014770519 0.14198756 1.087
-0.10315227 0.15382232 1.0849091
-0.095904961 0.15492865 1.0831538
-0.085013479 0.15596785 1.0830001
-0.078875452 0.15489998 1.0840001
-0.1524348 0.1991436 1.08
-0.14733461 0.19730987 1.0842857
-0.086141422 0.19639821 1.0841818
-0.16277876 0.2075028 1.0807999
-0.15608023 0.20450634 1.0849999
-0.14961106 0.20106964 1.087
-0.10164746 0.20805316 1.0836667
-0.095232412 0.20751721 1.080875
-0.087392278 0.2055223 1.0826923
-0.18081747 0.21375734 1.0836667
-0.17570129 0.21317817 1.0833637
-0.16558087 0.21126044 1.0855
-0.10768184 0.21250488 1.087
-0.093321383 0.2118831 1.0862501
-0.08767017 0.21250488 1.087
-0.2221631 0.22818144 1.0830001
-0.21474956 0.22770171 1.0834546
-0.20497327 0.22720428 1.0810909
-0.19652864 0.22709675 1.08
-0.18629584 0.22475027 1.0867273
-0.2308535 0.23465766 1.0836667
-0.22560813 0.23336464 1.0844615
-0.21429451 0.23143581 1.0864
-0.20531203 0.23195875 1.0855
-0.197936 0.23124406 1.0855
-0.062111832 0.096512236 1.09
-0.057544399 0.098784551 1.0940001
-0.060944986 0.10540076 1.0905001
-0.057090726 0.10458546 1.0944999
-0.061653528 0.11532754 1.0932223
-0.057523705 0.1140887 1.0936
-0.063372701 0.12290318 1.09525
-0.070628069 0.13838388 1.0936667
-0.066998668 0.13560016 1.097
-0.022942368 0.13688728 1.0904001
-0.072818816 0.14413337 1.095
-0.023325719 0.14518413 1.0932858
-0.015723415 0.14602795 1.09
-0.10129007 0.15957963 1.09
-0.094601102 0.15957963 1.09
-0.085045435 0.15957963 1.09
-0.078203633 0.1560908 1.0923333
-0.023058269 0.15371722 1.0933684
-0.014625506 0.15433529 1.0934349
-0.0086553302 0.15868105 1.097
-0.10097885 0.16252786 1.097
-0.094483338 0.16270027 1.0960001
-0.085496917 0.16292763 1.0958
-0.079712227 0.16134655 1.0955
-0.020818494 0.16174032 1.0960001
-0.016829807 0.16108531 1.097
-0.083134301 0.19875789 1.09
-0.15265191 0.20648392 1.0921111
-0.14670922 0.20480537 1.096
-0.083496563 0.20442824 1.0947778
-0.079107471 0.20209505 1.0960001
-0.1823227 0.21872073 1.0926667
-0.17550942 0.21819057 1.0922858
-0.16464101 0.21532598 1.0937144
-0.15622275 0.21160643 1.0955
-0.10365985 0.21447733 1.0918825
-0.0959801 0.21559834 1.0930001
-0.085316822 0.21308598 1.097
-0.18319711 0.22559342 1.0941001
-0.17612185 0.22244796 1.0967274
-0.16829808 0.22023006 1.097
-0.23220269 0.23921019 1.09
-0.22360395 0.23754726 1.0930001
-0.21509047 0.23674214 1.0939286
-0.20574376 0.23609398 1.0915716
-0.1941459 0.23445155 1.0945334
-0.18744878 0.23419559 1.0955834
-0.23177606 0.24328494 1.0940001
-0.22619691 0.24291897 1.0961001
-0.062611885 0.12503599 1.1021999
-0.057071533 0.12478772 1.1033999
-0.065838836 0.13651395 1.1026666
-0.057665903 0.13183787 1.1073999
-0.071510874 0.1468896 1.1023334
-0.066895872 0.14478464 1.1059165
-0.074415527 0.15506086 1.1044998
-0.067994267 0.15055872 1.108
-0.01254773 0.15925965 1.1010001
-0.094842978 0.16742484 1.1039165
-0.084216185 0.16761562 1.1022308
-0.076517656 0.16553143 1.1066248
-0.014209245 0.16593303 1.1041578
-0.0080783367 0.16513374 1.1058334
-0.092277922 0.17192836 1.108
-0.084430896 0.17371587 1.1069999
-0.07770773 0.17192836 1.108
-0.012612604 0.17565332 1.107
-0.0087421201 0.17775644 1.108
-0.1425667 0.20728417 1.1018001
-0.13852648 0.20827408 1.105
-0.081656769 0.20790622 1.1010001
-0.077820241 0.20762827 1.105
-0.16183354 0.21845919 1.1010001
-0.15449798 0.21620657 1.1040624
-0.14466088 0.21466264 1.1049128
-0.13843882 0.21377639 1.1073999
-0.092028081 0.21989869 1.105
-0.083007924 0.21567872 1.104
-0.078679077 0.21175358 1.108
-0.18145949 0.22875477 1.1010001
-0.1744308 0.22629529 1.1023332
-0.16605011 0.22403622 1.1049284
-0.15444411 0.22049569 1.108
-0.10231226 0.22103308 1.1010001
-0.098451421 0.22103308 1.1010001
-0.086215787 0.22183613 1.105
-0.2026941 0.23840687 1.1010001
-0.19883326 0.23840687 1.1010001
-0.18314378 0.23549506 1.102857
-0.1784362 0.2328032 1.1073999
-0.22392873 0.24612854 1.101
-0.2151718 0.24574597 1.1039582
-0.20497881 0.24339259 1.1050587
-0.19465326 0.24391294 1.1040555
-0.18688715 0.24264225 1.1059999
-0.2236101 0.25206318 1.1063333
-0.21563897 0.25157878 1.108
-0.062595747 0.1333448 1.1156667
-0.059840389 0.13635761 1.1190001
-0.064281292 0.14781652 1.1166668
-0.071923703 0.15804043 1.11625
-0.067558691 0.15400179 1.1168572
-0.07286372 0.16557705 1.1131667
-0.012673093 0.16864963 1.1120001
-0.0068485197 0.16935737 1.1166668
-0.093314067 0.17684183 1.1157001
-0.084993184 0.17878319 1.1144001
-0.075014807 0.17555143 1.1145556
-0.021504633 0.17692448 1.1149999
-0.014860034 0.17527629 1.1135
-0.0078223506 0.17406495 1.1155001
-0.090905949 0.18083441 1.115
-0.084330939 0.18167301 1.1167144
-0.077123873 0.18202901 1.1183333
-0.022014298 0.1851089 1.1182729
-0.014674452 0.1848785 1.1157999
-0.0087855151 0.18352227 1.1135001
-0.020993184 0.1960018 1.1190001
-0.0159378 0.19468378 1.1187501
-0.0088289101 0.19129305 1.1190001
-0.13578314 0.20875788 1.1120001
-0.01765782 0.20110294 1.1190001
-0.13394611 0.21601081 1.11325
-0.12763566 0.21683598 1.1162857
-0.080912828 0.21934199 1.1120001
-0.077094749 0.21541326 1.1163334
-0.16316238 0.22777952 1.1130002
-0.15520166 0.22575217 1.1142222
-0.14485356 0.22480501 1.1146667
-0.13541719 0.22391936 1.1166667
-0.12703821 0.22219422 1.1190001
-0.082255885 0.2232677 1.117
-0.078479201 0.22268473 1.1190001
-0.18034786 0.23883906 1.1120001
-0.17420422 0.23558703 1.1129546
-0.16552605 0.23513803 1.1154544
-0.15617362 0.23210223 1.1190002
-0.14714849 0.23053265 1.1190001
-0.086654119 0.23314862 1.1190001
-0.2047192 0.24858759 1.1120001
-0.1939958 0.24858759 1.1120001
-0.18354765 0.24574943 1.1129376
-0.17564729 0.24449629 1.1165555
-0.16721418 0.24355306 1.1190002
-0.22334048 0.25826311 1.1152858
-0.21504395 0.25610301 1.1150001
-0.20512171 0.25425586 1.1146817
-0.1947899 0.25478351 1.1156248
-0.18478939 0.25517416 1.1161921
-0.17821318 0.25364041 1.1190001
-0.22268473 0.26192433 1.1190001
-0.18638811 0.26192433 1.1190001
-0.062076766 0.13893764 1.1240001
-0.058240473 0.13721061 1.126
-0.063272014 0.14251181 1.1242001
-0.065748833 0.15615566 1.125
-0.071131863 0.16550727 1.1247143
-0.067679539 0.16160563 1.1254001
-0.070442453 0.17462727 1.1254001
-0.085787967 0.18617226 1.1248001
-0.075048044 0.18543944 1.1242858
-0.02658141 0.18803886 1.123
-0.025060579 0.19398455 1.124421
-0.012807474 0.19606589 1.1238571
-0.0080728726 0.19552104 1.123
-0.024555102 0.20473208 1.1245713
-0.016043376 0.2053524 1.1238573
-0.0088841403 0.20038672 1.126
-0.07449358 0.21757376 1.123
-0.023361998 0.21157415 1.126
-0.016781153 0.21157415 1.126
-0.13421971 0.22840323 1.123
-0.1271697 0.22525863 1.1245
-0.084725231 0.22757062 1.12375
-0.074764512 0.2250035 1.1242858
-0.16090165 0.23987179 1.126
-0.15442099 0.23672514 1.1248001
-0.14527558 0.23401965 1.1247501
-0.13539109 0.23206703 1.12525
-0.12931359 0.23000051 1.126
-0.083664849 0.23270121 1.1251819
-0.077736221 0.23197475 1.126
-0.17163058 0.24842131 1.123
-0.16366869 0.24614929 1.124154
-0.15794027 0.24184602 1.126
-0.18016289 0.25104666 1.123
-0.17403659 0.25522974 1.1245884
-0.16752417 0.25276774 1.1253999
-0.22308975 0.26624027 1.1243334
-0.21479468 0.264099 1.1247368
-0.20411639 0.26288918 1.1248001
-0.19416714 0.26457173 1.1242858
-0.18401377 0.26625028 1.1245883
-0.17690971 0.26289919 1.1255715
-0.061302971 0.14580835 1.1340001
-0.062305655 0.15545389 1.1347274
-0.058861151 0.15563288 1.138
-0.070334964 0.16741703 1.13
-0.063991062 0.16550124 1.1330477
-0.058861151 0.1626164 1.138
-0.070334964 0.17732337 1.13
-0.06626799 0.17455009 1.1331428
-0.087175727 0.18921097 1.13
-0.070995383 0.18656927 1.13
-0.068535171 0.18474786 1.133
-0.08378385 0.19464113 1.1337647
-0.075270101 0.19386132 1.1339999
-0.030709634 0.19713604 1.13
-0.028728366 0.19812667 1.13
-0.0059525669 0.19946972 1.132
-0.030709634 0.20407046 1.13
-0.028728366 0.20208919 1.13
-0.011898119 0.20623671 1.131
-0.0059608952 0.20529255 1.1340001
-0.072039708 0.21753931 1.1345714
-0.06883762 0.21848463 1.138
-0.02477986 0.21645832 1.1306154
-0.014781695 0.21585134 1.1340001
-0.0083032018 0.21224977 1.1366667
-0.12551646 0.22719167 1.1333333
-0.070901044 0.22402465 1.13
-0.067846641 0.22562595 1.1348
-0.023272632 0.22447658 1.1361818
-0.017281437 0.22300996 1.1373334
-0.15850133 0.23874263 1.13
-0.14397204 0.23808222 1.13
-0.13471551 0.23749471 1.1316
-0.12796098 0.23521939 1.1347274
-0.083112262 0.2377312 1.1305715
-0.073372476 0.23545027 1.1302104
-0.065864697 0.23522563 1.1356844
-0.16100101 0.24696107 1.1313334
-0.15451698 0.24558298 1.1331112
-0.14549072 0.24406749 1.1357501
-0.13498388 0.24356954 1.1363333
-0.12635146 0.24202137 1.1374286
-0.091057263 0.24567743 1.1364
-0.08495035 0.24456504 1.1355557
-0.074988723 0.24428768 1.1351765
-0.066842325 0.24276067 1.138
-0.17137957 0.25855529 1.13
-0.16372342 0.25564608 1.1318947
-0.15579915 0.25290346 1.1380001
-0.14864935 0.2524046 1.138
-0.090785846 0.25040931 1.138
-0.087792903 0.25040931 1.138
-0.21496743 0.26846164 1.13
-0.20558046 0.26746655 1.1304445
-0.19713604 0.26846164 1.13
-0.17400254 0.26554412 1.1314286
-0.16598673 0.26317337 1.1355001
-0.15862583 0.26138341 1.138
-0.22487375 0.2704429 1.13
-0.2139768 0.2704429 1.13
-0.20578277 0.27140021 1.1340001
-0.19446616 0.27410513 1.1354547
-0.18502399 0.2752248 1.132
-0.17793056 0.27413893 1.1358463
-0.19055051 0.2803387 1.138
-0.18356699 0.28133637 1.138
-0.17857875 0.2803387 1.138
-0.045328051 0.11382377 1.149
-0.056342497 0.14515974 1.1454444
-0.055241987 0.15421963 1.1458
-0.054703277 0.16528732 1.1450001
-0.061904062 0.17649841 1.1426001
-0.056407224 0.17392236 1.1456667
-0.063199647 0.18527494 1.147154
-0.059430111 0.18231948 1.149
-0.072582304 0.19872938 1.142
-0.065674938 0.1949023 1.1460001
-0.082487538 0.2038454 1.1439999
-0.07505399 0.20491144 1.1444288
-0.067532264 0.20507899 1.147154
-0.074449539 0.21327826 1.1475716
-0.065109462 0.21515317 1.1456959
-0.059292182 0.2180723 1.1463333
-0.004182138 0.21583343 1.1460001
0.00100729 0.21656735 1.149
-0.12103347 0.22806308 1.141
-0.11646079 0.22820599 1.1409999
-0.062535115 0.22462666 1.1413332
-0.057832971 0.2253042 1.1473335
-0.025006916 0.22906336 1.141
-0.013691489 0.22679336 1.143
-0.0080489693 0.22436737 1.1476668
-0.12207688 0.23514743 1.1414
-0.11510964 0.23522988 1.1418003
-0.10679021 0.23560566 1.1447649
-0.061016876 0.2310639 1.141
-0.057305656 0.23493105 1.1468667
-0.031225991 0.23772043 1.149
-0.024787251 0.23531449 1.1440479
-0.015879413 0.23320456 1.1466001
-0.14170587 0.24840204 1.141
-0.13424559 0.24862203 1.1415714
-0.1246208 0.24716249 1.1428462
-0.11545172 0.24497028 1.1452004
-0.10694385 0.24344148 1.1479092
-0.081022412 0.24906889 1.141
-0.07201992 0.24906889 1.141
-0.06392464 0.24685751 1.1423334
-0.057932019 0.24309002 1.1478573
-0.032089382 0.24419585 1.149
-0.026021264 0.2445761 1.148579
-0.15279226 0.25732115 1.1409999
-0.1441185 0.25575009 1.1412107
-0.13568601 0.25546312 1.1443046
-0.12683174 0.25333318 1.1472224
-0.083356388 0.25240314 1.1409999
-0.07520064 0.25268936 1.1438001
-0.066170581 0.25311339 1.1480001
-0.027484626 0.25225422 1.149
-0.16254497 0.26707387 1.141
-0.15448563 0.26489303 1.1412352
-0.14508873 0.26517037 1.1457275
-0.13636681 0.26317751 1.1480001
-0.21105838 0.27507609 1.141
-0.20534286 0.27646494 1.1426002
-0.19755465 0.27707663 1.141
-0.17264776 0.2764765 1.1409999
-0.16510753 0.27502051 1.1466669
-0.15588035 0.27217925 1.147182
-0.20354152 0.28269669 1.1468183
-0.19574173 0.28420275 1.1466002
-0.18535836 0.28577945 1.1453999
-0.17459342 0.28357205 1.1446
-0.16758652 0.28121507 1.147
-0.045564748 0.11745755 1.155
-0.052986607 0.13518573 1.1562728
-0.053597771 0.14345835 1.1535714
-0.051586397 0.154762 1.1537999
-0.049700864 0.1541741 1.1570001
-0.0516937 0.16521713 1.1562001
-0.05317948 0.17625777 1.1554999
-0.056517705 0.1853613 1.1553998
-0.062105697 0.19683918 1.1537999
-0.057939511 0.19503385 1.1563846
-0.063302249 0.20497744 1.1543334
-0.059843898 0.20286067 1.1570001
-0.079852939 0.2112565 1.153
-0.062776342 0.21263725 1.155
-0.058626205 0.21732128 1.153
-0.0020215933 0.21934287 1.153
-0.05391312 0.22678627 1.1541427
-0.0037546379 0.22517373 1.1532857
0.0010107966 0.22742926 1.153
-0.10131344 0.23808426 1.1556667
-0.097035013 0.23565646 1.1570001
-0.052957971 0.23409981 1.1543332
-0.014716993 0.23785263 1.1534445
-0.005065205 0.23089769 1.1562001
-0.11017684 0.24966678 1.153
-0.10262539 0.24569517 1.1533333
-0.097421832 0.24565265 1.1558571
-0.055301715 0.24572775 1.1553999
-0.034164928 0.24724086 1.153
-0.021900594 0.24764518 1.153
-0.016566953 0.2430947 1.1570001
-0.13039277 0.25977474 1.153
-0.12358182 0.25540644 1.1541427
-0.11630677 0.25323775 1.1570001
-0.10345894 0.25053293 1.1570001
-0.074192479 0.25815743 1.153
-0.065151423 0.2575753 1.1552222
-0.058625579 0.25376004 1.1558571
-0.032233156 0.25454205 1.154143
-0.024804844 0.25465456 1.155
-0.14050074 0.26988271 1.153
-0.133417 0.26644847 1.1536154
-0.12780221 0.26473314 1.1569999
-0.074044146 0.26169026 1.1570001
-0.066605918 0.26247919 1.1570001
-0.16071667 0.27999067 1.153
-0.15344788 0.27673686 1.1545999
-0.14477935 0.27437171 1.1548667
-0.13472648 0.27392954 1.1565293
-0.20605479 0.28807133 1.155
-0.17385703 0.28807706 1.153
-0.16510998 0.28588805 1.1554614
-0.15762272 0.28177348 1.1570001
-0.20319337 0.29136062 1.156
-0.19590898 0.29178479 1.1552222
-0.18562979 0.29189661 1.1556668
-0.1757897 0.291783 1.1561112
-0.047837071 0.11908377 1.161
-0.050044518 0.12664327 1.1650001
-0.045947108 0.12558985 1.1646924
-0.050087474 0.13441448 1.1660001
-0.046989817 0.13505605 1.1681111
-0.050976411 0.14579581 1.163
-0.047182489 0.14450651 1.1672223
-0.050044518 0.15421882 1.1650001
-0.048023425 0.15341905 1.1655715
-0.050044518 0.16238935 1.1650001
-0.048765238 0.16595605 1.1650001
-0.04815428 0.17510527 1.1646668
-0.05224758 0.18490215 1.1610001
-0.047210839 0.18546176 1.1652223
-0.051965591 0.19462498 1.1623334
-0.046332575 0.19485769 1.1665385
-0.060729329 0.20797251 1.161
-0.055161666 0.20403907 1.164059
-0.047141872 0.2018902 1.169
-0.060947794 0.21260691 1.1626
-0.05759846 0.21368545 1.1663333
-0.053014081 0.22465917 1.1654445
-0.048625484 0.22885238 1.1636667
-0.09516523 0.23816754 1.161
-0.051908311 0.23579264 1.161
-0.048141476 0.23523225 1.1646924
-0.01119591 0.23918535 1.161
-0.0063687642 0.23567407 1.1625001
-0.096392877 0.24397194 1.1644287
-0.051908307 0.24529222 1.161
-0.046984654 0.24436742 1.1652224
-0.039284896 0.24834885 1.169
-0.015486842 0.24664596 1.1626002
-0.0061379815 0.2415484 1.1675001
-0.12264611 0.25903264 1.161
-0.11409632 0.25686711 1.1632223
-0.10612489 0.25409219 1.164
-0.096691944 0.25139907 1.161
-0.060050789 0.25954154 1.161
-0.053258013 0.25504312 1.1624737
-0.046973065 0.25375357 1.1676667
-0.033587731 0.25954154 1.161
-0.022900725 0.25750592 1.161
-0.017199179 0.25428432 1.1656666
-0.12340077 0.26516449 1.1633334
-0.11689272 0.26330537 1.1667143
-0.062086407 0.26527828 1.1610001
-0.053914733 0.26515454 1.1662177
-0.048166696 0.26132995 1.169
-0.034057084 0.26590249 1.1662307
-0.025283385 0.26541311 1.1664548
-0.017988574 0.2631231 1.1678572
-0.14554682 0.27989775 1.161
-0.13469018 0.27955845 1.1610001
-0.12561092 0.27506104 1.1641304
-0.11990433 0.27260301 1.169
-0.061278999 0.27064893 1.1650001
-0.056234371 0.27095869 1.1663333
-0.034123372 0.27195165 1.1676668
-0.026645407 0.27157819 1.169
-0.1618318 0.28804022 1.161
-0.15495053 0.28592685 1.1623336
-0.14539829 0.28410509 1.1621429
-0.13549215 0.28423172 1.1620668
-0.1270427 0.28437874 1.1665384
-0.20323968 0.29652461 1.165
-0.19424859 0.29754332 1.1627778
-0.1842857 0.29730326 1.1614001
-0.17507648 0.29733178 1.1645
-0.16567634 0.29370189 1.1655713
-0.15462832 0.29185259 1.1681111
-0.14518331 0.29036662 1.169
-0.13391025 0.29036662 1.169
-0.12810291 0.290025 1.169
-0.1945788 0.30217236 1.1672858
-0.1851531 0.30381939 1.1668667
-0.17729443 0.30163968 1.169
-0.19676608 0.31257111 1.169
-0.050388169 0.13265456 1.1730001
-0.04833151 0.13573956 1.1730001
-0.046274848 0.14293787 1.1730001
-0.046019912 0.15745828 1.177
-0.044479165 0.16531648 1.1757693
-0.044870429 0.17433555 1.1747143
-0.043605689 0.18472886 1.1750001
-0.042659126 0.19640157 1.1754
-0.05150592 0.20705025 1.1750001
-0.046274848 0.202581 1.1730001
-0.056653179 0.2161129 1.1750001
-0.053564332 0.22301218 1.1750001
-0.048496325 0.2280359 1.177
-0.044278502 0.23663004 1.1746
-0.094400689 0.2461822 1.1730001
-0.041791923 0.24478479 1.1742002
-0.036913805 0.24643993 1.1762002
-0.01131163 0.24782753 1.1730001
-0.008232777 0.24701048 1.174
-0.1027648 0.25805157 1.1746
-0.097856164 0.25752258 1.1750001
-0.042415615 0.25604993 1.1753335
-0.037146121 0.25795919 1.177
-0.013385122 0.25557795 1.1746
-0.0092865303 0.2507363 1.177
-0.11278787 0.2661081 1.1744547
-0.10679509 0.2615706 1.177
-0.044209585 0.26552561 1.1754763
-0.037497662 0.26394767 1.174143
-0.015434069 0.26281291 1.1738001
-0.12100016 0.27799189 1.1730001
-0.11491499 0.27516863 1.1751819
-0.051416501 0.27353579 1.1730001
-0.043489676 0.27455673 1.1756002
-0.035410672 0.27731723 1.1742002
-0.027360477 0.27668935 1.1752224
-0.12184766 0.28568485 1.1733638
-0.1157278 0.28519869 1.1763334
-0.042993199 0.28272328 1.177
-0.035082445 0.2816914 1.177
-0.20669433 0.29924402 1.1730001
-0.1639158 0.29842132 1.1730001
-0.1548665 0.29698169 1.1730002
-0.14518443 0.29590008 1.1735002
-0.135056 0.29571146 1.1747143
-0.12506911 0.29400155 1.176077
-0.11866122 0.29200977 1.177
-0.20481947 0.30574608 1.1762501
-0.19495313 0.30760175 1.1735002
-0.18509939 0.30952734 1.1730001
-0.17507645 0.30478472 1.1742309
-0.1659614 0.30203459 1.1758573
-0.15554936 0.30155426 1.177
-0.1447151 0.30155426 1.177
-0.13723427 0.30026448 1.177
-0.20426401 0.31149244 1.1761112
-0.1957725 0.31235546 1.1759092
-0.18882611 0.31264651 1.177
-0.044745944 0.13632254 1.187
-0.044821337 0.14592993 1.189
-0.042865489 0.15538901 1.1830002
-0.037459966 0.15921232 1.187
-0.040746298 0.16401996 1.1816669
-0.035891961 0.16669695 1.1879333
-0.041468441 0.17521146 1.1826
-0.038124304 0.17437479 1.1882001
-0.04138305 0.1843804 1.1844286
-0.038219746 0.18519205 1.189
-0.040401183 0.1947515 1.1816667
-0.037074029 0.19514471 1.1874616
-0.050731823 0.20810401 1.1810001
-0.044264212 0.2051733 1.1880001
-0.035409443 0.20152682 1.1880001
-0.052410878 0.21598636 1.1850001
-0.051628828 0.22248486 1.1826001
-0.04775241 0.22597197 1.1878573
-0.043508817 0.23469152 1.1863334
-0.037200253 0.23777436 1.1870002
-0.040378388 0.24123499 1.1810001
-0.035132062 0.24304232 1.1858001
-0.0041518933 0.24828514 1.1850001
-0.03747943 0.25655806 1.1810001
-0.011414493 0.2563096 1.1836667
-0.0072747543 0.25552467 1.1858002
-0.1040085 0.26592118 1.182
-0.097999357 0.26525888 1.1850001
-0.041413732 0.26194185 1.1810001
-0.011446636 0.26223379 1.187
-0.0078176744 0.26215267 1.189
-0.11078174 0.27436596 1.1810001
-0.10524542 0.27444351 1.1833634
-0.099023886 0.27205509 1.189
-0.11078174 0.28575474 1.1810001
-0.1071706 0.28429863 1.1850001
-0.044331517 0.28754309 1.181
-0.034240205 0.2870245 1.1836667
-0.028080508 0.28392982 1.1863333
-0.12362 0.29838595 1.1810001
-0.1148745 0.29550627 1.1841111
-0.10875255 0.2946395 1.189
-0.052558601 0.296065 1.185889
-0.044641089 0.29483947 1.1841999
-0.03586055 0.29552034 1.1881429
-0.21088655 0.30438304 1.1850001
-0.20810401 0.3033556 1.1810001
-0.17428279 0.30887744 1.1810001
-0.16440567 0.30703956 1.1827779
-0.15484229 0.30760652 1.1854001
-0.14517163 0.30698061 1.1856667
-0.1360876 0.30438566 1.1850001
-0.12598138 0.30263934 1.1876668
-0.11591578 0.301597 1.1876667
-0.053160191 0.30124107 1.189
-0.04690605 0.30124107 1.189
-0.1911484 0.31684926 1.1850001
-0.18401934 0.31549916 1.1846
-0.17596811 0.31364685 1.1864547
-0.1690187 0.31201002 1.1876668
-0.1824124 0.32000348 1.189
-0.042499483 0.13799216 1.197
-0.038826689 0.13956621 1.197
-0.043145675 0.14514881 1.1945999
-0.038826689 0.14586243 1.197
-0.041834533 0.15269604 1.1930001
-0.038826689 0.15005991 1.197
-0.034140028 0.16316292 1.1946001
-0.033094935 0.1756863 1.1937501
-0.033352874 0.18518978 1.1948949
-0.027283622 0.18783723 1.197
-0.032099959 0.19557641 1.193
-0.027341854 0.19408235 1.193
-0.043387808 0.20770881 1.1954
-0.036143653 0.20612079 1.1950001
-0.047785353 0.21567139 1.1954001
-0.043914657 0.22450902 1.1944119
-0.035417698 0.22647853 1.1944119
-0.041625358 0.23280919 1.1930001
-0.033632763 0.23443849 1.1930002
-0.02823831 0.23741098 1.1930001
-0.033467628 0.24368615 1.1930001
-0.0038400923 0.25631747 1.1950001
-0.096083544 0.26868811 1.1956667
-0.098640777 0.27388558 1.197
-0.10308303 0.28557754 1.1950001
-0.02823831 0.28970414 1.1930001
-0.10474622 0.29489157 1.1957694
-0.030330036 0.29284173 1.1930001
-0.02833299 0.29277423 1.197
-0.13258305 0.30810675 1.1946001
-0.12544018 0.30712295 1.1956667
-0.11469635 0.30539209 1.193
-0.10656416 0.30404851 1.1956667
-0.061912831 0.30956414 1.197
-0.055428907 0.30637017 1.1954446
-0.044940289 0.30609947 1.1951054
-0.037999701 0.30469486 1.193
-0.17375797 0.31768516 1.194
-0.16430034 0.31516004 1.1950001
-0.15404978 0.31439155 1.1954
-0.14475457 0.31391388 1.1952858
-0.13816807 0.31331426 1.1952858
-0.057715349 0.31166288 1.197
