# .PCD v0.7 - Point Cloud Data file format
VERSION 0.7
FIELDS x y z
SIZE 4 4 4
TYPE F F F
COUNT 1 1 1
WIDTH 1430
HEIGHT 1
VIEWPOINT 0 0 0 1 0 0 0
POINTS 1430
DATA ascii
-0.18510827 0.09466622 0.9641335
-0.17907202 0.098110102 0.96200007
-0.14338227 0.094464123 0.96208334
-0.13634107 0.094221368 0.9651432
-0.18293856 0.10428879 0.96529412
-0.17624965 0.10535226 0.96277273
-0.14345239 0.1048299 0.96330452
-0.13838997 0.10332839 0.96610004
-0.18056791 0.1110535 0.96700007
-0.17404804 0.11427258 0.96485728
-0.16625446 0.1164463 0.96219051
-0.15446223 0.11612892 0.96222222
-0.14664659 0.11481238 0.96452188
-0.17228413 0.12285913 0.9665001
-0.16443048 0.12413031 0.96424025
-0.15504636 0.12495055 0.96389222
-0.14840461 0.12245031 0.96550006
-0.16167548 0.13261023 0.96700007
-0.15588935 0.1325295 0.96700013
-0.15217267 -0.10078248 0.97700006
-0.14770868 -0.10047074 0.97619998
-0.13349934 -0.10059488 0.9774
-0.12501813 -0.10104263 0.97675014
-0.11881025 -0.10000575 0.97500002
-0.16033006 -0.091739662 0.97800004
-0.15365699 -0.09356539 0.97528565
-0.1459085 -0.095383458 0.97330439
-0.13484316 -0.097293347 0.97350007
-0.12511906 -0.097074322 0.9720909
-0.11905134 -0.096941799 0.97000003
-0.12089058 -0.00171476 0.97800004
-0.11856654 -0.0025589899 0.97300005
-0.083548523 -0.0008525583 0.97250003
-0.13435152 0.0068889721 0.97671437
-0.12465847 0.0053794067 0.97550011
-0.11838374 0.0051061451 0.9715001
-0.081506774 0.0051026382 0.97050011
-0.078187272 0.0067556729 0.97427279
-0.17061862 0.01971974 0.97800004
-0.1652294 0.019474775 0.9780001
-0.15355754 0.018563123 0.97733337
-0.14466491 0.01691315 0.9754349
-0.13504024 0.01538236 0.97491676
-0.12534124 0.015345873 0.9725998
-0.1199017 0.014456233 0.97000009
-0.091556139 0.018991522 0.97000003
-0.084691696 0.015987916 0.97323334
-0.076267473 0.016027251 0.97675025
-0.19412819 0.026406394 0.9774546
-0.18485524 0.026357515 0.9760648
-0.17476895 0.025406042 0.97506064
-0.16520174 0.025835682 0.97363627
-0.15531686 0.025596909 0.9734444
-0.14487346 0.025562651 0.97208309
-0.13478133 0.025591113 0.9730553
-0.12598044 0.025195034 0.97149992
-0.11003657 0.029854883 0.97300005
-0.10461736 0.026921593 0.97220826
-0.094861999 0.024791174 0.97490323
-0.085300401 0.024523942 0.9775387
-0.075301617 0.024745759 0.97800022
-0.066677779 0.026710685 0.97799999
-0.20372668 0.036471628 0.97799999
-0.19504155 0.034731396 0.97525024
-0.18520762 0.035019111 0.97247988
-0.17591639 0.033076249 0.97056258
-0.16723877 0.032030478 0.97000009
-0.15901856 0.031463567 0.97000003
-0.14456232 0.031463567 0.97000009
-0.13330156 0.034516465 0.97065198
-0.125496 0.036161486 0.97011995
-0.11475779 0.035737406 0.97209984
-0.10580336 0.032698568 0.97725004
-0.094311804 0.030008299 0.9780001
-0.086595379 0.030436989 0.97800004
-0.072448611 0.030436991 0.97800004
-0.065218039 0.034009401 0.97800028
-0.043726381 0.038582101 0.97799999
-0.204568 0.044531748 0.97755581
-0.19505529 0.044163946 0.97390908
-0.18843812 0.044341609 0.97066665
-0.13095647 0.042518333 0.97000003
-0.12485959 0.044346679 0.97014284
-0.11566177 0.044456687 0.97362846
-0.066208795 0.044107437 0.9780001
-0.056072652 0.042011622 0.97800004
-0.045098189 0.041840144 0.97800004
-0.20471415 0.054816999 0.97703356
-0.19562951 0.054281671 0.97255552
-0.18963176 0.050171632 0.97000003
-0.122772 0.054662712 0.97119999
-0.1157376 0.054294392 0.97448277
-0.20380597 0.064853586 0.97596008
-0.19627836 0.064347684 0.97089994
-0.12150231 0.06424547 0.97193319
-0.11727926 0.064098693 0.97649997
-0.203467 0.075233191 0.9751668
-0.1967402 0.074949004 0.9715001
-0.12361387 0.075902104 0.97196156
-0.11917582 0.074592061 0.97799999
-0.23220745 0.087911949 0.97740012
-0.22719723 0.088919416 0.97633332
-0.20309244 0.083727665 0.97684616
-0.19596581 0.08544597 0.97271991
-0.13010611 0.085887037 0.97000003
-0.1247579 0.085248798 0.97379988
-0.11917582 0.084023245 0.97800004
-0.23344971 0.094816357 0.97707695
-0.22474384 0.094562888 0.97594744
-0.21674566 0.096883945 0.97800004
-0.20148431 0.094311804 0.9780001
-0.19561245 0.095350385 0.97329181
-0.13173707 0.096463628 0.97128576
-0.12548105 0.094816133 0.97564298
-0.23149259 0.10317139 0.9780001
-0.22516912 0.1043105 0.97457588
-0.21496062 0.10460633 0.97580957
-0.20834334 0.10374298 0.97800004
-0.19507401 0.10454807 0.97626942
-0.18752146 0.1059399 0.97140014
-0.1403105 0.10799657 0.97000003
-0.13392815 0.10517686 0.97159988
-0.12770297 0.10411962 0.97578579
-0.23063523 0.11231678 0.97799999
-0.22456625 0.11433028 0.97448283
-0.21458557 0.11426918 0.97332412
-0.20826492 0.11670745 0.9769091
-0.19225298 0.1142998 0.97714287
-0.18547522 0.11492048 0.97323078
-0.17850314 0.11722875 0.97075009
-0.14204222 0.1155545 0.97021443
-0.13493904 0.11444684 0.97422218
-0.12926582 0.11128977 0.97650003
-0.22255258 0.12405159 0.97585714
-0.21488574 0.12444444 0.97382343
-0.20795134 0.12494268 0.97616673
-0.19188163 0.1222624 0.97800004
-0.18503508 0.12457921 0.97521448
-0.17662762 0.12563206 0.97245443
-0.16786239 0.12772506 0.97000009
-0.1505149 0.12840536 0.97000003
-0.14416161 0.12505339 0.97265506
-0.13689983 0.12373553 0.97540015
-0.22034666 0.13117914 0.97800004
-0.21417923 0.1347006 0.97658348
-0.20730561 0.13523233 0.97542882
-0.18241318 0.13231367 0.97687507
-0.17436801 0.13463882 0.97534627
-0.16619901 0.13536429 0.97262508
-0.15406862 0.13657784 0.97366691
-0.14574865 0.13442715 0.9757933
-0.13975294 0.13117914 0.97800004
-0.21120127 0.14346825 0.9780001
-0.20717767 0.14303781 0.977
-0.17233337 0.14146771 0.97799999
-0.16453236 0.14139538 0.97750014
-0.15449987 0.14146771 0.97800004
-0.14832674 0.14146771 0.97800004
-0.13785671 -0.11011196 0.98900002
-0.15608962 -0.10146803 0.98366672
-0.14305328 -0.10288169 0.98463649
-0.13555191 -0.10552401 0.98368186
-0.12651615 -0.10500209 0.98175007
-0.16095951 -0.095375195 0.98450011
-0.1565468 -0.097331703 0.98250002
-0.13385385 -0.0016363472 0.98788887
-0.12490649 -0.0047021355 0.98556536
-0.11990696 -0.00603848 0.98400003
-0.082035922 -0.0039838366 0.98710001
-0.07386227 -0.0040012421 0.9885385
-0.065489165 -0.0027166733 0.98900014
-0.21068667 0.0095372563 0.98900002
-0.20518985 0.0074746786 0.98862517
-0.19536106 0.0068520997 0.98750001
-0.18568917 0.0072974572 0.9878096
-0.17486309 0.0082903849 0.98814303
-0.16412482 0.0066162031 0.98804003
-0.1550332 0.0067125531 0.9869048
-0.14491634 0.0056966096 0.9855001
-0.13595836 0.0018935999 0.98280013
-0.1290015 0.00086000998 0.98100007
-0.073464707 0.0040873634 0.98491305
-0.065230519 0.0054068421 0.9871875
-0.056182198 0.0063973074 0.98830783
-0.21093439 0.016225724 0.98899996
-0.2050422 0.015571996 0.98686659
-0.19514242 0.015188409 0.98427272
-0.18474919 0.015190401 0.98436344
-0.17522688 0.015382104 0.98399991
-0.16512991 0.014585678 0.98342294
-0.15563455 0.014089647 0.98255998
-0.14610615 0.012326811 0.98100007
-0.072455846 0.013330155 0.98100001
-0.065045781 0.015525329 0.98409992
-0.055371031 0.015571963 0.98691654
-0.048043586 0.016467933 0.9887144
-0.21361476 0.025497608 0.98783344
-0.20499264 0.025225302 0.98477775
-0.19497655 0.021745967 0.98100001
-0.18447214 0.02150025 0.98100007
-0.08342097 0.028380331 0.98100007
-0.079980932 0.028380331 0.98100007
-0.064545058 0.02363237 0.98169231
-0.054975729 0.024865616 0.98539269
-0.045160491 0.025222061 0.98744833
-0.035863236 0.025774242 0.98900008
-0.21505183 0.034542941 0.98513341
-0.20626631 0.032799385 0.98137498
-0.10397277 0.036314052 0.98325002
-0.094948962 0.035397347 0.98460007
-0.084538534 0.035327792 0.98434502
-0.075654484 0.034784473 0.98303586
-0.065074086 0.03583375 0.98100001
-0.05492175 0.034602549 0.98265529
-0.045076266 0.033651303 0.98434484
-0.038582537 0.034247421 0.98899996
-0.21363516 0.044275213 0.98331827
-0.20783575 0.045007188 0.98100013
-0.11094129 0.043000501 0.98100007
-0.10613891 0.044542279 0.98692018
-0.098407149 0.04118361 0.98900002
-0.082840137 0.042326499 0.98900008
-0.075142287 0.044831865 0.9867242
-0.065449081 0.044588804 0.98125023
-0.055364978 0.045025315 0.98346466
-0.04902057 0.043000501 0.98100007
-0.037282005 0.042484142 0.98900002
-0.21307616 0.055210713 0.98400021
-0.11181153 0.058928657 0.98366672
-0.10906913 0.054103289 0.98655564
-0.074392192 0.055360917 0.98666674
-0.065636761 0.055406779 0.98359394
-0.058598593 0.054269906 0.98783344
-0.24287489 0.065785401 0.98900014
-0.23430729 0.068182744 0.98866671
-0.22648928 0.068396136 0.98760003
-0.21402204 0.065139294 0.98737514
-0.20898242 0.066220775 0.98100007
-0.11316913 0.065811366 0.9834668
-0.073428728 0.063151054 0.9887144
-0.067115754 0.063457713 0.98855549
-0.24359168 0.074540794 0.98821747
-0.23503637 0.07459414 0.98673517
-0.22461522 0.074617319 0.9863528
-0.21572955 0.07450749 0.98826683
-0.20898242 0.075680874 0.98100001
-0.11459696 0.075008579 0.98528016
-0.24402347 0.084653184 0.98752177
-0.23530266 0.083556093 0.98261547
-0.22501452 0.08382307 0.98368961
-0.21549843 0.084684156 0.98481798
-0.20753497 0.086127959 0.98154551
-0.11509816 0.084085666 0.98563182
-0.24318564 0.094980493 0.98758841
-0.23753476 0.094257094 0.98100007
-0.21439737 0.093817353 0.98181838
-0.20663834 0.094972983 0.98130018
-0.12126141 0.096321113 0.98100007
-0.11737899 0.094345041 0.98730779
-0.24214958 0.10418131 0.98824996
-0.23634246 0.10490238 0.98350006
-0.21070245 0.10062117 0.98100007
-0.20437524 0.10528979 0.98100036
-0.19866231 0.10836126 0.98100007
-0.12315281 0.10601807 0.98316681
-0.11914393 0.10401003 0.98662502
-0.24016546 0.11011196 0.98900002
-0.2346137 0.11358829 0.98459995
-0.22962266 0.11954139 0.98100007
-0.20380411 0.11485176 0.98308694
-0.19738413 0.11580646 0.98212504
-0.12485869 0.11537257 0.98456681
-0.11878219 0.11011196 0.98900002
-0.23236226 0.12225029 0.98900002
-0.22690515 0.12625028 0.98209095
-0.20328569 0.12557587 0.9814738
-0.19505037 0.12581933 0.98194754
-0.18834218 0.1298615 0.98100007
-0.13340814 0.12686928 0.98180002
-0.12544307 0.12475578 0.98631996
-0.22518635 0.13445386 0.98455554
-0.21887253 0.1371716 0.98100007
-0.20309368 0.13486546 0.98164284
-0.1950957 0.13487415 0.98470575
-0.18621157 0.13657914 0.98417652
-0.17888208 0.1376016 0.98100007
-0.14132832 0.13645492 0.98100001
-0.13398837 0.13546409 0.98466653
-0.12707654 0.13429841 0.9883334
-0.22213745 0.14343031 0.98814285
-0.21569179 0.14550227 0.9826842
-0.20359159 0.14599583 0.98365009
-0.19614001 0.14490268 0.98736674
-0.18504749 0.14190412 0.98820001
-0.17477901 0.1456558 0.98600018
-0.16483274 0.14679238 0.98440933
-0.15519489 0.14649816 0.98421735
-0.14486028 0.14515455 0.98504162
-0.13596104 0.14375518 0.9872728
-0.12918648 0.1413248 0.98900002
-0.21322384 0.15312061 0.98790008
-0.20526607 0.1532322 0.98750007
-0.19508025 0.1525961 0.98900002
-0.16375811 0.15220481 0.98833328
-0.15584917 0.15213685 0.98842853
-0.14232861 -0.11089132 0.99599999
-0.16088587 -0.10001013 0.99200004
-0.15067752 -0.10713173 0.99350005
-0.14636336 -0.1075564 0.99475002
-0.16360879 -0.098865204 0.99800003
-0.084137499 -0.021581195 0.99800009
-0.075444445 -0.021199822 0.99800009
-0.21260394 -0.011373873 0.99800003
-0.20910428 -0.011373873 0.99800003
-0.13036208 -0.011373873 0.99800003
-0.12455779 -0.012136378 0.99666667
-0.08411669 -0.015041409 0.9974001
-0.075107366 -0.014850383 0.9962002
-0.065811306 -0.013000207 0.99740005
-0.22222799 -0.0017498266 0.99800003
-0.21436891 -0.0039670179 0.99649972
-0.20510699 -0.0039911964 0.99669558
-0.19516423 -0.0028997827 0.99689466
-0.18559897 -0.0033851904 0.99760854
-0.17520556 -0.0022744241 0.99760014
-0.16478601 -0.0034104523 0.99665004
-0.15523584 -0.0027268978 0.99711764
-0.14498225 -0.0037877841 0.99625009
-0.13556407 -0.0058215056 0.99550003
-0.12701234 -0.0088324174 0.99328572
-0.082741983 -0.008710999 0.99349999
-0.076576829 -0.0083544571 0.99259996
-0.063481152 -0.0070095346 0.99328566
-0.055687707 -0.0039539346 0.99628568
-0.049286783 -0.0014581889 0.99799997
-0.22294602 0.0059126522 0.99729413
-0.21535209 0.0050760508 0.9939658
-0.2056095 0.002610507 0.99305868
-0.19514942 0.0016614429 0.99336362
-0.1840273 0.0026120541 0.99376464
-0.17488654 0.0030704096 0.99405271
-0.16598061 0.0020874313 0.99230003
-0.15457131 0.0016612038 0.99309087
-0.14697142 0.00086965336 0.99200004
-0.053792704 0.002087957 0.99289989
-0.046167135 0.0057024239 0.99619979
-0.22380365 0.015013879 0.99628574
-0.21577306 0.014790026 0.99244994
-0.043496553 0.014345635 0.99342108
-0.038846195 0.017020702 0.99575007
-0.2241592 0.024419634 0.99490011
-0.21697851 0.021741331 0.99200004
-0.042178188 0.020436853 0.99200004
-0.03654122 0.024944529 0.99249989
-0.22442032 0.034288276 0.99484211
-0.034262929 0.034189366 0.9952727
-0.02887214 0.031496879 0.99800003
-0.25214091 0.048678521 0.9975
-0.24513769 0.048420232 0.99700004
-0.22277342 0.045666967 0.99605888
-0.21828298 0.047830928 0.99200004
-0.10202128 0.04745682 0.99324995
-0.094743505 0.04535751 0.99555564
-0.08577282 0.046187565 0.99400002
-0.07913845 0.04957024 0.99200004
-0.03536265 0.042136651 0.9961251
-0.25375023 0.054921418 0.99610537
-0.24500564 0.055033922 0.99300027
-0.2360221 0.056268778 0.9958182
-0.22364333 0.055812642 0.99650002
-0.21828298 0.054788161 0.99199998
-0.10480477 0.054455869 0.9954499
-0.083181314 0.05479956 0.99612498
-0.07918632 0.054823399 0.99260008
-0.25456336 0.064350314 0.99486959
-0.2465467 0.063049868 0.99199998
-0.23518007 0.063269004 0.99253595
-0.22444414 0.063641898 0.99360019
-0.21828298 0.063484691 0.99199998
-0.11044598 0.066963308 0.99200004
-0.1081521 0.063904248 0.99625009
-0.082599349 0.064480647 0.99778575
-0.076051243 0.066520438 0.99305868
-0.064085536 0.066052452 0.99462491
-0.25395253 0.074898064 0.9963125
-0.24901073 0.073920526 0.99200004
-0.11044598 0.075311981 0.99199998
-0.1075507 0.07547836 0.99419993
-0.081804395 0.072180353 0.99800003
-0.074973382 0.074766234 0.99618161
-0.068181433 0.074303195 0.99710006
-0.25324124 0.084726878 0.99476922
-0.24934204 0.085847206 0.99200004
-0.11202087 0.086372614 0.99336362
-0.10797597 0.083693348 0.99650002
-0.076992378 0.081366941 0.99800003
-0.25238875 0.094664149 0.99675006
-0.24814107 0.094212443 0.99200004
-0.11367035 0.094996974 0.99414283
-0.10936417 0.090116076 0.99800003
-0.25110012 0.10323977 0.99800003
-0.2468428 0.1053253 0.9939999
-0.11628978 0.10395975 0.99540001
-0.27297294 0.11986312 0.99800003
-0.24351427 0.11427107 0.99615383
-0.23832408 0.11710913 0.99371433
-0.12124738 0.11950281 0.99500006
-0.11819176 0.11485063 0.99499995
-0.27261272 0.12459796 0.99800009
-0.26859838 0.12686244 0.99800003
-0.24160108 0.12536258 0.99800009
-0.23602055 0.12569068 0.99377286
-0.12163782 0.1264334 0.99462503
-0.11931171 0.12431047 0.99757147
-0.27219528 0.1352227 0.99800003
-0.26700762 0.1367251 0.99800009
-0.24060117 0.13036208 0.99800003
-0.2347752 0.1352654 0.99486357
-0.12272234 0.13560933 0.99499995
-0.11936317 0.13361175 0.99800009
-0.27265131 0.14190111 0.99762505
-0.26718512 0.14255795 0.99762505
-0.23264001 0.14392661 0.99700004
-0.22674325 0.14535742 0.99349999
-0.19132371 0.1469714 0.99200004
-0.18528505 0.14695577 0.99373686
-0.17827894 0.14871071 0.99200004
-0.13246734 0.14769171 0.99472731
-0.1262437 0.14388511 0.99589998
-0.22251846 0.15329562 0.99609089
-0.21564141 0.15736018 0.9933846
-0.20450951 0.1579193 0.99269223
-0.19507441 0.15536021 0.99386215
-0.18551323 0.15412734 0.99673051
-0.17493245 0.15428109 0.99550003
-0.16558903 0.15633751 0.99453843
-0.15523675 0.15577516 0.99523079
-0.14536023 0.15221877 0.9954285
-0.13505878 0.15207265 0.99745458
-0.2137429 0.16365451 0.99650013
-0.20482676 0.16481203 0.99599999
-0.19568302 0.16344266 0.99650007
-0.18898126 0.16010913 0.99800003
-0.1706081 0.16010913 0.99800003
-0.16273388 0.16010913 0.99800003
-0.19773042 0.17148301 0.99800003
-0.15005991 -0.111448 1.001
-0.14786911 -0.11266482 1.0040001
-0.16536906 -0.10366486 1.0055001
-0.16773263 -0.099756777 1.0070001
-0.082758553 -0.032115631 1.0064
-0.077836819 -0.032100685 1.0032501
-0.223097 -0.021565625 1.0070001
-0.2161939 -0.022441788 1.0070001
-0.12535807 -0.020304477 1.0070001
-0.084505543 -0.026953859 1.0016923
-0.077063553 -0.02615658 1.0012002
-0.066400774 -0.020476012 1.001
-0.23129447 -0.011476443 1.0070001
-0.22445235 -0.014756609 1.0061818
-0.21512106 -0.015292832 1.0039999
-0.20585445 -0.013227355 1.0057647
-0.19490334 -0.012261157 1.0070001
-0.18491121 -0.012877534 1.0059999
-0.17502698 -0.013235641 1.0064375
-0.16547455 -0.012824083 1.0060769
-0.15485483 -0.01279495 1.0065
-0.14466633 -0.013693535 1.0058947
-0.13477969 -0.014283003 1.0055
-0.12703648 -0.01646724 1.0046924
-0.086876787 -0.01579578 1.001
-0.063838758 -0.016794013 1.0012002
-0.057131555 -0.013997667 1.0026155
-0.23283516 -0.0047916095 1.0065714
-0.22547629 -0.0058288923 1.0027777
-0.21600103 -0.008900797 1.001
-0.20484287 -0.0085387342 1.0012728
-0.19553629 -0.0082585514 1.0020002
-0.18494485 -0.0085413642 1.0015457
-0.17539915 -0.0074019483 1.0015714
-0.16466732 -0.0080203312 1.0016001
-0.1546212 -0.0081274677 1.002125
-0.1451847 -0.0088729383 1.001
-0.13689676 -0.0096529769 1.001
-0.052667841 -0.0079126582 1.0026155
-0.047387339 -0.0026326301 1.001
-0.23418336 0.0056681521 1.0058571
-0.22798218 0.0043895375 1.0016925
-0.23372996 0.014757697 1.005125
-0.2290388 0.014040694 1.001
-0.26572379 0.02913251 1.0070001
-0.23324943 0.024644855 1.0040001
-0.26363137 0.034865797 1.006875
-0.25548422 0.035903521 1.0057585
-0.24600685 0.037946925 1.0066471
-0.23436743 0.035898939 1.0053636
-0.22868779 0.037383344 1.001
-0.032176588 0.03831939 1.001
-0.027260268 0.03750037 1.0031819
-0.2636978 0.044978257 1.0059999
-0.25551432 0.044265665 1.0026799
-0.24441217 0.04375989 1.0038636
-0.23547888 0.045073409 1.0051538
-0.22843531 0.044809941 1.0022
-0.032346733 0.045375023 1.0017501
-0.027476015 0.044303425 1.0060769
-0.26321781 0.054580539 1.0041666
-0.25858274 0.052945118 1.001
-0.24028732 0.050169881 1.0040001
-0.23457514 0.052365437 1.0029999
-0.22817326 0.052624058 1.0023333
-0.10218835 0.057683211 1.002
-0.094698362 0.054497197 1.0040966
-0.088009536 0.055161007 1.0019001
-0.031246154 0.051488824 1.0040001
-0.028649028 0.052446581 1.0055001
-0.26263669 0.064446472 1.0047501
-0.25887528 0.069325924 1.001
-0.10497694 0.064924464 1.0041876
-0.090928741 0.063561842 1.0070001
-0.087228663 0.065255895 1.0025001
-0.26235667 0.074414246 1.0065001
-0.25881717 0.075472608 1.0027144
-0.10478494 0.074890606 1.0029092
-0.08514148 0.075460613 1.0032499
-0.076931298 0.079271413 1.001
-0.06844838 0.07985644 1.001
-0.26130977 0.084749125 1.0070001
-0.25856644 0.084260069 1.0027144
-0.10544141 0.085645787 1.0015454
-0.083842829 0.084398732 1.0055789
-0.075770862 0.084571101 1.0033572
-0.069533698 0.083619975 1.0040001
-0.26042697 0.09622556 1.0070001
-0.2573052 0.09593948 1.0040001
-0.11126595 0.096336313 1.002
-0.10786863 0.094458811 1.0034376
-0.28232053 0.10717233 1.0070001
-0.27656966 0.10707141 1.0070001
-0.26093143 0.10581028 1.0070001
-0.25572032 0.10525806 1.0040001
-0.11315144 0.10466451 1.0048182
-0.28280303 0.11414216 1.0062
-0.27496934 0.11425193 1.0043529
-0.26575002 0.1161185 1.0059999
-0.25462741 0.11490723 1.0052692
-0.24708751 0.11706514 1.002125
-0.11524476 0.11429891 1.0046923
-0.28289893 0.12539613 1.0052857
-0.27786213 0.12596735 1.0010002
-0.26491952 0.12466562 1.0034614
-0.25505826 0.125378 1.0054061
-0.24687335 0.12507795 1.0028948
-0.11630012 0.12473319 1.003842
-0.28230792 0.13168387 1.0047501
-0.27664551 0.13316721 1.001
-0.26385203 0.13429569 1.0012399
-0.2552287 0.13553511 1.0039167
-0.24546406 0.13557428 1.0030687
-0.23956932 0.13952939 1.001
-0.12022343 0.13952939 1.001
-0.11689591 0.13543296 1.0036
-0.27231023 0.14669789 1.002
-0.26397273 0.14547302 1.0012727
-0.2550444 0.14511181 1.0031998
-0.24517716 0.14542419 1.0039998
-0.23752175 0.14508717 1.0010002
-0.12192709 0.14581876 1.003
-0.11732451 0.14393778 1.00625
-0.27252975 0.15267013 1.0053334
-0.26505211 0.15474293 1.0038064
-0.25474045 0.15460308 1.0019997
-0.24494965 0.15507905 1.0050834
-0.23489714 0.15483966 1.0052692
-0.22714108 0.15631668 1.0021539
-0.18351439 0.15893055 1.0016
-0.17638621 0.15848431 1.001
-0.15247585 0.15832967 1.0015
-0.14461184 0.15775682 1.0038
-0.1349477 0.15712979 1.0031667
-0.12609759 0.1545627 1.0048076
-0.26382187 0.16500005 1.0064783
-0.2548357 0.16462968 1.0050384
-0.24631624 0.16424154 1.0067
-0.23394288 0.16302435 1.0070001
-0.22439997 0.1642136 1.0046667
-0.21677741 0.16780047 1.002125
-0.20563765 0.16936587 1.001
-0.19330133 0.16740243 1.0015001
-0.18573165 0.16400392 1.005
-0.17526798 0.16362832 1.006
-0.16632396 0.16359001 1.0038334
-0.15576684 0.16234107 1.0059091
-0.14470567 0.16147281 1.0065
-0.13462751 0.16155301 1.0070001
-0.26307538 0.1719701 1.0070001
-0.25689578 0.17302947 1.0070001
-0.22158363 0.17038104 1.0070001
-0.21449769 0.17306644 1.0055
-0.20482779 0.17301993 1.0040001
-0.19519758 0.17274702 1.0045
-0.18980272 0.17038104 1.0070001
-0.18313128 -0.11166541 1.0190001
-0.17554928 -0.1115982 1.013
-0.18134463 -0.10451883 1.0190001
-0.17511162 -0.10517115 1.0143638
-0.16810584 -0.10688444 1.0100001
-0.17866467 -0.099158891 1.0190001
-0.13489182 -0.050919428 1.0190001
-0.2321648 -0.043574326 1.0190001
-0.22493565 -0.044389196 1.0186474
-0.21607733 -0.044645999 1.0185003
-0.15454493 -0.040199548 1.0190001
-0.14412282 -0.043028399 1.0190004
-0.13540483 -0.044443861 1.0172502
-0.12915054 -0.043643974 1.016
-0.090848088 -0.043649234 1.016
-0.085797131 -0.042276852 1.0173502
-0.24089952 -0.031861868 1.0190001
-0.2345918 -0.034512658 1.0184785
-0.22456332 -0.034854997 1.0157933
-0.21500978 -0.034453914 1.0160003
-0.20566291 -0.03345 1.0190002
-0.19524278 -0.032927718 1.0188
-0.18611407 -0.031508405 1.0185715
-0.17866467 -0.031266317 1.0190001
-0.16294219 -0.033767618 1.0190001
-0.15518114 -0.034784649 1.0173002
-0.14518449 -0.034741882 1.0160003
-0.13491568 -0.035007436 1.0141253
-0.12889631 -0.032892533 1.0140001
-0.091470525 -0.039962851 1.013
-0.085455306 -0.036238514 1.0110589
-0.078803569 -0.036302768 1.01
-0.24291524 -0.024669468 1.0190001
-0.23504885 -0.024997355 1.0150002
-0.2255021 -0.025874648 1.0110003
-0.21394469 -0.027136523 1.0122106
-0.20521587 -0.024762558 1.0161581
-0.19473998 -0.024903027 1.0143002
-0.18513624 -0.025039004 1.0146289
-0.17537282 -0.024254108 1.0174065
-0.16508938 -0.024987545 1.0179003
-0.154944 -0.025113475 1.0130912
-0.14504306 -0.024594646 1.0116367
-0.13473016 -0.024822304 1.0110836
-0.12752543 -0.024573363 1.0108184
-0.059324034 -0.020364966 1.01
-0.24411501 -0.014867827 1.0175002
-0.23557211 -0.015408255 1.0130001
-0.22932725 -0.016823232 1.01
-0.20441118 -0.017088048 1.010643
-0.19502775 -0.016645543 1.0104738
-0.18520314 -0.017265949 1.0100001
-0.17524768 -0.017504336 1.0100001
-0.16497739 -0.017084772 1.0114001
-0.15567376 -0.01638709 1.0103751
-0.14556524 -0.017885754 1.0100001
-0.13759634 -0.017885754 1.01
-0.053176846 -0.013834802 1.0134287
-0.2446785 -0.0054929373 1.0161252
-0.23762439 -0.0058253254 1.0108573
-0.24477525 0.0049629351 1.0160002
-0.23919348 0.0046801469 1.0100001
-0.27276137 0.016526483 1.0190001
-0.26588124 0.016032804 1.0190002
-0.25638381 0.018462015 1.0190001
-0.24485578 0.01538889 1.0169132
-0.23818156 0.015937801 1.01
-0.27474114 0.024975138 1.0175
-0.26494962 0.024521425 1.0134548
-0.2550883 0.024994077 1.0155948
-0.2452324 0.025091643 1.0164843
-0.23818158 0.024792135 1.0100001
-0.2741392 0.03521654 1.0158635
-0.26828629 0.036302768 1.01
-0.25199431 0.031698514 1.01
-0.24473047 0.033080231 1.0112633
-0.23877186 0.034236755 1.0100001
-0.27465174 0.04503135 1.0158696
-0.26828629 0.045157101 1.01
-0.024349418 0.046042535 1.0100001
-0.27363366 0.054991089 1.016
-0.26868474 0.054982346 1.0115
-0.097102523 0.058733743 1.01
-0.025859915 0.05561199 1.014091
-0.27299032 0.064753324 1.018
-0.26793993 0.065698013 1.0127001
-0.10165439 0.065899834 1.01125
-0.095380455 0.065146692 1.0116365
-0.27201694 0.072359189 1.0190001
-0.26729465 0.074837051 1.0134616
-0.1021964 0.074273899 1.0150771
-0.094769634 0.074301451 1.0150002
-0.08942876 0.0770327 1.01
-0.29390982 0.086408913 1.0183686
-0.28533858 0.086913079 1.0162402
-0.27404949 0.086906791 1.0187693
-0.26609963 0.08581005 1.0143124
-0.09318278 0.084652685 1.0164286
-0.087746017 0.086859696 1.011
-0.07348641 0.088222995 1.0124002
-0.30104995 0.092905626 1.0190001
-0.29475361 0.094477966 1.016
-0.284922 0.094906859 1.0138891
-0.27546698 0.094656236 1.0172859
-0.26579735 0.095369555 1.0140002
-0.10532326 0.096441582 1.0130001
-0.091654971 0.09379895 1.0190001
-0.084792174 0.094861172 1.0133337
-0.076818749 0.094523497 1.0154706
-0.29372692 0.10460136 1.0148573
-0.28575391 0.10375089 1.0107828
-0.27437061 0.10337154 1.0118464
-0.26615962 0.1042689 1.0110911
-0.1115646 0.10713743 1.0100001
-0.10708717 0.10472339 1.0123335
-0.083018579 0.10221122 1.01825
-0.078612454 0.10094553 1.0190001
-0.29215258 0.11307033 1.0155715
-0.28774479 0.11622029 1.012
-0.26449159 0.11308247 1.0100001
-0.25943196 0.11510633 1.01
-0.1122192 0.11549699 1.0116155
-0.10724181 0.11446935 1.0149412
-0.29082674 0.12451165 1.0145
-0.28787041 0.12434752 1.0121429
-0.11238806 0.12538686 1.0143846
-0.10841748 0.12225018 1.017875
-0.11324077 0.13442105 1.0125715
-0.10987877 0.13131852 1.0190001
-0.11479526 0.14571632 1.0125002
-0.27536976 0.15495083 1.01
-0.23995243 0.15849257 1.01
-0.12175146 0.15730754 1.01375
-0.1170936 0.1546526 1.014737
-0.2709426 0.1620343 1.01
-0.25057763 0.16911776 1.01
-0.24297981 0.16727677 1.0105456
-0.23575202 0.165583 1.0112695
-0.22755635 0.16823232 1.01
-0.18326765 0.1683014 1.0110002
-0.17612135 0.16824558 1.0106667
-0.16453061 0.16779734 1.0145
-0.15550628 0.16616936 1.0136001
-0.14506021 0.16593069 1.0128126
-0.13522786 0.16573375 1.0137895
-0.12597349 0.16355847 1.0169231
-0.118812 0.16169152 1.0190001
-0.26297373 0.17726374 1.0100001
-0.25404406 0.17582014 1.0107145
-0.24502964 0.17489983 1.0127003
-0.23521185 0.17551978 1.0163002
-0.22523382 0.1755109 1.0144349
-0.21537334 0.17755802 1.0110002
-0.20579509 0.17744018 1.0107501
-0.19363368 0.17701723 1.0132143
-0.18602124 0.17388231 1.0152942
-0.17602801 0.17282151 1.0172001
-0.16581975 0.17117517 1.0177144
-0.15990488 0.17062476 1.0190001
-0.1420384 0.17107143 1.0190001
-0.1370358 0.17133941 1.0190001
-0.26193276 0.18298119 1.0142
-0.2546677 0.18308701 1.0175
-0.24432079 0.18439639 1.0177501
-0.23608062 0.18314184 1.0184705
-0.224998 0.18254045 1.0187693
-0.21527365 0.18260998 1.0176154
-0.20531955 0.18183333 1.0162728
-0.19653726 0.18139023 1.01675
-0.24030398 0.19027787 1.0190001
-0.18546236 -0.11020226 1.0220001
-0.18277447 -0.10594648 1.0220002
-0.18098256 -0.098554865 1.0220001
-0.17739877 -0.09765891 1.0220001
-0.13788565 -0.074800707 1.028
-0.22079727 -0.060381293 1.028
-0.21538998 -0.060381293 1.028
-0.15140384 -0.060381293 1.028
-0.14383364 -0.06182323 1.028
-0.13759303 -0.063362569 1.0268461
-0.24122477 -0.051969972 1.028
-0.23470314 -0.053858664 1.0265788
-0.22489086 -0.05479271 1.0258076
-0.21568836 -0.054245427 1.0254999
-0.20913918 -0.052781116 1.0273999
-0.15410937 -0.054607034 1.0269564
-0.14483103 -0.054661877 1.0246537
-0.13706858 -0.055085234 1.0228573
-0.092297338 -0.052502941 1.0250001
-0.087212034 -0.053046398 1.0256001
-0.24484785 -0.044234008 1.0277143
-0.2367544 -0.045492899 1.0229545
-0.22488429 -0.049277432 1.0220001
-0.21144497 -0.04479767 1.0220002
-0.20521049 -0.044841032 1.0241561
-0.19526558 -0.042904936 1.0260433
-0.18508762 -0.042421281 1.0269411
-0.17487909 -0.044248153 1.0268887
-0.16456874 -0.04410059 1.0249999
-0.15516602 -0.045744214 1.0230798
-0.14633904 -0.048082825 1.0220002
-0.091521375 -0.048453804 1.0235001
-0.08550369 -0.048104774 1.0247273
-0.25143853 -0.03244368 1.028
-0.2457255 -0.035455588 1.025
-0.23832358 -0.038525995 1.0220001
-0.21144497 -0.038525995 1.0220001
-0.20533623 -0.036896989 1.0220002
-0.19510223 -0.037254132 1.0222145
-0.18446539 -0.035974666 1.0225216
-0.17462568 -0.035105634 1.022375
-0.16730434 -0.035658941 1.0220002
-0.25246388 -0.024693632 1.0269285
-0.24719448 -0.025840553 1.0222503
-0.17327735 -0.028849697 1.0220001
-0.25349376 -0.015622998 1.0263635
-0.24937367 -0.015529857 1.0220002
-0.05328064 -0.017043103 1.0232
-0.2534312 -0.0062988503 1.0263333
-0.24997097 -0.0062716734 1.0220001
-0.28218856 0.0079074353 1.0276666
-0.27471876 0.0071909018 1.0257499
-0.26547951 0.0081948359 1.0261666
-0.25470814 0.0061938935 1.0258332
-0.24997096 0.0062716738 1.0220001
-0.28327677 0.015287138 1.0258
-0.27649897 0.013993287 1.022231
-0.26302576 0.013267472 1.0226002
-0.25526688 0.014433923 1.02275
-0.24997097 0.012543347 1.0220001
-0.28305727 0.025160335 1.0250001
-0.28305724 0.035044748 1.0250001
-0.28288186 0.044260561 1.0247999
-0.2817505 0.054910891 1.0267999
-0.27864149 0.055549107 1.0220001
-0.30010405 0.069393426 1.028
-0.29830161 0.069393426 1.028
-0.28207979 0.06488736 1.028
-0.27800474 0.065352134 1.0235001
-0.022987954 0.062687457 1.0244
-0.018579928 0.066229388 1.0255001
-0.30190647 0.0748007 1.028
-0.29489368 0.075793095 1.0271723
-0.28422001 0.075987078 1.0274545
-0.27564272 0.07615494 1.025
-0.10124273 0.078843892 1.0220001
-0.098734058 0.078306317 1.0220001
-0.015906533 0.071727403 1.0270001
-0.31001124 0.083568253 1.0250001
-0.303361 0.08469265 1.0256
-0.296446 0.082681611 1.0223752
-0.28343987 0.082568675 1.0251875
-0.27650133 0.083707236 1.0238
-0.10247401 0.085737556 1.025375
-0.097818762 0.08525496 1.0236669
-0.30372527 0.091267429 1.024
-0.10373846 0.094429851 1.0275
-0.09500581 0.095528811 1.0251765
-0.074005745 0.096583769 1.0220001
-0.092501216 0.10439907 1.025923
-0.086314902 0.10582159 1.0229377
-0.078509003 0.10318454 1.0235001
-0.091022544 0.11084924 1.028
-0.087245859 0.11063358 1.026
-0.11020226 0.12901728 1.0220001
-0.10820105 0.1261622 1.02425
-0.11134143 0.13702875 1.0254287
-0.10756408 0.13413449 1.0253334
-0.11178219 0.14484952 1.025
-0.10904681 0.14149049 1.028
-0.11268465 0.15538694 1.0245386
-0.10904681 0.15951476 1.028
-0.15410396 0.16933517 1.0220001
-0.13170514 0.16933517 1.0220001
-0.12428996 0.16716799 1.022231
-0.11545871 0.1650071 1.0246537
-0.10904681 0.16221839 1.028
-0.18322879 0.17724817 1.0240002
-0.17487416 0.17629147 1.0252144
-0.16584915 0.17510822 1.0243077
-0.15510318 0.17248572 1.0253334
-0.14394711 0.17471321 1.0235002
-0.13483606 0.17544523 1.0246999
-0.12567821 0.17249274 1.0268461
-0.11794236 0.17196429 1.027
-0.255564 0.18835834 1.0236669
-0.24880917 0.18873692 1.0227501
-0.2337781 0.18783808 1.0229234
-0.22518775 0.18723345 1.0233848
-0.21407773 0.18692581 1.0238751
-0.20652612 0.1867507 1.025375
-0.19427761 0.18518285 1.0244001
-0.18762136 0.18375498 1.0247693
-0.14239171 0.18114388 1.028
-0.13878685 0.18114388 1.028
-0.26045066 0.19285965 1.028
-0.25479704 0.19321294 1.027
-0.24504149 0.19356437 1.0257499
-0.23588771 0.193077 1.0273076
-0.2244021 0.19159795 1.028
-0.21606588 0.19083191 1.028
-0.2090815 0.19015601 1.028
-0.1911525 -0.096029483 1.0366668
-0.18607134 -0.097563945 1.0336667
-0.20110558 -0.086448096 1.0380001
-0.15457878 -0.081835791 1.0372002
-0.14606845 -0.081755012 1.0348889
-0.22567505 -0.070068456 1.0380001
-0.20276009 -0.072384767 1.0380001
-0.19473574 -0.0737084 1.0380001
-0.18448251 -0.073649332 1.037158
-0.17469391 -0.075411543 1.0353849
-0.16495816 -0.075234689 1.0338848
-0.15525396 -0.074964933 1.0329632
-0.14487389 -0.074949004 1.0317242
-0.13828804 -0.072307467 1.031
-0.2502445 -0.06187864 1.0380001
-0.24387795 -0.062804468 1.0359232
-0.23452939 -0.063710764 1.0336088
-0.22508286 -0.064527921 1.0331202
-0.21541975 -0.06409438 1.0341541
-0.20468165 -0.06421183 1.0347145
-0.19485179 -0.064705081 1.0341483
-0.18517955 -0.064942345 1.0340003
-0.17509505 -0.064870007 1.0310882
-0.16540335 -0.065076716 1.031
-0.15567373 -0.06534256 1.0309999
-0.14560094 -0.066802233 1.031
-0.13828804 -0.068692088 1.031
-0.25279161 -0.054460928 1.0369092
-0.24540523 -0.055440024 1.0318573
-0.23564489 -0.05849158 1.031
-0.22867236 -0.058749817 1.031
-0.21204165 -0.058026742 1.031
-0.20434138 -0.055537079 1.0322224
-0.19497068 -0.055119809 1.0333079
-0.18543972 -0.055181667 1.0318401
-0.17534564 -0.055134431 1.031
-0.16540335 -0.055134431 1.031
-0.15907644 -0.056942131 1.031
-0.25358683 -0.044951964 1.0338001
-0.24810499 -0.04835562 1.031
-0.2024609 -0.049711384 1.031
-0.1948428 -0.048420183 1.031
-0.18502964 -0.04803282 1.031
-0.17573296 -0.049194898 1.031
-0.16721103 -0.049259461 1.031
-0.26116425 -0.032759279 1.0380001
-0.25590384 -0.035652772 1.0338891
-0.26125291 -0.024791881 1.0362858
-0.25702217 -0.026047518 1.0316001
-0.26082876 -0.014536302 1.0366668
-0.25759536 -0.015365337 1.031
-0.29028362 -0.00090997998 1.0380001
-0.28425214 -0.0029874295 1.0368572
-0.27519286 -0.0024073785 1.036412
-0.26328754 -0.0030332666 1.0380001
-0.25724262 -0.0045218468 1.0320001
-0.29239529 0.0050398768 1.0372728
-0.28582281 0.004237392 1.0322633
-0.27476835 0.0018076865 1.031
-0.26452148 0.0030144188 1.0321668
-0.25867996 0.0034346045 1.031
-0.29198033 0.014136625 1.0357143
-0.28832603 0.015365337 1.031
-0.29165334 0.024535796 1.0364001
-0.28832603 0.025307611 1.031
-0.29135314 0.034486897 1.0353334
-0.28832603 0.035249889 1.031
-0.29083908 0.044454366 1.0347999
-0.28772345 0.045192167 1.031
-0.30666324 0.059148699 1.0380001
-0.28637865 0.054896381 1.0341113
-0.32122293 0.068248503 1.0380001
-0.31324905 0.065943614 1.0365715
-0.30475914 0.065122455 1.0343105
-0.2944296 0.06644246 1.0341113
-0.28637937 0.065676667 1.0323573
-0.024638237 0.066813394 1.0337274
-0.31501517 0.074734554 1.0357693
-0.30748612 0.075061075 1.0316001
-0.29073629 0.072006188 1.031
-0.28712091 0.074416436 1.031
-0.022046853 0.072955765 1.0370001
-0.017519673 0.075963527 1.0335835
-0.31145942 0.083769016 1.0324445
-0.30787078 0.084086694 1.0313751
-0.10574967 0.089480489 1.031
-0.01501467 0.081898198 1.0380001
-0.31030318 0.093727939 1.0380001
-0.30910739 0.091553807 1.034
-0.10153005 0.095201179 1.0317501
-0.098518923 0.097615078 1.031
-0.10272963 0.10385055 1.0356154
-0.097208969 0.10536313 1.0330834
-0.081738651 0.10898545 1.036
-0.10100778 0.11010758 1.0380001
-0.094410427 0.11372558 1.0367501
-0.086074375 0.11404266 1.0357001
-0.10726601 0.12902136 1.034
-0.10710543 0.13467266 1.031
-0.11046263 0.14798923 1.0356668
-0.10670672 0.1440628 1.0359377
-0.11058099 0.1537274 1.034889
-0.10814618 0.1529754 1.0366668
-0.11162465 0.16766293 1.031
-0.10936505 0.16630718 1.031
-0.18348019 0.17986482 1.031
-0.17444175 0.17986482 1.031
-0.16345042 0.17822985 1.0320001
-0.15514614 0.17676555 1.0340002
-0.14739878 0.17844479 1.0315001
-0.13286497 0.17926227 1.031
-0.12399937 0.17705767 1.0324616
-0.11418707 0.17459294 1.0349525
-0.20336474 0.18890326 1.031
-0.19794169 0.18890326 1.031
-0.18397333 0.18540204 1.0337859
-0.17514163 0.18331613 1.0351667
-0.16563371 0.18198763 1.0362223
-0.15196666 0.18108602 1.0380001
-0.14468725 0.1823623 1.0315
-0.13454148 0.18356198 1.0353847
-0.12662457 0.18115674 1.0366668
-0.26068428 0.19732583 1.0325
-0.2548838 0.1976404 1.031
-0.24508199 0.19805686 1.0316001
-0.23379122 0.19729383 1.0323334
-0.22509693 0.19613437 1.0325835
-0.21449639 0.19528288 1.0341334
-0.20495024 0.19407195 1.0346668
-0.19510376 0.19386654 1.0341053
-0.18799941 0.19072583 1.036
-0.25486016 0.20130283 1.0355
-0.2440286 0.20048559 1.0347999
-0.23534204 0.2014637 1.0375001
-0.227495 0.20110558 1.0380001
-0.20101354 -0.090869129 1.0470001
-0.19435579 -0.092074685 1.043077
-0.18559676 -0.09279719 1.0423335
-0.17427637 -0.092836186 1.0454999
-0.165231 -0.093399517 1.0458263
-0.15719116 -0.091873355 1.0445
-0.20348373 -0.084206097 1.0447059
-0.19490173 -0.08509776 1.0437602
-0.18501805 -0.085235499 1.0438968
-0.17484818 -0.084894881 1.0429616
-0.16496769 -0.085264407 1.0433574
-0.15487954 -0.086642884 1.0430626
-0.14875543 -0.08487273 1.041
-0.24357614 -0.071491942 1.0455
-0.23480067 -0.073640473 1.0440001
-0.22544931 -0.074199609 1.0437394
-0.21497406 -0.074358448 1.044414
-0.20651162 -0.075972348 1.0425882
-0.19464667 -0.079136327 1.041
-0.18594429 -0.078712612 1.041
-0.17795895 -0.079397067 1.041
-0.26159295 -0.06149729 1.0470001
-0.25539166 -0.064610109 1.044158
-0.24603432 -0.067294247 1.0420002
-0.23636599 -0.06844575 1.041
-0.21263814 -0.06844575 1.041
-0.2628918 -0.053390879 1.0448571
-0.25717586 -0.056001469 1.0415
-0.2640256 -0.044580217 1.043348
-0.25826862 -0.048368331 1.041
-0.27077165 -0.034420125 1.0470001
-0.26587194 -0.034959964 1.0428572
-0.27077165 -0.026618229 1.0470001
-0.26638299 -0.024546802 1.043077
-0.29305038 -0.011236675 1.04625
-0.28599361 -0.011421135 1.045909
-0.27399787 -0.011562268 1.0467
-0.26620749 -0.014387487 1.042737
-0.30106133 -0.0027536098 1.0470001
-0.29445535 -0.0045740949 1.0431001
-0.28513145 -0.0070562898 1.0415455
-0.27470067 -0.0068575055 1.04275
-0.26709247 -0.0059707067 1.0414617
-0.30197921 0.00458935 1.0470001
-0.29796368 0.0042409943 1.0434545
-0.30044943 0.01468592 1.0470001
-0.29680026 0.014885799 1.0434545
-0.29592848 0.024103949 1.044
-0.2960473 0.034825142 1.0454999
-0.31452346 0.048035193 1.0470001
-0.30748644 0.048647109 1.0470001
-0.29600441 0.045553178 1.0434
-0.32408038 0.056127973 1.045174
-0.31462312 0.054868329 1.0437933
-0.30481377 0.055026915 1.042969
-0.29493949 0.05509492 1.0425003
-0.28929737 0.059319649 1.041
-0.32273993 0.063634552 1.0412143
-0.31702709 0.064387664 1.0412309
-0.30024868 0.06114487 1.041
-0.29545751 0.061829321 1.041
-0.034624703 0.066407621 1.0458573
-0.028290911 0.06844575 1.041
-0.31667566 0.072096191 1.041
-0.033162046 0.071171559 1.0465714
-0.025170743 0.075394548 1.044
-0.31667566 0.081222288 1.041
-0.021554824 0.083008721 1.04625
-0.015132401 0.085904151 1.044353
-0.01560379 0.090869129 1.0470001
-0.10495015 0.10750546 1.041
-0.078710645 0.10891356 1.044
-0.10376433 0.11452891 1.0423335
-0.095908478 0.11764594 1.0418999
-0.083824381 0.11642787 1.041923
-0.078937694 0.11418262 1.0456667
-0.10450605 0.12076546 1.0470001
-0.094055682 0.12326687 1.0463077
-0.08607652 0.12197678 1.0461428
-0.10434175 0.14753862 1.041
-0.10587665 0.15496033 1.0431668
-0.10728648 0.16047382 1.046
-0.15788153 0.17978416 1.041
-0.1123571 0.1781299 1.0419999
-0.10853813 0.17600158 1.0470001
-0.18195654 0.18927319 1.0430001
-0.17526104 0.18840818 1.0437272
-0.16516592 0.1859898 1.0450909
-0.15650603 0.18213277 1.044
-0.13330914 0.18793482 1.0423332
-0.12472375 0.18667828 1.0435715
-0.11573359 0.18429397 1.0450002
-0.10861462 0.18143231 1.0470001
-0.22358947 0.19986159 1.041
-0.21537596 0.19986159 1.041
-0.20460716 0.1991315 1.041
-0.19365741 0.19792239 1.0419999
-0.18638217 0.19440107 1.0447501
-0.17164169 0.19183482 1.0470001
-0.16888808 0.19183482 1.0470001
-0.13226637 0.19190742 1.0434
-0.12527573 0.19329014 1.046357
-0.11840523 0.19183482 1.0470001
-0.25417858 0.20682068 1.0429502
-0.24441759 0.20640939 1.0433333
-0.23505579 0.20661527 1.0428336
-0.2256308 0.20474459 1.044
-0.21469693 0.20402583 1.0461818
-0.20473529 0.20393547 1.0454999
-0.19595841 0.20219307 1.0455
-0.25375932 0.21148707 1.0433333
-0.24598914 0.21111009 1.0470001
-0.23344493 0.21080415 1.0470001
-0.12138941 -0.10285667 1.057
-0.1186095 -0.10193003 1.057
-0.11644734 -0.096679091 1.057
-0.23417537 -0.082731806 1.053353
-0.22477679 -0.083313175 1.0530951
-0.21515563 -0.084105223 1.0541906
-0.20903744 -0.086759105 1.0527501
-0.26060671 -0.075017072 1.0564001
-0.25537482 -0.073445648 1.0554376
-0.24529475 -0.075226657 1.052875
-0.23687124 -0.078341864 1.0513334
-0.22276101 -0.078242503 1.0500001
-0.2181585 -0.078242503 1.0500001
-0.26422471 -0.064521477 1.0528182
-0.25681949 -0.069037497 1.0500001
-0.27165794 -0.051744372 1.054
-0.26709092 -0.056246355 1.0517778
-0.27223715 -0.043373376 1.0526667
-0.26970649 -0.047866002 1.0500001
-0.27346915 -0.034753989 1.0526667
-0.29374385 -0.022239279 1.057
-0.2851724 -0.022007618 1.057
-0.27500519 -0.023784239 1.0529231
-0.30191526 -0.013469302 1.0553334
-0.29539636 -0.016025776 1.0531766
-0.28457689 -0.016296357 1.0536362
-0.27610576 -0.016093992 1.0521667
-0.30334094 -0.0053980122 1.0517143
-0.29916251 -0.0082844999 1.0500001
-0.30491763 0.0046032011 1.0508001
-0.30518514 0.01455179 1.0526923
-0.30219164 0.024939502 1.0534999
-0.29916251 0.023933001 1.0500001
-0.32416809 0.038591016 1.0565001
-0.31505647 0.038107935 1.057
-0.30415967 0.03526742 1.05532
-0.29916251 0.0395815 1.0500001
-0.33171839 0.048048347 1.054
-0.3248446 0.045451626 1.0525653
-0.31488377 0.044373885 1.0523999
-0.30500141 0.044863153 1.0519129
-0.29916251 0.041422501 1.0500001
-0.33124849 0.052994501 1.0500001
-0.32546249 0.051416505 1.0500001
-0.30192399 0.0506275 1.0500001
-0.03083675 0.076401502 1.0500001
-0.0285355 0.076401502 1.0500001
-0.03049222 0.080388576 1.054
-0.024631266 0.085081935 1.051643
-0.018741379 0.088788211 1.0513334
-0.014728 0.095122017 1.0519999
-0.012722844 0.10201835 1.0555
-0.0083397301 0.10285667 1.057
-0.076574728 0.1149559 1.0524
-0.10389514 0.12582612 1.0518889
-0.09546686 0.12738998 1.0504445
-0.084629454 0.12550303 1.0526429
-0.078540564 0.12104487 1.054
-0.10285667 0.13065577 1.057
-0.095474042 0.1313023 1.05475
-0.088430017 0.131953 1.05625
-0.10140009 0.15671161 1.0515001
-0.098618567 0.15760772 1.0513334
-0.10544835 0.16572846 1.053857
-0.097914606 0.16432357 1.057
-0.10496127 0.17496884 1.0536842
-0.099150121 0.1769876 1.057
-0.16273671 0.18809649 1.0517501
-0.15637805 0.18556345 1.0513334
-0.11276125 0.18824226 1.0500001
-0.10574718 0.18553087 1.0540556
-0.18314336 0.1966251 1.0530001
-0.17568254 0.19478334 1.0541111
-0.16635889 0.19096692 1.0523334
-0.12212142 0.19687362 1.0526667
-0.11525317 0.19425367 1.0538751
-0.10918664 0.19246823 1.0555
-0.22382458 0.20869473 1.0524
-0.21597736 0.20799153 1.0513334
-0.20563969 0.20858531 1.0500001
-0.19444138 0.20584939 1.052091
-0.18676905 0.20466675 1.0557334
-0.12104487 0.20050944 1.054
-0.11768286 0.20108016 1.057
-0.25193238 0.21502121 1.0526667
-0.24503507 0.21447544 1.053
-0.2336988 0.21498799 1.0541875
-0.22476567 0.21392694 1.0557144
-0.21428856 0.21290059 1.0558749
-0.20679338 0.21173136 1.0546666
-0.19552034 0.21034652 1.057
-0.12391174 -0.11356627 1.0641818
-0.11796807 -0.11217953 1.0614445
-0.12284906 -0.10723738 1.0600001
-0.11501302 -0.10548408 1.0617999
-0.10768681 -0.10272283 1.0620002
-0.11246213 -0.096103176 1.0602002
-0.10727863 -0.095752738 1.0641177
-0.27033156 -0.081380092 1.067
-0.26745436 -0.081075013 1.0630001
-0.25162348 -0.081380092 1.067
-0.2441819 -0.083319187 1.0631001
-0.23820202 -0.085802294 1.0600001
-0.10850678 -0.088863313 1.067
-0.27173468 -0.07389687 1.067
-0.26566491 -0.075397715 1.0618001
-0.25443789 -0.078102157 1.0617274
-0.24747971 -0.078763895 1.0632501
-0.095411137 -0.071558356 1.067
-0.27423012 -0.064066693 1.0648751
-0.2679787 -0.067361064 1.0608572
-0.092869408 -0.066050425 1.0634615
-0.086781673 -0.063101731 1.0663334
-0.27570626 -0.055454556 1.0638462
-0.083691388 -0.056316014 1.0646667
-0.075900622 -0.054810841 1.0643042
-0.06989225 -0.051254317 1.0630001
-0.27708846 -0.045789175 1.066
-0.074624933 -0.048587713 1.06075
-0.06876573 -0.047392599 1.0600001
-0.27802211 -0.03457924 1.066
-0.31280765 -0.025239313 1.0662729
-0.30464542 -0.024683822 1.0641818
-0.29571351 -0.026150966 1.0611112
-0.28422391 -0.025144748 1.0622224
-0.27877998 -0.026948731 1.0600001
-0.31211293 -0.015901856 1.067
-0.30608812 -0.016316695 1.0616667
-0.30787745 -0.0065127569 1.061
-0.30758727 0.0195146 1.0600001
-0.33019736 0.028997503 1.067
-0.32552037 0.028997503 1.067
-0.31347731 0.028043984 1.0663333
-0.30767804 0.025937436 1.062143
-0.32415292 0.033395208 1.0615001
-0.31519806 0.032913685 1.0613751
-0.3088263 0.031285312 1.0600001
-0.030759823 0.08575356 1.0632501
-0.028187754 0.085802287 1.0600001
-0.03075259 0.093189664 1.0630001
-0.024869757 0.094655134 1.0613637
-0.021854773 0.10405104 1.0654
-0.015465234 0.10592805 1.0612381
-0.014191965 0.11398564 1.06485
-0.081889868 0.12935084 1.0615001
-0.077632718 0.12424082 1.0632857
-0.10383824 0.13669382 1.0645335
-0.095120199 0.13662787 1.0618824
-0.084625982 0.13506697 1.0633157
-0.079509281 0.13189188 1.067
-0.092052191 0.14158122 1.0660001
-0.087927908 0.1412459 1.067
-0.095482141 0.16657104 1.0600001
-0.10129007 0.17191434 1.0600001
-0.096728198 0.17370692 1.0625789
-0.15655863 0.18917502 1.0630001
-0.10129007 0.1867826 1.0600001
-0.099035725 0.18455674 1.0632501
-0.181207 0.19979233 1.0600001
-0.1756314 0.19867721 1.0600001
-0.16473322 0.19460039 1.064625
-0.15935433 0.19103882 1.0630001
-0.11205488 0.19760922 1.06075
-0.10447793 0.19507656 1.0631499
-0.099712946 0.19103882 1.0630001
-0.1828348 0.20650776 1.0630001
-0.17694502 0.20228244 1.0647143
-0.11389984 0.20220549 1.064
-0.10757139 0.20111172 1.067
-0.25317988 0.21954508 1.0656667
-0.24584736 0.21925324 1.06425
-0.23882154 0.21837766 1.0600001
-0.2237563 0.21847993 1.0620002
-0.21578902 0.21748994 1.0639091
-0.20438376 0.21499929 1.0630771
-0.19492146 0.21386483 1.0638463
-0.18632329 0.21305682 1.0635835
-0.23392521 0.22179478 1.0645
-0.2258967 0.22163136 1.0654285
-0.14068133 -0.1227421 1.077
-0.13489112 -0.12247437 1.0730001
-0.12793021 -0.12134557 1.0730001
-0.14162549 -0.11990959 1.077
-0.13417278 -0.11826704 1.0730001
-0.12754147 -0.11734885 1.0708573
-0.10285918 -0.093970366 1.0711999
-0.096737273 -0.093984932 1.0745384
-0.1031396 -0.086712509 1.0728
-0.095063098 -0.085653104 1.07364
-0.088196613 -0.083008058 1.076
-0.28162333 -0.074244902 1.072
-0.27616322 -0.075402685 1.0706667
-0.10065097 -0.079956383 1.0730001
-0.094540492 -0.076394416 1.0723478
-0.085321367 -0.074432917 1.0737499
-0.078133263 -0.071733952 1.0738001
-0.28117868 -0.065131217 1.0715001
-0.27797055 -0.067851074 1.0700001
-0.090989232 -0.068476431 1.0700001
-0.083809204 -0.066052645 1.0704614
-0.077530906 -0.064492084 1.0715882
-0.28150216 -0.056194581 1.0708573
-0.28377324 -0.044283524 1.0726666
-0.31048903 -0.0309551 1.0700001
-0.30388722 -0.032426953 1.0720832
-0.29847679 -0.032362297 1.0751667
-0.28437912 -0.035155311 1.074111
-0.3136158 -0.024076188 1.0700001
-0.30673692 -0.029079033 1.0700001
-0.29439047 -0.028217819 1.072875
-0.28625923 -0.028418552 1.0734001
-0.3151792 -0.015946567 1.0700001
-0.31236508 -0.0075042667 1.0700001
-0.31236508 0.0196987 1.0700001
-0.33140367 0.024548419 1.077
-0.32491907 0.026356479 1.0738571
-0.31571051 0.025031941 1.072091
-0.024274897 0.10593955 1.0732
-0.0196987 0.1097499 1.0700001
-0.07420589 0.1174159 1.0715001
-0.023282574 0.11451664 1.0745
-0.018064044 0.11682691 1.0703751
-0.076263331 0.12635361 1.0740001
-0.022147669 0.12345834 1.075
-0.015992116 0.12511244 1.073
-0.08303348 0.13944231 1.0723333
-0.079844609 0.13432944 1.0715001
-0.015909571 0.1332493 1.0759333
-0.10304011 0.14413883 1.0734166
-0.095414177 0.14534995 1.0733334
-0.085556142 0.14463899 1.0739374
-0.10102619 0.15012303 1.077
-0.092528656 0.15012303 1.077
-0.093401313 0.17836034 1.0700001
-0.088175133 0.17916436 1.0700001
-0.094882198 0.18525441 1.0737499
-0.087153994 0.18447557 1.0735999
-0.1716601 0.1998011 1.0700001
-0.16410366 0.19790338 1.0709
-0.15652673 0.19359237 1.0730001
-0.1013076 0.19792503 1.0700001
-0.097306892 0.19454905 1.0744615
-0.18129423 0.20853665 1.0715001
-0.17475711 0.20552146 1.0725714
-0.16554886 0.2019913 1.075
-0.1120419 0.20748501 1.072
-0.10419597 0.2049516 1.0735714
-0.098508395 0.20173764 1.077
-0.2026152 0.21856177 1.0700001
-0.1952008 0.21866392 1.0705001
-0.18445456 0.21562305 1.0727144
-0.17905742 0.21109958 1.075
-0.11424457 0.21054991 1.077
-0.10438324 0.21138918 1.077
-0.09913785 0.21054991 1.077
-0.25232932 0.22558574 1.0734285
-0.24572228 0.2246698 1.073909
-0.23479061 0.22707859 1.073
-0.22495884 0.22629245 1.0721176
-0.21562876 0.22370194 1.0740713
-0.20515774 0.22304457 1.0734999
-0.19641444 0.2224327 1.0750999
-0.18977816 0.22187994 1.077
-0.25209337 0.23132165 1.077
-0.24831671 0.23132165 1.077
-0.23234384 0.23046252 1.0730001
-0.22638953 0.23110686 1.0760001
-0.29066759 -0.042606 1.08
-0.29394633 -0.034667831 1.0810525
-0.28877398 -0.033137999 1.08
-0.29161441 -0.0293508 1.08
-0.3319504 0.018087387 1.086
-0.32459199 0.018084407 1.0857999
-0.31780416 0.018048594 1.08375
-0.33285913 0.021335218 1.08175
-0.3253538 0.022763528 1.082
-0.31907159 0.021776401 1.08
-0.0255636 0.108882 1.08
