# .PCD v0.7 - Point Cloud Data file format
VERSION 0.7
FIELDS x y z
SIZE 4 4 4
TYPE F F F
COUNT 1 1 1
WIDTH 1458
HEIGHT 1
VIEWPOINT 0 0 0 1 0 0 0
POINTS 1458
DATA ascii
-0.13514477 -0.048613634 1.032091
-0.12572758 -0.049295623 1.0317501
-0.11424497 -0.047830198 1.0323848
-0.10577382 -0.048211522 1.0324001
-0.094984807 -0.048850931 1.0319
-0.08667703 -0.049215566 1.0314286
-0.033780675 -0.045436174 1.0335716
-0.026345894 -0.043130253 1.0363531
-0.18169266 -0.037915833 1.0380001
-0.17453793 -0.034922641 1.0366669
-0.16563922 -0.035484429 1.0337695
-0.15530522 -0.035125218 1.031
-0.14913414 -0.03796142 1.031
-0.033080667 -0.038142189 1.031
-0.025304783 -0.034990981 1.0352224
-0.019109581 -0.03002934 1.0380001
-0.17372203 -0.025347747 1.036889
-0.16569526 -0.025351793 1.0328002
-0.15659086 -0.026286772 1.031
-0.023704961 -0.026657354 1.0352501
-0.019109581 -0.0272994 1.0380001
-0.17215167 -0.014642406 1.0380001
-0.16567451 -0.015554442 1.0336252
-0.1558293 -0.01509753 1.031
-0.14696494 -0.013376881 1.031
-0.17132442 -0.0042189974 1.0380001
-0.16420117 -0.0054421127 1.0348002
-0.15478468 -0.0054296348 1.0325001
-0.14577702 -0.0053584995 1.031
-0.015365337 -0.00090384332 1.031
-0.20308194 0.0072647608 1.036
-0.19477206 0.0071602953 1.0333638
-0.18491188 0.0063378089 1.0337601
-0.17490649 0.0057333466 1.0337578
-0.16503534 0.0050875093 1.0333796
-0.15525527 0.0056741051 1.0323637
-0.14551878 0.0054230611 1.031
-0.13648035 0.0099422764 1.031
-0.012410167 0.0059050075 1.0360833
-0.007251787 0.009971207 1.034
-0.20434849 0.014694427 1.0356299
-0.19448718 0.015378486 1.0318401
-0.18573982 0.011749963 1.031
-0.17715329 0.011749963 1.031
-0.15352425 0.012524687 1.031
-0.14672391 0.012352526 1.031
-0.012134294 0.012493377 1.0330001
-0.0065647359 0.015090392 1.0330418
-0.20145391 0.023024773 1.0366668
-0.19459309 0.025045676 1.0334288
-0.18606262 0.027890025 1.031
-0.17896098 0.028922986 1.031
-0.0071651964 0.024394726 1.0341365
-0.19335333 0.033893183 1.0368572
-0.18474758 0.03535768 1.0340401
-0.17581387 0.036040228 1.0317895
-0.011749963 0.038865265 1.031
-0.008292703 0.034603849 1.0349287
-0.19018582 0.040949099 1.0380001
-0.18367569 0.042191513 1.0372001
-0.17490378 0.043976706 1.035182
-0.16694123 0.046940453 1.0321251
-0.013191884 0.045534845 1.0342222
-0.0090805134 0.040870197 1.036
-0.17198622 0.050655555 1.0380001
-0.16311994 0.054422859 1.0359232
-0.15581232 0.056006771 1.0330001
-0.14913414 0.058749817 1.031
-0.036153734 0.058749817 1.031
-0.02402281 0.058002803 1.0320001
-0.016288158 0.05442914 1.0357648
-0.19321178 0.067985497 1.0363334
-0.18509714 0.0684852 1.0357144
-0.17424586 0.068564646 1.0364616
-0.16421749 0.067396939 1.036737
-0.15516964 0.065331534 1.0350668
-0.14566205 0.066113062 1.0320002
-0.13768548 0.068993367 1.031
-0.042697582 0.066523351 1.0329232
-0.035165086 0.064545564 1.0346539
-0.026230024 0.063606314 1.035091
-0.019109581 0.06096866 1.0380001
-0.20110558 0.071888417 1.0380001
-0.19521511 0.074586503 1.0365001
-0.185656 0.075166374 1.0330402
-0.17688054 0.074126691 1.0311667
-0.16483375 0.072912991 1.0322858
-0.15529318 0.073859259 1.0321054
-0.14478518 0.075104028 1.0322002
-0.13630468 0.075271592 1.0313751
-0.12418807 0.078634366 1.031
-0.11298042 0.078634366 1.031
-0.042728376 0.074741356 1.0345296
-0.036601413 0.073303953 1.0380001
-0.0272994 0.070068456 1.0380001
-0.1910958 0.082808182 1.0380001
-0.18483782 0.084186114 1.0357145
-0.17631705 0.085899636 1.0323638
-0.16841614 0.088877924 1.031
-0.12292269 0.080442056 1.031
-0.11336776 0.083282717 1.031
-0.106584 0.086560398 1.031
-0.097615078 0.089480489 1.031
-0.041647803 0.085471138 1.0328001
-0.038847603 0.085358523 1.0374286
-0.18108602 0.090088017 1.0380001
-0.17358099 0.09549731 1.0374286
-0.16602036 0.095612071 1.032143
-0.15952834 0.097163156 1.031
-0.10258622 0.091740102 1.031
-0.095359504 0.095533431 1.0312858
-0.085936889 0.097180508 1.0318573
-0.077730522 0.098518923 1.031
-0.061160069 0.097916365 1.031
-0.055335298 0.097715497 1.031
-0.044380832 0.095816143 1.0332175
-0.037262056 0.095091596 1.0367502
-0.17253222 0.1046477 1.0380001
-0.16498484 0.10364328 1.0348574
-0.15537871 0.10441292 1.033182
-0.14592724 0.10778711 1.0317501
-0.094581142 0.10463356 1.0318891
-0.085593641 0.10491291 1.0356971
-0.075047255 0.10472316 1.0352309
-0.064903267 0.10419768 1.0341482
-0.055164535 0.1040545 1.0358335
-0.04493881 0.10304709 1.0356002
-0.037463911 0.10240299 1.036
-0.15196666 0.11071423 1.0380001
-0.14338654 0.11250799 1.035889
-0.13529317 0.11600629 1.0332942
-0.1272033 0.11785834 1.0315
-0.092643946 0.11162465 1.031
-0.084954813 0.11459655 1.0343795
-0.075268343 0.11140756 1.0380001
-0.065518565 0.11010758 1.0380001
-0.059148699 0.11010758 1.0380001
-0.13231109 0.12211931 1.0380001
-0.12416277 0.1227794 1.0355884
-0.11488763 0.12369307 1.0351502
-0.10455069 0.12474957 1.0336193
-0.095533922 0.12703818 1.0326002
-0.084816687 0.12488254 1.0327189
-0.078864932 0.12436394 1.0380001
-0.10100778 0.13012713 1.0380001
-0.094170533 0.13326809 1.0371429
-0.085205577 0.13366926 1.0364445
-0.07916826 0.13012713 1.0380001
-0.14328948 -0.16260014 1.0451537
-0.13392285 -0.16497263 1.041706
-0.1280221 -0.16746998 1.0416
-0.15226977 -0.15318567 1.04475
-0.1467912 -0.15644629 1.0418571
-0.13780411 -0.15970674 1.041
-0.16062725 -0.14135198 1.0470001
-0.15460651 -0.14409922 1.044158
-0.14875543 -0.14145455 1.041
-0.16062725 -0.13676263 1.0470001
-0.15611187 -0.13759208 1.0428751
-0.0273783 -0.11225103 1.041
-0.025187988 -0.10400383 1.0431818
-0.06149729 -0.090869129 1.0470001
-0.056948446 -0.093771249 1.0466
-0.024261286 -0.094311789 1.0432943
-0.071287908 -0.082302339 1.0470001
-0.064709119 -0.084891491 1.0463184
-0.055833641 -0.08512006 1.0440001
-0.030173989 -0.083205312 1.0430001
-0.026321789 -0.08630307 1.0457143
-0.082808509 -0.072715878 1.046625
-0.075557597 -0.075560898 1.0436252
-0.065023459 -0.078712612 1.041
-0.055171415 -0.078401498 1.0410001
-0.03104189 -0.074650161 1.0442728
-0.02845397 -0.077101082 1.0470001
-0.20248213 -0.062231589 1.0470001
-0.19532272 -0.062598735 1.0470001
-0.18563922 -0.062185697 1.0470001
-0.17470126 -0.061803248 1.0470001
-0.16556963 -0.062626973 1.0470001
-0.15512003 -0.06241516 1.0470001
-0.14630847 -0.062415164 1.0470001
-0.13355008 -0.061956223 1.0470001
-0.12428173 -0.063517898 1.0464706
-0.11840523 -0.064250901 1.0470001
-0.10297167 -0.063451856 1.0461818
-0.094372988 -0.063630752 1.0438
-0.08557231 -0.066367298 1.0431429
-0.03202989 -0.064982034 1.044
-0.20328122 -0.056206044 1.0470001
-0.19539587 -0.055042222 1.0464004
-0.18527354 -0.055171836 1.044706
-0.17504461 -0.055484042 1.0437779
-0.1653347 -0.055563565 1.0435003
-0.15505613 -0.057173409 1.0429412
-0.14477725 -0.057155661 1.0442859
-0.13498518 -0.057025567 1.0435001
-0.12541741 -0.057891957 1.043077
-0.11506037 -0.057163794 1.0444288
-0.10624067 -0.05766255 1.0439999
-0.097649276 -0.059319649 1.041
-0.031594794 -0.0560886 1.0435386
-0.02845397 -0.050482851 1.0470001
-0.20342293 -0.044860896 1.0470001
-0.19517335 -0.044898309 1.0452002
-0.18626742 -0.045328744 1.0417897
-0.02709952 -0.047806386 1.0419999
-0.20147248 -0.035796929 1.0470001
-0.19517335 -0.034819104 1.0452002
-0.18565834 -0.034318574 1.0413336
-0.17952342 -0.034809552 1.041
-0.19483781 -0.025166471 1.0456365
-0.18539812 -0.02454387 1.0429617
-0.17887156 -0.024640471 1.041
-0.19342582 -0.015481409 1.0470001
-0.18525054 -0.01467226 1.0460836
-0.17670356 -0.014069974 1.0422
-0.2111101 -0.00091786997 1.0470001
-0.20307875 -0.0020652073 1.0470001
-0.19482607 -0.0035093485 1.0468236
-0.18518156 -0.0045859306 1.0457003
-0.17659228 -0.0048330012 1.0429286
-0.012472336 -0.0021294232 1.041
-0.22434716 0.0048700674 1.0454212
-0.21547525 0.0046422305 1.0449646
-0.20574598 0.0031731722 1.0441766
-0.19510274 0.0017252797 1.0426667
-0.18696143 0.0015218933 1.0419999
-0.17887156 0.00091260998 1.041
-0.011504671 0.001643224 1.0416
-0.0072021089 0.0055773533 1.0413333
-0.22309589 0.014256937 1.0453334
-0.21514262 0.014489602 1.0434195
-0.20898768 0.01916481 1.041
-0.22166561 0.022487815 1.0470001
-0.21393196 0.024451256 1.0458333
-0.20644636 0.024983393 1.0425
-0.0023738379 0.02594758 1.0422001
0.00091786991 0.026618229 1.0470001
-0.21080415 0.030901624 1.0470001
-0.20403396 0.034243558 1.0453639
-0.19679897 0.036711294 1.0424999
-0.0039196396 0.034772921 1.0437857
0.00091786997 0.03028971 1.0470001
-0.20101354 0.042222019 1.0470001
-0.19465308 0.04477337 1.0442858
-0.18622731 0.046390224 1.043
-0.17795895 0.048368331 1.041
-0.01003871 0.048368331 1.041
-0.006733756 0.044656444 1.0434545
-0.22334838 0.059049636 1.0470001
-0.21406767 0.058845658 1.0470001
-0.20499097 0.05935559 1.0470001
-0.19513915 0.05599007 1.0470001
-0.18345532 0.054287862 1.0463184
-0.17510813 0.055532344 1.0436541
-0.16709562 0.057193652 1.0415455
-0.011878497 0.055464067 1.0423846
-0.0077900598 0.051786017 1.0455
-0.22314826 0.064525075 1.045875
-0.21528168 0.06504222 1.0449603
-0.20523633 0.064685449 1.0425558
-0.19588488 0.063879102 1.0433686
-0.18459211 0.063800298 1.0446666
-0.17520463 0.063851826 1.0428947
-0.16609503 0.062970094 1.0410001
-0.022320436 0.066965058 1.0422857
-0.01720166 0.06341777 1.0450001
-0.21275195 0.073475741 1.0464545
-0.2057084 0.074973084 1.0428753
-0.19925319 0.07878866 1.041
-0.032723334 0.076326698 1.0433334
-0.025441596 0.074094564 1.0448335
-0.20293409 0.082779251 1.0462501
-0.19556889 0.08562018 1.0434
-0.18799767 0.088523172 1.041
-0.03587373 0.084199443 1.044
-0.19287455 0.092006169 1.046
-0.18531968 0.095046222 1.0438931
-0.17836456 0.095418446 1.041
-0.035591789 0.090348393 1.041
-0.18329814 0.10300892 1.046
-0.17580189 0.10428643 1.0410001
-0.16575904 0.10867883 1.04175
-0.15970674 0.10860059 1.041
-0.05293138 0.10860059 1.041
-0.045013953 0.10816851 1.0418571
-0.03761382 0.10764546 1.0465001
-0.16455713 0.1121991 1.04475
-0.15521772 0.11468717 1.044143
-0.14584471 0.1169568 1.0428001
-0.13962933 0.11955191 1.041
-0.081222288 0.11316364 1.041
-0.07506761 0.11570753 1.0428892
-0.065011099 0.11500873 1.04445
-0.054953184 0.11388078 1.0447503
-0.045682572 0.11210006 1.0464001
-0.14399536 0.12248149 1.0461818
-0.13480684 0.12578256 1.0450714
-0.1262853 0.12790947 1.043
-0.11498886 0.12867801 1.041
-0.10860059 0.12867801 1.041
-0.074437849 0.12490182 1.0448184
-0.06884025 0.12024097 1.0470001
-0.12364873 0.13298859 1.0461818
-0.11507813 0.13310592 1.0455
-0.10522836 0.13451101 1.0437393
-0.095590197 0.13729499 1.0417501
-0.083999127 0.1378703 1.0415
-0.075989053 0.13459253 1.0443915
-0.10065974 0.14104603 1.0470001
-0.094460919 0.14196452 1.0460999
-0.084807388 0.14233397 1.0453846
-0.077968098 0.14217985 1.0463333
-0.15700969 -0.15054163 1.0535001
-0.16383815 -0.14329916 1.0528749
-0.15883505 -0.14777502 1.0513334
-0.16389415 -0.13665238 1.0532501
-0.023165917 -0.11026976 1.057
-0.060231384 -0.10100339 1.057
-0.022134081 -0.10329413 1.052
-0.018223854 -0.10285667 1.057
-0.071832024 -0.092181206 1.0549999
-0.064839445 -0.094339065 1.0515556
-0.059832498 -0.095732003 1.0500001
-0.021171501 -0.092970498 1.0500001
-0.016448628 -0.094790801 1.0560769
-0.082015872 -0.082220815 1.0537778
-0.075081065 -0.085411429 1.0520999
-0.06842383 -0.088674836 1.0500001
-0.023151362 -0.083214253 1.0508001
-0.016752906 -0.08511731 1.0553333
0.0064864568 -0.082470663 1.057
0.010193003 -0.082470663 1.057
-0.20276962 -0.072352171 1.0561429
-0.19527115 -0.074038729 1.0556499
-0.18504913 -0.074340485 1.0552003
-0.17465198 -0.074016675 1.0553334
-0.16460951 -0.074165411 1.056857
-0.15498246 -0.073057458 1.0567858
-0.14565045 -0.073035806 1.057
-0.13477895 -0.072947323 1.056625
-0.1249465 -0.073118791 1.0557334
-0.11564224 -0.072947092 1.0553077
-0.10469222 -0.072837904 1.0555
-0.094997458 -0.073875457 1.0556471
-0.086370081 -0.075416587 1.051353
-0.024704117 -0.074673057 1.0516001
-0.017799743 -0.075420313 1.0563334
-0.22459356 -0.06243214 1.057
-0.21508676 -0.062643327 1.056
-0.20584601 -0.065989524 1.0518889
-0.19533128 -0.067123443 1.0504444
-0.18519197 -0.066352129 1.0504211
-0.17559108 -0.066632599 1.0507619
-0.16506149 -0.067318305 1.0518668
-0.15482919 -0.067278251 1.0512501
-0.14470002 -0.066574797 1.0521176
-0.13543978 -0.066339716 1.0535909
-0.12510432 -0.067363858 1.0500001
-0.11440325 -0.065555885 1.0503809
-0.10634279 -0.066698551 1.0517777
-0.095640823 -0.067983747 1.0515001
-0.089288503 -0.069037497 1.0500001
-0.025640419 -0.065966539 1.05425
-0.22575261 -0.054818198 1.0560526
-0.21493711 -0.054674868 1.0529232
-0.20711249 -0.053743031 1.0500001
-0.026782006 -0.054999515 1.0536364
-0.22565141 -0.045538127 1.0555791
-0.21516767 -0.04524694 1.0533599
-0.20752162 -0.045309059 1.0500001
-0.023165917 -0.049111743 1.057
-0.22353892 -0.03652788 1.0567858
-0.21467368 -0.036302328 1.0564001
-0.20665918 -0.034677748 1.051091
-0.21152586 -0.025356149 1.057
-0.20491001 -0.02491938 1.05285
-0.19913483 -0.021785164 1.0500001
-0.21080983 -0.014826186 1.057
-0.20514983 -0.014614034 1.05504
-0.19803901 -0.014201999 1.0500001
-0.23566927 -0.0011910143 1.0565715
-0.22381513 -0.0029306235 1.0542501
-0.21498494 -0.0045392602 1.0533183
-0.20604318 -0.005645514 1.0510001
-0.19744726 -0.0069037499 1.0500001
-0.24185216 0.0046331836 1.057
-0.23556213 0.0046168421 1.0537201
-0.228284 0.001841 1.0500001
-0.24185216 0.01111964 1.057
-0.23483463 0.014640213 1.0550348
-0.22793202 0.015197456 1.0505002
-0.23164804 0.024258155 1.0561001
-0.22542901 0.025675297 1.0525882
-0.21894751 0.025642499 1.0500001
-0.22492079 0.034355737 1.0562499
-0.21500188 0.034715872 1.0538571
-0.20799033 0.038404427 1.0513334
-0.0012273333 0.036206331 1.0500001
0.0046276725 0.03581221 1.0550953
0.010185771 0.037038513 1.05625
-0.20485169 0.045384265 1.05375
-0.1997485 0.046025001 1.0500001
-0.0026110054 0.045344412 1.052
0.0034748875 0.044478558 1.057
0.011675621 0.042810611 1.057
-0.23176922 0.056784231 1.0542222
-0.22499 0.055582013 1.0532668
-0.21504962 0.055319007 1.0528237
-0.20473705 0.054476243 1.0533201
-0.19493538 0.055415221 1.05144
-0.18788427 0.056559615 1.0500001
-0.011966499 0.059832498 1.0500001
-0.0049192687 0.054150239 1.0528334
-0.23255539 0.065021582 1.0534999
-0.22816215 0.066078752 1.0505
-0.19126938 0.060060434 1.054
-0.18778199 0.0616735 1.0500001
-0.01476482 0.065909378 1.0530001
-0.0083397301 0.062084656 1.057
-0.22428487 0.074225172 1.0550001
-0.21750289 0.075437978 1.0523078
-0.022426886 0.077114522 1.0513333
-0.017959783 0.073803253 1.0537778
-0.22331944 0.082470663 1.057
-0.21253292 0.082295582 1.0547144
-0.20586003 0.086703889 1.053
-0.032456275 0.085803196 1.0523638
-0.024947403 0.083686791 1.0541111
-0.019088715 0.084323935 1.057
-0.20303741 0.093193285 1.055125
-0.19649506 0.095613517 1.0530001
-0.19357634 0.10188226 1.0565001
-0.18802641 0.10351785 1.0524
-0.17295142 0.11252864 1.0549999
-0.16451956 0.11724987 1.0531
-0.1592465 0.1187445 1.0500001
-0.0616735 0.1187445 1.0500001
-0.054309499 0.11874451 1.0500001
-0.045050211 0.11685353 1.0520771
-0.03812404 0.11391429 1.05425
-0.16123477 0.1213894 1.057
-0.15352148 0.12359743 1.0536667
-0.14569731 0.12690844 1.0524546
-0.13715449 0.127029 1.0500001
-0.070878498 0.127029 1.0500001
-0.065052539 0.12486695 1.0520383
-0.055298042 0.1230184 1.053278
-0.046859939 0.12243246 1.0564001
-0.14463411 0.1312117 1.0558751
-0.13492694 0.13330829 1.0550625
-0.1258658 0.13753006 1.0539231
-0.11548899 0.13807654 1.0517501
-0.1095395 0.1389955 1.0500001
-0.071185328 0.13592719 1.0500001
-0.066733621 0.13439965 1.0544001
-0.12509595 0.14177541 1.057
-0.11634126 0.14164127 1.0560001
-0.10461608 0.14373527 1.0523334
-0.095293529 0.14672959 1.0506155
-0.08482188 0.14751525 1.0516667
-0.073907286 0.14505267 1.0508889
-0.067887604 0.14411144 1.056
-0.094331607 0.15141244 1.057
-0.08513353 0.15082742 1.0555
-0.075875059 0.15175407 1.0554999
-0.16354392 -0.15139244 1.066
-0.16657148 -0.14424542 1.0615001
-0.17237772 -0.13397859 1.0635295
-0.16759999 -0.13370104 1.0621002
-0.072649665 -0.10164717 1.067
-0.06490536 -0.10348733 1.0634615
-0.014442043 -0.10439178 1.0631876
-0.0057163537 -0.10112751 1.067
0.0084186299 -0.10008816 1.067
-0.16332799 -0.09277527 1.0684999
-0.15736473 -0.092737749 1.0684999
-0.12401293 -0.093793392 1.0685
-0.11468045 -0.091482446 1.067
-0.1061163 -0.091565594 1.067
-0.093852133 -0.090734124 1.067
-0.0844559 -0.092545889 1.0648667
-0.075768679 -0.094665579 1.0617501
-0.068488851 -0.098239414 1.0605
-0.011695735 -0.095567323 1.0612857
-0.0046577649 -0.094114214 1.0628799
0.0046727797 -0.094220035 1.0658332
0.012627945 -0.095644988 1.067
-0.21046574 -0.081380092 1.067
-0.20361471 -0.081740275 1.0647143
-0.19452702 -0.082572863 1.0642501
-0.18509239 -0.08408092 1.0650476
-0.17476653 -0.084002353 1.0640869
-0.16491525 -0.084172651 1.0639524
-0.15482396 -0.083691776 1.0639091
-0.14509462 -0.085090607 1.0676665
-0.13519655 -0.085802555 1.0679445
-0.12433831 -0.084785193 1.0645382
-0.11474769 -0.084898621 1.0641599
-0.10513297 -0.084987111 1.0634614
-0.094858222 -0.084324084 1.0632308
-0.085817225 -0.085701071 1.061125
-0.01115988 -0.084633484 1.0609
-0.0046525393 -0.08462964 1.0608399
0.0043948092 -0.084839419 1.0602727
0.010864384 -0.085360296 1.0621668
-0.22730301 -0.070155248 1.067
-0.21408883 -0.074432828 1.0650715
-0.20612125 -0.076222874 1.0610589
-0.19514601 -0.078987665 1.0600001
-0.18306553 -0.078987665 1.0600001
-0.17470212 -0.078987665 1.0600001
-0.16448019 -0.078677908 1.0600001
-0.1548496 -0.07780496 1.0600002
-0.14455126 -0.077272907 1.0603752
-0.13511528 -0.077825278 1.0602729
-0.125451 -0.078058399 1.0600002
-0.11461195 -0.077421658 1.0606
-0.10537302 -0.077825285 1.0602728
-0.095249824 -0.078523032 1.0600001
-0.012665028 -0.074428305 1.0625999
-0.0046642767 -0.074613571 1.0639333
0.0044477517 -0.075015396 1.0622962
0.011875676 -0.073788688 1.0637335
-0.24102224 -0.061424822 1.067
-0.23485602 -0.064005576 1.0649445
-0.22448969 -0.067256108 1.0612859
-0.21558821 -0.068195529 1.0607501
-0.02216965 -0.062791876 1.0600001
-0.015131551 -0.064990014 1.0635588
-0.0046770158 -0.065478221 1.067
0.0051049641 -0.06543804 1.0663846
0.013541272 -0.064377263 1.0685
-0.24039868 -0.055188797 1.067
-0.23511961 -0.055046547 1.06425
-0.22952886 -0.051109668 1.0600001
-0.022212593 -0.055272475 1.0606667
-0.017466832 -0.056135099 1.0647143
0.0068879705 -0.056039158 1.0670002
0.013095647 -0.055188786 1.067
-0.24039866 -0.047705572 1.067
-0.23528185 -0.04499343 1.0644346
-0.22952886 -0.041816998 1.0600001
-0.021433624 -0.049390525 1.0630001
-0.019643471 -0.049576376 1.067
0.013095647 -0.049576376 1.067
-0.23319361 -0.03489292 1.0650625
-0.2255076 -0.033940591 1.0607501
-0.21775816 -0.032834087 1.0600001
-0.23104462 -0.0280621 1.067
-0.22435902 -0.025413077 1.0634347
-0.21674018 -0.024833711 1.0604287
-0.22637576 -0.015168613 1.0678999
-0.21604937 -0.014882451 1.061
-0.012160243 -0.017772663 1.067
-0.25162348 -0.00280621 1.067
-0.24508958 -0.0026441729 1.0636668
-0.23330675 -0.0046649026 1.0633639
-0.22527801 -0.0068537798 1.0614547
-0.21837766 -0.0083633997 1.0600001
-0.25214052 0.0050861277 1.0656667
-0.24648975 0.0046507167 1.0610001
-0.2522471 0.01091304 1.067
-0.24545175 0.01508807 1.0634545
-0.23882154 0.0195146 1.0600001
-0.24279213 0.02420759 1.0665555
-0.23696484 0.025280567 1.0619233
-0.23414545 0.033849414 1.0640715
-0.2246502 0.03833225 1.0600001
-0.21775816 0.039338958 1.0600001
-0.23190759 0.045293938 1.0662727
-0.22480382 0.045465998 1.063346
-0.2147838 0.045561098 1.0605999
-0.209085 0.048321865 1.0600001
0.0065151844 0.046458542 1.0614616
0.012147385 0.046711724 1.0656667
-0.24086636 0.057527307 1.067
-0.23543374 0.053913075 1.0640001
-0.22499594 0.051884972 1.061625
-0.21497035 0.051419422 1.0600001
-0.0023244815 0.058160696 1.0615001
0.0039243978 0.054522526 1.0649002
-0.24123012 0.064127095 1.067
-0.23727237 0.065339215 1.0625715
-0.01097797 0.067170903 1.0612
-0.0052429596 0.063775688 1.0639377
0.0018708067 0.060801215 1.067
-0.24039866 0.071090654 1.067
-0.23410617 0.074719526 1.0644667
-0.22742748 0.077545546 1.0606
-0.013228374 0.074919239 1.0630001
-0.0084186299 0.070155248 1.067
-0.22429715 0.084020428 1.063
-0.21621399 0.085928939 1.0615335
-0.025090201 0.088280343 1.0600001
-0.016524291 0.084023677 1.062
-0.21355978 0.092595018 1.0647
-0.20624077 0.096210979 1.0610715
-0.19979233 0.09943153 1.0600001
-0.031648718 0.094949313 1.0618001
-0.025587106 0.093711212 1.0630909
-0.017696831 0.091283359 1.0625001
-0.2038673 0.10274928 1.0655
-0.19535232 0.10596679 1.0621333
-0.18837579 0.10830983 1.0620002
-0.031491913 0.10382977 1.067
-0.028997503 0.10008816 1.067
-0.19175768 0.11131299 1.067
-0.1742211 0.11663936 1.0627
-0.16819726 0.1198754 1.0600001
-0.038179711 0.11827666 1.0623335
-0.17221211 0.12269535 1.0656667
-0.16461189 0.12459098 1.0636154
-0.15698889 0.1278438 1.0610001
-0.054147862 0.12851681 1.060375
-0.044094063 0.12560755 1.0622354
-0.037847891 0.12195705 1.066
-0.16182478 0.13002107 1.067
-0.15471397 0.13325244 1.0641667
-0.14515418 0.13618763 1.0601766
-0.13636988 0.13729915 1.0600001
-0.061801091 0.13569483 1.0608183
-0.05612376 0.13371792 1.0645001
-0.047081966 0.13064466 1.067
-0.14351209 0.14071639 1.0630001
-0.13462846 0.14208363 1.0627502
-0.1248196 0.14429981 1.0619231
-0.11539851 0.14465177 1.0615714
-0.10624429 0.14754792 1.0612001
-0.063848786 0.14483395 1.0633125
-0.10263084 0.15310474 1.0662
-0.094809629 0.15537918 1.062875
-0.08480829 0.15550795 1.0630715
-0.074963883 0.15607871 1.0626668
-0.067613207 0.15357445 1.0638334
-0.17283747 -0.12869072 1.0715001
-0.18222481 -0.11093998 1.077
-0.17467144 -0.11046789 1.077
-0.16385478 -0.11162492 1.0754001
-0.15491807 -0.11364402 1.0743912
-0.14482568 -0.11405692 1.0746
-0.13537209 -0.11409723 1.0748333
-0.12548038 -0.11227418 1.0761999
-0.1149366 -0.11174365 1.0766922
-0.10452288 -0.11306494 1.0761578
-0.09505266 -0.11384481 1.0763042
-0.085020259 -0.11316553 1.0769999
-0.074061684 -0.11415819 1.0761665
-0.067453191 -0.11286329 1.0746
-0.022831248 -0.11557338 1.074
-0.015703129 -0.11370764 1.0737894
-0.0078680823 -0.11109734 1.077
-0.19166651 -0.10102619 1.077
-0.18452811 -0.10461343 1.075909
-0.17467476 -0.10424063 1.0732857
-0.16434225 -0.10423994 1.0711999
-0.15479265 -0.1041338 1.0701199
-0.14468341 -0.10428835 1.0716999
-0.13445553 -0.10436839 1.07252
-0.12499649 -0.10432292 1.07204
-0.11497802 -0.10459701 1.0735172
-0.10461886 -0.10425808 1.0728847
-0.095006987 -0.10441364 1.0730001
-0.085480943 -0.10468189 1.0742307
-0.075929478 -0.10509985 1.0717618
-0.065662332 -0.10787383 1.0700001
-0.021574767 -0.1097499 1.0700001
-0.014338509 -0.10867786 1.0700001
-0.0046963035 -0.10520831 1.0714999
0.0033803389 -0.1020148 1.0715001
0.0112564 -0.10036957 1.0700001
-0.20171416 -0.09302713 1.0762001
-0.19443896 -0.09427166 1.0747367
-0.1850908 -0.094897367 1.0717199
-0.17510574 -0.095107019 1.0718213
-0.14519377 -0.094896302 1.0701152
-0.13494155 -0.094631031 1.0702068
-0.11552043 -0.095533222 1.0704499
-0.10449345 -0.096005239 1.0701427
-0.094984077 -0.095413327 1.0717727
-0.086184837 -0.097450711 1.0709
-0.079732835 -0.098493502 1.0700001
0.0046901666 -0.098493502 1.0700001
0.014710759 -0.094703086 1.071
-0.22349359 -0.080782205 1.0756668
-0.21449479 -0.084555924 1.073125
-0.20498309 -0.086509593 1.0725714
-0.19541822 -0.087522961 1.0702142
-0.18479255 -0.089113168 1.0700001
-0.17635027 -0.089113168 1.0700001
-0.16565669 -0.089113168 1.0700001
-0.15504351 -0.088577151 1.0700001
-0.095992081 -0.088487811 1.0700001
0.012194433 -0.089113168 1.0700001
-0.23239623 -0.072449706 1.0732501
-0.22456029 -0.07475365 1.0717777
-0.2170734 -0.07814651 1.0707501
-0.24295063 -0.06347359 1.0700001
-0.23544636 -0.068476431 1.0700001
-0.0046901666 -0.060972165 1.0700001
0.0018760667 -0.060972165 1.0700001
-0.25067711 -0.052873518 1.077
-0.24556793 -0.055682208 1.0704999
-0.012930614 -0.054430701 1.0728749
-0.0048358752 -0.054722443 1.0731723
0.0029482923 -0.054684274 1.0702142
-0.25020504 -0.04815267 1.077
-0.24485961 -0.044724446 1.072476
-0.021574767 -0.047839701 1.0700001
-0.016975073 -0.047719948 1.0758001
-0.0026605239 -0.046590768 1.0766363
0.0047108266 -0.045234218 1.0750998
0.012875384 -0.045021873 1.0722499
-0.24356043 -0.035331342 1.0747499
-0.2385788 -0.034014557 1.0703751
0.0063394266 -0.036013342 1.0769999
0.01225607 -0.035463866 1.0755384
-0.24170752 -0.026672803 1.077
-0.23534901 -0.025067355 1.0723889
-0.22981817 -0.022512801 1.0700001
-0.24076335 -0.01038587 1.077
-0.23484835 -0.014525398 1.0744735
-0.24076335 -0.0084975297 1.077
-0.23699217 -0.0071176565 1.072143
-0.26153508 0.0084975297 1.077
-0.25712284 0.0069498629 1.0712001
-0.26153508 0.01038587 1.077
-0.25517067 0.015394866 1.0727893
-0.24857883 0.0196987 1.0700001
-0.25303915 0.024342755 1.0762
-0.24667872 0.02629715 1.0712501
-0.24410643 0.033460833 1.0750833
-0.23871529 0.035874955 1.0712001
-0.24124259 0.045289185 1.0763334
-0.23699403 0.045314606 1.0724665
0.014632067 0.048990637 1.0717143
-0.2528815 0.057872269 1.0763334
-0.2456308 0.055668693 1.0720587
-0.23859578 0.051664159 1.0715001
0.007701342 0.057660472 1.0712001
0.012564022 0.054013107 1.0745833
-0.25193736 0.064480297 1.0763334
-0.24665175 0.06480933 1.0713999
-0.0022799596 0.066949904 1.0712858
0.0039339131 0.064840175 1.0737058
-0.25020504 0.070812747 1.077
-0.24437134 0.074065194 1.0732857
-0.2372324 0.078555755 1.0710001
-0.011278171 0.077076383 1.0721667
-0.005380041 0.07306397 1.0743572
0.00188834 0.070812747 1.077
-0.24170752 0.08025445 1.077
-0.23396392 0.084263533 1.0733635
-0.22669482 0.088706613 1.0707501
-0.013366361 0.08379285 1.074
-0.2241015 0.093492046 1.0740713
-0.21669598 0.096775003 1.0717273
-0.022220286 0.097960196 1.0710001
-0.018795734 0.096799783 1.072
-0.21421885 0.10277312 1.0755
-0.20654672 0.10613334 1.0713636
-0.19886306 0.1097499 1.0700001
-0.18479256 0.10974989 1.0700001
-0.031962682 0.10498229 1.0723335
-0.026478717 0.10336915 1.0732857
-0.0188834 0.10102619 1.077
-0.20345536 0.11182419 1.073889
-0.1942721 0.11549264 1.0736499
-0.18498096 0.11549666 1.07108
-0.17728829 0.11913023 1.0700001
-0.03386388 0.11946424 1.0730001
-0.19283597 0.12134557 1.0730001
-0.18483247 0.12420066 1.074706
-0.17623366 0.12574136 1.0707895
-0.16790795 0.12757252 1.0700001
-0.040335432 0.12851056 1.0700001
-0.034710497 0.12557454 1.0733888
-0.17372113 0.13131064 1.075
-0.16492034 0.13346781 1.0732143
-0.15624405 0.13745886 1.0715001
-0.054208245 0.13751854 1.0707501
-0.044714011 0.1350206 1.0729614
-0.036312677 0.13358909 1.0748461
-0.028010376 0.13249852 1.077
-0.14286904 0.14475153 1.0721667
-0.13517986 0.14699082 1.0718572
-0.12544385 0.14890432 1.0705001
-0.1153781 0.1491473 1.0700001
-0.1097499 0.1491473 1.0700001
-0.061597522 0.14852194 1.0700001
-0.05469824 0.14446107 1.0744998
-0.046054512 0.14215003 1.077
-0.13312797 0.15012303 1.077
-0.12538666 0.15178554 1.0754001
-0.11455578 0.15227173 1.0755
-0.10508303 0.15637065 1.0734166
-0.085361034 0.15852763 1.0700001
-0.063123681 0.15565561 1.0725999
-0.057594366 0.15224741 1.077
-0.10209631 0.16241097 1.075
-0.094823867 0.16355592 1.0731578
-0.085653834 0.16363612 1.0736841
-0.074636199 0.16409843 1.0731665
-0.066828214 0.16284338 1.0737001
-0.092196614 -0.14174932 1.087
-0.086717233 -0.14198756 1.087
-0.17010489 -0.13114232 1.0840001
-0.16866979 -0.13150525 1.087
-0.15151693 -0.13055232 1.087
-0.14427461 -0.13207701 1.087
-0.13412525 -0.13322274 1.0866842
-0.12483469 -0.13341114 1.087
-0.1016177 -0.13349776 1.087
-0.094070189 -0.13400127 1.0867391
-0.085278116 -0.13369893 1.0859998
-0.078984596 -0.1313251 1.0855
-0.18191886 -0.12117169 1.0826668
-0.17412165 -0.12394392 1.0830767
-0.16486372 -0.12432252 1.0853912
-0.1547035 -0.12392148 1.0845237
-0.14538154 -0.12457029 1.0832914
-0.13470823 -0.124796 1.0829629
-0.12464181 -0.12428214 1.0834229
-0.11498807 -0.12425417 1.0864545
-0.10537034 -0.12476436 1.0850768
-0.09510275 -0.12442757 1.0828147
-0.084804446 -0.1239921 1.0814813
-0.076459363 -0.12328488 1.0805714
-0.19078019 -0.1121958 1.08
-0.1846332 -0.11484586 1.0806667
-0.17469575 -0.11582215 1.0817391
-0.16549012 -0.11647771 1.0815384
-0.15716881 -0.11835 1.08
-0.13223641 -0.11771879 1.08
-0.12497759 -0.11740321 1.08
-0.11518231 -0.11644658 1.0810666
-0.105726 -0.1180344 1.08
-0.098467201 -0.11835 1.08
-0.085106798 -0.1170876 1.08
-0.0766908 -0.11835 1.08
-0.19298039 -0.10487939 1.0805714
-0.1884132 -0.108882 1.08
-0.21366061 -0.093130052 1.084
-0.2060973 -0.095071942 1.0803077
-0.19788121 -0.098467201 1.08
0.016183266 -0.092348062 1.086
0.021917542 -0.094340719 1.087
-0.2281788 -0.080477998 1.08
-0.21208319 -0.088999197 1.08
-0.208296 -0.089946002 1.08
-0.23175912 -0.077127732 1.0807999
-0.2281788 -0.077637598 1.08
-0.25525868 -0.052151151 1.0816
-0.011677201 -0.0508116 1.08
-0.26110464 -0.044470374 1.087
-0.25501627 -0.044707701 1.0829046
-0.020011669 -0.040976275 1.087
-0.014218864 -0.043649811 1.0813333
-0.0059963996 -0.043237206 1.08
-0.26015171 -0.039070401 1.087
-0.25445959 -0.035489555 1.0843887
-0.2482983 -0.034321502 1.08
-0.020011669 -0.039070401 1.087
-0.014277741 -0.035978924 1.0857999
-0.0047517787 -0.035134528 1.0833199
0.0026682543 -0.033654436 1.08
0.0123084 -0.031244399 1.08
-0.25307676 -0.026213925 1.0856363
-0.24669202 -0.025236821 1.08125
-0.013976404 -0.02699987 1.087
-0.0044281981 -0.026845595 1.0868235
0.0051174061 -0.025367737 1.0843461
0.013403977 -0.02442061 1.0855416
-0.25062233 -0.017152861 1.087
-0.24517955 -0.015402234 1.0834347
-0.23916169 -0.017231759 1.08
-0.010482303 -0.017152861 1.087
0.0085764304 -0.018105797 1.087
0.012388176 -0.016962273 1.087
-0.25062233 -0.0066705565 1.087
-0.24521218 -0.0071766442 1.0811429
-0.26414222 0.015507014 1.0829444
-0.25847641 0.0198828 1.08
-0.26337922 0.024021152 1.0863334
-0.25701606 0.026968498 1.0810909
-0.26110464 0.032399848 1.087
-0.25456527 0.034424212 1.0839444
-0.24700686 0.037361976 1.0804445
-0.25350961 0.0437143 1.0866667
-0.24684773 0.044395693 1.0823157
-0.25404632 0.053128727 1.0844445
-0.24729924 0.050975014 1.0808001
0.01519123 0.057523716 1.0827999
-0.25554165 0.066112243 1.0804
0.0079005202 0.066991359 1.0813333
0.012161899 0.063552096 1.0855556
-0.25429785 0.074236736 1.0845383
-0.24899611 0.077307969 1.082
-0.0034104965 0.077177957 1.0815001
0.0041965004 0.074649662 1.0842941
-0.25062233 0.080999613 1.087
-0.24386685 0.083473071 1.0833334
-0.23706539 0.087360188 1.0808001
-0.012346597 0.086172454 1.0835714
-0.006418515 0.0820411 1.085
-0.23328762 0.094229944 1.0837272
-0.22613539 0.098384537 1.0805714
-0.01429405 0.091481917 1.087
-0.23156361 0.10196421 1.087
-0.22445592 0.10486968 1.0834999
-0.21649426 0.10734257 1.0818181
-0.023236925 0.10704099 1.084
-0.018659266 0.10405946 1.0823334
-0.2212719 0.11263712 1.087
-0.21386342 0.1148733 1.0846999
-0.20577089 0.11616506 1.0816666
-0.1997748 0.11740319 1.08
-0.031403515 0.11324561 1.0855
-0.028381204 0.11257557 1.0864
-0.19220041 0.1240308 1.08
-0.1874664 0.127818 1.08
-0.029459506 0.1282914 1.0840001
-0.18404087 0.1326651 1.0852222
-0.17484088 0.13581647 1.0833637
-0.16581133 0.13814653 1.0808001
-0.033559386 0.13630661 1.0835
-0.027929548 0.13565224 1.0836
-0.17152861 0.14103463 1.087
-0.16433574 0.14211164 1.0863333
-0.1546486 0.14437129 1.0857999
-0.14654021 0.14819512 1.0836251
-0.050180398 0.14864761 1.08
-0.044143539 0.14600708 1.082
-0.034892529 0.14260888 1.0864545
-0.028319949 0.14303046 1.085875
-0.1437743 0.15272558 1.0861
-0.13421661 0.15513176 1.0841111
-0.12433704 0.15661006 1.0826666
-0.11513466 0.1570957 1.0839999
-0.108882 0.15716881 1.08
-0.054249052 0.15526788 1.083611
-0.047919769 0.15201284 1.0860001
-0.13207702 0.16180864 1.087
-0.1244394 0.16265731 1.0859286
-0.1147028 0.16214538 1.0867
-0.10647818 0.16523562 1.0836923
-0.096257992 0.16916162 1.08
-0.085076742 0.16893616 1.08
-0.0766908 0.16947718 1.08
-0.0637661 0.16630967 1.0830001
-0.058327992 0.16199501 1.0848333
-0.10196422 0.17057566 1.087
-0.094717056 0.17308821 1.0853637
-0.084510908 0.17291543 1.0853636
-0.075039595 0.17287913 1.0835
-0.066981129 0.17237633 1.0863334
-0.10674907 -0.15098742 1.097
-0.15286954 -0.14325514 1.0967001
-0.14491519 -0.14483225 1.0966088
-0.13568407 -0.14450447 1.0955455
-0.12500626 -0.1438763 1.0950435
-0.11365831 -0.1434963 1.0956
-0.10478827 -0.14340378 1.0921111
-0.097149283 -0.14344117 1.09
-0.16431317 -0.13451713 1.0947369
-0.15507975 -0.13548371 1.094
-0.14499132 -0.13733509 1.0916667
-0.13537194 -0.13823865 1.09
-0.12517923 -0.13855717 1.09
-0.11540185 -0.13518998 1.091926
-0.10663 -0.13495973 1.09
-0.097467802 -0.13855717 1.09
-0.16244633 -0.1290015 1.09
-0.15719071 -0.12852371 1.09
-0.1175347 -0.1290015 1.09
0.017518722 -0.091415882 1.09
0.022524072 -0.0915979 1.09
0.015599407 -0.087593026 1.095
0.024768054 -0.087742411 1.0950667
0.03173621 -0.087515004 1.097
-0.2634179 -0.042363454 1.09
-0.26439264 -0.034888424 1.0941876
-0.25895858 -0.032489266 1.09
-0.0200669 -0.0372671 1.09
-0.013377933 -0.032489266 1.09
-0.2707195 -0.023561733 1.097
-0.26483831 -0.025456535 1.095875
-0.25696865 -0.023625625 1.0915385
-0.011901149 -0.025105344 1.09
-0.005218864 -0.022125043 1.09
0.0023889167 -0.020544684 1.09
0.0172002 -0.027711432 1.09
-0.25491378 -0.015192633 1.0945001
-0.0047849873 -0.014352437 1.09176
0.0046212021 -0.014184757 1.0910001
0.012769845 -0.013464803 1.09
-0.25223628 -0.0086316597 1.0940001
-0.010578737 -0.0048085167 1.097
-0.0045800675 -0.0055958666 1.0962942
0.0052547399 -0.006043945 1.0957648
0.011089958 -0.0056087882 1.0932858
-0.2729595 0.015596937 1.0931817
-0.26851425 0.018155767 1.09
-0.274405 0.023917818 1.0958421
-0.26716736 0.026620859 1.0910001
-0.27120036 0.033659615 1.097
-0.26529926 0.03561309 1.094353
-0.25863829 0.038589116 1.0913334
-0.26216766 0.044359583 1.0965716
-0.25775665 0.045512147 1.0930001
-0.26062161 0.050970275 1.097
-0.25799072 0.050830886 1.0940001
-0.26182818 0.068565272 1.0913334
0.015471476 0.065699227 1.0929286
-0.26348311 0.073607311 1.0961001
-0.25780839 0.078281775 1.0916001
0.0073406226 0.078182302 1.0920001
0.012748987 0.074017093 1.0944287
-0.26062161 0.081744783 1.097
-0.25397924 0.084572539 1.0944287
-0.24670769 0.0874281 1.092875
-0.011486087 0.089030758 1.092
-0.0041869599 0.086261369 1.09175
0.0035182091 0.083402425 1.0935
-0.24304533 0.093953066 1.0958
-0.23790865 0.095994413 1.0913334
-0.011504716 0.092051528 1.09375
-0.0067319237 0.092323519 1.097
-0.24138753 0.10097885 1.097
-0.23531227 0.10462861 1.0949286
-0.22646929 0.10797903 1.09
-0.021022467 0.10989016 1.09
-0.017518722 0.10861608 1.09
-0.024257364 0.1149876 1.0914118
-0.018155767 0.1118013 1.09
-0.19440843 0.12907046 1.0960001
-0.1927778 0.13324052 1.0953751
-0.18552858 0.13736255 1.0940001
-0.17806327 0.13881141 1.092
-0.18308023 0.1417546 1.0962501
-0.17534223 0.14464752 1.0942779
-0.16558017 0.14658858 1.0917693
-0.15671293 0.14763504 1.09
-0.041089367 0.14811283 1.09
-0.035462305 0.14760499 1.0933001
-0.029731274 0.14865637 1.0940001
-0.17022149 0.15098742 1.097
-0.16324915 0.15375231 1.097
-0.15477055 0.15477392 1.0934545
-0.14535414 0.15644643 1.0908
-0.13792013 0.1589426 1.09
-0.051600598 0.15862407 1.09
-0.044696845 0.15471742 1.0936251
-0.037506428 0.15098742 1.097
-0.1532955 0.16098915 1.097
-0.1444187 0.16240202 1.0961429
-0.1359583 0.16561596 1.0936667
-0.12511767 0.16785577 1.0913334
-0.11614724 0.16730364 1.0913334
-0.1089346 0.1691353 1.09
-0.060200699 0.16817974 1.09
-0.05438314 0.16481848 1.0934666
-0.048361022 0.1610992 1.0960001
-0.13463846 0.17022149 1.097
-0.12570836 0.17159535 1.097
-0.11284348 0.17243543 1.0964
-0.10411132 0.17465331 1.0941539
-0.094803177 0.17811175 1.0923001
-0.085270129 0.17821082 1.0929
-0.075194247 0.17835881 1.0932728
-0.063595437 0.17627126 1.0930527
-0.057793748 0.17365827 1.0961429
-0.093797572 0.18251525 1.0965716
-0.086792342 0.18223739 1.0960001
-0.071166046 0.18176194 1.097
-0.066357531 0.18176194 1.097
-0.15208852 -0.1511198 1.105
-0.14416751 -0.15435813 1.1027333
-0.13573183 -0.15439385 1.1046841
-0.12529224 -0.15265787 1.1059999
-0.11680781 -0.15132801 1.1041666
-0.16183354 -0.14252935 1.1010001
-0.15655707 -0.14593975 1.101
-0.14864233 -0.14960755 1.1010001
-0.13319898 -0.14960755 1.1010001
-0.12451209 -0.14922146 1.1010001
-0.11534259 -0.14767712 1.101
-0.16312049 -0.13995545 1.1010001
0.016034637 -0.083157219 1.1059998
0.024538435 -0.082978398 1.1049443
0.031982116 -0.08334443 1.1055
-0.27122402 -0.020269411 1.1010001
-0.26736316 -0.020269411 1.1010001
-0.27027196 -0.018405616 1.105
-0.26510671 -0.014336215 1.1046188
-0.25828439 -0.012169361 1.1018
-0.26420629 -0.007770773 1.1079999
-0.25802973 -0.0077602528 1.1065
-0.0041825767 -0.0025738934 1.101
0.0038608401 -0.0021717225 1.101
0.012547729 -0.00289563 1.1010001
-0.0023789546 0.0039684307 1.1058182
0.0048418306 0.0048478618 1.1049198
0.012021992 0.0060154237 1.1056999
-0.00097134669 0.012627508 1.108
0.0044250237 0.011548232 1.1079999
-0.27312517 0.0381357 1.104
-0.26929358 0.03957361 1.1010001
-0.27205539 0.045289185 1.107
-0.26669618 0.045876976 1.1025383
-0.26551077 0.052327063 1.1053333
0.021952435 0.05847507 1.108
0.018338989 0.068529911 1.1010001
0.022770233 0.065111578 1.1065881
-0.27051654 0.076599628 1.1060001
-0.2672033 0.075977199 1.1016666
0.017017942 0.075612932 1.1028999
0.022150151 0.073723726 1.1064998
-0.26421937 0.083907679 1.1047273
-0.25655282 0.088220194 1.1010001
-0.00096520997 0.089764528 1.1010001
0.0061227372 0.086867243 1.1023334
0.013455408 0.083750814 1.1059998
-0.26129225 0.090335242 1.108
-0.2545819 0.094156101 1.1054614
-0.24727328 0.096206442 1.1018
-0.012218455 0.096784174 1.1062
-0.0043597366 0.095399521 1.1047498
0.004324039 0.092011429 1.106909
-0.24471933 0.10500742 1.1056666
-0.23840687 0.10810351 1.1010001
-0.24186532 0.11170486 1.108
-0.23421378 0.11442926 1.1066314
-0.02219983 0.11872083 1.1010001
-0.027073219 0.12232262 1.1030002
-0.20153487 0.13392662 1.107
-0.19613872 0.1363683 1.1032
-0.18821596 0.13995545 1.1010001
-0.19279411 0.14308098 1.1065
-0.1857339 0.14601389 1.1029999
-0.17598994 0.14960755 1.1010001
-0.18377477 0.15214357 1.1068
-0.17462194 0.15528098 1.1028999
-0.16719583 0.15732923 1.101
-0.042197764 0.15880904 1.1023334
-0.035679609 0.15518919 1.1035293
-0.16427934 0.16298577 1.1044445
-0.15534936 0.16594258 1.1038823
-0.14632583 0.16736741 1.101
-0.051799607 0.16826828 1.1010001
-0.045491751 0.16552672 1.1041578
-0.038826905 0.16210508 1.10725
-0.15107042 0.17242076 1.107
-0.14511552 0.17265201 1.1043334
-0.13538478 0.17339553 1.1022221
-0.12528174 0.17678216 1.1053571
-0.11546423 0.17667265 1.1052499
-0.10768149 0.17805117 1.1026001
-0.05401184 0.17521241 1.1041999
-0.048846405 0.17242076 1.107
-0.11170486 0.18164183 1.108
-0.104725 0.18453728 1.1054704
-0.095980845 0.18685387 1.1027143
-0.084498599 0.18582891 1.1028498
-0.074764207 0.18582979 1.1039999
-0.0647486 0.18511894 1.1047143
-0.057765942 0.18300177 1.1061429
-0.10004871 0.19135529 1.108
-0.094067559 0.19104443 1.1062
-0.087421201 0.19135529 1.108
-0.15402684 -0.15305197 1.1120001
-0.13225509 -0.15825118 1.1120001
-0.12575608 -0.15597653 1.1120001
0.036698394 -0.082742929 1.1141429
0.040148702 -0.082254127 1.1170001
0.017586811 -0.076204255 1.1145
0.024436776 -0.076235428 1.1149499
0.034439642 -0.076093927 1.1162857
0.042452578 -0.074955381 1.1187145
0.048068509 -0.069650292 1.1190001
-0.26457518 -0.0056541497 1.1120001
-0.25833613 -0.0048742667 1.1120001
0.005134746 0.016378436 1.1151251
0.012340048 0.013322441 1.1171001
0.00294297 0.021091284 1.1190001
-0.27295893 0.049717519 1.1120001
-0.27223042 0.052363593 1.113
0.026879126 0.058663201 1.1190001
0.027874619 0.065971039 1.1184286
0.032568865 0.066511117 1.1190002
-0.2739338 0.077988267 1.1120001
0.025264407 0.075504668 1.1144286
0.032933231 0.073293969 1.1190001
-0.27280903 0.084182076 1.1153636
-0.26759723 0.087249368 1.1120001
0.017330056 0.086647213 1.113625
0.021401187 0.084348358 1.1168572
-0.27173424 0.091232069 1.1190001
-0.26421875 0.094405033 1.1150714
-0.25768623 0.097810291 1.1120001
-0.0019497066 0.098460183 1.1120001
0.0052438211 0.09662804 1.1153637
0.014333818 0.092294194 1.1167274
-0.26192433 0.10202296 1.1190001
-0.25470269 0.1035393 1.1148667
-0.24892291 0.10737983 1.1135001
-0.014503923 0.10444711 1.1176002
-0.005395445 0.10104197 1.1190001
0.00294297 0.10104197 1.1190001
-0.24469763 0.11449469 1.1147693
-0.23542707 0.11893211 1.1120001
-0.22714083 0.11844468 1.1120001
-0.24034254 0.12262375 1.1190001
-0.23367053 0.1240436 1.1152668
-0.22530921 0.12487139 1.1147221
-0.21562159 0.12631784 1.1148124
-0.2070867 0.12826285 1.1120001
-0.025015244 0.12556672 1.1190001
-0.01863881 0.12066177 1.1190001
-0.2232677 0.13023847 1.1170001
-0.21420422 0.13416937 1.1156955
-0.20590319 0.13667329 1.1122502
-0.21287483 0.14093556 1.1190001
-0.2041111 0.1437601 1.1169091
-0.19655839 0.1461537 1.1134547
-0.19326229 0.15327623 1.1149091
-0.18552791 0.15757278 1.115
-0.17839816 0.1589011 1.1120001
-0.033246268 0.15940124 1.1155001
-0.18246414 0.16186334 1.1190001
-0.17458001 0.16393828 1.1178571
-0.16435555 0.168263 1.1145999
-0.041069642 0.16918045 1.1155001
-0.036690801 0.1643832 1.116125
-0.16232447 0.17212267 1.1176667
-0.15546544 0.17469937 1.1153334
-0.14501065 0.17772347 1.113875
-0.13639392 0.17790985 1.1124287
-0.051667225 0.17839816 1.1120001
-0.045613073 0.17549495 1.1160001
-0.14126256 0.18246414 1.1190001
-0.13456087 0.18379858 1.1158333
-0.12488205 0.18484212 1.115
-0.11501473 0.18500742 1.1153158
-0.10820872 0.1881467 1.1120001
-0.054050762 0.18562977 1.1152859
-0.048960079 0.18115878 1.1170001
-0.11085187 0.19129305 1.1190001
-0.10516279 0.19303244 1.1164445
-0.094073601 0.1957836 1.1155002
-0.085103899 0.19564381 1.1158127
-0.075411543 0.19440398 1.1155556
-0.065635704 0.19287808 1.115375
-0.056793097 0.19193128 1.1170001
0.018730421 -0.070977122 1.1245
0.02464164 -0.071076132 1.1243334
0.033370189 -0.071104422 1.1242858
0.042333357 -0.071868256 1.123
0.025632419 -0.069005504 1.1245
0.036426377 -0.069899261 1.123
0.045204341 -0.068407565 1.1236668
0.050910372 -0.064705603 1.1240001
0.014486166 0.017580299 1.123
0.0060239662 0.023767116 1.1243335
0.013004561 0.02266315 1.1239002
0.02658141 0.06202329 1.123
0.030519396 0.064976782 1.123
0.027894072 0.077447064 1.123
0.030913195 0.077381432 1.123
-0.28095633 0.086752743 1.1245
-0.27756733 0.087433919 1.1237501
0.025500152 0.085737333 1.124125
0.031202905 0.082444072 1.1240001
-0.27347854 0.093597822 1.1238573
-0.2681421 0.098581173 1.1245
0.0078878086 0.099566981 1.1245
0.014248383 0.097405478 1.1243638
0.023394806 0.093485422 1.1246365
-0.26480857 0.10487243 1.1250001
-0.25748575 0.10854992 1.1236001
-0.012411496 0.10539848 1.1236001
-0.0057190228 0.10353889 1.1248
0.0049299351 0.10219667 1.1245
0.010858393 0.10167404 1.126
-0.26257569 0.11154531 1.126
-0.25456116 0.11355894 1.1247501
-0.24864312 0.11857384 1.1240001
-0.24434909 0.12247173 1.1248
-0.23778531 0.12825036 1.1236001
-0.023456268 0.12634923 1.1242001
-0.018755406 0.12536508 1.126
-0.23318793 0.13188761 1.1255001
-0.22452736 0.13522407 1.1247144
-0.21954276 0.13782954 1.123
-0.22012925 0.14313337 1.126
-0.21549475 0.14432286 1.1250001
-0.20645529 0.14793839 1.1250001
-0.20320709 0.15300463 1.126
-0.19721153 0.15609564 1.1233751
-0.19254547 0.16197413 1.1248751
-0.18434678 0.16482903 1.1245
-0.17481683 0.16791748 1.1245
-0.034504723 0.16660479 1.1245
-0.17176004 0.17077291 1.126
-0.16500948 0.17504874 1.1246365
-0.15850396 0.1781939 1.123
-0.040758163 0.17583111 1.123
-0.037493717 0.17267133 1.1255001
-0.15440252 0.18179992 1.1250001
-0.14507885 0.18484123 1.1245
-0.13881403 0.18803886 1.123
-0.050209329 0.18705437 1.123
-0.045104895 0.18338312 1.1251819
-0.13344392 0.19060573 1.1242001
-0.12428039 0.19156082 1.1238571
-0.11579461 0.19248229 1.1246667
-0.10556837 0.19751704 1.1254001
-0.096152507 0.1991965 1.123
-0.082697719 0.19985282 1.123
-0.075806245 0.19985282 1.123
-0.065017544 0.19826211 1.12375
-0.05444587 0.19467181 1.1246667
-0.048369206 0.19051544 1.126
-0.095093198 0.20203193 1.126
-0.086267315 0.20311861 1.1253333
-0.075926699 0.20214531 1.1248
-0.066137485 0.2010448 1.126
0.018955287 -0.06883762 1.138
0.025366569 -0.065900996 1.13475
0.034819447 -0.064657681 1.1348003
0.044105802 -0.06377504 1.1331999
0.051604107 -0.061526224 1.1320001
0.045891747 -0.058861151 1.138
0.052875269 -0.058861151 1.138
0.0079250662 0.0267471 1.13
0.010896967 0.027737733 1.13
0.0073615452 0.031636797 1.1348
0.010954827 0.031870339 1.136
0.028728366 0.088166364 1.13
0.030763987 0.087331779 1.132
-0.2803387 0.096771725 1.138
-0.2758756 0.097924545 1.1340001
0.018822033 0.0980727 1.13
0.026087847 0.09589199 1.1335001
0.030927047 0.092781149 1.138
-0.27437678 0.10367899 1.1353334
-0.26648036 0.10896967 1.13
-0.01093554 0.10836126 1.1340001
-0.0059779901 0.10615382 1.1370001
0.0064829504 0.10506762 1.136
0.014463786 0.10401514 1.1349231
0.022905545 0.10158288 1.136
-0.27171931 0.11246756 1.1353334
-0.2655406 0.11415983 1.1323334
-0.25636083 0.11796882 1.1308
-0.011948966 0.11054416 1.136
-0.26038578 0.12071525 1.138
-0.25388995 0.12275011 1.1357143
-0.24574947 0.126632 1.1322858
-0.020827847 0.12596123 1.1313334
-0.018855346 0.12603661 1.132
-0.24305585 0.13339184 1.1372001
-0.2342521 0.13624479 1.1308572
-0.22817588 0.13901888 1.13
-0.024987562 0.13337244 1.1333846
-0.2340938 0.14244957 1.1362858
-0.22447811 0.14430957 1.1313334
-0.2139768 0.14859499 1.13
-0.22047991 0.15064465 1.138
-0.21359353 0.15338442 1.1332
-0.20621686 0.15618987 1.13
-0.20562917 0.16162008 1.1345
-0.19550018 0.1659288 1.1320001
-0.18619323 0.16891788 1.1305715
-0.17930463 0.16939829 1.13
-0.031520549 0.16654474 1.1325001
-0.027030637 0.16659521 1.136
-0.18383701 0.17446683 1.1372001
-0.17535126 0.17546211 1.132889
-0.16781329 0.17851213 1.13
-0.034038909 0.17594071 1.1323529
-0.026325798 0.17475423 1.1362857
-0.17382197 0.18279493 1.1373334
-0.16482887 0.18429562 1.1345714
-0.15523614 0.18681175 1.1318183
-0.14661373 0.18871564 1.13
-0.042983603 0.18735085 1.1307273
-0.035991423 0.18409924 1.1359999
-0.025938813 0.18057404 1.138
-0.16062111 0.19055051 1.138
-0.15463524 0.19154815 1.138
-0.14415458 0.19349922 1.1357778
-0.13553053 0.1949666 1.1340002
-0.12525812 0.19684184 1.1340001
-0.1156446 0.19766867 1.1317778
-0.10896967 0.1991173 1.13
-0.051963538 0.19727105 1.1326667
-0.04521009 0.19334728 1.1348889
-0.038243122 0.19121559 1.138
-0.12071525 0.20052698 1.138
-0.11393335 0.20228499 1.1366667
-0.10405748 0.20463988 1.1345001
-0.095010631 0.20746316 1.1322857
-0.083856381 0.20790707 1.132
-0.074593142 0.20667608 1.1321539
-0.063926101 0.20519084 1.1327499
-0.054797843 0.20429446 1.1344213
-0.10076232 0.21050344 1.138
-0.093978308 0.21289781 1.138
-0.085210249 0.21330254 1.1375556
-0.0741584 0.21150111 1.138
-0.065417111 0.21107353 1.138
-0.057264917 0.21130157 1.138
0.024216665 -0.061773818 1.1444285
0.025959676 -0.058159299 1.1478001
0.035598241 -0.05567551 1.1453639
0.0449722 -0.05442844 1.1448096
0.0545117 -0.054032739 1.1452355
0.039284311 -0.049357209 1.149
0.046738256 -0.047745544 1.149
0.055400956 -0.04532804 1.149
0.061444689 -0.044320762 1.149
0.059430111 -0.039284311 1.149
0.062451981 -0.039284311 1.149
0.032419425 0.097925127 1.1436667
-0.27607638 0.10802988 1.141
-0.0026126418 0.10876225 1.1466
0.0050311899 0.10759242 1.1470001
0.018360615 0.10715467 1.1423334
0.024111601 0.10618975 1.1417273
0.033240572 0.10173629 1.149
-0.27604041 0.11141995 1.1450001
-0.26693186 0.11986751 1.149
-0.013390926 0.11652868 1.1431819
-0.0076115956 0.11417494 1.1467143
-0.26189539 0.12490396 1.149
-0.25593144 0.12703612 1.146143
-0.24906889 0.1290357 1.141
-0.014041861 0.12473357 1.1443334
-0.25148675 0.13396956 1.149
-0.24621673 0.13579553 1.1450001
-0.023006365 0.13903846 1.141
-0.017277637 0.13434285 1.1445556
-0.24074231 0.14404246 1.149
-0.23328626 0.14781389 1.1470001
-0.2288626 0.14855993 1.1450001
-0.023503432 0.14337094 1.149
-0.018131219 0.14001331 1.149
-0.23066941 0.15008621 1.149
-0.22387752 0.15434419 1.1462002
-0.21791673 0.15617344 1.1434001
-0.026098367 0.15960155 1.1450001
-0.22059651 0.16015911 1.149
-0.21402261 0.16397393 1.1475002
-0.2056511 0.16653393 1.1443334
-0.023251034 0.16332707 1.1442728
-0.019125184 0.16608432 1.1482
