# .PCD v0.7 - Point Cloud Data file format
VERSION 0.7
FIELDS x y z
SIZE 4 4 4
TYPE F F F
COUNT 1 1 1
WIDTH 1476
HEIGHT 1
VIEWPOINT 0 0 0 1 0 0 0
POINTS 1476
DATA ascii
-0.015606875 0.0052065928 1.1869198
-0.0051977565 0.0051974761 1.1854798
0.0052008424 0.0052014021 1.1857998
0.011456279 0.0046879752 1.1880001
-0.26163152 0.01250828 1.189
-0.255813 0.0159228 1.1845555
-0.026475858 0.012299808 1.189
-0.015337534 0.01325282 1.189
-0.0044289199 0.014064145 1.1882499
0.005208136 0.015621044 1.1877197
0.011436993 0.016634749 1.1860001
-0.25519991 0.024903586 1.1868666
-0.24629667 0.026113659 1.1810001
0.0068019214 0.024417529 1.1871539
-0.25319958 0.033622671 1.1878573
-0.24492069 0.034250841 1.1838
-0.23875017 0.035408743 1.1810001
-0.26297718 0.048661135 1.1810001
-0.25479954 0.044776298 1.1845
-0.24451415 0.042851761 1.1826668
-0.015635351 0.048990764 1.189
-0.015530149 0.050731823 1.1810001
-0.27263981 0.069720425 1.187
-0.27275419 0.074956313 1.1875001
-0.26614723 0.077109151 1.1822002
-0.27205509 0.08130382 1.189
-0.2652677 0.084677413 1.1866001
-0.25615555 0.086014144 1.1820909
-0.24951774 0.088004179 1.1810001
-0.26321125 0.093364649 1.1886001
-0.25470743 0.094605029 1.1858693
-0.24620628 0.094961405 1.1816667
-0.26119143 0.10613979 1.187
-0.25538617 0.10180701 1.1836668
-0.24537638 0.10042831 1.1810001
-0.0028102177 0.11758542 1.1810001
0.0020724398 0.11605926 1.1820002
-0.2652351 0.12472185 1.1864547
-0.25801879 0.12797448 1.1820002
-0.011388777 0.12838256 1.1810001
-0.0055339099 0.12468664 1.1841111
0.0020812065 0.12279294 1.187
-0.26267385 0.13029458 1.189
-0.2560547 0.13589473 1.1846924
-0.24951774 0.13977134 1.1810001
-0.022777554 0.13873601 1.1810001
-0.016600998 0.1346229 1.1835001
-0.25389516 0.14366375 1.1882728
-0.24543458 0.14568254 1.1852667
-0.23847409 0.14736387 1.1810001
-0.025671432 0.14499478 1.1850001
-0.24343766 0.15436354 1.189
-0.23553801 0.15546973 1.1861999
-0.22517914 0.15876521 1.1836667
-0.033130988 0.15840752 1.1810001
-0.027177762 0.15504265 1.1810001
-0.2328625 0.16198224 1.189
-0.22443144 0.16446382 1.1856154
-0.21776722 0.16807073 1.1810001
-0.19878592 0.16876096 1.1810001
-0.041029628 0.165751 1.1827143
-0.035038222 0.1637813 1.1832223
-0.027954269 0.16047822 1.1810001
-0.22202197 0.17198884 1.189
-0.21544497 0.17372251 1.1855716
-0.20544381 0.17539632 1.1818571
-0.19729042 0.17750385 1.1810001
-0.041028626 0.17433655 1.1827143
-0.037472341 0.17582358 1.1836667
-0.20349421 0.18265758 1.1883334
-0.19472915 0.18486767 1.1846668
-0.1865097 0.18769296 1.1810001
-0.051422048 0.18877761 1.1810001
-0.044979915 0.18670692 1.1810001
-0.038307704 0.18118508 1.1810001
-0.18300083 0.19382732 1.1874001
-0.17544714 0.19600584 1.1842
-0.16876096 0.19982126 1.1810001
-0.064217143 0.19783428 1.1815001
-0.054436367 0.19580524 1.1844286
-0.047048289 0.19417092 1.1860001
-0.1737261 0.20291209 1.189
-0.16547397 0.20376502 1.1850001
-0.15454952 0.20582899 1.1843848
-0.14580427 0.20764875 1.1823334
-0.13509053 0.20833896 1.1823335
-0.072249897 0.20603947 1.1830001
-0.065553509 0.2039585 1.1870002
-0.057329621 0.20117484 1.189
-0.14431831 0.21282926 1.1881111
-0.13449392 0.21420573 1.1871176
-0.12575214 0.21227761 1.1855
-0.1163547 0.21670482 1.1850002
-0.076500438 0.21513189 1.1838572
-0.13029458 0.22202197 1.189
-0.11376767 0.22399727 1.1862001
-0.1052404 0.22572014 1.183154
-0.094375797 0.22774819 1.1830003
-0.083802111 0.22585464 1.1846924
-0.078345358 0.22291267 1.1863334
-0.10527802 0.23036082 1.189
-0.092769742 0.23175062 1.189
-0.086515605 0.23105572 1.189
-0.17047572 -0.070072845 1.1930001
-0.16545065 -0.071706951 1.197
-0.15395758 -0.071207248 1.1969999
-0.14473183 -0.071748704 1.1955453
-0.13512473 -0.073277853 1.1967897
-0.11088344 -0.071007371 1.197
-0.10493699 -0.071357161 1.197
-0.095609277 -0.073339306 1.1970003
-0.085523658 -0.072056741 1.1970001
-0.078702748 -0.07240653 1.197
-0.17089406 -0.064634353 1.1930001
-0.16433817 -0.06490051 1.1940002
-0.15503225 -0.065067887 1.1932666
-0.14550574 -0.065627918 1.1930001
-0.13456775 -0.065192156 1.1930002
-0.12517485 -0.064011574 1.1970003
-0.11405845 -0.064495899 1.1970003
-0.10530354 -0.064698592 1.1945558
-0.095285252 -0.064922601 1.1944003
-0.084826432 -0.064932242 1.1946002
-0.075615667 -0.064157099 1.1966926
-0.16629227 -0.059614211 1.1930001
-0.1243027 -0.056673314 1.1936318
-0.11494092 -0.055682495 1.1936318
-0.10682746 -0.056924846 1.193
-0.09356454 -0.056878868 1.193
-0.084889241 -0.055605058 1.1930003
-0.075060807 -0.057683375 1.193
-0.067981116 -0.057522483 1.1930001
-0.023029158 -0.052337877 1.194
-0.016201092 -0.052799203 1.1965556
-0.0083826864 -0.051333219 1.1950001
-0.21372065 -0.041737571 1.1962001
-0.10981565 -0.049155578 1.1930001
-0.086109407 -0.048458338 1.1930001
-0.024054857 -0.049155578 1.1930001
-0.015277319 -0.048770197 1.1938
-0.0047928281 -0.045674562 1.1940528
0.0015696717 -0.04239516 1.194
-0.22381476 -0.030330036 1.1930001
-0.21580291 -0.035583198 1.1937999
0.0031375899 -0.038696945 1.1930001
0.014442031 -0.030768719 1.1938
-0.23547426 -0.023654044 1.1938
-0.22695234 -0.02823831 1.1930001
0.0094127702 -0.024054857 1.1930001
0.01333648 -0.026520545 1.1964285
-0.25079942 -0.015740549 1.197
-0.24530339 -0.017541442 1.1945
-0.2395027 -0.019871403 1.1930001
0.0094127702 -0.017779676 1.1930001
0.01154307 -0.019938029 1.197
-0.26645562 0.00690901 1.1938
0.011504496 0.0073210434 1.1930001
-0.2650167 0.015722666 1.1958001
-0.024073469 0.016507834 1.1939231
-0.015810002 0.016625008 1.1934446
-0.0066273077 0.01848432 1.1934445
-0.26383626 0.025822056 1.1955456
-0.024128206 0.025178159 1.1966668
-0.015727749 0.025165414 1.1960003
-0.0052422909 0.025153667 1.1954002
0.0022411358 0.026146581 1.193
-0.26441228 0.034261301 1.1963335
-0.25728238 0.036256596 1.193
-0.023296015 0.031690974 1.197
-0.016640007 0.033130109 1.1970003
-0.0042928774 0.032148883 1.1970001
0.0041365288 0.034270704 1.1959475
-0.26406252 0.044158328 1.1952858
-0.25728238 0.040788669 1.1930001
-0.0031481099 0.040925428 1.197
0.0058192341 0.043596562 1.1970001
-0.27715379 0.074256293 1.1930001
-0.27467281 0.084984511 1.1943332
-0.26878688 0.087852523 1.1930001
-0.27283621 0.09129519 1.197
-0.26564929 0.0958708 1.193
-0.26377937 0.10467488 1.194
-0.27087861 0.12654947 1.1930001
-0.26819164 0.12885684 1.1950001
-0.00209348 0.12885684 1.1950001
0.0020969866 0.12676162 1.1950001
-0.26445124 0.13526335 1.1941999
-0.013912574 0.13750379 1.1947144
-0.006738937 0.13254412 1.1958572
-0.26190591 0.14142825 1.1950001
-0.25611436 0.14779402 1.1956667
-0.022396203 0.14505556 1.1938
-0.01719634 0.14324859 1.1962001
-0.25289816 0.15320802 1.197
-0.2478696 0.15548502 1.193
-0.025184881 0.15110928 1.197
-0.24501729 0.16117708 1.1954
-0.23502043 0.16479817 1.193
-0.2279982 0.168384 1.1930001
-0.032530468 0.16894858 1.197
-0.22603332 0.17196663 1.1936666
-0.035559352 0.17152157 1.1930001
-0.21021853 0.18093435 1.1930001
-0.2025284 0.18783723 1.197
-0.1997599 0.18720953 1.1930001
-0.19319612 0.19235942 1.1938
-0.18602194 0.19579501 1.1943334
-0.17884263 0.1997599 1.1930001
-0.051247302 0.1997599 1.1930001
-0.048109714 0.1997599 1.1930001
-0.18154101 0.20147903 1.197
-0.17504264 0.20493849 1.1935713
-0.16524641 0.2081268 1.1930001
-0.06379766 0.2081268 1.1930001
-0.055821996 0.20548454 1.1950001
-0.047188688 0.20239305 1.1962001
-0.16317466 0.21246068 1.1962001
-0.15508035 0.21480897 1.1952503
-0.14626113 0.21740369 1.1934
-0.13700809 0.21858543 1.1930001
-0.12492257 0.21765579 1.193
-0.071626298 0.21534841 1.1956667
-0.065446548 0.21162145 1.1958572
-0.058764718 0.21092337 1.197
-0.15110928 0.22141707 1.197
-0.1439068 0.22254378 1.1960001
-0.13485947 0.2245751 1.1945558
-0.12438449 0.22486082 1.1949134
-0.11692752 0.22778904 1.1930001
-0.075267971 0.226018 1.1958002
-0.11340686 0.23345701 1.1965556
-0.10488553 0.23386349 1.1947144
-0.095329605 0.2346679 1.1950001
-0.084229425 0.23403969 1.1949999
-0.077653378 0.23191077 1.197
-0.14167285 -0.09198162 1.2060001
-0.13396995 -0.092887834 1.2060002
-0.16176078 -0.081409022 1.2060001
-0.15420891 -0.082315244 1.2060002
-0.14407794 -0.084578849 1.2051579
-0.13521656 -0.085570201 1.2049999
-0.12792847 -0.081409022 1.2060001
-0.11312682 -0.081409022 1.2060001
-0.10678326 -0.081409022 1.2060001
-0.16412278 -0.074985802 1.2022856
-0.15542734 -0.076504223 1.2031764
-0.1449323 -0.077472188 1.2023332
-0.13326794 -0.078766741 1.2033334
-0.12551354 -0.074246727 1.2040951
-0.11532347 -0.074865393 1.2045263
-0.10540544 -0.076945901 1.2023332
-0.09559048 -0.077827215 1.202
-0.086759031 -0.077275246 1.202
-0.12469415 -0.067791462 1.202
-0.11738813 -0.067650966 1.202
-0.017913807 -0.055848926 1.202
-0.2325972 -0.03066054 1.2060001
-0.22458738 -0.034646448 1.2036666
-0.24657828 -0.020021314 1.202
-0.23365445 -0.02854602 1.2060001
0.015634473 -0.02349674 1.2034545
0.020944569 -0.024859512 1.2031429
-0.25184706 -0.017913807 1.202
-0.24763203 -0.017913807 1.202
0.011591286 -0.017913807 1.202
-0.2708146 0.0094837798 1.202
-0.27236456 0.014638579 1.2048571
-0.2687071 0.016860053 1.202
-0.27322775 0.023803655 1.2047694
-0.2687071 0.023182575 1.202
-0.27309746 0.035116259 1.2034285
-0.26449209 0.037935119 1.202
-0.020770572 0.037668031 1.2046667
-0.013473976 0.036441863 1.202889
-0.0060214475 0.036730833 1.2019999
-0.27306268 0.044021901 1.2034545
-0.2687071 0.041096378 1.202
-0.020021314 0.043203887 1.202
-0.014790463 0.044377968 1.20525
-0.0051739109 0.044755943 1.2039999
0.00289826 0.046384871 1.2025
-0.012687121 0.057092041 1.2060001
-0.28135213 0.076923996 1.202
-0.28152573 0.085041925 1.205
-0.27819088 0.088515282 1.202
-0.275291 0.095553562 1.2038462
-0.27383032 0.1012855 1.2060001
-0.26791677 0.10353127 1.202
-0.2770021 0.12581395 1.2060001
0.0010537533 0.12961166 1.202
-0.27345335 0.13289565 1.2055001
-0.2687071 0.13698792 1.202
-0.0048066657 0.13590185 1.2037778
0.0021145199 0.13110024 1.2060001
-0.26555017 0.14500946 1.2041819
-0.020021314 0.14857922 1.202
-0.014024913 0.14554395 1.2042857
-0.0088104997 0.14132042 1.2060001
-0.26220047 0.15118818 1.2060001
-0.25564477 0.15610151 1.2042857
-0.023364669 0.15361428 1.2037144
-0.017973419 0.15118818 1.2060001
-0.25162786 0.16281804 1.2060001
-0.23393324 0.16965428 1.202
-0.23221321 0.17310134 1.204
-0.22705959 0.17707205 1.2046667
-0.22023444 0.18019181 1.202
-0.2141486 0.18388844 1.2043334
-0.20757538 0.18854471 1.2060001
-0.20335509 0.19358335 1.205
-0.19605707 0.19686927 1.2038461
-0.18791933 0.19845688 1.202
-0.19305567 0.20278247 1.2060001
-0.18518372 0.20476495 1.2045455
-0.17492306 0.20969692 1.202
-0.052687667 0.20864317 1.202
-0.047473837 0.20641468 1.2033334
-0.18149631 0.21109958 1.2060001
-0.17407861 0.2147322 1.2056925
-0.16643779 0.21655419 1.2035002
-0.064143784 0.21659994 1.2030908
-0.055940103 0.21426784 1.2040001
-0.049691219 0.21039474 1.2060001
-0.1633451 0.22166654 1.2052
-0.15521055 0.22490041 1.2043999
-0.14564414 0.22766274 1.202889
-0.13804169 0.22866447 1.202
-0.071572818 0.22496693 1.203143
-0.067274228 0.22225487 1.2053334
-0.143153 0.23196284 1.2060001
-0.13484055 0.23300442 1.204
-0.1250245 0.23317185 1.2035002
-0.11592552 0.23782741 1.2033334
-0.10467094 0.2386107 1.2029999
-0.095535278 0.23893972 1.2028
-0.084651522 0.23885076 1.202
-0.076804765 0.23554654 1.2048572
-0.11312682 0.24211253 1.2060001
-0.10537358 0.24211253 1.2060001
-0.094096139 0.24211253 1.2060001
-0.085638069 0.24211255 1.2060001
-0.15168963 -0.090165168 1.21
-0.14702226 -0.091013782 1.21
-0.13259582 -0.092286706 1.21
-0.12515995 -0.091147907 1.2125001
-0.11446798 -0.091360502 1.2165002
-0.10905821 -0.091296948 1.2156668
-0.16017577 -0.083800569 1.21
-0.15522552 -0.0859221 1.21
-0.14744657 -0.08804363 1.21
-0.1304743 -0.084861338 1.21
-0.1247157 -0.085313693 1.2107499
-0.11565319 -0.08497335 1.2115557
-0.1070133 -0.086167388 1.2134001
-0.12304893 -0.079557501 1.21
-0.1177451 -0.079557501 1.21
-0.23400512 -0.034156688 1.21
0.018033033 -0.020154567 1.21
0.022276102 -0.020154567 1.21
0.015190879 -0.016253401 1.216
0.022175573 -0.016005984 1.2173333
-0.27473855 0.015911499 1.21
-0.0127292 0.049856033 1.21
-0.0063645998 0.049856033 1.21
0.0010607666 0.049856033 1.21
-0.012517047 0.054099102 1.21
-0.0053150547 0.055305749 1.2132
0.0021264646 0.055328518 1.2136251
-0.011735937 0.065086365 1.217
-0.0060852058 0.064389586 1.2180002
0.002347538 0.062523343 1.2170001
-0.28595954 0.085811988 1.2144001
0.0074805967 0.082286566 1.2190001
-0.28512451 0.095444895 1.2155
-0.28245687 0.10481674 1.2158333
-0.27624232 0.10541677 1.2123637
-0.28283781 0.11185274 1.219
-0.2755619 0.11114366 1.2151667
-0.28319401 0.12930745 1.2190001
-0.27827445 0.12693842 1.21
0.0063768732 0.12856492 1.2120001
-0.28258333 0.1369407 1.219
-0.27727181 0.13624397 1.214125
-0.0017691134 0.13840638 1.2113334
0.0044818702 0.13554378 1.2161334
-0.29054663 0.14367689 1.2140001
-0.2848247 0.14437169 1.2186666
-0.27526924 0.14482225 1.2146666
-0.26766679 0.14886092 1.21
-0.012748487 0.14875105 1.2120001
-0.0046938281 0.14527351 1.2147647
0.0019235819 0.14384118 1.2190001
-0.28319401 0.15174925 1.2190001
-0.27463582 0.15270472 1.2180909
-0.26514298 0.15575968 1.2146363
-0.25988784 0.15487194 1.21
-0.02102983 0.15656459 1.2116001
-0.015132749 0.15487801 1.2132308
-0.0079080593 0.15153551 1.2190001
-0.26253331 0.16207959 1.2190001
-0.25563323 0.1659245 1.2158333
-0.24563937 0.16731213 1.2129999
-0.0223775 0.16092591 1.2156668
-0.017098505 0.16136716 1.2190001
-0.24408117 0.17333609 1.219
-0.23507978 0.17683697 1.2151667
-0.22806484 0.17926957 1.21
-0.23316485 0.18297158 1.2181667
-0.22549763 0.18558496 1.214
-0.21618423 0.18733138 1.21
-0.22273855 0.19198754 1.2180002
-0.21492991 0.19496775 1.2144375
-0.20737988 0.19597664 1.21
-0.21332945 0.20387547 1.2175714
-0.20468549 0.20415547 1.21225
-0.19597468 0.20697512 1.2107272
-0.18881646 0.20791027 1.21
-0.04667373 0.20897104 1.21
-0.20368595 0.21223521 1.2190001
-0.19493282 0.21412612 1.2161666
-0.18589868 0.21506426 1.2127143
-0.17757234 0.21788147 1.21
-0.0604637 0.2195787 1.21
-0.052934885 0.21675332 1.2111429
-0.047411203 0.21485005 1.2138889
-0.18297158 0.22248559 1.2181667
-0.17456718 0.22447306 1.2154167
-0.16599092 0.22657323 1.2124166
-0.15805423 0.22806484 1.21
-0.063599974 0.22602864 1.2120714
-0.055910051 0.22394633 1.2159091
-0.16352537 0.23213536 1.2165002
-0.1554336 0.23496467 1.2149333
-0.1453072 0.23628302 1.2113334
-0.13547042 0.23800537 1.212
-0.12555096 0.23813808 1.2116001
-0.073095784 0.23606423 1.2123333
-0.067204513 0.23271091 1.2168572
-0.15068059 0.24044774 1.2190001
-0.14498107 0.24187262 1.2190001
-0.13678804 0.24258506 1.2190001
-0.12390081 0.24307336 1.2168572
-0.11565048 0.2457592 1.2125
-0.10495541 0.24583982 1.2113334
-0.094878122 0.24574003 1.2118461
-0.085001603 0.24650639 1.2120001
-0.076528929 0.24451368 1.2149285
-0.1132776 0.25113431 1.2190001
-0.10417096 0.25073773 1.2150002
-0.094335914 0.25131884 1.2181667
-0.084629014 0.25175598 1.2175715
-0.078916222 0.25061926 1.2165
-0.19308276 -0.095734626 1.2270001
-0.18824224 -0.095734626 1.2270001
-0.19146925 -0.087129273 1.2270001
-0.18824224 -0.087129273 1.2270001
0.016533758 -0.012666957 1.2246001
0.02505864 -0.013959748 1.2250001
-0.0023594606 0.068449602 1.2238001
0.0010721633 0.067546293 1.223
-0.0059161852 0.072607726 1.2270001
0.00107567 0.072069891 1.2270001
0.0064448151 0.086487547 1.2255001
0.011793797 0.084700905 1.223
-0.29055625 0.094350368 1.223
-0.28412327 0.11257716 1.223
-0.28573152 0.13777299 1.223
0.0085930862 0.13638742 1.2250001
0.011793797 0.1318761 1.223
-0.29270059 0.14259772 1.223
-0.28626764 0.14688638 1.223
-0.27983463 0.1490307 1.223
0.0057263873 0.14543651 1.2243334
-0.29055625 0.15331936 1.223
-0.28442964 0.15301302 1.2230002
-0.27500987 0.15733998 1.223
-0.269113 0.15975234 1.223
-0.011813084 0.15679359 1.2250001
-0.0051738475 0.15472074 1.2248183
0.00107567 0.15166947 1.2270001
-0.27537152 0.1613505 1.2270001
-0.26608163 0.16569702 1.2246667
-0.01398371 0.16242617 1.2270001
-0.26246345 0.17103153 1.2270001
-0.25435981 0.17410098 1.2251819
-0.24585363 0.176972 1.2234445
-0.23909242 0.17905128 1.223
-0.24461232 0.18439044 1.2266924
-0.23683454 0.18642886 1.2233332
-0.24310142 0.19039358 1.2270001
-0.23478083 0.19359006 1.2256669
-0.2261063 0.19644113 1.2244545
-0.21979348 0.19835022 1.223
-0.2224822 0.20259985 1.2260002
-0.21729104 0.20629348 1.2240001
-0.21311094 0.21310979 1.2256669
-0.20658945 0.21595801 1.2244548
-0.19577703 0.21936461 1.223
-0.045030862 0.21550483 1.223
-0.20330162 0.22051235 1.2270001
-0.19431697 0.22417563 1.2261113
-0.18618003 0.22616734 1.2237271
-0.17797911 0.22837079 1.223
-0.05262192 0.2262402 1.225
-0.047635436 0.22242172 1.2256668
-0.18250535 0.23198617 1.2270001
-0.17506701 0.23392722 1.2251334
-0.16570649 0.23761085 1.2242
-0.06471689 0.23691112 1.2248182
-0.05736503 0.23268715 1.2254002
-0.16328672 0.24288628 1.2270001
-0.15510872 0.24354984 1.2248182
-0.14515215 0.24628286 1.2248183
-0.13391696 0.24635416 1.2253335
-0.12580906 0.24686643 1.2235715
-0.072488494 0.24646474 1.2250001
-0.069323733 0.243442 1.2260001
-0.13445875 0.25063109 1.2270001
-0.12456258 0.25149164 1.2270001
-0.11498342 0.25533056 1.2258002
-0.104706 0.25586194 1.2250001
-0.09557683 0.2555939 1.2250001
-0.085125968 0.25599355 1.2247144
-0.07559935 0.25379372 1.2261112
-0.20229784 -0.093037128 1.2340001
-0.19548965 -0.09427321 1.2320002
-0.18900934 -0.098284855 1.2320001
-0.20301975 -0.085404232 1.2360001
-0.19620006 -0.084973961 1.2324708
-0.18900934 -0.083164103 1.2320001
-0.20118098 -0.077655129 1.2360001
-0.19612436 -0.078016318 1.2360001
0.028645083 -0.01351031 1.233
0.033136599 -0.012776891 1.2352002
0.016233673 -0.0078439759 1.2345001
0.024415752 -0.0087783569 1.2346668
-0.0052713971 0.07637345 1.2335001
0.0029771603 0.077142283 1.2350001
-0.0042617694 0.084137082 1.2357334
0.0039628255 0.085751735 1.2330002
0.012960641 0.088564374 1.2320001
-0.0010800533 0.091804534 1.2320001
0.0063260272 0.09242171 1.2320002
0.012960641 0.092884585 1.2320001
0.0054002665 0.10044496 1.2320001
0.011880587 0.13932689 1.2320001
0.0097310003 0.14596735 1.2333335
0.014079851 0.14548166 1.2353334
-0.28539357 0.15838912 1.2346667
-0.0027001332 0.1582278 1.2320001
0.0046388195 0.15473567 1.234286
0.02058764 0.15169841 1.2360001
-0.29147765 0.16145045 1.2360001
-0.28391576 0.16323331 1.2354287
-0.27568325 0.16649058 1.2332002
-0.26893327 0.16956837 1.2320001
-0.021601066 0.16524816 1.2320001
-0.011899874 0.16227275 1.2340001
-0.0056523574 0.16229752 1.2351112
0.0010835599 0.16145045 1.2360001
-0.27386978 0.17364047 1.2360001
-0.26535273 0.1755635 1.2340002
-0.25855178 0.17741805 1.2340001
-0.032401599 0.17388859 1.2320001
-0.25449634 0.18201528 1.2340001
-0.24877228 0.18828928 1.2320001
-0.25030234 0.19179012 1.2360001
-0.24432427 0.19505249 1.2337779
-0.23545162 0.19872981 1.2320001
-0.23339882 0.20262572 1.2360001
-0.22542806 0.20596007 1.2337143
-0.22212979 0.21346132 1.2360001
-0.2163707 0.21565066 1.2320001
-0.21178865 0.22261254 1.2346667
-0.20534088 0.22419272 1.2337143
-0.19764976 0.22717123 1.2320001
-0.046130199 0.22597426 1.2333335
-0.19326028 0.23115331 1.2350001
-0.1854372 0.23567216 1.233778
-0.17712875 0.23869179 1.2320001
-0.05422622 0.2349236 1.2330002
-0.047637191 0.2316951 1.2350001
-0.17417173 0.24259646 1.2340001
-0.16542582 0.24615981 1.2333335
-0.1539076 0.2489523 1.2320001
-0.070203468 0.24949232 1.2320001
-0.064510979 0.2447174 1.2333335
-0.057428677 0.24163388 1.2360001
-0.15350433 0.2517471 1.2360001
-0.1441614 0.25264713 1.2333335
-0.13457693 0.25372073 1.2334547
-0.12554295 0.25649124 1.2333335
-0.11988592 0.25813276 1.2320001
-0.071610518 0.25591129 1.2330002
-0.067541905 0.25102472 1.2360001
-0.12135872 0.26222152 1.2360001
-0.11503211 0.26252079 1.2340001
-0.10493524 0.26179895 1.2340002
-0.095198981 0.26179898 1.2340001
-0.085286982 0.26251552 1.2338464
-0.076206878 0.26170453 1.2342857
-0.21064985 -0.081858747 1.245
-0.20779718 -0.082683697 1.2410001
-0.21186256 -0.076280229 1.245
-0.2052165 -0.074639022 1.242412
-0.19753942 -0.073203042 1.2410001
-0.20438357 -0.065582804 1.2438571
-0.19836833 -0.067815132 1.2410001
0.0174632 -0.00327435 1.245
0.026058914 -0.0036639094 1.2431818
0.034968004 -0.0067900536 1.2434616
0.040383648 -0.0065486999 1.245
0.01631915 0.14759764 1.2410001
0.020670922 0.14687234 1.2410001
0.0090661943 0.15920238 1.2410001
0.015471471 0.15494095 1.2428665
0.020670922 0.1555759 1.2410001
-0.29141715 0.16699184 1.245
-0.28678888 0.16652671 1.2438573
-0.011967377 0.16645533 1.2410001
-0.0054404181 0.16656263 1.2418001
0.0049663167 0.16475576 1.2427778
-0.28195789 0.17281292 1.245
-0.27524966 0.17624682 1.2410001
-0.268722 0.17951065 1.2410001
-0.2708979 0.18168654 1.2410001
-0.26387191 0.1837097 1.2432222
-0.25649074 0.1877294 1.245
-0.033262048 0.18594407 1.244
-0.25539929 0.19100375 1.245
-0.24775915 0.19973534 1.245
-0.24245839 0.2021396 1.243
-0.23589684 0.20662369 1.2432858
-0.22846809 0.20888512 1.2410001
-0.2317512 0.21210511 1.245
-0.22489367 0.21431103 1.2427143
-0.21829 0.21938145 1.245
-0.21428801 0.22520252 1.245
-0.20779717 0.22738016 1.2410001
-0.041747745 0.22689916 1.2423334
-0.20410115 0.23029594 1.245
-0.19496904 0.23611224 1.2444285
-0.1882142 0.23825958 1.2410001
-0.051133335 0.23825958 1.2410001
-0.043615568 0.23530872 1.2437999
-0.18409123 0.24375717 1.245
-0.17507617 0.24772613 1.243
-0.16917475 0.24994205 1.245
-0.055382933 0.24640764 1.2431818
-0.049115248 0.24121045 1.245
-0.16358687 0.25246814 1.244
-0.15540275 0.25465104 1.244
-0.14506817 0.25763565 1.2442
-0.13730353 0.2582581 1.243
-0.062819593 0.25528356 1.2426667
-0.057846848 0.25321639 1.245
-0.1331569 0.26085654 1.245
-0.1248702 0.26391962 1.244
-0.11351079 0.26958814 1.245
-0.10461088 0.26806712 1.243
-0.094774507 0.26798052 1.2426001
-0.086224549 0.26958814 1.245
-0.074372239 0.26752228 1.243
-0.06595251 0.26245141 1.2435
-0.09059035 0.27177104 1.245
-0.2225842 -0.072477832 1.2590001
-0.2166961 -0.073329329 1.2531251
-0.22325315 -0.064718314 1.2589999
-0.21570861 -0.064928077 1.2553502
-0.2084275 -0.062024165 1.25
-0.23156115 -0.05364095 1.2590001
-0.22493884 -0.054965422 1.2590001
-0.21533154 -0.055484518 1.2574447
-0.20711251 -0.058079164 1.25
-0.23067817 -0.049667548 1.2590001
-0.22515957 -0.048931733 1.2589999
-0.21853721 -0.049667548 1.2590001
0.017533334 -0.0010958334 1.25
0.023012498 -0.0010958334 1.25
0.03543194 -0.0018263889 1.25
0.043900732 -0.0027412272 1.251875
0.01763152 0.0022056934 1.2570001
0.025827531 0.0039534573 1.2552943
0.035208993 0.0055067381 1.2550501
0.043819301 0.0050216448 1.2565558
0.048563823 0.012140957 1.2590001
-0.29149166 0.16985416 1.25
-0.015400842 0.16826609 1.2545
0.0082362834 0.16744991 1.2525001
0.014533866 0.16327283 1.2536668
-0.29311925 0.17690247 1.2585555
-0.28612119 0.17626992 1.253091
-0.27943751 0.17862083 1.25
-0.02522772 0.1748295 1.2584667
-0.014348403 0.17107712 1.2590001
-0.0022004333 0.17053358 1.2550001
0.00330065 0.17053358 1.2550001
-0.29027924 0.18211435 1.2590001
-0.28391954 0.18244012 1.2582
-0.27561638 0.18584538 1.2543637
-0.26628751 0.1873875 1.25
-0.25971249 0.18957916 1.25
-0.032327082 0.18355209 1.25
-0.029340107 0.18464474 1.2582
-0.27313834 0.194287 1.258
-0.26569664 0.19529749 1.2570003
-0.25654051 0.19642872 1.253
-0.040837765 0.19977392 1.2590001
-0.035529725 0.19618133 1.2586
-0.029800531 0.19094414 1.2590001
-0.26323801 0.20253323 1.2590001
-0.2548871 0.20433114 1.2586364
-0.24625568 0.20630975 1.2540001
-0.23998749 0.20930417 1.25
-0.040837765 0.20198137 1.2590001
-0.037526593 0.20198137 1.2590001
-0.24301919 0.21217103 1.2566001
-0.23575714 0.21683447 1.2555001
-0.22774485 0.21894312 1.2550001
-0.041941486 0.21964094 1.2590001
-0.23067817 0.22184838 1.2590001
-0.22454251 0.22437111 1.2559999
-0.21685666 0.22784348 1.2525001
-0.040659364 0.22416893 1.2535
-0.038630318 0.22515956 1.2590001
-0.22184838 0.23067817 1.2590001
-0.2143781 0.23440027 1.25725
-0.20508964 0.23603612 1.25325
-0.19761527 0.23925693 1.25
-0.042737499 0.23852639 1.25
-0.038630318 0.23288564 1.2590001
-0.20430343 0.24290307 1.258
-0.19549039 0.24561074 1.2554615
-0.1867682 0.24730077 1.2521429
-0.051607177 0.24815583 1.2525001
-0.045542467 0.24554081 1.2569166
-0.19425532 0.2505452 1.2590001
-0.18265729 0.25322077 1.2576667
-0.17494607 0.25527081 1.2550833
-0.16571905 0.25653732 1.251875
-0.1555163 0.25816518 1.251
-0.14793751 0.25971249 1.25
-0.060270835 0.25971249 1.25
-0.05406126 0.25566685 1.2543334
-0.049667548 0.2516489 1.2590001
-0.16445477 0.26158243 1.2590001
-0.15407096 0.26328343 1.2583333
-0.14482079 0.26549193 1.2575455
-0.13578495 0.26541835 1.2552
-0.12666257 0.26715365 1.2520001
-0.063568078 0.26661205 1.2526667
-0.055963576 0.26292843 1.2572223
-0.13502216 0.27041221 1.2590001
-0.12414082 0.27251843 1.2568334
-0.11500328 0.27461797 1.2546668
-0.10449468 0.27609098 1.2546923
-0.095324062 0.2760863 1.2546667
-0.085053869 0.27531248 1.255
-0.074814439 0.27505973 1.255
-0.066318952 0.27268758 1.2578572
-0.22494565 -0.074243143 1.2640001
-0.22790061 -0.065008931 1.2640001
-0.2327024 -0.057621546 1.2640001
-0.22937807 -0.058729652 1.2640001
0.017729707 0.0066486401 1.2640001
0.025117083 0.0084954845 1.2640001
0.04654048 0.0099729598 1.2640001
0.017785814 0.010004519 1.268
0.024733396 0.01250565 1.268
0.034437567 0.01555487 1.2671999
0.045124177 0.01590663 1.2657777
0.052081011 0.016621599 1.2640001
0.035571627 0.021861726 1.268
0.044835076 0.022602804 1.268
0.051134214 0.023343878 1.268
0.014431687 0.16869697 1.266
-0.02327024 0.17840517 1.2640001
-0.015623818 0.17563573 1.2661538
-0.0077812932 0.17230007 1.268
0.0066574067 0.1720283 1.266
0.012227746 0.17118844 1.268
-0.29402077 0.18593904 1.2666667
-0.28533748 0.186993 1.2640001
-0.02465618 0.18455155 1.2652308
-0.018156352 0.18193406 1.268
-0.29235432 0.19008587 1.268
-0.28434944 0.19271326 1.267
-0.27768943 0.19782157 1.2653333
-0.032158762 0.19629179 1.2650001
-0.026534166 0.19291306 1.2671112
-0.27316934 0.20358305 1.2666668
-0.26542389 0.20655005 1.2644445
-0.25671136 0.20795466 1.2640001
-0.042108055 0.20721595 1.2640001
-0.034791831 0.20543805 1.265
-0.26405609 0.21183598 1.2673334
-0.25496623 0.21307962 1.2668571
-0.24669702 0.21564397 1.265143
-0.042108055 0.21497269 1.2640001
-0.035293773 0.21484584 1.2651764
-0.24170752 0.2217195 1.2666668
-0.23475285 0.22547866 1.2647272
-0.22826996 0.22937807 1.2640001
-0.034740273 0.22390983 1.2658461
-0.23232719 0.23121557 1.268
-0.22418743 0.23529188 1.2666667
-0.21718889 0.23824294 1.2640001
-0.036389992 0.23417827 1.2675
-0.22121105 0.24122009 1.268
-0.21475877 0.24278319 1.2659999
-0.20647721 0.24747713 1.2640001
-0.040999945 0.24710779 1.2640001
-0.038783733 0.2448916 1.2640001
-0.21009491 0.25011301 1.268
-0.20315221 0.25294688 1.2662858
-0.19474497 0.25606763 1.2654544
-0.18610466 0.25655591 1.2644445
-0.044984695 0.25538158 1.2653333
-0.037953652 0.25455946 1.268
-0.18230459 0.26122913 1.268
-0.17484188 0.26297945 1.2657143
-0.16447012 0.26598549 1.2654999
-0.1555043 0.26742309 1.2640001
-0.14737818 0.26926991 1.2640001
-0.1340809 0.26926991 1.2640001
-0.053505599 0.26754114 1.265
-0.046342194 0.26282212 1.2669091
-0.16118394 0.27012205 1.268
-0.15451425 0.271456 1.268
-0.14370921 0.27268341 1.2651428
-0.13433409 0.27533436 1.2664
-0.12559026 0.27699408 1.2645714
-0.064213686 0.27645743 1.2653333
-0.055001624 0.2722379 1.2675
-0.12450069 0.28123817 1.268
-0.11438395 0.28318837 1.2667693
-0.10473782 0.28403649 1.2656
-0.09484715 0.28429908 1.2662222
-0.08455538 0.28327581 1.2663332
-0.074790843 0.2845991 1.2662499
-0.067753188 0.28157219 1.2670001
0.017576948 0.014786956 1.2729999
0.023882329 0.016963148 1.2729999
0.02550845 0.023683071 1.2752726
0.034126069 0.025675748 1.2733572
0.044161581 0.02694335 1.2729999
0.052657858 0.028009498 1.2780001
0.035520304 0.031858381 1.2770909
0.044338364 0.03260652 1.2750832
0.051436663 0.031311464 1.2755001
0.018971942 0.1673995 1.273
0.02128722 0.16693662 1.2780001
-0.010801118 0.17767578 1.2746667
-0.0044793282 0.17555556 1.2755001
0.0044793282 0.17555556 1.2755001
0.014153491 0.17320742 1.2746667
-0.021203937 0.18748744 1.273
-0.016126659 0.18508711 1.2751428
-0.29223847 0.19488338 1.2744285
-0.28502554 0.1975314 1.273
-0.023898985 0.19656973 1.2739999
-0.018553596 0.19426706 1.275
-0.28458324 0.20103049 1.2763335
-0.27653238 0.20723191 1.275
-0.030131912 0.20645939 1.273
-0.025580188 0.20559694 1.2772307
-0.27254623 0.21406448 1.27675
-0.2642251 0.2168173 1.274111
-0.25377762 0.21806574 1.273
-0.24886726 0.21985134 1.273
-0.030155579 0.21555305 1.2739999
-0.026977081 0.21545048 1.2763333
-0.27001157 0.22071485 1.2780001
-0.26463377 0.22161114 1.2780001
-0.25544664 0.22127505 1.2780001
-0.24573041 0.2255836 1.2765714
-0.23993929 0.22877932 1.273
-0.03013191 0.22543132 1.273
-0.026715931 0.22530079 1.2757777
-0.2408817 0.23191866 1.2780001
-0.23464441 0.23514335 1.2752222
-0.2272913 0.23845129 1.273
-0.032404326 0.23503859 1.2746665
-0.0280095 0.23303905 1.2780001
-0.23191866 0.2408817 1.2780001
-0.2246258 0.24444999 1.2765714
-0.21689752 0.24772355 1.2739999
-0.035094894 0.24500868 1.2749999
-0.21399258 0.25283241 1.2780001
-0.20723191 0.25641289 1.275
-0.033908397 0.25501543 1.2752222
-0.20166841 0.26104853 1.2780001
-0.1939479 0.26294741 1.2763333
-0.18505909 0.26501283 1.2754999
-0.1761878 0.26707241 1.2746667
-0.16851549 0.2689552 1.273
-0.04352387 0.26672322 1.273
-0.036899339 0.26389551 1.2754999
-0.17365889 0.27075851 1.2780001
-0.16447961 0.27339113 1.2763333
-0.15489639 0.27638328 1.2752222
-0.14586577 0.27765507 1.2739999
-0.13503559 0.27788317 1.273
-0.053924095 0.27689639 1.2748749
-0.045126807 0.2723943 1.2763333
-0.0392133 0.27113196 1.2780001
-0.14406277 0.28177893 1.2771667
-0.13477337 0.28209698 1.2752222
-0.12472186 0.28601852 1.2751428
-0.11606365 0.28792715 1.273
-0.10527569 0.28904313 1.273
-0.094859719 0.28904313 1.273
-0.084815741 0.28904313 1.273
-0.070307791 0.28904313 1.273
-0.064262405 0.28471932 1.2748749
-0.05938014 0.28121537 1.2780001
-0.11595933 0.29017842 1.2780001
-0.10419533 0.29241917 1.2780001
-0.095792487 0.29241917 1.2780001
-0.085148886 0.29241917 1.2780001
-0.074976481 0.29319632 1.2765
-0.067596264 0.29092535 1.2780001
0.01687145 0.019120976 1.2830001
0.01821701 0.024345411 1.2872858
0.022753533 0.026811447 1.2850001
0.025934819 0.032453906 1.2863334
0.034594748 0.03702474 1.2856923
0.045596749 0.03799912 1.2842501
0.051675469 0.037232909 1.2870001
0.037826411 0.042343002 1.2880001
0.04539169 0.044940036 1.2880001
0.051889237 0.045122035 1.2867501
0.048553307 0.055328183 1.2880001
0.052066203 0.054324504 1.2880001
0.02362003 0.16983926 1.2830001
-0.0046653696 0.17785062 1.285143
0.0056340448 0.17756999 1.2846668
0.015618569 0.17698359 1.2858572
0.021453787 0.17275944 1.2880001
-0.011940025 0.18542533 1.2850001
-0.0079040267 0.18179262 1.2880001
-0.015493989 0.19355617 1.2855
-0.28478062 0.20586307 1.286
-0.021370504 0.20470692 1.2830001
-0.017656844 0.20477374 1.2857778
-0.28162426 0.21262744 1.286
-0.27640006 0.21729082 1.2842501
-0.022370292 0.21532969 1.2830001
-0.018217009 0.21458207 1.2872858
-0.27367544 0.22186328 1.2846667
-0.26493567 0.22570626 1.286
-0.2551699 0.22634348 1.2845
-0.24857269 0.22832696 1.2830001
-0.022914752 0.22464335 1.2855
-0.019195493 0.22131275 1.2880001
-0.2517997 0.23260421 1.2880001
-0.24576697 0.23430367 1.2843637
-0.23882473 0.23882473 1.2830001
-0.031493373 0.23957458 1.2830001
-0.02545647 0.23611507 1.2850001
-0.24163738 0.24163738 1.2880001
-0.23398107 0.2449992 1.2852223
-0.22787373 0.24814576 1.2846667
-0.031118453 0.24594824 1.2830001
-0.025943706 0.24516489 1.2867501
-0.22400625 0.25266999 1.2858572
-0.21511032 0.25677916 1.2846667
-0.030889526 0.25411865 1.286
-0.027475903 0.25255248 1.2880001
-0.21340872 0.26083288 1.2880001
-0.20525098 0.26383162 1.2850001
-0.1938359 0.26812816 1.2840002
-0.18671072 0.26881844 1.2830001
-0.032116026 0.26511452 1.2855
-0.19195494 0.27212435 1.2880001
-0.18406367 0.27352867 1.2863334
-0.17564753 0.27553737 1.286
-0.16668993 0.27691674 1.2830001
-0.043448303 0.27713329 1.2840002
-0.037198596 0.27457136 1.2858572
-0.16300499 0.28144926 1.2867501
-0.1555198 0.28343138 1.2855
-0.14557862 0.28616995 1.2844286
-0.13497159 0.28737703 1.2830001
-0.12934779 0.28906417 1.2830001
-0.061861984 0.28793943 1.2830001
-0.054896299 0.28479952 1.2854999
-0.046003178 0.28267142 1.286889
-0.039520133 0.28115752 1.2880001
-0.1418961 0.29094347 1.2880001
-0.13617508 0.29109401 1.2880001
-0.12533528 0.29290065 1.2880001
-0.11422984 0.29447252 1.2850001
-0.10483593 0.29647276 1.2858572
-0.094331436 0.29559341 1.2840002
-0.085648574 0.29751831 1.2855
-0.075359143 0.29806229 1.2830001
-0.065271102 0.29562354 1.2857274
-0.058715627 0.29131985 1.2880001
-0.083556853 0.30148217 1.2880001
-0.07445135 0.30231875 1.2867501
-0.068877943 0.30148217 1.2880001
0.015305065 0.02664475 1.2932501
0.017873261 0.033196952 1.2945
0.024266398 0.036969647 1.2934999
0.03058164 0.039642867 1.2920001
0.027667893 0.042828381 1.2970001
0.034419142 0.046037052 1.292625
0.041908175 0.048704091 1.2920001
0.036524627 0.05422616 1.2940001
0.044173479 0.054367352 1.2919999
0.053234708 0.055500012 1.2920001
0.039796282 0.061399981 1.2970001
0.045342661 0.064617723 1.2931112
0.053116065 0.06559132 1.2936666
0.047314674 0.074572384 1.2953334
0.05333918 0.074903421 1.2945
0.048892576 0.080729604 1.2970001
0.053440724 0.080729604 1.2970001
0.022673886 0.17573331 1.2932501
-0.010213604 0.18838647 1.2945001
-0.0046666916 0.18476968 1.2947778
0.0044101202 0.18234266 1.2936666
0.015335748 0.1811831 1.2957501
-0.01247672 0.19579753 1.294
-0.29250839 0.20634344 1.2932501
-0.28769392 0.20840821 1.2920001
-0.013609921 0.20502351 1.293875
-0.29312807 0.21217103 1.2970001
-0.28700754 0.21508245 1.2939999
-0.01384248 0.21493879 1.2945
-0.27976537 0.2208674 1.2920001
-0.2627756 0.22879598 1.2920001
-0.2593776 0.22992863 1.2920001
-0.021520413 0.22879598 1.2920001
-0.01656786 0.22515544 1.2945
-0.26379251 0.23195548 1.2970001
-0.25462243 0.23582146 1.2941428
-0.24805108 0.23898984 1.2920001
-0.021562055 0.23604776 1.2945001
-0.018679887 0.23536658 1.2970001
-0.25128511 0.24332584 1.2970001
-0.24524651 0.24467799 1.295125
-0.23785719 0.24805108 1.2920001
-0.021520413 0.24465311 1.2920001
-0.018874807 0.24491768 1.2970001
-0.23491317 0.25432703 1.2956363
-0.22592241 0.25690058 1.2928333
-0.21860209 0.2593776 1.2920001
-0.024436207 0.25499967 1.2938181
-0.019329622 0.25242215 1.2970001
-0.22513327 0.26094991 1.2970001
-0.21512912 0.26509541 1.2953334
-0.20548627 0.26860911 1.2950001
-0.03058164 0.26843885 1.2920001
-0.02728888 0.26151842 1.2970001
-0.20291957 0.27245185 1.296
-0.19552901 0.27520671 1.2942222
-0.188398 0.27674496 1.2920001
-0.17669392 0.27976537 1.2920001
-0.033664148 0.27614343 1.2945
-0.18419993 0.28084806 1.2970001
-0.17428905 0.28335863 1.296
-0.16509125 0.2864233 1.2947778
-0.15517351 0.28837353 1.2920001
-0.0509694 0.28882658 1.2920001
-0.044606552 0.28768751 1.2936667
-0.037472531 0.28389391 1.2953334
-0.16032217 0.29221842 1.2970001
-0.15371132 0.2934989 1.296375
-0.14571454 0.29483536 1.2945
-0.13571765 0.29600582 1.2936666
-0.12475259 0.29713947 1.2936667
-0.11681671 0.2982721 1.2936667
-0.060785729 0.29713273 1.2920001
-0.054608636 0.29424158 1.2947778
-0.048892576 0.29221842 1.2970001
-0.12166292 0.30131471 1.2970001
-0.11431558 0.30168554 1.2953334
-0.10505594 0.30231449 1.2947778
-0.095326982 0.30187094 1.2945
-0.085761808 0.30450273 1.2928333
-0.077020422 0.30694905 1.2920001
-0.063549124 0.30186877 1.2945001
0.014870897 0.035922118 1.3050001
0.021686981 0.0399497 1.302
0.018103693 0.041478079 1.307
0.024751589 0.046080008 1.3032501
0.025690904 0.054984473 1.3066428
0.031298578 0.055517722 1.3030001
0.035805944 0.064096734 1.3055714
0.040812921 0.069041006 1.3053335
0.042967625 0.075623021 1.307
0.047580082 0.084208213 1.3055716
0.054144513 0.085902289 1.3030001
0.056144364 0.09051846 1.307
0.026686465 0.1772598 1.3045001
-0.00228284 0.1883343 1.302
0.0041968958 0.18805552 1.3053335
0.014870897 0.18465038 1.3050001
0.022534132 0.18294661 1.307
-0.010292505 0.1967034 1.3045001
-0.0065806983 0.19374312 1.30575
-0.01031223 0.20509879 1.307
-0.01031223 0.21426523 1.307
-0.012603837 0.22572327 1.307
-0.27103597 0.23329897 1.3045001
-0.26608104 0.23596668 1.3045001
-0.25796092 0.23855677 1.302
-0.014478076 0.23531669 1.3040835
-0.25492591 0.24441257 1.3040001
-0.24768814 0.24768814 1.302
-0.014653642 0.24562532 1.3042728
-0.24343657 0.25371668 1.3036667
-0.23855677 0.25681949 1.302
-0.021686981 0.25910234 1.302
-0.015905602 0.2546508 1.3047274
-0.23430683 0.26308429 1.3055714
-0.22505066 0.26617977 1.3031112
-0.21801122 0.26823369 1.302
-0.02453001 0.26581752 1.3039231
-0.018332854 0.26353478 1.307
-0.21424662 0.27375439 1.3053334
-0.20686148 0.27619824 1.3036667
-0.19860709 0.27964789 1.302
-0.030877516 0.27675623 1.3045001
-0.026898982 0.27186859 1.30575
-0.20166138 0.28186762 1.307
-0.19365461 0.28282213 1.3040001
-0.1850507 0.28566346 1.304143
-0.17574812 0.28833905 1.3038751
-0.033155769 0.28574735 1.3042728
-0.1718705 0.29217985 1.307
-0.16512606 0.29382899 1.304143
-0.15637453 0.29714969 1.302
-0.052505322 0.29791063 1.302
-0.044424329 0.29611748 1.304143
-0.03579535 0.29516399 1.306
-0.028645083 0.29905468 1.307
-0.15239184 0.30249208 1.307
-0.14412032 0.3035261 1.3038182
-0.13474806 0.30199575 1.304143
-0.12550755 0.30391753 1.3045001
-0.11512431 0.30687061 1.3045001
-0.10501064 0.3081834 1.302
-0.096564129 0.30749854 1.302
-0.082182243 0.30932483 1.302
-0.065209098 0.30683455 1.3050001
-0.054918014 0.30263159 1.3051251
-0.045195576 0.3023648 1.307
-0.036092803 0.30191919 1.307
-0.11114293 0.3116585 1.307
-0.10610139 0.31234598 1.307
-0.095101677 0.31127656 1.307
-0.087081052 0.31051269 1.307
-0.075393863 0.31188765 1.307
-0.069894001 0.31051269 1.307
0.011501867 0.03795616 1.312
0.015259143 0.045317352 1.3120002
0.021853546 0.049458027 1.312
0.017927583 0.054115128 1.3134286
0.021853546 0.055208959 1.312
0.019590432 0.062230624 1.3145001
0.02557827 0.064298183 1.3143334
0.031630136 0.066135734 1.312
0.02886425 0.070428766 1.317
0.035102259 0.074589536 1.3143334
0.040256534 0.077062503 1.312
0.038100809 0.083129041 1.317
0.043019388 0.085518755 1.3133638
0.046834242 0.093359582 1.3147274
0.055118851 0.094940677 1.3137859
0.056549091 0.10271338 1.3164445
0.028754666 0.17367819 1.312
0.031864204 0.17696889 1.3136667
0.016102614 0.18824722 1.3120002
0.026487168 0.18539178 1.3135002
0.031173388 0.18357663 1.317
-0.0025901115 0.19658396 1.3132501
0.0042830803 0.19552003 1.3152144
0.014874305 0.19452783 1.3164444
0.024905724 0.19149368 1.317
-0.0046018423 0.2048291 1.3126252
0.0042884033 0.20501864 1.3170002
0.015194532 0.20461299 1.3161668
0.02193683 0.20666803 1.317
-0.01035168 0.21968566 1.312
-0.0053358716 0.21293278 1.3129092
0.0011501866 0.21163434 1.312
-0.01035168 0.22198603 1.312
-0.27374443 0.23693845 1.312
-0.010371406 0.23738775 1.3145001
-0.0080819903 0.23899598 1.317
-0.27279827 0.24453981 1.3157501
-0.26389244 0.24344376 1.3145
-0.25649163 0.24882372 1.312
-0.01035168 0.24383956 1.312
-0.0080819903 0.24476883 1.317
-0.25444296 0.25591242 1.3165456
-0.24805693 0.25610825 1.3120002
-0.011037108 0.25586909 1.3155714
-0.0080819903 0.25169626 1.317
-0.25131139 0.26285708 1.317
-0.24486852 0.26297793 1.3148572
-0.23578827 0.2672267 1.312
-0.014390483 0.26479715 1.3132502
-0.23233771 0.27029386 1.312
-0.22424811 0.27496737 1.3147779
-0.21853547 0.27604479 1.312
-0.20818378 0.27949536 1.312
-0.025110016 0.27692658 1.3140002
-0.018064886 0.27252004 1.3153332
-0.22052287 0.28056049 1.317
-0.21532729 0.28489015 1.317
-0.20604928 0.284964 1.316
-0.1969347 0.2867603 1.3136667
-0.18748042 0.28869686 1.312
-0.026533192 0.28427038 1.3160002
-0.18357663 0.29210621 1.317
-0.17533135 0.29528829 1.31575
-0.16824943 0.298466 1.3145001
-0.031055041 0.29329762 1.312
-0.028836854 0.29528612 1.3157501
-0.16279437 0.30211246 1.317
-0.15595156 0.30499977 1.3145001
-0.1468405 0.3078666 1.312
-0.13572203 0.30709985 1.312
-0.12537034 0.30894011 1.312
-0.063260265 0.3094002 1.312
-0.054124523 0.30748996 1.3136667
-0.043871403 0.30709982 1.3120002
-0.03419191 0.3060542 1.3120002
-0.028754666 0.30249909 1.312
-0.14492351 0.31170058 1.312
-0.13508469 0.31057933 1.317
-0.12353899 0.31288847 1.317
-0.11516333 0.31363451 1.3136667
-0.10385082 0.3174777 1.3141431
-0.094495021 0.31633008 1.3145001
-0.085991651 0.31516957 1.3136668
-0.073846452 0.31653762 1.3161666
-0.064612813 0.3126905 1.3161666
-0.055419359 0.31057933 1.317
-0.044368472 0.31156898 1.317
-0.037285801 0.31518504 1.3153334
0.019702207 0.068378247 1.322
0.022020113 0.068378247 1.322
0.019791627 0.071017012 1.3280001
0.025817832 0.074422389 1.3247693
0.031871215 0.077649876 1.322
0.028329192 0.081106864 1.3280001
0.034549594 0.085483924 1.3258183
0.040563367 0.089239404 1.322
0.038419038 0.09197285 1.3280001
0.043314345 0.096519247 1.3265001
0.046498507 0.10463224 1.3261251
0.054139677 0.10579588 1.3219999
0.046180461 0.11215255 1.3280001
0.05478714 0.11480623 1.3249998
0.062168993 0.11479143 1.3280001
0.054718029 0.1222424 1.3280001
0.035927553 0.17963776 1.322
0.035416897 0.18578626 1.3245001
0.040747467 0.18510991 1.3280001
0.016225347 0.19818102 1.322
0.025897903 0.19673568 1.3226668
0.032308321 0.19360869 1.3256
0.00695372 0.20513473 1.322
0.014293759 0.20204419 1.322
0.024425104 0.20353276 1.3266667
-0.00347686 0.21749692 1.322
0.0053396011 0.21340486 1.3244001
-0.01043058 0.22715485 1.322
-0.0064758114 0.22373936 1.3262857
-0.010430579 0.23294961 1.322
-0.007676444 0.23565397 1.3268001
-0.28057542 0.24099216 1.3280001
-0.27322093 0.2450103 1.3245715
-0.26713875 0.24743654 1.322
-0.0040646647 0.2451831 1.3255001
-0.26308241 0.25265181 1.322
-0.2584466 0.25381079 1.322
-0.0041417489 0.25505003 1.3241431
-0.24453916 0.26771823 1.322
-0.010430579 0.26540032 1.322
-0.0062646596 0.2640208 1.3232002
-0.23140435 0.2754446 1.322
-0.2283138 0.27698985 1.322
-0.014625957 0.2756342 1.3244002
-0.22136009 0.28394356 1.322
-0.21433915 0.28514925 1.324
-0.20699386 0.28824332 1.324
-0.022947276 0.28672504 1.322
-0.01795199 0.28454632 1.326
-0.20257312 0.29221755 1.3280001
-0.19645925 0.29177746 1.3260001
-0.18427359 0.29476047 1.322
-0.17812464 0.29920283 1.3280001
-0.024901036 0.29406655 1.3246667
-0.019791627 0.29338175 1.3280001
-0.17320652 0.30185327 1.3260001
-0.16457137 0.30480471 1.322
-0.15484038 0.31200916 1.3280001
-0.14139231 0.31407636 1.322
-0.1339684 0.3155652 1.325
-0.1259791 0.31621787 1.3232
-0.11763376 0.3181327 1.322
-0.08344464 0.31871217 1.322
-0.075331964 0.31871217 1.322
-0.064404689 0.3177188 1.3219999
-0.056016073 0.31562167 1.322
-0.045778658 0.31697378 1.3220001
-0.12457082 0.32015866 1.3280001
-0.11409291 0.32248709 1.3280001
-0.10484466 0.32229188 1.324
-0.095989391 0.32283565 1.3256
-0.085375644 0.32287517 1.3280001
-0.073868684 0.32286057 1.3254286
-0.06515716 0.32346919 1.32725
-0.053786654 0.32248709 1.3280001
-0.044666864 0.32405844 1.3268001
0.022203337 0.075958781 1.3330001
0.033889305 0.089981943 1.3330001
0.036254745 0.095513314 1.3341112
0.040900882 0.099330716 1.3330001
0.036817107 0.10599925 1.3375002
0.040900882 0.10517369 1.3330001
0.036831573 0.11237148 1.3380001
0.04353283 0.11552879 1.3341112
0.046145279 0.12157474 1.3360001
0.055044949 0.12531637 1.3359169
0.064368375 0.12359229 1.3350002
0.057476018 0.13254674 1.3380002
0.062167939 0.13254674 1.3380001
0.036261566 0.19533974 1.3342501
0.040900882 0.19048126 1.3330001
0.029251443 0.20476304 1.3346667
0.033429928 0.20233905 1.3380001
0.0011685967 0.21852757 1.3330001
-0.0029225876 0.22574955 1.3342501
0.0011685967 0.22086477 1.3330001
-0.0037038436 0.23447376 1.3350835
-0.2816318 0.2454053 1.3330001
-0.27929461 0.2454053 1.3330001
-0.0011700578 0.2429781 1.3346667
0.0022141677 0.24536586 1.3363335
0.0039426889 0.2549558 1.3357275
0.01055682 0.25453666 1.3380001
-0.0011685967 0.26176566 1.3330001
0.0011729799 0.26157454 1.3380001
-0.24397984 0.27330434 1.3380001
-0.01051737 0.27578881 1.3330001
-0.0070203468 0.27496651 1.3346667
-0.012613382 0.28496078 1.3352224
-0.20409852 0.29559094 1.3380001
-0.1945698 0.29762921 1.3358573
-0.18814406 0.29799214 1.3330001
-0.022203337 0.29799214 1.3330001
-0.016078705 0.29529831 1.336182
-0.19119574 0.30145586 1.3380001
-0.18515252 0.30124912 1.3350002
-0.17690228 0.30498445 1.3363333
-0.025805559 0.30262882 1.3380001
-0.16539018 0.3116217 1.3379999
-0.13672581 0.31902689 1.3330001
-0.13550957 0.32138571 1.3363333
-0.12449383 0.32430983 1.3355001
-0.11484793 0.32695571 1.33675
-0.10634229 0.32603848 1.3330001
-0.093721509 0.32841775 1.3363334
-0.084728703 0.32739204 1.3344287
-0.075550079 0.32815459 1.3340001
-0.065441407 0.32837567 1.3330001
-0.056145243 0.32751498 1.3342501
-0.051516876 0.3313331 1.3355
-0.046743866 0.33071285 1.3330001
0.031788811 0.10949479 1.3430001
0.038180295 0.11769455 1.3470001
0.041207716 0.1189137 1.3430001
0.03902657 0.12181021 1.3490001
0.045332309 0.1258857 1.3455715
0.050626624 0.1283326 1.3430001
0.065932348 0.1283326 1.3430001
0.047473878 0.13431221 1.3490001
0.052860014 0.13522723 1.3460001
0.065518565 0.13555342 1.3465
0.046595357 0.14640875 1.3490001
0.055541214 0.14417569 1.348
0.063059352 0.14319862 1.3479092
0.072140023 0.14782791 1.3490001
0.057948545 0.15019317 1.3490001
0.03885299 0.1989744 1.3430001
0.041391816 0.1974981 1.3490001
0.035696771 0.20561451 1.3460001
0.0030737687 0.22520287 1.3478
-0.0011773633 0.23665003 1.3430001
0.0030721906 0.23573339 1.3472002
0.0067545567 0.24389037 1.3451821
0.011184952 0.24665761 1.3430001
0.0063577616 0.25360405 1.3430001
0.011549732 0.25524727 1.3442
0.0047094533 0.26196334 1.3430001
0.011802563 0.26077852 1.3460001
-0.25077838 0.27432567 1.3430001
-0.24679832 0.27671954 1.3470001
-0.00353209 0.27903512 1.3430001
-0.01059627 0.28845403 1.3430001
-0.0063745938 0.28521791 1.3466001
-0.20368385 0.29787293 1.3430001
-0.19426495 0.29787293 1.3430001
-0.011412739 0.29403314 1.3470001
-0.0074899476 0.29289639 1.3490001
-0.19529021 0.30532524 1.3460001
-0.18524362 0.30658039 1.3437501
-0.17778187 0.30964655 1.3430001
-0.023826923 0.30548415 1.3454001
-0.016556727 0.30393419 1.3490001
-0.18094137 0.31102994 1.3490001
-0.17502826 0.31102994 1.3490001
-0.14246096 0.32142019 1.3430001
-0.13452449 0.32626686 1.3460001
-0.12616898 0.32897353 1.3450001
-0.12181021 0.33231714 1.3490001
-0.11550916 0.33120859 1.3445001
-0.10507254 0.33172593 1.3466001
-0.093292236 0.3341862 1.3470001
-0.084681965 0.33331829 1.3454001
-0.07597515 0.3341862 1.3470001
-0.064754985 0.33319381 1.3430001
-0.055414975 0.33447841 1.3450001
0.036797207 0.11988767 1.3540001
0.039171219 0.12700972 1.3540001
0.04213874 0.12760322 1.3540001
0.038221616 0.13365695 1.3540001
0.043325741 0.13531877 1.3540001
0.067659378 0.13413176 1.3540001
0.071220398 0.13650577 1.3540001
0.045106255 0.14303431 1.3540001
0.051041286 0.14481482 1.3540001
0.066472374 0.14600183 1.3540001
0.071220405 0.1448148 1.3540001
0.047480267 0.15074985 1.3540001
0.055412266 0.15414375 1.3553637
0.064098358 0.15431088 1.3540001
0.071220398 0.15431087 1.3540001
0.056996919 0.1650531 1.3545001
0.064168185 0.16415603 1.3540001
0.071881853 0.16396144 1.3552501
0.056058928 0.17617883 1.3553637
0.065343156 0.17586748 1.359
0.071483403 0.17275156 1.3590001
0.056485824 0.18254304 1.3565001
0.062349409 0.18387119 1.3590001
0.046807278 0.19633681 1.3573335
0.039171219 0.20772617 1.3540001
0.045373511 0.20340896 1.3568572
0.028488159 0.2124742 1.3540001
0.035259828 0.21194439 1.3556668
0.0027696823 0.22750962 1.3540001
0.0059350333 0.23621432 1.3540001
0.013848412 0.25362375 1.3540001
0.0059452611 0.2666139 1.3556668
0.011913899 0.26567996 1.3590001
-0.24661773 0.28235942 1.3590001
-0.01068306 0.29793867 1.3540001
-0.0083090467 0.29793867 1.3540001
-0.20535216 0.30149969 1.3540001
-0.021366119 0.30743474 1.3540001
-0.01429668 0.30857 1.3590001
-0.19110808 0.31218275 1.3540001
-0.18398602 0.3129741 1.3540001
-0.17513435 0.31571835 1.3590001
-0.023397064 0.31215703 1.3573335
-0.017870849 0.31095278 1.3590001
-0.16202904 0.32048389 1.3590001
-0.074781418 0.3359229 1.3540001
