# .PCD v0.7 - Point Cloud Data file format
VERSION 0.7
FIELDS x y z
SIZE 4 4 4
TYPE F F F
COUNT 1 1 1
WIDTH 1472
HEIGHT 1
VIEWPOINT 0 0 0 1 0 0 0
POINTS 1472
DATA ascii
-0.2750656 0.19489914 0.97286946
-0.26821503 0.19643231 0.9769091
-0.35238317 0.20148429 0.97800004
-0.34422937 0.20511955 0.97786373
-0.33477044 0.20472994 0.97450012
-0.32507202 0.20447454 0.97000003
-0.31531596 0.2047683 0.97000015
-0.27497524 0.20484141 0.97202545
-0.26707479 0.20582162 0.97630453
-0.34152305 0.21177286 0.9780001
-0.33445242 0.2146692 0.9764446
-0.32422575 0.2144475 0.97069985
-0.3171868 0.21529737 0.97000021
-0.2733663 0.21251881 0.97110528
-0.26556763 0.21529222 0.97442853
-0.25978613 0.21777451 0.97800004
-0.3646723 0.2283489 0.9780001
-0.3574056 0.22788922 0.97766674
-0.33434394 0.22535381 0.97800016
-0.32468969 0.2246656 0.97352004
-0.31642383 0.22505695 0.97014284
-0.30613202 0.22874863 0.97000003
-0.29711813 0.22806835 0.97000009
-0.26360783 0.22489646 0.9723224
-0.25894892 0.22620951 0.977
-0.3815341 0.23749426 0.97800004
-0.37501648 0.23479481 0.97697157
-0.36505309 0.23423849 0.97606272
-0.3548452 0.23485783 0.97474337
-0.3448332 0.23588558 0.97528958
-0.33460963 0.23508888 0.97733355
-0.32504812 0.23534837 0.97730792
-0.31517726 0.23461369 0.97369236
-0.30498657 0.23536026 0.97186196
-0.29570872 0.23524965 0.97137499
-0.28608313 0.23693313 0.97015792
-0.27556881 0.23725232 0.97000021
-0.26488796 0.23508199 0.97157133
-0.25731918 0.23581499 0.97637504
-0.37428647 0.24402824 0.97752017
-0.36504161 0.24450152 0.97516686
-0.35519516 0.2447532 0.97278106
-0.34516892 0.24467975 0.97037482
-0.33442882 0.24482962 0.97280866
-0.32500255 0.24532363 0.97560543
-0.31473422 0.24453664 0.97770005
-0.30487135 0.24474359 0.9768573
-0.29473811 0.24521331 0.97547829
-0.28498939 0.24488811 0.97329992
-0.27468574 0.24481682 0.97255147
-0.2650747 0.24487142 0.97413349
-0.25762618 0.24252425 0.97690922
-0.37124553 0.25292709 0.97799999
-0.36567521 0.25513652 0.97717261
-0.35583967 0.25462815 0.97285187
-0.34659529 0.25560606 0.96999997
-0.33570588 0.25274789 0.97000015
-0.3241986 0.25352398 0.97083986
-0.31592613 0.25556314 0.97597516
-0.30634847 0.25490567 0.97799999
-0.29168066 0.25258416 0.97800004
-0.28437623 0.25352746 0.97752631
-0.27494907 0.25364688 0.9768002
-0.2669116 0.25200948 0.97710007
-0.36267173 0.26321563 0.97800004
-0.35453567 0.26429987 0.97487503
-0.34472752 0.26539695 0.97091985
-0.33598432 0.26732841 0.97000009
-0.32372805 0.26537985 0.97000021
-0.31435436 0.26459664 0.97082043
-0.30600196 0.26537678 0.97441685
-0.35238317 0.27178946 0.97799999
-0.34478572 0.27347577 0.97553837
-0.33462852 0.27486876 0.97385722
-0.32449839 0.27496383 0.97034609
-0.30478826 0.27517435 0.97164094
-0.33189315 0.2830416 0.97762507
-0.32482564 0.28507093 0.97622734
-0.31492072 0.28567168 0.97416681
-0.30425325 0.28511208 0.97348642
-0.29922563 0.28807968 0.97800004
-0.3767328 0.296482 0.97800004
-0.32237488 0.29150921 0.97800004
-0.31496748 0.29300469 0.97762495
-0.30503884 0.29335544 0.97658831
-0.29922563 0.29065183 0.97800004
-0.37261733 0.30231217 0.97800004
-0.36511198 0.30588678 0.97800022
-0.35821337 0.30848533 0.97800004
-0.36295757 0.31180051 0.9780001
-0.35821337 0.31225783 0.97800004
-0.33346033 0.038261618 0.98871428
-0.32449734 0.036509015 0.98789483
-0.31578887 0.036915157 0.98345464
-0.30839381 0.038387477 0.98400003
-0.35228723 0.046636209 0.98880005
-0.34527299 0.044602524 0.98610008
-0.33509374 0.043538816 0.98309529
-0.32563555 0.042173449 0.98180002
-0.31416827 0.041611254 0.98100001
-0.30391979 0.04426343 0.9836002
-0.29564959 0.046920523 0.98705566
-0.3011429 0.054962866 0.98185718
-0.29482317 0.05472257 0.98406231
-0.28574935 0.055913441 0.98633325
-0.27840722 0.058360357 0.98625004
-0.29326341 0.062043574 0.98100001
-0.28491691 0.065440595 0.98223531
-0.27518079 0.066565104 0.98422205
-0.26500303 0.067804553 0.98400003
-0.25907955 0.069298744 0.98400003
-0.28282863 0.074935548 0.98100001
-0.27485779 0.075567558 0.98285294
-0.2651566 0.074525498 0.98693335
-0.28122327 0.081700951 0.98100007
-0.27427417 0.084457941 0.98164314
-0.26510566 0.084960632 0.98678774
-0.28208327 0.098901153 0.98100007
-0.27326486 0.095326595 0.98214304
-0.26473227 0.095166296 0.98686099
-0.25837293 0.095589317 0.98899996
-0.2817601 0.10345663 0.98137504
-0.27459133 0.10495971 0.98209101
-0.26467258 0.10518859 0.98588216
-0.25895095 0.10462081 0.98900002
-0.27308863 0.11448701 0.98485005
-0.26451603 0.11510662 0.98597139
-0.25923994 0.11444708 0.98900002
-0.27211821 0.12231297 0.98774999
-0.2648592 0.12482411 0.98722577
-0.25923997 0.12225029 0.98900002
-0.26675418 0.13149853 0.98900002
-0.35287848 0.14999503 0.98900002
-0.31169489 0.1486945 0.98900002
-0.30544043 0.14800133 0.98855567
-0.29544169 0.14840063 0.9882859
-0.28525037 0.14888373 0.98790914
-0.2745288 0.14726329 0.98785716
-0.26808006 0.1487131 0.98871428
-0.3730565 0.15645832 0.98900008
-0.36529073 0.15609461 0.98810023
-0.35505804 0.15546924 0.98655868
-0.3450307 0.15558486 0.9871515
-0.33466232 0.15719269 0.98846686
-0.32342595 0.15749985 0.98763651
-0.31480584 0.1556661 0.98580003
-0.30504522 0.15516093 0.98468739
-0.29497156 0.15530266 0.9841873
-0.28481525 0.15535206 0.98449993
-0.27501479 0.15547214 0.98605686
-0.26799515 0.15492754 0.98885727
-0.37459505 0.1650819 0.98891681
-0.36488572 0.16464739 0.98423523
-0.35429952 0.16538212 0.98135328
-0.34461486 0.16452153 0.98316669
-0.33548376 0.16431248 0.98347092
-0.32520428 0.16318673 0.9829998
-0.31682768 0.16219789 0.98100007
-0.30078849 0.1636169 0.98100001
-0.29487139 0.16425078 0.98140931
-0.28506425 0.1642977 0.98196453
-0.27477416 0.16515943 0.98221648
-0.26858094 0.16509877 0.98775005
-0.37522838 0.1748423 0.98817253
-0.36464244 0.17567588 0.98218203
-0.3551268 0.17515537 0.98100036
-0.34429064 0.17114198 0.98100013
-0.27405515 0.1748566 0.98111147
-0.26524937 0.17581131 0.98624128
-0.25837296 0.17947383 0.98900002
-0.37522301 0.18557072 0.98782146
-0.36398274 0.18476984 0.9810003
-0.35518414 0.18339713 0.98100001
-0.27219316 0.18189211 0.98100007
-0.26418707 0.18477599 0.98533332
-0.25923997 0.18510947 0.98900002
-0.37466368 0.19473961 0.98852396
-0.36462256 0.1947937 0.98389661
-0.35473186 0.19370805 0.98110741
-0.26392868 0.19436863 0.98338473
-0.2578707 0.19731049 0.98686683
-0.4048999 0.20895262 0.98900002
-0.37195301 0.20132282 0.98900002
-0.36464638 0.2046669 0.98877788
-0.35374454 0.20498671 0.9819603
-0.26314202 0.20437412 0.98200005
-0.25627032 0.20505823 0.98641926
-0.41084522 0.21712741 0.98899996
-0.40456849 0.21492895 0.98789662
-0.39516073 0.21684468 0.98737925
-0.38479829 0.21616355 0.98706251
-0.37519929 0.21782026 0.98719227
-0.36478391 0.21565858 0.98726451
-0.35559821 0.21544158 0.98567724
-0.34574825 0.21568374 0.98195475
-0.33970395 0.21844253 0.98100007
-0.26144305 0.21328248 0.98100001
-0.25502631 0.21573819 0.98634362
-0.41173407 0.22517107 0.98900008
-0.40487224 0.22512951 0.98724002
-0.39538583 0.2250289 0.98451716
-0.38487318 0.22519085 0.98324996
-0.37489927 0.225814 0.98206478
-0.36481622 0.22446258 0.9810003
-0.35433361 0.22487999 0.98310012
-0.34526208 0.22534816 0.9819681
-0.33970395 0.22480662 0.98100007
-0.26144305 0.22102256 0.98100007
-0.25392616 0.22483414 0.98361284
-0.24872787 0.22726288 0.98719996
-0.4111425 0.23253568 0.98900002
-0.4041729 0.23449044 0.98795664
-0.39494234 0.23495111 0.98593092
-0.38520047 0.23521815 0.98126113
-0.35002407 0.23134269 0.98100007
-0.34486398 0.2313427 0.98100007
-0.25309092 0.23448099 0.98292005
-0.24820764 0.2357467 0.98720008
-0.40281907 0.24085908 0.98900002
-0.39421338 0.2445123 0.98809105
-0.38487715 0.24502133 0.98325014
-0.37840438 0.24768287 0.98100007
-0.32078373 0.24596286 0.98100007
-0.31605369 0.24682288 0.98100001
-0.30100352 0.24854289 0.98100007
-0.26058304 0.24854289 0.98100007
-0.25371718 0.24617569 0.98266673
-0.24835861 0.24368563 0.9878
-0.39160553 0.25114775 0.98900002
-0.38448375 0.25393748 0.98789483
-0.37607935 0.25509766 0.98306257
-0.31120077 0.25321153 0.98100001
-0.30413607 0.25518191 0.98127288
-0.29567665 0.25601786 0.98130006
-0.28676555 0.25809851 0.98100007
-0.27468717 0.258863 0.98100007
-0.26389241 0.25575876 0.98168188
-0.2547541 0.25470397 0.98486644
-0.41010204 0.26964426 0.98900002
-0.40414816 0.26892585 0.98874998
-0.39969775 0.26877725 0.98900002
-0.38062325 0.26097402 0.98900002
-0.37433723 0.26488733 0.98589486
-0.36590084 0.26642269 0.98159999
-0.30246255 0.26399854 0.98233342
-0.29520217 0.26497915 0.98410332
-0.28506991 0.26463574 0.98303604
-0.27470967 0.26461264 0.98317254
-0.26546231 0.26456234 0.98604786
-0.25757924 0.26191065 0.98762494
-0.41096911 0.27484637 0.98900002
-0.40436536 0.27516422 0.98814285
-0.39722711 0.27604625 0.98825014
-0.37195301 0.27291971 0.98900002
-0.36472422 0.27512378 0.98750007
-0.35558698 0.27571818 0.98316669
-0.34504154 0.27878481 0.98150009
-0.33970395 0.27950326 0.98100007
-0.30100349 0.2752032 0.98100007
-0.29458797 0.27473783 0.98594272
-0.28593588 0.27283752 0.98800015
-0.27658805 0.27139291 0.98799998
-0.41096908 0.28091556 0.98900002
-0.40406421 0.28448826 0.9878
-0.39505938 0.28425702 0.98694271
-0.38522831 0.28577179 0.98442841
-0.37589303 0.2879076 0.98722237
-0.36475006 0.28485045 0.9890002
-0.35528278 0.28509417 0.98803455
-0.3448711 0.28590664 0.98688453
-0.33557501 0.28633124 0.98200005
-0.32938382 0.28982335 0.98100007
-0.30014348 0.28380331 0.98100007
-0.29423264 0.28490227 0.98505414
-0.28871876 0.28871876 0.98900002
-0.40345487 0.29160884 0.98900002
-0.39486897 0.29425228 0.98655576
-0.38458088 0.29474884 0.98100019
-0.37438992 0.29403326 0.98327804
-0.36461288 0.29476404 0.98589194
-0.35610929 0.29521027 0.98820597
-0.34435526 0.29507586 0.98884636
-0.33521286 0.29570395 0.98642117
-0.32553789 0.29577854 0.98200017
-0.31600589 0.29765904 0.98100007
-0.3033033 0.29699597 0.98133332
-0.29534882 0.2948043 0.98668188
-0.39134192 0.30123231 0.9883334
-0.3831659 0.30218524 0.98266673
-0.37486908 0.30359077 0.98128593
-0.36355492 0.30186349 0.98100001
-0.354514 0.30440414 0.9836759
-0.3455036 0.305904 0.98775679
-0.33496302 0.30533627 0.98869717
-0.32518524 0.30416107 0.98705018
-0.31497917 0.3045232 0.98681831
-0.30528432 0.30373651 0.98594999
-0.29767129 0.30113852 0.98850006
-0.37123767 0.31103694 0.98100013
-0.36501682 0.31594625 0.98200005
-0.35389414 0.31519374 0.98100042
-0.34370199 0.31437066 0.98415637
-0.33597818 0.31525016 0.98822236
-0.36501682 0.32166564 0.98900002
-0.35418224 0.32339016 0.98500007
-0.34449163 0.32435012 0.98677403
-0.33575034 0.3248226 0.98873925
-0.34420827 0.33098614 0.98899996
-0.33727208 0.33033589 0.98900002
-0.3543399 0.039371099 0.99800003
-0.34401366 0.036718212 0.99610519
-0.33481002 0.033668566 0.99278945
-0.32860473 0.033171061 0.99200004
-0.3634463 0.045770988 0.99687505
-0.35599899 0.044267118 0.99256235
-0.34525239 0.040873706 0.99200004
-0.36369109 0.05245601 0.99725008
-0.35742751 0.051309545 0.99200004
-0.26524428 0.068702616 0.99200004
-0.2623454 0.077978916 0.99200004
-0.26069352 0.084577978 0.99233341
-0.25770727 0.088994525 0.99200004
-0.25624272 0.095754072 0.99293739
-0.25429037 0.10484888 0.99390918
-0.24935029 0.10936417 0.99800003
-0.28042507 0.11706349 0.99650002
-0.27825838 0.11950281 0.99500006
-0.2545093 0.11505658 0.99425018
-0.24847537 0.1119889 0.99800003
-0.3009702 0.12861226 0.99800003
-0.29462421 0.12895176 0.99725008
-0.28215957 0.12817481 0.99800003
-0.27614722 0.12668771 0.99406242
-0.26087934 0.12826529 0.99260008
-0.25653481 0.12447485 0.995
-0.40420997 0.13911122 0.99800003
-0.33275869 0.13706976 0.99800009
-0.3263427 0.13867377 0.99800009
-0.31363618 0.13776143 0.9971
-0.30429289 0.1349342 0.9961381
-0.29483354 0.13470775 0.99537516
-0.28446832 0.13463029 0.99509108
-0.27439803 0.13505426 0.9929232
-0.26451761 0.1353768 0.99388897
-0.25801539 0.13269088 0.99671423
-0.40433496 0.14611053 0.99800009
-0.39437658 0.14732827 0.99778587
-0.38502702 0.14705709 0.99669582
-0.37493935 0.14710063 0.99616665
-0.36522001 0.14736514 0.99533325
-0.35478419 0.14743765 0.99516666
-0.34654829 0.14829221 0.99663639
-0.33403209 0.14612985 0.99757141
-0.32503438 0.14462192 0.99545473
-0.31504166 0.14424035 0.99262083
-0.30439451 0.1429099 0.99300009
-0.29489639 0.14333826 0.99304354
-0.28516215 0.14371723 0.99200022
-0.27485621 0.14202814 0.99199998
-0.26579869 0.14434704 0.99433339
-0.41120929 0.15704694 0.99800003
-0.40455759 0.1548505 0.99703997
-0.39486811 0.15515485 0.99430025
-0.3845796 0.15487441 0.99250031
-0.375974 0.15314229 0.99288225
-0.36583415 0.15146463 0.99199992
-0.35499248 0.15045002 0.99199998
-0.34335744 0.15132417 0.99266666
-0.33454555 0.15273818 0.99274999
-0.32608065 0.1533118 0.99215788
-0.31800327 0.15160955 0.99200004
-0.2641786 0.15554342 0.99454993
-0.4115842 0.16498365 0.99800009
-0.40451664 0.16437595 0.99644804
-0.3946476 0.16491009 0.99407709
-0.38442132 0.16499326 0.99208844
-0.37829921 0.16088587 0.99200004
-0.26451102 0.1648791 0.99510723
-0.25984925 0.16579609 0.99800003
-0.41120929 0.1706081 0.99800003
-0.40565467 0.17485271 0.99725008
-0.39471149 0.17409213 0.99600011
-0.38570657 0.17474174 0.99280781
-0.26264608 0.17269954 0.99368745
-0.25777075 0.17544757 0.9963125
-0.40450159 0.18169034 0.99799997
-0.39352408 0.18519114 0.99772739
-0.38554099 0.1845884 0.99303472
-0.26002634 0.18349685 0.99200004
-0.25606513 0.18491884 0.99395663
-0.43483192 0.19773042 0.99800003
-0.42389551 0.19816786 0.99800003
-0.41820857 0.19860533 0.99800003
-0.40420997 0.19860533 0.99800003
-0.39458594 0.19335584 0.99799997
-0.38436672 0.19454007 0.99325013
-0.37829921 0.19567201 0.99200004
-0.26002634 0.19132373 0.99200004
-0.25479245 0.19481972 0.99440002
-0.44008142 0.20341736 0.99800003
-0.43421718 0.20464489 0.99686205
-0.4248307 0.20449851 0.99614716
-0.41472286 0.20442232 0.99435127
-0.40516853 0.20486082 0.99465722
-0.39500746 0.20736498 0.99673682
-0.38515893 0.20595032 0.99531054
-0.37517801 0.20525639 0.99228579
-0.36677629 0.20719491 0.99200004
-0.25196061 0.20560831 0.99449998
-0.43366992 0.21443085 0.99699998
-0.42471629 0.21475364 0.99435747
-0.41583362 0.21415025 0.99242854
-0.40107894 0.21120916 0.99350005
-0.39512613 0.2119256 0.99307138
-0.38280684 0.21146661 0.99266666
-0.37517878 0.21262495 0.99294734
-0.36960265 0.21132576 0.99200004
-0.25117767 0.21410613 0.99390906
-0.24746656 0.21681786 0.99699998
-0.43133226 0.22222799 0.99800003
-0.42535278 0.22439843 0.99662495
-0.41733024 0.22408928 0.99223071
-0.24652632 0.22452536 0.99476933
-0.42258313 0.23228949 0.99800003
-0.41593742 0.23481569 0.99387491
-0.40960672 0.23828501 0.99200004
-0.24564178 0.23467666 0.99514282
-0.41394699 0.24316065 0.99733341
-0.40565383 0.2453983 0.99349999
-0.39873606 0.24698155 0.99200004
-0.24619232 0.24537446 0.99482358
-0.42958245 0.25897434 0.99800003
-0.40419728 0.25192302 0.99710006
-0.39507025 0.25575253 0.99481249
-0.38815525 0.25770727 0.99200004
-0.25100163 0.25738788 0.99300003
-0.24783592 0.25491598 0.99563146
-0.43315178 0.26658934 0.99753857
-0.42513654 0.2657713 0.99659979
-0.41522041 0.26568595 0.99577439
-0.40551785 0.26584449 0.99457139
-0.39478472 0.26671213 0.99690914
-0.38515523 0.26519588 0.99418187
-0.26305625 0.26856843 0.99250007
-0.25441378 0.26488119 0.99455005
-0.43268728 0.27322146 0.99745464
-0.42428696 0.27438354 0.99412519
-0.41634431 0.27437389 0.99216664
-0.39398503 0.27349058 0.99364513
-0.38566887 0.27499864 0.99491197
-0.37594604 0.27639624 0.99199992
-0.36960265 0.27915871 0.99200004
-0.28449762 0.27729076 0.99242848
-0.2741425 0.27589065 0.99373674
-0.26624396 0.27355891 0.99575001
-0.42379144 0.2830148 0.99700004
-0.41570687 0.28491172 0.99462491
-0.40960672 0.28785524 0.99200004
-0.38301328 0.28193519 0.99279988
-0.37447277 0.28376788 0.99199998
-0.36960265 0.28263733 0.99200004
-0.28555048 0.28428775 0.99427301
-0.27604115 0.28099811 0.9975
-0.41298747 0.29239461 0.99680007
-0.40552369 0.29613054 0.99349993
-0.39830124 0.29829109 0.99200004
-0.37134197 0.29133385 0.99200004
-0.35168779 0.2948125 0.99199998
-0.29207927 0.29605484 0.99200004
-0.2876429 0.29486993 0.99442875
-0.4039183 0.30126181 0.99799997
-0.39548627 0.30468914 0.99585718
-0.3873876 0.30787686 0.99300003
-0.3504703 0.30003041 0.99200004
-0.34496248 0.30350903 0.99200004
-0.3243807 0.30872694 0.99200004
-0.31916279 0.30872694 0.99200004
-0.30189452 0.30755514 0.99312502
-0.29428607 0.3050774 0.99361557
-0.2871789 0.30332237 0.99676478
-0.38467708 0.3118746 0.99650002
-0.37883747 0.31759354 0.99800003
-0.33189735 0.31602156 0.99237508
-0.32533798 0.31461206 0.99443781
-0.31478882 0.31479466 0.9946667
-0.30596787 0.31324011 0.99466676
-0.29484579 0.3109442 0.99800003
-0.37183815 0.32371795 0.99800003
-0.36394933 0.32562146 0.99400002
-0.35618761 0.32943058 0.99500006
-0.33144823 0.32480788 0.99331236
-0.32877654 0.32512066 0.99718189
-0.35283294 0.3341231 0.99585724
-0.34426904 0.33577284 0.99270582
-0.33457637 0.33480895 0.9942174
-0.32949236 0.33369192 0.99800003
-0.35084024 0.34034127 0.99800003
-0.34617403 0.34034124 0.99799997
-0.33596671 0.34034127 0.99800003
-0.35154465 0.029002324 1.0025001
-0.34575206 0.02895893 1.001
-0.36188331 0.03850963 1.006
-0.35435873 0.034817692 1.0037142
-0.34608585 0.032317918 1.0012729
-0.3715106 0.047870968 1.0050001
-0.36453152 0.043701656 1.001
-0.37185097 0.054192141 1.005125
-0.36758181 0.053851146 1.0015
-0.25689578 0.09622556 1.0070001
-0.25089207 0.10404689 1.003
-0.24835685 0.10679913 1.005
-0.29462168 0.1172718 1.0068001
-0.28637287 0.11653511 1.0037857
-0.25009984 0.11671326 1.001
-0.24601823 0.11488476 1.0045453
-0.41550609 0.12947781 1.0070001
-0.40785515 0.12977208 1.0070001
-0.3451761 0.12933068 1.0070001
-0.31545505 0.12947781 1.0070001
-0.30420369 0.12617636 1.0058
-0.29485661 0.12460133 1.0046206
-0.28596133 0.12439153 1.0029199
-0.25308111 0.12634856 1.0031667
-0.24849145 0.12321813 1.0063334
-0.42410731 0.13636731 1.0068126
-0.41521183 0.13542141 1.0049642
-0.40565327 0.13590027 1.0035999
-0.39530423 0.13731657 1.0046817
-0.38518628 0.13830532 1.0041666
-0.37584478 0.13843969 1.0058461
-0.36652386 0.13747655 1.0070001
-0.35419104 0.13700382 1.0062106
-0.34495583 0.13551456 1.0037856
-0.33621457 0.13483417 1.002
-0.32381269 0.13526501 1.0037272
-0.31548202 0.1339339 1.0024118
-0.30845648 0.13119271 1.001
-0.29046685 0.13075395 1.001
-0.28783423 0.13075395 1.001
-0.26063037 0.13865185 1.001
-0.25579554 0.13522103 1.005
-0.43267173 0.14566255 1.0070001
-0.42530861 0.14430027 1.0052186
-0.41513994 0.14501195 1.0014999
-0.40539765 0.14464083 1.00115
-0.39567456 0.14342958 1.001
-0.38524151 0.14240135 1.0010002
-0.37505326 0.14259271 1.002421
-0.36522043 0.1424845 1.0038637
-0.35527235 0.14298494 1.0030999
-0.34457034 0.14443423 1.0012727
-0.33824417 0.14342959 1.001
-0.26160347 0.14549492 1.0034001
-0.25846744 0.14114268 1.00625
-0.43257362 0.15095937 1.0070001
-0.42523858 0.15464959 1.0053846
-0.41548297 0.1539751 1.0009999
-0.40893519 0.15357009 1.001
-0.34136435 0.15005991 1.001
-0.26135936 0.15433064 1.0038126
-0.2589913 0.1590402 1.006
-0.42366216 0.1644379 1.0057501
-0.41752291 0.16472478 1.0021251
-0.26063037 0.16234551 1.001
-0.25855702 0.16582759 1.0046428
-0.42286283 0.17408884 1.0070001
-0.41494024 0.17533326 1.0018182
-0.40191483 0.17550868 1.0010002
-0.39869717 0.17931135 1.001
-0.25586033 0.17497592 1.0044286
-0.42109719 0.18097468 1.0070001
-0.41484705 0.18509117 1.0048999
-0.40505779 0.18546471 1.002269
-0.39752713 0.18560041 1.0010002
-0.2527993 0.18515901 1.0043529
-0.24983335 0.1862715 1.0070001
-0.45478919 0.1960021 1.0068001
-0.44510353 0.19513656 1.0035311
-0.43531123 0.19568725 1.0028619
-0.42497608 0.19533506 1.0031599
-0.41518581 0.19557798 1.0037776
-0.40516233 0.19486777 1.0018436
-0.39561245 0.19617081 1.0009999
-0.25183421 0.19461273 1.003077
-0.45369294 0.20324849 1.0070001
-0.44513029 0.20515607 1.0021054
-0.43964919 0.20095742 1.001
-0.40191483 0.20271249 1.001
-0.3951526 0.20260926 1.0010002
-0.38875169 0.20183496 1.001
-0.25085145 0.20499203 1.0016667
-0.24918251 0.2068574 1.0058
-0.44547686 0.21500328 1.0041428
-0.43921044 0.21719198 1.001
-0.24622878 0.21433391 1.0041766
-0.44327858 0.22362494 1.0062501
-0.43583301 0.22494747 1.0023127
-0.2420858 0.22535872 1.0041666
-0.43298784 0.23394859 1.0055001
-0.42608744 0.23568906 1.0024002
-0.24168135 0.23517196 1.002059
-0.2385316 0.23576084 1.0061429
-0.42387167 0.24518193 1.0055
-0.41719446 0.24730931 1.0023334
-0.24231783 0.24509983 1.0032104
-0.23923972 0.24453652 1.0070001
-0.45324931 0.257936 1.006143
-0.44539377 0.25723362 1.0044999
-0.43491367 0.25578099 1.0023845
-0.42505169 0.25604063 1.0047499
-0.41525644 0.25519687 1.0027306
-0.40637806 0.25716868 1.0011877
-0.39928222 0.25887528 1.001
-0.2432671 0.25492021 1.003857
-0.45354846 0.26392129 1.0056363
-0.44519249 0.26458704 1.0019228
-0.43701658 0.26355553 1.001
-0.4250235 0.26121539 1.001
-0.41463923 0.26128852 1.001
-0.4045299 0.26327497 1.0020499
-0.39680442 0.26589561 1.0010002
-0.25122723 0.26645467 1.002
-0.24675259 0.26385123 1.0060769
-0.44305596 0.27328089 1.0047501
-0.4363803 0.27611786 1.0020001
-0.26366031 0.2777375 1.0032002
-0.25630382 0.27297479 1.0046923
-0.43328834 0.28439152 1.0043333
-0.42529005 0.28808317 1.0014285
-0.28190115 0.28848931 1.0017501
-0.27485329 0.28610578 1.0024399
-0.26627389 0.28428039 1.005579
-0.4227013 0.29099303 1.0016
-0.4163608 0.29617527 1.0025001
-0.28334129 0.29509786 1.0031818
-0.27600566 0.29302853 1.0067858
-0.26925501 0.29044229 1.0070001
-0.41318718 0.30314803 1.0058
-0.40510777 0.30565327 1.0031819
-0.39752713 0.3080177 1.001
-0.28375366 0.30587018 1.0032858
-0.40255833 0.31162956 1.0070001
-0.39461282 0.31423447 1.0045455
-0.38555118 0.3169924 1.0026364
-0.303323 0.31754524 1.0023637
-0.29430014 0.31579328 1.003684
-0.28699794 0.31402719 1.00525
-0.38371605 0.32443208 1.0058461
-0.3767347 0.32512215 1.0027143
-0.36796615 0.32844645 1.00175
-0.32435739 0.32534316 1.0015999
-0.31494227 0.32550457 1.0034999
-0.30589867 0.3232246 1.0055882
-0.29721045 0.32104614 1.0070001
-0.37489545 0.33255312 1.0062001
-0.36492708 0.3343415 1.0048182
-0.3584277 0.33631638 1.003143
-0.33171135 0.33960927 1.001
-0.3243514 0.33500427 1.0028332
-0.31623176 0.33153021 1.0066667
-0.35259974 0.34321645 1.0030001
-0.34485433 0.34540123 1.0033078
-0.33446616 0.34519747 1.0029501
-0.32576543 0.34394911 1.0048181
-0.33517098 0.35047293 1.0070001
-0.36372665 0.034076177 1.0140001
-0.3586005 0.034531899 1.01
-0.39172226 0.048686124 1.0190001
-0.38491794 0.048077084 1.0176667
-0.37727964 0.047156777 1.015
-0.39127561 0.050919428 1.0190001
-0.38552019 0.054437358 1.0179502
-0.37735167 0.053823244 1.0120001
-0.25651705 0.098866954 1.016
-0.33420217 0.10829064 1.0190001
-0.30164549 0.10928322 1.0190001
-0.29620051 0.1093683 1.0190001
-0.25262573 0.10265525 1.01825
-0.24474579 0.10582634 1.0157694
-0.23851733 0.10987877 1.0190001
-0.44040841 0.118812 1.0190001
-0.43400529 0.1177142 1.0172499
-0.42437914 0.11755874 1.0155265
-0.41492435 0.11771398 1.0158639
-0.40419999 0.11867209 1.0178001
-0.37434217 0.11764266 1.0177144
-0.36709288 0.11769875 1.0159999
-0.3403562 0.118812 1.0190001
-0.33439693 0.11522947 1.0176252
-0.32778031 0.11572456 1.0187857
-0.3146348 0.1176343 1.0171539
-0.30461892 0.11588889 1.0162501
-0.29551151 0.11309851 1.0146153
-0.24239449 0.11464301 1.0137501
-0.2355987 0.11560272 1.0173849
-0.2267765 0.11830153 1.0190001
-0.45112827 0.12953188 1.0190001
-0.4448863 0.12571883 1.0178001
-0.43502662 0.12455171 1.0134003
-0.42460752 0.12496008 1.0114485
-0.41467762 0.12455183 1.0116802
-0.40579903 0.12486138 1.0139475
-0.3957302 0.12472816 1.0151293
-0.38502008 0.12712409 1.0160002
-0.37454736 0.12497613 1.015889
-0.36534184 0.12483386 1.0160859
-0.3550325 0.12499993 1.0155557
-0.34455177 0.1254393 1.0148623
-0.33513105 0.12466937 1.0158002
-0.32524085 0.12440441 1.0136565
-0.3153159 0.1241556 1.0128067
-0.30755562 0.12288129 1.0116667
-0.25057763 0.12838784 1.01
-0.2439744 0.12503041 1.0125558
-0.23516138 0.12470869 1.0160835
-0.22487542 0.12493106 1.0179169
-0.21850689 0.12309995 1.0190001
-0.45202598 0.13759606 1.0170001
-0.44514096 0.13505149 1.0135003
-0.43509436 0.13469161 1.0108002
-0.42639941 0.13205604 1.0100001
-0.41526824 0.13015869 1.01
-0.40305459 0.131717 1.0104617
-0.39460728 0.1324375 1.0107061
-0.38533852 0.13324773 1.0116252
-0.37540701 0.1333307 1.0113045
-0.36522788 0.13343094 1.0122802
-0.35579109 0.13233562 1.0104002
-0.34477106 0.13028756 1.011
-0.33413374 0.13160335 1.0124545
-0.32545599 0.1309887 1.0103334
-0.25168723 0.13611916 1.0115002
-0.24534865 0.13485251 1.0151179
-0.2353923 0.13463059 1.0184647
-0.22507277 0.13486604 1.0188004
-0.21886422 0.13846512 1.0190001
-0.45325157 0.14550453 1.01825
-0.44467828 0.1451312 1.0128891
-0.43663672 0.1446798 1.0100001
-0.25526315 0.14523593 1.0143551
-0.24592204 0.14216281 1.0187273
-0.23553957 0.14144285 1.0190001
-0.2247114 0.14447474 1.0190005
-0.21826868 0.14442061 1.0190001
-0.45247295 0.15345423 1.0168571
-0.44542748 0.15484206 1.0140002
-0.43588647 0.15575711 1.0112002
-0.2570641 0.15453194 1.0154445
-0.22347973 0.15246052 1.0190001
-0.21826868 0.15156718 1.0190001
-0.44460729 0.16484612 1.0170588
-0.43511674 0.16453338 1.0119618
-0.4288449 0.16557604 1.0100001
-0.2575222 0.16383776 1.0151819
-0.44239187 0.17476401 1.0185715
-0.43500066 0.17498979 1.0147144
-0.42703226 0.17565501 1.0102501
-0.25577414 0.17539255 1.0155715
-0.46398652 0.18888627 1.0176364
-0.45497561 0.18828434 1.0171539
-0.44403297 0.18631838 1.0169232
-0.43474361 0.18548852 1.0148892
-0.42548096 0.18549067 1.0115002
-0.41880995 0.18859729 1.01
-0.25123748 0.18317308 1.0126667
-0.24891438 0.18724263 1.0122499
-0.4718588 0.1942801 1.0185715
-0.46510258 0.19525418 1.0133915
-0.45630121 0.19203238 1.0110002
-0.44448754 0.19036816 1.0100001
-0.43496773 0.1914815 1.0116364
-0.42465383 0.19125359 1.0100001
-0.41880998 0.19213903 1.01
-0.25072813 0.19567345 1.013
-0.24799791 0.19399549 1.0170715
-0.47122806 0.20278439 1.0190001
-0.46491843 0.20534758 1.0140001
-0.45713654 0.20706494 1.0100001
-0.2506173 0.201737 1.0137501
-0.24736196 0.20571697 1.0158573
-0.46373749 0.21355322 1.0153077
-0.45540118 0.2151771 1.0109476
-0.24454819 0.21363063 1.0134
-0.46048844 0.22089195 1.016
-0.45439059 0.22474237 1.0141054
-0.44591406 0.22704117 1.0103335
-0.24315403 0.22416484 1.016
-0.45220026 0.23458672 1.0190001
-0.44526157 0.23478647 1.0150527
-0.4369027 0.23716322 1.010375
-0.24042438 0.23151219 1.0170001
-0.23793551 0.23675434 1.0140001
-0.47078139 0.24923721 1.0190001
-0.46418861 0.24710813 1.0175999
-0.45509633 0.2478914 1.0157001
-0.4450005 0.24579521 1.0153573
-0.43555695 0.24554519 1.0120403
-0.42914006 0.24585532 1.0100001
-0.23652418 0.24483179 1.0148572
-0.47078136 0.25549048 1.0190001
-0.46437499 0.25429231 1.0142274
-0.45501533 0.25405285 1.0114403
-0.44401875 0.25276518 1.0100001
-0.4351019 0.25181723 1.0100001
-0.42854974 0.25234851 1.0100001
-0.2417233 0.25943196 1.01
-0.23790933 0.25465292 1.0155202
-0.47078139 0.26263705 1.0190001
-0.46396869 0.2636596 1.0140001
-0.45835933 0.26356399 1.01
-0.2433538 0.26648927 1.0147142
-0.23806386 0.2643643 1.0184546
-0.45461303 0.27483782 1.0172001
-0.44714296 0.27739426 1.0120001
-0.25407356 0.27673301 1.013375
-0.24657854 0.27261624 1.0168999
-0.45112827 0.28229016 1.0190001
-0.44494388 0.28465551 1.0157501
-0.43813315 0.28746048 1.011
-0.2622824 0.28658348 1.0120771
-0.25784004 0.28332648 1.0163
-0.44219506 0.29211673 1.0190001
-0.43604258 0.29157904 1.013
-0.42563921 0.29661798 1.0115
-0.27444574 0.29661795 1.0115002
-0.26605928 0.29482177 1.0160002
-0.42372897 0.30518392 1.0159999
-0.41599244 0.30681187 1.0109001
-0.40995562 0.30901623 1.01
-0.28125569 0.3056629 1.0138183
-0.27635765 0.30224207 1.018
-0.267997 0.30104995 1.0190001
-0.42223096 0.31287906 1.01825
-0.41476688 0.31501025 1.0159999
-0.40627128 0.31560794 1.0128335
-0.39844501 0.31787056 1.01
-0.28322738 0.31584686 1.0137502
-0.41182205 0.32189417 1.0190001
-0.403483 0.32189763 1.016
-0.39468309 0.32410491 1.014154
-0.38737708 0.3271676 1.01
-0.30496493 0.32772133 1.0112501
-0.29425189 0.3258898 1.01345
-0.28575584 0.32451746 1.0162501
-0.39069831 0.33182842 1.0175
-0.38349503 0.33278513 1.0112
-0.37298676 0.33755052 1.0106001
-0.3665694 0.33823553 1.01
-0.31467885 0.33634356 1.011737
-0.3055051 0.33417633 1.0165001
-0.29658335 0.33142295 1.0190001
-0.37218302 0.34124374 1.0142
-0.36285517 0.34247443 1.0107501
-0.34797528 0.34915587 1.01
-0.32166031 0.34559771 1.0112501
-0.31636813 0.34444508 1.0158802
-0.30819654 0.3403562 1.0190001
-0.3520909 0.35494637 1.0178001
-0.34454536 0.35450181 1.0138001
-0.33428031 0.35528946 1.014125
-0.32534561 0.3543357 1.0164737
-0.31800792 0.35132709 1.018
-0.34660944 0.36060485 1.0190001
-0.3367829 0.36060485 1.0190001
-0.32963631 0.36000931 1.0190001
-0.38099933 0.038639084 1.0250001
-0.376854 0.038582541 1.0235001
-0.39153162 0.045693621 1.0220001
-0.38378689 0.043622937 1.0245715
-0.37721625 0.041939855 1.024143
-0.39407614 0.055511821 1.0224003
-0.40176088 0.065428093 1.028
-0.39500034 0.064138681 1.0270768
-0.38678563 0.061126359 1.0236667
-0.26585793 0.078405559 1.028
-0.37490475 0.089220122 1.028
-0.26339144 0.085710123 1.028
-0.25658828 0.086001508 1.028
-0.24422881 0.08561527 1.028
-0.3911266 0.096429825 1.028
-0.38481808 0.096429825 1.028
-0.37512997 0.095378399 1.028
-0.36537763 0.096429832 1.028
-0.35472357 0.098195769 1.027625
-0.3444322 0.097688563 1.0267646
-0.33505496 0.096255928 1.0268887
-0.32507625 0.096403509 1.0263331
-0.31732157 0.096099108 1.0267646
-0.26241693 0.093152687 1.028
-0.25516695 0.095455408 1.0268887
-0.2476365 0.097681575 1.0266154
-0.43303299 0.10859621 1.028
-0.42477846 0.1072588 1.027
-0.41460267 0.1063884 1.0269998
-0.40419427 0.10544195 1.028
-0.39518732 0.1042858 1.0277187
-0.38495678 0.10461444 1.0266765
-0.37494472 0.1042641 1.0273823
-0.36476251 0.10459963 1.026406
-0.35502836 0.10429423 1.0255998
-0.34508577 0.10479237 1.0230384
-0.33507696 0.10430731 1.0230433
-0.3250618 0.10482816 1.0232855
-0.31496719 0.105152 1.0257272
-0.30530629 0.1051896 1.0255712
-0.29833293 0.10560226 1.0245715
-0.25355479 0.10124273 1.0220001
-0.24282123 0.10264304 1.025
-0.23570798 0.10640258 1.0262271
-0.2262644 0.10665844 1.027842
-0.45323649 0.11929207 1.0262001
-0.4450765 0.11688292 1.025
-0.43469712 0.11317395 1.0241175
-0.42495835 0.11266336 1.0226667
-0.41407433 0.11312535 1.0251199
-0.40473714 0.11455312 1.0266069
-0.39481536 0.1152415 1.0249997
-0.38448933 0.11461699 1.0236363
-0.37489882 0.11353693 1.0241818
-0.3646237 0.11425617 1.0240998
-0.35517621 0.1151799 1.0242726
-0.34527734 0.11459722 1.0226206
-0.33687848 0.11065024 1.0220001
-0.32424551 0.11369648 1.0220001
-0.31561145 0.11265965 1.0223913
-0.30776098 0.11204808 1.0225002
-0.23305219 0.11175706 1.0228184
-0.22439317 0.11397422 1.0242757
-0.21677336 0.11703148 1.0255294
-0.46218747 0.12631249 1.0276999
-0.4548921 0.12498932 1.02425
-0.4474391 0.12167046 1.0220001
-0.39256656 0.12254699 1.0236669
-0.38450181 0.12246993 1.0220002
-0.36196515 0.1209537 1.0220001
-0.35390157 0.1209537 1.0220001
-0.34637558 0.12131208 1.0220001
-0.21545 0.12530684 1.0236363
-0.46309525 0.13521443 1.0262855
-0.45727122 0.13481194 1.0235001
-0.21750671 0.13463394 1.0238333
-0.46326482 0.14416297 1.0271817
-0.45766413 0.14440925 1.0231252
-0.2517629 0.14872825 1.0220001
-0.24483283 0.14608461 1.023
-0.23491611 0.145211 1.0224614
-0.21598111 0.1454823 1.0229234
-0.46052 0.15050262 1.028
-0.45682421 0.15555902 1.0227501
-0.25261965 0.15581714 1.0250001
-0.24565208 0.15302925 1.0267999
-0.23513228 0.15457539 1.0257241
-0.22507185 0.15724729 1.0234001
-0.21585651 0.15517215 1.0243683
-0.4543775 0.16510402 1.0240999
-0.44887263 0.16933517 1.0220001
-0.25490201 0.16457473 1.0258334
-0.2330865 0.16393889 1.028
-0.22510561 0.1647801 1.0270998
-0.21863437 0.16384058 1.028
-0.46052 0.17934145 1.028
-0.45516816 0.17511119 1.0261738
-0.44767797 0.17510909 1.0220002
-0.25676227 0.17430986 1.0263637
-0.22458234 0.1710503 1.028
-0.21899484 0.17213173 1.028
-0.48034671 0.18835358 1.028
-0.47410643 0.18710946 1.0250001
-0.46493742 0.18521303 1.0244999
-0.45509756 0.18339865 1.0242498
-0.4470807 0.18239048 1.0220002
-0.25265884 0.18098256 1.0220001
-0.48188034 0.19357063 1.027
-0.47681579 0.19476144 1.0230001
-0.24726157 0.19644547 1.0245714
-0.48034671 0.20457542 1.028
-0.47537267 0.20533748 1.0236363
-0.24495168 0.20364837 1.0241818
-0.47311684 0.21497183 1.026
-0.46768764 0.21861261 1.0220001
-0.24351609 0.21116708 1.0250001
-0.47133458 0.22079727 1.028
-0.46576744 0.2253453 1.0250001
-0.24279261 0.22578353 1.026091
-0.47133458 0.23882154 1.028
-0.46397114 0.23718002 1.0256666
-0.45699945 0.23606203 1.0232859
-0.24075313 0.23296364 1.026
-0.23767462 0.23654877 1.0250001
-0.48079729 0.24828427 1.028
-0.4742009 0.24476944 1.0244545
-0.46470636 0.24301855 1.0233333
-0.45516917 0.2437499 1.0228825
-0.44887263 0.24280335 1.0220001
-0.23318416 0.24723807 1.0255456
-0.22908843 0.24819414 1.028
-0.48184872 0.25474298 1.028
-0.47671297 0.25541273 1.0240625
-0.23287237 0.25504759 1.0237648
-0.2298094 0.25504336 1.028
-0.47623181 0.26189944 1.0238001
-0.23440248 0.26446736 1.0253333
-0.46097323 0.27856082 1.0250001
-0.45768285 0.27831683 1.0230001
-0.25123382 0.27905047 1.0235001
-0.24389678 0.27647737 1.0246
-0.23802048 0.27311915 1.0265
-0.46183035 0.28538334 1.026909
-0.45575434 0.28530896 1.0246251
-0.44887263 0.28939292 1.0220001
-0.25424215 0.28479135 1.0247858
-0.24563068 0.28147897 1.028
-0.46070129 0.292193 1.0267999
-0.45496783 0.2945796 1.0266498
-0.44746023 0.29447994 1.0241001
-0.43850869 0.29743108 1.0250001
-0.26168451 0.2952328 1.0250001
-0.2591694 0.29066718 1.0265
-0.45240909 0.30010405 1.028
-0.43260264 0.30585772 1.025375
-0.42796704 0.30611739 1.0220001
-0.28043339 0.30910391 1.0220001
-0.27529773 0.30649969 1.0247272
-0.26466811 0.30276453 1.0248001
-0.43042141 0.31001124 1.0250001
-0.42275563 0.31649837 1.0227501
-0.41841021 0.31895939 1.0220001
-0.28113288 0.31551814 1.025375
-0.27853221 0.31091452 1.026
-0.41574305 0.32495916 1.0253751
-0.40301329 0.32798421 1.0250001
-0.28192776 0.32500562 1.0237143
-0.40284234 0.3316465 1.028
-0.39624259 0.33500874 1.0272499
-0.38973969 0.3359825 1.0220001
-0.30208313 0.337641 1.0225002
-0.2953963 0.33600065 1.0246001
-0.28694323 0.3327736 1.0250001
-0.31236145 0.34602484 1.0238751
-0.30513707 0.34337726 1.02625
-0.29830161 0.34155986 1.028
-0.35210967 0.35927728 1.0220001
-0.32255179 0.35805362 1.0226002
-0.31675717 0.35510442 1.026125
-0.35314676 0.36212555 1.0250001
-0.34334052 0.36491039 1.025
-0.33491418 0.36526725 1.0248332
-0.32523873 0.36313275 1.0258
-0.31932992 0.36198735 1.028
-0.40341192 0.067558937 1.0314286
-0.39588338 0.069595933 1.031
-0.41238421 0.077394381 1.0351428
-0.40491012 0.075186156 1.0332803
-0.39916357 0.075383991 1.0360001
-0.37491176 0.07916826 1.0380001
-0.36353701 0.078030787 1.0380001
-0.35707611 0.077530295 1.0380001
-0.34306246 0.07916826 1.0380001
-0.33328018 0.078485772 1.0380001
-0.32614148 0.077499524 1.0370001
-0.27024916 0.077730522 1.031
-0.26663378 0.078634366 1.031
-0.42223072 0.088268057 1.0380001
-0.41538548 0.085447855 1.0373601
-0.40489057 0.085024267 1.0340002
-0.39541379 0.085474789 1.0353533
-0.38489646 0.085943274 1.035143
-0.37511936 0.084744215 1.0350668
-0.365309 0.085518055 1.0336877
-0.35542426 0.085626505 1.0362107
-0.34451687 0.086526357 1.0369049
-0.33508009 0.085206397 1.036
-0.32499427 0.085594252 1.0332502
-0.31725633 0.086781569 1.0325001
-0.27117404 0.082808182 1.0380001
-0.26678997 0.083382234 1.0316001
-0.2521404 0.087061383 1.0315455
-0.24598637 0.087641254 1.032143
-0.23951848 0.089480489 1.031
-0.42391479 0.094607241 1.0376668
-0.41549465 0.094500117 1.0350305
-0.40472555 0.095157824 1.0322694
-0.39583579 0.094332717 1.031
-0.38594109 0.092192017 1.031
-0.37509498 0.091890745 1.031
-0.36431876 0.092993066 1.0312001
-0.35529783 0.093823113 1.0320501
-0.34574223 0.092894554 1.0316429
-0.33532587 0.091288179 1.031
-0.32598618 0.091589458 1.031
-0.31322801 0.094608694 1.0317501
-0.30763486 0.097538427 1.0342858
-0.2630184 0.096711233 1.031
-0.25172037 0.091740102 1.031
-0.24429156 0.094184659 1.0314738
-0.23559014 0.095432319 1.0314616
-0.22806978 0.097916365 1.031
-0.45135009 0.10828762 1.0380001
-0.44428682 0.107176 1.0366668
-0.43550938 0.10501554 1.0354002
-0.42562392 0.1027914 1.0348462
-0.41453543 0.1016413 1.031
-0.40763333 0.10123045 1.031
-0.31303105 0.10032662 1.031
-0.3053183 0.10104968 1.031
-0.24132617 0.10032661 1.031
-0.23479065 0.10143904 1.031
-0.22370157 0.10359862 1.0320625
-0.21781352 0.10822428 1.0352501
-0.47409958 0.11818431 1.0370001
-0.46571124 0.11811855 1.0355557
-0.45441878 0.11502799 1.0351177
-0.44475061 0.11244071 1.032091
-0.21436089 0.11402562 1.0335791
-0.48197207 0.12390281 1.0366668
-0.47563317 0.12442785 1.0360001
-0.46603703 0.12325057 1.0315294
-0.21117307 0.12360906 1.0338463
-0.20939533 0.12781274 1.034
-0.47530937 0.13373707 1.0362223
-0.46831998 0.13415617 1.031
-0.47409824 0.14444245 1.0362501
-0.46781492 0.14619367 1.0315001
-0.21421087 0.14823031 1.031
-0.47277597 0.15472609 1.0376365
-0.4659276 0.15506898 1.0344002
-0.2503646 0.15998027 1.031
-0.2449415 0.15845069 1.031
-0.23951848 0.15998027 1.031
-0.21421087 0.15094183 1.031
-0.47045967 0.16197644 1.0380001
-0.46520135 0.16434029 1.0349334
-0.2519953 0.16673175 1.0325
-0.24511768 0.16528092 1.0338184
-0.23731649 0.16589625 1.0312501
-0.21756801 0.1669528 1.031
-0.48319936 0.17926605 1.0380001
-0.4733716 0.17890207 1.0380001
-0.46564975 0.17483963 1.0351667
-0.25307843 0.17464633 1.0340871
-0.2435713 0.17137957 1.0380001
-0.23452094 0.17469379 1.0340002
-0.22513492 0.17631042 1.031353
-0.21660678 0.17540683 1.0322943
-0.49206433 0.18705349 1.0341111
-0.48483616 0.18463972 1.0335654
-0.4757697 0.18267016 1.0328948
-0.46767476 0.18182205 1.0318573
-0.25390035 0.18421704 1.0368334
-0.23204492 0.18342598 1.0380001
-0.22454529 0.18265373 1.0358669
-0.2180052 0.18264599 1.0380001
-0.49429202 0.19517507 1.0355002
-0.48668322 0.19525713 1.0316668
-0.2538844 0.19018582 1.0380001
-0.24754699 0.19676404 1.0343333
-0.49329665 0.20393325 1.0367501
-0.48565525 0.20499638 1.0327145
-0.24451022 0.20647429 1.033
-0.49138921 0.21020538 1.0380001
-0.4843975 0.21326844 1.0366668
-0.47882745 0.21407324 1.0325
-0.24377358 0.21555242 1.0337144
-0.47422132 0.22667494 1.0348572
-0.46909469 0.22867236 1.031
-0.24270271 0.22392383 1.0333637
-0.23951848 0.22686468 1.031
-0.49047923 0.23750478 1.0380001
-0.48514909 0.23715252 1.0370771
-0.47480953 0.23607711 1.0336802
-0.46819088 0.2343967 1.031
-0.24132617 0.23138389 1.031
-0.23602653 0.23590741 1.0331334
-0.49184418 0.24463294 1.0380001
-0.48466083 0.24389906 1.0333531
-0.47903696 0.24132617 1.031
-0.23380819 0.24285956 1.0326365
-0.4916167 0.2538844 1.0380001
-0.48674992 0.25480139 1.0325
-0.22808896 0.25563404 1.0320001
-0.23105428 0.26583064 1.0317779
-0.22867902 0.26370308 1.0357143
-0.23416004 0.27498499 1.0337393
-0.25190249 0.28808385 1.0317501
-0.24440344 0.2860468 1.0325557
-0.2376592 0.28226474 1.0352857
-0.4464986 0.29917213 1.031
-0.2609359 0.29717597 1.0335001
-0.25532514 0.29254141 1.0352502
-0.24478461 0.29089028 1.0380001
-0.45228812 0.30372208 1.0365
-0.44469541 0.30500093 1.0354446
-0.43848336 0.30514914 1.0328751
-0.27024916 0.30821058 1.031
-0.26464754 0.30659375 1.0326668
-0.44498023 0.31090984 1.0380001
-0.43895343 0.3129355 1.0366668
-0.28109527 0.317249 1.031
-0.27570665 0.31454667 1.0345455
-0.26723078 0.31272981 1.0380001
-0.42230931 0.32812902 1.033
-0.41124871 0.32809514 1.031
-0.40763333 0.32990283 1.031
-0.281387 0.32528326 1.0335556
-0.27936387 0.32213292 1.0380001
-0.41448903 0.33199471 1.0364001
-0.4022103 0.33442202 1.031
-0.29284525 0.33894125 1.031
-0.28618833 0.33572552 1.0354286
-0.31182596 0.34978735 1.031
-0.30323103 0.34701759 1.0319
-0.29570585 0.34411857 1.0353334
-0.31341639 0.35586977 1.0346668
-0.30674079 0.35236719 1.0362222
-0.36217204 0.36217204 1.0380001
-0.35491258 0.36712673 1.0327501
-0.34707585 0.36876807 1.031
-0.33171049 0.36967191 1.031
-0.32500702 0.36817005 1.0318573
-0.3179464 0.36466616 1.03475
-0.35347068 0.37232646 1.0365
-0.34449834 0.37328479 1.0352857
-0.33564079 0.37355196 1.034
-0.32544625 0.37202561 1.0361819
-0.31940299 0.37036186 1.0380001
-0.35337994 0.058743678 1.0470001
-0.34787273 0.059661549 1.0470001
-0.39245501 0.066480018 1.0470001
-0.38703516 0.067616425 1.0470001
-0.37387905 0.068228334 1.0470001
-0.36514071 0.067665048 1.0463077
-0.35400555 0.066094533 1.0462942
-0.34570587 0.065180168 1.0460002
-0.33611807 0.067507423 1.0453334
-0.39471719 0.074855238 1.0434196
-0.38509908 0.075055875 1.0429357
-0.37521267 0.074695744 1.0428389
-0.3655445 0.073654473 1.0419548
-0.35422787 0.073751628 1.0417202
-0.34498689 0.074973807 1.0418185
-0.33559403 0.073622718 1.0417145
-0.32899588 0.073465109 1.041
-0.41888797 0.081222288 1.041
-0.39516011 0.081222288 1.041
-0.38785926 0.081222288 1.041
-0.35226744 0.081222288 1.041
-0.34747624 0.082591206 1.041
-0.43464214 0.096579693 1.044
-0.42875955 0.095244579 1.0413334
-0.46480519 0.10837588 1.0466666
-0.45792684 0.10830164 1.044
-0.44079062 0.10129971 1.041
-0.4364101 0.10166476 1.041
-0.21628857 0.10677537 1.041
-0.47147921 0.11381588 1.0470001
-0.46556759 0.11401603 1.044
-0.45774141 0.11230407 1.0415
-0.21187806 0.11415844 1.04175
-0.20639949 0.11759402 1.0443333
-0.48403242 0.1278581 1.0417501
-0.20536681 0.12477522 1.0437601
-0.19917779 0.12391245 1.0470001
-0.48390931 0.13523886 1.0428462
-0.47912025 0.13780411 1.041
-0.20652075 0.1312554 1.0470001
-0.48492217 0.14475954 1.0447057
-0.47866395 0.14647391 1.041
-0.49106044 0.1532843 1.0470001
-0.48486021 0.15375243 1.0454999
-0.4766866 0.1560563 1.0410001
-0.48137093 0.16439983 1.0463333
-0.47528744 0.1655001 1.043
-0.46999416 0.16883285 1.041
-0.48368868 0.17641816 1.0459502
-0.4753086 0.17524695 1.0427647
-0.25157616 0.17917575 1.041
-0.24558859 0.17612068 1.0414094
-0.2381912 0.17978416 1.041
-0.49007156 0.18160939 1.041
-0.25188035 0.18525983 1.0410001
-0.24515684 0.18513288 1.0430911
-0.23554742 0.1860434 1.0411767
-0.22577973 0.18781513 1.0410001
-0.2190264 0.18799765 1.041
-0.25188035 0.1916481 1.041
-0.24552445 0.19424698 1.0445219
-0.23469955 0.19449256 1.0423752
-0.22501564 0.19483425 1.0434003
-0.21886806 0.19506027 1.0446
-0.49724182 0.20858003 1.0419999
-0.24619955 0.20501113 1.044
-0.23424125 0.20204537 1.046
-0.2268717 0.20195138 1.0452
-0.49487236 0.21559556 1.0445001
-0.4869009 0.2175183 1.0431429
-0.24299622 0.21736687 1.044
-0.48438245 0.22509602 1.0453845
-0.47912025 0.22723988 1.041
-0.24099629 0.22533877 1.0418571
-0.23876192 0.22822088 1.0455
-0.49528334 0.23743027 1.043
-0.48557773 0.23359053 1.0449231
-0.47912025 0.23180294 1.041
-0.24001643 0.23180294 1.041
-0.23694028 0.23344523 1.0442728
-0.49731985 0.2443675 1.0414002
-0.49662551 0.25399372 1.0427144
-0.22854963 0.25975722 1.0470001
-0.22713874 0.26570827 1.0437691
-0.23089033 0.27652085 1.041
-0.22743748 0.27428266 1.0436
-0.24001643 0.28838477 1.041
-0.23351415 0.28527123 1.0429502
-0.2285973 0.28357351 1.045125
-0.26009384 0.29842347 1.041
-0.25412014 0.29748645 1.0423636
-0.24594009 0.29546645 1.0438235
-0.23708004 0.29115894 1.0455002
-0.2615079 0.30265689 1.043
-0.25475898 0.30270913 1.0456153
-0.24749014 0.3030425 1.0461428
-0.44599497 0.3150017 1.0425
-0.2725662 0.31728408 1.041
-0.2674149 0.31657368 1.0426668
-0.28077969 0.32762697 1.041
-0.27565473 0.32436499 1.0443002
-0.26867729 0.32125276 1.046
-0.4222202 0.3368583 1.0470001
-0.4159779 0.33452415 1.044
-0.28277022 0.33605558 1.0434375
-0.2796295 0.33573475 1.0458
-0.29240844 0.34692213 1.0426364
-0.28626549 0.34390247 1.0446
-0.27907106 0.34265041 1.046
-0.39131856 0.35337996 1.0470001
-0.38632464 0.35356337 1.0455
-0.37474051 0.35724983 1.0440001
-0.36823457 0.35727271 1.0422857
-0.31120002 0.35865572 1.041
-0.30377454 0.35651881 1.0428947
-0.29659513 0.35340264 1.0450909
-0.37494987 0.36187023 1.0470001
-0.36587417 0.36520272 1.0445455
-0.31405082 0.36560929 1.0433183
-0.30621356 0.36232668 1.0458
-0.36188695 0.37433001 1.044
-0.35561645 0.37685958 1.042125
-0.34621057 0.37818435 1.0419999
-0.3340376 0.37859377 1.0425
-0.3229095 0.37680006 1.0434546
-0.31666833 0.37385854 1.0453999
-0.35429782 0.38091606 1.0470001
-0.34511912 0.38183391 1.0470001
-0.33502254 0.38238463 1.0470001
-0.3262518 0.38173196 1.0470001
-0.37419227 0.057802014 1.0561429
-0.36500818 0.057020154 1.052889
-0.35634947 0.057556678 1.0510668
-0.38415158 0.06445948 1.0516152
-0.37515628 0.063122466 1.0519091
-0.365307 0.063382998 1.0500001
-0.35830462 0.063284375 1.0500001
-0.34288627 0.06489525 1.0500001
-0.33905086 0.064741842 1.0500001
-0.43335912 0.089628644 1.054
-0.46569937 0.10626077 1.054
-0.45932949 0.1076985 1.0500001
-0.20235746 0.12843692 1.054
-0.19709221 0.12769571 1.0555
-0.20295639 0.13154417 1.0552
-0.19626164 0.13139708 1.057
-0.49062648 0.1463595 1.0500001
-0.49155399 0.15571617 1.0510001
-0.487865 0.158326 1.0500001
-0.49079278 0.1655544 1.0530001
-0.48676175 0.16464816 1.0504001
-0.49134314 0.17395785 1.0555
-0.4858925 0.1726595 1.0500001
-0.24445848 0.19922249 1.0500001
-0.24401762 0.20551872 1.0525454
-0.2351042 0.20780908 1.0528572
-0.22456096 0.20635764 1.0524001
-0.21961288 0.20849325 1.057
-0.4998315 0.21999949 1.0500001
-0.24306615 0.21483542 1.0528235
-0.23561782 0.21455751 1.0560626
-0.22591403 0.21331176 1.057
-0.21961288 0.21034652 1.057
-0.49475938 0.22479287 1.0516472
-0.48878551 0.22736351 1.0500001
-0.24147551 0.2233244 1.0526667
-0.2383154 0.2247671 1.0536667
-0.49396062 0.23185173 1.052
-0.48878551 0.2310455 1.0500001
-0.23643042 0.23088902 1.0535001
-0.23069365 0.25656584 1.054
-0.2268312 0.25826284 1.0544001
-0.22467653 0.26578775 1.0546924
-0.21961288 0.26872462 1.057
-0.22402073 0.27601096 1.0539334
-0.21961288 0.2752111 1.057
-0.225036 0.28515601 1.0541053
-0.21961288 0.28355083 1.057
-0.24224405 0.29781711 1.0506668
-0.23404928 0.2956503 1.0532942
-0.2265254 0.29283682 1.0564001
-0.25269917 0.30711037 1.052
-0.24403061 0.30439073 1.05375
-0.23845448 0.3030102 1.057
-0.27408049 0.32883707 1.0526667
-0.4243505 0.33966449 1.0500001
-0.4169865 0.3390508 1.0500001
-0.28075251 0.3359825 1.0500001
-0.2780422 0.33535337 1.0544001
-0.42361069 0.3431111 1.0555
-0.41476488 0.34439507 1.0543333
-0.40594709 0.34647331 1.0526667
-0.28369811 0.34666029 1.0500001
-0.2780354 0.34459469 1.0544446
-0.40225446 0.35265774 1.0548182
-0.39556143 0.35633993 1.0525833
-0.38563177 0.35828385 1.0506154
-0.29377064 0.35646382 1.0515834
-0.28617674 0.35274217 1.0545
-0.39264569 0.3642683 1.0555
-0.38486558 0.36507601 1.0535001
-0.37593976 0.36672312 1.0513333
-0.36912051 0.36912051 1.0500001
-0.3102085 0.3682 1.0500001
-0.30333325 0.36609218 1.0526923
-0.2955344 0.36338183 1.0561819
-0.37465191 0.37131813 1.0552
-0.36766899 0.37505621 1.05375
-0.31292105 0.37594825 1.0524615
-0.30734518 0.37361205 1.0563334
-0.35510015 0.38465011 1.0532
-0.344459 0.38504162 1.052
-0.33409974 0.38683164 1.0516001
-0.32467711 0.38642436 1.0523846
-0.31583297 0.38289014 1.0542728
-0.34007564 0.39011404 1.057
-0.33356643 0.39085481 1.054
-0.32640469 0.39168918 1.0562501
-0.38219881 0.057654642 1.06075
-0.3758226 0.05560118 1.0606
-0.38564566 0.060402334 1.0600001
-0.20295447 0.13646784 1.0607501
-0.19729821 0.13544814 1.0626
-0.4934406 0.17377287 1.0600001
-0.23355569 0.21775816 1.0600001
-0.22466254 0.21669969 1.0623889
-0.21899572 0.21340434 1.0630001
-0.23446296 0.22495997 1.0643333
-0.22815438 0.2222451 1.0651666
-0.23628287 0.2332896 1.067
-0.22504099 0.25851828 1.06075
-0.22209625 0.26403114 1.0608182
-0.21899572 0.26465863 1.0630001
-0.21837766 0.27877998 1.0600001
-0.2202362 0.28900194 1.0600001
-0.21841052 0.28561547 1.0647
-0.22397596 0.29561204 1.062875
-0.2189215 0.29241538 1.0656667
-0.24068007 0.30758727 1.0600001
-0.23415551 0.30533502 1.0623685
-0.22812235 0.30173886 1.0656
-0.26531175 0.31403998 1.06375
-0.25910673 0.31336012 1.067
-0.24136123 0.3103216 1.0630001
-0.23647681 0.31125578 1.0662
-0.27041659 0.32803112 1.0600001
-0.45647681 0.33393899 1.067
