# .PCD v0.7 - Point Cloud Data file format
VERSION 0.7
FIELDS x y z
SIZE 4 4 4
TYPE F F F
COUNT 1 1 1
WIDTH 1499
HEIGHT 1
VIEWPOINT 0 0 0 1 0 0 0
POINTS 1499
DATA ascii
-0.15868105 0.010578737 1.097
-0.26062161 0.078859672 1.097
-0.25677481 0.079052016 1.097
-0.24138753 0.079821378 1.097
-0.23529673 0.077256829 1.097
-0.22803606 0.076544255 1.0960001
-0.21061303 0.079821378 1.097
-0.20401849 0.079271831 1.097
-0.19522579 0.077897958 1.097
-0.18556015 0.076686509 1.0967143
-0.17532589 0.076566376 1.097
-0.16513821 0.077897958 1.097
-0.15637295 0.079436697 1.097
-0.26254499 0.085591599 1.097
-0.25485137 0.085591614 1.097
-0.24520794 0.085581817 1.0968801
-0.23528412 0.085467979 1.09544
-0.22507152 0.085267544 1.0955
-0.21466909 0.085715517 1.095889
-0.20457476 0.085476294 1.09556
-0.19472958 0.085368916 1.0942
-0.18473034 0.085060745 1.0922917
-0.1753611 0.085241951 1.0944616
-0.16492392 0.085241683 1.0925927
-0.15520251 0.085752204 1.0942
-0.14733073 0.087724864 1.0966251
-0.26408374 0.095016278 1.097
-0.25485137 0.095208615 1.097
-0.24504885 0.095135525 1.0961601
-0.23490505 0.094919346 1.0936799
-0.22501308 0.094788276 1.0922
-0.21502477 0.094557136 1.0912308
-0.20614195 0.09376055 1.090706
-0.19550596 0.092127562 1.0903078
-0.18442436 0.090778835 1.09
-0.17247979 0.091256618 1.09
-0.16435747 0.090778835 1.09
-0.15080945 0.093927823 1.0905001
-0.14506997 0.095166534 1.0947084
-0.13944699 0.098093733 1.097
-0.26230457 0.10266183 1.097
-0.25485137 0.10482564 1.097
-0.24483511 0.10465366 1.0951999
-0.23490168 0.10497431 1.0914286
-0.22410345 0.10392651 1.0902667
-0.21729586 0.10109895 1.09
-0.15002397 0.1032012 1.09
-0.14439271 0.10511796 1.0917932
-0.13889743 0.10564999 1.097
-0.25100458 0.11059588 1.097
-0.24461526 0.11423263 1.0958571
-0.2346566 0.11606036 1.0917392
-0.22416809 0.11625277 1.090762
-0.2172529 0.11782838 1.0905001
-0.14393559 0.11549635 1.0912728
-0.1373893 0.11546178 1.0959412
-0.25340882 0.12742569 1.097
-0.24459319 0.12566258 1.097
-0.23513244 0.12572186 1.09472
-0.22473076 0.12583086 1.0938572
-0.21484202 0.12564535 1.0940417
-0.20671004 0.12576269 1.0912309
-0.14237943 0.1232681 1.09
-0.13550304 0.12567432 1.095
-0.28242019 0.13880585 1.097
-0.27427936 0.1372593 1.0968126
-0.26445451 0.13679321 1.0965501
-0.25446671 0.13636953 1.097
-0.24520773 0.13558492 1.0968801
-0.2352854 0.13540672 1.09544
-0.22474857 0.13542606 1.0956
-0.2142278 0.13545123 1.0958
-0.20501056 0.13507639 1.09275
-0.19780231 0.13702826 1.09
-0.13437068 0.13492349 1.0930001
-0.12897509 0.1360276 1.097
-0.29139611 0.14810231 1.097
-0.28422284 0.14541979 1.0968237
-0.27555764 0.14497808 1.0952001
-0.26566333 0.14482005 1.094
-0.25511348 0.14482008 1.094
-0.24472283 0.1444626 1.0932175
-0.2351267 0.14486182 1.0927408
-0.2246111 0.14494185 1.0949333
-0.2140999 0.14470266 1.0943333
-0.20482777 0.14475523 1.092913
-0.19497165 0.14465874 1.0911852
-0.18595327 0.14639282 1.09
-0.13448888 0.14476581 1.0922728
-0.12820244 0.14477335 1.097
-0.28430355 0.15387252 1.097
-0.27552721 0.15483767 1.0959616
-0.26550347 0.15425093 1.094
-0.25511351 0.15441081 1.094
-0.24577525 0.15328315 1.0908573
-0.23315826 0.15097953 1.09
-0.22396679 0.15425803 1.091174
-0.21564643 0.15396152 1.0908334
-0.20559371 0.15281549 1.0902222
-0.19450216 0.15365532 1.0901483
-0.18448384 0.15447791 1.090348
-0.17484373 0.15452243 1.0908334
-0.16488832 0.15788084 1.09
-0.15439227 0.15739548 1.09
-0.14401436 0.15537578 1.0904707
-0.13529004 0.15448855 1.0945201
-0.12918882 0.15355197 1.097
-0.27300352 0.16324914 1.097
-0.2645942 0.16439497 1.0960001
-0.25488132 0.16465633 1.0940999
-0.24721824 0.16582789 1.091091
-0.2181877 0.16212781 1.09
-0.19328599 0.16425507 1.0932857
-0.18526345 0.1651511 1.0941724
-0.1753483 0.16498767 1.0946001
-0.16504644 0.16478728 1.0957274
-0.15437983 0.16480649 1.0937825
-0.1452664 0.1646945 1.0957778
-0.13693175 0.16282378 1.097
-0.27023864 0.17022149 1.097
-0.2615833 0.17286617 1.097
-0.25483969 0.17566054 1.0963078
-0.24506555 0.17586997 1.0933809
-0.23857315 0.17518723 1.09
-0.19063556 0.17295757 1.09
-0.18372029 0.17406401 1.09
-0.17464636 0.17512918 1.0953749
-0.1646224 0.17510737 1.0969033
-0.15565856 0.17406829 1.097
-0.14536515 0.17258877 1.097
-0.25416446 0.18560876 1.097
-0.24499503 0.18542789 1.0959201
-0.23535217 0.18622822 1.0916001
-0.22503594 0.18776885 1.09
-0.20640239 0.18824664 1.09
-0.18203545 0.18537994 1.09
-0.17425336 0.18483245 1.0932069
-0.16551982 0.18528821 1.097
-0.26216033 0.19637981 1.097
-0.25492203 0.19541919 1.0962174
-0.24488373 0.19494607 1.09544
-0.23528437 0.19495003 1.09544
-0.22507001 0.19505098 1.0939231
-0.21469547 0.19457443 1.0933077
-0.20500797 0.19447333 1.09275
-0.19490968 0.19533476 1.0904446
-0.18454303 0.19549568 1.0913334
-0.17428902 0.19498727 1.0941072
-0.16733639 0.19522578 1.097
-0.28338191 0.20452224 1.097
-0.27482522 0.20661828 1.097
-0.2646628 0.20461634 1.0962858
-0.25499359 0.20456865 1.0940714
-0.24485141 0.20458119 1.0937036
-0.23517917 0.2044594 1.09496
-0.22589062 0.20380133 1.0956364
-0.21638325 0.20253472 1.097
-0.20460238 0.20352043 1.097
-0.19486636 0.20447533 1.095875
-0.18536492 0.20457664 1.09556
-0.17602371 0.20321263 1.0963572
-0.16701581 0.20163713 1.097
-0.28177908 0.21349815 1.097
-0.27484104 0.21425381 1.097
-0.2648569 0.21495508 1.094625
-0.25484022 0.21456316 1.0923529
-0.24471048 0.21452507 1.0916923
-0.23519015 0.21452636 1.0918826
-0.22773361 0.21489581 1.0949374
-0.19522578 0.21168159 1.097
-0.18582246 0.21146788 1.097
-0.17791511 0.21061303 1.097
-0.27344429 0.22129864 1.097
-0.26449254 0.2235792 1.0955
-0.25529531 0.22525717 1.0944614
-0.24530554 0.22469698 1.091091
-0.23483294 0.22498061 1.0906155
-0.22476439 0.2253699 1.0956876
-0.21830666 0.22792369 1.097
-0.25149831 0.23305568 1.0958
-0.24497472 0.23451418 1.0958333
-0.23507138 0.23441143 1.094087
-0.22523063 0.23468219 1.0960001
-0.21542156 0.23273222 1.097
-0.23561731 0.24234924 1.097
-0.22888538 0.24138753 1.097
-0.21563897 -0.051481374 1.108
-0.2034305 -0.051341984 1.105
-0.19400722 -0.051156126 1.1010001
-0.18821596 -0.052121341 1.1010001
-0.24332234 -0.04225358 1.108
-0.23413618 -0.045086265 1.1058999
-0.22492832 -0.0443229 1.1043333
-0.21543968 -0.045283332 1.1028332
-0.20613706 -0.046390288 1.1012105
-0.19462496 -0.046059817 1.101
-0.18498114 -0.045185339 1.102739
-0.17856385 -0.041504029 1.1010001
-0.25221676 -0.032584697 1.1071428
-0.24524511 -0.035538774 1.1040475
-0.23695907 -0.039091006 1.1010001
-0.2219983 -0.03957361 1.1010001
-0.21678618 -0.039187528 1.1010001
-0.1833899 -0.038930137 1.101
-0.17439823 -0.035915978 1.101
-0.16722262 -0.033541046 1.101
-0.25237983 -0.027178638 1.10725
-0.24754436 -0.029007146 1.103
-0.17084217 -0.029921509 1.1010001
-0.16456831 -0.025578065 1.1010001
-0.15742333 -0.021246893 1.1016666
-0.16259401 -0.013951673 1.101
-0.15526667 -0.014315217 1.1044997
-0.14554928 -0.011743631 1.1060001
-0.16196223 -0.007142554 1.1010001
-0.15496996 -0.0048443433 1.1048664
-0.14557603 -0.0059956275 1.1074705
-0.13890257 -0.0067994264 1.108
-0.15355274 0.0046714279 1.1027914
-0.14861605 0.0048567331 1.108
-0.17169254 0.015141495 1.1023334
-0.16482219 0.015464789 1.1023332
-0.15457098 0.014630688 1.1019999
-0.14753678 0.01490429 1.1065453
-0.16326226 0.0215005 1.1075715
-0.15435499 0.023949692 1.1067997
-0.14737979 0.024107058 1.1079999
-0.15347278 0.032748252 1.1079999
-0.14788753 0.033268623 1.1079999
-0.18487966 0.057471346 1.1079999
-0.17568426 0.057179939 1.1079999
-0.16480516 0.057697993 1.1079999
-0.15768194 0.058604583 1.108
-0.29043266 0.068965614 1.108
-0.28589973 0.068965614 1.108
-0.27489111 0.068965614 1.108
-0.26517764 0.068965614 1.108
-0.25440452 0.067376137 1.1079999
-0.2457507 0.06702292 1.1079999
-0.23502393 0.067108706 1.1071427
-0.22574942 0.068599917 1.1065713
-0.21318138 0.068255804 1.107
-0.2047327 0.067919567 1.1067998
-0.19372658 0.066945553 1.10675
-0.18500695 0.064892061 1.1048799
-0.17512926 0.06482213 1.1036798
-0.16525175 0.064696021 1.105222
-0.15587771 0.065808497 1.1069089
-0.29140401 0.074793696 1.1079999
-0.28460458 0.074793689 1.1079999
-0.27489111 0.074955583 1.1079999
-0.26507744 0.074198268 1.1057271
-0.25488821 0.074307539 1.1044581
-0.2454199 0.074434578 1.1039581
-0.23557594 0.071695372 1.1021999
-0.22442953 0.074223652 1.1023332
-0.21534218 0.074279591 1.1026536
-0.20577838 0.074180596 1.1015453
-0.19542296 0.072337434 1.1019411
-0.18459642 0.071184233 1.101
-0.17427403 0.071318291 1.101
-0.16444765 0.072752699 1.101
-0.15448469 0.074292891 1.102586
-0.14725097 0.076415636 1.1068749
-0.29075643 0.083859593 1.1079999
-0.28494242 0.084253751 1.1079999
-0.27480412 0.08478602 1.1062498
-0.2652033 0.085380666 1.1022272
-0.25385022 0.080112427 1.1010001
-0.24709377 0.080112427 1.1010001
-0.2219983 0.080112427 1.1010001
-0.21620704 0.080112427 1.1010001
-0.15153797 0.082042851 1.1010001
-0.14617665 0.083814077 1.1034117
-0.29159826 0.094609171 1.1079999
-0.28513438 0.09430892 1.1079999
-0.27567253 0.094894998 1.1045382
-0.26569015 0.095684484 1.101
-0.14233691 0.0910151 1.1045001
-0.1378738 0.096688002 1.1028999
-0.29082119 0.10237994 1.108
-0.28432706 0.10462791 1.1079999
-0.27465993 0.1059109 1.1056955
-0.26591578 0.10606351 1.1012856
-0.13429306 0.10536258 1.1035453
-0.1291891 0.10976217 1.108
-0.29043266 0.11850429 1.108
-0.28416303 0.11603177 1.1079999
-0.27462608 0.11547801 1.1069198
-0.26476982 0.11544823 1.1040906
-0.25569031 0.11481114 1.1013635
-0.24998939 0.11679041 1.1010001
-0.13252074 0.11448243 1.1023333
-0.1280866 0.11620009 1.1068751
-0.31335646 0.12841204 1.108
-0.30522698 0.12784415 1.1079999
-0.29237536 0.12752394 1.1079999
-0.28494245 0.12505032 1.1079999
-0.27490929 0.12532876 1.1063331
-0.26468277 0.1245528 1.1037271
-0.25605822 0.12402209 1.1017058
-0.24870245 0.12290341 1.101
-0.13126856 0.12330557 1.101
-0.12609397 0.12517983 1.105105
-0.31387451 0.13475817 1.1079999
-0.30551198 0.13478763 1.1078887
-0.29471165 0.13547195 1.1052067
-0.28563598 0.13492382 1.1038259
-0.27588448 0.1325624 1.1027499
-0.26571995 0.13179664 1.1021999
-0.25698715 0.13199246 1.101
-0.13030335 0.13030335 1.1010001
-0.12522008 0.13468593 1.1027893
-0.314004 0.14473064 1.1079999
-0.30554658 0.14452626 1.1064397
-0.29498687 0.14520431 1.1013477
-0.28859779 0.1452641 1.1010001
-0.12374481 0.1450296 1.1034615
-0.31277362 0.15250142 1.1079999
-0.30503049 0.15417306 1.1066247
-0.29441985 0.15528636 1.1021428
-0.28782564 0.15771532 1.1010001
-0.13030335 0.15925965 1.1010001
-0.12554875 0.15503064 1.1044998
-0.30230466 0.16178319 1.1079999
-0.29460981 0.16554911 1.1068999
-0.28504226 0.16516112 1.1027914
-0.2770153 0.16719581 1.101
-0.26929358 0.16891176 1.1010001
-0.13350199 0.16647024 1.1021175
-0.12768728 0.16411142 1.1062222
-0.29198682 0.17270544 1.108
-0.28477997 0.17587979 1.1072379
-0.27498329 0.17533672 1.1039997
-0.26626006 0.17497876 1.101
-0.15385446 0.17779168 1.1010001
-0.14438517 0.17774804 1.1029166
-0.1372657 0.17308192 1.104
-0.2835685 0.18630432 1.1079999
-0.27453685 0.18528713 1.1065598
-0.26509503 0.18479154 1.1035998
-0.2569389 0.18589944 1.101
-0.16234832 0.18589945 1.1010001
-0.15481046 0.18502215 1.1031922
-0.14626482 0.18254516 1.1063999
-0.30160314 0.19864039 1.108
-0.2936177 0.1959818 1.1077999
-0.28491867 0.19590372 1.1061033
-0.27482989 0.19530648 1.1051478
-0.26634181 0.19439769 1.1019411
-0.25320676 0.19143331 1.1010001
-0.16300692 0.19525632 1.101
-0.15709914 0.19449028 1.1048498
-0.30292135 0.20370528 1.1079999
-0.29474571 0.20447621 1.1071666
-0.28606731 0.2054667 1.1021764
-0.2757706 0.20374471 1.1014705
-0.26929358 0.2017289 1.1010001
-0.2227222 0.20776147 1.101
-0.21475923 0.20616886 1.101
-0.20601875 0.20794913 1.101
-0.19979846 0.20945057 1.1010001
-0.17470302 0.2069169 1.101
-0.16469991 0.20602846 1.101
-0.15831643 0.2043073 1.1054546
-0.2934967 0.21333024 1.1070999
-0.28566453 0.21531184 1.1019411
-0.27701527 0.21910267 1.1010001
-0.22320481 0.21512116 1.101
-0.21524182 0.21524177 1.101
-0.20558976 0.21524182 1.101
-0.19505958 0.21690933 1.1012105
-0.18463804 0.21637711 1.1018571
-0.17475952 0.21559787 1.1019089
-0.16582213 0.21457329 1.104722
-0.15933533 0.21104757 1.1060001
-0.29043266 0.22340973 1.108
-0.28527084 0.22324163 1.1055555
-0.27453813 0.22575648 1.1031113
-0.26671675 0.22802186 1.1036667
-0.2219983 0.22103308 1.1010001
-0.2149061 0.22464211 1.101
-0.20504703 0.22518905 1.1014284
-0.19571958 0.22417083 1.1035998
-0.18531136 0.22200666 1.1079999
-0.17557092 0.22268119 1.1079999
-0.16920859 0.22204983 1.108
-0.27359596 0.23085672 1.108
-0.26394057 0.23287559 1.1073333
-0.25693488 0.23714094 1.1068
-0.24612856 0.23840687 1.1010001
-0.23840687 0.23840687 1.1010001
-0.22489393 0.23744166 1.1010001
-0.21451792 0.23526995 1.101
-0.20534335 0.23477483 1.1030356
-0.19750714 0.23247562 1.1079999
-0.26517764 0.24186532 1.108
-0.25352147 0.24283667 1.108
-0.24557346 0.24505082 1.104818
-0.23577936 0.24565196 1.1040499
-0.22495025 0.24528088 1.1040415
-0.21502657 0.24511626 1.105724
-0.20527318 0.243358 1.1073076
-0.19912606 0.24186532 1.108
-0.24186532 0.25157878 1.108
-0.23485374 0.25135174 1.107
-0.22535242 0.25157878 1.108
-0.21661031 0.2528739 1.108
-0.25015244 -0.050030489 1.1190001
-0.24390547 -0.05216999 1.1158333
-0.23463678 -0.053350363 1.1126924
-0.22567819 -0.05373371 1.1144
-0.21846752 -0.054250326 1.115
-0.25312525 -0.043495636 1.1173999
-0.24464968 -0.046510268 1.1130002
-0.23835164 -0.048255239 1.1120001
-0.22681588 -0.049067616 1.1120001
-0.26259378 -0.032550741 1.1166251
-0.25563946 -0.035591088 1.1132668
-0.26332077 -0.024563497 1.1149334
-0.25755626 -0.026710982 1.1120001
-0.14305241 -0.0024945061 1.1134446
-0.13880263 -0.0048874165 1.115
-0.14426403 0.0049751252 1.1137143
-0.13978012 0.0087973503 1.115
-0.17322378 0.0179404 1.1163334
-0.14345884 0.014364769 1.1122003
-0.13837072 0.015140911 1.1170001
-0.17247015 0.024500554 1.1178
-0.16553558 0.02578132 1.1134118
-0.1589011 0.028270746 1.1120001
-0.14316417 0.024510602 1.1120002
-0.13880512 0.02412818 1.1171819
-0.18344514 0.038258608 1.1190001
-0.17430376 0.035319503 1.1173528
-0.1647834 0.03460427 1.1136665
-0.1558547 0.037044425 1.1120002
-0.14389826 0.034999762 1.1145908
-0.13978012 0.030301983 1.115
-0.19254105 0.046825763 1.1167501
-0.18457158 0.045117743 1.1147586
-0.17481259 0.044920404 1.1139998
-0.16503978 0.045211423 1.1125356
-0.15500169 0.045818109 1.112
-0.14705426 0.044779889 1.1158334
-0.31384796 0.059244692 1.117
-0.30552292 0.055411216 1.1176666
-0.29543892 0.056120344 1.1163912
-0.28602147 0.056587957 1.1171738
-0.27520353 0.057812586 1.1177692
-0.26696944 0.058999538 1.1190001
-0.25499502 0.058152515 1.1180001
-0.2454273 0.057396658 1.1164117
-0.23507547 0.057836868 1.1157334
-0.22496678 0.057915233 1.1168462
-0.21476372 0.057436109 1.1164737
-0.20403762 0.056422971 1.1161427
-0.19453996 0.055260494 1.1137599
-0.18408479 0.053291976 1.1120002
-0.17371887 0.052837044 1.1120002
-0.16491269 0.053129509 1.1120002
-0.15455857 0.055123523 1.112
-0.14622414 0.055946611 1.1162173
-0.31435809 0.065782562 1.1175716
-0.30585453 0.06546919 1.1146399
-0.29560965 0.065167166 1.11225
-0.28530756 0.064658619 1.1123912
-0.27496171 0.064714037 1.112875
-0.2645537 0.064426973 1.1135499
-0.25520191 0.063068129 1.1125001
-0.2443337 0.06265647 1.1120002
-0.23529415 0.062656477 1.1120002
-0.22540458 0.064398825 1.11305
-0.21571362 0.064195052 1.1129
-0.20495901 0.063438609 1.1133126
-0.19665451 0.063719958 1.1120002
-0.15207711 0.063365467 1.1120001
-0.14571714 0.065525226 1.1156
-0.32078373 0.077498212 1.1190001
-0.31471148 0.076212078 1.1174001
-0.30542812 0.075135559 1.1130799
-0.29733026 0.075063713 1.1120002
-0.2758835 0.071164295 1.1120001
-0.14414072 0.074734516 1.1151667
-0.13831958 0.079460189 1.1190001
-0.3729724 0.083776549 1.1190001
-0.36983323 0.085346133 1.1190001
-0.32078373 0.086000122 1.1190001
-0.31543025 0.085223749 1.1173999
-0.30559319 0.084940806 1.1136799
-0.29650936 0.085017465 1.1120001
-0.14174107 0.084444314 1.115077
-0.13904986 0.085186578 1.1170001
-0.32078373 0.094502039 1.1190001
-0.3150757 0.095316619 1.1177272
-0.30525753 0.094450876 1.1136955
-0.29720026 0.094300821 1.1120002
-0.14135373 0.090661362 1.1120001
-0.13624321 0.095300242 1.1157858
-0.31445187 0.10469839 1.119
-0.30443338 0.10487864 1.1153476
-0.29572466 0.10442401 1.1120002
-0.28953144 0.10820872 1.1120001
-0.13142619 0.10135337 1.1138
-0.12782811 0.10579892 1.1146364
-0.3235305 0.1183074 1.1190001
-0.31359544 0.11502387 1.1180589
-0.3049033 0.11535116 1.1140739
-0.29552501 0.11492439 1.112
-0.28904402 0.11210813 1.1120001
-0.12554689 0.11492278 1.1145
-0.33231035 0.12532148 1.1190001
-0.32460937 0.12503788 1.1146665
-0.31563395 0.12390623 1.1137271
-0.30485058 0.12380637 1.1120002
-0.29613879 0.12488955 1.1120001
-0.12163184 0.12482879 1.1148181
-0.11721844 0.12698802 1.1142501
-0.33211961 0.13352364 1.1190001
-0.32434368 0.13541758 1.1135714
-0.31838709 0.1362845 1.1120001
-0.12096965 0.13517083 1.1136365
-0.11576521 0.1347757 1.1159523
-0.33334041 0.14381313 1.1190001
-0.32429773 0.14540569 1.1147369
-0.31799716 0.14525315 1.1120001
-0.12092246 0.14583974 1.114625
-0.11563531 0.14374535 1.1184669
-0.32473838 0.15396613 1.1175387
-0.31618834 0.15620524 1.1127501
-0.12125106 0.15547702 1.1153998
-0.11730886 0.15397254 1.1186925
-0.32078373 0.16186334 1.1190001
-0.31461617 0.16505982 1.1171765
-0.30613059 0.16603996 1.1128002
-0.29927996 0.16864963 1.1120001
-0.12391097 0.16521949 1.1151876
-0.11869979 0.16284433 1.1190001
-0.31306657 0.17572801 1.1190002
-0.3052105 0.17510761 1.1158501
-0.29635543 0.17583917 1.1120002
-0.28953144 0.17839816 1.1120001
-0.13351335 0.17674571 1.1129231
-0.12701838 0.1746494 1.1162667
-0.32325694 0.18745701 1.1178571
-0.31547719 0.18517241 1.1159999
-0.30592948 0.18473044 1.1149199
-0.29538056 0.18424724 1.112
-0.28719181 0.18502717 1.1120002
-0.14418966 0.18655148 1.1120002
-0.13506931 0.18462978 1.1151034
-0.1275287 0.18246412 1.1190001
-0.32484776 0.19490607 1.1172222
-0.31510454 0.19510895 1.1128
-0.30563027 0.19437467 1.1124614
-0.29673034 0.19234607 1.1120002
-0.28173262 0.19204611 1.1120001
-0.15259434 0.19604211 1.1125455
-0.14526865 0.1943406 1.1160369
-0.13733859 0.19129305 1.1190001
-0.32401532 0.20334041 1.1181111
-0.31498903 0.20508367 1.1127142
-0.30654705 0.20728928 1.1120002
-0.29927996 0.20861861 1.1120001
-0.15393172 0.20512532 1.1148751
-0.14860465 0.2015173 1.1176667
-0.32078373 0.21091285 1.1190001
-0.31422868 0.21234687 1.1175001
-0.30427834 0.21376604 1.1142501
-0.2967231 0.2164465 1.1128572
-0.16241057 0.21856213 1.1120001
-0.15686001 0.2149124 1.1159999
-0.29552892 0.22427773 1.1150001
-0.28469166 0.22833717 1.1146667
-0.27978289 0.22909053 1.1120001
-0.19165616 0.22831066 1.1120001
-0.18452577 0.2272801 1.1120002
-0.17483409 0.22748829 1.112231
-0.16494328 0.22549526 1.1139524
-0.15926798 0.22346671 1.118
-0.28263819 0.2343858 1.1175001
-0.27461493 0.23609582 1.1143808
-0.26607206 0.23778093 1.1127501
-0.20179464 0.23883906 1.1120001
-0.19400044 0.23564443 1.1125218
-0.18464281 0.23544674 1.1143999
-0.17525268 0.23497801 1.1168001
-0.16732985 0.2335248 1.1176667
-0.28154412 0.24328552 1.1190001
-0.27385831 0.24428707 1.1154118
-0.26439327 0.24471796 1.1125218
-0.25622153 0.2468203 1.1128182
-0.20447551 0.24712533 1.1120001
-0.19515553 0.24485493 1.1130712
-0.18640313 0.24409819 1.1168462
-0.17854017 0.24034254 1.1190001
-0.26292241 0.25117332 1.117
-0.25513676 0.25259107 1.1159002
-0.24403825 0.25427946 1.112375
-0.2349806 0.25676805 1.1148573
-0.2247621 0.25649837 1.1150771
-0.21473151 0.25612983 1.1131052
-0.2048825 0.25480077 1.1138887
-0.1956525 0.2534498 1.1162353
-0.18867707 0.25080642 1.1190001
-0.21283917 0.2631382 1.1176667
-0.20659649 0.2623167 1.1190001
-0.25400013 -0.050209329 1.123
-0.2621305 -0.043415602 1.1255001
-0.25688043 -0.045809343 1.1237501
-0.27211788 -0.031259011 1.126
-0.26629663 -0.035282854 1.1242001
-0.28198919 -0.021387743 1.126
-0.27415046 -0.023613637 1.1251177
-0.2687676 -0.025104664 1.123
-0.2829105 -0.017965704 1.126
-0.27594587 -0.018418035 1.1255001
-0.2687676 -0.018705437 1.123
-0.14078303 -0.00098449667 1.123
-0.14078303 0.00295349 1.123
-0.13899945 0.0078851786 1.1245
-0.17785491 0.018080665 1.125
-0.13580881 0.014781127 1.1242001
-0.18196036 0.025994338 1.126
-0.17739983 0.024637666 1.1242001
-0.13462391 0.025164485 1.1242002
-0.29317662 0.03849794 1.126
-0.19267301 0.037251212 1.125625
-0.18432032 0.03383933 1.1243333
-0.1774063 0.03209459 1.123
-0.14078303 0.038395371 1.123
-0.13529336 0.034359157 1.1251248
-0.12931359 0.034549434 1.126
-0.32180327 0.048369206 1.126
-0.31388372 0.045667835 1.1252942
-0.30473 0.044375148 1.1249198
-0.29474241 0.044355992 1.1244398
-0.28503528 0.044380523 1.1250398
-0.27565673 0.045722552 1.1256667
-0.26534912 0.04636059 1.1252002
-0.25536966 0.044709165 1.1246955
-0.24702846 0.047382075 1.126
-0.23394902 0.048369206 1.126
-0.22012925 0.048369206 1.126
-0.21307833 0.047523092 1.126
-0.20338883 0.046383236 1.1257274
-0.19592564 0.043355111 1.1240002
-0.14241691 0.044845223 1.1242501
-0.13770416 0.042446442 1.126
-0.33134553 0.05758239 1.126
-0.32474238 0.054985788 1.1250626
-0.31615135 0.053974424 1.1231362
-0.30420947 0.050209329 1.123
-0.29492706 0.0507719 1.123
-0.28320685 0.052178327 1.123
-0.27467456 0.052670565 1.123
-0.26499367 0.053983226 1.1229998
-0.25556374 0.052757438 1.123
-0.24504437 0.052076377 1.1238573
-0.23500495 0.052498929 1.1249413
-0.22471496 0.052756704 1.1248751
-0.21476731 0.051740311 1.125182
-0.20656753 0.051456716 1.1233751
-0.19985282 0.050209329 1.123
-0.14238751 0.053051662 1.1248
-0.33303186 0.064533405 1.1260002
-0.32506222 0.064599454 1.124227
-0.31968015 0.064836137 1.123
-0.14090839 0.065031134 1.124
-0.13918486 0.065150358 1.126
-0.37476912 0.07850083 1.1240001
-0.33322579 0.075162642 1.126
-0.32550323 0.075214416 1.1239998
-0.31917384 0.07344345 1.123
-0.14078303 0.074821748 1.123
-0.13911068 0.073992945 1.1253999
-0.37213975 0.081713222 1.123
-0.33230275 0.084803157 1.1260002
-0.32545662 0.085549474 1.1231765
-0.13881403 0.086635709 1.123
-0.33068743 0.095257722 1.126
-0.32566234 0.095687948 1.1238824
-0.13302365 0.096895635 1.1240001
-0.12896906 0.09943416 1.123
-0.33194378 0.1059815 1.1260002
-0.32510287 0.10541151 1.12375
-0.31930509 0.10731014 1.123
-0.12503107 0.10927913 1.123
-0.35042995 0.11944233 1.126
-0.34380141 0.1175897 1.1254548
-0.33514795 0.11586428 1.124579
-0.32616374 0.11430006 1.1229999
-0.31911758 0.11377968 1.123
-0.12322646 0.11632446 1.1245
-0.35174611 0.12503605 1.126
-0.3452507 0.12520964 1.1238748
-0.33726043 0.12446851 1.123
-0.3512761 0.13495432 1.126
-0.34515816 0.13482654 1.1241428
-0.33741984 0.13566364 1.123
-0.34316742 0.14399655 1.1257274
-0.33547139 0.14453547 1.123353
-0.11331618 0.14714791 1.1240001
-0.34055871 0.1520175 1.126
-0.33448678 0.1546175 1.1241051
-0.32783738 0.15751946 1.123
-0.11382212 0.15501414 1.1246667
-0.33250982 0.16409081 1.1260002
-0.32559803 0.16514568 1.1240588
-0.31897694 0.16834892 1.123
-0.12207758 0.16834892 1.123
-0.11703948 0.1641192 1.1240001
-0.33252069 0.17500345 1.1260002
-0.32510287 0.1743723 1.12375
-0.31870842 0.17461389 1.123
-0.12295133 0.17325008 1.125
-0.11944233 0.17077291 1.126
-0.34319106 0.18788309 1.126
-0.33469319 0.18477406 1.1258421
-0.32608718 0.18344456 1.1229999
-0.31996143 0.18016289 1.123
-0.1267665 0.18501498 1.1234286
-0.34203941 0.1937236 1.126
-0.33491328 0.19489539 1.1240433
-0.32980639 0.19394584 1.123
-0.14195557 0.19913265 1.1245
-0.13539781 0.19400333 1.1243637
-0.12931359 0.19051544 1.126
-0.34055871 0.20137385 1.126
-0.3348335 0.20408355 1.1246154
-0.32783741 0.20674428 1.123
-0.15122083 0.20835978 1.1237501
-0.14483827 0.20462528 1.1248751
-0.13918486 0.20137385 1.126
-0.33200362 0.21157415 1.126
-0.32508227 0.21503054 1.1251429
-0.31560197 0.21729404 1.1232501
-0.30617845 0.21875516 1.123
-0.15256526 0.21563616 1.124091
-0.14831577 0.21346614 1.126
-0.32147422 0.22276157 1.126
-0.31518954 0.22467005 1.126
-0.30457351 0.22466917 1.1252501
-0.16047296 0.22938772 1.123
-0.15516545 0.2239393 1.1246876
-0.32081616 0.23000051 1.126
-0.3165386 0.23164572 1.126
-0.30502212 0.23098764 1.126
-0.29180157 0.23166573 1.1245
-0.28682983 0.23710667 1.1243334
-0.17031792 0.23923269 1.123
-0.16352004 0.23622562 1.1245
-0.15719992 0.23172797 1.126
-0.28542921 0.24207455 1.1240001
-0.27861255 0.24710867 1.123
-0.18244262 0.24711065 1.1238183
-0.17478195 0.24486315 1.1250526
-0.16731796 0.2423396 1.126
-0.25498465 0.25498465 1.123
-0.19204026 0.25753236 1.1233751
-0.18600535 0.25543982 1.1250001
-0.24184602 0.26158857 1.126
-0.23353349 0.26178202 1.1240001
-0.22671914 0.26342344 1.1254001
-0.21490037 0.26518595 1.1245
-0.20390782 0.26557493 1.1246364
-0.19435349 0.26393539 1.1253685
-0.18741305 0.26356283 1.126
-0.27137101 -0.042185783 1.1366667
-0.2671406 -0.044168215 1.1339999
-0.27450714 -0.034297734 1.1322222
-0.26846164 -0.038634699 1.13
-0.28034922 -0.024765832 1.13
-0.27757546 -0.027143354 1.13
-0.29170591 -0.011763114 1.1372001
-0.28531936 -0.013748179 1.1339999
-0.27638379 -0.016197877 1.1313334
-0.14017373 -0.0029824199 1.1340001
-0.13818195 -0.0014929633 1.1340001
-0.13725445 0.0052602505 1.1345714
-0.3102681 0.0149647 1.138
-0.28599203 0.01829019 1.138
-0.19055051 0.018955287 1.138
-0.18421201 0.017346507 1.1344446
-0.17962199 0.01389166 1.132
-0.13289641 0.014760812 1.1337143
-0.12736133 0.016017973 1.1358181
-0.30361715 0.028599204 1.138
-0.29341897 0.025827968 1.1380002
-0.28487346 0.025122561 1.1380004
-0.27501789 0.026049668 1.1380002
-0.26703677 0.028266655 1.138
-0.24192932 0.028432932 1.138
-0.23729737 0.026366377 1.138
-0.19409226 0.026230745 1.1363333
-0.18683484 0.024268823 1.1316
-0.13175423 0.023775199 1.13
-0.1256256 0.025139751 1.1337037
-0.11647525 0.027684696 1.138
-0.32281145 0.038082749 1.1372001
-0.31404915 0.035243224 1.1358001
-0.30430564 0.034834646 1.1328335
-0.29445335 0.034576464 1.1324998
-0.28466445 0.034707773 1.1338463
-0.27482584 0.034846421 1.1358464
-0.26510093 0.035044607 1.1368337
-0.25440156 0.035512429 1.1359049
-0.24427097 0.035675228 1.1373047
-0.23660855 0.035582729 1.1380001
-0.22313197 0.035762988 1.1377145
-0.21468087 0.034879897 1.1368804
-0.20489947 0.035133038 1.135905
-0.19582966 0.03366084 1.1316
-0.18921097 0.031700268 1.13
-0.13175423 0.038634699 1.13
-0.12457269 0.034759317 1.1328149
-0.11499827 0.034437541 1.1370912
-0.10788836 0.034347545 1.138
-0.34817868 0.047887042 1.138
-0.33321398 0.046889395 1.1380001
-0.32524815 0.044469792 1.1345714
-0.31742722 0.042031158 1.13
-0.28034922 0.040615965 1.13
-0.27390268 0.041394886 1.131
-0.26504418 0.041512504 1.1304445
-0.25129065 0.041276384 1.13
-0.24471942 0.043761622 1.1320002
-0.23543569 0.044426028 1.1343203
-0.22529088 0.044656869 1.1320869
-0.21549346 0.043383703 1.1304445
-0.20612796 0.042597234 1.13
-0.1991173 0.040615965 1.13
-0.1344417 0.045625236 1.1313332
-0.12688145 0.042913087 1.1345714
-0.1177223 0.040903512 1.138
-0.3527832 0.055791471 1.1380002
-0.34441707 0.055397801 1.1368237
-0.33547533 0.054128032 1.133
-0.32818982 0.051557645 1.131
-0.23279883 0.050522301 1.13
-0.22289249 0.050522301 1.13
-0.13711019 0.054103713 1.1329472
-0.3525345 0.064828426 1.1376923
-0.34505346 0.064702287 1.1335557
-0.33854896 0.064143509 1.13
-0.13702652 0.064211749 1.1326667
-0.37445414 0.078675576 1.136
-0.35375103 0.074735366 1.1366668
-0.34559745 0.074481949 1.1327999
-0.33922118 0.073448382 1.13
-0.13768502 0.073747955 1.1345714
-0.37578142 0.080525339 1.1340001
-0.35266814 0.083636045 1.1380001
-0.34532642 0.084404603 1.1360002
-0.33792555 0.084433168 1.1303999
-0.14066818 0.086795263 1.138
-0.13892449 0.084145091 1.136
-0.35416457 0.090785846 1.138
-0.34435439 0.095108986 1.1380001
-0.33593938 0.094299518 1.1322857
-0.13619718 0.093248926 1.1340001
-0.35216928 0.10599996 1.138
-0.34460288 0.10516006 1.1364446
-0.33711371 0.10509744 1.131
-0.12801437 0.10519825 1.132
-0.36094856 0.11712372 1.138
-0.35447389 0.11463855 1.1342001
-0.34624931 0.11307515 1.1321334
-0.33978724 0.11293221 1.13
-0.1242675 0.1143261 1.1340001
-0.38143358 0.12803133 1.138
-0.37354746 0.12727121 1.138
-0.36435306 0.12516251 1.1368237
-0.35693324 0.12474887 1.1318182
-0.38209867 0.13069171 1.138
-0.37069699 0.13382718 1.138
-0.36456409 0.13446929 1.1362002
-0.35686755 0.13525581 1.1321818
-0.3701269 0.14066818 1.138
-0.36385599 0.14252095 1.1380002
-0.354287 0.14423797 1.1346666
-0.34680057 0.1467879 1.1313334
-0.11194157 0.14958563 1.13
-0.10888176 0.14739595 1.1305715
-0.34503222 0.15509912 1.1351429
-0.33978724 0.15850133 1.13
-0.11125927 0.15633145 1.1317145
-0.10694403 0.15487503 1.1352309
-0.35057303 0.16620794 1.138
-0.34521225 0.16502678 1.1365265
-0.33746013 0.16625369 1.1305001
-0.11367953 0.16536401 1.1336923
-0.10874349 0.16062111 1.138
-0.35233554 0.17442191 1.1380001
-0.34546587 0.17521919 1.1353335
-0.33840036 0.1753421 1.13
-0.12209237 0.17768204 1.1322857
-0.11750782 0.17411242 1.1348889
-0.35251358 0.18481073 1.1361818
-0.34535158 0.18469065 1.132
-0.33912683 0.18260674 1.13
-0.12410469 0.18466534 1.1351429
-0.35177022 0.1945411 1.138
-0.34514102 0.19474669 1.1305001
-0.13408616 0.19790706 1.133
-0.12812921 0.19269398 1.133
-0.35017398 0.20052698 1.138
-0.34417406 0.20498745 1.1340001
-0.33879662 0.208033 1.13
-0.14232099 0.20836322 1.13
-0.13758478 0.20459402 1.1340001
-0.34230605 0.21524246 1.1374285
-0.3353636 0.21591921 1.1306667
-0.32889026 0.21892996 1.13
-0.14450589 0.214945 1.1326667
-0.3401975 0.22047991 1.138
-0.33363268 0.2244796 1.1340001
-0.32670343 0.22519837 1.131
-0.31155419 0.22635972 1.13
-0.3061057 0.2288363 1.13
-0.15171818 0.22765155 1.1311429
-0.14737234 0.22338374 1.1333333
-0.3324922 0.23084913 1.1366667
-0.32668984 0.23136227 1.1326667
-0.31345636 0.23296507 1.1308
-0.3060087 0.23282631 1.1333333
-0.2948699 0.2357966 1.1325001
-0.15436679 0.23563555 1.1320001
-0.14864935 0.23045638 1.138
-0.29430577 0.24043284 1.138
-0.17137957 0.24864897 1.13
-0.16429178 0.24548161 1.1325883
-0.15659797 0.24336542 1.1357143
-0.182135 0.25600797 1.13
-0.1759581 0.25483355 1.1339998
-0.16660699 0.25140697 1.138
-0.26038578 0.26038578 1.138
-0.25839049 0.26038578 1.138
-0.23291555 0.26605004 1.1305715
-0.22527 0.26744908 1.132
-0.21892996 0.26648036 1.13
-0.20109856 0.26846164 1.13
-0.19812667 0.26846164 1.13
-0.18362373 0.26557282 1.133
-0.17845181 0.26299474 1.1372001
-0.22646579 0.27036226 1.138
-0.21162295 0.27337533 1.136
-0.20499098 0.27465752 1.1351112
-0.19628505 0.27352923 1.1334667
-0.18741505 0.2723901 1.1345714
-0.20252228 0.2803387 1.138
-0.28173232 -0.011697948 1.1436667
-0.27656204 -0.013022883 1.143
-0.30117971 -0.00100729 1.149
-0.29387805 -0.0045554787 1.1448184
-0.28674436 -0.0066913045 1.1456667
-0.26424575 -0.00100729 1.149
-0.25887352 -0.00100729 1.149
-0.20296894 -0.001510935 1.149
-0.19776459 -0.0016788166 1.149
-0.13263668 -0.0022006086 1.141
-0.12848426 -0.0010037833 1.1450001
-0.30251271 0.0057396619 1.1464287
-0.29508319 0.0055085979 1.1480478
-0.28451172 0.0081527065 1.1467779
-0.2739878 0.0068936353 1.1486924
-0.26494595 0.0047645313 1.1476089
-0.25591087 0.0056937835 1.1469049
-0.24516343 0.0081441542 1.1482729
-0.23772043 0.0090656104 1.149
-0.22376229 0.0084900158 1.149
-0.21392383 0.0070487768 1.1487143
-0.20473738 0.0049465727 1.1484784
-0.19501597 0.004855419 1.1466669
-0.18794531 0.0061184154 1.1464547
-0.1324652 0.0027150363 1.1409999
-0.12563431 0.0053605884 1.1441307
-0.11649506 0.0075953603 1.1482729
-0.10819162 0.0085540749 1.1480001
-0.31208631 0.019005256 1.141
-0.30475459 0.01530405 1.143182
-0.2951301 0.015179192 1.1418335
-0.28452146 0.013341306 1.1414446
-0.27486473 0.014945684 1.1426926
-0.26488638 0.015271797 1.141696
-0.25512263 0.014972775 1.1441432
-0.24545629 0.014918819 1.1475002
-0.23513429 0.015299994 1.1462309
-0.22519818 0.015253457 1.1455717
-0.21575367 0.0150517 1.1446804
-0.20583139 0.015058994 1.1453203
-0.19576435 0.014876741 1.1441671
-0.18680787 0.013010609 1.1417272
-0.12267635 0.014207785 1.1414
-0.11536775 0.01504609 1.1443603
-0.10550006 0.01506811 1.1461202
-0.098571517 0.01746583 1.1450001
-0.3223328 0.029211409 1.149
-0.31486255 0.025066528 1.1438
-0.30551901 0.023864573 1.1418422
-0.29708219 0.022006087 1.1409999
-0.27357569 0.021505948 1.141
-0.26444158 0.024059286 1.141
-0.25546065 0.025043521 1.1427603
-0.24599747 0.024383316 1.1430954
-0.23369439 0.024011899 1.1412857
-0.22515753 0.025016032 1.1414803
-0.21508905 0.025009861 1.1411602
-0.20528564 0.0250316 1.1422802
-0.19736308 0.022818366 1.1427779
-0.12103347 0.023006363 1.141
-0.11395459 0.023160249 1.1409999
-0.10513019 0.025029216 1.1421202
-0.096874587 0.025444115 1.1447649
-0.34147131 0.039284311 1.149
-0.3343499 0.03739262 1.147182
-0.32490018 0.034233458 1.1438572
-0.318088 0.032008853 1.141
-0.25707111 0.031008577 1.141
-0.24706833 0.032008853 1.141
-0.23206416 0.034009404 1.1409999
-0.22726285 0.033409238 1.1409999
-0.20505671 0.031008577 1.141
-0.11103071 0.039010789 1.141
-0.10331428 0.035581272 1.1409999
-0.095935613 0.035416692 1.1453639
-0.089336716 0.039147548 1.1450001
-0.34325266 0.046337619 1.1442
-0.33613268 0.043506742 1.1419231
-0.32909101 0.041011345 1.141
-0.12355333 0.046892341 1.1424545
-0.115015 0.04566326 1.1435459
-0.10529219 0.045128588 1.1438804
-0.095384933 0.045183714 1.1453203
-0.35709873 0.059016328 1.141
-0.34442863 0.051680963 1.141
-0.13170308 0.056682345 1.1409999
-0.12543254 0.055196576 1.1446803
-0.11559724 0.055289172 1.1466002
-0.10545728 0.055240627 1.1456403
-0.095505133 0.05529603 1.1467602
-0.37320092 0.068999365 1.149
-0.36440361 0.065716594 1.1454446
-0.35759893 0.064517841 1.1409999
-0.13202745 0.065070972 1.1418889
-0.1262919 0.064556159 1.1470002
-0.11526276 0.06489826 1.149
-0.1056796 0.065420814 1.1480402
-0.096166559 0.064051799 1.149
-0.088842981 0.064668022 1.149
-0.37418658 0.076648191 1.1474001
-0.3649829 0.075018436 1.1451821
-0.3590993 0.077021308 1.141
-0.13313863 0.075341456 1.1433333
-0.12994041 0.073532164 1.149
-0.10704746 0.073532164 1.149
-0.087634228 0.071517587 1.149
-0.37379462 0.085581951 1.1485001
-0.3647815 0.085596703 1.1451741
-0.35648787 0.086425789 1.141889
-0.13504547 0.086289577 1.1457273
-0.37370458 0.092670679 1.149
-0.36526716 0.095470876 1.1483334
-0.35492742 0.095692925 1.1436669
-0.34509546 0.095026284 1.141
-0.13306184 0.093159236 1.146143
-0.12963884 0.097478032 1.1463333
-0.37571916 0.10677274 1.149
-0.36502177 0.10559938 1.1482382
-0.35584724 0.10392397 1.1428182
-0.34509546 0.10102794 1.141
-0.12647671 0.10539725 1.1450001
-0.37315318 0.11812031 1.1483334
-0.36596173 0.11503168 1.1456156
-0.37477881 0.12462313 1.1454445
-0.36843523 0.12170032 1.141
-0.3830376 0.13572192 1.1467779
-0.3763752 0.13517801 1.1434616
-0.38363361 0.14375468 1.149
-0.37599474 0.14496669 1.1474446
-0.36458781 0.14797668 1.1456667
-0.35835063 0.14956371 1.1450001
-0.38216582 0.15290663 1.149
-0.37647462 0.15260442 1.149
-0.36564624 0.15149641 1.149
-0.35490817 0.15518898 1.1475265
-0.10102794 0.15804371 1.141
-0.099374548 0.15859777 1.1450001
-0.35598668 0.16428167 1.1468669
-0.1049493 0.16566406 1.1432859
-0.098992318 0.16442993 1.1483334
-0.36289355 0.17660809 1.147154
-0.35824367 0.17431279 1.1455715
-0.11234782 0.17603484 1.1422001
-0.10678113 0.1741889 1.1475716
-0.37388772 0.18488351 1.149
-0.36473104 0.18540236 1.1467146
-0.35847545 0.18525837 1.1443334
-0.12174577 0.1878815 1.143
-0.11590881 0.18460868 1.1460001
-0.10979461 0.18231948 1.149
-0.37471187 0.19239238 1.149
-0.36431524 0.19258451 1.1484287
-0.35851371 0.19351219 1.1476668
-0.12519568 0.1958794 1.1445556
-0.11886021 0.1903778 1.149
-0.13251714 0.20616986 1.143
-0.12814762 0.20353307 1.1465001
-0.14103901 0.21906058 1.141
-0.13664435 0.21369123 1.1453637
-0.12994041 0.21052361 1.149
-0.14286949 0.22585009 1.145
-0.30514836 0.23689462 1.1450001
-0.14771658 0.23594664 1.1436666
-0.153963 0.2471886 1.1434001
-0.17104732 0.25907165 1.141
-0.1647277 0.25662154 1.1434445
-0.15738182 0.25322455 1.1455716
-0.17368737 0.26584652 1.1425999
-0.16760162 0.26385629 1.1463335
-0.22567382 0.2739929 1.1482002
-0.21380585 0.27704769 1.145
-0.19205311 0.27807692 1.141
-0.18349561 0.2763555 1.1438
-0.17670079 0.27351546 1.1463336
-0.21216822 0.28389886 1.1470001
-0.20545317 0.28549322 1.1445296
-0.19526331 0.28466526 1.1450002
-0.18677536 0.28129929 1.1470001
-0.20447987 0.29110682 1.149
-0.28201225 -0.011118763 1.153
-0.27479586 -0.013182729 1.1566666
-0.26473317 -0.011157337 1.1570001
-0.25256151 -0.011968779 1.1570001
-0.24473689 -0.013330845 1.1569998
-0.23866066 -0.012669149 1.156
-0.22263958 -0.011664488 1.1570001
-0.21564087 -0.011563058 1.1570001
-0.20793219 -0.011157337 1.1570001
-0.19981776 -0.011157337 1.1570001
-0.28432265 -0.0038987875 1.153
-0.2759566 -0.0052901632 1.1549257
-0.26538625 -0.005616962 1.1546363
-0.25519809 -0.005236329 1.1551665
-0.24545695 -0.0047968524 1.1538695
-0.23508169 -0.0047774576 1.155857
-0.22416101 -0.0050715148 1.1569997
-0.21480998 -0.0050697629 1.1557999
-0.20592187 -0.0057437099 1.155476
-0.19564831 -0.0050666463 1.1549999
-0.18901898 -0.0020215933 1.153
-0.12533879 -0.0010107966 1.153
-0.29298663 0.0027435909 1.153
-0.28512239 0.0033434045 1.153
-0.27695832 0.0030323898 1.153
-0.25249702 0.0026280712 1.153
-0.24562357 0.0030323903 1.153
-0.23517583 0.0044932668 1.1549199
-0.22543551 0.0037514628 1.155588
-0.21577939 0.0026284219 1.1533999
-0.121801 0.001516195 1.153
-0.11422002 0.0070755766 1.153
-0.23147243 0.011118763 1.153
-0.33399683 0.027578881 1.1566
-0.325991 0.026081709 1.1545384
-0.33528164 0.032706585 1.1538889
-0.32850891 0.031334698 1.153
-0.12294561 0.068913147 1.1535714
-0.11826321 0.068734169 1.153
-0.095057406 0.068764426 1.1535
-0.089960903 0.068734169 1.153
-0.37551096 0.073282756 1.153
-0.13106664 0.079179071 1.153
-0.12540753 0.074060045 1.1549999
-0.11490227 0.074913584 1.15475
-0.10268324 0.07553973 1.1539999
-0.094810762 0.073854342 1.1566666
-0.088120952 0.075566038 1.1554
-0.13194527 0.085603707 1.1537273
-0.12780221 0.084187172 1.1569999
-0.11191147 0.081482373 1.1570001
-0.10548753 0.081989527 1.1569999
-0.093654007 0.080129966 1.1570001
-0.088244386 0.080129966 1.1570001
-0.37558317 0.096892074 1.153
-0.13039277 0.092993289 1.153
-0.1276686 0.094230272 1.1557999
-0.37399474 0.10335396 1.153
-0.12731683 0.10266351 1.1556667
-0.3812755 0.117189 1.1556667
-0.37512448 0.11303086 1.153
-0.12475931 0.11461627 1.1570001
-0.38239235 0.12475931 1.1570001
-0.37770101 0.12095866 1.153
-0.38713512 0.14858711 1.153
-0.38309193 0.15465188 1.153
-0.37413874 0.15714113 1.1537272
-0.36550847 0.15705627 1.1533333
-0.38071704 0.16099545 1.155
-0.37184361 0.16472286 1.1569999
-0.36450586 0.16454759 1.1538888
-0.098047279 0.16779225 1.153
-0.37203482 0.17638533 1.1563333
-0.3666665 0.17360434 1.153
-0.10277295 0.17567831 1.155
-0.37413916 0.18382061 1.153
-0.11187055 0.18834148 1.1538
-0.10702982 0.18344668 1.1545
-0.37485898 0.1948162 1.1537999
-0.36512834 0.19731793 1.1542307
-0.357822 0.19811615 1.153
-0.12190865 0.19682081 1.1547143
-0.11587829 0.19358388 1.156111
-0.35743016 0.20251176 1.155
-0.12611552 0.20588933 1.1554999
-0.1330943 0.21534352 1.1554
-0.12881652 0.21198939 1.1570001
-0.14086629 0.22497985 1.156
-0.13814811 0.22213241 1.1570001
-0.14490111 0.23407264 1.1558571
-0.30376852 0.24250484 1.155
-0.1506087 0.24562359 1.153
-0.14884484 0.24301374 1.155
-0.16071667 0.25977474 1.153
-0.15415616 0.25558028 1.1548181
-0.26371884 0.26777607 1.1570001
-0.25579557 0.26712698 1.1542
-0.2476452 0.26937732 1.153
-0.16404957 0.26569766 1.1543334
-0.15762272 0.26229885 1.1570001
-0.26169026 0.27081898 1.1570001
-0.25332227 0.27310118 1.1570001
-0.24477053 0.27406505 1.1559089
-0.23583491 0.27726114 1.1556666
-0.22365081 0.27808028 1.1558572
-0.21799515 0.27796909 1.153
-0.17383334 0.27663898 1.1542
-0.16871245 0.27284762 1.1570001
-0.24154909 0.28530905 1.1570002
-0.23464219 0.28332874 1.1570001
-0.22348483 0.2813001 1.1570001
-0.21687418 0.2847729 1.156
-0.19104058 0.28807706 1.153
-0.18495698 0.28604606 1.1551818
-0.17703529 0.28390712 1.1566
-0.2424185 0.29110506 1.1570001
-0.23836128 0.29110506 1.1570001
-0.2126355 0.29262871 1.155
-0.20570019 0.29429311 1.1558571
-0.19629845 0.29191825 1.1554
-0.25347295 -0.032452736 1.169
-0.24581119 -0.032355133 1.169
-0.26286721 -0.022033703 1.169
-0.25497285 -0.025602352 1.1680403
-0.24469753 -0.025599401 1.1678803
-0.23391593 -0.022802321 1.169
-0.2248105 -0.023814296 1.1674
-0.21656083 -0.023322441 1.1657273
-0.20936991 -0.021447649 1.1650001
-0.27269298 -0.01614101 1.1650001
-0.26494932 -0.015723016 1.1641999
-0.25545645 -0.016090924 1.1630002
-0.24493453 -0.018214891 1.1614445
-0.23485288 -0.015568007 1.1624545
-0.2253751 -0.01595838 1.1617616
-0.21454363 -0.016445668 1.1609999
-0.20567591 -0.014484218 1.1610001
-0.19745514 -0.01119591 1.161
-0.23613192 -0.0091602895 1.161
-0.33180606 0.023409629 1.161
-0.12315501 0.077353559 1.1610001
-0.11908377 0.078371368 1.161
-0.09436553 0.077789769 1.1610001
-0.12315501 0.084478237 1.161
-0.11589123 0.085351408 1.1612104
-0.10389491 0.086513862 1.1610001
-0.095819548 0.083751239 1.1610001
-0.12329643 0.094767846 1.1623334
-0.115059 0.094696864 1.1614798
-0.10514008 0.094612785 1.1624998
-0.12326908 0.10492934 1.1620667
-0.11540458 0.10519953 1.1650002
-0.10716527 0.10256407 1.1670001
-0.38912165 0.11745141 1.1650001
-0.12299618 0.11484084 1.1643335
-0.11744475 0.11211567 1.169
-0.38503638 0.122558 1.1650001
-0.12195398 0.12195398 1.169
-0.38375548 0.16709353 1.1645557
-0.37685135 0.16569008 1.1620911
-0.096691951 0.16997427 1.161
-0.3841224 0.17375414 1.1689999
-0.37676734 0.17442518 1.1635455
-0.10076319 0.17709894 1.161
-0.096593045 0.17445463 1.166
-0.08915963 0.17319514 1.169
-0.38167876 0.18015237 1.161
-0.37862533 0.18015237 1.161
-0.10322568 0.18518594 1.1640769
-0.099407859 0.18241856 1.169
-0.11346048 0.19677697 1.1618001
-0.10772084 0.19491141 1.1668462
-0.38359183 0.20427403 1.1662
-0.37563741 0.20433658 1.1650001
-0.36598858 0.20548905 1.1661428
-0.35644653 0.20834509 1.165
-0.12303033 0.20603742 1.1641111
-0.11669208 0.2035668 1.166846
-0.1096561 0.2018902 1.169
-0.38020945 0.2111136 1.169
-0.37585396 0.21188222 1.169
-0.36586195 0.2111136 1.169
-0.35561371 0.21213843 1.169
-0.13212681 0.21840192 1.1623334
-0.12647793 0.21413915 1.1654
-0.11990433 0.21008877 1.169
-0.13535693 0.22478637 1.1644666
-0.12810291 0.22033702 1.169
-0.14264953 0.23624423 1.1632223
-0.13847423 0.23256581 1.1666
-0.31185576 0.24505727 1.1663333
-0.30607501 0.24738161 1.1676668
-0.14660671 0.24421163 1.1646
-0.30334771 0.25108171 1.169
-0.29258704 0.2587679 1.169
-0.15165369 0.25750592 1.161
-0.14753272 0.25640178 1.1635455
-0.30078566 0.26491684 1.169
-0.29460651 0.26446471 1.169
-0.28502899 0.26568544 1.169
-0.27622405 0.26734227 1.169
-0.26891372 0.26890904 1.1663333
-0.25954154 0.26971966 1.161
-0.16251034 0.26904112 1.161
-0.15387148 0.2654559 1.164111
-0.14671262 0.26400185 1.1654
-0.28350341 0.2745595 1.1689999
-0.27534014 0.27533567 1.1675602
-0.26454571 0.27617064 1.1619412
-0.25609663 0.27707916 1.1610001
-0.24580111 0.27862546 1.1610001
-0.23511411 0.27989775 1.161
-0.22697163 0.27786213 1.161
-0.17200989 0.27989775 1.161
-0.16519149 0.27547729 1.1647778
-0.15798323 0.27195165 1.1676668
-0.27511719 0.28345308 1.1678572
-0.26450729 0.28422382 1.1654707
-0.25449657 0.28525394 1.1638572
-0.24614094 0.28498262 1.1615715
-0.23541088 0.28579548 1.1618
-0.22550358 0.28650445 1.1624287
-0.21882915 0.28804022 1.161
-0.1727705 0.28557661 1.1634001
-0.16909583 0.28387606 1.169
-0.25486645 0.29259071 1.1683332
-0.24517612 0.29441884 1.1636666
-0.23480313 0.29365897 1.1637369
-0.22435808 0.29381937 1.1685998
-0.21629575 0.29526642 1.1638
-0.2042502 0.2983928 1.1630001
-0.19433814 0.29601482 1.1636666
-0.18502609 0.29382434 1.1652499
-0.1765177 0.291475 1.1666
-0.24493277 0.30027324 1.169
-0.23775901 0.30027324 1.169
-0.22033702 0.30027324 1.169
-0.21452968 0.30232289 1.169
-0.20496467 0.30232289 1.169
-0.19574125 0.30129805 1.169
-0.18959232 0.30027324 1.169
-0.24289015 -0.034993026 1.1740001
-0.23534669 -0.033622213 1.1740001
-0.22931759 -0.031878229 1.1730001
-0.27144375 -0.022307368 1.1743335
-0.2657536 -0.024803918 1.1734446
-0.23613025 -0.027379289 1.1730002
-0.22667332 -0.028646337 1.1730002
-0.27353579 -0.01953827 1.1730001
-0.26839414 -0.01953827 1.1730001
-0.11003131 0.10797465 1.1730001
-0.10577697 0.1066624 1.1747143
-0.12031461 0.11722962 1.1730001
-0.11370037 0.11553436 1.1743335
-0.10752295 0.11371309 1.1765001
-0.12207193 0.12506789 1.1737275
-0.11557895 0.12371101 1.1765295
-0.12175673 0.13104326 1.177
-0.11866122 0.1320751 1.177
-0.3910661 0.17850775 1.177
-0.38768041 0.17687277 1.1730002
-0.093871839 0.1776073 1.1730002
-0.089081906 0.17713195 1.177
-0.3910661 0.18057142 1.177
-0.38900241 0.18057142 1.177
-0.096466579 0.18477319 1.1754616
-0.10229535 0.19502841 1.1752859
-0.09802448 0.19192162 1.177
-0.38665208 0.20875099 1.1730001
-0.37328377 0.20875099 1.1730001
-0.360111 0.20946284 1.177
-0.11356362 0.20730384 1.1750001
-0.10562693 0.20275567 1.1755002
-0.3910661 0.21462202 1.177
-0.38672078 0.21278249 1.1763334
-0.37507918 0.21413694 1.1743335
-0.36540094 0.21282458 1.1746668
-0.35846722 0.21323076 1.1750001
-0.1227513 0.21683516 1.1750002
-0.11707295 0.21308997 1.1758573
-0.13204323 0.22704731 1.1736668
-0.12824449 0.22455817 1.1750001
-0.14088121 0.23960088 1.1730001
-0.13526554 0.23358996 1.1752857
-0.32090122 0.24660896 1.177
-0.3155027 0.24799657 1.1738001
-0.30678514 0.24988419 1.1730001
-0.14632602 0.24799375 1.1738001
-0.13929795 0.24041794 1.177
-0.3322514 0.258991 1.177
-0.32606038 0.258991 1.177
-0.31332526 0.25581768 1.1761112
-0.30486828 0.25534835 1.1735336
-0.29753014 0.25673971 1.1730002
-0.14733672 0.2533142 1.1752859
-0.33121955 0.26105466 1.177
-0.31283411 0.26630765 1.177
-0.3054781 0.26407647 1.1737061
-0.29547349 0.2642808 1.1730002
-0.28690407 0.26633745 1.1730001
-0.31127074 0.27206093 1.177
-0.30457377 0.2743994 1.1748824
-0.29495931 0.27473551 1.1730002
-0.2877855 0.27573934 1.1730002
-0.16144781 0.27867743 1.1730001
-0.15571456 0.27537796 1.1750001
-0.14910784 0.2704508 1.1730001
-0.30129629 0.28272325 1.177
-0.29490399 0.28315088 1.1762002
-0.28591228 0.28494239 1.1748824
-0.27494141 0.28935486 1.1746
-0.16568515 0.28502694 1.1748668
-0.15993468 0.28272325 1.177
-0.27381718 0.29167899 1.1756667
-0.26448491 0.29366419 1.1746668
-0.25678837 0.29744074 1.174
-0.23240258 0.29821569 1.1730001
-0.22592139 0.29800409 1.1746
-0.18407106 0.29924402 1.1730001
-0.17437553 0.29512003 1.1748463
-0.25321272 0.30191541 1.177
-0.24467678 0.30404612 1.1743335
-0.23406632 0.30170992 1.1762002
-0.22288987 0.30273876 1.1738001
-0.21527112 0.30644637 1.1738002
-0.20498657 0.30696657 1.1750002
-0.19403161 0.30597186 1.1739233
-0.18551844 0.30353284 1.1756668
-0.17850775 0.30026448 1.177
-0.21771753 0.31058285 1.177
-0.20430365 0.31058285 1.177
-0.19536108 0.31092682 1.177
-0.10249899 0.10871105 1.1810001
-0.10428849 0.11521878 1.182091
-0.11259358 0.12760606 1.1810001
-0.10696471 0.12483739 1.1828462
-0.11579517 0.13341355 1.1820002
-0.084454432 0.17822695 1.1810001
-0.091957323 0.1858912 1.181
-0.086563945 0.18367232 1.1855714
-0.10042831 0.19982126 1.1810001
-0.094210699 0.1951503 1.1837368
-0.10353556 0.20645483 1.1833999
-0.097002037 0.20306993 1.1861429
-0.39101467 0.217077 1.1810001
-0.38559142 0.21757002 1.1810001
-0.37495151 0.21791303 1.1836667
-0.36485264 0.21777344 1.1815001
-0.35926414 0.21845745 1.1810001
-0.11346901 0.21567373 1.1831335
-0.10799418 0.21317165 1.1861429
-0.39088374 0.22202197 1.189
-0.38421264 0.2224389 1.189
-0.37399676 0.22463635 1.1878573
-0.36546123 0.2237449 1.1863334
-0.1257942 0.22415183 1.1810001
-0.11823077 0.22090158 1.1830001
-0.3700366 0.23036082 1.189
-0.34502006 0.24912325 1.189
-0.33584729 0.24828935 1.189
-0.32537571 0.24817425 1.1820002
-0.14247805 0.24610005 1.1820002
-0.3450909 0.2532455 1.1878002
-0.33508396 0.2542814 1.1849999
-0.32495359 0.2556752 1.1832608
-0.31635869 0.25536668 1.1814445
-0.14672506 0.25807136 1.187
-0.33068866 0.26484081 1.1810001
-0.32466584 0.26523224 1.1832
