# .PCD v0.7 - Point Cloud Data file format
VERSION 0.7
FIELDS x y z
SIZE 4 4 4
TYPE F F F
COUNT 1 1 1
WIDTH 1483
HEIGHT 1
VIEWPOINT 0 0 0 1 0 0 0
POINTS 1483
DATA ascii
-0.25358525 0.21153091 1.149
-0.24513428 0.21342158 1.1483334
-0.23576342 0.21346557 1.1476668
-0.22443134 0.21470298 1.1480001
-0.21557295 0.21507528 1.1464002
-0.2058032 0.21520491 1.1437502
-0.19838822 0.21839374 1.141
-0.18352078 0.21785106 1.1421429
-0.17692359 0.2186497 1.1423334
-0.16273138 0.21702948 1.1438571
-0.15887305 0.21519011 1.1470001
-0.20399068 0.22238865 1.1478571
-0.19514452 0.22471595 1.1454445
-0.18546127 0.22420086 1.1450002
-0.17541711 0.22375861 1.1452858
-0.16607967 0.22397098 1.1463336
-0.27796909 -0.098047279 1.153
-0.28501925 -0.072015539 1.1570001
-0.29212159 -0.065304846 1.1542307
-0.28533274 -0.065207161 1.1549999
-0.27563691 -0.062633231 1.1570001
-0.26428235 -0.062774107 1.1570001
-0.25391394 -0.064802714 1.1569998
-0.24451017 -0.065733634 1.1564997
-0.17521749 -0.062939033 1.1552857
-0.12244549 -0.061729897 1.1543332
-0.30260047 -0.053081881 1.1570001
-0.29391432 -0.05518043 1.153909
-0.28491998 -0.056819502 1.1537058
-0.27564141 -0.057818916 1.1541427
-0.26534826 -0.057656784 1.1537999
-0.25515571 -0.056996584 1.15325
-0.24463959 -0.055780523 1.1539655
-0.23227546 -0.05172947 1.1570001
-0.22271204 -0.052598871 1.1570002
-0.2146942 -0.053081878 1.1570001
-0.20671502 -0.052946638 1.1569999
-0.18346265 -0.054533053 1.1562001
-0.17737399 -0.057944816 1.1545
-0.12185316 -0.056629598 1.1535
-0.11745633 -0.052946635 1.1570001
-0.30406755 -0.046372797 1.1548666
-0.29464722 -0.048012849 1.153
-0.24360198 -0.049023636 1.153
-0.23473938 -0.045882393 1.1547599
-0.22485006 -0.045581996 1.1553332
-0.21510781 -0.046665516 1.1539999
-0.20543145 -0.045730144 1.1548332
-0.19572993 -0.045780722 1.1557271
-0.18719341 -0.047558289 1.1542
-0.1202848 -0.047507439 1.153
-0.11485863 -0.045100033 1.1548181
-0.10853045 -0.041586436 1.1570001
-0.23753722 -0.03942107 1.153
-0.20114854 -0.03942107 1.153
-0.19811615 -0.03942107 1.153
-0.11383496 -0.035570413 1.153
-0.10489317 -0.034779023 1.1554443
-0.12241131 -0.024278114 1.1539999
-0.11442579 -0.025311299 1.1550798
-0.10419874 -0.025290959 1.1539599
-0.097205378 -0.02328982 1.155
-0.13039277 -0.011118763 1.153
-0.12614073 -0.015192728 1.1552222
-0.11394007 -0.019271763 1.1570001
-0.10443311 -0.018137358 1.1565557
-0.09483736 -0.015721701 1.1570001
-0.13048324 -0.0050546848 1.1538
-0.12794711 -0.0065205214 1.1570002
-0.092728972 -0.0025348817 1.156
-0.093315899 0.0040572132 1.1570001
-0.37096238 0.017183544 1.153
-0.37266663 0.026205398 1.1537273
-0.36793002 0.025269916 1.153
-0.37221441 0.03452656 1.1551819
-0.3671214 0.035984363 1.153
-0.3713274 0.043151814 1.1554
-0.36443794 0.044938914 1.1541764
-0.35883281 0.04851824 1.153
-0.37601635 0.098047279 1.153
-0.089960903 0.098047279 1.153
-0.38036376 0.10244463 1.1570001
-0.37435496 0.10298532 1.1544999
-0.36843538 0.10663905 1.153
-0.09444616 0.10471086 1.1551331
-0.37022075 0.11258767 1.1570001
-0.36755565 0.11138225 1.155
-0.10101638 0.11680864 1.1545999
-0.09838742 0.11157337 1.1570001
-0.11137874 0.12859385 1.155
-0.10546497 0.12317057 1.154
-0.37114415 0.13812555 1.1556667
-0.36691916 0.13746834 1.153
-0.11397281 0.13340816 1.1545999
-0.37022072 0.14098816 1.1570001
-0.36392623 0.14446434 1.1548461
-0.3568112 0.14858711 1.153
-0.1207021 0.14910258 1.1570001
-0.11867349 0.14910258 1.1570001
-0.36007768 0.1511312 1.1570001
-0.35439309 0.15154615 1.155
-0.34696653 0.15525942 1.155
-0.13256514 0.15887859 1.1543332
-0.1250473 0.1549184 1.155
-0.11867349 0.1511312 1.1570001
-0.34182021 0.16431713 1.1570001
-0.33789977 0.1669261 1.1539999
-0.13084513 0.16127422 1.1570001
-0.33312896 0.1728103 1.155
-0.32578751 0.17466663 1.155
-0.31950554 0.17750308 1.1570001
-0.29921949 0.18967472 1.1570001
-0.13409278 0.18710785 1.1548181
-0.29448578 0.1948605 1.1556665
-0.28678852 0.19612764 1.1537273
-0.14353007 0.19716656 1.1543332
-0.13517514 0.19289279 1.155
-0.29110506 0.20184636 1.1570001
-0.28493616 0.20423599 1.1559091
-0.27716666 0.20722988 1.1543334
-0.15328604 0.20687032 1.1551818
-0.14700034 0.20290586 1.1564286
-0.27374399 0.21341923 1.1565001
-0.26528737 0.21553126 1.1549999
-0.25580034 0.21613523 1.1533077
-0.24620119 0.21847649 1.153
-0.23551561 0.21732128 1.153
-0.22793464 0.21833208 1.153
-0.15766114 0.21501181 1.1557999
-0.26169026 0.22010382 1.1570001
-0.25504097 0.22213243 1.1570001
-0.24420664 0.22191301 1.1558571
-0.23413502 0.22196339 1.1569999
-0.2242052 0.22328372 1.1562728
-0.21482904 0.22343838 1.1549999
-0.20662174 0.22645228 1.1542
-0.19508375 0.22945084 1.153
-0.18497579 0.22945084 1.153
-0.17486784 0.22945085 1.153
-0.16224031 0.22696435 1.1535714
-0.15765536 0.22355789 1.1565001
-0.20387498 0.23126116 1.1570001
-0.19508536 0.23359616 1.156
-0.18558069 0.23327848 1.1559331
-0.17608091 0.23283544 1.1559999
-0.16600764 0.23092306 1.1570001
-0.15924563 0.23024686 1.1570001
-0.27362785 -0.081644259 1.169
-0.2681621 -0.081644259 1.169
-0.25723064 -0.080961041 1.169
-0.2459576 -0.080961041 1.169
-0.28300017 -0.073238082 1.1646365
-0.27504584 -0.073244631 1.1685001
-0.26494673 -0.074347995 1.1672611
-0.25459889 -0.075003773 1.1646367
-0.2445213 -0.07506033 1.1651907
-0.23521328 -0.072219059 1.1672857
-0.22472911 -0.071591236 1.169
-0.21623772 -0.071225226 1.169
-0.19252037 -0.073348068 1.169
-0.18615767 -0.073208809 1.1667143
-0.28261191 -0.067514732 1.161
-0.27517667 -0.06685628 1.1622308
-0.26592296 -0.066838816 1.1622001
-0.258863 -0.067514725 1.161
-0.23527966 -0.064393409 1.163
-0.22554077 -0.064177424 1.1650001
-0.21509029 -0.064454779 1.1640769
-0.20550214 -0.063830182 1.1657275
-0.19524713 -0.06406042 1.168273
-0.18488157 -0.064612977 1.1634349
-0.12111939 -0.060050789 1.161
-0.11581964 -0.060459021 1.1623334
-0.23522127 -0.055122446 1.1609999
-0.22571895 -0.056136135 1.1610001
-0.21552126 -0.057251811 1.1610001
-0.2039037 -0.056166887 1.1616156
-0.19463579 -0.055030994 1.1623999
-0.18704589 -0.056691404 1.1616668
-0.11424234 -0.055661496 1.1628668
-0.10547806 -0.053782929 1.1651744
-0.097936533 -0.052708417 1.1636667
-0.23918535 -0.049872689 1.161
-0.19847295 -0.049872689 1.161
-0.11161983 -0.049194146 1.161
-0.10463954 -0.04495303 1.1612104
-0.094973214 -0.045677129 1.1626363
-0.088702008 -0.04689816 1.1630001
-0.10245954 -0.03833751 1.1610001
-0.09778019 -0.036827888 1.1632223
-0.09770976 -0.028498679 1.161
-0.12288529 -0.014425988 1.1616668
-0.11525044 -0.014727282 1.1624545
-0.10483443 -0.013613209 1.161
-0.096222199 -0.014014459 1.1610001
-0.12434619 -0.004537432 1.1647779
-0.11557505 -0.0052806009 1.166667
-0.10498282 -0.0050949398 1.1626
-0.095165245 -0.0058015166 1.1609999
-0.12597275 0.0029132986 1.1668462
-0.11471993 0.0041595763 1.169
-0.10512758 0.0051067239 1.1642002
-0.096578926 0.0056339856 1.1612668
-0.11170574 0.011273056 1.169
-0.1048183 0.014537238 1.1676002
-0.095460184 0.01459433 1.166895
-0.088854551 0.01531975 1.1650001
-0.093551718 0.022985322 1.169
-0.37557188 0.035623349 1.161
-0.37251845 0.047837071 1.161
-0.36810794 0.049194146 1.161
-0.37403342 0.052849073 1.1667778
-0.36684686 0.052553102 1.164
-0.38357559 0.10609771 1.1636667
-0.37801462 0.10809141 1.161
-0.091054633 0.10653796 1.1618
-0.088021711 0.10670824 1.1655715
-0.381632 0.11200439 1.1650001
-0.37600553 0.11208767 1.1623335
-0.095140442 0.11502481 1.1643685
-0.08915963 0.11170574 1.169
-0.10410206 0.12615058 1.1642001
-0.098386846 0.12221756 1.1650001
-0.11319632 0.13592604 1.1632859
-0.10712148 0.13170181 1.1682001
-0.37367168 0.14503421 1.163
-0.36878648 0.14690392 1.161
-0.11832382 0.14371285 1.1650001
-0.37318739 0.15367721 1.1673332
-0.3656199 0.15527193 1.1647649
-0.35639623 0.15656477 1.1642001
-0.34910882 0.15776055 1.161
-0.12432948 0.15785798 1.1638573
-0.11908377 0.15470712 1.161
-0.37303567 0.16089725 1.169
-0.3644594 0.16268437 1.1683333
-0.35572475 0.1634201 1.1684667
-0.34650028 0.1654992 1.1653334
-0.13053422 0.16393696 1.1663333
-0.12686068 0.16266988 1.1670001
-0.34411344 0.17470986 1.167909
-0.33591211 0.176489 1.1620001
-0.3274698 0.17852587 1.1636667
-0.34126616 0.18139373 1.169
-0.33415058 0.1824843 1.1672223
-0.32478869 0.18521851 1.1672403
-0.31660816 0.18622006 1.1650001
-0.13129748 0.18727703 1.161
-0.32256311 0.19343539 1.169
-0.31496757 0.1956784 1.1680002
-0.30524722 0.19591568 1.1635883
-0.29720053 0.19847295 1.161
-0.13466191 0.19779508 1.1615001
-0.31257111 0.20189019 1.169
-0.30428985 0.20425342 1.1680769
-0.29516521 0.20489442 1.1635
-0.28736168 0.20797251 1.161
-0.14463267 0.20679401 1.1637692
-0.13697404 0.20217875 1.1672858
-0.30027324 0.21008877 1.169
-0.29335567 0.21290705 1.169
-0.28471601 0.2141882 1.1646924
-0.27667314 0.21726298 1.1635
-0.15326808 0.21558549 1.1637692
-0.14598957 0.21244948 1.1661999
-0.28250962 0.22102024 1.169
-0.2760191 0.22238666 1.169
-0.26507428 0.22398454 1.1654445
-0.25466552 0.22766829 1.1645555
-0.24502665 0.22745499 1.1634616
-0.23499224 0.22745764 1.1614001
-0.22561455 0.22787635 1.1610001
-0.21638641 0.22860011 1.161
-0.15464352 0.22533065 1.1646923
-0.26132995 0.23058525 1.169
-0.2541562 0.23161006 1.169
-0.24467087 0.23349418 1.1686362
-0.23464862 0.23383084 1.1677999
-0.22485423 0.23405758 1.1658571
-0.21491466 0.23412849 1.1655333
-0.20553713 0.23507257 1.1618001
-0.194741 0.23850681 1.1610001
-0.18422361 0.23796399 1.161
-0.17434733 0.23738419 1.165
-0.16511053 0.23606454 1.1650001
-0.15615727 0.23448302 1.1652666
-0.20313536 0.24198981 1.1663333
-0.19543009 0.24413453 1.1671333
-0.18559277 0.24219444 1.1667778
-0.17831926 0.24083348 1.169
-0.15679798 0.24083348 1.169
-0.22545631 -0.092349388 1.177
-0.2704508 -0.083294727 1.1730001
-0.26392418 -0.084017649 1.1742309
-0.25501871 -0.084838212 1.1747501
-0.24528839 -0.085043684 1.1751819
-0.23431773 -0.085055634 1.1763685
-0.22505905 -0.085232891 1.175182
-0.21529843 -0.085501611 1.1750802
-0.20590349 -0.084398158 1.1756668
-0.19578253 -0.083050549 1.1748184
-0.28073409 -0.075068086 1.1730001
-0.27579811 -0.077947415 1.1730001
-0.26736581 -0.07918141 1.1730001
-0.24165756 -0.07918141 1.1730001
-0.23497339 -0.077638924 1.1730002
-0.22509003 -0.076324955 1.1730002
-0.21463259 -0.075791888 1.1735716
-0.20472141 -0.075100504 1.1734803
-0.19572549 -0.076164983 1.1730002
-0.18612772 -0.075068086 1.1730001
-0.202581 -0.068898112 1.1730001
-0.19846769 -0.067869782 1.1730001
-0.092310943 -0.040836006 1.1743335
-0.088343166 -0.042968061 1.1763334
-0.095277011 -0.03607922 1.1758573
-0.11620129 -0.0010283299 1.1730001
-0.12374238 0.0075410879 1.1730002
-0.11743529 0.00719831 1.1730001
-0.12393824 0.014837332 1.1730002
-0.11483021 0.015914632 1.1730002
-0.1072891 0.018852716 1.1730001
-0.09522336 0.019126939 1.1730001
-0.1213028 0.023686657 1.1746
-0.11473004 0.024209151 1.1765295
-0.10465751 0.025755594 1.1750001
-0.096138202 0.026561094 1.1732355
-0.10249577 0.03267483 1.177
-0.09448503 0.033625603 1.1766001
-0.089464709 0.035991549 1.1730001
-0.37739712 0.056558151 1.1730001
-0.092549697 0.11825795 1.1730001
-0.086145893 0.11515969 1.1758573
-0.10094641 0.12876041 1.1750001
-0.0953236 0.12479161 1.1764287
-0.089769788 0.12175673 1.177
-0.11071686 0.13813899 1.1730001
-0.10431675 0.13497137 1.1752502
-0.09802448 0.1320751 1.177
-0.11460677 0.14433469 1.1760001
-0.37671158 0.15870559 1.1730001
-0.37361944 0.16512805 1.1747779
-0.36535096 0.1679116 1.1730002
-0.35591644 0.16761778 1.1730002
-0.13162623 0.16761778 1.1730001
-0.12462015 0.16544446 1.1748183
-0.37042937 0.17025305 1.177
-0.36367634 0.17392533 1.1751819
-0.35510835 0.17416927 1.1755714
-0.34706137 0.17841525 1.1730001
-0.1320751 0.17025305 1.177
-0.12829168 0.17094094 1.177
-0.34437418 0.18465264 1.1754
-0.33567625 0.18730296 1.1730002
-0.34145203 0.19114284 1.1743335
-0.33399397 0.1926094 1.1739233
-0.32637751 0.19675273 1.1735002
-0.31981063 0.19846769 1.1730001
-0.32395583 0.20162193 1.1746
-0.31562996 0.20578887 1.1746669
-0.30798483 0.20823681 1.1730001
-0.14088121 0.20875099 1.1730001
-0.13592331 0.20697768 1.1746001
-0.31058285 0.21152651 1.177
-0.30428594 0.21343572 1.1750001
-0.29594967 0.21650931 1.1738002
-0.28896073 0.21903428 1.1730001
-0.1511645 0.21903428 1.1730001
-0.14399733 0.21677232 1.1746668
-0.13796505 0.21262094 1.1762002
-0.29200977 0.22287673 1.177
-0.28508133 0.22449593 1.1746668
-0.2741071 0.22680388 1.1730002
-0.26592615 0.22890624 1.1730001
-0.15178204 0.22551286 1.1746
-0.14781432 0.22198209 1.1750001
-0.27550039 0.23051231 1.177
-0.26433793 0.23340985 1.1758573
-0.2550953 0.23630461 1.1745001
-0.24441853 0.23765995 1.1735716
-0.23480201 0.23754422 1.1730001
-0.22520427 0.23960087 1.1730001
-0.2159493 0.23960088 1.1730001
-0.20875099 0.23960088 1.1730001
-0.1526047 0.23292243 1.1746
-0.25279996 0.24041794 1.177
-0.24488924 0.24110584 1.177
-0.23319508 0.24093387 1.177
-0.22473402 0.24289434 1.177
-0.214817 0.24347261 1.1758001
-0.20539208 0.24618578 1.1740911
-0.19435437 0.24947286 1.1730001
-0.18397969 0.24687274 1.173889
-0.17512791 0.24536628 1.1743336
-0.16543341 0.24471366 1.1736318
-0.15657042 0.24457197 1.1750001
-0.20327182 0.25142419 1.177
-0.19501713 0.25238723 1.177
-0.18573059 0.2507363 1.177
-0.17438039 0.2507363 1.177
-0.1661257 0.2507363 1.177
-0.25451824 -0.10076845 1.1850001
-0.26242074 -0.093002722 1.182
-0.25472134 -0.094143741 1.1834347
-0.24534066 -0.093565881 1.1858572
-0.23527248 -0.092209995 1.1840001
-0.2282761 -0.09589681 1.189
-0.301936 -0.08373598 1.189
-0.26401255 -0.088004179 1.1810001
-0.24227034 -0.088004179 1.1810001
-0.084991671 -0.041114207 1.1823334
-0.078952596 -0.040515151 1.1850001
-0.093082368 -0.034484908 1.1850001
-0.087012969 -0.03709206 1.1863334
-0.078176752 -0.038567197 1.189
-0.11354265 0.027954271 1.1810001
-0.12113517 0.032095641 1.1810001
-0.11493924 0.034171235 1.1811599
-0.10553598 0.035822872 1.181
-0.095652223 0.037639096 1.1816669
-0.1143567 0.043768775 1.184158
-0.10512358 0.044515524 1.1853331
-0.097024277 0.044148326 1.188077
-0.10632038 0.051075477 1.189
-0.083862811 0.11854681 1.1810001
-0.091893323 0.12800147 1.1815716
-0.085675754 0.12400902 1.184077
-0.10167072 0.13852894 1.1810001
-0.09495277 0.13487028 1.1847143
-0.088600315 0.13029458 1.189
-0.11266482 0.1475267 1.1834002
-0.1055488 0.14476365 1.1847501
-0.097814962 0.14152205 1.187
-0.11663963 0.15156882 1.1858
-0.37686497 0.16876096 1.1810001
-0.37440154 0.17473878 1.1850001
-0.36738172 0.17757916 1.1818001
-0.3576076 0.17828612 1.1810001
-0.13363972 0.17567894 1.1840001
-0.12656619 0.17470621 1.1842729
-0.37212133 0.1810226 1.189
-0.36358801 0.18431054 1.1866668
-0.35522622 0.18525945 1.1852857
-0.34753025 0.18601668 1.1810001
-0.13342164 0.1803277 1.189
-0.35246703 0.19203413 1.1883334
-0.34598857 0.1955696 1.1866
-0.3365297 0.19801849 1.1826001
-0.33247101 0.20500234 1.187
-0.32601595 0.20730741 1.1843333
-0.31992108 0.20810401 1.1810001
-0.32364488 0.2125221 1.1883334
-0.31517237 0.21574195 1.1853079
-0.30687699 0.21777716 1.1818001
-0.13623519 0.21611309 1.1846365
-0.31235954 0.22271687 1.189
-0.30465108 0.22455212 1.1876667
-0.29561207 0.22597909 1.1839091
-0.28831464 0.22919837 1.1830001
-0.15012479 0.22777553 1.1810001
-0.14411984 0.2252938 1.1850001
-0.13724363 0.22271688 1.189
-0.30124107 0.23036082 1.189
-0.29452366 0.23267716 1.189
-0.28478464 0.23489681 1.1855716
-0.27512401 0.23638612 1.1836667
-0.26616234 0.2381739 1.1825
-0.25987118 0.23916431 1.1810001
-0.15137641 0.23589133 1.1838572
-0.14668493 0.23259027 1.1885556
-0.28247866 0.24078439 1.189
-0.27448726 0.24252164 1.189
-0.26520497 0.24420279 1.1871819
-0.25523841 0.2448616 1.1843334
-0.24516793 0.2460032 1.1850001
-0.23531415 0.24534585 1.1833333
-0.22556765 0.24708959 1.183
-0.21570647 0.24761467 1.1818001
-0.15218407 0.24286911 1.189
-0.23244554 0.25120795 1.189
-0.22514904 0.25120795 1.189
-0.21517958 0.25162116 1.1876668
-0.20507041 0.25618252 1.1850002
-0.19433509 0.25692818 1.1833335
-0.1847461 0.25624278 1.1852666
-0.17539331 0.25678557 1.1858571
-0.1649753 0.25636637 1.1861764
-0.15707675 0.25382444 1.1866001
-0.20221719 0.26163152 1.189
-0.19492069 0.26163152 1.189
-0.18519203 0.26163152 1.189
-0.17407358 0.26163152 1.189
-0.16886178 0.26163152 1.189
-0.24996133 -0.10144874 1.1930001
-0.24481405 -0.098255925 1.1941427
-0.23464036 -0.096493825 1.1938
-0.31166288 -0.087097712 1.197
-0.30695418 -0.084257819 1.1949999
-0.09368743 -0.030809399 1.1954
-0.084628053 -0.035124768 1.1944544
-0.077653378 -0.03672795 1.197
-0.10144874 0.049155578 1.1930001
-0.09621942 0.049155578 1.1930001
-0.11166322 0.055311315 1.1960001
-0.10495111 0.055564273 1.1936002
-0.096364781 0.055518597 1.1948003
-0.10487679 0.062577926 1.1963334
-0.099690147 0.061912831 1.197
-0.082258865 0.12789077 1.1938
-0.091513038 0.13753103 1.1930001
-0.085834339 0.13487048 1.1956669
-0.078702748 0.13117126 1.197
-0.10354047 0.14886121 1.1930001
-0.095751449 0.14436297 1.1950001
-0.088147081 0.14166495 1.197
-0.12067755 0.15635613 1.197
-0.11421752 0.15433729 1.1952858
-0.10633045 0.15269057 1.1950001
-0.37964839 0.1767509 1.1930001
-0.37244672 0.18633112 1.1954
-0.3661429 0.18909569 1.1950001
-0.36365873 0.19344214 1.1964285
-0.35693687 0.19563779 1.1947778
-0.3482725 0.1997599 1.1930001
-0.35573643 0.20042966 1.197
-0.34260312 0.20451434 1.1963334
-0.33809704 0.20516191 1.194
-0.33394468 0.21232122 1.1960001
-0.32598141 0.21681789 1.1947778
-0.13304731 0.21790603 1.1950001
-0.32163191 0.22299112 1.197
-0.31480759 0.22612926 1.1947777
-0.30748382 0.2279982 1.1930001
-0.14119154 0.22904406 1.1930001
-0.13576876 0.22553307 1.1948462
-0.30466709 0.23261034 1.197
-0.2924931 0.23810822 1.1930001
-0.28970414 0.2395027 1.1930001
-0.14435849 0.23646781 1.1939231
-0.13956621 0.23296013 1.197
-0.29277423 0.24310406 1.197
-0.28494996 0.24472573 1.1949999
-0.27607787 0.24677005 1.194
-0.26530066 0.24856685 1.1930001
-0.25623652 0.24996133 1.1930001
-0.24368615 0.24996133 1.1930001
-0.2395027 0.24996133 1.1930001
-0.15203153 0.24796999 1.1960001
-0.14610726 0.242754 1.1959094
-0.27283621 0.25079942 1.197
-0.26519081 0.25169888 1.1969999
-0.25527394 0.25387633 1.1961112
-0.24530466 0.25369397 1.1958001
-0.23543097 0.25396869 1.1935713
-0.22593366 0.25492063 1.1950001
-0.21458258 0.25671363 1.194
-0.15280671 0.25457111 1.1957692
-0.21232122 0.26159954 1.1960001
-0.20478807 0.26486549 1.1952223
-0.19540149 0.2659305 1.194778
-0.1856253 0.2649993 1.1947778
-0.17468625 0.2654649 1.1947778
-0.16409834 0.26462346 1.1944286
-0.15679212 0.26225457 1.1950001
-0.25057063 -0.10255422 1.2060001
-0.24543126 -0.10108563 1.2036002
-0.23521404 -0.10137202 1.2045001
-0.23920201 -0.097999059 1.202
-0.32105461 -0.082113862 1.2060001
-0.31524786 -0.084651522 1.2019999
-0.32399637 -0.074312232 1.2057999
-0.3144691 -0.075062275 1.2027617
-0.30757889 -0.075050652 1.202
-0.33276805 -0.064826868 1.2056669
-0.32387397 -0.06479492 1.206
-0.31485558 -0.064452529 1.2052
-0.3095203 -0.065498397 1.205
-0.32256562 -0.055348177 1.2048
-0.31744361 -0.056422271 1.2030001
-0.083647594 -0.031927761 1.204
-0.076619349 -0.032760594 1.2055001
-0.094995014 -0.02779384 1.204
-0.086695321 -0.02854602 1.2060001
-0.10312126 0.066987507 1.2052001
-0.096230641 0.065000974 1.2036
-0.081665888 0.13646105 1.202
-0.079031497 0.13382667 1.202
-0.093235254 0.14742027 1.2040001
-0.085291542 0.14362527 1.2038182
-0.079294503 0.1427301 1.2060001
-0.12118163 0.15911674 1.202
-0.11493696 0.15795815 1.2028
-0.10235785 0.15421844 1.2037144
-0.096504509 0.1518334 1.2044001
-0.38251245 0.18019181 1.202
-0.37618995 0.18862185 1.202
-0.13382667 0.18440683 1.202
-0.12961166 0.18229933 1.202
-0.37365025 0.19447754 1.204
-0.3670944 0.19743332 1.2028888
-0.36196119 0.2050247 1.2055001
-0.35488412 0.20491382 1.2035999
-0.34598237 0.20758939 1.202
-0.35418209 0.21124056 1.2060001
-0.34554869 0.21370205 1.2053847
-0.33656853 0.21681762 1.2035
-0.33369616 0.2240347 1.2049092
-0.32634619 0.22543509 1.2029229
-0.31928727 0.22866447 1.202
-0.1321575 0.2273109 1.2060001
-0.3211956 0.23323157 1.2060001
-0.31443658 0.23563622 1.2038667
-0.30519554 0.23731095 1.2030908
-0.2982122 0.23920201 1.202
-0.14014919 0.23814824 1.202
-0.1358896 0.23513427 1.2042857
-0.30576831 0.24237482 1.2052002
-0.29594907 0.24530229 1.2035
-0.28662091 0.24921267 1.202
-0.14345482 0.24621184 1.2042223
-0.13850106 0.24316978 1.2060001
-0.28318965 0.25360271 1.2053334
-0.27527577 0.25480139 1.2040001
-0.26561156 0.2569111 1.2035002
-0.25500831 0.25816956 1.202
-0.24552453 0.25816956 1.202
-0.23639201 0.25816956 1.202
-0.22444947 0.25816956 1.202
-0.15068673 0.25711581 1.202
-0.14695914 0.25177893 1.2060002
-0.25400668 0.26246479 1.2060002
-0.24617536 0.26096997 1.2052
-0.23564142 0.2615031 1.2040001
-0.22448044 0.26251256 1.205
-0.2153821 0.26624015 1.2043333
-0.20864317 0.26765335 1.202
-0.18387996 0.2687071 1.202
-0.17808431 0.2687071 1.202
-0.16176078 0.26960129 1.2060001
-0.15521243 0.26502159 1.2044001
-0.20446296 0.27236456 1.2048572
-0.195499 0.27292624 1.2043334
-0.18581343 0.27250877 1.2060002
-0.17491779 0.27265561 1.2060002
-0.16704708 0.27171582 1.2060001
-0.24288297 -0.10440237 1.2151667
-0.23867249 -0.10289437 1.21
-0.33414149 -0.0604637 1.21
-0.32936805 -0.063115619 1.21
-0.34197015 -0.056638803 1.2190001
-0.33372518 -0.055986427 1.2156154
-0.32777691 -0.056220632 1.21
-0.076375201 -0.030762233 1.21
-0.094511777 -0.023034906 1.2127776
-0.084806152 -0.023681864 1.2118825
-0.075511783 -0.024455428 1.2132001
-0.067775719 -0.022081356 1.2161429
-0.093801245 -0.01705303 1.215875
-0.084742986 -0.017184127 1.2167777
-0.075874619 -0.018167162 1.2190001
-0.096529767 0.066828303 1.21
-0.10336018 0.071859188 1.2113334
-0.098814353 0.072253108 1.2120001
-0.090165168 0.1495681 1.21
-0.083923675 0.14767061 1.2118572
-0.10311878 0.15840256 1.2126669
-0.094082423 0.15594979 1.213643
-0.085990831 0.15363583 1.217
-0.12227265 0.16551743 1.2128334
-0.11507598 0.16185382 1.212625
-0.10601749 0.16090384 1.2155001
-0.098316416 0.16136716 1.2190001
-0.12623124 0.17926957 1.21
-0.13321388 0.18792255 1.2156668
-0.1276255 0.1847305 1.2152002
-0.38268495 0.19427393 1.2142501
-0.37840381 0.19645806 1.2113334
-0.1357194 0.1923582 1.219
-0.38151044 0.20197611 1.2190001
-0.37427422 0.20411867 1.2147778
-0.36787114 0.2066351 1.2122858
-0.37224874 0.21195024 1.2190001
-0.36447808 0.21547994 1.2153846
-0.35622892 0.21526654 1.2108001
-0.34616351 0.21887152 1.21
-0.1337544 0.21652529 1.2150002
-0.36013728 0.22121193 1.2190001
-0.35406855 0.22182544 1.2165
-0.34418428 0.2247595 1.2163334
-0.33788311 0.22737753 1.2120001
-0.13168953 0.22444859 1.2134001
-0.12930745 0.22976118 1.2190001
-0.3343899 0.23335962 1.2173333
-0.32582664 0.23527838 1.211625
-0.13153945 0.23570937 1.2125001
-0.12930745 0.23510447 1.2190001
-0.322846 0.24389514 1.217
-0.31488276 0.24482131 1.2164286
-0.30466446 0.24498296 1.210889
-0.14108196 0.24928017 1.21
-0.13461211 0.24505007 1.2126876
-0.12877312 0.24258506 1.2190001
-0.30367702 0.25263816 1.2179999
-0.29466325 0.2548252 1.2173333
-0.2846446 0.25769296 1.2130001
-0.27579933 0.25988784 1.21
-0.26731318 0.25988784 1.21
-0.14495501 0.25656417 1.2116667
-0.13681273 0.25435078 1.2173333
-0.28236929 0.26422405 1.2177501
-0.27514577 0.26448554 1.2165
-0.26480031 0.2650167 1.2160001
-0.25465062 0.26704729 1.2120001
-0.24528526 0.26652542 1.2112309
-0.23486573 0.26707852 1.2113334
-0.22558971 0.26766679 1.21
-0.15268569 0.26703194 1.2151667
-0.14626822 0.26354575 1.2161
-0.13999403 0.26182088 1.2190001
-0.25612137 0.27108255 1.2190001
-0.24441686 0.27323991 1.2175
-0.23474449 0.27315694 1.2171249
-0.22519605 0.27407572 1.2157857
-0.21554217 0.27497914 1.2137144
-0.20542388 0.27805015 1.2118182
-0.19399956 0.27863899 1.2111429
-0.18494621 0.27766439 1.2118182
-0.17558099 0.27758467 1.2120001
-0.16436288 0.27580136 1.2132308
-0.15593082 0.27393353 1.2177333
-0.21159402 0.28212535 1.2190001
-0.20476127 0.2836819 1.2165
-0.19516309 0.28368187 1.2165
-0.18594627 0.28319401 1.2190001
-0.17419104 0.2810567 1.2190001
-0.16884775 0.2810567 1.2190001
-0.34309226 -0.054680329 1.223
-0.33773145 -0.053608164 1.223
-0.09303239 -0.013104938 1.2254001
-0.084436946 -0.013175902 1.2248183
-0.074879535 -0.014279891 1.2242306
-0.066502728 -0.014641539 1.2260001
-0.084619373 -0.0093224738 1.2270001
-0.0759423 -0.0092507619 1.2270001
-0.063894793 -0.007744824 1.2270001
-0.058527581 -0.0048299949 1.2250001
-0.11079401 0.075296901 1.2270001
-0.10550088 0.076552466 1.2229999
-0.10513109 0.081052914 1.2262002
-0.080412246 0.1490307 1.223
-0.078523912 0.14844246 1.2270001
-0.091133885 0.15975234 1.223
-0.083389014 0.15616463 1.2247779
-0.078523912 0.15382081 1.2270001
-0.12329879 0.16832964 1.223
-0.11487017 0.16704813 1.2246001
-0.10479279 0.1639073 1.2260001
-0.093583286 0.16242617 1.2270001
-0.086053602 0.1613505 1.2270001
-0.12341299 0.17523375 1.2241429
-0.11783476 0.17435631 1.2270001
-0.1318761 0.1897729 1.223
-0.12447298 0.18526778 1.2248461
-0.39046821 0.1968476 1.2270001
-0.38705096 0.19620588 1.223
-0.13311745 0.19663526 1.2256669
-0.1275254 0.19330499 1.2250001
-0.38300866 0.20600943 1.2255001
-0.37740147 0.20907184 1.223
-0.13574955 0.20287137 1.2270001
-0.38186285 0.21190698 1.2270001
-0.37527984 0.21438019 1.2235715
-0.36989635 0.21979348 1.223
-0.13273522 0.21682659 1.2252858
-0.12800473 0.21728534 1.2270001
-0.37325749 0.22051235 1.2270001
-0.36461881 0.22399296 1.2258574
-0.35466826 0.22710723 1.2238889
-0.34738094 0.22837079 1.223
-0.13130276 0.22360699 1.2243334
-0.12938635 0.22465618 1.2238001
-0.35389543 0.23126905 1.2270001
-0.34547526 0.23167582 1.2246001
-0.33541265 0.23743464 1.2236668
-0.12732407 0.23682782 1.2246001
-0.33273795 0.24247986 1.2256669
-0.32526457 0.2458947 1.2235
-0.31628817 0.24874189 1.223
-0.1318761 0.24981405 1.223
-0.12724768 0.24579228 1.2243334
-0.31460127 0.2535167 1.2247778
-0.30615944 0.25740749 1.2241429
-0.29698926 0.25839135 1.223
-0.13155304 0.2558611 1.2250001
-0.12794413 0.25450674 1.2264287
-0.30298036 0.262822 1.2270001
-0.29448074 0.26278159 1.2242306
-0.28681716 0.26559269 1.2243334
-0.27554595 0.269113 1.223
-0.26804084 0.269113 1.223
-0.14298987 0.26773781 1.2243334
-0.13558024 0.26405123 1.2249999
-0.27429584 0.2721445 1.2270001
-0.26488718 0.27255851 1.2247144
-0.25525936 0.27499282 1.2233999
-0.24481063 0.27804768 1.223
-0.23528028 0.27888161 1.223
-0.22515431 0.27983463 1.223
-0.15251523 0.27742225 1.223
-0.14648095 0.27421358 1.225154
-0.24525276 0.2812877 1.2270001
-0.23454201 0.28338411 1.2264287
-0.22459447 0.28413048 1.2258002
-0.21539076 0.28556758 1.2242309
-0.2047832 0.28841195 1.223
-0.19431125 0.28878927 1.2246001
-0.18520996 0.28705856 1.2243333
-0.17498985 0.28556994 1.2246002
-0.16438489 0.28564414 1.2255716
-0.15553753 0.28535897 1.2255883
-0.14951813 0.28182554 1.2270001
-0.20545296 0.29150656 1.2270001
-0.1968476 0.29150656 1.2270001
-0.09278921 -0.0080008106 1.2336
-0.085039467 -0.0048298491 1.2341334
-0.074411653 -0.0041528163 1.2338948
-0.065962307 -0.0036354573 1.2334547
-0.058322877 -0.0010800533 1.2320001
-0.058512241 0.0010835599 1.2360001
-0.10260507 0.083164103 1.2320001
-0.077403821 0.14652723 1.2320001
-0.081004001 0.15876783 1.2320001
-0.076256745 0.15527831 1.2328891
-0.10489982 0.16676164 1.2336
-0.094518699 0.16589619 1.2336
-0.084244162 0.16485542 1.2334547
-0.077588946 0.16356014 1.2335002
-0.11387098 0.17505729 1.2337143
-0.12204602 0.18900934 1.2320001
-0.11778355 0.18478189 1.2326156
-0.39205936 0.19980986 1.2320001
-0.38989925 0.19980986 1.2320001
-0.13284656 0.19980986 1.2320001
-0.12366234 0.19535153 1.2332308
-0.11810804 0.19179012 1.2360001
-0.39289886 0.20652655 1.2360001
-0.38881922 0.20485012 1.2320002
-0.13293211 0.20577613 1.2328002
-0.12678449 0.20547408 1.234182
-0.39116517 0.2112942 1.2360001
-0.38773915 0.21223049 1.2320001
-0.13365661 0.21250048 1.2320002
-0.12521255 0.2150088 1.2331766
-0.37291226 0.22573885 1.2344002
-0.3669329 0.22838451 1.2346667
-0.12464673 0.22518618 1.2338825
-0.36385944 0.23209853 1.2360001
-0.35549769 0.23551747 1.2342224
-0.34656236 0.23748 1.2337143
-0.12639429 0.23439471 1.2344
-0.34283417 0.24234433 1.2352002
-0.33652177 0.24624515 1.234286
-0.32941628 0.24949232 1.2320001
-0.12322622 0.24561279 1.2342223
-0.33211115 0.25301126 1.2360001
-0.325068 0.25572017 1.2360001
-0.31789571 0.2574127 1.2320001
-0.12375084 0.25418013 1.2346667
-0.32181731 0.26113796 1.2360001
-0.31442469 0.26244184 1.2353334
-0.30498382 0.26665193 1.2342857
-0.29485455 0.26893327 1.2320001
-0.13187434 0.26699144 1.233
-0.12700796 0.26428869 1.2330002
-0.29388952 0.27223095 1.2352002
-0.28514746 0.27511647 1.234182
-0.27568182 0.27633199 1.2332002
-0.26492164 0.27788228 1.2320002
-0.25813276 0.27973381 1.2320001
-0.14321508 0.27714169 1.2320001
-0.13705616 0.27460739 1.2345456
-0.27197355 0.28064203 1.2360001
-0.2654722 0.28150886 1.2360001
-0.2547231 0.28322643 1.2346667
-0.24428929 0.28536642 1.233
-0.23467454 0.28788471 1.2336
-0.22573115 0.28837425 1.2320001
-0.15012741 0.28729421 1.2320001
-0.14606351 0.28436068 1.2341819
-0.13977924 0.28064203 1.2360001
-0.23079827 0.29147765 1.2360001
-0.22520076 0.29124182 1.2350001
-0.21600072 0.29317078 1.2340002
-0.20445971 0.29641679 1.2340001
-0.19483291 0.29464766 1.2337145
-0.18504891 0.29348275 1.2344
-0.17461874 0.29215676 1.233778
-0.16500503 0.29287836 1.2337779
-0.15641837 0.29337358 1.2333335
-0.091609038 -0.0021802699 1.244
-0.088123411 -0.0010879433 1.2410001
-0.091681801 0.00109145 1.245
-0.084504396 0.0037775566 1.2443846
-0.075223505 0.0054548667 1.2435601
-0.064914376 0.0057523684 1.2435457
-0.056350037 0.0064488268 1.2416154
-0.063304096 0.01200595 1.245
-0.05591533 0.014456891 1.2444999
-0.072892204 0.14904824 1.2410001
-0.074097618 0.15473518 1.243
-0.097032689 0.16899358 1.2436666
-0.083771639 0.16863121 1.2410001
-0.11023645 0.17790635 1.245
-0.10651566 0.17244406 1.243
-0.091681801 0.17135765 1.245
-0.088407449 0.17135765 1.245
-0.11151113 0.18452255 1.243
-0.11442714 0.19507523 1.2431332
-0.12138339 0.20531045 1.2410001
-0.11751278 0.20531386 1.245
-0.12076171 0.21214895 1.2410001
-0.11594448 0.21528825 1.2428823
-0.11534533 0.22470504 1.24275
-0.37327594 0.23302457 1.245
-0.36485493 0.23633499 1.2423334
-0.121487 0.23499574 1.2410001
-0.11524495 0.23522107 1.2441113
-0.3623614 0.24121045 1.245
-0.35429743 0.24277091 1.2428182
-0.34529579 0.24699052 1.2425001
-0.12076171 0.24152341 1.2410001
-0.11566435 0.24459893 1.2426472
-0.34216648 0.25171992 1.243
-0.3358992 0.25464752 1.244
-0.32799518 0.25717014 1.243
-0.12076171 0.25784257 1.2410001
-0.11688059 0.25508633 1.2427143
-0.32602033 0.26146904 1.2410001
-0.31492236 0.26770329 1.243
-0.12174983 0.26418012 1.2415714
-0.11896805 0.26303944 1.245
-0.31106326 0.27177104 1.245
-0.30409527 0.27388957 1.2432858
-0.29623851 0.27663568 1.2423333
-0.13250788 0.27772361 1.2423334
-0.12690012 0.27435786 1.2432859
-0.29141715 0.28050265 1.245
-0.28486845 0.28181237 1.245
-0.27385962 0.28388554 1.2426
-0.26453927 0.28653249 1.2418001
-0.25436115 0.28786978 1.2410001
-0.24805108 0.28830498 1.2410001
-0.14121504 0.28656429 1.2410001
-0.13566636 0.28532097 1.2430001
-0.25539929 0.29141715 1.245
-0.24441829 0.29177332 1.2438571
-0.23566711 0.29322416 1.2434
-0.2248387 0.29632866 1.245
-0.21673568 0.29732764 1.2423334
-0.20997307 0.29918441 1.2410001
-0.19365391 0.29918441 1.2410001
-0.18495037 0.29864046 1.2410001
-0.1760914 0.29763022 1.2410001
-0.16645533 0.29809648 1.2410001
-0.15501308 0.29805061 1.2423334
-0.14524759 0.29352817 1.2436666
-0.13643125 0.29141715 1.245
-0.2139242 0.30014876 1.245
-0.20486648 0.301846 1.243
-0.19456227 0.3035641 1.2433333
-0.18431666 0.30345085 1.244077
-0.17485029 0.3010219 1.245
-0.16480894 0.30014876 1.245
-0.15716881 0.30233166 1.245
-0.095337503 -0.0010958334 1.25
-0.09340243 0.0061606066 1.2511538
-0.086570822 0.0086101191 1.25
-0.092510507 0.014296304 1.2541429
-0.085370004 0.015579293 1.2531766
-0.075413182 0.015176484 1.2505263
-0.064928129 0.016163543 1.25
-0.056983329 0.018629167 1.25
-0.081675529 0.020970743 1.2590001
-0.0741584 0.02166214 1.2563334
-0.064551517 0.025029784 1.2553481
-0.055764828 0.025557406 1.2534375
-0.062890798 0.033958852 1.2585555
-0.055438403 0.033987012 1.2579091
-0.060704783 0.040837765 1.2590001
-0.072130673 0.1563497 1.253
-0.1038914 0.17727906 1.2536155
-0.096161678 0.17419684 1.253625
-0.085648142 0.17349012 1.2525001
-0.078899994 0.17204583 1.25
-0.11067917 0.18592639 1.25
-0.10725237 0.18455964 1.2560999
-0.11140972 0.19761527 1.25
-0.10758772 0.19526425 1.2558182
-0.11253364 0.20508941 1.25
-0.10629968 0.20440409 1.2540771
-0.11218452 0.21417844 1.2528572
-0.10803558 0.21359438 1.2575001
-0.11076771 0.22482204 1.251
-0.10919917 0.2261167 1.2582
-0.375889 0.23726419 1.2521429
-0.36856529 0.23925693 1.25
-0.1111175 0.2347275 1.25
-0.10806111 0.23619668 1.2546251
-0.37325728 0.24447417 1.2567778
-0.36476302 0.24639985 1.2525001
-0.3557075 0.24831584 1.25
-0.1111175 0.24612418 1.25
-0.10786375 0.2454443 1.2555001
-0.37195477 0.2505452 1.2590001
-0.36446843 0.2536445 1.2585555
-0.35508382 0.25465772 1.2565833
-0.34601754 0.25632945 1.2538002
-0.33751667 0.25861666 1.25
-0.11265562 0.25518319 1.2525001
-0.10926861 0.25275263 1.2590001
-0.36753985 0.26158243 1.2590001
-0.34289443 0.26204121 1.2576667
-0.33492732 0.26544365 1.2563636
-0.32533646 0.26763865 1.2537501
-0.11586459 0.26516822 1.2550769
-0.32358477 0.27489698 1.2577691
-0.31437996 0.27661288 1.2534546
-0.30617583 0.27856082 1.25
-0.12163962 0.27578068 1.2532856
-0.11915594 0.27241483 1.2546667
-0.32191932 0.28292108 1.2590001
-0.31454614 0.28331897 1.2557273
-0.30571559 0.28537694 1.2568462
-0.29495409 0.28516114 1.255
-0.28472558 0.28692952 1.2540001
-0.2775231 0.28739655 1.25125
-0.13141797 0.28555101 1.2507143
-0.12555702 0.28443769 1.2547858
-0.28586432 0.29027924 1.2590001
-0.2745384 0.29217693 1.2576667
-0.26441747 0.29541194 1.2543637
-0.25448647 0.29617193 1.25125
-0.24586867 0.29702339 1.2528572
-0.23560417 0.29697084 1.25
-0.2268375 0.29916251 1.25
-0.1432035 0.29703221 1.2533334
-0.13524891 0.29506651 1.2543334
-0.12803191 0.29138297 1.2590001
-0.26158243 0.30131647 1.2590001
-0.25524062 0.30153689 1.2572857
-0.24502657 0.30131647 1.2590001
-0.23479572 0.30137503 1.2574002
-0.22406483 0.30454195 1.2575001
-0.21559532 0.30588597 1.256
-0.20464845 0.30751652 1.2521429
-0.19724999 0.30792916 1.25
-0.18446529 0.30792916 1.25
-0.17501499 0.30635127 1.253625
-0.1649628 0.30574232 1.2544999
-0.15231381 0.3035239 1.2589999
-0.14596741 0.3024202 1.2589999
-0.13686168 0.30131647 1.2590001
-0.21191487 0.31014624 1.2590001
-0.2051321 0.3121056 1.2580001
-0.19452585 0.31212127 1.253625
-0.18539141 0.31225812 1.2546668
-0.17725797 0.31147072 1.2590001
-0.09197285 0.021054026 1.2640001
-0.084732369 0.023313487 1.2662222
-0.075519249 0.026315618 1.2650909
-0.069810718 0.028810773 1.2640001
-0.081147775 0.030013559 1.268
-0.074032426 0.034238771 1.2672727
-0.067191556 0.03656752 1.2640001
-0.055405334 0.038783733 1.2640001
-0.072254866 0.043352921 1.268
-0.06516625 0.044294149 1.2649412
-0.055108912 0.044546429 1.2647059
-0.049864799 0.045432374 1.2640001
-0.062806152 0.050578404 1.268
-0.054469056 0.052523728 1.2679999
-0.047799371 0.067808412 1.268
-0.045576148 0.072254866 1.268
-0.070031643 0.15673748 1.268
-0.093151972 0.17854631 1.2650001
-0.087817453 0.17896974 1.268
-0.10261068 0.18660517 1.2640001
-0.095282272 0.18445635 1.2674999
-0.1031337 0.19518195 1.265
-0.095265269 0.19397655 1.2679999
-0.1021953 0.20423427 1.2651428
-0.098192513 0.20194308 1.268
-0.10496037 0.21621521 1.2662221
-0.10529725 0.22517566 1.2661332
-0.10403029 0.2340735 1.2662857
-0.10486219 0.24381387 1.268
-0.37121573 0.25375643 1.2640001
-0.3678914 0.25708073 1.2640001
-0.35791844 0.25818884 1.2640001
-0.11004972 0.25789428 1.268
-0.10782649 0.25233623 1.268
-0.36596361 0.26172096 1.265
-0.35533988 0.26280713 1.2666668
-0.34498587 0.26622614 1.2653333
-0.11129575 0.26289597 1.2653333
-0.34348851 0.27012205 1.268
-0.33421183 0.27465966 1.2665454
-0.32910767 0.27370235 1.2640001
-0.1164884 0.2751379 1.2655001
-0.33459562 0.28346139 1.268
-0.32684237 0.2839044 1.2666668
-0.30251312 0.28921583 1.2640001
-0.12133768 0.28589153 1.2640001
-0.11894263 0.28457302 1.268
-0.30434272 0.29212376 1.2670001
-0.29448226 0.29263425 1.266
-0.28434658 0.2948145 1.2662858
-0.27508098 0.29761982 1.2674286
-0.1318647 0.29808068 1.2640001
-0.12499469 0.29508385 1.2659999
-0.26499778 0.30464816 1.2662858
-0.25389668 0.30655077 1.2662857
-0.24462637 0.30592465 1.2655001
-0.23539352 0.30599573 1.2640001
-0.22716187 0.30842301 1.2640001
-0.15458088 0.3086077 1.2640001
-0.14471874 0.30694556 1.2640001
-0.13368566 0.30480498 1.2662857
-0.12686418 0.30150181 1.2672001
-0.23455043 0.31014013 1.268
-0.22419523 0.31187066 1.266
-0.21510543 0.31370392 1.2657143
-0.20335369 0.31645495 1.2648
-0.19518369 0.31827819 1.265
-0.18528385 0.31842917 1.2656
-0.17456312 0.31567737 1.2659999
-0.1652492 0.31362402 1.2668
-0.1540696 0.31369728 1.2679999
-0.1450747 0.31225386 1.2675556
-0.13821058 0.31088123 1.268
-0.19008587 0.32125625 1.268
-0.091871157 0.02352798 1.2780001
-0.085687853 0.026624719 1.276
-0.082267933 0.033579621 1.2767501
-0.07851547 0.035487138 1.2748749
-0.074846298 0.0444047 1.2742499
-0.07058394 0.050417099 1.2780001
-0.064720862 0.055096008 1.2745383
-0.054683838 0.05815582 1.2729999
-0.054297667 0.064608634 1.2754999
-0.052642696 0.074010022 1.2776153
-0.047242906 0.07576219 1.2754999
-0.050417099 0.081787743 1.2780001
-0.047429424 0.083281577 1.2780001
-0.070307791 0.15958752 1.273
-0.068075798 0.15847152 1.273
-0.071704321 0.1624551 1.2780001
-0.067222804 0.16133472 1.2780001
-0.05489862 0.16469586 1.2780001
-0.082908124 0.17814042 1.2780001
-0.079235762 0.17967546 1.273
-0.091511719 0.18525544 1.273
-0.084883608 0.18490824 1.2766842
-0.075824492 0.18493651 1.2770909
-0.092069723 0.19697341 1.273
-0.086860009 0.19403626 1.2772857
-0.1015557 0.20869137 1.273
-0.095079765 0.20336422 1.276
-0.10163548 0.21555655 1.2739999
-0.099713817 0.21847411 1.2780001
-0.1015557 0.22431533 1.273
-0.098727241 0.22570299 1.276125
-0.1015557 0.23882329 1.273
-0.098174311 0.23526552 1.2754999
-0.10256562 0.24690616 1.2763333
-0.098753497 0.24504311 1.278
-0.10638295 0.25532117 1.277375
-0.36394715 0.26525655 1.2751428
-0.3559491 0.26735178 1.276
-0.34930694 0.2689552 1.273
-0.11151697 0.26741868 1.2763335
-0.1066099 0.26275277 1.27675
-0.36300313 0.27001157 1.2780001
-0.35067895 0.27225235 1.2780001
-0.34420398 0.2756364 1.2752222
-0.33814698 0.27788317 1.273
-0.11297955 0.27406177 1.276
-0.34149498 0.28123116 1.273
-0.33368301 0.28318414 1.2729999
-0.32921901 0.28234714 1.273
-0.11665155 0.28413066 1.2770001
-0.30020311 0.29573911 1.273
-0.2949135 0.29770571 1.27425
-0.28792715 0.2979711 1.273
-0.12164363 0.2979711 1.273
-0.11852577 0.29408133 1.2754999
-0.29241917 0.30212915 1.2780001
-0.2841613 0.30148447 1.2748749
-0.27500975 0.30508584 1.2757777
-0.26523522 0.30838707 1.273
-0.24663526 0.30913109 1.273
-0.13503559 0.30913109 1.273
-0.12451326 0.30616924 1.2738332
-0.11988066 0.30474335 1.2780001
-0.27113196 0.31034526 1.2780001
-0.26337522 0.31136307 1.273
-0.25271276 0.31197453 1.2755001
-0.24431035 0.31366244 1.2758571
-0.23538841 0.3151384 1.2752222
-0.22475365 0.31756768 1.2754999
-0.21538736 0.31805906 1.273
-0.16251664 0.31766421 1.275
-0.15661155 0.31731507 1.273
-0.14380252 0.31777829 1.2744285
-0.1345104 0.31466922 1.2750832
-0.12512645 0.31473944 1.2776428
-0.11913374 0.3118391 1.2780001
-0.21490584 0.32123455 1.2767501
-0.20462407 0.32204044 1.2754999
-0.19456257 0.32371661 1.2755001
-0.18503726 0.32447171 1.2757777
-0.17492335 0.32411596 1.2763332
-0.16487329 0.32401666 1.2761251
-0.15477581 0.32295641 1.2740715
-0.14551769 0.32223383 1.2757777
-0.13780674 0.32154906 1.2780001
-0.093940333 0.026585545 1.2865715
-0.088856302 0.028119083 1.2830001
-0.093557857 0.034680933 1.2880001
-0.086569905 0.035517506 1.2846668
-0.091460876 0.042907573 1.2880001
-0.084363297 0.043986313 1.2865001
-0.078058578 0.046565197 1.2830001
-0.083514661 0.052762948 1.2873751
-0.074379027 0.054661699 1.2855003
-0.067860723 0.058862612 1.2830001
-0.064749993 0.064747296 1.2853078
-0.059612457 0.067485802 1.2830001
-0.062103067 0.07339453 1.2880001
-0.057384048 0.07620465 1.2834547
-0.054480448 0.085284188 1.2856668
-0.046490218 0.086981691 1.2830001
-0.051376175 0.093154594 1.2880001
-0.046295013 0.092590027 1.2880001
-0.071816884 0.16727045 1.2840002
-0.065780684 0.16577172 1.2863334
-0.058038138 0.16733953 1.2880001
-0.074156314 0.17527919 1.2850591
-0.067440845 0.17460711 1.2880001
-0.055328187 0.17106572 1.2880001
-0.074425593 0.18399315 1.2841113
-0.067254551 0.18473412 1.2857778
-0.08392749 0.19600329 1.2841113
-0.075030237 0.19213156 1.2843636
-0.068877943 0.19195494 1.2880001
-0.093817361 0.2070796 1.2855
-0.087422296 0.20248567 1.2867501
-0.10010394 0.21370503 1.2830001
-0.097795822 0.21477179 1.2871667
-0.094400115 0.22447443 1.2850002
-0.088073432 0.22921677 1.2880001
-0.093382664 0.23480061 1.2833846
-0.085567981 0.23502727 1.2876668
-0.079858199 0.23507553 1.2830001
-0.093669452 0.24544789 1.285143
-0.085250571 0.2410728 1.2880001
-0.077911116 0.24050824 1.2880001
-0.10210351 0.25657102 1.2830001
-0.094873093 0.25443301 1.2853334
-0.10284959 0.2662729 1.2849231
-0.097388901 0.2647849 1.2880001
-0.36019778 0.27212435 1.2880001
-0.35498863 0.27441683 1.2855
-0.34980139 0.27556702 1.2830001
-0.11135157 0.27556702 1.2830001
-0.10535152 0.27484858 1.2860557
-0.098235756 0.27212435 1.2880001
-0.35116461 0.28115752 1.2880001
-0.34755188 0.28119081 1.2830001
-0.11334989 0.2851713 1.2848183
-0.10772059 0.28409329 1.2880001
-0.31051534 0.29922387 1.2880001
-0.30653393 0.29864308 1.2855
-0.11381952 0.2945109 1.2855
-0.31051534 0.30148217 1.2880001
-0.30485001 0.30109206 1.2863334
-0.29402083 0.30573589 1.2850001
-0.28456512 0.30706036 1.2830001
-0.27781653 0.3093099 1.2830001
-0.1171436 0.30384487 1.284875
-0.28341582 0.31051534 1.2880001
-0.2749792 0.31329349 1.2855
-0.26544416 0.31493375 1.2830001
-0.25490019 0.31609562 1.2846667
-0.24744794 0.31718326 1.2830001
-0.13609636 0.31830803 1.2830001
-0.12034968 0.31380898 1.2830001
-0.11810015 0.31380898 1.2830001
-0.24419446 0.3222104 1.286
-0.23469207 0.3215597 1.2844286
-0.22480293 0.32401353 1.286
-0.21496934 0.32564411 1.2838334
-0.20530197 0.32770044 1.2867501
-0.19458406 0.32843089 1.2830001
-0.18446119 0.32955566 1.2830001
-0.1743383 0.32955566 1.2830001
-0.16459037 0.32955566 1.2830001
-0.15409258 0.32955566 1.2830001
-0.14340396 0.32698146 1.2846667
-0.13460872 0.32460436 1.2853078
-0.12845573 0.32363203 1.2837143
-0.19383685 0.33234549 1.2880001
-0.18482062 0.3324517 1.2855
-0.17565434 0.33325914 1.2871667
-0.16679153 0.3324517 1.2855
-0.15525767 0.33253369 1.2880001
-0.08551532 0.048137765 1.2920001
-0.082294628 0.05509166 1.293
-0.082486615 0.061580919 1.296
-0.074143201 0.06355498 1.2945
-0.068336755 0.068336755 1.2920001
-0.071633309 0.071633309 1.2970001
-0.066050604 0.074446261 1.2945
-0.061596025 0.0848713 1.295125
-0.05776532 0.08947961 1.2920001
-0.060262945 0.093237013 1.2970001
-0.055186559 0.095621943 1.2942727
-0.044967547 0.096359298 1.2931111
-0.039796282 0.096648119 1.2970001
-0.052563287 0.10370582 1.296375
-0.045942463 0.10422677 1.2962857
-0.038659245 0.1023333 1.2970001
-0.046618503 0.11029255 1.2970001
-0.062295932 0.1676327 1.2920001
-0.062090002 0.17473751 1.2919999
-0.056989819 0.17642549 1.2950001
-0.062385961 0.18454878 1.293923
-0.080418386 0.19821434 1.2920001
-0.074472539 0.19771492 1.2936667
-0.067048222 0.19497718 1.2962857
-0.085076116 0.20509847 1.2939999
-0.075423427 0.20201351 1.2970001
-0.093868844 0.21566607 1.292909
-0.089067876 0.21262586 1.2970001
-0.091744922 0.22200005 1.2920001
-0.088953912 0.22559762 1.2953334
-0.087214306 0.23898984 1.2920001
-0.08518476 0.24543591 1.2933333
-0.077697508 0.2452209 1.2970001
-0.091744922 0.2593776 1.2920001
-0.088081919 0.2536636 1.2936666
-0.094069399 0.26483211 1.2928333
-0.36271471 0.27629989 1.2970001
-0.35905111 0.27523476 1.2920001
-0.10080615 0.2786327 1.2920001
-0.095369413 0.27553681 1.2919999
-0.08947961 0.27296945 1.2920001
-0.1032687 0.28598091 1.2945
-0.09778516 0.28425914 1.2970001
-0.10824233 0.29398733 1.2936666
-0.31268507 0.30586287 1.2970001
-0.30280563 0.3050797 1.2936667
-0.11393905 0.30525839 1.29325
-0.29600856 0.31116903 1.2970001
-0.2849561 0.31402043 1.2950001
-0.27603143 0.31863305 1.2957501
-0.26328623 0.31889144 1.2945001
-0.2593776 0.31827557 1.2920001
-0.11553064 0.31147966 1.2920001
-0.2603814 0.32178137 1.2970001
-0.25479966 0.32246754 1.2936667
-0.2451331 0.32570052 1.2945001
-0.23590977 0.32719076 1.2950001
-0.22596434 0.32790312 1.2920001
-0.21633679 0.32960212 1.2920001
-0.13705105 0.32960212 1.2920001
-0.22513326 0.33087766 1.2970001
-0.21338387 0.33163568 1.2970001
-0.20200461 0.33250958 1.2945001
-0.1940541 0.33591631 1.2945001
-0.18585975 0.33726594 1.2953334
-0.17737772 0.33769989 1.2970001
-0.16310208 0.33413273 1.2920001
-0.15290821 0.33413273 1.2920001
-0.14539714 0.33283067 1.2957501
-0.13589443 0.33272362 1.2953334
-0.082017958 0.066938937 1.3030001
-0.077127382 0.067669906 1.302
-0.081248291 0.074385166 1.3053335
-0.075502165 0.075500287 1.3048573
-0.068865679 0.077997029 1.302
-0.073455647 0.083599173 1.3062859
-0.066918463 0.085206814 1.3039231
-0.064132042 0.094576478 1.3024167
-0.058212418 0.099303536 1.302
-0.041167825 0.099494211 1.3045001
-0.061695859 0.10511474 1.3032501
-0.056785643 0.10586672 1.302
-0.04223254 0.10729348 1.302
-0.036810793 0.10700813 1.302
-0.060727578 0.11114293 1.307
-0.053786032 0.11303721 1.3053334
-0.045691043 0.11479681 1.3029376
-0.037348356 0.11398212 1.303154
-0.052936114 0.12168431 1.307
-0.044165507 0.12478841 1.3069997
-0.035519902 0.12463793 1.307
-0.041248918 0.13176738 1.307
-0.032464426 0.13329512 1.307
-0.028645083 0.13520479 1.307
-0.053279854 0.17702661 1.307
-0.056448828 0.18466607 1.3035001
-0.062824562 0.19601846 1.3030001
-0.057807177 0.19288486 1.30575
-0.082182243 0.20773844 1.302
-0.075620785 0.20729434 1.3047779
-0.066403985 0.20379779 1.3060001
-0.090172179 0.21801122 1.302
-0.085743621 0.21379434 1.304143
-0.090172179 0.22029406 1.302
-0.0869762 0.22303346 1.302
-0.081040822 0.24997097 1.302
-0.077236086 0.24921004 1.302
-0.083972216 0.25466657 1.3050001
-0.075241089 0.25360447 1.307
-0.091048561 0.26591226 1.3036667
-0.087081052 0.26124316 1.307
-0.36411297 0.27736506 1.302
-0.091486737 0.27217957 1.3045001
-0.36183015 0.28193074 1.302
-0.35840589 0.28193074 1.302
-0.10158638 0.28877926 1.302
-0.098162115 0.28877926 1.302
-0.1033297 0.29530114 1.3034286
-0.098793902 0.29333499 1.3053335
-0.31051269 0.3082211 1.307
-0.30649012 0.30877298 1.3045001
-0.11207175 0.30648571 1.3045001
-0.10794864 0.30172586 1.3053335
-0.3150959 0.31051269 1.307
-0.29217985 0.31738752 1.307
-0.2864964 0.31769523 1.302
-0.11343453 0.31051269 1.307
-0.28186762 0.32311654 1.307
-0.27508223 0.32073903 1.302
-0.26248074 0.32572404 1.3036667
-0.25567809 0.32758754 1.302
-0.24083962 0.32987037 1.302
-0.16094021 0.33900174 1.302
-0.15095454 0.33736545 1.3045001
-0.13811181 0.33443606 1.302
-0.079362877 0.079362877 1.312
-0.075912319 0.085113809 1.312
-0.061192211 0.11430243 1.317
-0.056396406 0.11701089 1.3128334
-0.05296009 0.12663998 1.3132501
-0.049458027 0.1288209 1.312
-0.034888998 0.12805411 1.3120002
-0.051824152 0.13474572 1.3136667
-0.045290593 0.13625176 1.3133891
-0.035655789 0.1368722 1.3120002
-0.04244547 0.14426135 1.3164445
-0.034677695 0.14446777 1.3150771
-0.027856434 0.1434246 1.3130001
-0.040409949 0.15240324 1.317
-0.051758401 0.17827894 1.312
-0.052525192 0.18556345 1.3120002
-0.049583685 0.18565345 1.3153334
-0.054396607 0.19548115 1.3151819
-0.049646508 0.19050404 1.317
-0.061037332 0.20384459 1.3136667
-0.058038842 0.20256376 1.3153334
-0.084549941 0.21725483 1.3140001
-0.079665333 0.21359545 1.317
-0.086263999 0.22198603 1.312
-0.082430042 0.2580252 1.312
-0.076728053 0.25818959 1.3128333
-0.086480238 0.26559845 1.3153334
-0.077356189 0.26324195 1.317
-0.36920992 0.27949536 1.312
-0.087989278 0.27316934 1.312
-0.36345899 0.28409612 1.312
-0.10006624 0.29789835 1.312
