# .PCD v0.7 - Point Cloud Data file format
VERSION 0.7
FIELDS x y z
SIZE 4 4 4
TYPE F F F
COUNT 1 1 1
WIDTH 1478
HEIGHT 1
VIEWPOINT 0 0 0 1 0 0 0
POINTS 1478
DATA ascii
-0.13717508 0.22498283 1.175154
-0.20223999 0.23009957 1.177
-0.19531195 0.23127881 1.177
-0.1839169 0.23387575 1.1767143
-0.17506595 0.23550589 1.1751333
-0.16562465 0.23717719 1.1734446
-0.15527782 0.23857255 1.1730002
-0.14444233 0.23525335 1.1737502
-0.1383459 0.2341142 1.1764287
-0.17386447 0.24041794 1.177
-0.16553608 0.2421868 1.177
-0.1560265 0.24295352 1.1764287
-0.14696302 0.24130237 1.177
-0.26163152 -0.074007325 1.189
-0.25690734 -0.076926269 1.1826001
-0.2576313 -0.050903648 1.1850001
-0.27245018 -0.041436527 1.1816669
-0.26373628 -0.042499922 1.1824286
-0.25720361 -0.044160534 1.1878234
-0.24530129 -0.041346814 1.189
-0.2261914 -0.04065191 1.189
-0.19075127 -0.04065191 1.189
-0.18762419 -0.04065191 1.189
-0.15382877 -0.043367557 1.1886923
-0.11219229 -0.043628193 1.1850001
-0.27477506 -0.03399305 1.1843042
-0.26478529 -0.035345156 1.1818888
-0.25456974 -0.034329321 1.1837691
-0.24457668 -0.034148939 1.1863332
-0.23453026 -0.033355415 1.1889998
-0.22584395 -0.033355411 1.189
-0.21576782 -0.030228343 1.189
-0.2044508 -0.032461964 1.189
-0.19450623 -0.0340131 1.1881301
-0.18442179 -0.034385566 1.1885197
-0.1752858 -0.033140164 1.1887333
-0.16506869 -0.032431699 1.1882
-0.15535967 -0.034779754 1.1857271
-0.11153216 -0.038567197 1.189
-0.1038182 -0.033083819 1.1866001
-0.094198532 -0.031469006 1.1886001
-0.085281752 -0.030809449 1.1884286
-0.28438166 -0.024402151 1.1862309
-0.27624798 -0.025433788 1.1822308
-0.26401255 -0.025883583 1.1810001
-0.25331402 -0.026573813 1.1810001
-0.24505898 -0.025401929 1.1812353
-0.23552179 -0.025081808 1.1849999
-0.2253304 -0.024787381 1.1856315
-0.21522343 -0.024959579 1.186
-0.20501758 -0.025119685 1.1858419
-0.19508484 -0.024907857 1.1836667
-0.18530604 -0.024918374 1.1841999
-0.17534879 -0.024770215 1.1849999
-0.16574755 -0.025656121 1.1831335
-0.15737218 -0.027954269 1.1810001
-0.10111853 -0.027264038 1.1810001
-0.094296373 -0.02487156 1.1819999
-0.084572718 -0.025158189 1.1845555
-0.077705801 -0.024584187 1.1882001
-0.29264036 -0.017276762 1.1823335
-0.28590602 -0.017967578 1.1823334
-0.27850735 -0.019671524 1.1810001
-0.24123499 -0.019671524 1.1810001
-0.23632191 -0.018793603 1.1815716
-0.2246695 -0.019671524 1.1810001
-0.21535142 -0.019671524 1.1810001
-0.20499799 -0.019671524 1.1810001
-0.19567989 -0.019671524 1.1810001
-0.18463624 -0.017600836 1.181
-0.17543317 -0.018751219 1.1810001
-0.16876096 -0.019671524 1.1810001
-0.10042831 -0.015530149 1.1810001
-0.094228737 -0.015532536 1.1811599
-0.084912702 -0.015532078 1.1811999
-0.077118032 -0.015012041 1.1852221
-0.31527913 -0.00207244 1.1830001
-0.1016707 -0.004348442 1.181
-0.094405182 -0.0051847114 1.1833999
-0.085114345 -0.0051867105 1.184
-0.075660296 -0.0051817656 1.1822799
-0.069368005 -0.0041413736 1.1810001
-0.33139315 0.0072719501 1.1850001
-0.32539526 0.0042334232 1.1846925
-0.31836808 0.0025883582 1.1810001
-0.11078174 0.0072474033 1.1810001
-0.10479072 0.0051915841 1.1835598
-0.094752617 0.0052098199 1.1877197
-0.084844515 0.0054890485 1.186818
-0.075605825 0.0049357475 1.1870868
-0.067897178 0.0057294546 1.187
-0.11078174 0.011388777 1.1810001
-0.10624751 0.015015157 1.1856666
-0.082693629 0.012160827 1.189
-0.075049683 0.012508281 1.189
-0.067544714 0.014592995 1.189
-0.34472176 0.027235184 1.1835001
-0.10674951 0.024998151 1.1880001
-0.35149136 0.035820726 1.1867143
-0.34498104 0.034070309 1.1844285
-0.33855727 0.038307704 1.1810001
-0.1039525 0.033403277 1.1834
-0.35196909 0.041346814 1.189
-0.34522837 0.044514965 1.186684
-0.33855727 0.045209993 1.1810001
-0.10316502 0.045258854 1.1823334
-0.099023886 0.047948405 1.189
-0.35127419 0.053160191 1.189
-0.3449899 0.054224815 1.1879333
-0.33711013 0.055917706 1.1831819
-0.34119809 0.06497357 1.189
-0.3354573 0.065103903 1.1841429
-0.34274304 0.074312113 1.1883334
-0.3370564 0.07311444 1.1830001
-0.3627401 0.10736273 1.189
-0.35506007 0.10469131 1.1847894
-0.34822047 0.10629525 1.1810001
-0.36169776 0.11570159 1.189
-0.35458973 0.1145383 1.1884667
-0.3449468 0.11612189 1.1841429
-0.33780858 0.11812995 1.1820002
-0.071438693 0.11906448 1.1810001
-0.068619326 0.11852971 1.186
-0.34365967 0.12409414 1.187
-0.33809528 0.12548868 1.1830001
-0.073964238 0.12584913 1.1835716
-0.069064677 0.12251387 1.1876668
-0.34293535 0.13133693 1.189
-0.33809525 0.13171127 1.1830001
-0.083308756 0.13793385 1.1830001
-0.07727807 0.13434614 1.1858889
-0.3444432 0.14880627 1.187
-0.091148615 0.14679731 1.1842
-0.086071357 0.14302377 1.1865001
-0.3450343 0.15509807 1.1873529
-0.33623651 0.15612105 1.1827143
-0.095535234 0.15507317 1.1857274
-0.34224042 0.16295509 1.189
-0.3344363 0.16474779 1.1875
-0.32643181 0.16598602 1.1833335
-0.31992108 0.16876096 1.1810001
-0.10252848 0.1664848 1.1835456
-0.098757371 0.16529147 1.1858001
-0.33042705 0.17198884 1.189
-0.32439461 0.17417584 1.1881111
-0.31752506 0.17553701 1.1832224
-0.11078174 0.17497303 1.1810001
-0.10483928 0.17362417 1.1859231
-0.098912835 0.17387603 1.1876668
-0.32052466 0.18189123 1.189
-0.31498879 0.18475226 1.1866
-0.3068082 0.18699534 1.1850001
-0.11078174 0.18739714 1.1810001
-0.3037529 0.19132707 1.1874001
-0.29528236 0.19547038 1.1860001
-0.28586107 0.19748318 1.1825
-0.1122608 0.19715895 1.1810001
-0.10563544 0.19556363 1.1822307
-0.2915124 0.20186974 1.189
-0.2850464 0.20474009 1.18775
-0.27560151 0.20640844 1.1839335
-0.26638365 0.20833896 1.1823335
-0.12196215 0.20764874 1.1823335
-0.11523541 0.20517406 1.18425
-0.10598549 0.20423204 1.1852221
-0.28188303 0.21338531 1.189
-0.27483457 0.21445768 1.1875
-0.26552939 0.21539159 1.1869047
-0.25642258 0.21533094 1.1830001
-0.24848241 0.21845745 1.1810001
-0.23709361 0.21845745 1.1810001
-0.13148861 0.21845745 1.1810001
-0.12478922 0.21530518 1.1849999
-0.11820666 0.21194161 1.1880001
-0.26267385 0.22202197 1.189
-0.25429481 0.22412309 1.1867144
-0.24446078 0.22444217 1.1835999
-0.23521996 0.22450118 1.185842
-0.22472137 0.22593395 1.1840001
-0.21561027 0.22777551 1.1810001
-0.20810401 0.22881088 1.1810001
-0.13242085 0.22582757 1.1838
-0.1279192 0.22360563 1.1863334
-0.25329268 0.23036082 1.189
-0.24530129 0.23175065 1.189
-0.23327942 0.23077777 1.189
-0.22458272 0.2324969 1.1882001
-0.21497218 0.23470613 1.1846
-0.20512828 0.23523478 1.1840001
-0.19539854 0.23720959 1.183154
-0.18612246 0.23791887 1.1816667
-0.13460913 0.23447482 1.1846924
-0.2115984 0.24078439 1.189
-0.20445082 0.24138002 1.189
-0.19389221 0.24324942 1.1878
-0.18322113 0.24438685 1.1875
-0.17499501 0.24621071 1.1865386
-0.16493089 0.24699235 1.1832224
-0.1537465 0.24708959 1.183
-0.14434355 0.24587001 1.1860909
-0.13885728 0.24274695 1.1850001
-0.17442101 0.25190285 1.189
-0.16592422 0.25253457 1.189
-0.15778291 0.25151786 1.1880001
-0.2558364 -0.053098124 1.197
-0.23191077 -0.051419131 1.197
-0.22497985 -0.052313723 1.1961112
-0.21617024 -0.052118715 1.197
-0.19203471 -0.051419131 1.197
-0.18993597 -0.051419131 1.197
-0.17445776 -0.054042559 1.1970003
-0.16457663 -0.054546993 1.1942003
-0.15722813 -0.051944543 1.1930001
-0.25369522 -0.046619818 1.1950001
-0.24461675 -0.045573957 1.1950001
-0.23480985 -0.044512 1.1939527
-0.22477347 -0.045146432 1.1930003
-0.21471716 -0.045042392 1.1947603
-0.20463423 -0.044352226 1.1950002
-0.19524917 -0.044706758 1.1942003
-0.18511362 -0.045405734 1.1947395
-0.17498825 -0.04506021 1.1952403
-0.16437486 -0.045146435 1.1930003
-0.15673009 -0.046466213 1.193
-0.11203245 -0.044320464 1.1943334
-0.10586272 -0.044231385 1.194524
-0.095927499 -0.043107048 1.1954002
-0.087329589 -0.041311599 1.1930001
-0.24159443 -0.038696945 1.1930001
-0.23531926 -0.038696945 1.1930001
-0.22346611 -0.035907973 1.193
-0.21440199 -0.03555936 1.1930002
-0.20543744 -0.037800491 1.193
-0.19871403 -0.038696945 1.1930001
-0.17335184 -0.037651081 1.193
-0.16569462 -0.037800491 1.193
-0.10520516 -0.0377817 1.1934444
-0.095635861 -0.036483068 1.1935334
-0.084591895 -0.035743918 1.1930001
-0.076119438 -0.031651832 1.1935
-0.072203733 -0.025113575 1.1936666
-0.068209052 -0.02308614 1.197
-0.072777368 -0.017538812 1.1945001
-0.070072845 0.008366907 1.1930001
-0.10239379 0.017191557 1.1935713
-0.095276251 0.015708426 1.1942803
-0.085281074 0.016792366 1.1932107
-0.074256301 0.017779674 1.1930001
-0.065889388 0.01568795 1.1930001
-0.10303298 0.024799244 1.1952223
-0.095492683 0.025184879 1.1970003
-0.084971622 0.025177512 1.1966002
-0.074394986 0.025149986 1.1952002
-0.067981116 0.025100721 1.1930001
-0.10214358 0.033647094 1.1941429
-0.095966898 0.034004301 1.1967649
-0.084474288 0.032705367 1.1970001
-0.074205451 0.03103137 1.1969999
-0.068209052 0.030431731 1.197
-0.35141009 0.04706385 1.1930001
-0.10144874 0.040788669 1.1930001
-0.097191654 0.044605408 1.1960769
-0.35389575 0.056366596 1.1943334
-0.34722662 0.058568347 1.1930001
-0.10178889 0.051419131 1.197
-0.097591408 0.051419128 1.197
-0.35321793 0.063172072 1.197
-0.34676319 0.064952582 1.1950001
-0.34571528 0.071237937 1.1950001
-0.36623013 0.099690147 1.197
-0.36498404 0.10618098 1.1958572
-0.36308202 0.11333196 1.197
-0.35733664 0.11469635 1.1930001
-0.065889388 0.11818255 1.1930001
-0.36130682 0.12462886 1.1946001
-0.35533321 0.12355487 1.194895
-0.3480415 0.12718022 1.194
-0.070072845 0.12759534 1.1930001
-0.0656863 0.12456278 1.1956668
-0.34784761 0.13354672 1.1963334
-0.073310077 0.13562779 1.1946667
-0.068209052 0.13222063 1.197
-0.083630152 0.14641595 1.1936152
-0.076866254 0.14309642 1.1964285
-0.091950238 0.15520735 1.1946
-0.085326999 0.15263858 1.196273
-0.35114738 0.16247351 1.1956667
-0.3459138 0.16585495 1.1941431
-0.33885974 0.168384 1.1930001
-0.095959932 0.16447581 1.1949999
-0.34104526 0.17104732 1.197
-0.33460933 0.17435235 1.1956668
-0.32735521 0.17716926 1.1930001
-0.10534143 0.17859395 1.1936666
-0.096621469 0.17249486 1.1954
-0.32454637 0.18466167 1.1958572
-0.31480488 0.18790679 1.1930001
-0.11136805 0.18309587 1.1962001
-0.10743286 0.1838509 1.1964285
-0.31254014 0.19311184 1.1950001
-0.30526614 0.19610186 1.1947777
-0.2970252 0.1997599 1.1930001
-0.10876979 0.19348471 1.1930001
-0.30186877 0.20112924 1.197
-0.29634207 0.20546663 1.1970001
-0.28970414 0.2081268 1.1930001
-0.11190738 0.2081268 1.1930001
-0.29067549 0.21512085 1.197
-0.28654954 0.21475632 1.1938
-0.26669514 0.21858543 1.1930001
-0.12097152 0.21788819 1.1930001
-0.11478835 0.21491382 1.1950001
-0.10821451 0.21245404 1.1938001
-0.28123116 0.22246644 1.197
-0.27477205 0.2228974 1.1945384
-0.26515672 0.22642371 1.1941429
-0.25763097 0.22834682 1.1930001
-0.12355235 0.22542855 1.195154
-0.11787923 0.22211665 1.197
-0.26129314 0.23191077 1.197
-0.25356865 0.23343477 1.1962001
-0.24462739 0.23548965 1.1948181
-0.23523287 0.23537229 1.1932666
-0.22671993 0.2378758 1.193
-0.13249396 0.23715183 1.1938
-0.12843998 0.23329107 1.1960001
-0.23484901 0.24114522 1.197
-0.22509779 0.24359275 1.1962727
-0.21510889 0.24444623 1.1950001
-0.20561621 0.24644485 1.1941999
-0.19604129 0.24833444 1.193
-0.18625875 0.24805975 1.193
-0.14328326 0.24996133 1.1930001
-0.13709716 0.24552014 1.1938
-0.2025284 0.25079942 1.197
-0.19203471 0.25079942 1.197
-0.18381543 0.25297984 1.1954
-0.17495197 0.25687736 1.1950001
-0.16433731 0.25749892 1.194
-0.15478437 0.2549476 1.1956668
-0.14512524 0.2533614 1.1947778
-0.13840024 0.25268689 1.1960001
-0.16894858 0.26129314 1.197
-0.25192559 -0.06102968 1.2044001
-0.24739884 -0.06132108 1.2060001
-0.22519636 -0.06026382 1.2060001
-0.2167383 -0.060263824 1.2060001
-0.20193666 -0.06026382 1.2060001
-0.19441837 -0.061438553 1.2060002
-0.18469764 -0.062505983 1.2057335
-0.17523655 -0.062146198 1.2056001
-0.16843514 -0.060835406 1.2033334
-0.25258169 -0.055368509 1.2029999
-0.24559093 -0.054273497 1.2044002
-0.23542687 -0.054900158 1.20425
-0.22440577 -0.05670296 1.2038182
-0.21396938 -0.056113813 1.2041539
-0.20542914 -0.054674972 1.2044443
-0.19562231 -0.055240516 1.204
-0.18491004 -0.05504005 1.2022221
-0.17597681 -0.057956439 1.202
-0.25184706 -0.049526405 1.202
-0.24482203 -0.049526405 1.202
-0.23920201 -0.049526405 1.202
-0.20590338 -0.049104907 1.202
-0.19915938 -0.049526405 1.202
-0.066533737 -0.021473074 1.2046667
-0.070601471 -0.017913807 1.202
-0.0948378 0.036091048 1.202
-0.085861675 0.036567114 1.2023076
-0.075058058 0.036242176 1.204
-0.068645924 0.036965527 1.2046667
-0.35511488 0.049526405 1.202
-0.092822514 0.045360141 1.2032001
-0.085389666 0.045251206 1.2049998
-0.07575845 0.045052901 1.2058095
-0.068721898 0.042290401 1.2060001
-0.36143738 0.057956435 1.202
-0.35932988 0.057956435 1.202
-0.10010657 0.054795172 1.202
-0.094992086 0.053829089 1.2040001
-0.084933221 0.051805738 1.2060001
-0.075314432 0.055159867 1.2099998
-0.36052567 0.065021485 1.2060001
-0.35534903 0.066386461 1.202
-0.35441241 0.070601471 1.202
-0.35651991 0.12890916 1.202
-0.063328646 0.12771456 1.2040001
-0.35570499 0.13405214 1.2040002
-0.34879234 0.13382667 1.202
-0.070601471 0.13698792 1.202
-0.066051923 0.13548426 1.2036002
-0.074136831 0.14588006 1.2034545
-0.068017058 0.14132042 1.2060001
-0.091676541 0.15911674 1.202
-0.084947251 0.1573603 1.202889
-0.077283427 0.15272234 1.2035
-0.35254097 0.16782555 1.204
-0.34879234 0.16965428 1.202
-0.093184412 0.16527154 1.2033334
-0.089062907 0.16228677 1.2046667
-0.35206759 0.17021886 1.2060001
-0.34512532 0.17534466 1.2043999
-0.33720106 0.17808431 1.202
-0.34149498 0.18079145 1.2060001
-0.33504176 0.18350944 1.2049092
-0.32835692 0.18706137 1.2028
-0.1110123 0.18924955 1.2060001
-0.10526019 0.18481828 1.2046667
-0.32351395 0.19291343 1.2046667
-0.31567389 0.19693916 1.2031429
-0.30874974 0.19915938 1.202
-0.1110123 0.19242132 1.2060001
-0.10889778 0.19242132 1.2060001
-0.31253061 0.20349434 1.2052
-0.30566496 0.20526339 1.2026153
-0.29715845 0.20969692 1.202
-0.30375659 0.21286169 1.2056001
-0.29582414 0.21514656 1.2029999
-0.28978217 0.21812694 1.202
-0.11169785 0.21812694 1.202
-0.29224387 0.22251236 1.2052002
-0.28503796 0.22536756 1.2038182
-0.27502963 0.22866447 1.202
-0.12118163 0.22866447 1.202
-0.11539529 0.22383051 1.2032
-0.2801739 0.23153993 1.2060001
-0.27386937 0.23266867 1.2050002
-0.26478112 0.23522997 1.2039999
-0.25590602 0.23798433 1.2025
-0.24973954 0.23920201 1.202
-0.12565657 0.23468366 1.2045001
-0.2537424 0.24264115 1.2060001
-0.24534813 0.24281771 1.2032
-0.23593485 0.24627426 1.2036
-0.22444947 0.24847503 1.202
-0.21559791 0.24889655 1.202
-0.13383369 0.24551255 1.2036667
-0.23224477 0.25127545 1.2060001
-0.22549844 0.2517789 1.2060002
-0.21361686 0.25377369 1.2054287
-0.20521539 0.25510886 1.2038182
-0.19524711 0.25646207 1.2038667
-0.18617821 0.25763455 1.2037144
-0.15384799 0.25816956 1.202
-0.14436421 0.25816956 1.202
-0.13628446 0.25460947 1.2051113
-0.18236314 0.26181579 1.2052
-0.17506085 0.26396644 1.2044001
-0.16508618 0.26448128 1.2041539
-0.15477011 0.26299068 1.2047693
-0.14509615 0.2622526 1.2049092
-0.13850106 0.26114321 1.2060001
-0.24150121 -0.071778543 1.21
-0.23497997 -0.072120517 1.2142501
-0.2262679 -0.0721687 1.2182857
-0.21907462 -0.071599998 1.2190001
-0.20405395 -0.072164133 1.2165002
-0.19497338 -0.072596125 1.2129091
-0.18837638 -0.071306311 1.2140001
-0.27635461 -0.068607762 1.2190001
-0.24422896 -0.065141752 1.2101997
-0.23467052 -0.064902551 1.2103332
-0.2244025 -0.066044517 1.2119472
-0.21478657 -0.065466136 1.2140999
-0.20520258 -0.065023363 1.2122273
-0.19576609 -0.0666705 1.2103335
-0.18605848 -0.067676917 1.21
-0.17724447 -0.066511534 1.2106668
-0.24291556 -0.05834217 1.21
-0.23867249 -0.058342166 1.21
-0.063865826 -0.020225357 1.2142501
-0.071188837 -0.014873526 1.2120001
-0.065805525 -0.018142324 1.2173334
-0.058655575 -0.017061248 1.2165
-0.090165168 0.049856033 1.21
-0.071601748 0.047734499 1.21
-0.067889065 0.047734499 1.21
-0.092983469 0.056683518 1.2108001
-0.08484529 0.055938758 1.2109231
-0.068949834 0.055159867 1.21
-0.093170024 0.062684469 1.216
-0.084681496 0.063516125 1.2161429
-0.075172722 0.064630464 1.213652
-0.068462849 0.065808304 1.2155
-0.073737308 0.071599998 1.2190001
-0.0604637 0.12835276 1.21
-0.35959989 0.1368389 1.21
-0.061564445 0.13480854 1.2108001
-0.057569295 0.13744695 1.2116001
-0.071071364 0.14744657 1.21
-0.064846404 0.14458637 1.2127143
-0.056923371 0.14306217 1.2160001
-0.074099131 0.15583858 1.2122728
-0.067788467 0.1510604 1.2177501
-0.091376722 0.16787992 1.2120001
-0.084779412 0.16456996 1.2146922
-0.077211648 0.1624219 1.214875
-0.36099219 0.1746185 1.2190001
-0.35500836 0.17564607 1.2142501
-0.34899223 0.17502651 1.21
-0.35408154 0.18202786 1.219
-0.34591594 0.18611334 1.2165834
-0.33679342 0.18775569 1.21
-0.1050159 0.18563417 1.21
-0.34277162 0.19315968 1.219
-0.33522257 0.1959575 1.2170001
-0.3263649 0.19762993 1.2136251
-0.3318179 0.20251045 1.2190001
-0.32417643 0.20454906 1.2166922
-0.31613421 0.20641719 1.2121251
-0.32166564 0.21052536 1.2190001
-0.31410825 0.21385023 1.216625
-0.30548617 0.21734203 1.2113334
-0.3109791 0.22121193 1.2190001
-0.30391285 0.2245148 1.2163845
-0.29633787 0.22638229 1.2137501
-0.28958929 0.22806484 1.21
-0.11251102 0.22730926 1.2124287
-0.10943956 0.225256 1.2120001
-0.29368114 0.23280863 1.2181667
-0.28538656 0.23433651 1.2131667
-0.27587736 0.23764153 1.2115
-0.26625243 0.23867249 1.21
-0.12289451 0.23713745 1.2130001
-0.1165812 0.23346286 1.216
-0.28319401 0.24044774 1.2190001
-0.27381489 0.24350925 1.2172
-0.26548263 0.24484389 1.2146924
-0.25663364 0.24624358 1.2124445
-0.2446835 0.24821942 1.21
-0.1304743 0.24715863 1.21
-0.12633671 0.24397533 1.2161666
-0.26288953 0.25113431 1.2190001
-0.25452617 0.25239393 1.2173333
-0.24478775 0.25355205 1.2157779
-0.23517318 0.25553936 1.2130715
-0.22519872 0.25786412 1.2148889
-0.21663487 0.25698957 1.2113334
-0.2068495 0.25988784 1.21
-0.13278733 0.25620195 1.2135456
-0.12930745 0.25327164 1.2190001
-0.21287352 0.2630668 1.2181667
-0.20411816 0.26484343 1.2152001
-0.19523264 0.26491877 1.2128462
-0.1861805 0.26515624 1.2108001
-0.17608726 0.26837397 1.21
-0.16123652 0.26837397 1.21
-0.1555084 0.26794964 1.21
-0.14501138 0.26772678 1.2113334
-0.13518305 0.26518473 1.2154375
-0.1941393 0.27037013 1.2190001
-0.1848776 0.27165252 1.2190001
-0.17510152 0.27348605 1.2154167
-0.16547902 0.27442703 1.2143333
-0.15553711 0.27392569 1.2165834
-0.1453559 0.27302891 1.2156
-0.13785671 0.27143878 1.2190001
-0.22433694 -0.0816314 1.2270001
-0.21674751 -0.081213087 1.2270001
-0.2829012 -0.073145561 1.2270001
-0.27983463 -0.072907105 1.223
-0.23555179 -0.076012045 1.2255001
-0.22474492 -0.076587647 1.2246666
-0.21506789 -0.07506565 1.223222
-0.20853576 -0.075587511 1.223
-0.28440088 -0.065278262 1.2252221
-0.27830082 -0.065443337 1.2238001
-0.28397685 -0.059161849 1.2270001
-0.071834944 -0.011793797 1.223
-0.065375254 -0.014462061 1.2248822
-0.05732926 -0.012669763 1.2246001
-0.06561587 -0.0096810302 1.2270001
-0.09194801 0.068337046 1.2243334
-0.085541405 0.068914987 1.2235
-0.091431953 0.073145561 1.2270001
-0.084807135 0.075077593 1.2261578
-0.075867608 0.074793346 1.2258002
-0.069690615 0.073979266 1.223
-0.084977932 0.082826592 1.2270001
-0.061963677 0.14864089 1.2256669
-0.057363629 0.14803377 1.2254002
-0.071834944 0.15975234 1.223
-0.065881796 0.15504377 1.2253333
-0.059161849 0.15166947 1.2270001
-0.082556576 0.16832964 1.223
-0.074367411 0.16565296 1.2250001
-0.068197474 0.16113538 1.2270001
-0.3623912 0.17905128 1.223
-0.093278207 0.17333309 1.223
-0.083831251 0.17089213 1.2260002
-0.36240688 0.18404028 1.2235715
-0.35577953 0.18673511 1.2229999
-0.36088726 0.19200708 1.2270001
-0.35445505 0.19368444 1.2255458
-0.34671924 0.196555 1.2235
-0.10524383 0.19545108 1.2250001
-0.34374008 0.20280693 1.2258574
-0.33558708 0.20577289 1.2229998
-0.32808197 0.20907184 1.223
-0.33417216 0.21167672 1.2256668
-0.32447085 0.21400668 1.2244545
-0.31671706 0.21807802 1.223
-0.31487873 0.2242993 1.2258574
-0.30914044 0.22765601 1.223
-0.31086862 0.23126905 1.2270001
-0.30397356 0.23332278 1.2252223
-0.2953549 0.23714271 1.224
-0.11293658 0.23696814 1.2243333
-0.29210708 0.24163124 1.2250001
-0.28439891 0.2452583 1.2252222
-0.2760402 0.24680007 1.224
-0.269113 0.24981405 1.223
-0.12310454 0.2468067 1.2234446
-0.11669222 0.24455217 1.2263848
-0.27429584 0.25170678 1.2270001
-0.26434237 0.25522196 1.2245002
-0.25588965 0.2576766 1.223
-0.24787225 0.25806656 1.2240001
-0.12633118 0.25481507 1.2254002
-0.1183237 0.25063109 1.2270001
-0.2613878 0.2613878 1.2270001
-0.25600946 0.2613878 1.2270001
-0.24521096 0.26132032 1.2250001
-0.23511082 0.26359415 1.2260001
-0.22439913 0.26599783 1.2255715
-0.21628189 0.26701376 1.2240911
-0.20799968 0.269113 1.223
-0.13058607 0.26654786 1.2260001
-0.12858041 0.26182088 1.2256669
-0.21190698 0.2721445 1.2270001
-0.20439768 0.27261853 1.2255001
-0.19435419 0.27519336 1.2262001
-0.18545605 0.27637783 1.2240911
-0.1760492 0.27940577 1.223
-0.16189666 0.27876246 1.223
-0.15546368 0.27897689 1.223
-0.14410383 0.27784166 1.2236668
-0.13471757 0.27546871 1.2248464
-0.1848001 0.2816104 1.2270001
-0.17452417 0.28310606 1.2263335
-0.16463538 0.2835499 1.2256668
-0.15476848 0.28267065 1.2260002
-0.14629112 0.2812877 1.2270001
-0.13876143 0.28074986 1.2270001
-0.29239026 -0.070802227 1.233
-0.23513252 -0.079099879 1.2360001
-0.30014613 -0.066097163 1.2360001
-0.29437533 -0.064670414 1.2336003
-0.30014613 -0.057428677 1.2360001
-0.29435793 -0.055449814 1.235158
-0.28791487 -0.056643188 1.2346667
-0.29277793 -0.046159659 1.2360001
-0.28931051 -0.045509521 1.2360001
-0.070800476 -0.0081047835 1.233
-0.0649084 -0.0075708935 1.2340001
-0.057242826 -0.0097204801 1.2320001
-0.093244605 0.074883699 1.2320002
-0.087484322 0.078843892 1.2320001
-0.073659644 0.07841187 1.2320001
-0.066276006 0.075505547 1.2320002
-0.091804534 0.081004001 1.2320001
-0.084702834 0.084813274 1.2324002
-0.074563801 0.08536993 1.2326403
-0.066963308 0.083974153 1.2320002
-0.081266999 0.092102602 1.2360001
-0.073807001 0.092727229 1.2335001
-0.062103067 0.15714775 1.2320001
-0.056251191 0.15516223 1.2340001
-0.071823552 0.16794829 1.2320001
-0.064583234 0.16446139 1.2334547
-0.059595801 0.162534 1.2360001
-0.093033619 0.17633449 1.2340001
-0.084965751 0.17510265 1.233778
-0.075964913 0.17206302 1.2344
-0.068264283 0.17011891 1.2360001
-0.36325797 0.19548965 1.2320001
-0.3564176 0.19872981 1.2320001
-0.36082548 0.2004586 1.2360001
-0.3543241 0.20262572 1.2360001
-0.34718156 0.207505 1.2337143
-0.34270453 0.21254809 1.2342857
-0.33482063 0.21756238 1.2346667
-0.32725617 0.21853079 1.2320001
-0.33048579 0.22212979 1.2360001
-0.32454443 0.22393468 1.2340001
-0.31824052 0.22741784 1.2333335
-0.31280872 0.23488121 1.2346667
-0.30734953 0.23770571 1.2336
-0.10943956 0.23946676 1.2360001
-0.30231324 0.24235626 1.2360001
-0.29483142 0.24554801 1.2328002
-0.28729421 0.24949232 1.2320001
-0.11247984 0.24609785 1.2320002
-0.10935102 0.2446873 1.2350001
-0.29364479 0.25030234 1.2360001
-0.28374016 0.25341687 1.2353334
-0.27531892 0.25611994 1.2340001
-0.26936984 0.25747174 1.2340001
-0.12253696 0.25697204 1.2333335
-0.11622076 0.25409025 1.2344002
-0.10943956 0.25030234 1.2360001
-0.27197355 0.26113796 1.2360001
-0.26452398 0.26366064 1.2336001
-0.25472191 0.26699176 1.2346668
-0.24534042 0.26663056 1.2346667
-0.23485957 0.26835877 1.2326669
-0.13068645 0.26893327 1.2320001
-0.12478847 0.26437718 1.2349335
-0.23223688 0.2722953 1.2350001
-0.22492416 0.27358794 1.2335001
-0.21507829 0.27567115 1.2342223
-0.20625862 0.27768242 1.2344
-0.19656971 0.27919376 1.2320001
-0.13096932 0.27601206 1.2346667
-0.12808216 0.27240255 1.2346667
-0.2004586 0.28064203 1.2360001
-0.19426653 0.28305954 1.2352002
-0.18492827 0.28680396 1.2336003
-0.17505148 0.28814936 1.2345002
-0.16437849 0.28869122 1.2352002
-0.15380882 0.28672901 1.2326669
-0.14477374 0.28506845 1.2337143
-0.13582154 0.2840904 1.2345001
-0.30414721 -0.054902475 1.2426
-0.29918441 -0.051133335 1.2410001
-0.28830498 -0.051133335 1.2410001
-0.31215471 -0.040383648 1.245
-0.30415076 -0.044749442 1.245
-0.29611641 -0.04393426 1.2412499
-0.28830498 -0.048957448 1.2410001
-0.31258836 -0.035171464 1.2431818
-0.30451456 -0.035581268 1.245
-0.29374468 -0.038078018 1.2410001
-0.31368273 -0.02772283 1.245
-0.30386701 -0.028680732 1.2423334
-0.064332776 -0.002179744 1.2437999
-0.054808941 -0.0044209273 1.2431178
-0.049115248 -0.00327435 1.245
-0.060029749 0.00109145 1.245
-0.0545725 0.00109145 1.245
-0.08168342 0.096933328 1.2423334
-0.076191016 0.097395353 1.2431818
-0.062012769 0.16863121 1.2410001
-0.056117624 0.16508816 1.243
-0.093563125 0.17951065 1.2410001
-0.083771639 0.17951065 1.2410001
-0.073469751 0.17549902 1.2434
-0.065018564 0.17253648 1.243
-0.10150485 0.1877294 1.245
-0.096411414 0.18445505 1.245
-0.08549691 0.18008925 1.245
-0.079675846 0.18008925 1.245
-0.1032754 0.19417761 1.2424546
-0.36010924 0.20453334 1.2410001
-0.35664994 0.20632438 1.2426
-0.10368774 0.20191824 1.245
-0.35253835 0.21210511 1.245
-0.34515771 0.21776313 1.2420001
-0.34216648 0.22120842 1.243
-0.33492565 0.22530924 1.2432858
-0.32602036 0.22883074 1.2410001
-0.33070934 0.23029594 1.245
-0.32473487 0.23101392 1.243
-0.31710523 0.23536921 1.243
-0.10782211 0.23633502 1.2423334
-0.31106326 0.24339335 1.245
-0.30484399 0.2465443 1.243
-0.10559853 0.24494223 1.2418001
-0.30124021 0.25212494 1.245
-0.2936857 0.25477549 1.2427143
-0.2852717 0.25750637 1.2420001
-0.11214671 0.25750637 1.242
-0.10668654 0.25515664 1.2432222
-0.28268555 0.26158416 1.245
-0.27590805 0.26247722 1.2423334
-0.26849669 0.26849669 1.245
-0.12184966 0.268722 1.2410001
-0.11462099 0.26481962 1.2437501
-0.10805355 0.26085654 1.245
-0.26130483 0.27220762 1.2436666
-0.25447178 0.27517074 1.2426001
-0.24476904 0.27328229 1.2434616
-0.23589483 0.27638128 1.2432858
-0.22520427 0.27873108 1.2410001
-0.21758866 0.27960142 1.2410001
-0.12382624 0.27579945 1.2426667
-0.11896805 0.27286249 1.245
-0.25430784 0.28050265 1.245
-0.23138739 0.28050265 1.245
-0.22418384 0.28268558 1.245
-0.21475504 0.28438899 1.2446364
-0.20553422 0.28433689 1.2426668
-0.1962506 0.28783539 1.2436668
-0.14034469 0.28830498 1.2410001
-0.13490498 0.28830498 1.2410001
-0.12758042 0.28336057 1.2438571
-0.19100375 0.29141715 1.245
-0.18390933 0.29305434 1.245
-0.17362559 0.29385605 1.243
-0.16505714 0.29439354 1.2432222
-0.15490279 0.29365519 1.2435454
-0.14567569 0.29244602 1.2438
-0.13561971 0.29195142 1.2432858
-0.30354583 -0.063558333 1.25
-0.31012082 -0.051504165 1.25
-0.30792916 -0.051504165 1.25
-0.31234118 -0.045760397 1.2509091
-0.30792916 -0.04383333 1.25
-0.31012082 -0.036162499 1.25
-0.30525044 -0.034214351 1.25
-0.29822323 -0.034597021 1.25
-0.31268552 -0.025011737 1.2515
-0.30677 -0.026708139 1.2522223
-0.048216663 -0.0027395834 1.25
-0.063792817 0.0048540002 1.2533531
-0.054945085 0.0066004237 1.2535
-0.046705585 0.004920146 1.2546002
-0.055186167 0.012140957 1.2590001
-0.076708332 0.1019125 1.25
-0.048216663 0.15889584 1.25
-0.052891929 0.16621988 1.2532856
-0.049667548 0.16224733 1.2590001
-0.07342083 0.17862083 1.25
-0.063886061 0.17719859 1.2528334
-0.056163166 0.17412704 1.2562222
-0.095021084 0.18597475 1.2520714
-0.086127438 0.18509081 1.2542223
-0.074994445 0.1819697 1.2580001
-0.065119676 0.18211435 1.2590001
-0.058497336 0.18211435 1.2590001
-0.096336074 0.19451883 1.2551668
-0.089401588 0.19204786 1.2590001
-0.36162499 0.20930417 1.25
-0.10308776 0.20683774 1.2590001
-0.098051876 0.20217226 1.2567501
-0.36311528 0.21650773 1.2582726
-0.35616171 0.21672198 1.2548751
-0.10374999 0.21081115 1.2590001
-0.36312497 0.22184838 1.2590001
-0.35429516 0.2225842 1.2590001
-0.34589341 0.2263663 1.2540001
-0.3386125 0.22793333 1.25
-0.11067916 0.22902916 1.25
-0.10742322 0.22914839 1.2546667
-0.34436464 0.23468995 1.2579091
-0.33560687 0.23559324 1.2546003
-0.32585579 0.23623414 1.2522727
-0.3188875 0.23779583 1.25
-0.10483226 0.23512444 1.2557058
-0.3342275 0.24352154 1.2589999
-0.32421368 0.24437675 1.2566473
-0.31557554 0.24661557 1.2552222
-0.30792916 0.24875416 1.25
-0.10302181 0.24499144 1.2562727
-0.32283908 0.25109708 1.2590001
-0.31415996 0.25397664 1.2573999
-0.30591071 0.25580695 1.2534001
-0.29477915 0.25927415 1.25
-0.10208376 0.25474161 1.2540714
-0.30269811 0.26213297 1.2574002
-0.29498547 0.26533827 1.2568183
-0.28538042 0.26626995 1.253
-0.27659097 0.26781729 1.251
-0.11140972 0.26774862 1.25
-0.10469525 0.26491287 1.253875
-0.29138297 0.27041221 1.2590001
-0.28409839 0.27217817 1.2590001
-0.27407426 0.27407584 1.2566667
-0.26627216 0.2758804 1.2525001
-0.25478125 0.2788896 1.25
-0.24612418 0.27899918 1.25
-0.23998749 0.27943751 1.25
-0.1216375 0.27943751 1.25
-0.1145897 0.27470276 1.2522309
-0.10669845 0.27295411 1.258
-0.26439846 0.28301266 1.2572223
-0.25433001 0.28516605 1.2559091
-0.24537082 0.28541258 1.2570001
-0.2360559 0.28480893 1.2534546
-0.22636652 0.28762603 1.2527778
-0.216975 0.28820416 1.25
-0.12398764 0.28622085 1.2541112
-0.11845914 0.28155243 1.2570001
-0.23398934 0.29083112 1.2590001
-0.22448413 0.2931672 1.2578572
-0.21483564 0.29449636 1.2550002
-0.2051152 0.29388681 1.2527647
-0.19501615 0.29540384 1.2536668
-0.18580949 0.29663625 1.2516667
-0.17569859 0.29770139 1.25
-0.16437501 0.29916251 1.25
-0.15451249 0.29916251 1.25
-0.14520167 0.29745364 1.2507143
-0.13335043 0.29587159 1.2525555
-0.12705113 0.29351699 1.2575001
-0.18364747 0.30181652 1.2574002
-0.17480002 0.30277976 1.2566667
-0.16477038 0.30442882 1.2576667
-0.15485974 0.30396926 1.2567778
-0.14487259 0.30309692 1.2572223
-0.13620082 0.30185226 1.2572858
-0.067594506 0.0077567464 1.2640001
-0.043585528 0.0092342226 1.2640001
-0.038783733 0.0099729598 1.2640001
-0.063069634 0.015240611 1.2661817
-0.055444658 0.016000669 1.2648572
-0.045466918 0.015528047 1.265
-0.038875785 0.015552944 1.2670001
-0.053975001 0.022108752 1.268
-0.04434102 0.022602804 1.268
-0.037424315 0.023343882 1.268
-0.048781823 0.16630425 1.2646667
-0.052737199 0.17681533 1.2665
-0.048832085 0.17091668 1.266
-0.083193325 0.18746758 1.2653333
-0.075466976 0.18534662 1.266
-0.064473569 0.18563943 1.268
-0.055024862 0.18174879 1.268
-0.092043862 0.19795395 1.265
-0.086913615 0.19382311 1.267
-0.10083771 0.20832404 1.2640001
-0.093483567 0.20500562 1.2657499
-0.10296345 0.21591318 1.2656
-0.097114585 0.21474351 1.2679999
-0.36181438 0.22419348 1.266
-0.35607862 0.22703212 1.2653333
-0.10413804 0.22513576 1.2644211
-0.098488942 0.22521286 1.268
-0.35511968 0.23439917 1.2656
-0.34831485 0.2375042 1.2640001
-0.11116134 0.23010395 1.268
-0.10157645 0.23233302 1.2640001
-0.096586458 0.23425213 1.2663999
-0.35237792 0.24045914 1.2640001
-0.34541067 0.2445284 1.2645714
-0.33486983 0.24843752 1.2640001
-0.10139176 0.24322942 1.2640001
-0.097772099 0.24474195 1.2657778
-0.34018874 0.25154021 1.2640001
-0.33474243 0.25307044 1.2675
-0.32552949 0.2545251 1.2656
-0.098855563 0.25546679 1.267
-0.31014013 0.26345235 1.268
-0.30325186 0.26705372 1.2640001
-0.10083771 0.2681618 1.2640001
-0.098855563 0.26435795 1.2670001
-0.29477778 0.27458149 1.266
-0.28473255 0.27641475 1.265
-0.27702665 0.27813476 1.2640001
-0.10308584 0.27600658 1.2644
-0.098933585 0.2745685 1.268
-0.28234977 0.28123817 1.268
-0.27413544 0.28301603 1.2659999
-0.26372939 0.28810772 1.2640001
-0.25375643 0.28921583 1.2640001
-0.12078363 0.28921583 1.2640001
-0.11440633 0.28553823 1.2654999
-0.10566438 0.28320739 1.2668571
-0.26456398 0.29013109 1.268
-0.25304985 0.29189318 1.266
-0.24416018 0.29233074 1.2651428
-0.23516643 0.29506847 1.2653334
-0.22623348 0.29776245 1.265
-0.12263304 0.2953876 1.2648
-0.11567473 0.29307893 1.2676363
-0.2217195 0.30167153 1.2666668
-0.21447912 0.30299351 1.266
-0.20476829 0.3027156 1.266
-0.19469832 0.30278197 1.2666668
-0.18552196 0.30599931 1.2646667
-0.17574571 0.3087185 1.2640001
-0.16510789 0.30916175 1.2640001
-0.15513493 0.30916175 1.2640001
-0.14516199 0.30783203 1.2640001
-0.13317969 0.30632135 1.266
-0.12629926 0.30232686 1.266
-0.18230459 0.31014013 1.268
-0.17378221 0.31236336 1.268
-0.16451877 0.31236336 1.268
-0.15441677 0.31216627 1.2672001
-0.14450973 0.31069595 1.268
-0.13672844 0.31014013 1.268
-0.065843806 0.018971942 1.273
-0.036269892 0.017297948 1.273
-0.063736737 0.024604527 1.2754999
-0.0552084 0.026538534 1.2757272
-0.044826217 0.026959002 1.2737142
-0.036579892 0.024923928 1.2729999
-0.050417099 0.030250261 1.2780001
-0.043639783 0.032201622 1.2763333
-0.035544802 0.034655068 1.275
-0.045935579 0.16805699 1.2780001
-0.050219849 0.17967546 1.273
-0.048050683 0.17544378 1.2746667
-0.074843004 0.18823063 1.27425
-0.06485492 0.18897383 1.2755001
-0.055911608 0.18562146 1.2755001
-0.084181331 0.19518457 1.2746667
-0.079546981 0.19158497 1.2780001
-0.086802974 0.20493099 1.2759999
-0.092284337 0.21555907 1.2729999
-0.087705381 0.21422799 1.2771667
-0.36381489 0.22877932 1.273
-0.093639448 0.2255024 1.2746667
-0.088510022 0.22071485 1.2780001
-0.3632569 0.2326853 1.273
-0.091874368 0.23559493 1.2763333
-0.34484297 0.24886726 1.273
-0.093059756 0.24562368 1.2761817
-0.34477472 0.25420365 1.2754999
-0.33573422 0.25710493 1.2739999
-0.32563409 0.25749037 1.27425
-0.095105194 0.25511348 1.2763332
-0.33387324 0.26160872 1.2780001
-0.32456619 0.26304901 1.2759166
-0.31616941 0.26473269 1.2754999
-0.30801508 0.2689552 1.273
-0.096972488 0.26443684 1.2763333
-0.32154906 0.27897462 1.2780001
-0.31241131 0.27561763 1.2772857
-0.30576065 0.27596554 1.2768461
-0.096162006 0.27507433 1.2754999
-0.3025026 0.28121537 1.2780001
-0.29414564 0.28246918 1.2757777
-0.2850869 0.28488639 1.2743635
-0.27565119 0.28792715 1.273
-0.10322969 0.28848514 1.273
-0.097743958 0.28374147 1.2742499
-0.28345615 0.29017842 1.2780001
-0.2739329 0.29241917 1.2780001
-0.26446551 0.29389283 1.2746667
-0.25502005 0.29667014 1.2770001
-0.24624142 0.29773068 1.2767501
-0.23993929 0.2979711 1.273
-0.1134811 0.29671121 1.2744285
-0.10592237 0.29278475 1.2763333
-0.098593444 0.29017842 1.2780001
-0.2408817 0.30138221 1.2780001
-0.23504859 0.30108744 1.2767501
-0.22636464 0.30517626 1.2770001
-0.21650335 0.30745709 1.273
-0.2055666 0.30779189 1.273
-0.19585742 0.30745709 1.2729999
-0.12432726 0.3071 1.2738333
-0.11752374 0.3036072 1.27675
-0.22071485 0.31034526 1.2780001
-0.21548642 0.31034526 1.2780001
-0.20418926 0.31174573 1.278
-0.19435887 0.31273144 1.2772857
-0.18514948 0.31436709 1.276125
-0.17488334 0.31689718 1.2754999
-0.1648329 0.31762227 1.2752222
-0.15561773 0.31682166 1.2744285
-0.14431697 0.31576535 1.276125
-0.13567133 0.3138389 1.2754999
-0.12548256 0.31146562 1.2780001
-0.17141815 0.32154906 1.2780001
-0.16559216 0.32199723 1.2780001
-0.068610564 0.024744794 1.2830001
-0.064787082 0.033219527 1.286077
-0.055400033 0.035122883 1.2852919
-0.045976941 0.03696768 1.2848183
-0.034867663 0.039366715 1.2830001
-0.053446278 0.042531192 1.2880001
-0.044520438 0.044518415 1.2868462
-0.034874894 0.044999957 1.2832505
-0.02709952 0.04742416 1.2880001
-0.041778427 0.0508116 1.2880001
-0.034083284 0.053344693 1.2873336
-0.02709952 0.055328183 1.2880001
-0.02709952 0.062103067 1.2880001
-0.043949053 0.16678934 1.2855
-0.038955562 0.16542 1.2880001
-0.044838648 0.1742844 1.2867501
-0.0508116 0.1840509 1.2880001
-0.048364822 0.1810869 1.2830001
-0.081460394 0.19790067 1.2870001
-0.075152472 0.19252302 1.2842501
-0.066533446 0.19283421 1.2863334
-0.05758648 0.19082579 1.2880001
-0.083392471 0.20472868 1.2855
-0.084678441 0.21549575 1.2836251
-0.086491935 0.22549967 1.2843636
-0.086880967 0.2346639 1.2845385
-0.091105826 0.24407364 1.2830001
-0.08615201 0.24549167 1.2867501
-0.091105826 0.25532129 1.2830001
-0.087011456 0.25531462 1.2864616
-0.34192806 0.26206985 1.2830001
-0.33608532 0.26652104 1.2858573
-0.32481092 0.26795557 1.28425
-0.31830803 0.26881844 1.2830001
-0.093215413 0.26594055 1.2839092
-0.087697051 0.26484761 1.2880001
-0.32293594 0.27212435 1.2880001
-0.31622207 0.27442238 1.2846668
-0.092971601 0.27413344 1.2855
-0.089202583 0.27212435 1.2880001
-0.31196126 0.28343511 1.2846667
-0.30548716 0.28520134 1.2858572
-0.29559517 0.2874881 1.2840002
-0.094527341 0.28551766 1.2858572
-0.30148217 0.2901907 1.2880001
-0.2947073 0.29169622 1.2880001
-0.28436685 0.29376176 1.2855
-0.2753512 0.29676703 1.2855
-0.26616827 0.29844949 1.2846667
-0.2575708 0.29806229 1.2830001
-0.10344091 0.29707068 1.2841113
-0.095893696 0.29445401 1.286889
-0.26354283 0.30193383 1.2880001
-0.2529794 0.30184481 1.2863334
-0.24529761 0.30352876 1.2855
-0.23463106 0.3063345 1.2846667
-0.22720219 0.3093099 1.2830001
-0.11382604 0.30571064 1.2830001
-0.10557583 0.30412826 1.2868237
-0.098235756 0.30148217 1.2880001
-0.23147507 0.31051534 1.2880001
-0.22328174 0.31462571 1.2863334
-0.21470004 0.31585705 1.2852223
-0.20480719 0.31733832 1.283625
-0.19554815 0.31766531 1.2830001
-0.18671072 0.31830803 1.2830001
-0.13350125 0.31765631 1.2840002
-0.1245127 0.31635988 1.2849231
-0.11597949 0.31309626 1.2880001
-0.10952722 0.31051534 1.2880001
-0.20211725 0.32180679 1.2880001
-0.19534236 0.32218316 1.2880001
-0.18436143 0.32200861 1.2870001
-0.17467655 0.32494017 1.2855002
-0.16441005 0.32594815 1.2835555
-0.15506123 0.32443002 1.2853078
-0.14525603 0.3215597 1.2844286
-0.13550422 0.3230347 1.286889
-0.12759358 0.32180679 1.2880001
-0.16598457 0.33083996 1.2880001
-0.071633309 0.035248138 1.2970001
-0.06693989 0.038412906 1.2941428
-0.063553512 0.043125205 1.2945
-0.054563832 0.046752341 1.2936666
-0.04794899 0.04794899 1.2920001
-0.053440724 0.05116665 1.2970001
-0.0449403 0.053566873 1.2945
-0.037830621 0.056859195 1.2920001
-0.042070355 0.061399981 1.2970001
-0.034676842 0.063996918 1.2958096
-0.027474206 0.06743829 1.2950001
-0.032974064 0.071633309 1.2970001
-0.026909867 0.072391331 1.2970001
-0.041908175 0.16650003 1.2920001
-0.037377559 0.1676327 1.2920001
-0.042515047 0.1757333 1.2932501
-0.038283486 0.17411816 1.293875
-0.060262945 0.18988512 1.2970001
-0.055714797 0.18988512 1.2970001
-0.045420099 0.18282621 1.2953334
-0.074391805 0.19757223 1.2941428
-0.064811096 0.1953429 1.2970001
-0.080984712 0.2061429 1.2920001
-0.077940226 0.20382921 1.2960001
-0.081462383 0.21515559 1.295125
-0.07845553 0.21148881 1.2970001
-0.081815206 0.22528034 1.2942222
-0.081598081 0.23546672 1.2947778
-0.07845553 0.23991473 1.2970001
-0.081433691 0.24430232 1.2927142
-0.07845553 0.24597894 1.2970001
-0.081628844 0.25509465 1.29325
-0.07845553 0.25469622 1.2970001
-0.33413273 0.26843885 1.2920001
-0.082678199 0.26538348 1.2951818
-0.33572629 0.27440256 1.2954615
-0.32560372 0.27622855 1.2931111
-0.091744922 0.27976537 1.2920001
-0.087681316 0.27471915 1.2941428
-0.33315173 0.28084806 1.2970001
-0.32405543 0.28084806 1.2970001
-0.31374496 0.28882658 1.2920001
-0.30808169 0.28882658 1.2920001
-0.091922447 0.28598315 1.2945
-0.089825898 0.2819851 1.2970001
-0.30391341 0.29432133 1.293923
-0.29591316 0.29705018 1.29575
-0.28656128 0.2973215 1.2920001
-0.092340007 0.29562181 1.294
-0.30131471 0.30131471 1.2970001
-0.29600856 0.30131471 1.2970001
-0.28483525 0.30187914 1.2961667
-0.2752876 0.30423966 1.2949166
-0.26456556 0.30696014 1.293
-0.25594306 0.30583021 1.29325
-0.24465314 0.30808169 1.2920001
-0.23672454 0.30921435 1.2920001
-0.10156125 0.30845925 1.2920001
-0.095893398 0.30356467 1.2936666
-0.26409185 0.31301254 1.2954615
-0.25583324 0.31309855 1.2970001
-0.24597894 0.31116903 1.2970001
-0.23510148 0.31523773 1.2965833
-0.22795701 0.31868616 1.2936667
-0.11328219 0.317175 1.2936666
-0.10581396 0.31366441 1.2947778
-0.098922193 0.31041101 1.2970001
-0.22285919 0.32178137 1.2970001
-0.21547644 0.32219481 1.2950001
-0.20516717 0.32396394 1.293
-0.19519114 0.32626903 1.2945
-0.1857432 0.32696235 1.293875
-0.17556126 0.32884702 1.2920001
-0.15290821 0.32884702 1.2920001
-0.14460208 0.32658172 1.2919999
-0.13403064 0.32733682 1.2919999
-0.12456532 0.32445884 1.2934285
-0.11696136 0.32136789 1.2953334
-0.18192586 0.33087766 1.2970001
-0.17510363 0.33201468 1.2970001
-0.16196942 0.33186743 1.2920001
-0.15618804 0.33226213 1.29575
-0.1455407 0.33087766 1.2970001
-0.13682342 0.33201468 1.2970001
-0.065591164 0.04708983 1.3042728
-0.058212418 0.049081061 1.302
-0.054341275 0.054913457 1.3049167
-0.047254786 0.057299279 1.302
-0.052477796 0.062560871 1.307
-0.046119098 0.065554895 1.3042222
-0.038237568 0.069055915 1.302
-0.043421615 0.075285427 1.3065455
-0.034989677 0.075284369 1.3022941
-0.027622363 0.0769317 1.302
-0.033847976 0.084371909 1.3055714
-0.027025782 0.084883049 1.3025556
-0.031700559 0.09128233 1.307
-0.024814051 0.09444382 1.3063333
-0.021770263 0.1019765 1.307
-0.036525439 0.17920294 1.302
-0.052505322 0.1883343 1.302
-0.043589909 0.18746591 1.3047779
-0.03637781 0.18396552 1.3050001
-0.065121211 0.19822596 1.3032501
-0.053226158 0.19230975 1.30575
-0.044686329 0.1922085 1.307
-0.074009873 0.20583983 1.3024546
-0.065918118 0.2062857 1.3064443
-0.057672102 0.20891814 1.307
-0.074924693 0.21515104 1.3034285
-0.065552019 0.21523011 1.3069998
-0.058435969 0.21311942 1.307
-0.075884767 0.22423604 1.3041875
-0.068060718 0.22205667 1.307
-0.077076294 0.23560058 1.305182
-0.075427964 0.2459082 1.3036667
-0.074370421 0.25515708 1.3051819
-0.081040822 0.26823369 1.302
-0.076431707 0.26483911 1.3043078
-0.33595797 0.27964789 1.302
-0.083354786 0.27633014 1.3025
-0.077136412 0.2742202 1.3055001
-0.3337616 0.28265253 1.3053335
-0.32758754 0.28193074 1.302
-0.090172179 0.28763783 1.302
-0.085160591 0.28540567 1.3052143
-0.078296565 0.28148568 1.307
-0.090172179 0.29448634 1.302
-0.087148301 0.29480559 1.3055716
-0.29448429 0.30286348 1.3036667
-0.28558329 0.30612886 1.302
-0.27736506 0.30932483 1.302
-0.092058547 0.30591613 1.3045001
-0.088226855 0.30363789 1.307
-0.28415924 0.31051269 1.307
-0.2747561 0.31258601 1.302
-0.25266647 0.31669372 1.304143
-0.24529283 0.31686592 1.3048573
-0.23855677 0.31845617 1.302
-0.22942542 0.31845617 1.302
-0.10329851 0.31788546 1.302
-0.097491249 0.3150661 1.3045001
-0.2355862 0.3224985 1.3045001
-0.22520164 0.32489127 1.3040001
-0.21499899 0.32764584 1.3045001
-0.2054556 0.32872897 1.302
-0.19594376 0.32987037 1.302
-0.12338842 0.32904345 1.3032501
-0.11444381 0.32629079 1.3042728
-0.10575875 0.32463962 1.3052143
-0.099684887 0.32197073 1.307
-0.2073904 0.33113715 1.307
-0.19339676 0.33300361 1.3053335
-0.1859106 0.33410323 1.3036667
-0.17520797 0.33500677 1.302
-0.16436447 0.33671889 1.302
-0.15416348 0.33659518 1.3026251
-0.14503102 0.33573908 1.3026251
-0.13369142 0.3357839 1.3034286
-0.12478348 0.33314532 1.3058889
-0.11435118 0.33159548 1.307
-0.10770551 0.33113715 1.307
-0.16155827 0.3403036 1.307
-0.15468346 0.34076196 1.307
-0.14437121 0.3403036 1.307
-0.13749641 0.3403036 1.307
-0.063103847 0.053878557 1.3155714
-0.057892729 0.056359146 1.312
-0.061192211 0.061192211 1.317
-0.056479488 0.065277882 1.3147274
-0.053462204 0.071923628 1.3161668
-0.048170451 0.077105708 1.3127145
-0.042818371 0.084674962 1.3140836
-0.03795616 0.08741419 1.312
-0.034947801 0.094848834 1.3140836
-0.027604479 0.097765863 1.312
-0.031721089 0.1020841 1.31575
-0.026255678 0.10309747 1.3147779
-0.035655785 0.189014 1.312
-0.060959894 0.1989823 1.312
-0.055175647 0.19778477 1.3142225
-0.044857282 0.19725703 1.3120002
-0.036621433 0.19493824 1.3157501
-0.061926506 0.20327637 1.3130001
-0.055091135 0.20491461 1.3146667
-0.046334267 0.20479766 1.3166429
-0.060959894 0.21968566 1.312
-0.054894429 0.21547209 1.3123573
-0.048722856 0.21313362 1.317
-0.070928179 0.22812034 1.312
-0.064503051 0.22518532 1.3138751
-0.056427818 0.22226803 1.3136667
-0.072569594 0.23476572 1.3140002
-0.06811963 0.23553228 1.317
-0.071740992 0.24552731 1.3128334
-0.067861013 0.24844033 1.312
-0.070161387 0.25534144 1.312
-0.065938272 0.25472537 1.3157502
-0.071311578 0.26454294 1.3120002
-0.067657806 0.26485834 1.317
-0.072136261 0.27518752 1.3145001
-0.06811963 0.27363309 1.317
-0.081663251 0.28754666 1.312
-0.076857246 0.28554726 1.3141431
-0.082738042 0.29526383 1.3134288
-0.07884521 0.29461536 1.3161666
-0.085639425 0.30480257 1.3142223
-0.092765361 0.31575388 1.3145001
-0.08813218 0.31288847 1.317
-0.25285083 0.32212502 1.317
-0.24693017 0.32302135 1.3150001
-0.23508298 0.32785273 1.3145001
-0.22888714 0.32780319 1.312
-0.10083303 0.32703641 1.312
-0.097374871 0.3232432 1.3145001
-0.22167744 0.33136159 1.317
-0.21048416 0.33240396 1.312
-0.20410319 0.33555469 1.3153334
-0.19637349 0.33680147 1.3130001
-0.18402986 0.33930507 1.312
-0.17482838 0.33930507 1.312
-0.12504171 0.33831921 1.3120002
-0.11518298 0.33601883 1.3120002
-0.10501494 0.33416596 1.3135002
-0.19050404 0.34059814 1.317
-0.17489207 0.34170362 1.3153334
-0.16594467 0.34340945 1.3145
-0.15470624 0.3457157 1.3145001
-0.14572671 0.34462976 1.3130001
-0.13610886 0.3437342 1.31575
-0.12499585 0.34230545 1.3161666
-0.115457 0.34059814 1.317
-0.070856586 0.058081798 1.325
-0.066060342 0.056788709 1.322
-0.071017012 0.064031735 1.3280001
-0.065274499 0.065273799 1.3248
-0.064677082 0.074154101 1.3275716
-0.056231588 0.076133981 1.3225002
-0.063366465 0.082326517 1.3280001
-0.055039823 0.084571086 1.3270772
-0.048179347 0.086259246 1.3219999
-0.050837319 0.096629709 1.3280001
-0.043510854 0.094788298 1.3247693
-0.038245458 0.098511033 1.322
-0.041523609 0.1020627 1.3280001
-0.03558119 0.1048404 1.3247273
-0.025496975 0.10778266 1.322
-0.031980362 0.11222166 1.3265001
-0.025772039 0.11518338 1.3255295
-0.019791627 0.11874976 1.3280001
-0.023575321 0.12486188 1.3280001
-0.017696042 0.12643358 1.3280001
-0.022120053 0.13155611 1.3280001
-0.0174632 0.13155611 1.3280001
-0.031433761 0.18976678 1.3280001
-0.03371134 0.19645925 1.3260001
-0.042417694 0.20745263 1.322
-0.036630642 0.20467274 1.3265002
-0.052152898 0.21904218 1.322
-0.044387735 0.21498814 1.3256
-0.038419038 0.21072261 1.3280001
-0.063742436 0.2283138 1.322
-0.055089034 0.22522059 1.3256
-0.048729956 0.22160862 1.3235
-0.070696153 0.23526752 1.322
-0.067032866 0.23558955 1.3260001
-0.070696153 0.24453916 1.322
-0.065628149 0.24586499 1.3249999
-0.0620737 0.2570014 1.3235
-0.058078293 0.25671342 1.325
-0.063577816 0.26476815 1.324
-0.065870397 0.27395073 1.3260001
-0.072679564 0.28672689 1.3253334
-0.068378247 0.28162566 1.322
-0.075193204 0.294972 1.3254286
-0.082285687 0.30480471 1.322
-0.077858165 0.30447263 1.3255999
-0.084812246 0.31434852 1.3253334
-0.25264597 0.32693473 1.324
-0.24569811 0.3279838 1.322
-0.094088256 0.32524598 1.325
-0.088480212 0.32132286 1.3280001
-0.24564901 0.33180079 1.3280001
-0.23674852 0.33285338 1.3260001
-0.22715485 0.33261961 1.322
-0.2137287 0.33686179 1.325
-0.20590736 0.33880067 1.322
-0.10252675 0.3377656 1.324
-0.098734587 0.33221546 1.325
-0.20451348 0.34266677 1.3280001
-0.19586311 0.3418912 1.322
-0.18444483 0.34602678 1.3260001
-0.1755224 0.34601656 1.3230001
-0.16341242 0.34884492 1.322
-0.14486916 0.34884492 1.322
-0.13368641 0.34757555 1.3260001
-0.12516695 0.34652704 1.322
-0.11528322 0.3455956 1.3253334
-0.10594341 0.34227872 1.3280001
-0.174632 0.35042822 1.3280001
-0.1653183 0.35217452 1.3280001
-0.15504456 0.35308319 1.3253335
-0.14475052 0.35198054 1.3280001
-0.071284398 0.068947203 1.3330001
-0.062167939 0.087973498 1.3380001
-0.057370819 0.087809123 1.3355
-0.052686933 0.094444327 1.3355001
-0.046743866 0.096993521 1.3330001
-0.044457961 0.10623 1.3345001
-0.038563691 0.10867949 1.3330001
-0.042227283 0.1114331 1.3380001
-0.035580568 0.1149289 1.3350002
-0.032813851 0.12422191 1.3367501
-0.027767869 0.12597601 1.3336251
-0.031670459 0.13020077 1.3380001
-0.025500147 0.13542132 1.336077
-0.0171701 0.1360084 1.3355001
-0.0234596 0.14310357 1.3380001
-0.017594701 0.14360628 1.3380002
-0.031581696 0.19650725 1.3342501
-0.032640804 0.20672928 1.3365716
-0.040900882 0.21735898 1.3330001
-0.036682513 0.21464525 1.3355001
-0.043238074 0.22086477 1.3330001
-0.063927405 0.234596 1.3380001
-0.065132238 0.2429781 1.3346667
-0.061935622 0.26994583 1.3330001
-0.058890957 0.26677316 1.3346667
-0.064272813 0.27617833 1.3330001
-0.059821978 0.27330434 1.3380001
-0.067381695 0.28476566 1.33675
-0.071868695 0.29623926 1.3330001
-0.068211235 0.29466826 1.3338333
-0.072486416 0.30397701 1.3336251
-0.068947203 0.30032933 1.3330001
-0.081412233 0.31591067 1.3330001
-0.075275652 0.31399763 1.3368462
-0.0913193 0.32899153 1.3355
-0.085430287 0.32231018 1.3350002
