# .PCD v0.7 - Point Cloud Data file format
VERSION 0.7
FIELDS x y z
SIZE 4 4 4
TYPE F F F
COUNT 1 1 1
WIDTH 1467
HEIGHT 1
VIEWPOINT 0 0 0 1 0 0 0
POINTS 1467
DATA ascii
-0.079973914 0.16084641 1.0250001
-0.16361439 -0.13085511 1.0380001
-0.15583341 -0.1342414 1.034
-0.17148617 -0.12295495 1.0328
-0.16503043 -0.12446923 1.0343336
-0.15703 -0.12505597 1.0322001
-0.17107624 -0.11920738 1.0380001
-0.16420002 -0.11883988 1.0347999
-0.06096866 -0.090088017 1.0380001
-0.063172773 -0.083474502 1.0349376
-0.058175746 -0.083195232 1.0315001
-0.017441174 -0.084498942 1.033625
-0.08235319 -0.070523441 1.0380001
-0.074294694 -0.074537821 1.0360001
-0.065878697 -0.077640235 1.0322001
-0.013340652 -0.074950308 1.0366317
-0.0049138912 -0.07288941 1.0380001
0.0031849302 -0.072040074 1.0380001
-0.20247054 -0.061423652 1.0380001
-0.1942948 -0.062296335 1.0367694
-0.1847976 -0.06258633 1.0365001
-0.17474797 -0.062495057 1.0374287
-0.16501518 -0.062812343 1.0365884
-0.15492409 -0.06165114 1.0380001
-0.1450786 -0.061753187 1.0372728
-0.13695198 -0.061423652 1.0380001
-0.12466726 -0.06096866 1.0380001
-0.11420248 -0.061878644 1.0380001
-0.1051027 -0.063850261 1.0380001
-0.092840366 -0.063140064 1.0371112
-0.085582651 -0.064891465 1.033316
-0.076406009 -0.068907999 1.0322858
-0.01375166 -0.064596966 1.0340437
-0.0052976659 -0.064949326 1.0374484
0.0045498991 -0.064608574 1.0380001
0.01000978 -0.06096866 1.0380001
-0.22294509 -0.051608864 1.0380001
-0.2143663 -0.054967079 1.0359049
-0.20506692 -0.055329435 1.0332694
-0.19504951 -0.054982927 1.0317501
-0.18537608 -0.056010261 1.0319546
-0.17505315 -0.05547687 1.032154
-0.16545311 -0.055363305 1.0326155
-0.15569414 -0.055318404 1.0318891
-0.14454569 -0.056935206 1.0326667
-0.13450448 -0.056640871 1.0341054
-0.12546486 -0.057032242 1.0326002
-0.11484721 -0.055390045 1.0335625
-0.10624535 -0.054101728 1.0358572
-0.096001022 -0.056923304 1.0350001
-0.089480489 -0.058749817 1.031
-0.021523569 -0.052995197 1.0316
-0.015692459 -0.055739425 1.0358573
-0.0034579244 -0.057874728 1.0380001
0.0052620573 -0.055508774 1.0380001
0.012837518 -0.054587301 1.0377779
-0.22360715 -0.044806775 1.0370477
-0.214837 -0.045322094 1.0340003
-0.20558967 -0.044914063 1.031
-0.19794168 -0.046999853 1.031
-0.17082639 -0.049711384 1.031
-0.16449949 -0.049711384 1.031
-0.15998027 -0.049711384 1.031
-0.024885353 -0.045644622 1.0344816
-0.0181996 -0.048228938 1.0380001
0.0063698599 -0.048228938 1.0380001
0.015954958 -0.047349393 1.0358572
-0.22349617 -0.034837499 1.0376002
-0.21526538 -0.035188988 1.0353849
-0.205294 -0.035270404 1.0316001
-0.19944809 -0.035852451 1.031
-0.025935804 -0.035406437 1.0355715
0.014559681 -0.039129138 1.0380001
-0.22203511 -0.02547944 1.0380001
-0.21494159 -0.025250357 1.0351037
-0.20601708 -0.025503211 1.0316001
-0.024569459 -0.0272994 1.0380001
-0.2144942 -0.01569993 1.0360954
-0.20603445 -0.015205448 1.0318573
0.018129466 -0.019035939 1.034
-0.2113279 -0.0057589207 1.0375557
-0.20509221 -0.0055381306 1.0342965
-0.19874509 -0.0045192163 1.031
-0.23346457 0.0081610661 1.0346
-0.22522508 0.0070495689 1.0345557
-0.21480818 0.0054362495 1.034682
-0.20535025 0.004359623 1.0331365
-0.19669287 0.0040378682 1.0314001
-0.24159648 0.016974019 1.0373334
-0.23662271 0.014363934 1.0335715
-0.24124639 0.023827799 1.0355
-0.23544477 0.026150551 1.0320002
-0.2411447 0.03002934 1.0380001
-0.23379123 0.034872092 1.0338423
-0.2280698 0.038262699 1.031
-0.23186608 0.042737499 1.0372001
-0.22489011 0.044672519 1.0335501
-0.21574567 0.046963308 1.0316924
-0.22294509 0.050048899 1.0380001
-0.21422124 0.053662173 1.0374668
-0.20646392 0.05559206 1.0322858
-0.19974938 0.058749817 1.031
-0.00090384326 0.056942131 1.031
0.00090822665 0.056313556 1.036
-0.23317485 0.066626079 1.0354668
-0.22519256 0.065737456 1.0334349
-0.21409751 0.065569431 1.0345001
-0.20500262 0.065527834 1.0330716
-0.19760276 0.066206515 1.031
-0.002056102 0.065590851 1.0326365
0.00090997998 0.063698597 1.0380001
-0.2411447 0.073708378 1.0380001
-0.23429814 0.074746147 1.0340456
-0.22776853 0.076525398 1.031
-0.20426859 0.071403623 1.031
-0.19794171 0.071403623 1.031
-0.0051362142 0.074931495 1.0348002
-0.23216371 0.082917765 1.0365001
-0.22501737 0.085176893 1.0330001
-0.21918201 0.086768962 1.031
-0.014514677 0.084221363 1.0348334
-0.0090805134 0.080832168 1.036
-0.22282235 0.093157351 1.0374286
-0.21542048 0.095353343 1.0330715
-0.021305848 0.097469777 1.03425
-0.0181996 0.090997994 1.0380001
-0.21236661 0.10261821 1.0358572
-0.20534912 0.1046876 1.032389
-0.19929746 0.10800928 1.031
-0.033306513 0.10757733 1.0331111
-0.026806474 0.1041825 1.0350001
-0.20313451 0.11147728 1.0372001
-0.194583 0.11392744 1.0330001
-0.034346923 0.11177658 1.0366001
-0.17132346 0.12962569 1.034
-0.16737497 0.12937497 1.0320001
-0.17137957 0.1319471 1.0380001
-0.16472386 0.13549523 1.0338126
-0.15713963 0.13725506 1.031
-0.05359599 0.1370603 1.0323334
-0.046005003 0.13543336 1.0348097
-0.1624703 0.14068455 1.0353333
-0.15467125 0.14361425 1.0346192
-0.14509816 0.14620009 1.0319132
-0.13587779 0.14913414 1.031
-0.07385578 0.14644881 1.0316001
-0.064575225 0.14495802 1.0336958
-0.055216223 0.14326055 1.0358096
-0.048228938 0.1410469 1.0380001
-0.15196665 0.15014669 1.0380001
-0.14383791 0.15338512 1.0373335
-0.13469206 0.15380718 1.0352354
-0.12564476 0.15581939 1.0337059
-0.11580417 0.15772343 1.0319999
-0.10936505 0.15998027 1.031
-0.073774382 0.15442279 1.034143
-0.066125222 0.15075336 1.0380001
-0.12102734 0.16106646 1.0380001
-0.11421529 0.16105665 1.0355999
-0.10468698 0.1649286 1.0348001
-0.095448166 0.16688059 1.0323848
-0.085034132 0.16844317 1.0319002
-0.075560123 0.16373639 1.0347502
-0.10191776 0.17016625 1.0380001
-0.095027916 0.17172623 1.0380001
-0.085691832 0.17229831 1.0362222
-0.078258276 0.17016625 1.0380001
-0.15772636 -0.14125204 1.044
-0.16352375 -0.13515219 1.044
-0.15788153 -0.13780411 1.041
-0.17157069 -0.11772669 1.041
-0.16883285 -0.11772669 1.041
-0.20223737 -0.091481037 1.0470001
-0.19734205 -0.090869129 1.0470001
-0.070675991 -0.090869129 1.0470001
-0.065970585 -0.091624275 1.045125
-0.02111101 -0.094540611 1.0470001
-0.016197879 -0.092006169 1.046
-0.00550722 -0.090869129 1.0470001
-0.21202797 -0.081690431 1.0470001
-0.20223737 -0.087809563 1.0470001
-0.1977092 -0.088299096 1.0470001
-0.18204422 -0.082914256 1.0470001
-0.17470126 -0.081996389 1.0470001
-0.16552256 -0.081996389 1.0470001
-0.15695576 -0.081690431 1.0470001
-0.12268863 -0.082302339 1.0470001
-0.10739079 -0.081690431 1.0470001
-0.083067238 -0.082149364 1.0470001
-0.074615851 -0.084201723 1.0460457
-0.067178383 -0.086690642 1.0433334
-0.012661373 -0.085263215 1.0433686
-0.0045769359 -0.085151933 1.0443603
0.0038818803 -0.083293721 1.0458461
0.01009657 -0.081690431 1.0470001
-0.20270462 -0.072002165 1.04625
-0.19500449 -0.07364776 1.0457144
-0.18486154 -0.074319527 1.0465866
-0.17506342 -0.075160235 1.0455003
-0.16500844 -0.074984014 1.0448575
-0.15510395 -0.074519724 1.0464234
-0.14535724 -0.073763363 1.0470003
-0.13478254 -0.074520141 1.0464234
-0.12510622 -0.075433984 1.0458186
-0.11500502 -0.074098177 1.0452861
-0.10449345 -0.075168185 1.0455885
-0.094915532 -0.07407856 1.0462803
-0.085556433 -0.075762928 1.0450387
-0.077319115 -0.077867731 1.0425001
-0.011863929 -0.079397067 1.041
-0.0038329619 -0.078301944 1.0410001
0.005484134 -0.076658078 1.0423334
0.013465195 -0.074711829 1.0451541
0.023864619 -0.073429599 1.0470001
-0.22120667 -0.06149729 1.0470001
-0.2142999 -0.063231215 1.0452857
-0.20519981 -0.065597855 1.0435501
-0.19544938 -0.06684877 1.0425001
-0.18505183 -0.067723684 1.0426363
-0.17519952 -0.066923536 1.0416429
-0.16436237 -0.067755111 1.0416
-0.15525296 -0.066069409 1.0423502
-0.14463028 -0.066826403 1.0441667
-0.13432644 -0.065237947 1.0429567
-0.12529781 -0.065851912 1.0432501
-0.11515081 -0.065268405 1.0418079
-0.10457385 -0.065527253 1.0414617
-0.096627355 -0.065874487 1.0420001
-0.088523172 -0.06844575 1.041
0.012795536 -0.065184265 1.0423334
-0.23427276 -0.051878065 1.0455
-0.22564666 -0.05505817 1.0432
-0.21857008 -0.057950735 1.041
-0.11225104 -0.057494432 1.041
-0.1048428 -0.056420766 1.0410001
-0.012527629 -0.052592669 1.0420716
-0.0051154811 -0.053150583 1.0417502
0.0022163386 -0.051758025 1.041
0.01186393 -0.055669211 1.041
-0.23478343 -0.045108795 1.0442729
-0.22906511 -0.044717889 1.041
-0.021618599 -0.041715305 1.0419999
-0.015467614 -0.045704436 1.0450001
-0.004266317 -0.045139719 1.0453045
0.0044879848 -0.044591326 1.0416251
0.012400758 -0.044181067 1.0410001
-0.23430532 -0.03477912 1.0440003
-0.22778745 -0.034131609 1.0410001
-0.021943405 -0.034743611 1.043
-0.018657221 -0.035784945 1.0466666
-0.0020648786 -0.037389066 1.046625
0.0045787413 -0.034810942 1.0451003
0.012188527 -0.034531903 1.0440003
-0.23326433 -0.025203727 1.0454999
-0.22681926 -0.024221988 1.0415297
-0.02202888 -0.0275361 1.0470001
0.0064250901 -0.02845397 1.0470001
-0.23130324 -0.0183574 1.0470001
-0.22494379 -0.014715154 1.0443465
-0.21852274 -0.01247716 1.0415
-0.2242025 -0.0043371092 1.046182
-0.21625963 -0.0039982568 1.0425
-0.25230113 0.0076269996 1.044
-0.24558392 0.0071084853 1.0437691
-0.23427874 0.0035760833 1.0442727
-0.22521073 0.0020757872 1.0423638
-0.21750942 0.001643224 1.0416
-0.25463742 0.014166496 1.0455002
-0.24628927 0.013850528 1.0422002
-0.25337103 0.022200357 1.0464001
-0.24718285 0.024992732 1.0422354
-0.25057852 0.03120758 1.0470001
-0.24382992 0.034353197 1.044158
-0.2381912 0.03832962 1.041
-0.24139981 0.041304149 1.0470001
-0.23515153 0.045089528 1.043077
-0.22906511 0.048368331 1.041
-0.23385301 0.056170605 1.0454999
-0.22546054 0.055589512 1.0429003
-0.21673471 0.057193175 1.0415455
0.004581321 0.054503422 1.0444738
-0.25057852 0.067004509 1.0470001
-0.24435152 0.065694392 1.0442858
-0.23602383 0.062658437 1.0419
-0.22429277 0.061455958 1.0418571
-0.21787445 0.062275242 1.0416
0.004333714 0.065189108 1.0434
-0.25057852 0.070675991 1.0470001
-0.24419808 0.074539468 1.0432503
-0.2381912 0.079397067 1.041
-0.0020553449 0.077457443 1.0425
0.0025836164 0.073047526 1.0450909
-0.24166499 0.083714217 1.0455
-0.23616801 0.0862398 1.0428001
-0.22906511 0.088523172 1.041
-0.012337331 0.087052345 1.0425
-0.0056729103 0.083288953 1.0439999
-0.23293884 0.093360528 1.0461
-0.22618896 0.095972106 1.0425882
-0.21933061 0.098866083 1.041
-0.016668677 0.093617216 1.0448999
-0.22384566 0.10374977 1.04575
-0.21645311 0.1061141 1.0434375
-0.20898768 0.10860059 1.041
-0.023923982 0.10577259 1.044
-0.2128446 0.11223305 1.0465001
-0.20548978 0.11523984 1.0444286
-0.19518369 0.11905747 1.0419999
-0.033360235 0.11539407 1.0446428
-0.027176669 0.11207306 1.045
-0.20284927 0.12024096 1.0470001
-0.19623832 0.12196011 1.046
-0.1814792 0.12923425 1.0455
-0.17755656 0.12904884 1.044
-0.03763267 0.12024097 1.0470001
-0.18153311 0.13356192 1.0465714
-0.17537433 0.13508579 1.0444736
-0.16883285 0.13780411 1.041
-0.041256808 0.13476804 1.0458
-0.17405555 0.14202932 1.0464545
-0.16549025 0.14516896 1.0435264
-0.15833783 0.14829913 1.041
-0.053115476 0.14797899 1.0426667
-0.045185875 0.1439606 1.0443529
-0.039468411 0.14043412 1.0470001
-0.16183881 0.15148187 1.0430001
-0.15510125 0.15363899 1.0444
-0.14612769 0.15709779 1.0427144
-0.13537048 0.15889552 1.041
-0.1268528 0.15970674 1.041
-0.07027097 0.15696892 1.041
-0.064754769 0.15529858 1.0438236
-0.056734119 0.15254645 1.0453637
-0.14247498 0.16081029 1.0458001
-0.1341323 0.1627434 1.0443751
-0.12523875 0.16314444 1.0443
-0.11385481 0.16547854 1.0439999
-0.1080965 0.16838662 1.0419999
-0.071893677 0.16708039 1.0440001
-0.067922384 0.16062725 1.0470001
-0.11106227 0.17164169 1.0470001
-0.10451574 0.17448117 1.0452354
-0.09508238 0.1762248 1.0428751
-0.084638447 0.1770584 1.0437499
-0.076360069 0.17349432 1.0452499
-0.15289505 -0.10100339 1.057
-0.14548194 -0.10193004 1.057
-0.13454762 -0.10341265 1.0569999
-0.12571371 -0.10426868 1.0569998
-0.11953613 -0.10193003 1.057
-0.093784451 -0.10356433 1.0585001
-0.0841695 -0.1022389 1.057
-0.074263312 -0.10312141 1.057
-0.068329029 -0.1026921 1.0552857
-0.024626734 -0.10126903 1.0533334
-0.018443312 -0.10052562 1.052
-0.2052715 -0.091129497 1.0500001
-0.1832424 -0.094632782 1.057
-0.17506059 -0.094477877 1.0565501
-0.16485398 -0.094962217 1.0553638
-0.15475601 -0.095018737 1.0546155
-0.14524885 -0.095165826 1.0547503
-0.13533488 -0.095645331 1.05592
-0.12504962 -0.095731914 1.0566086
-0.11558832 -0.09438505 1.0566669
-0.10467909 -0.093576171 1.0555884
-0.095086984 -0.094825231 1.0550001
-0.085076809 -0.095153652 1.0552593
-0.074926756 -0.095237888 1.0529581
-0.067196503 -0.096652508 1.0500001
-0.02210661 -0.096408196 1.0506668
-0.014328826 -0.095487311 1.0506667
-0.0047120317 -0.09409634 1.0504707
0.0021530932 -0.092533916 1.052
-0.2131732 -0.080286883 1.0526667
-0.20494129 -0.081913821 1.0538334
-0.19476132 -0.083403893 1.0539473
-0.18531276 -0.08552888 1.0524615
-0.17487288 -0.086627617 1.0517145
-0.16465728 -0.086212814 1.0509523
-0.15466975 -0.085079342 1.0503633
-0.14475566 -0.084830351 1.0517334
-0.13512103 -0.084995992 1.0526775
-0.12510189 -0.086477891 1.0516
-0.11513735 -0.084624201 1.0512961
-0.10501228 -0.085556462 1.050133
-0.094733633 -0.084891371 1.0505517
-0.085612148 -0.086495377 1.0510435
-0.076094665 -0.088674836 1.0500001
0.0041444413 -0.087720148 1.0505002
0.011966499 -0.081924498 1.0500001
-0.21501549 -0.074416369 1.0557998
-0.20613162 -0.075918362 1.0517778
-0.19514599 -0.077782258 1.0500001
-0.18778199 -0.078242503 1.0500001
-0.14513217 -0.076606058 1.0500001
-0.1187445 -0.078242503 1.0500001
-0.093890995 -0.078242503 1.0500001
0.018103167 -0.071492165 1.0500001
0.024094556 -0.071481645 1.0511429
-0.23236752 -0.060174402 1.0560001
-0.22505635 -0.065198161 1.0544119
-0.21589379 -0.067611746 1.0516667
0.018044055 -0.066776201 1.0517143
0.024725506 -0.068622619 1.05425
-0.24467583 -0.053678401 1.0545883
-0.23501503 -0.056756273 1.0526667
-0.22644299 -0.058912002 1.0500001
-0.25111854 -0.04725847 1.057
-0.24372491 -0.045237042 1.0530626
-0.012518799 -0.042895298 1.0500001
-0.0082844999 -0.042342998 1.0500001
-0.24338062 -0.034867827 1.0532858
-0.013428392 -0.034752555 1.0525185
-0.0055269846 -0.034074601 1.0505453
0.016569 -0.031296998 1.0500001
-0.24374111 -0.026191235 1.0544667
-0.23783265 -0.024173206 1.0505
-0.021687198 -0.023529952 1.0527501
-0.014786225 -0.025339542 1.0544165
-0.0046208743 -0.024936469 1.0536001
0.004351614 -0.024355073 1.0501817
0.013828962 -0.024885064 1.0514401
-0.24185216 -0.019459371 1.057
-0.23536476 -0.014580113 1.0539131
-0.22920451 -0.0101255 1.0500001
-0.018532734 -0.019459371 1.057
-0.0031479348 -0.017769858 1.0558001
0.0048249783 -0.015296926 1.0541483
0.013488217 -0.015035007 1.05388
-0.24116574 -0.00092400669 1.054
-0.23573273 -0.0046250117 1.0544801
-0.22920449 -0.0064435001 1.0500001
0.0074130935 -0.0083397301 1.057
0.012664035 -0.0083397301 1.057
-0.24390832 0.0035618967 1.0532857
-0.23702876 0.00138075 1.0500001
-0.26206943 0.01663168 1.0538334
-0.25931743 0.017536255 1.0526667
-0.25592959 0.025315991 1.0522223
-0.25249162 0.03515039 1.0550001
-0.2479918 0.037431214 1.0516001
-0.24507689 0.043901931 1.0542501
-0.23886362 0.047958925 1.052
-0.24116574 0.058212418 1.054
-0.2371818 0.054181378 1.0527143
0.0076708333 0.057991501 1.0500001
0.011088081 0.058212418 1.054
-0.25423762 0.065205239 1.0535333
-0.24528503 0.060934618 1.0531667
0.0077630091 0.06459906 1.0505716
0.011757035 0.063953534 1.0532
-0.25316951 0.074081399 1.053
-0.2494555 0.078242503 1.0500001
0.0060243183 0.075336821 1.0509231
0.011772506 0.074205451 1.0561429
-0.25040582 0.080388576 1.054
-0.24586497 0.085252643 1.0518183
-0.0101255 0.089288503 1.0500001
-0.0037563141 0.087151319 1.0515386
0.0029164676 0.083520301 1.054
-0.24186023 0.092938766 1.0538
-0.23671976 0.095943019 1.0523001
-0.012984368 0.095829949 1.0530667
-0.0051955311 0.093916625 1.0558461
-0.23170562 0.10246919 1.053
-0.22584467 0.10785411 1.0515001
-0.022425717 0.10721692 1.0513334
-0.017777827 0.10370442 1.0551112
-0.22392917 0.11288968 1.0555
-0.21583198 0.11593702 1.0526875
-0.20935151 0.11805018 1.052
-0.031296998 0.1187445 1.0500001
-0.025811872 0.11579154 1.0516001
-0.21405308 0.12138941 1.057
-0.20483617 0.12519975 1.0537368
-0.19485667 0.12612803 1.0534286
-0.18781368 0.1268345 1.0538571
-0.034297686 0.12447026 1.0542778
-0.026485503 0.1220618 1.0564001
-0.20232743 0.13102637 1.0562501
-0.19468689 0.13306388 1.0555
-0.18678427 0.13545634 1.0533684
-0.1794975 0.1389955 1.0500001
-0.038504954 0.13493936 1.0515386
-0.18267225 0.14300133 1.052375
-0.17534278 0.14621714 1.0516001
-0.16909322 0.14876507 1.054
-0.043263499 0.14728001 1.0500001
-0.037530463 0.14459483 1.05275
-0.17142779 0.15104178 1.057
-0.16957451 0.15104178 1.057
-0.15004151 0.1592465 1.0500001
-0.062593997 0.1592465 1.0500001
-0.054486938 0.15646127 1.0510668
-0.046762276 0.15368025 1.0528334
-0.15061308 0.16170117 1.054
-0.14419588 0.16308367 1.0510001
-0.13525476 0.16730084 1.0543333
-0.12536134 0.16824627 1.0550001
-0.11760956 0.16819498 1.0530001
-0.065130465 0.16505229 1.0542631
-0.054980442 0.16185254 1.057
-0.049111743 0.16030814 1.057
-0.12430169 0.17195728 1.057
-0.11462358 0.17416631 1.0526668
-0.10700812 0.17857701 1.0500001
-0.080083497 0.1794975 1.0500001
-0.073752359 0.17705201 1.0506154
-0.066918015 0.17239298 1.0553334
-0.11272881 0.1811053 1.054
-0.10456655 0.18209596 1.0528572
-0.094855227 0.18264133 1.0527778
-0.084128432 0.18324059 1.0527694
-0.075689137 0.18430348 1.0551766
-0.069497749 0.18347406 1.057
-0.12440865 -0.12066703 1.067
-0.091981329 -0.12191424 1.067
-0.086992502 -0.12160244 1.067
-0.17339778 -0.11199354 1.0658572
-0.16475888 -0.11517709 1.0699998
-0.15427364 -0.11420836 1.0682142
-0.14511153 -0.1154036 1.0676429
-0.13440122 -0.11458609 1.0640416
-0.12481361 -0.1145751 1.0624999
-0.11529682 -0.11369093 1.0645454
-0.10484403 -0.11442747 1.0649129
-0.094670944 -0.11408037 1.0641599
-0.084819816 -0.1146464 1.0631999
-0.07640072 -0.11175726 1.0613333
-0.18311785 -0.10317779 1.0603001
-0.17485978 -0.10507414 1.0619309
-0.16510087 -0.10540971 1.0639999
-0.15548232 -0.10585728 1.0619999
-0.14474055 -0.10679254 1.0603532
-0.13580568 -0.10792768 1.0600001
-0.12219857 -0.1073303 1.0600001
-0.11505932 -0.10535765 1.0615
-0.10507952 -0.10508013 1.06072
-0.085094273 -0.10686566 1.0600002
-0.076284342 -0.10703462 1.0600002
-0.19173868 -0.091377884 1.0600001
-0.1869891 -0.097159982 1.0600001
-0.17470212 -0.099431522 1.0600001
-0.16633873 -0.099431537 1.0600001
-0.1148867 -0.096594833 1.0600001
-0.10542013 -0.098605506 1.0600001
-0.098502263 -0.09943153 1.0600001
-0.08270473 -0.09943153 1.0600001
-0.20165086 -0.085492536 1.0600001
-0.19607526 -0.086421803 1.0600001
-0.22209473 -0.072482802 1.0600001
-0.21837766 -0.077129133 1.0600001
-0.23231667 -0.062260866 1.0600001
0.019643471 -0.06454283 1.067
0.026573081 -0.066660419 1.0635
0.030767055 -0.067125052 1.0635
-0.25427681 -0.042530961 1.064
-0.24944171 -0.044737555 1.0600001
-0.25438267 -0.034385055 1.0648335
-0.24935323 -0.035828393 1.0600001
-0.25383839 -0.025608374 1.0650715
-0.2475183 -0.023249701 1.0608572
-0.013319489 -0.021992644 1.0600001
-0.2522471 -0.019019868 1.067
-0.24529172 -0.014622126 1.062923
-0.021782186 -0.01656672 1.0618001
-0.014680093 -0.014622849 1.0622354
-0.0053980304 -0.013396563 1.0613501
0.0027877998 -0.010221933 1.0600001
-0.24530831 -0.0049273046 1.0633572
-0.01285018 -0.0056069409 1.0662501
-0.004672247 -0.0046666367 1.0650799
0.0044097467 -0.0043275687 1.0616955
0.01376761 -0.0038123601 1.0612
-0.24617822 0.0015508233 1.0623335
-0.012160243 0.00280621 1.067
-0.0046757548 0.0046757548 1.0668398
0.0046701436 0.0046746321 1.0655599
0.013910428 0.0039921398 1.0645909
-0.27033156 0.019643471 1.067
-0.26658323 0.018930154 1.0620002
-0.0056124199 0.010289436 1.067
0.0061736619 0.010663599 1.067
0.011892985 0.01269476 1.067
-0.2708661 0.024454117 1.067
-0.26520184 0.025398558 1.064579
-0.25926539 0.027877999 1.0600001
0.01403105 0.02244968 1.067
-0.27033156 0.031803712 1.067
-0.26425144 0.033518616 1.0670002
-0.25736806 0.035214897 1.0617501
-0.26097754 0.040222343 1.067
-0.25485405 0.044922113 1.0652499
-0.24625817 0.048559319 1.0622858
-0.25208873 0.056087378 1.0663334
-0.24562384 0.054862838 1.0641428
-0.23882154 0.054826733 1.0600001
-0.25546286 0.060601775 1.0635
-0.26320249 0.076029614 1.0654
-0.25833765 0.075996742 1.0623
0.014275932 0.077275537 1.062
-0.25427172 0.08470805 1.0636156
-0.24997273 0.086421803 1.0600001
0.0072100353 0.086282514 1.061125
0.012264743 0.084466651 1.0650002
-0.25162348 0.090734124 1.067
-0.24607174 0.094998747 1.0624001
-0.23882154 0.09943153 1.0600001
-0.0039523421 0.098374814 1.061125
0.0043589817 0.093441658 1.0646666
0.010289436 0.090734124 1.067
-0.24171364 0.10300501 1.0662
-0.23591508 0.10573645 1.063
-0.013162164 0.10566901 1.0631251
-0.0060280398 0.10335 1.0655456
0.00093540334 0.10008816 1.067
-0.23246418 0.1135463 1.066
-0.22522458 0.11652003 1.0616001
-0.21837766 0.1198754 1.0600001
-0.021852892 0.118565 1.06075
-0.018551728 0.11370785 1.0641111
-0.22493523 0.12156529 1.064625
-0.21436633 0.12477466 1.0608335
-0.209085 0.12916806 1.0600001
-0.0306658 0.1282388 1.0600001
-0.024996342 0.12630105 1.060706
-0.20395328 0.13504437 1.0623335
-0.19617695 0.13594581 1.0614547
-0.03268921 0.13461587 1.0610715
-0.02628562 0.13403568 1.0631999
-0.19306932 0.14304386 1.0639091
-0.1863081 0.14583394 1.0612501
-0.17934847 0.1477534 1.0600001
-0.038099933 0.14961194 1.0600001
-0.18146825 0.15059994 1.067
-0.1760221 0.1518039 1.0623335
-0.041748859 0.15676051 1.0626364
-0.036369905 0.15431614 1.0637647
-0.15441062 0.16522123 1.0676999
-0.14625058 0.16770567 1.06425
-0.061021846 0.16757774 1.0600001
-0.054228958 0.16618913 1.0620002
-0.045943309 0.16384892 1.0641876
-0.038351536 0.16182478 1.067
-0.14240485 0.17231905 1.0663334
-0.13501707 0.17319208 1.0621251
-0.12529787 0.17663339 1.0608002
-0.11784747 0.17733982 1.0603334
-0.064271562 0.17565708 1.0625714
-0.056950897 0.17132564 1.0650001
-0.12382784 0.18176502 1.066
-0.11519356 0.18329215 1.0640001
-0.10469839 0.18696767 1.0620002
-0.095002681 0.18814151 1.0624168
-0.08565072 0.18752074 1.0606668
-0.072173052 0.18802162 1.0600001
-0.065953664 0.18540126 1.0644211
-0.10289437 0.19175768 1.067
-0.093540333 0.19175768 1.067
-0.083833337 0.19345334 1.0652308
-0.075666226 0.19297087 1.0655714
-0.068284445 0.19175768 1.067
-0.13690464 -0.14068133 1.077
-0.152668 -0.13099591 1.075
-0.14327814 -0.13395844 1.0752221
-0.13517836 -0.13410532 1.0747142
-0.12550972 -0.13264193 1.0741428
-0.11613292 -0.13123962 1.077
-0.10480287 -0.13218381 1.0769999
-0.096888326 -0.13075221 1.0730001
-0.16373894 -0.12184012 1.0700001
-0.15483852 -0.12478352 1.0715415
-0.14496846 -0.12519117 1.0725862
-0.13445732 -0.12471053 1.0708076
-0.12482865 -0.12576851 1.0705999
-0.11508534 -0.12530069 1.0728928
-0.10476488 -0.12482613 1.0723332
-0.095397606 -0.12509599 1.0713332
-0.087987527 -0.124008 1.0700001
-0.17916436 -0.11162597 1.0700001
-0.1391416 -0.11850487 1.0700001
-0.1153781 -0.11913023 1.0700001
-0.1069358 -0.11913023 1.0700001
-0.09661743 -0.11913023 1.0700001
0.026260925 -0.065050915 1.0754287
0.031157609 -0.065147728 1.077
-0.25983524 -0.041273467 1.0700001
-0.2591317 -0.034941744 1.0700001
-0.26056373 -0.023516584 1.0730001
-0.25822717 -0.024254862 1.0700001
-0.26212659 -0.015518993 1.0759091
-0.25549215 -0.014254201 1.0710908
-0.26247925 -0.0075533595 1.077
-0.25493678 -0.0050328285 1.0740869
-0.0140705 -0.0028140999 1.0700001
-0.25308913 0.0020727906 1.0748001
-0.012194433 0.00093803339 1.0700001
0.0140705 0.0075042667 1.0700001
-0.0034519373 0.015387378 1.0741427
0.0044044438 0.015933452 1.0737599
0.010943723 0.016884601 1.0700001
-0.27421841 0.026890287 1.0700001
0.0078575639 0.022318473 1.0756668
0.012213094 0.024030061 1.0718572
-0.27285168 0.034460306 1.0720001
-0.26722735 0.036594078 1.0703
-0.26519561 0.043764129 1.0722777
-0.25908479 0.048214912 1.0700001
-0.26211414 0.054215696 1.0755
-0.25585255 0.055000842 1.0706
-0.26383546 0.079807349 1.0710001
0.015946567 0.079732835 1.0700001
-0.26273838 0.085283518 1.0729166
-0.25842819 0.086299069 1.0700001
0.017261859 0.08660648 1.0738333
-0.26153508 0.091584489 1.077
-0.25360247 0.095011212 1.0730001
-0.24927579 0.09876965 1.0730001
0.0062680207 0.098067589 1.0721667
0.013783502 0.093868107 1.0747499
-0.25083447 0.10385869 1.077
-0.24526948 0.10534122 1.0712498
-0.23919851 0.1097499 1.0700001
-0.0112564 0.1097499 1.0700001
-0.0033287033 0.10651157 1.0717273
0.0037073647 0.10365987 1.0742667
-0.24320351 0.11250778 1.0758573
-0.23699172 0.11530942 1.0732222
-0.22981817 0.11913023 1.0700001
-0.013279649 0.11368331 1.0736667
-0.0058426326 0.11105771 1.0754001
-0.22981817 0.1210063 1.0700001
-0.20322482 0.14170842 1.0762
-0.19524042 0.1471981 1.0714287
-0.18854471 0.1491473 1.0700001
-0.03104189 0.14015883 1.0730001
-0.02738093 0.14068133 1.077
-0.19406448 0.15254672 1.0763334
-0.18400224 0.15493311 1.0747856
-0.17446508 0.15692708 1.0718666
-0.16822006 0.15757322 1.072
-0.17357311 0.16414693 1.0751052
-0.16461207 0.1646117 1.07296
-0.043308794 0.16730025 1.0714445
-0.037156541 0.16506298 1.0745556
-0.17089477 0.17089477 1.077
-0.16455661 0.17209829 1.0756667
-0.15492964 0.17468335 1.073
-0.14598778 0.17649992 1.0708998
-0.13547881 0.17862834 1.0700001
-0.061790965 0.17786339 1.0712001
-0.054831907 0.17614743 1.0722857
-0.046804357 0.17324847 1.0749999
-0.15295553 0.18128064 1.077
-0.14444597 0.1824192 1.0730909
-0.13458242 0.18352428 1.0735333
-0.12517485 0.18635426 1.0735713
-0.116639 0.18783435 1.0737273
-0.1097499 0.18854471 1.0700001
-0.062118221 0.18527888 1.0712858
-0.057308823 0.18460284 1.0767142
-0.1227421 0.19166651 1.077
-0.11271691 0.19270924 1.0752858
-0.10482663 0.19534469 1.0731578
-0.094963938 0.19566935 1.0713333
-0.087576501 0.19674277 1.0708573
-0.073812529 0.19720897 1.0712
-0.065288104 0.19445871 1.0734999
-0.10291453 0.2011082 1.077
-0.095675893 0.20142293 1.077
-0.084431365 0.20169492 1.0755454
-0.075191036 0.20153624 1.0755
-0.068924412 0.2011082 1.077
-0.13322309 -0.14179163 1.0855
-0.12547 -0.14135228 1.087
-0.15135826 -0.13429715 1.0813333
-0.14797607 -0.13659167 1.082
-0.13275537 -0.13921325 1.0832001
-0.12428539 -0.13741478 1.08225
-0.11560925 -0.13461615 1.0838889
0.0198828 -0.063435599 1.08
0.025382627 -0.061622154 1.0838572
0.034709916 -0.063187651 1.0830555
0.028588099 -0.058129136 1.087
0.033352785 -0.058129136 1.087
-0.26274225 -0.0028421534 1.0806667
-0.25847641 -0.00094679999 1.08
-0.26151597 0.0024644854 1.0816
-0.25784519 0.001578 1.08
-0.0028422209 0.024727192 1.0814615
0.0043116855 0.026060032 1.0825454
0.011361601 0.028404001 1.08
0.00666442 0.031417981 1.086
0.011107951 0.032688562 1.0860001
-0.2708374 0.048465639 1.0840001
-0.26857558 0.047024399 1.08
-0.27133709 0.05236505 1.086
-0.26681334 0.055504635 1.0830909
-0.26968107 0.060035009 1.087
-0.27241141 0.086817794 1.0848572
-0.26718694 0.087294959 1.08
0.01942781 0.083868071 1.081
0.021917542 0.082905486 1.087
-0.27355972 0.091716282 1.086
-0.26420504 0.094090946 1.0840832
-0.25832388 0.097385384 1.082
0.016499568 0.097286858 1.0816
0.021917542 0.0962466 1.087
-0.26096851 0.10359783 1.087
-0.25528973 0.1055502 1.0831538
0.0066346135 0.10685164 1.0810001
0.013118791 0.10282354 1.084
-0.25313267 0.11133973 1.0855
-0.24567181 0.1138299 1.082
-0.013419763 0.11809075 1.0825714
-0.0047438191 0.1142707 1.0826
0.00094679999 0.1107756 1.08
-0.23569147 0.12288062 1.0832001
-0.020011669 0.12292883 1.087
-0.01712919 0.12180889 1.0855
-0.21286869 0.13874477 1.0840001
-0.21216395 0.143594 1.0863333
-0.20529367 0.14676562 1.0837998
-0.032717496 0.14611696 1.087
-0.029541036 0.14484638 1.087
-0.20318969 0.15367696 1.0861
-0.19519643 0.15609442 1.0825999
-0.18734016 0.15793501 1.082
-0.19309835 0.16234414 1.0865715
-0.18533021 0.1645162 1.0835907
-0.1787535 0.16736619 1.0826668
-0.1820109 0.17057566 1.087
-0.17409731 0.17375077 1.0851818
-0.16568357 0.1767471 1.082
-0.15870121 0.17960796 1.0840001
-0.043292604 0.17583653 1.0829999
-0.037351258 0.17345676 1.0845714
-0.16422275 0.18010503 1.087
-0.15465385 0.18467344 1.0852222
-0.14507641 0.18774553 1.0816
-0.1353924 0.1884132 1.08
-0.052612435 0.18531381 1.084
-0.047021415 0.18219009 1.0857999
-0.14362393 0.19276866 1.0864
-0.13465863 0.19395861 1.085111
-0.12543578 0.19479287 1.0844209
-0.11578608 0.19659911 1.0833637
-0.108882 0.1997748 1.08
-0.062502123 0.19777706 1.0835999
-0.057992373 0.19204962 1.0845
-0.1123696 0.20188384 1.0862499
-0.10538621 0.20431995 1.0829999
-0.094523944 0.20583957 1.0836667
-0.085042953 0.20678821 1.0833637
-0.074516959 0.20647182 1.0828333
-0.066570558 0.20431608 1.0848333
-0.083858423 0.21059901 1.087
-0.075281993 0.21059899 1.087
-0.13282377 -0.14301647 1.09
-0.12343511 -0.14353356 1.0915
-0.11674011 -0.1421652 1.0923637
-0.11443631 -0.13795502 1.0917143
-0.10925312 -0.13728307 1.09
0.0200669 -0.061156265 1.09
0.038222667 -0.060200699 1.09
0.043546535 -0.061019752 1.09
0.024783703 -0.05545067 1.0933334
0.035803188 -0.054787803 1.0930455
0.04490988 -0.054494917 1.0938333
0.039429836 -0.04904687 1.097
0.045200057 -0.04904687 1.097
0.050970275 -0.048085168 1.097
-0.00095731998 0.033509709 1.092
0.0045296173 0.035983142 1.0930455
0.010533735 0.037350968 1.0923333
-0.27138096 0.057333998 1.09
-0.27399531 0.096566431 1.0945455
-0.26774979 0.096894458 1.09
0.0229336 0.098423369 1.09
-0.2724826 0.10418453 1.097
-0.2668303 0.10455128 1.0928751
-0.25895858 0.10989016 1.09
0.0086000999 0.10989016 1.09
0.015299586 0.10661173 1.0906667
0.023397662 0.10422248 1.0936501
-0.27023864 0.11059588 1.097
-0.26380807 0.11100112 1.0962501
-0.25477806 0.11427175 1.0953335
-0.24715775 0.11828951 1.097
-0.0037180409 0.11852863 1.0913334
0.0046760887 0.11473168 1.0921766
0.014156851 0.11156921 1.0947499
0.021157473 0.11059588 1.097
-0.24437577 0.12528545 1.0965
-0.23873325 0.12656641 1.0936667
-0.020195769 0.12598313 1.097
-0.014116463 0.1234661 1.094143
-0.0057502757 0.12177448 1.09375
0.00096170331 0.12021291 1.097
-0.24202867 0.13239449 1.097
-0.23644164 0.1353254 1.097
-0.22612368 0.13874367 1.09525
-0.23523264 0.14252444 1.097
-0.22343574 0.1444692 1.097
-0.2164188 0.14601469 1.0917778
-0.031533699 0.14811283 1.09
-0.029622566 0.14811283 1.09
-0.22023006 0.15098742 1.097
-0.2135904 0.15383472 1.095
-0.20610157 0.15638606 1.0905715
-0.03236929 0.15338087 1.0905715
-0.029622566 0.15002397 1.09
-0.2035881 0.16259459 1.0960001
-0.19533338 0.16644672 1.0917274
-0.19269067 0.1720272 1.0962501
-0.18464854 0.17433462 1.0930769
-0.17736863 0.17785014 1.0936251
-0.041089367 0.17869097 1.09
-0.035480451 0.1786285 1.0940001
-0.17214489 0.18176194 1.097
-0.16403787 0.18450785 1.0942501
-0.15795605 0.18715869 1.092
-0.050645035 0.18824664 1.09
-0.044483822 0.18514921 1.0920001
-0.038414218 0.18247378 1.0955
-0.15408608 0.19169369 1.0944
-0.14373651 0.19694598 1.0916001
-0.13537194 0.19939493 1.09
-0.12581627 0.19971342 1.09
-0.11944583 0.19971344 1.09
-0.060200699 0.19875787 1.09
-0.054081876 0.19508195 1.0936471
-0.047947783 0.19330236 1.097
-0.14213878 0.20072116 1.0955
-0.13477625 0.2029625 1.0955001
-0.12530196 0.20371628 1.0956364
-0.11555835 0.20486543 1.0930001
-0.10492122 0.20850465 1.09
-0.096512236 0.20926909 1.09
-0.062645428 0.20627351 1.0910001
-0.057221305 0.20381719 1.0961819
-0.11059588 0.21061303 1.097
-0.10482566 0.21176708 1.097
-0.095011123 0.21305251 1.0947001
-0.085472025 0.2134892 1.0930001
-0.075260639 0.21480094 1.0942727
-0.064784631 0.21214861 1.0940909
-0.058663905 0.21061303 1.097
-0.10946498 -0.14046392 1.105
0.025139293 -0.051570792 1.103
0.03281714 -0.05115613 1.1010001
0.025822565 -0.04912331 1.1073999
0.035277635 -0.046711557 1.1055498
0.045735512 -0.044711191 1.1050526
0.053753693 -0.043467939 1.1067998
0.047984522 -0.039048135 1.108
0.054917809 -0.038733952 1.1076665
0.0058530881 0.044952881 1.103263
0.010617311 0.043434445 1.1010001
0.0072850999 0.051967047 1.108
0.01164038 0.052383028 1.1065
-0.27508485 0.10424268 1.1010001
-0.26929358 0.10906873 1.1010001
0.025178306 0.10941545 1.1045001
-0.26454365 0.11584745 1.1053635
-0.25649732 0.11737997 1.102
-0.24998939 0.11872083 1.1010001
0.0077374596 0.11893649 1.103
0.014881089 0.11675018 1.1039999
0.022692427 0.11442351 1.1060998
-0.26129225 0.12141833 1.108
-0.25556332 0.12506752 1.1058998
-0.24960332 0.12451209 1.1010001
-0.00096520997 0.12258167 1.1010001
0.0048527881 0.12225271 1.1067499
0.013275071 0.12141833 1.108
-0.25199929 0.13166101 1.107
-0.24461643 0.13556625 1.1015384
-0.2331707 0.13928357 1.1018
-0.24121045 0.14240135 1.105
-0.23361921 0.14531782 1.1022308
-0.22721043 0.14767712 1.1010001
-0.23215185 0.15055872 1.108
-0.22407074 0.15416613 1.1047271
-0.21717225 0.15668575 1.1010001
-0.030030217 0.15402594 1.105
-0.028169053 0.15055872 1.108
-0.22049569 0.1602722 1.108
-0.21364304 0.16262354 1.107
-0.20578249 0.167292 1.104625
-0.20282997 0.1717732 1.107
-0.19500056 0.17581113 1.1046363
-0.18725073 0.17856385 1.1010001
-0.19135529 0.18164183 1.108
-0.18496168 0.18302514 1.1055833
-0.17518014 0.18582858 1.1039999
-0.16761735 0.1879043 1.102
-0.041504029 0.18821596 1.1010001
-0.035483461 0.1859981 1.1025714
-0.17192836 0.19135529 1.108
-0.1650382 0.19375613 1.1057498
-0.15628234 0.19644447 1.1038332
-0.14864233 0.19786805 1.1010001
-0.052121341 0.19979846 1.1010001
-0.044284195 0.19562191 1.1024117
-0.038000792 0.19389026 1.10675
-0.1522976 0.20079654 1.1065
-0.14291608 0.20545672 1.1047143
-0.13440441 0.2069319 1.103
-0.12468883 0.20782173 1.1026
-0.11775562 0.20848536 1.1010001
-0.053310543 0.20600076 1.1023332
-0.0464161 0.20434278 1.1059998
-0.13307449 0.21078223 1.108
-0.12509701 0.2104398 1.1062
-0.1150295 0.21375331 1.1059998
-0.10552096 0.21696481 1.1029998
-0.095555782 0.21813746 1.101
-0.085326463 0.21863608 1.1018889
-0.073811539 0.21917893 1.103
-0.064803109 0.21782108 1.1032999
-0.055435538 0.2132054 1.105909
-0.049538679 0.21078223 1.108
-0.10435008 0.22301632 1.10725
-0.094784632 0.2235245 1.1064998
-0.085114837 0.22266178 1.1075
-0.075765043 0.22243838 1.108
-0.066375352 0.22179081 1.108
0.024752226 -0.044047654 1.1166666
0.03392243 -0.041881938 1.1147858
0.040997751 -0.040997751 1.1135001
0.02844871 -0.038258608 1.1190001
0.034813751 -0.036775727 1.1186668
0.044871129 -0.035086617 1.1156399
0.055497628 -0.033125848 1.1162381
0.03041069 0.10888989 1.1190001
-0.2725507 0.11495116 1.1143335
-0.26743475 0.11925706 1.1120001
0.027279625 0.11551964 1.1156667
0.030383512 0.11369402 1.118
-0.26529902 0.12532459 1.1139334
-0.020471919 0.1296555 1.1120001
-0.014159482 0.128479 1.1145
-0.0046592643 0.1272269 1.1185
0.0052545811 0.12710756 1.1176366
0.013703001 0.12547396 1.1164001
0.021230236 0.12117199 1.1176667
-0.26370519 0.13283429 1.1173999
-0.25552484 0.13623863 1.1142353
-0.24925825 0.13978012 1.115
-0.021387037 0.13545288 1.1161429
-0.016938077 0.13341853 1.1178571
-0.25407639 0.14158957 1.1190001
-0.24769996 0.14273404 1.1190001
-0.02469114 0.14581105 1.1178
-0.01863881 0.14028157 1.1190001
-0.23443355 0.15400986 1.1157779
-0.22777693 0.15751174 1.1132001
-0.030220453 0.15792623 1.1120001
-0.027715378 0.15521221 1.1158333
-0.22381943 0.16493064 1.1165001
-0.21652208 0.16638957 1.1129233
-0.20959346 0.16864963 1.1120001
-0.03139168 0.16186334 1.1190001
-0.22072275 0.17167325 1.1190001
-0.21359786 0.173355 1.1171819
-0.20501971 0.17601533 1.1136431
-0.19789523 0.17839816 1.1120001
-0.20110294 0.18148315 1.1190001
-0.19458254 0.18506999 1.1146001
-0.18580705 0.18775676 1.1120001
-0.030823382 0.18690686 1.11625
-0.028347017 0.18865429 1.115
-0.19060925 0.19158673 1.115
-0.18438861 0.19292431 1.1170715
-0.17559235 0.19545177 1.1141112
-0.16572507 0.19887008 1.1120001
-0.03287752 0.1957041 1.1155001
-0.17299132 0.20141372 1.118
-0.16498366 0.20368864 1.1166155
-0.15543595 0.2054702 1.1151177
-0.14766194 0.20685475 1.113
-0.13745432 0.20959346 1.1120001
-0.042264726 0.20687568 1.1138572
-0.035956755 0.20341215 1.1161876
-0.15009147 0.21091285 1.1190001
-0.14399934 0.21217945 1.1174001
-0.13491681 0.21475172 1.1163572
-0.1246465 0.2160124 1.1141539
-0.11665478 0.21811843 1.1128571
-0.054385968 0.21789053 1.1145556
-0.044825718 0.21331991 1.1165335
-0.038258608 0.21091285 1.1190001
-0.12066177 0.22072275 1.1190001
-0.11361396 0.2236321 1.1161112
-0.10498609 0.22755067 1.1140001
-0.094391577 0.22851981 1.1132857
-0.084907569 0.227235 1.11325
-0.074917071 0.22653098 1.1150911
-0.064717665 0.22553977 1.1137143
-0.057030268 0.22399065 1.1172309
-0.10496593 0.23053265 1.1190001
-0.094584003 0.23179635 1.118
-0.084855638 0.23151363 1.1190001
-0.075536229 0.23053265 1.1190001
-0.064885482 0.2310932 1.1190001
-0.059840389 0.23151363 1.1190001
0.018705437 -0.040364362 1.123
0.021658927 -0.040364362 1.123
0.025447933 -0.035182953 1.1240587
0.034009274 -0.032191746 1.1232308
0.041841105 -0.031011645 1.123
0.06202329 -0.031503893 1.123
0.036194641 -0.027968591 1.126
0.044950157 -0.026041901 1.1247647
0.054366082 -0.024798306 1.1241249
0.061137158 -0.024649236 1.1248001
0.062188979 -0.018261842 1.126
-0.28161439 0.11632534 1.1245
-0.27705586 0.11754833 1.1246667
0.032541513 0.11615622 1.1248
-0.28058153 0.12109309 1.123
-0.27516595 0.12377306 1.1250001
-0.013782954 0.12896906 1.123
-0.0059069796 0.12896906 1.123
0.016424058 0.126785 1.124
0.02464317 0.1241254 1.1243848
0.031588051 0.12339082 1.126
-0.27088124 0.13494916 1.1236
-0.26701736 0.13684504 1.123
-0.014118133 0.13451797 1.1236668
-0.0049287952 0.13107796 1.1242001
0.0055862661 0.131442 1.1245
0.013221711 0.13161168 1.1253999
-0.26432002 0.14242351 1.1246365
-0.25514671 0.14535627 1.1243848
-0.24776757 0.14763644 1.1242001
-0.021849915 0.1461813 1.1255715
-0.018081542 0.14465235 1.125
-0.24382028 0.15399174 1.1260002
-0.23789753 0.15794027 1.126
-0.024907198 0.15512048 1.12525
-0.23264353 0.16303547 1.1251429
-0.22827756 0.16652985 1.1240001
-0.03156 0.166678 1.1250001
-0.027620478 0.16276743 1.12525
-0.22266209 0.17464471 1.1255
-0.21673194 0.1763439 1.1237501
-0.031588051 0.17176002 1.126
-0.21223223 0.18064418 1.126
-0.20556538 0.18344493 1.1243334
-0.19985282 0.18705437 1.123
-0.03137432 0.18212523 1.1254001
-0.028550403 0.18705437 1.123
-0.19347683 0.19446395 1.126
-0.18549727 0.19830011 1.1235001
-0.028234072 0.1963311 1.1235001
-0.1838544 0.20194209 1.1255
-0.17505045 0.20499331 1.126
-0.16480474 0.20851639 1.123
-0.032765746 0.20744398 1.124125
-0.028588537 0.20307851 1.1245
-0.16353399 0.21157415 1.126
-0.15431076 0.21323369 1.1243334
-0.14546846 0.21623001 1.1242001
-0.13586055 0.21954276 1.123
-0.050209329 0.21954276 1.123
-0.043473899 0.21793808 1.1234287
-0.035368118 0.21432622 1.1251431
-0.028626673 0.21025798 1.126
-0.14313336 0.22012925 1.126
-0.13516639 0.22198515 1.1254001
-0.12515633 0.22272012 1.124125
-0.11616149 0.22738838 1.1248
-0.05279585 0.22576657 1.1236001
-0.045210402 0.22170863 1.126
-0.11351956 0.23000051 1.126
-0.10550998 0.23291104 1.1248
-0.095600322 0.23475747 1.1242001
-0.085743785 0.23436472 1.1242001
-0.075238161 0.23316577 1.1243334
-0.065144323 0.23506726 1.1240001
-0.055980645 0.23231317 1.12525
0.023279883 -0.032195587 1.13
0.026149465 -0.026289979 1.1348572
0.034263737 -0.023797626 1.1337894
0.043377031 -0.021812344 1.131
0.050522301 -0.020803301 1.13
0.037178431 -0.01752056 1.1374286
0.045100845 -0.015174028 1.1345218
0.054568015 -0.014878154 1.13176
0.062814921 -0.013386409 1.1313334
0.046889395 -0.0078386525 1.138
0.055259168 -0.0054345359 1.1367275
0.06450206 -0.0048063248 1.1348336
0.058861151 0.00099764671 1.138
0.064276949 0.0024228562 1.138
-0.28034922 0.12581043 1.13
-0.27935335 0.12625578 1.1340001
0.018822033 0.12977296 1.13
0.025991064 0.12757638 1.1316
0.031370055 0.12515001 1.13
-0.012885949 0.13779552 1.1308
-0.0069504636 0.13514416 1.1322858
0.016498517 0.13381265 1.1340001
0.024225807 0.13137843 1.1353333
-0.26350847 0.14760436 1.13
-0.25657403 0.14892522 1.13
-0.013671178 0.14495815 1.1345
-0.0089788204 0.14066818 1.138
-0.26038578 0.15064465 1.138
-0.25355512 0.1545658 1.136
-0.24630068 0.1563722 1.1313334
-0.021803137 0.15559913 1.1305001
-0.016734982 0.15396839 1.1343334
-0.24388067 0.16277343 1.1344446
-0.23587522 0.1661869 1.1324
-0.023851091 0.16594124 1.1315237
-0.017937651 0.16443881 1.1368001
-0.23344932 0.17309171 1.138
-0.22671257 0.17605878 1.133
-0.21793933 0.17930463 1.13
-0.032690901 0.17666294 1.13
-0.02481156 0.17569107 1.1322399
-0.018955287 0.17458816 1.138
-0.22327736 0.18240891 1.1370001
-0.21477604 0.18447228 1.1333334
-0.20599878 0.18815616 1.1308
-0.024656968 0.18536319 1.1334546
-0.018955287 0.18456464 1.138
-0.21050344 0.19055051 1.138
-0.20482557 0.19220741 1.136
-0.19593324 0.19678536 1.1328572
-0.024113156 0.19468749 1.1345
-0.018955287 0.19055051 1.138
-0.19307321 0.20303564 1.1364
-0.18600085 0.20558158 1.1328572
-0.17608652 0.20810287 1.1311429
-0.025505273 0.20507304 1.1337333
-0.17218609 0.2126659 1.1353334
-0.16500913 0.21511978 1.1331111
-0.15566707 0.21788543 1.131
-0.14958563 0.21892996 1.13
-0.031558748 0.21638264 1.13
-0.026709277 0.21540852 1.1345714
-0.16161875 0.22047991 1.138
-0.15404162 0.22288248 1.1357143
-0.14522621 0.2241208 1.1325454
-0.13475658 0.22664623 1.1325455
-0.12565364 0.2273695 1.1311429
-0.11986663 0.2288363 1.13
-0.050522301 0.2288363 1.13
-0.044273853 0.22646426 1.1317501
-0.0357867 0.22351931 1.1339999
-0.02756766 0.22221453 1.1366667
-0.13518113 0.23045638 1.138
-0.12422191 0.2318892 1.1372001
-0.11498886 0.23462112 1.1339999
-0.10496534 0.2375378 1.1313335
-0.094881631 0.23869412 1.1313334
-0.084104329 0.23817457 1.132
-0.074856229 0.23823768 1.1317778
-0.064886481 0.23874263 1.13
-0.053503238 0.2360808 1.1318462
-0.046455968 0.23268732 1.1372001
-0.11073878 0.24143049 1.138
-0.10436542 0.24285682 1.1365001
-0.095604002 0.24200207 1.136
-0.086795263 0.24043284 1.138
-0.073177472 0.24265678 1.1372001
-0.064733073 0.2429997 1.136
-0.056425422 0.24225771 1.1372001
0.027104488 -0.0217463 1.1450001
0.029211409 -0.019138509 1.149
0.03476309 -0.014792248 1.1470002
0.041083232 -0.012022607 1.1430001
0.039284311 -0.0080583207 1.149
0.044929925 -0.004351832 1.1458002
0.051740576 -0.0016682968 1.1423334
0.048551373 0.0026189538 1.149
0.055084616 0.0051949811 1.1460003
0.063609034 0.0065137795 1.1426667
0.057583418 0.013934177 1.149
0.064454809 0.015107421 1.1488001
0.066004001 0.024652096 1.149
0.067488432 0.031225991 1.149
-0.0030034599 0.13816004 1.1420001
0.0033541266 0.1363389 1.1463333
0.019138509 0.13799873 1.149
0.025744289 0.13540632 1.1441112
0.032008853 0.13203651 1.141
-0.0048737652 0.14479314 1.1458572
0.00100729 0.14001331 1.149
-0.26357421 0.1547869 1.149
-0.25721034 0.15777668 1.1434
-0.011682753 0.1568947 1.1423334
-0.0072204662 0.15405591 1.147182
-0.2608881 0.16217369 1.149
-0.25494748 0.1639538 1.1486365
-0.24576071 0.16711178 1.1442001
-0.012151868 0.16511539 1.1445557
-0.0081702415 0.16374059 1.149
-0.24362333 0.17214666 1.1483334
-0.23661883 0.17510591 1.1466
-0.013202263 0.17447115 1.1453078
-0.23066941 0.18231949 1.149
-0.22477587 0.18591617 1.1463333
-0.21982855 0.18770748 1.1450001
-0.013714865 0.1853624 1.1450001
-0.21386683 0.19357821 1.1441112
-0.20582001 0.19647162 1.1427778
-0.014635764 0.19573785 1.1456317
-0.2024653 0.20112224 1.149
-0.19625236 0.20681663 1.1480001
-0.18905228 0.20905782 1.141
-0.021005809 0.20905782 1.141
-0.015961206 0.20494194 1.1454003
-0.19138509 0.21153089 1.149
-0.1831681 0.21336049 1.148
-0.17534068 0.21646638 1.1442001
-0.16724376 0.21931656 1.1423334
-0.021020537 0.21521167 1.1418002
-0.017417612 0.21522826 1.1463336
-0.17224659 0.2216038 1.149
-0.16364844 0.22508661 1.1467779
-0.15582925 0.22705811 1.1443334
-0.14642701 0.22966564 1.1440001
-0.032675646 0.22874355 1.1434
-0.02431435 0.22660935 1.1437501
-0.018109011 0.22335888 1.1476668
-0.15411538 0.23066942 1.149
-0.14186308 0.23308551 1.1476668
-0.13401115 0.23462717 1.1444285
-0.12565605 0.23643976 1.1450001
-0.11623724 0.23948517 1.1430001
-0.044086866 0.2374818 1.1430001
-0.035511229 0.23487274 1.1465557
-0.025530685 0.23345242 1.1482729
-0.019138509 0.23268399 1.149
-0.12188209 0.24074231 1.149
-0.11637779 0.24180366 1.1476668
-0.10569181 0.2482245 1.1482
-0.094984978 0.24723628 1.1458889
-0.085243039 0.24570061 1.1439337
-0.07600297 0.24647431 1.1438001
-0.064410239 0.24836251 1.1435001
-0.054686531 0.24751571 1.1437694
-0.046014145 0.24385045 1.1468463
-0.039284311 0.24074231 1.149
-0.084612355 0.25081521 1.149
-0.078568622 0.25081521 1.149
-0.062451981 0.25282979 1.149
-0.054729421 0.25215825 1.149
0.027536392 -0.016298303 1.1538889
0.032850891 -0.011624161 1.153
0.03563562 -0.0050580152 1.1547998
0.042116527 -0.001684661 1.153
0.038543526 0.0010143033 1.1570001
0.045415606 0.0051864688 1.1544999
0.048516586 0.01407235 1.1556666
0.05358598 0.016255625 1.1533077
0.056621727 0.024664924 1.1544735
0.064017117 0.026954578 1.153
0.059843898 0.031443402 1.1570001
0.06633158 0.033944476 1.1545999
0.071891055 0.038478654 1.155
0.0070942789 0.13879941 1.1556667
0.012148846 0.13871935 1.155
0.037529223 0.13490234 1.1570001
-0.0015161949 0.14707091 1.153
0.0020259768 0.1447964 1.155
0.022314673 0.14098816 1.1570001
-0.27147016 0.15608366 1.1545999
-0.26692677 0.15603656 1.1537273
-0.0025284525 0.15538085 1.1546665
0.0010143033 0.15823132 1.1570001
-0.26476365 0.16531378 1.1557691
-0.25606847 0.16812916 1.153
-0.0032868425 0.16522777 1.1544999
-0.2610817 0.17466302 1.1570001
-0.2551516 0.17441481 1.156294
-0.24608582 0.17593832 1.1551818
-0.23854801 0.17790022 1.153
-0.011118763 0.17891102 1.153
-0.0070887259 0.17387341 1.1553332
-0.23491335 0.18124644 1.155
-0.22681296 0.18833256 1.155
-0.011118763 0.18396498 1.153
-0.0091287298 0.18561751 1.1570001
-0.22197883 0.1940051 1.1562001
-0.21801341 0.19626725 1.1539999
-0.011118763 0.19508375 1.153
-0.0079795169 0.19635727 1.1538889
-0.2124213 0.20228995 1.1556667
-0.2052089 0.20400158 1.1554
-0.19947235 0.20858705 1.155
-0.011523081 0.206809 1.153
-0.0078202644 0.20508491 1.1544545
-0.19531168 0.21217465 1.1543332
-0.18496202 0.2164882 1.1547143
-0.012574782 0.2143579 1.154143
-0.0091287298 0.21198939 1.1570001
-0.1825746 0.22111812 1.1570001
-0.17459606 0.22424197 1.1556667
-0.16743326 0.2276265 1.1539999
-0.016704446 0.22579339 1.155
-0.16228853 0.23227546 1.1570001
-0.15424396 0.23390023 1.155
-0.14550212 0.23649469 1.1558001
-0.13510981 0.23888494 1.153
-0.032345496 0.2395588 1.153
-0.024279281 0.23723784 1.154
-0.019205136 0.23147243 1.153
-0.13339914 0.24146293 1.1556667
-0.12447059 0.24287291 1.1543334
-0.11502364 0.24590997 1.1543332
-0.043897331 0.24781701 1.1538
-0.03658437 0.24394155 1.1556666
-0.02738619 0.24038988 1.1570001
-0.10041603 0.25256154 1.1570001
-0.094330207 0.25296727 1.1570001
-0.084843673 0.25396246 1.154143
-0.075157508 0.25302371 1.1554
-0.066150345 0.25415239 1.1550001
-0.055994827 0.25537211 1.1552857
-0.046629313 0.25207791 1.1563333
0.037733488 0.0054426384 1.1633334
0.042275056 0.0076414649 1.1620001
0.039968111 0.01229788 1.169
0.044650994 0.015302486 1.1637692
0.048735362 0.022155412 1.1663333
0.052064162 0.026885711 1.1645555
0.056136299 0.03526824 1.1671333
0.063022546 0.037883829 1.1626667
0.07022889 0.039694589 1.161
0.057731714 0.042700972 1.169
0.064672031 0.044859726 1.1671054
0.071778052 0.045246422 1.1641113
0.06632071 0.051387575 1.169
0.07374578 0.053603783 1.1683333
0.077886567 0.062514216 1.169
0.038960997 0.12789777 1.1634001
0.045077726 0.12547518 1.1665385
0.051151745 0.12584111 1.1670001
0.017362384 0.13992038 1.1650001
0.039151054 0.13462557 1.1621429
0.042794488 0.13431481 1.1677999
0.0066987351 0.1454356 1.1624287
0.014167557 0.14400353 1.1661428
0.039284896 0.14313366 1.169
0.042700972 0.14313366 1.169
0.0052997679 0.15498345 1.165182
0.011273056 0.15064903 1.169
0.0050114645 0.1651037 1.1654
0.011273056 0.16909584 1.169
-0.26361278 0.17200989 1.161
-0.25139907 0.17811675 1.161
-0.0028299773 0.17641973 1.1632223
0.0027011693 0.17401968 1.1682726
-0.25303176 0.18307677 1.1642728
-0.24516678 0.18475708 1.1650002
-0.23583569 0.18660504 1.1645557
-0.004076675 0.18463546 1.1636002
0.0027328627 0.18634705 1.1689999
-0.23206577 0.19397038 1.1682001
-0.22698508 0.19545566 1.1645555
