# .PCD v0.7 - Point Cloud Data file format
VERSION 0.7
FIELDS x y z
SIZE 4 4 4
TYPE F F F
COUNT 1 1 1
WIDTH 1426
HEIGHT 1
VIEWPOINT 0 0 0 1 0 0 0
POINTS 1426
DATA ascii
-0.20498529 0.024400255 0.93218935
-0.1977571 0.026277773 0.93511766
-0.20533912 0.030631987 0.93000019
-0.19452788 0.034221094 0.93359375
-0.18801074 0.036854591 0.93799996
-0.17021886 0.038648728 0.93800002
-0.19273998 0.043771964 0.93160009
-0.18529595 0.045016274 0.93519145
-0.17442861 0.044849437 0.93736827
-0.16967446 0.045082584 0.93500006
-0.1932261 0.0513639 0.93000007
-0.18413918 0.054367863 0.93154567
-0.17559975 0.054849178 0.93590236
-0.16661128 0.056064367 0.93699998
-0.19299315 0.064991057 0.93000025
-0.18487662 0.065789752 0.93042874
-0.17465207 0.065465249 0.93534875
-0.16562524 0.065813407 0.93799984
-0.19211054 0.073300287 0.93250006
-0.18503882 0.075062923 0.93043917
-0.17475884 0.075213395 0.9346
-0.16505052 0.075560629 0.93774271
-0.15870647 0.075652823 0.93800002
-0.18472886 0.084633037 0.93137854
-0.17518069 0.085136011 0.93377781
-0.1668921 0.084971599 0.93714279
-0.18332782 0.094495222 0.93431818
-0.17483185 0.095105812 0.9335264
-0.16795991 0.094043426 0.93687493
-0.18238212 0.10491694 0.93740004
-0.17539905 0.10421786 0.93603104
-0.16857423 0.10114454 0.93800002
-0.17515273 0.1110123 0.93800002
-0.26149565 0.1291032 0.93800002
-0.25573945 0.1291032 0.93800002
-0.24313064 0.1291032 0.93800002
-0.23391169 0.12832636 0.93766677
-0.22478767 0.12733763 0.93641192
-0.21531899 0.12661837 0.93760866
-0.20585243 0.12698868 0.9379999
-0.19899982 0.12745857 0.93800002
-0.27095222 0.13773748 0.93800002
-0.26463759 0.1352087 0.93576455
-0.25509384 0.1350414 0.93440914
-0.24494492 0.13506895 0.93356091
-0.2352965 0.13403746 0.93232369
-0.22464566 0.13368966 0.93127048
-0.21475306 0.1346298 0.93211919
-0.205006 0.13498786 0.93326217
-0.19679376 0.13611582 0.93535715
-0.27433714 0.145449 0.93785703
-0.26479498 0.1452218 0.93238896
-0.25596127 0.14387903 0.93000019
-0.2437747 0.14131866 0.93000013
-0.2388829 0.1410469 0.93000007
-0.20260206 0.14145455 0.93000007
-0.19539569 0.14467111 0.9341715
-0.2745032 0.15422112 0.9379999
-0.26500517 0.15508465 0.93216681
-0.25790656 0.15191756 0.93000007
-0.19302048 0.15479772 0.93281484
-0.18908019 0.15548791 0.93663639
-0.27236843 0.16418856 0.93800002
-0.26526237 0.16478029 0.93182153
-0.1928215 0.16504322 0.93200016
-0.18844981 0.16547751 0.93578577
-0.31001213 0.17844199 0.93800002
-0.30479252 0.17761447 0.93743753
-0.29484501 0.17771105 0.93800002
-0.27108929 0.17350811 0.93800002
-0.26424032 0.17513335 0.93275869
-0.19241175 0.17445554 0.93109095
-0.18636619 0.17454377 0.93475002
-0.31077117 0.18464096 0.93799996
-0.30384788 0.18466721 0.93551427
-0.29475605 0.18477543 0.93619049
-0.28556585 0.18859041 0.93747061
-0.27284354 0.18633619 0.93800002
-0.26418093 0.18506111 0.93312901
-0.25817832 0.18724723 0.93000013
-0.19198126 0.18436474 0.93100005
-0.18705069 0.18517189 0.93477786
-0.31001213 0.19406594 0.93800002
-0.30427206 0.19512445 0.93586195
-0.29497996 0.19445235 0.93271881
-0.28486967 0.19450141 0.93340552
-0.27517226 0.19563355 0.93534094
-0.26527271 0.19557633 0.93603331
-0.25620008 0.19620931 0.93100011
-0.19157995 0.19607021 0.93125004
-0.18785435 0.19491538 0.93575001
-0.30350322 0.20492162 0.93636358
-0.29639125 0.20493972 0.93136847
-0.2734001 0.20268276 0.93150008
-0.26606911 0.20554924 0.93469048
-0.25516623 0.20527184 0.93242431
-0.24825886 0.20708621 0.93000007
-0.19178702 0.20484492 0.93093771
-0.18825446 0.20602281 0.93473685
-0.30299616 0.21496102 0.93694121
-0.29568866 0.21487384 0.93195456
-0.28780091 0.21931569 0.93000007
-0.2632336 0.2135967 0.93124008
-0.25548136 0.2147772 0.93272233
-0.24564698 0.21619415 0.93060017
-0.2388829 0.21931569 0.93000007
-0.19215164 0.21632995 0.93054557
-0.18737559 0.21415606 0.93408698
-0.30080223 0.222518 0.93800002
-0.29444614 0.22483879 0.93496144
-0.28529471 0.22551115 0.9312309
-0.25285944 0.22420466 0.9330644
-0.24494025 0.22530967 0.9328751
-0.23765995 0.22563428 0.93000019
-0.19308081 0.22482295 0.93343478
-0.18872093 0.2240804 0.93799996
-0.29225776 0.23260908 0.93757153
-0.28498757 0.23477727 0.93528575
-0.2780309 0.23520617 0.93050021
-0.25129268 0.23425555 0.93033344
-0.24507962 0.23497333 0.93236846
-0.23530789 0.23452853 0.93160009
-0.22545898 0.23704156 0.93045014
-0.21523921 0.23806758 0.93000025
-0.20489672 0.23799939 0.93064302
-0.19586058 0.23406373 0.93482608
-0.28229219 0.24464338 0.93770009
-0.27538893 0.24497302 0.93213046
-0.26888594 0.24768813 0.93000013
-0.2502971 0.2405135 0.93000007
-0.24471994 0.24484517 0.9336428
-0.23547406 0.24290848 0.93657905
-0.22486864 0.24454977 0.9352591
-0.21475515 0.24504152 0.93437922
-0.20585689 0.24365547 0.93519056
-0.19927393 0.241486 0.93800002
-0.3148638 0.25672624 0.9379999
-0.28040886 0.25080556 0.93800002
-0.27459136 0.25422695 0.93599993
-0.26518801 0.25525981 0.93207711
-0.25498834 0.25770733 0.93075013
-0.24551217 0.25466365 0.93405557
-0.21736483 0.25080556 0.93800002
-0.31351367 0.26444012 0.93799984
-0.30672291 0.26571682 0.9379999
-0.27136338 0.26067331 0.93800002
-0.2646533 0.26404712 0.93768412
-0.25467649 0.26467544 0.93469995
-0.24583523 0.26425451 0.93653572
-0.31366405 0.27566734 0.93628567
-0.30491379 0.27119893 0.93800002
-0.25393036 0.27136341 0.93800002
-0.24833862 0.27136338 0.93800002
-0.3149423 0.28527033 0.93382341
-0.30880833 0.28504646 0.93207699
-0.31817478 0.29036516 0.93300003
-0.23187132 0.0091418801 0.94800007
-0.22415577 0.0091322372 0.94700003
-0.2130335 0.0088648535 0.94800001
-0.20503931 0.0089044292 0.94800001
-0.19364163 0.0091418801 0.94800007
-0.23139642 0.0124662 0.94800001
-0.22431107 0.012283603 0.94314295
-0.21453679 0.012290815 0.94229418
-0.2045379 0.014312771 0.94287127
-0.19563648 0.015432317 0.94534367
-0.18800297 0.016449215 0.94245452
-0.2002482 0.020601667 0.94000006
-0.19355226 0.024048282 0.94103885
-0.1849881 0.024937943 0.94079453
-0.17746355 0.027457112 0.94329995
-0.19077143 0.031726569 0.94000006
-0.18379064 0.033977598 0.94042891
-0.17584471 0.034624413 0.94200027
-0.1804706 0.040379267 0.94000006
-0.17641364 0.043802317 0.94000024
-0.16351838 0.060863215 0.94000006
-0.16124238 0.078835711 0.94000006
-0.1582208 0.079110399 0.94000006
-0.16210569 0.086644717 0.94000024
-0.15794428 0.084878244 0.94257146
-0.19131079 0.095037028 0.9467501
-0.18853275 0.09600272 0.9424001
-0.16362853 0.095913433 0.9409548
-0.15792483 0.095089369 0.94564992
-0.2119254 0.10887148 0.94800007
-0.20195244 0.10887148 0.94800013
-0.19238108 0.10543327 0.94699997
-0.1875301 0.10592199 0.94233346
-0.17195401 0.10803952 0.94075
-0.16488293 0.10514442 0.94347066
-0.15748523 0.10324411 0.94550008
-0.28126124 0.11718227 0.94800001
-0.27425641 0.11694481 0.94800001
-0.263886 0.11617054 0.94800001
-0.25564018 0.11784713 0.94800007
-0.24433751 0.11884444 0.94800001
-0.23491859 0.11773632 0.94800001
-0.22457379 0.11754698 0.94673687
-0.21472774 0.11601347 0.94570595
-0.20530185 0.11519398 0.94538099
-0.19525443 0.11549083 0.94466662
-0.18482308 0.11551222 0.941167
-0.17482349 0.11535128 0.94234294
-0.16626422 0.11162476 0.94699997
-0.29337123 0.12881739 0.94800007
-0.28288868 0.12478921 0.94791669
-0.27437419 0.12467774 0.94520593
-0.26521561 0.12467924 0.94323689
-0.25511244 0.12447123 0.94370747
-0.24526767 0.12447625 0.94368434
-0.23540457 0.12376659 0.94281256
-0.22528534 0.12275057 0.94165009
-0.21450113 0.12230854 0.94023091
-0.20405953 0.12257992 0.9400003
-0.19434944 0.12518759 0.9411822
-0.18470305 0.12533623 0.94058365
-0.17699505 0.12430649 0.94586354
-0.29321823 0.13542831 0.94773906
-0.28428629 0.13482416 0.94541943
-0.27576381 0.1348218 0.94160038
-0.2694698 0.1310266 0.94000006
-0.19264847 0.13377351 0.9400003
-0.1847754 0.13523361 0.94200033
-0.17932305 0.13117214 0.94700003
-0.29450807 0.14443049 0.94719988
-0.28519562 0.14488913 0.94331038
-0.27787527 0.14305797 0.94000018
-0.19090876 0.14476104 0.94000012
-0.18528837 0.14531241 0.94358361
-0.29297891 0.1542622 0.94749993
-0.28439081 0.15482865 0.94313049
-0.27874056 0.15595461 0.94000006
-0.18423826 0.154746 0.94365734
-0.17932305 0.15773951 0.94700003
-0.32354581 0.16640781 0.94800001
-0.31584451 0.16533621 0.94709986
-0.30554721 0.16840585 0.94564289
-0.29450849 0.16477256 0.94800007
-0.28492033 0.16486201 0.94646162
-0.27665871 0.16508377 0.94070601
-0.18351802 0.16443397 0.94311434
-0.17785113 0.16122952 0.94800007
-0.32402617 0.17491883 0.94762957
-0.31531981 0.1745356 0.94458336
-0.30357277 0.17287165 0.94185209
-0.29448518 0.17421734 0.94442856
-0.28473076 0.17551838 0.94613868
-0.27626547 0.17548136 0.94228584
-0.18230601 0.17529836 0.94399989
-0.17996389 0.17664658 0.94600004
-0.32370555 0.1847571 0.94699991
-0.31623605 0.18495227 0.9418335
-0.29053301 0.1807586 0.94150007
-0.28486997 0.18402259 0.94241947
-0.27568609 0.18487561 0.94096029
-0.18243986 0.18491764 0.94166672
-0.17932941 0.18551661 0.94663638
-0.32248083 0.19287142 0.94771433
-0.3154718 0.19506617 0.94283342
-0.27441421 0.1903594 0.94000006
-0.18298106 0.19506225 0.94136375
-0.17929512 0.19468383 0.94645458
-0.31523997 0.20474635 0.94470382
-0.30878955 0.20495714 0.94000006
-0.18341523 0.20441665 0.94080806
-0.17648177 0.20539498 0.94568735
-0.31261107 0.21476391 0.94585711
-0.30789259 0.21386708 0.94085711
-0.18276644 0.21463592 0.94165021
-0.17675668 0.2140609 0.94549996
-0.34306985 0.22605376 0.94800007
-0.33582261 0.22724523 0.94662482
-0.32740396 0.22856751 0.94739997
-0.31190616 0.22261241 0.94749999
-0.30573246 0.22537148 0.94305021
-0.29913619 0.22991461 0.94000006
-0.18419065 0.22536111 0.94142455
-0.17904125 0.22345649 0.9460001
-0.34223872 0.23369971 0.94800007
-0.3350316 0.23487197 0.94393116
-0.32513204 0.23488313 0.94351059
-0.31696895 0.23706925 0.94691658
-0.3043175 0.23393363 0.94700009
-0.29600438 0.23659773 0.94281256
-0.28842333 0.23897934 0.94000006
-0.19238393 0.23649649 0.94050008
-0.18523939 0.23436931 0.94514292
-0.33530352 0.24447547 0.94612485
-0.32467324 0.24488366 0.9409095
-0.31507587 0.24483891 0.94354361
-0.30511919 0.24525823 0.94769239
-0.2942352 0.24528508 0.94579303
-0.28641653 0.24568996 0.94069231
-0.2354084 0.24826378 0.9400003
-0.22579427 0.2496922 0.94000006
-0.20384289 0.24796729 0.94074994
-0.19547512 0.24435942 0.94564003
-0.18732543 0.24084699 0.94800007
-0.33208221 0.2523818 0.94700003
-0.32447407 0.25493506 0.94237512
-0.3141557 0.25271711 0.94096029
-0.30456138 0.254733 0.94412261
-0.2950938 0.25558889 0.94694102
-0.28513253 0.25483629 0.94322723
-0.27812251 0.25834492 0.94000006
-0.24145153 0.25628474 0.94000006
-0.23619866 0.25561407 0.94378799
-0.22480583 0.25472236 0.94321746
-0.21460034 0.255294 0.94218528
-0.20581736 0.25394592 0.94647366
-0.32248712 0.26178142 0.94200003
-0.31891379 0.26452538 0.94000006
-0.30287272 0.26427609 0.94155204
-0.29583076 0.26517466 0.94585693
-0.283865 0.26364771 0.94694114
-0.27499563 0.26516345 0.94255018
-0.26650316 0.26815128 0.94000018
-0.24166027 0.26655504 0.94081825
-0.23758234 0.26390162 0.94609088
-0.22272943 0.26179019 0.94800001
-0.21643826 0.26172113 0.94775003
-0.31245679 0.27528334 0.94239998
-0.3043099 0.27594781 0.94045031
-0.29557985 0.27512872 0.9435609
-0.28007397 0.27010101 0.94800007
-0.27390012 0.27262151 0.94653851
-0.26457494 0.27450594 0.9435789
-0.25530994 0.27643925 0.94283348
-0.24449153 0.27522141 0.94370008
-0.23839328 0.27203491 0.94750005
-0.3129133 0.28282923 0.94733334
-0.3050991 0.28451639 0.94460708
-0.29434681 0.28423765 0.94497377
-0.26145774 0.28073883 0.94800007
-0.25431046 0.28173611 0.94800001
-0.24599966 0.28132057 0.94800007
-0.30417526 0.29032394 0.94800001
-0.29586449 0.29170907 0.94800007
-0.212703 -0.00084072334 0.95900005
-0.20934011 -0.00084072334 0.95900005
-0.24336433 0.0080608632 0.95789993
-0.23521805 0.0061626481 0.95545465
-0.22511877 0.0059638605 0.95629412
-0.2151311 0.0043031028 0.95485198
-0.20611104 0.0048952647 0.95442873
-0.1984736 0.0087743374 0.95325005
-0.2445868 0.012849119 0.95700002
-0.23654626 0.013415151 0.95100015
-0.19758926 0.01083823 0.95100003
-0.1573339 0.089146771 0.9563334
-0.30266041 0.097523913 0.95900005
-0.29761606 0.096683182 0.95900005
-0.21102156 0.098364629 0.95900005
-0.20426734 0.097870745 0.95678949
-0.1963149 0.097374685 0.95521432
-0.15417674 0.09574832 0.95387512
-0.31022692 0.10677186 0.95900005
-0.30412796 0.10473401 0.95839977
-0.29470006 0.10528934 0.95730758
-0.28509358 0.10594077 0.95693535
-0.27587396 0.10723959 0.95538092
-0.26580495 0.10816055 0.95470583
-0.25726801 0.1087207 0.95840007
-0.23611926 0.10853998 0.95557147
-0.22354066 0.10777929 0.95799994
-0.2147598 0.10536009 0.95512903
-0.20530352 0.10497706 0.95209694
-0.19748488 0.10462667 0.95250022
-0.15315759 0.1054875 0.95470381
-0.14763321 0.10481331 0.9577499
-0.31129691 0.11563767 0.95899999
-0.30464631 0.11538512 0.95681232
-0.29504105 0.11525319 0.95440638
-0.28562561 0.1146635 0.95111126
-0.27512428 0.11361194 0.95100015
-0.26515299 0.11219076 0.95173347
-0.25462812 0.11365126 0.95351624
-0.2448812 0.11399172 0.95396882
-0.23487246 0.11350689 0.95145845
-0.22577216 0.11290073 0.95400012
-0.21793179 0.11155039 0.95100003
-0.19842297 0.11088343 0.95100003
-0.17091055 0.11922053 0.95100003
-0.16458014 0.11657149 0.95367873
-0.15468168 0.11451272 0.95702839
-0.14681131 0.113918 0.95899987
-0.13199356 0.11854199 0.95900005
-0.311391 0.1235863 0.95899993
-0.30401534 0.12552896 0.95568961
-0.29465291 0.12506123 0.95213819
-0.28838786 0.12437438 0.95100015
-0.17279765 0.12608702 0.95500004
-0.1645615 0.12216634 0.95775008
-0.15572064 0.12115756 0.95900005
-0.13241391 0.12400667 0.95899987
-0.31022692 0.13283429 0.95900005
-0.30485851 0.13517274 0.95634609
-0.29627025 0.13392416 0.95100015
-0.28929737 0.13089247 0.95100003
-0.18091507 0.13839586 0.95100003
-0.17590156 0.13504262 0.95520008
-0.13339476 0.13311452 0.95900005
-0.34169394 0.14736678 0.95900005
-0.33454904 0.14710072 0.95883316
-0.32788211 0.14796731 0.95900005
-0.31022692 0.14208224 0.95900005
-0.30475473 0.14473422 0.95538092
-0.29930189 0.14756668 0.95100003
-0.18080024 0.14570083 0.95333332
-0.17785896 0.14392194 0.95764285
-0.34217438 0.15469307 0.95899987
-0.33450487 0.15449496 0.95661277
-0.32532009 0.15484929 0.95589459
-0.31491509 0.15632045 0.95658809
-0.30503252 0.15516709 0.95637029
-0.29874608 0.15507005 0.95100003
-0.18055257 0.15129381 0.95350003
-0.17769453 0.15630582 0.95461112
-0.3409133 0.16415122 0.95900005
-0.33445224 0.1645987 0.9556666
-0.32616377 0.16333008 0.95153344
-0.31240207 0.16252476 0.95333356
-0.30512592 0.16387424 0.95390326
-0.29418847 0.16524132 0.95100015
-0.18091507 0.16924313 0.95100003
-0.1749534 0.16552222 0.95341945
-0.34049293 0.17402972 0.95899999
-0.33447433 0.17494257 0.95372009
-0.32931545 0.17491236 0.95100003
-0.2917985 0.17174426 0.95100003
-0.28929737 0.17174426 0.95100003
-0.18091507 0.17174426 0.95100003
-0.17584132 0.17437196 0.95669687
-0.33487618 0.18519026 0.95547831
-0.32903752 0.1856394 0.95100003
-0.17739342 0.1836604 0.95375013
-0.33300254 0.19421066 0.95680016
-0.32638434 0.19580483 0.95292324
-0.1774866 0.19687864 0.95320016
-0.33136511 0.20309474 0.95900005
-0.32516748 0.20545678 0.95452642
-0.17437288 0.20253792 0.95300007
-0.3544752 0.21597674 0.9568274
-0.34476462 0.21598701 0.95586455
-0.33463457 0.21614271 0.95859975
-0.32530358 0.2155143 0.95743996
-0.31801927 0.21618828 0.95212507
-0.1741014 0.21710649 0.9525001
-0.3606703 0.22111024 0.95900005
-0.35436425 0.22451368 0.95559102
-0.34511256 0.22329782 0.95173705
-0.33467662 0.22299041 0.95465505
-0.32468867 0.22499169 0.95499998
-0.31623852 0.22604668 0.95257908
-0.17609265 0.22580101 0.95363653
-0.35251141 0.23304856 0.95771438
-0.34712192 0.23528858 0.95327282
-0.32097834 0.23093767 0.95100003
-0.31450555 0.23377505 0.95113653
-0.30826426 0.23739892 0.95100009
-0.18202667 0.23816316 0.95100003
-0.17610237 0.2346922 0.95464295
-0.34397697 0.24445638 0.95560008
-0.30730551 0.24160917 0.95100003
-0.19314282 0.24788977 0.95100003
-0.18432149 0.24525164 0.95292884
-0.17804548 0.24232145 0.95710009
-0.33512899 0.25607082 0.95520002
-0.23093767 0.25928381 0.95100003
-0.20293009 0.25726241 0.95340014
-0.19546697 0.25362211 0.9553811
-0.18617517 0.25222313 0.95662504
-0.33139139 0.26427907 0.95700002
-0.32856211 0.264476 0.95366669
-0.29196525 0.26578674 0.95100009
-0.28729644 0.26778764 0.95100009
-0.23341887 0.26606122 0.95326322
-0.22628725 0.26612857 0.95460004
-0.21432643 0.2661716 0.95519054
-0.20625547 0.26284361 0.95666671
-0.29121369 0.27407181 0.95181829
-0.28541031 0.2756072 0.95343345
-0.27565062 0.27710962 0.95137507
-0.26928833 0.27929285 0.95100003
-0.2409422 0.27929285 0.95100003
-0.2353455 0.27484858 0.95619994
-0.22531386 0.27155364 0.95900005
-0.21858807 0.27155364 0.95900005
-0.2915206 0.28874156 0.95100003
-0.2862744 0.28445405 0.95527273
-0.27559516 0.28469917 0.95730752
-0.26504901 0.28537178 0.95375001
-0.25471431 0.2867673 0.95366693
-0.24400975 0.28513727 0.95404172
-0.2389984 0.28268313 0.95825005
-0.31180751 0.29096478 0.95100003
-0.30489466 0.29548347 0.95481265
-0.29389903 0.29588178 0.95413649
-0.2867288 0.29373053 0.95774984
-0.27239436 0.29004955 0.95900005
-0.26513723 0.29156506 0.95845449
-0.25481448 0.29260612 0.95792854
-0.24650006 0.29206729 0.95899999
-0.30287057 0.30160949 0.95900005
-0.29441902 0.30152875 0.95807701
-0.28724715 0.30069873 0.95900005
-0.23143211 -0.00084773666 0.96700007
-0.2242154 -0.0017688741 0.96445459
-0.21661146 -0.0019695777 0.96266669
-0.25134858 0.0071122716 0.9625715
-0.24674109 0.0047379108 0.96261537
-0.23342545 0.0019706492 0.96433342
-0.22511367 0.001827558 0.96233326
-0.2522682 0.012654859 0.96240008
-0.31281483 0.089012347 0.96700007
-0.30603296 0.088588476 0.96700007
-0.29925105 0.089012347 0.96700007
-0.32250324 0.097247504 0.96700007
-0.31524283 0.094777942 0.96609139
-0.30517152 0.093555912 0.96346164
-0.2947101 0.095590279 0.96324998
-0.2853449 0.097690284 0.96421427
-0.27681881 0.098022811 0.96618181
-0.26195064 0.098054878 0.96700007
-0.25410908 0.098549388 0.96700007
-0.24584363 0.099185191 0.96700007
-0.23227984 0.099185191 0.96700007
-0.22489242 0.09894298 0.96700007
-0.21484832 0.09702985 0.96485716
-0.20481503 0.092957988 0.96352625
-0.19762641 0.092266649 0.96337509
-0.15305714 0.094141789 0.96458334
-0.14741299 0.097826101 0.96530008
-0.32233557 0.1047933 0.96700007
-0.31535262 0.10457243 0.96364301
-0.3086673 0.10035904 0.96200007
-0.29264358 0.10035904 0.96200007
-0.28396538 0.10115506 0.96244442
-0.27450183 0.10270619 0.96318185
-0.26470542 0.10356823 0.96400023
-0.25456333 0.1043557 0.96354574
-0.24486338 0.10469657 0.9631471
-0.23482774 0.10453004 0.96469724
-0.22536248 0.10296515 0.96345448
-0.21640447 0.10069638 0.96200007
-0.14365618 0.10438109 0.96345836
-0.13581021 0.10609589 0.96533364
-0.12894504 0.1079338 0.96640003
-0.32189074 0.1152008 0.96625
-0.31614542 0.11402778 0.96273685
-0.25216264 0.11047929 0.96200007
-0.24878924 0.11047929 0.96200007
-0.23192215 0.11047929 0.96200007
-0.14328574 0.11503339 0.96200001
-0.13509625 0.11464846 0.96262872
-0.12560399 0.11556548 0.9645164
-0.11849771 0.11849904 0.96550006
-0.32213992 0.12461728 0.96700013
-0.3169753 0.12574695 0.96417642
-0.16539887 0.12702243 0.96210003
-0.15491702 0.12597893 0.96251857
-0.14505677 0.1248163 0.96200013
-0.13662323 0.12515365 0.96200001
-0.12494699 0.12495094 0.96302795
-0.11770482 0.12567765 0.96594113
-0.35181072 0.13987654 0.96700007
-0.34502882 0.13987654 0.96700013
-0.33739918 0.13987654 0.96700007
-0.32129219 0.13902882 0.96700007
-0.31603906 0.13560116 0.96488482
-0.17183325 0.13620158 0.96200001
-0.1660299 0.13493393 0.96433359
-0.15448649 0.13383238 0.96516687
-0.14472494 0.13490705 0.96328133
-0.13516141 0.13521765 0.96199995
-0.12601128 0.13487431 0.96427608
-0.11868313 0.13139918 0.96700007
-0.35255978 0.1447707 0.96643752
-0.34563914 0.14451864 0.96354556
-0.33530259 0.14291379 0.96342105
-0.32544953 0.14670861 0.96557909
-0.31541607 0.14508286 0.96476936
-0.30951068 0.14927354 0.96200007
-0.17318061 0.14543524 0.96365398
-0.16785187 0.14157203 0.96700007
-0.15004939 0.14157203 0.96700007
-0.14420396 0.145014 0.96508026
-0.13507853 0.14520921 0.9630003
-0.12641044 0.14470318 0.96291667
-0.35266817 0.15430993 0.96625012
-0.3477633 0.15531218 0.96283334
-0.32237604 0.15076125 0.96433336
-0.31683943 0.15188487 0.96376926
-0.17546085 0.15383619 0.96365005
-0.14379966 0.15423191 0.9663685
-0.13529947 0.15475218 0.96460032
-0.12736759 0.15453209 0.96500003
-0.35237586 0.16446091 0.96700007
-0.34613571 0.16538492 0.963
-0.17120072 0.16698396 0.96200007
-0.13479012 0.1605048 0.96700007
-0.12900618 0.1611851 0.96600008
-0.35068044 0.17096023 0.96700007
-0.34522164 0.17504808 0.9646154
-0.17373079 0.1787909 0.96200001
-0.16951402 0.17963426 0.96200007
-0.34354556 0.18431151 0.96441668
-0.17401797 0.18585771 0.96421748
-0.1688827 0.18581188 0.96528584
-0.34246325 0.19484891 0.96550006
-0.33747032 0.19758445 0.96316671
-0.17649363 0.19409207 0.96513337
-0.36361665 0.20671748 0.96683341
-0.35409763 0.20619649 0.96476686
-0.34539729 0.20640184 0.9655003
-0.33627671 0.20596409 0.96408701
-0.17457414 0.20324816 0.96200007
-0.36387965 0.21400705 0.96488237
-0.35585204 0.21138738 0.96285719
-0.34504828 0.21118164 0.96280003
-0.33680689 0.21244368 0.96240008
-0.36179858 0.22011521 0.96200007
-0.17363937 0.22729738 0.96485716
-0.36181399 0.23668809 0.96700013
-0.35724744 0.23516108 0.96374995
-0.17219609 0.23522738 0.96379995
-0.36113584 0.24160495 0.96700007
-0.3542726 0.24372253 0.96578568
-0.34884715 0.24622279 0.96350008
-0.17571427 0.24598096 0.96333331
-0.35011524 0.25008231 0.96700007
-0.34445745 0.253598 0.96471441
-0.19369017 0.25834724 0.96200007
-0.183597 0.25620303 0.963
-0.1770665 0.25280839 0.96640003
-0.33742061 0.26580411 0.96560001
-0.20416509 0.26631185 0.96349996
-0.19561958 0.26288745 0.96390009
-0.18508381 0.26167977 0.96600014
-0.33570373 0.270428 0.96700007
-0.23189124 0.27725789 0.96275008
-0.22455151 0.27604875 0.96294445
-0.21538875 0.27470663 0.96350002
-0.20915163 0.27071643 0.96200007
-0.28336674 0.28842682 0.96200007
-0.27914995 0.28927019 0.96200007
-0.2403557 0.28842682 0.96200007
-0.23571847 0.2851066 0.96404368
-0.22606312 0.2808834 0.96700007
-0.21871606 0.28060085 0.96700007
-0.2824029 0.29505321 0.96199995
-0.27541009 0.29526463 0.96346444
-0.26532552 0.29676306 0.96315378
-0.25508386 0.29709092 0.96219999
-0.2441083 0.29544851 0.96350002
-0.23780282 0.29365936 0.9653334
-0.30576864 0.30492792 0.96350002
-0.29512718 0.30683678 0.96313328
-0.28507435 0.30478594 0.9643451
-0.27861518 0.30063531 0.96600008
-0.26279837 0.3009465 0.96700007
-0.25530976 0.30099875 0.96512502
-0.24787135 0.30032408 0.96500009
-0.29162139 0.31111935 0.96700007
-0.24018475 -0.00085474999 0.97500002
-0.23423257 -0.0039907717 0.9715789
-0.2276842 -0.0045436174 0.97149998
-0.26152849 0.0064211451 0.97650003
-0.25734037 0.0068152063 0.97200012
-0.26180509 0.014276516 0.97700006
-0.2578468 0.013647799 0.97283334
-0.3300913 0.079736337 0.97800004
-0.32394293 0.076096304 0.97731835
-0.31494734 0.075718828 0.97648507
-0.30562863 0.076757811 0.97764015
-0.15284711 0.078756519 0.97766674
-0.14787175 0.078637004 0.97500002
-0.33289117 0.085801534 0.97721052
-0.32475084 0.085539617 0.97299993
-0.31521931 0.08440274 0.97131228
-0.30439657 0.084190741 0.9720667
-0.29532135 0.0860122 0.97544122
-0.28464016 0.086570874 0.9763335
-0.27449125 0.085884266 0.97484374
-0.26591113 0.087526537 0.97531581
-0.25635663 0.088310137 0.97800004
-0.23312543 0.088476196 0.97714293
-0.2244592 0.089029439 0.97650003
-0.21481641 0.088863969 0.97625011
-0.20486817 0.087620839 0.97461116
-0.1989066 0.088811882 0.97100002
-0.16090165 0.082594275 0.97799999
-0.15495951 0.085427977 0.97363651
-0.14570509 0.085882261 0.97481263
-0.13839628 0.088458724 0.97650003
-0.33489597 0.094520725 0.97575015
-0.32614359 0.094809033 0.97014284
-0.3188875 0.090989232 0.97000003
-0.29457062 0.09225326 0.97092307
-0.2857317 0.093489096 0.97217375
-0.27470082 0.094357893 0.9710384
-0.26520669 0.09488228 0.97169429
-0.25508076 0.093744338 0.97429401
-0.24493195 0.095604949 0.97540641
-0.23499914 0.095118374 0.97451741
-0.22527047 0.094366826 0.97228563
-0.21565107 0.092860982 0.97181249
-0.20833983 0.090989232 0.97000003
-0.15249909 0.091556139 0.97000009
-0.14414507 0.094577491 0.97134453
-0.13496426 0.095353074 0.97439474
-0.12718798 0.096693866 0.97609103
-0.34037986 0.10374298 0.97800004
-0.33515635 0.10482693 0.97596014
-0.32714823 0.10520249 0.97000021
-0.1337512 0.10226398 0.97075009
-0.12452899 0.10428277 0.97313517
-0.11811914 0.10644984 0.97399998
-0.3336983 0.11465398 0.97600025
-0.3265408 0.11564986 0.97000021
-0.12202961 0.11211292 0.97218186
-0.11582451 0.11506753 0.97440749
-0.10888726 0.11746106 0.97800004
-0.36552969 0.12946437 0.97799999
-0.35458785 0.12921943 0.9780001
-0.34466675 0.12946437 0.9780001
-0.33389676 0.12510277 0.97608012
-0.32664207 0.12504309 0.97030008
-0.11393207 0.12478067 0.97425002
-0.37124553 0.13546604 0.97800004
-0.3652603 0.13507493 0.97619379
-0.35503957 0.13478428 0.9740001
-0.34469256 0.13457015 0.97267658
-0.3348529 0.13488555 0.97247207
-0.32536328 0.13449261 0.97023988
-0.16128622 0.13804285 0.97000003
-0.15604228 0.13797198 0.97000015
-0.11117229 0.13084382 0.97550005
-0.36482525 0.14514481 0.97489667
-0.35743746 0.14446786 0.97000015
-0.33192644 0.14144433 0.97000009
-0.32579675 0.14296789 0.97000021
-0.16502874 0.14547212 0.97303331
-0.15542853 0.1451475 0.97255862
-0.14881417 0.14626306 0.97000003
-0.36519024 0.15469272 0.97490489
-0.35800439 0.15519193 0.97000021
-0.17216054 0.15546028 0.9735716
-0.16427359 0.15208559 0.97766674
-0.15453617 0.1552659 0.97503585
-0.14845122 0.15583393 0.97133338
-0.36347559 0.16414006 0.9751668
-0.35739127 0.16508214 0.97064298
-0.17426783 0.16298197 0.97540009
-0.15390278 0.16445903 0.97650009
-0.14480184 0.16512069 0.97315145
-0.13464853 0.16569136 0.97182608
-0.12840536 0.16412076 0.97000003
-0.3615362 0.17391729 0.9772501
-0.35528499 0.17510761 0.97284228
-0.34950069 0.17772663 0.97000003
-0.15175627 0.17282331 0.9780001
-0.14514245 0.17409855 0.97596025
-0.13589917 0.17417458 0.97684634
-0.35471594 0.18552554 0.97609532
-0.34808341 0.18537994 0.97000009
-0.3815341 0.19976954 0.97800004
-0.37439284 0.19536844 0.97538716
-0.36543408 0.1952828 0.97478956
-0.35563955 0.19524863 0.9743939
-0.3472259 0.19620511 0.97035307
-0.17365246 0.19597521 0.97100002
-0.16868503 0.19509849 0.97180003
-0.38135526 0.20577647 0.97628576
-0.37540415 0.20498966 0.97234786
-0.36596674 0.20293629 0.97060001
-0.35592163 0.20162243 0.97190911
-0.3456133 0.20299469 0.97000015
-0.17397672 0.20366536 0.97392315
-0.169012 0.20150651 0.97533339
-0.38239148 0.21091548 0.97800004
-0.3745406 0.21375704 0.97466677
-0.36934257 0.21429241 0.97000009
-0.3729603 0.22206143 0.97800004
-0.36934754 0.22092614 0.97300005
-0.17296606 0.22563037 0.97320008
-0.36480731 0.23895304 0.97000003
-0.17083451 0.23525997 0.9739092
-0.1686448 0.232851 0.97650003
-0.36310655 0.2423545 0.97000003
-0.35698393 0.2474567 0.97000009
-0.17168035 0.24557273 0.97377777
-0.16890387 0.24606806 0.97799999
-0.35469234 0.25622645 0.97542101
-0.3475098 0.25777596 0.97300005
-0.17376725 0.25571617 0.97366667
-0.35244656 0.26484811 0.97770005
-0.34528115 0.26548672 0.97290897
-0.33929631 0.26956624 0.97000003
-0.19312991 0.26785299 0.97171444
-0.18470606 0.26661444 0.97318751
-0.1764795 0.26319268 0.97529399
-0.35066843 0.27178946 0.97800004
-0.34312317 0.27415943 0.97292864
-0.33713058 0.27427286 0.97160006
-0.21203969 0.27740046 0.97137511
-0.20532738 0.27341926 0.97387516
-0.19491339 0.27185771 0.97516674
-0.18500121 0.27065417 0.977
-0.34037986 0.28036326 0.97800004
-0.23236445 0.28701058 0.97090006
-0.22522232 0.28583676 0.97240001
-0.21606605 0.28353587 0.97416681
-0.24065377 0.29847869 0.97000003
-0.23483086 0.29463392 0.97275007
-0.3086831 0.3086831 0.97000003
-0.2814773 0.30838364 0.97119999
-0.27493635 0.30534014 0.97220826
-0.26525861 0.30570024 0.97222221
-0.25474668 0.3069627 0.97431248
-0.24454874 0.30490497 0.97373915
-0.23804633 0.30215502 0.97500002
-0.31208631 0.3129437 0.97800004
-0.30357882 0.31506401 0.97507161
-0.29546228 0.31636503 0.9742353
-0.28502509 0.31550807 0.97429037
-0.27624747 0.3122308 0.97719985
-0.26408091 0.31158251 0.97757155
-0.25850007 0.31165761 0.97800004
-0.29365265 0.3215175 0.97800004
-0.28477263 0.32200742 0.9780001
-0.25269127 -0.0022511049 0.9878
-0.2454944 -0.003120495 0.98212504
-0.27137616 0.0072896085 0.98628581
-0.2664924 0.0068162424 0.98318189
-0.25112292 0.00086000998 0.98100007
-0.24545641 0.0015975373 0.98142862
-0.27186713 0.015195104 0.98790914
-0.26645479 0.015114436 0.98320007
-0.21068667 0.059824608 0.98900002
-0.34074017 0.068494841 0.98900002
-0.33409277 0.066503495 0.9878
-0.32472295 0.066531569 0.98473096
-0.31486106 0.066357821 0.98496449
-0.30550662 0.066356622 0.98629165
-0.29542944 0.068009384 0.98824996
-0.23322928 0.068061329 0.98900002
-0.22584587 0.067619808 0.98806679
-0.21419676 0.066004775 0.9888097
-0.20869908 0.06494575 0.9878
-0.16553326 0.066462338 0.98744446
-0.342729 0.07489673 0.98806679
-0.3350516 0.07547801 0.98265535
-0.32728159 0.07348308 0.98100007
-0.31390366 0.071380831 0.98100013
-0.30285203 0.073611729 0.98212504
-0.29503012 0.074816532 0.98286521
-0.28516823 0.074942693 0.98483711
-0.27500737 0.075341202 0.98615795
-0.26604927 0.07698711 0.98812521
-0.25357428 0.075156204 0.98750013
-0.24491099 0.075113423 0.98716664
-0.23483348 0.074919447 0.98645449
-0.22452118 0.074585818 0.98594105
-0.21472003 0.074457094 0.98761106
-0.20724869 0.074890561 0.98678589
-0.16342556 0.073813818 0.9853636
-0.15621936 0.074768938 0.98225015
-0.1452287 0.075493388 0.98512524
-0.13930847 0.077874303 0.98700005
-0.34577379 0.084788978 0.98732013
-0.33832794 0.084452972 0.98100007
-0.29412341 0.081700951 0.98100007
-0.28702834 0.082560964 0.98100001
-0.27454898 0.081332095 0.98175007
-0.26422748 0.082851931 0.98263663
-0.25469148 0.084012523 0.98260003
-0.24510032 0.084159911 0.98254848
-0.23539871 0.084080219 0.98277766
-0.22521618 0.083839737 0.98284638
-0.21555965 0.08345706 0.98286188
-0.20665464 0.082419872 0.98413348
-0.16303897 0.081085533 0.98400009
-0.14245583 0.081630692 0.98314291
-0.13641667 0.08482752 0.98584217
-0.35114443 0.091037452 0.98900002
-0.34547141 0.095002912 0.98516685
-0.33970395 0.095461108 0.98100007
-0.25026292 0.090301052 0.98100007
-0.24485715 0.090792477 0.98100001
-0.23936945 0.090874396 0.98100013
-0.13244155 0.090301052 0.98100007
-0.34606555 0.10537085 0.9852224
-0.34554815 0.11514951 0.98662513
-0.33970395 0.11524134 0.98100001
-0.11094129 0.11782137 0.98100007
-0.10783001 0.11990696 0.98400003
-0.37386653 0.12536834 0.98630774
-0.36507708 0.1247101 0.98502862
-0.35518214 0.12489486 0.98530006
-0.34551138 0.12452286 0.98434633
-0.33970395 0.12470146 0.98100007
-0.11094129 0.12685147 0.98100007
-0.10576205 0.12575808 0.98542869
-0.38149029 0.13438861 0.98900002
-0.37470245 0.1345142 0.98199999
-0.10489374 0.13184263 0.98616672
-0.37329662 0.14375025 0.98188889
-0.37209371 0.15446296 0.98250008
-0.17114198 0.15824184 0.98100007
-0.16499153 0.15674551 0.98210537
-0.36722425 0.16655527 0.98100013
-0.17186303 0.16526 0.98350006
-0.16577153 0.16494226 0.98575848
-0.15839145 0.16642173 0.98133343
-0.3823573 0.17947383 0.98900002
-0.37177962 0.17669936 0.98900002
-0.36494794 0.17652577 0.98319995
-0.17163536 0.17198288 0.9878
-0.16331072 0.17327359 0.9882502
-0.15515316 0.17603378 0.98288244
-0.14465368 0.17974208 0.98100007
-0.39156553 0.18792565 0.98785716
-0.38458499 0.18458456 0.98614812
-0.37472266 0.18490988 0.98524243
-0.36522266 0.18528181 0.9852401
-0.35690415 0.18662217 0.98100007
-0.16039932 0.1820749 0.98900002
-0.15453434 0.1849362 0.98646152
-0.14501332 0.18553182 0.98399997
-0.13594785 0.18394087 0.98460007
-0.39339685 0.19441938 0.98740017
-0.38466537 0.19396809 0.98196024
-0.37557864 0.19030793 0.98100001
-0.36550426 0.19006221 0.98100007
-0.15313087 0.1929837 0.98825002
-0.14609595 0.19304782 0.98747075
-0.13858347 0.19228543 0.98800004
-0.39238459 0.20468973 0.98838466
-0.38678074 0.20534919 0.98261547
-0.17263584 0.20797251 0.98300004
-0.16935973 0.20744739 0.98733336
-0.38538954 0.21546933 0.98535722
-0.37792924 0.21780433 0.98200005
-0.17285311 0.21552393 0.98657143
-0.16778083 0.21533698 0.98790926
-0.38120127 0.22166896 0.98900002
-0.37728956 0.22395821 0.98633337
-0.17228182 0.22292016 0.9866364
-0.16746971 0.22411357 0.98823082
-0.1678846 0.23499522 0.98462504
-0.16753906 0.24406798 0.98455566
-0.17114198 0.258863 0.98100007
-0.16632226 0.25558576 0.98559999
-0.35604411 0.26436707 0.98100007
-0.1730703 0.26606974 0.98220003
-0.16550675 0.26496503 0.98737925
-0.20399299 0.27809918 0.98287505
-0.19465947 0.2772046 0.98250008
-0.18451513 0.27660641 0.98444998
-0.17488424 0.27378684 0.9859584
-0.16733551 0.27137831 0.98900002
-0.22102256 0.28982335 0.98100007
-0.21309148 0.28652674 0.98411113
-0.20535995 0.28291643 0.98690927
-0.19533704 0.28225997 0.98790914
-0.18631446 0.28207365 0.98849994
-0.17889582 0.28062657 0.98900002
-0.23216543 0.29603937 0.98450005
-0.2251057 0.29481757 0.9861877
-0.21840923 0.29227248 0.98733336
-0.23686258 0.30626631 0.98411113
-0.31343147 0.31792527 0.98600006
-0.3087436 0.31734368 0.98100007
-0.27461889 0.31680718 0.98200005
-0.26538518 0.31641087 0.98261547
-0.25468168 0.31586522 0.98352379
-0.24481311 0.31456104 0.98531592
-0.23800732 0.31244159 0.98725003
-0.31183943 0.32224366 0.98900002
-0.30402541 0.32438549 0.98521441
-0.29442364 0.32654607 0.98400009
-0.28476912 0.32622898 0.98276472
-0.27633083 0.32364264 0.98584223
-0.26452607 0.32193652 0.9885
-0.25663888 0.32166564 0.98900002
-0.29565495 0.3309139 0.98900002
-0.28419077 0.33184609 0.9883334
-0.2783145 0.33033589 0.98900002
-0.2564995 -0.0030503618 0.99350005
-0.28045049 0.0087109981 0.99350005
-0.27683964 0.008116764 0.99200004
-0.25732359 0.0008722833 0.99500006
-0.28195655 0.014413059 0.99624997
-0.27680093 0.014800149 0.99290001
-0.27348274 0.020904556 0.99350005
-0.27336809 0.049075704 0.99766666
-0.26531747 0.049213871 0.99800009
-0.25634959 0.049870059 0.99799997
-0.34296602 0.058619194 0.99800003
-0.33448431 0.056932181 0.99692857
-0.32465085 0.055772703 0.99485725
-0.31498086 0.055317473 0.99466676
-0.30536333 0.056859773 0.99616665
-0.29533058 0.057627484 0.99766666
-0.28574672 0.057919264 0.99800003
-0.27440661 0.055256709 0.9968459
-0.26557463 0.055106793 0.997769
-0.25523958 0.055538055 0.99707675
-0.24565838 0.057394229 0.9977693
-0.23385184 0.058369223 0.99800009
-0.22403421 0.057031356 0.99615383
-0.21653222 0.055462375 0.99443746
-0.35084024 0.068243235 0.99800003
-0.34443599 0.064218469 0.99407709
-0.33558974 0.06137104 0.99299997
-0.32525036 0.06087574 0.99199992
-0.31520984 0.060796674 0.99199998
-0.30381319 0.062096637 0.99299991
-0.29448038 0.063349031 0.99382156
-0.28491375 0.064478867 0.99439991
-0.27481714 0.06468191 0.99345481
-0.26515043 0.064541876 0.99491692
-0.25496507 0.064255118 0.99387527
-0.24524669 0.064624101 0.99305916
-0.23552021 0.063738309 0.99330026
-0.22427104 0.062525265 0.99239141
-0.2160219 0.061571449 0.99199998
-0.35249689 0.076654635 0.99650007
-0.34765542 0.074161008 0.99290001
-0.28089803 0.070441917 0.99200004
-0.27046219 0.070441917 0.99200004
-0.264323 0.072974719 0.99252188
-0.25729761 0.072860092 0.99237508
-0.24506831 0.070441917 0.99199998
-0.23567605 0.070441917 0.99200004
-0.35361484 0.085229345 0.99349988
-0.35496962 0.094883673 0.99419987
-0.35492459 0.10454711 0.99421048
-0.38302049 0.11805326 0.9975
-0.37537953 0.11736437 0.99429399
-0.36512277 0.1183152 0.99292302
-0.35501736 0.11545399 0.99440008
-0.34873098 0.11479424 0.99200004
-0.38326174 0.12560618 0.99499995
-0.37742954 0.12088181 0.99200004
-0.35568821 0.12088181 0.99199998
-0.38439226 0.13465019 0.99449992
-0.10287464 0.13571662 0.9945001
-0.38189992 0.14380564 0.99328566
-0.37829921 0.14784107 0.99200004
-0.38176247 0.15200743 0.99650002
-0.37829921 0.15218933 0.99200004
-0.37533781 0.16798335 0.99800003
-0.41033435 0.17848232 0.99800003
-0.40508488 0.17835733 0.99800009
-0.39399013 0.17662327 0.99575001
-0.38499686 0.17686357 0.99383324
-0.37641197 0.17554538 0.99560004
-0.17169103 0.17742017 0.99414289
-0.16637519 0.17638409 0.99274993
-0.40296543 0.18606646 0.99762505
-0.39525822 0.18430533 0.99389476
-0.38456067 0.18001825 0.99199998
-0.37424079 0.18117778 0.99200004
-0.17209782 0.18293306 0.99650002
-0.16523312 0.18506886 0.99596006
-0.15914656 0.18784511 0.99200004
-0.40234938 0.1919973 0.99700004
-0.39743158 0.19480234 0.99200004
-0.16345608 0.19503371 0.99706256
-0.15628764 0.19637127 0.99387491
-0.14404282 0.19803953 0.99339986
-0.13827488 0.19567201 0.99200004
-0.39627734 0.2053161 0.99237508
-0.16185896 0.20254245 0.99800009
-0.15457021 0.20453168 0.99663621
-0.14654483 0.20278879 0.99619997
-0.39047435 0.21828298 0.99200004
-0.38371277 0.22685562 0.99400002
-0.1713217 0.22784919 0.99200004
-0.1675957 0.2253733 0.99260008
-0.38758659 0.23010221 0.99800003
-0.1713217 0.23045813 0.99200004
-0.16685334 0.23587549 0.99650007
-0.16496514 0.24576113 0.99714285
-0.16347007 0.25499311 0.99564296
-0.1607569 0.26437128 0.99599999
-0.15899359 0.26644748 0.99650002
-0.17262618 0.2787239 0.99200004
-0.16530614 0.27493805 0.9947142
-0.20468538 0.28750703 0.99439991
-0.19478169 0.28746051 0.99390906
-0.18460068 0.28698483 0.99464697
-0.17473279 0.28432381 0.99568182
-0.16726373 0.28227276 0.99762505
-0.22082387 0.29801202 0.99300003
-0.21523744 0.29366523 0.99400002
-0.20910428 0.29134613 0.99800003
-0.19359061 0.29152092 0.9974001
-0.18759757 0.29233029 0.99762505
-0.23307252 0.30413201 0.99449998
-0.22531839 0.3015663 0.99445456
-0.21960324 0.30009526 0.99800003
-0.24176362 0.31829312 0.99200004
-0.23643629 0.31558442 0.99521428
-0.32139885 0.32624489 0.99533337
-0.31551895 0.32576624 0.99341166
-0.30872694 0.32785931 0.99200004
-0.27339777 0.32758701 0.99425
-0.26473299 0.32689589 0.9939999
-0.25464845 0.32611099 0.99531573
-0.24536836 0.32410213 0.99571419
-0.23775998 0.32220295 0.99710006
-0.3210932 0.33159214 0.99800003
-0.31649989 0.33224833 0.99800009
-0.30449367 0.33440194 0.99593753
-0.29519182 0.33545658 0.99474996
-0.28436786 0.33649987 0.99440002
-0.27709925 0.33406812 0.99615383
-0.26334891 0.33159214 0.99800003
-0.3018451 0.34034124 0.99799997
-0.2817221 0.34034127 0.99800003
-0.28650913 0.017870996 1.0025002
-0.29279646 0.025503207 1.0070001
-0.28603339 0.022944245 1.0065714
-0.27901232 0.02112679 1.0040001
-0.23129447 0.02913251 1.0070001
-0.22864605 0.028249707 1.0070001
-0.29397351 0.034768861 1.0070001
-0.28578752 0.037479013 1.0070001
-0.27501482 0.037572965 1.0060999
-0.26506642 0.037823588 1.006
-0.25468877 0.038401943 1.0070001
-0.24541934 0.037960537 1.0070001
-0.23372221 0.036415633 1.0070001
-0.22667275 0.036298789 1.0070001
-0.33281687 0.048554182 1.0070001
-0.32446781 0.046202134 1.0055882
-0.31558719 0.046513576 1.0051053
-0.30531102 0.047184899 1.0067693
-0.29433593 0.045539204 1.0060455
-0.28513688 0.044906091 1.0044799
-0.27541357 0.044300992 1.0023749
-0.26486284 0.044513423 1.0016921
-0.25499496 0.044841669 1.0029999
-0.24500282 0.044944864 1.0052999
-0.23510633 0.044785295 1.006111
-0.22527257 0.045129202 1.0051785
-0.21916316 0.047529362 1.0040001
-0.35312584 0.057119131 1.0055001
-0.34510735 0.054773916 1.00295
-0.33537412 0.052209783 1.0034705
-0.32488671 0.050927497 1.0016
-0.3143799 0.05067813 1.001
-0.30489075 0.052292895 1.003318
-0.29462749 0.05313186 1.0021739
-0.28504202 0.053051487 1.0009999
-0.27993631 0.051775053 1.001
-0.26238546 0.05528523 1.001
-0.25421149 0.051439036 1.0013001
-0.24437423 0.052861061 1.003625
-0.23507641 0.053623244 1.0027997
-0.22567815 0.0521488 1.0028949
-0.21916316 0.050169881 1.0040001
-0.36106655 0.069741465 1.0070001
-0.3554472 0.064600356 1.0034782
-0.36254749 0.075014889 1.0067
-0.356841 0.074812509 1.0024
-0.36292997 0.084084347 1.0065714
-0.35891521 0.084244162 1.001
-0.3627001 0.096033856 1.005
-0.39284748 0.1050536 1.0070001
-0.37695703 0.10858481 1.0070001
-0.36386073 0.10594097 1.0033333
-0.3939414 0.11761435 1.0065714
-0.38532856 0.11366653 1.0037272
-0.3750602 0.11304206 1.0038636
-0.36553362 0.1137353 1.0024999
-0.39425164 0.12459044 1.0045713
-0.3882502 0.12298143 1.001
-0.39214826 0.13247572 1.0034001
-0.1027988 0.13864359 1.0022001
-0.098333508 0.13784225 1.0015
-0.38872775 0.14860523 1.0070001
-0.10399424 0.1417782 1.0070001
-0.097845204 0.14280242 1.0055002
-0.38429469 0.15661612 1.0044286
-0.40167552 0.16861543 1.0070001
-0.38245279 0.16637398 1.0052
-0.3785722 0.16550466 1.001
-0.41121364 0.17232768 1.0055001
-0.40491262 0.17424323 1.0030321
-0.39598441 0.17357497 1.0035499
-0.3858842 0.1734685 1.0038126
-0.37953749 0.17243725 1.001
-0.41156778 0.18516165 1.001
-0.40636009 0.18485329 1.0011429
-0.39928222 0.18165147 1.001
-0.17170596 0.18808679 1.001
-0.41156781 0.1904269 1.001
-0.40770665 0.19112894 1.001
-0.17207389 0.19231787 1.0040001
-0.1681958 0.19496088 1.0010002
-0.17038102 0.20745878 1.0070001
-0.16573448 0.20516869 1.0030527
-0.15357009 0.20903084 1.001
-0.14518453 0.2070107 1.0048182
-0.17038102 0.21393268 1.0070001
-0.16529448 0.21476337 1.0063571
-0.1552964 0.21429627 1.0051428
-0.14544174 0.21259779 1.00625
-0.39109194 0.22850448 1.0025001
-0.16576423 0.22151029 1.0040001
-0.16761078 0.23781425 1.001
-0.16513157 0.24374726 1.0027143
-0.16296609 0.25367633 1.002125
-0.15921617 0.26511961 1.0034001
-0.16161764 0.27639657 1.0027144
-0.1589468 0.27534994 1.005875
-0.17287605 0.28871176 1.001
-0.16432807 0.285642 1.0034286
-0.15943429 0.28408614 1.0070001
-0.2137721 0.29705748 1.0035001
-0.20507812 0.29259625 1.0039999
-0.18319954 0.2959927 1.0040001
-0.17550381 0.29269242 1.0044615
-0.16575673 0.29162207 1.0063334
-0.23377368 0.30891806 1.0025001
-0.2252654 0.30710444 1.00375
-0.21872307 0.30322236 1.0040001
-0.23417854 0.31351337 1.0055
-0.32498357 0.32615361 1.001
-0.24264073 0.32863998 1.001
-0.23446383 0.32533574 1.0034707
-0.31470245 0.33726928 1.0039999
-0.30714017 0.33785418 1.001
-0.29573211 0.33960927 1.001
-0.28871176 0.33960927 1.001
-0.27407584 0.3370522 1.0038333
-0.26493219 0.3363567 1.0039999
-0.25568742 0.33402738 1.0040001
-0.2451572 0.33257556 1.0052001
-0.23566884 0.33150721 1.006
-0.31557149 0.34113598 1.0055001
-0.30206689 0.34359002 1.0034001
-0.2944892 0.34445557 1.0057501
-0.28499541 0.34509912 1.0035263
-0.27742174 0.34413895 1.0050715
-0.28426266 0.35047293 1.0070001
-0.27067697 0.018759791 1.0190001
-0.3001619 0.0292193 1.01
-0.29662016 0.02593055 1.0100001
-0.28453726 0.026724536 1.0107896
-0.27487001 0.025258671 1.0156574
-0.26689255 0.02755112 1.0182
-0.25497511 0.028360171 1.0183077
-0.2449905 0.025671361 1.0182801
-0.23663419 0.026100852 1.0151666
-0.32580337 0.039217807 1.0134286
-0.31545842 0.03831866 1.0165
-0.30418637 0.036290128 1.0122105
-0.29750559 0.036302768 1.0100001
-0.28494856 0.033968445 1.0100001
-0.27515733 0.032450166 1.0114001
-0.26458377 0.033052225 1.013316
-0.25494704 0.033308424 1.0133001
-0.24480945 0.032855537 1.0130001
-0.2374371 0.033487789 1.0106001
-0.36286765 0.048915811 1.0145
-0.35684901 0.048055101 1.0150999
-0.34389848 0.048077386 1.015625
-0.33516064 0.04429784 1.0135715
-0.32519639 0.041695431 1.012
-0.3150157 0.041643959 1.0131668
-0.30578899 0.043286189 1.0123334
-0.29706287 0.042058084 1.01
-0.37317315 0.056368597 1.017
-0.36457023 0.055805903 1.0130002
-0.35657644 0.053068291 1.0119412
-0.3466168 0.050529666 1.0112001
-0.33912095 0.0504697 1.01
-0.37132475 0.063425958 1.0190001
-0.36555877 0.065201156 1.0130001
-0.37270942 0.076106764 1.0166
-0.3676191 0.073840067 1.0123999
-0.37316176 0.08555416 1.0173846
-0.36714602 0.085520029 1.0113639
-0.3898598 0.098575026 1.013
-0.37389082 0.094821349 1.0175883
-0.36733648 0.094217338 1.0115
-0.40239012 0.10858671 1.0125
-0.39407811 0.10656759 1.0130002
-0.38647383 0.10566259 1.0128802
-0.3747595 0.10579918 1.0142002
-0.36804509 0.10241512 1.01
-0.40388551 0.11468435 1.012885
-0.39550918 0.11344118 1.011412
-0.38162178 0.11067916 1.01
-0.3745383 0.11067916 1.01
-0.41113213 0.12679712 1.0167501
-0.40554181 0.12460431 1.0141053
-0.39933047 0.12602669 1.01
-0.4100354 0.13310517 1.0190001
-0.40328741 0.13254966 1.0170001
-0.39755955 0.13192956 1.01
-0.10471554 0.14620292 1.0122502
-0.096856035 0.14794058 1.0105001
-0.39383048 0.15605274 1.0156
-0.10298491 0.15135562 1.0164286
-0.096365906 0.15472779 1.01625
-0.41315165 0.16585644 1.0166818
-0.40476736 0.16609989 1.0141739
-0.39531615 0.16542643 1.0131878
-0.38810059 0.16522771 1.0115
-0.40995562 0.17088863 1.01
-0.39401782 0.17088863 1.01
-0.38870522 0.17088863 1.01
-0.14238264 0.20749854 1.013
-0.16114888 0.21870203 1.01
-0.15436053 0.21870203 1.01
-0.14446832 0.21695802 1.0119287
-0.16416094 0.22590926 1.0158335
-0.15521996 0.22416385 1.0137829
-0.14631695 0.22314207 1.0153079
-0.16899452 0.23430793 1.0178001
-0.16153227 0.25508076 1.0119091
-0.15839994 0.25826016 1.0170001
-0.16073947 0.26109064 1.013
-0.15755528 0.26500437 1.0166667
-0.1571707 0.27534637 1.011
-0.16026343 0.28953668 1.01
-0.15634228 0.28539085 1.0122942
-0.20765099 0.29728094 1.0122499
-0.17573145 0.29761595 1.0111251
-0.16432793 0.29593194 1.0132308
-0.15734036 0.29330331 1.0163
-0.22135833 0.30901623 1.01
-0.21624318 0.30518585 1.0145
-0.20993099 0.30104995 1.0190001
-0.18081075 0.30194503 1.016
-0.1756065 0.3028374 1.0176154
-0.16794479 0.30104995 1.0190001
-0.23367146 0.31627786 1.0123076
-0.22476357 0.31435826 1.0151668
-0.21886422 0.31266317 1.0190001
-0.23429683 0.32174498 1.0152501
-0.25405011 0.33829382 1.0115
-0.24464338 0.33774295 1.0132999
-0.23664053 0.33585846 1.0134999
-0.31404975 0.34241167 1.011
-0.30586487 0.34689811 1.0112857
-0.29573473 0.34797528 1.01
-0.27313101 0.34551466 1.0110002
-0.26469365 0.34564936 1.0141053
-0.25487283 0.34355992 1.0175883
-0.24557285 0.34268692 1.018625
-0.237624 0.3403562 1.0190001
-0.30313283 0.35344315 1.0166667
-0.29526702 0.35425708 1.0156251
-0.28454354 0.35519552 1.0124
-0.27617761 0.35363364 1.0165455
-0.26621035 0.35107607 1.0190001
-0.28586346 0.36000931 1.0190001
-0.27961019 0.36000931 1.0190001
-0.27047357 0.018870249 1.0250001
-0.26567769 0.018204512 1.028
-0.25419709 0.018606665 1.027
-0.24646482 0.018487673 1.0238001
-0.27047357 0.020667417 1.0250001
-0.26426992 0.023402791 1.0229
-0.25569367 0.023166053 1.0226316
-0.24664314 0.021630872 1.0220002
-0.35244244 0.046678361 1.0258182
-0.34619135 0.044756558 1.0233334
-0.38084245 0.056722965 1.027
-0.37719634 0.058236968 1.0220001
-0.38203251 0.064477719 1.028
-0.37631908 0.065076284 1.0238751
-0.38197336 0.075855337 1.024
-0.37738088 0.074847169 1.0225002
-0.38351485 0.085366204 1.0249999
-0.37791309 0.085115567 1.0220001
-0.38403472 0.095316984 1.0237999
-0.37898827 0.095867008 1.0220001
-0.38451758 0.10327139 1.023421
-0.37779364 0.10303464 1.0220001
-0.41424692 0.12849742 1.0250001
-0.41284618 0.13568726 1.0250001
-0.4054988 0.13666619 1.0255998
-0.40338215 0.14480039 1.0273333
-0.3985993 0.14551364 1.0237143
-0.41235781 0.15840428 1.024143
-0.4038555 0.15557633 1.0266
-0.39885527 0.15423222 1.0237144
-0.11068749 0.15118423 1.0265
-0.10468496 0.15523225 1.0250001
-0.098950826 0.1581416 1.0230001
-0.42061329 0.16232447 1.0230001
-0.41498661 0.16150764 1.0235001
-0.40616471 0.16138929 1.0227501
-0.10003468 0.16311961 1.028
-0.095120884 0.16388573 1.02525
-0.089220122 0.17032932 1.028
-0.14171176 0.20781174 1.0244
-0.13948423 0.20697924 1.0265
-0.14197353 0.21116708 1.0250001
-0.15141611 0.22846811 1.0220001
-0.14393297 0.22746003 1.0223001
-0.16430707 0.23515327 1.0247142
-0.15480565 0.23452909 1.0255554
-0.14547826 0.23233373 1.0243572
-0.17032932 0.24062397 1.028
-0.16762567 0.24152517 1.028
-0.15410748 0.24062397 1.028
-0.15429546 0.26749039 1.0224286
-0.15565595 0.27422416 1.0263333
-0.15635088 0.28395498 1.0250001
-0.15564589 0.29576853 1.0245715
-0.21437013 0.30671409 1.026
-0.20875713 0.30193627 1.0220001
-0.17351629 0.30522141 1.0220002
-0.16528736 0.30339777 1.0241818
-0.159282 0.30236715 1.0265
-0.22322126 0.31896693 1.0226002
