# .PCD v0.7 - Point Cloud Data file format
VERSION 0.7
FIELDS x y z
SIZE 4 4 4
TYPE F F F
COUNT 1 1 1
WIDTH 1466
HEIGHT 1
VIEWPOINT 0 0 0 1 0 0 0
POINTS 1466
DATA ascii
-0.18326178 0.26594511 0.96335
-0.17793314 0.26236767 0.96585715
-0.27297121 0.27297121 0.96700007
-0.26719004 0.27564985 0.96450007
-0.2310788 0.27914995 0.96200007
-0.22413737 0.27811199 0.96199995
-0.21447715 0.27880082 0.96224999
-0.20430131 0.27840307 0.96233326
-0.19487537 0.27607721 0.96326923
-0.18737204 0.27376193 0.9648
-0.2636461 0.28060085 0.96700007
-0.23146215 0.28651011 0.96199995
-0.22496608 0.28510869 0.96330315
-0.21560507 0.28356192 0.96488887
-0.20497169 0.28313324 0.96584612
-0.19582717 0.28161812 0.96700013
-0.25170895 0.29563522 0.96350002
-0.24425675 0.29460907 0.96324998
-0.23454446 0.29424223 0.96354181
-0.22721593 0.29373038 0.96650004
-0.21005809 -0.01114594 0.97800004
-0.20441382 -0.013563924 0.97647363
-0.19509943 -0.013534145 0.97342855
-0.18736412 -0.01332241 0.97000003
-0.22480144 -0.0019247218 0.97500008
-0.21377975 -0.0061763115 0.97500008
-0.20488884 -0.0077932524 0.97207153
-0.19828863 -0.0085108988 0.97075003
-0.23149262 0.0034295199 0.9780001
-0.22540744 0.0029810322 0.97208351
-0.28122064 0.078878962 0.97800004
-0.27479419 0.078977056 0.97710001
-0.17228407 0.078542978 0.97650003
-0.16416132 0.075886898 0.97358328
-0.15901856 0.076532997 0.97000003
-0.12058155 0.073544011 0.97550005
-0.11558864 0.077226348 0.97594744
-0.1071725 0.079736337 0.97800004
-0.29922563 0.088310137 0.97800004
-0.28355944 0.085869417 0.97660005
-0.27460915 0.085438915 0.97322834
-0.26488271 0.085628517 0.97394115
-0.25468695 0.08690986 0.97565407
-0.24514459 0.087296329 0.97669578
-0.2349668 0.0883324 0.97699994
-0.2247791 0.088392183 0.9764002
-0.21474849 0.088123411 0.97594756
-0.20671694 0.088371143 0.97679996
-0.19395046 0.08819595 0.97674996
-0.18492174 0.086816788 0.97475004
-0.17516206 0.083259881 0.97287512
-0.16741234 0.081435025 0.97100002
-0.11271646 0.084713466 0.97283322
-0.10553194 0.086323947 0.97737509
-0.096026562 0.088310137 0.97800004
-0.30170247 0.095550232 0.9780001
-0.29470485 0.095091224 0.9780001
-0.28535929 0.09513317 0.97465515
-0.27533296 0.09507262 0.97046858
-0.26568204 0.093811385 0.97013044
-0.25508538 0.092405722 0.97115386
-0.24514735 0.092809215 0.97221053
-0.23513378 0.094134897 0.97179157
-0.22475138 0.094080493 0.97223055
-0.21459801 0.094185337 0.97181469
-0.2045586 0.093873352 0.97350001
-0.19570972 0.093189187 0.97379154
-0.18746097 0.092453413 0.97050005
-0.11368792 0.095560685 0.97057682
-0.10473341 0.094385348 0.97518921
-0.094325401 0.09407863 0.97688597
-0.086558908 0.096272022 0.97759992
-0.30151194 0.10374298 0.9780001
-0.29554552 0.10443185 0.97757161
-0.28556103 0.10504923 0.97253561
-0.27870768 0.10353214 0.97000015
-0.12334025 0.10700953 0.97030008
-0.11478771 0.10487099 0.97254527
-0.10438968 0.10414477 0.97488588
-0.095010281 0.10438191 0.97467756
-0.086217798 0.10406657 0.9757002
-0.079164751 0.10488615 0.97799999
-0.29412013 0.11392835 0.97711754
-0.28584582 0.1145687 0.97267848
-0.27879879 0.11722911 0.97000015
-0.1321111 0.11593497 0.97135723
-0.12502021 0.11421272 0.97525835
-0.11417927 0.11401377 0.97536683
-0.10442607 0.11479907 0.97635323
-0.094705284 0.11460027 0.97484869
-0.088225238 0.11467914 0.9756152
-0.29179496 0.12489169 0.9780001
-0.28457463 0.12443683 0.97329021
-0.27835333 0.124437 0.97000009
-0.13410982 0.1248021 0.97440016
-0.12946437 0.12089058 0.97800004
-0.1118881 0.12131927 0.97800004
-0.10326867 0.1240642 0.97773927
-0.094311796 0.12485595 0.97800028
-0.085845172 0.12399859 0.97799993
-0.3300913 0.13632342 0.97800004
-0.32466322 0.13510436 0.97634631
-0.31487465 0.13563913 0.97227567
-0.30530664 0.13671644 0.97370815
-0.29461002 0.13717315 0.97661126
-0.28471524 0.13518128 0.97429997
-0.27769196 0.13539726 0.97000015
-0.13560203 0.13346669 0.97437507
-0.10031346 0.13117914 0.97800004
-0.093454413 0.13117914 0.97800004
-0.3300913 0.14403984 0.97800004
-0.32479215 0.14489754 0.97580975
-0.31585902 0.14440998 0.97113782
-0.30783272 0.1403105 0.97000003
-0.29352799 0.14165021 0.97220004
-0.2853846 0.14298737 0.97144985
-0.27806988 0.14286159 0.97000021
-0.13330592 0.14353722 0.97266674
-0.32316604 0.15480401 0.97650003
-0.31615266 0.15439869 0.97109085
-0.13083439 0.15811056 0.97225004
-0.12875836 0.15775324 0.97266674
-0.32166743 0.1639358 0.97650003
-0.31449702 0.16526642 0.97057682
-0.13187253 0.16489591 0.97206247
-0.12736568 0.16465604 0.97506261
-0.3215175 0.17061862 0.97800004
-0.31418586 0.17440052 0.97289479
-0.30748901 0.17791103 0.97100002
-0.13153481 0.17509848 0.97430003
-0.12781772 0.17247882 0.97589999
-0.33123448 0.1889094 0.97799999
-0.31235546 0.18481535 0.97749996
-0.30432948 0.18555385 0.97215986
-0.13068734 0.18647957 0.97433335
-0.333938 0.19537777 0.97712517
-0.32478437 0.19541144 0.97315133
-0.31515342 0.19575188 0.97322202
-0.30540386 0.19565915 0.97317123
-0.29584879 0.19666581 0.97030002
-0.13010611 0.19218287 0.97000003
-0.12757546 0.19605736 0.97377777
-0.33269426 0.20430802 0.97628564
-0.32477143 0.20458539 0.97078246
-0.31491914 0.20295419 0.97000009
-0.30291727 0.20183058 0.97060013
-0.29464635 0.20435888 0.97071421
-0.28940812 0.20777291 0.97000003
-0.12262563 0.2014495 0.97428572
-0.33125955 0.21335769 0.9774
-0.32440689 0.21462721 0.97234774
-0.29224268 0.21060748 0.97000003
-0.28912467 0.21004057 0.97000003
-0.12211338 0.2183895 0.97183341
-0.11771354 0.21751414 0.97300005
-0.3229464 0.22410479 0.97315395
-0.3188875 0.22619754 0.97000003
-0.13010611 0.22874863 0.97000003
-0.12397742 0.22525163 0.97400016
-0.11917582 0.22120404 0.97800004
-0.3215175 0.23577949 0.97800004
-0.31577572 0.2344639 0.97211772
-0.13341951 0.23555058 0.97233325
-0.12743877 0.23458007 0.97657156
-0.31380108 0.24178115 0.97800004
-0.30462432 0.24676698 0.9740001
-0.29847869 0.24915743 0.97000003
-0.15235582 0.24768734 0.97090006
-0.14520898 0.24541277 0.97360885
-0.13590102 0.24289258 0.9758001
-0.3026374 0.25458142 0.9763571
-0.29579604 0.25566083 0.97273332
-0.28827429 0.25879493 0.97000003
-0.17177406 0.25936183 0.97000003
-0.16381656 0.2566998 0.97130781
-0.15581518 0.25438178 0.97480965
-0.14832674 0.25121233 0.97800004
-0.29438406 0.26318657 0.97564709
-0.28628376 0.26572648 0.97241175
-0.27892348 0.26870856 0.97100002
-0.1811281 0.26956624 0.97000003
-0.17451569 0.26532111 0.97345018
-0.16520898 0.26235372 0.97518742
-0.15983824 0.26069874 0.97500002
-0.29150921 0.2700747 0.97800004
-0.28437546 0.27369899 0.97652942
-0.27589333 0.27654478 0.97292304
-0.26786551 0.27920374 0.97000003
-0.18321104 0.27637038 0.97252625
-0.17783986 0.2729215 0.97638458
-0.27322939 0.28349969 0.97600001
-0.26555029 0.28579134 0.97446162
-0.22109532 0.28997502 0.97000003
-0.21384767 0.28819337 0.97030008
-0.20448609 0.2877503 0.97110015
-0.19475867 0.28623211 0.97234768
-0.18538539 0.28408718 0.97491312
-0.17919242 0.28122064 0.97800004
-0.22353509 0.29634908 0.97200012
-0.21497856 0.29441631 0.9752273
-0.20637836 0.29363975 0.97581261
-0.19548266 0.29179499 0.9780001
-0.25341365 0.30345863 0.97575009
-0.24483334 0.30341652 0.97309524
-0.23497634 0.30393013 0.97291678
-0.22587702 0.30352691 0.97580963
-0.22109094 -0.012138327 0.98900002
-0.21439196 -0.012938213 0.98408341
-0.20898242 -0.016340191 0.98100007
-0.24016546 -0.0017340467 0.98900002
-0.23492233 -0.0029672035 0.98621434
-0.22520059 -0.0059075649 0.98550004
-0.21722212 -0.0077702859 0.98455554
-0.24016546 0.0069361865 0.98900002
-0.23665097 0.0044341213 0.98446673
-0.12225029 0.049420331 0.98900002
-0.12269326 0.05732172 0.98857152
-0.11562409 0.056945641 0.98720008
-0.10988929 0.05883836 0.98700005
-0.30316535 0.06761051 0.98874998
-0.29454437 0.067171223 0.98866671
-0.28483725 0.067775801 0.98700017
-0.27559721 0.067220107 0.9878127
-0.26521856 0.067604728 0.98866677
-0.25923997 0.068494841 0.98900002
-0.20635155 0.068494841 0.98900002
-0.17167062 0.068494841 0.98900002
-0.16631432 0.068273172 0.98585713
-0.12271792 0.064235374 0.98782372
-0.11513469 0.065832376 0.98603213
-0.10907793 0.06631273 0.98750007
-0.31126139 0.076298051 0.98900002
-0.30519539 0.074611418 0.98800009
-0.2955457 0.074140131 0.98484355
-0.28566802 0.075445317 0.98170036
-0.27440402 0.073735528 0.98361307
-0.26483077 0.0748896 0.98383784
-0.25531372 0.075290166 0.98560995
-0.24472712 0.075936258 0.98512524
-0.2353186 0.075436525 0.98686671
-0.2267679 0.076318502 0.98868442
-0.21068667 0.078899123 0.98900002
-0.20501389 0.075578719 0.98812509
-0.19554278 0.076605484 0.98740005
-0.18490505 0.076556839 0.9875716
-0.17542236 0.074379027 0.98537028
-0.16813929 0.072056361 0.98357147
-0.12200307 0.07095214 0.98700005
-0.11447392 0.073503412 0.98180008
-0.10526963 0.075289369 0.98451519
-0.09538953 0.076274686 0.98726088
-0.089303404 0.078032099 0.98900002
-0.31169492 0.085835308 0.98899996
-0.3053306 0.084579565 0.98624152
-0.29476708 0.084367044 0.98203856
-0.28867665 0.083994307 0.98100007
-0.26187307 0.082130954 0.98100007
-0.25523186 0.082274295 0.98100007
-0.24510284 0.083134301 0.98100001
-0.23490626 0.083147861 0.9826802
-0.22520748 0.083038814 0.98360884
-0.21524698 0.082867719 0.98512006
-0.20443262 0.083748445 0.98328
-0.19521502 0.083040446 0.98303986
-0.18551326 0.081736453 0.98292869
-0.17974208 0.081700951 0.98100007
-0.10310563 0.082847625 0.98100007
-0.0944397 0.083969362 0.98299992
-0.085414916 0.085413091 0.98492295
-0.31248513 0.095502257 0.98770601
-0.30603364 0.094007246 0.98260003
-0.29657114 0.092947237 0.98100001
-0.20382237 0.090301052 0.98100007
-0.083084814 0.093217224 0.98343766
-0.077598162 0.095819198 0.98607701
-0.31246531 0.10410297 0.98881817
-0.30627349 0.10565288 0.98300004
-0.29842347 0.10664123 0.98100007
-0.081700951 0.10148118 0.98100007
-0.078494981 0.10179152 0.98400003
-0.31126139 0.11011196 0.98900002
-0.30496329 0.11519877 0.98543489
-0.29756346 0.11524135 0.98100001
-0.12212142 0.11954139 0.98100007
-0.11686143 0.11789449 0.98159999
-0.10922127 0.11610135 0.98100007
-0.33422044 0.12766223 0.98766679
-0.32568079 0.12843353 0.98575008
-0.31508166 0.1271532 0.9881053
-0.30536345 0.12490794 0.98673344
-0.29591498 0.12650318 0.9816429
-0.13139638 0.12760916 0.98220003
-0.1251609 0.12510201 0.98307717
-0.11564844 0.12534107 0.98262507
-0.10754169 0.12625545 0.98137504
-0.094601095 0.12814149 0.98100007
-0.086517006 0.12779748 0.98100007
-0.34074017 0.13352159 0.98900002
-0.33496442 0.13484445 0.98390496
-0.32299292 0.13092008 0.98250008
-0.314715 0.13126285 0.98400003
-0.30479887 0.13251586 0.98257899
-0.29584342 0.13416156 0.98100001
-0.13258924 0.13564205 0.98261541
-0.1250118 0.1340871 0.98720688
-0.1150862 0.13498874 0.98703331
-0.10577732 0.13516223 0.98581797
-0.095302962 0.13622096 0.9847827
-0.087442942 0.13419768 0.98760003
-0.33522293 0.14418942 0.98487508
-0.32938382 0.14878173 0.98100007
-0.13221507 0.14257669 0.98433334
-0.12860847 0.14190282 0.98900002
-0.11367871 0.14477719 0.98826331
-0.10548533 0.14530616 0.98742849
-0.096500963 0.14518721 0.9877407
-0.33281618 0.15439348 0.98799998
-0.32737714 0.15451513 0.98100001
-0.11011196 0.15172908 0.98900002
-0.10413913 0.15269245 0.98900002
-0.098840661 0.15172908 0.98900002
-0.3267177 0.16499165 0.98540008
-0.32423186 0.17638159 0.98624998
-0.31906369 0.17888208 0.98100007
-0.12496112 0.17706738 0.98400015
-0.35114443 0.18987811 0.98900002
-0.34481341 0.18548395 0.98771435
-0.33502746 0.18629682 0.98580968
-0.32451651 0.1858332 0.98630768
-0.31638813 0.18566662 0.98100007
-0.13158153 0.18318214 0.98100007
-0.12487057 0.18519044 0.98453122
-0.34487289 0.19472393 0.98378271
-0.33815593 0.19264224 0.98100007
-0.32422379 0.19063555 0.98100007
-0.31685227 0.19104508 0.98100001
-0.12430573 0.19491862 0.98474997
-0.3444007 0.20380065 0.98564291
-0.33798391 0.20496905 0.98100007
-0.12163224 0.20099512 0.98400003
-0.11990696 0.20099512 0.98400003
-0.3415511 0.21162909 0.98799998
-0.33601964 0.2157881 0.9858889
-0.33206993 0.22455904 0.98900002
-0.32766381 0.22446261 0.98100007
-0.12212142 0.22876266 0.98100007
-0.11632866 0.22601429 0.98400009
-0.32078373 0.23994279 0.98100007
-0.31906369 0.23994279 0.98100007
-0.12288581 0.23653714 0.98421443
-0.11717143 0.23298977 0.98692876
-0.31046361 0.24682286 0.98100007
-0.3087436 0.24682286 0.98100007
-0.14018163 0.24854289 0.98100007
-0.13359426 0.24705036 0.98190004
-0.12473594 0.24458289 0.98641664
-0.11878219 0.24189951 0.98900002
-0.31256115 0.25519687 0.987625
-0.30778658 0.25638127 0.98137504
-0.15229847 0.2572749 0.98149997
-0.14496186 0.2551595 0.98521054
-0.13527514 0.25329602 0.98729426
-0.12788594 0.25100327 0.98900002
-0.30392754 0.26161507 0.98100007
-0.29670346 0.26832312 0.98100007
-0.17200199 0.26918313 0.98100007
-0.16447118 0.26756793 0.9822858
-0.15676288 0.26407778 0.9848572
-0.14931591 0.26137611 0.9883334
-0.2924034 0.27262318 0.98100007
-0.28609666 0.27835658 0.98100001
-0.17365311 0.27577019 0.98486686
-0.16576001 0.27236527 0.98676938
-0.28208327 0.28122327 0.98100007
-0.27568096 0.28676555 0.98100007
-0.18226005 0.28759155 0.98160011
-0.17681073 0.28488797 0.9862501
-0.27169478 0.29332653 0.98700005
-0.26741838 0.29243496 0.98400003
-0.21672252 0.29842347 0.98100007
-0.20268619 0.29693156 0.98175001
-0.19473834 0.29653451 0.98400009
-0.18558858 0.29488337 0.98610538
-0.1782573 0.29237738 0.98866671
-0.25408694 0.30835566 0.98250008
-0.24854289 0.3087436 0.98100007
-0.22285523 0.30689424 0.98149997
-0.21531858 0.30554396 0.98558611
-0.20574073 0.30396059 0.98655564
-0.19595642 0.30142593 0.98842859
-0.25400931 0.31308085 0.98827285
-0.24422362 0.31394964 0.98653853
-0.23465393 0.314794 0.98572755
-0.22496341 0.31559131 0.98606908
-0.218053 0.31422889 0.9883334
-0.2261294 -0.012071951 0.99371433
-0.24336705 -0.0008722833 0.99500006
-0.23341732 -0.0066774241 0.99350005
-0.22593527 -0.009281124 0.99250007
-0.24566726 0.0061997408 0.99500006
-0.25110012 0.011373873 0.99800003
-0.24558316 0.012120598 0.99533337
-0.23915467 0.011305493 0.99200004
-0.18460672 0.049870059 0.99800003
-0.17644085 0.049870059 0.99799997
-0.13236187 0.047120333 0.99800009
-0.12736221 0.047684129 0.99453843
-0.30446982 0.058619194 0.99800003
-0.28434685 0.058619194 0.99800003
-0.2744005 0.058159709 0.99762505
-0.26772347 0.058619194 0.99800003
-0.25443143 0.057996765 0.99733341
-0.24595666 0.05740859 0.99725002
-0.22310291 0.05861919 0.99799997
-0.2144804 0.056675427 0.99633324
-0.20578769 0.056823082 0.99720007
-0.19442518 0.056091666 0.99800003
-0.18533076 0.055240221 0.99799973
-0.17578758 0.055399507 0.99799979
-0.13266702 0.054984886 0.99560004
-0.126825 0.0544012 0.99290001
-0.10870667 0.058266774 0.99200004
-0.31455466 0.067251101 0.99628562
-0.30453357 0.063470632 0.99431825
-0.29499859 0.062656686 0.99409992
-0.28506333 0.062239993 0.99440014
-0.27442989 0.06245359 0.99310523
-0.26471156 0.062906362 0.99392021
-0.25454557 0.064347938 0.99388599
-0.24488394 0.06444791 0.99472749
-0.23547398 0.065139011 0.99575019
-0.22458124 0.06510064 0.99529058
-0.21464001 0.064182632 0.99275023
-0.20509344 0.06429565 0.99400032
-0.19529903 0.064681396 0.99517167
-0.18512607 0.064615794 0.9960835
-0.17509258 0.064045899 0.99558085
-0.16859205 0.064708225 0.99300003
-0.13131765 0.060006078 0.99200004
-0.12739733 0.064506754 0.99242866
-0.10484261 0.065145604 0.99525005
-0.098865204 0.068243235 0.99800003
-0.32116869 0.076029688 0.99687505
-0.3146548 0.074372679 0.99248016
-0.25219947 0.070441917 0.99200004
-0.24561493 0.070690386 0.99200004
-0.23393674 0.070441917 0.99199998
-0.22308777 0.073465534 0.99227279
-0.21492434 0.074640259 0.99200016
-0.2047164 0.071485497 0.99199998
-0.19443518 0.071890518 0.99279994
-0.18553902 0.071761563 0.99361527
-0.17740929 0.070441917 0.99200004
-0.12436043 0.070441917 0.99200004
-0.10158621 0.071265467 0.99380004
-0.096996151 0.071570709 0.9932
-0.32136208 0.08520323 0.99636364
-0.31590155 0.084791198 0.99199986
-0.32160893 0.094758026 0.99663639
-0.31713358 0.094212443 0.99200004
-0.072181225 0.097401172 0.99200004
-0.068910383 0.098568015 0.99500006
-0.32140464 0.10480572 0.99624997
-0.31664976 0.1056088 0.99230003
-0.073530458 0.10396357 0.99571419
-0.068500243 0.10318937 0.99750012
-0.32285786 0.1164295 0.99668747
-0.31498155 0.1152434 0.99275011
-0.35127768 0.1272999 0.99800003
-0.34453195 0.1255461 0.9940359
-0.33485475 0.12275659 0.99394113
-0.32520872 0.12355083 0.9932
-0.31593266 0.12249688 0.99199992
-0.35215262 0.13254936 0.99800003
-0.34580731 0.13501239 0.99358815
-0.12175146 0.13827488 0.99200004
-0.34452072 0.14392722 0.99436849
-0.33829513 0.14871071 0.99200004
-0.13103843 0.1493853 0.99650002
-0.12504454 0.14494942 0.99560004
-0.11849542 0.14659959 0.99387503
-0.34152496 0.15331219 0.99550009
-0.3367027 0.15635818 0.99336362
-0.13107875 0.15198199 0.99350005
-0.12576553 0.1545238 0.99763978
-0.11527462 0.15522465 0.9951002
-0.10469192 0.15694362 0.99333328
-0.096690916 0.15555142 0.99527282
-0.33489335 0.1646827 0.99566674
-0.32959861 0.16871274 0.99200004
-0.12773734 0.16098404 0.99800003
-0.1137422 0.16444853 0.99725008
-0.1053641 0.16444363 0.99755549
-0.096532099 0.16681682 0.99800009
-0.35232511 0.17834753 0.99725008
-0.3456237 0.17857389 0.99718189
-0.33400801 0.17548086 0.99720007
-0.32855502 0.17480032 0.99199998
-0.10586451 0.1706081 0.99800003
-0.35350382 0.18454467 0.9939999
-0.34340206 0.18075779 0.9932
-0.33466727 0.18238066 0.99429399
-0.32854202 0.18232846 0.99275005
-0.12088181 0.18349685 0.99200004
-0.35361445 0.19248268 0.99350005
-0.12175146 0.19480234 0.99200004
-0.34153852 0.21792327 0.99300003
-0.34183401 0.22293654 0.99725008
-0.33659467 0.22485027 0.99445456
-0.11426912 0.22941051 0.99500006
-0.33421689 0.23097712 0.99800003
-0.1158138 0.23772457 0.99328578
-0.31568417 0.2495905 0.99200004
-0.12146158 0.24785119 0.99200004
-0.1167961 0.24396899 0.99612504
-0.31505316 0.25325912 0.99275005
-0.14088383 0.25828704 0.99200004
-0.13347228 0.25802538 0.99349999
-0.12531529 0.25508255 0.995
-0.11933559 0.25222379 0.99725008
-0.15359594 0.26705325 0.99550009
-0.1442697 0.26404676 0.99610531
-0.13629337 0.26265675 0.99718189
-0.1713217 0.27915871 0.99200004
-0.16322878 0.27612227 0.99407679
-0.15740725 0.27046219 0.99200004
-0.17296587 0.28472447 0.99499995
-0.16620705 0.28173387 0.99680007
-0.18175754 0.29785627 0.99200004
-0.17680198 0.29546502 0.9952727
-0.20293562 0.3083241 0.99350005
-0.195098 0.30670592 0.99457157
-0.18516923 0.30367175 0.99633336
-0.17760739 0.30398381 0.99800003
-0.2553882 0.31713358 0.99200004
-0.24524224 0.31858304 0.99200004
-0.23915467 0.31916279 0.99200004
-0.21349385 0.31571871 0.9932
-0.20611781 0.31327838 0.99575001
-0.19598058 0.31190661 0.99800003
-0.25378573 0.32133469 0.99633336
-0.24457511 0.32364893 0.99585712
-0.23535335 0.32542723 0.99476016
-0.22456396 0.32560506 0.99440002
-0.21628694 0.32261667 0.99550003
-0.23412611 -0.011442253 1.0040001
-0.2350076 -0.0088017331 1.0040001
-0.25408703 0.0083527705 1.0028751
-0.26199731 0.018084977 1.00625
-0.25531179 0.01487243 1.0035499
-0.24834476 0.014918237 1.001
-0.26219258 0.020304477 1.0070001
-0.26263398 0.037519142 1.0070001
-0.25552252 0.038941436 1.0070001
-0.24541931 0.038843345 1.0070001
-0.23461553 0.03745608 1.0070001
-0.22511488 0.036194932 1.0070001
-0.21840553 0.03743086 1.0070001
-0.18379965 0.039373029 1.0070001
-0.29103082 0.047965646 1.0070001
-0.28488019 0.047037955 1.0065385
-0.27472928 0.045894984 1.0059565
-0.26453853 0.045560665 1.0068847
-0.25513017 0.045022968 1.0070001
-0.24527378 0.044995267 1.0064
-0.2346603 0.044990443 1.0063
-0.22508764 0.045017816 1.00688
-0.21614558 0.045446709 1.0070001
-0.20498693 0.047671378 1.0070001
-0.19459213 0.046632294 1.0062
-0.18521321 0.044711225 1.0043213
-0.17764822 0.046226319 1.0018182
-0.13426413 0.048264883 1.001
-0.33105126 0.059147824 1.0070001
-0.3271277 0.057774577 1.0070001
-0.31441751 0.058824185 1.0065
-0.3043834 0.056483325 1.0040001
-0.29451874 0.055445667 1.0039999
-0.28502372 0.053562447 1.0028888
-0.27474633 0.053328346 1.0019641
-0.26478028 0.054150157 1.0034374
-0.25543094 0.053241186 1.0042607
-0.24422415 0.053022016 1.0033998
-0.23507766 0.054626051 1.0036362
-0.22555842 0.054038431 1.0039999
-0.21515074 0.05163205 1.0028001
-0.20434397 0.052620798 1.0028571
-0.19569331 0.051675055 1.0016923
-0.18516165 0.050019968 1.001
-0.17550866 0.050897513 1.001
-0.32513872 0.064897567 1.0052856
-0.31589648 0.062675215 1.0029285
-0.30889523 0.060550489 1.001
-0.23289999 0.061252523 1.001
-0.22816126 0.060550489 1.001
-0.097407311 0.06844838 1.001
-0.33131102 0.077902943 1.006
-0.32646894 0.074885264 1.0034001
-0.33109188 0.084904581 1.0053334
-0.327061 0.08478076 1.0026364
-0.33105126 0.090928741 1.0070001
-0.32726362 0.095009625 1.0035001
-0.33105126 0.10858481 1.0070001
-0.32690147 0.10507607 1.0026364
-0.075468726 0.10969292 1.001
-0.06620577 0.10637775 1.001
-0.35672417 0.11561173 1.0067
-0.34502792 0.1188234 1.0040001
-0.33377075 0.11576235 1.0040001
-0.32728317 0.11502974 1.0016429
-0.07472761 0.11231624 1.002875
-0.066749066 0.11080705 1.005125
-0.35453588 0.12374923 1.0038126
-0.34487453 0.12022343 1.001
-0.33609909 0.12022343 1.001
-0.35467601 0.13634376 1.0034001
-0.35239893 0.14485238 1.003143
-0.34838471 0.14830482 1.001
-0.35247728 0.151398 1.006
-0.3469094 0.15483555 1.0035
-0.12504992 0.15576394 1.001
-0.093897134 0.15883534 1.001
-0.3438015 0.16573954 1.0036249
-0.33960927 0.16848832 1.001
-0.12341543 0.16457246 1.0038571
-0.11816902 0.16689566 1.0027144
-0.10302359 0.16831282 1.001
-0.095846429 0.16473198 1.0012858
-0.36106655 0.17832628 1.0070001
-0.35512131 0.17589343 1.0043334
-0.34501266 0.17444965 1.0028571
-0.33800045 0.17477739 1.0010002
-0.12349658 0.17364298 1.0066471
-0.11479934 0.17541958 1.0055
-0.10543612 0.17458604 1.0033478
-0.097374476 0.17277561 1.0026667
-0.36296001 0.18521701 1.0045
-0.35913032 0.18421641 1.0016
-0.12170587 0.18255706 1.006
-0.11543728 0.18180358 1.0067
-0.107702 0.18097468 1.0070001
-0.36233887 0.1933465 1.0040001
-0.35874534 0.19452247 1.00175
-0.35047293 0.22864605 1.0070001
-0.34640694 0.22571836 1.0034001
-0.33960927 0.2290388 1.001
-0.35047293 0.23041166 1.0070001
-0.34381089 0.23285206 1.0060999
-0.33671027 0.23591413 1.0035714
-0.11268442 0.24659516 1.00325
-0.10799626 0.24865627 1.0070001
-0.32196742 0.25225767 1.0040001
-0.12172122 0.25882441 1.0025001
-0.1152797 0.25436205 1.0052857
-0.10858481 0.25159895 1.0070001
-0.15093745 0.26940581 1.001
-0.14444363 0.2690548 1.001
-0.1342511 0.26662588 1.0018573
-0.12562416 0.26416534 1.0054119
-0.11858992 0.2610155 1.0070001
-0.15547958 0.27397877 1.0044285
-0.1442229 0.27299821 1.0048181
-0.13643594 0.27274933 1.0059286
-0.17163379 0.28957704 1.0040001
-0.16655982 0.28649977 1.0035001
-0.28605634 0.2930977 1.0040001
-0.27503094 0.29882455 1.0055001
-0.17327084 0.29192182 1.005
-0.16861543 0.29044229 1.0070001
-0.27383339 0.30342308 1.0066471
-0.26818502 0.30623311 1.0066667
-0.1904269 0.30977279 1.001
-0.18516164 0.30836874 1.001
-0.17989638 0.30714017 1.001
-0.26572379 0.31251237 1.0070001
-0.20377231 0.31743056 1.0019
-0.19494577 0.31575781 1.0044
-0.18614644 0.31240356 1.0063334
-0.17920907 0.31162956 1.0070001
-0.26493219 0.32654431 1.0040001
-0.25512576 0.3269698 1.0035001
-0.24571213 0.32863998 1.001
-0.22026338 0.32907873 1.001
-0.21396004 0.3257848 1.0043751
-0.20574434 0.32162327 1.005125
-0.19863075 0.32045761 1.0070001
-0.25273576 0.33124611 1.00625
-0.24581558 0.33215672 1.005
-0.23394868 0.33352071 1.005125
-0.22554791 0.33303866 1.0050001
-0.21814463 0.33136299 1.0058
-0.2532239 0.017685387 1.0143334
-0.24874802 0.016941583 1.0170001
-0.21261096 0.018759791 1.0190001
-0.20357846 0.01776721 1.0190001
-0.19813912 0.017687801 1.0190001
-0.27190626 0.028036457 1.01525
-0.26452708 0.025385115 1.013844
-0.25496453 0.024961116 1.0169168
-0.24589524 0.026527369 1.0188501
-0.23452143 0.027523413 1.0167059
-0.22464713 0.026528133 1.0150456
-0.21479984 0.025581406 1.0161036
-0.20533678 0.025140675 1.0190005
-0.19539835 0.025410121 1.0170716
-0.18943758 0.028461421 1.0145
-0.28274104 0.03638589 1.0168182
-0.27463421 0.035838362 1.0136003
-0.26483214 0.034935851 1.0103335
-0.25483236 0.033856329 1.012308
-0.24517754 0.033751927 1.0133002
-0.23550841 0.032531481 1.0113846
-0.22426762 0.031243147 1.0100001
-0.2138209 0.034996562 1.0115002
-0.20502904 0.035140522 1.0165627
-0.19478486 0.035731398 1.0128127
-0.18778367 0.035523888 1.0108184
-0.32236698 0.048843484 1.013
-0.3132534 0.047399234 1.0147144
-0.3047123 0.045890532 1.0165359
-0.29478055 0.044105548 1.0155911
-0.28511912 0.042351533 1.0136
-0.27564153 0.041951716 1.011
-0.26651543 0.041615367 1.01
-0.2120176 0.042816546 1.0105001
-0.20564392 0.043625023 1.0117143
-0.1962712 0.042690247 1.0103
-0.34101629 0.059500244 1.013
-0.33564433 0.0584113 1.0117143
-0.32316831 0.055240985 1.0115883
-0.31580248 0.053974662 1.0121254
-0.30548841 0.051987387 1.0120002
-0.29750472 0.05098737 1.0115
-0.34248865 0.065527819 1.0176667
-0.33541459 0.064999774 1.0131365
-0.34154728 0.074542873 1.0190001
-0.33591914 0.074479125 1.0135295
-0.34065399 0.084270172 1.0190001
-0.33565345 0.084874779 1.012
-0.3403562 0.09415628 1.0190001
-0.33502531 0.095339432 1.0126001
-0.35217699 0.109199 1.016
-0.3429549 0.10728002 1.0190001
-0.33493358 0.10473961 1.0125
-0.36452496 0.11692834 1.013
-0.3536658 0.11417032 1.0118216
-0.34531617 0.11474386 1.0146804
-0.337163 0.11263864 1.0117143
-0.071879871 0.11580744 1.0122499
-0.064827509 0.11568718 1.0130001
-0.059676453 0.11757415 1.016
-0.3716225 0.12238529 1.0190001
-0.36489296 0.12451286 1.0145001
-0.065212607 0.12059865 1.0190001
-0.059852663 0.12149197 1.0190001
-0.36325184 0.13431463 1.0146153
-0.3586005 0.13901304 1.01
-0.36197633 0.14461252 1.01825
-0.35746664 0.14600164 1.0118001
-0.36000931 0.15097164 1.0190001
-0.35603783 0.15497363 1.0148
-0.34974617 0.15849257 1.01
-0.3716225 0.16883811 1.0190001
-0.35249385 0.16633633 1.016
-0.34797528 0.16380516 1.01
-0.37465256 0.17519465 1.0181819
-0.36541232 0.17398825 1.0140003
-0.35567406 0.17205665 1.0136924
-0.1221898 0.1753158 1.01
-0.1168772 0.17885754 1.01
-0.10182483 0.17885754 1.01
-0.096724607 0.17792585 1.0122499
-0.37461782 0.18441857 1.016261
-0.36776665 0.18394397 1.0108572
-0.12148956 0.18691212 1.01525
-0.11460765 0.18644245 1.0109476
-0.10478784 0.18533483 1.0130002
-0.097774051 0.18217893 1.017
-0.37608913 0.19027787 1.0190001
-0.36688516 0.19468415 1.0124999
-0.35966566 0.19981425 1.013
-0.12124081 0.19523622 1.0168999
-0.11543465 0.19490127 1.0164093
-0.10612752 0.19214682 1.0173334
-0.36144176 0.20159037 1.013
-0.35966566 0.20159037 1.013
-0.12159858 0.20230873 1.0184
-0.11672759 0.20159329 1.0190001
-0.35078502 0.23533678 1.013
-0.3476049 0.23558123 1.0115
-0.10802287 0.24703591 1.01
-0.32688579 0.25830108 1.016
-0.11191454 0.25749353 1.0105001
-0.10717506 0.25471073 1.0117501
-0.12242913 0.26822725 1.012
-0.11537667 0.26518199 1.0138184
-0.1088237 0.26135844 1.0175
-0.31176984 0.27782357 1.0190001
-0.15394367 0.27811772 1.0117142
-0.14661036 0.27696192 1.0115
-0.13209195 0.27512118 1.01125
-0.12537976 0.27503932 1.0165772
-0.11613204 0.27246362 1.0190001
-0.16315643 0.28530154 1.0170001
-0.15854079 0.28234977 1.016
-0.12774524 0.28139684 1.0190001
-0.29350641 0.29658815 1.0181818
-0.28684446 0.29838926 1.013
-0.17311186 0.29681361 1.0126666
-0.16774315 0.29402661 1.0160002
-0.29227117 0.3026889 1.0185
-0.28522089 0.3048034 1.0155264
-0.27680147 0.30780283 1.010375
-0.17706527 0.30384853 1.0164286
-0.2833741 0.31301558 1.0184
-0.274593 0.31399429 1.0136669
-0.26868474 0.31391022 1.0115
-0.19213903 0.31905115 1.01
-0.18446311 0.3170332 1.0126001
-0.17848933 0.31682032 1.018
-0.21193153 0.32854089 1.0115
-0.20477186 0.3265917 1.0125384
-0.19540894 0.32450822 1.0151176
-0.18611853 0.3224757 1.01825
-0.26079285 0.33657947 1.013
-0.25643653 0.33530027 1.0116156
-0.24463575 0.33703992 1.0135
-0.23409934 0.33785114 1.0115
-0.22393277 0.33756214 1.012625
-0.21447401 0.33534554 1.0137502
-0.20639648 0.33242124 1.0178462
-0.19921111 0.33142295 1.0190001
-0.26174372 0.34214282 1.0190001
-0.25817046 0.34154728 1.0190001
-0.24387726 0.34124953 1.0190001
-0.23501287 0.34268159 1.0169231
-0.224842 0.34291378 1.01775
-0.21630807 0.34186253 1.0174999
-0.21523978 0.0085615264 1.028
-0.2090815 0.0099133467 1.028
-0.24538893 0.016679559 1.0253333
-0.2345392 0.016483653 1.0278234
-0.22502428 0.015992155 1.0277499
-0.21486849 0.014960964 1.0251303
-0.2063712 0.014089411 1.0228573
-0.19800569 0.017023113 1.0220001
-0.24428406 0.022761246 1.0222002
-0.2354897 0.022201639 1.0233126
-0.22528036 0.021539699 1.0238001
-0.2165325 0.021070026 1.0227501
-0.30014437 0.0403179 1.0220001
-0.29835245 0.0403179 1.0220001
-0.34785992 0.066559687 1.0232002
-0.35057199 0.074800707 1.028
-0.34674898 0.075758636 1.0240769
-0.35147321 0.086816885 1.028
-0.34626433 0.085189976 1.02425
-0.35057199 0.094627395 1.028
-0.34556255 0.095140971 1.0238334
-0.35101429 0.10423242 1.0262858
-0.34615886 0.10507613 1.0234119
-0.071782783 0.11933669 1.0235001
-0.37460274 0.12684289 1.0247
-0.071195856 0.1216638 1.028
-0.064125702 0.12409727 1.0248125
-0.057593491 0.12778687 1.0265
-0.37408572 0.13422605 1.0267646
-0.36823681 0.13708086 1.0220001
-0.054974012 0.13067593 1.028
-0.37200084 0.14429426 1.028
-0.36658818 0.14530768 1.0244
-0.36461079 0.1552318 1.0264999
-0.35838133 0.15858375 1.0220001
-0.37087616 0.16879632 1.026
-0.36369312 0.16614479 1.0259544
-0.35711995 0.16457942 1.0228184
-0.38149694 0.1768612 1.0220001
-0.37898827 0.1747109 1.0220001
-0.3628611 0.17112708 1.0220001
-0.38217956 0.18380719 1.0227501
-0.10124273 0.18904616 1.0220001
-0.096236892 0.18664502 1.0227503
-0.37416089 0.19381127 1.0235001
-0.11109821 0.19800568 1.0220002
-0.10423005 0.19608682 1.0232002
-0.099450819 0.19173402 1.0220001
-0.12167046 0.2073236 1.0220001
-0.11483906 0.20611893 1.0245714
-0.10630362 0.20171064 1.0266666
-0.12238486 0.21147612 1.0265
-0.11445409 0.21178514 1.028
-0.3345871 0.25663015 1.0271428
-0.33190075 0.26234367 1.026
-0.32890198 0.2641426 1.026
-0.11091902 0.26717329 1.0220001
-0.10752646 0.26556337 1.02425
-0.32307553 0.27399427 1.0272501
-0.31673706 0.27725327 1.0235001
-0.1209537 0.27774554 1.0220001
-0.11434873 0.27583641 1.0240626
-0.10818342 0.27335569 1.0271429
-0.32173315 0.28027734 1.028
-0.31480184 0.28486365 1.0259641
-0.30808619 0.28748703 1.028
-0.16216755 0.28700373 1.0220001
-0.15951476 0.28748706 1.028
-0.12337177 0.28263953 1.0235
-0.11745813 0.28147897 1.028
-0.31434092 0.29290417 1.0274
-0.30502987 0.29459801 1.0268749
-0.29775515 0.29506728 1.0220002
-0.16461194 0.29447195 1.026091
-0.3016862 0.30258742 1.0272499
-0.29577342 0.30428827 1.0223752
-0.28939292 0.30910391 1.0220001
-0.17488545 0.30506849 1.0241001
-0.16803157 0.30042461 1.0250001
-0.29180264 0.31158859 1.02575
-0.28560635 0.31772041 1.0258572
-0.27684957 0.31985533 1.0220001
-0.17881808 0.31090981 1.0250001
-0.29109192 0.32353559 1.028
-0.28499174 0.32283047 1.0276666
-0.2744292 0.32302108 1.0263636
-0.26946279 0.32353559 1.028
-0.19357185 0.32884258 1.0232
-0.1833659 0.32594898 1.0233848
-0.17868724 0.32505375 1.02425
-0.2517629 0.33956632 1.0220001
-0.21054903 0.33867037 1.0220001
-0.20402172 0.33719048 1.023154
-0.19625488 0.33395627 1.02575
-0.18519935 0.33074528 1.028
-0.25249663 0.34296107 1.0250001
-0.24527431 0.34558111 1.0256667
-0.23373774 0.34814143 1.0235002
-0.22564922 0.3482978 1.0236669
-0.21470596 0.34631947 1.0247501
-0.20562479 0.34173673 1.0265
-0.23521666 0.35201395 1.028
-0.22530334 0.35207403 1.028
-0.2165916 0.35057199 1.028
-0.24297504 0.0090651726 1.0341667
-0.23424248 0.0085266484 1.0316429
-0.22483099 0.0079086293 1.031
-0.21873009 0.0054230597 1.031
-0.24373643 0.012955088 1.031
-0.23771079 0.013557649 1.031
-0.22686468 0.012653808 1.031
-0.35639438 0.076323286 1.0329287
-0.36126205 0.085538119 1.0380001
-0.35674942 0.084608309 1.0328335
-0.35535809 0.094597526 1.0322309
-0.35340273 0.10123046 1.031
-0.077348299 0.11920738 1.0380001
-0.38125619 0.12768738 1.033
-0.073651567 0.1234806 1.0372001
-0.065851696 0.12807281 1.0336667
-0.37690267 0.13467266 1.031
-0.063248776 0.13244446 1.0355556
-0.056020278 0.13485958 1.0345385
-0.38310158 0.14832674 1.0380001
-0.37596518 0.14727536 1.0319
-0.050655555 0.14165355 1.0380001
-0.048228938 0.14468682 1.0380001
-0.38219157 0.15196668 1.0380001
-0.37503368 0.15450564 1.0351876
-0.36906934 0.15546106 1.031
-0.37284631 0.16437466 1.0348001
-0.36846676 0.16510206 1.031
-0.11117273 0.20878781 1.031
-0.10480769 0.20656396 1.0340002
-0.12237117 0.21624619 1.034
-0.11486682 0.21495274 1.0350001
-0.10683165 0.21166134 1.0380001
-0.12418684 0.22027302 1.034
-0.11738742 0.22112514 1.0380001
-0.11556746 0.23932473 1.0380001
-0.11407025 0.24437432 1.0341821
-0.10902553 0.24644478 1.0351428
-0.34240144 0.25793463 1.036
-0.33992749 0.25834489 1.034
-0.1108019 0.25157881 1.036
-0.34280246 0.26558417 1.0380001
-0.33692759 0.26531932 1.0339288
-0.32899898 0.26844147 1.031
-0.10460133 0.2670905 1.0335556
-0.34215248 0.27026406 1.0380001
-0.33443418 0.27405784 1.0372001
-0.3282606 0.27520844 1.0331429
-0.31861442 0.27878743 1.0325
-0.11117273 0.27747989 1.031
-0.10505687 0.27436474 1.0345834
-0.3309294 0.28179047 1.0380001
-0.32504669 0.28382784 1.0348573
-0.31726566 0.28010026 1.034
-0.30640289 0.28832603 1.031
-0.15532634 0.28659451 1.0334445
-0.1495681 0.28553909 1.034
-0.1213794 0.28793699 1.0348001
-0.11512761 0.28448179 1.0355456
-0.10898545 0.28064203 1.036
-0.3213312 0.2914623 1.0325
-0.31295577 0.29600871 1.031
-0.16202052 0.29513231 1.0335455
-0.15863985 0.29210356 1.0380001
-0.31164274 0.30329794 1.0352001
-0.30613801 0.3037301 1.0331666
-0.17247242 0.30784625 1.0322001
-0.16577455 0.30398443 1.035077
-0.30120337 0.31212315 1.0380001
-0.29551136 0.31563613 1.034
-0.1803882 0.31817213 1.034
-0.17593691 0.31315061 1.0349232
-0.29271024 0.3230429 1.0380001
-0.28414807 0.32683149 1.0327142
-0.27473095 0.32781082 1.0320001
-0.28155202 0.33150274 1.036
-0.27528009 0.33297321 1.0363334
-0.26922259 0.33267573 1.034
-0.193285 0.33734626 1.0322001
-0.18504424 0.33620566 1.0337002
-0.17946565 0.33442524 1.0356668
-0.26116425 0.34852234 1.0380001
-0.2544837 0.34677637 1.032125
-0.24928017 0.34899223 1.034
-0.21140231 0.34771463 1.0320001
-0.20471679 0.34667948 1.0329232
-0.196077 0.34329566 1.0355002
-0.1861819 0.34160647 1.0380001
-0.25518438 0.35164231 1.0380001
-0.24526197 0.35335818 1.0361668
-0.23469275 0.35728276 1.0350909
-0.22431172 0.35661429 1.0336365
-0.2146446 0.35457528 1.0347501
-0.20659995 0.35140657 1.0366668
-0.227495 0.36126205 1.0380001
-0.24366687 0.0063882698 1.041
-0.090869129 0.11840523 1.0470001
-0.085276797 0.11744647 1.045909
-0.079397067 0.11955191 1.041
-0.090869129 0.12024097 1.0470001
-0.084826268 0.12443465 1.0485001
-0.076268941 0.12609622 1.0447999
-0.072002165 0.13162032 1.04625
-0.066131569 0.13607641 1.0452501
-0.055669207 0.1392643 1.041
-0.062196344 0.14182222 1.0464
-0.054820433 0.14521542 1.0453639
-0.047692947 0.14710169 1.0422
-0.38207936 0.15788151 1.041
-0.37812474 0.15909834 1.041
-0.050482851 0.15420216 1.0470001
-0.045224506 0.15517458 1.0460527
-0.38055837 0.16153197 1.041
-0.37690794 0.16244458 1.041
-0.12137713 0.21811379 1.041
-0.11187428 0.21827093 1.04175
-0.10435425 0.21559437 1.042737
-0.09947449 0.21081291 1.041
-0.12228973 0.22541466 1.0410001
-0.11579388 0.22458197 1.044
-0.10849223 0.22267525 1.0470001
-0.12115096 0.23302963 1.0435714
-0.11792132 0.23553668 1.0463334
-0.11772669 0.24001643 1.041
-0.10692923 0.24858628 1.0425
-0.3474879 0.25840273 1.044
-0.10562868 0.25411719 1.0455
-0.34687701 0.26267493 1.044
-0.10365794 0.26662096 1.0443333
-0.34213626 0.2762723 1.0435001
-0.33799097 0.27678734 1.0420001
-0.10125596 0.27565363 1.044
-0.3411417 0.28239799 1.0470001
-0.3346529 0.28448009 1.0426667
-0.32945222 0.28747216 1.041
-0.15149325 0.28929737 1.041
-0.11309451 0.2877776 1.044
-0.1058173 0.28292599 1.0444286
-0.33040163 0.29104632 1.044
-0.3271856 0.29336905 1.0425001
-0.16016699 0.29928347 1.044
-0.15587452 0.29483086 1.043625
-0.14961281 0.29096478 1.0470001
-0.11573096 0.29239288 1.045
-0.31120002 0.30754957 1.041
-0.30937478 0.30754957 1.041
-0.16302121 0.30524042 1.0432501
-0.15787363 0.30106133 1.0470001
-0.30432385 0.31529942 1.0437
-0.17412178 0.31690055 1.044
-0.16780801 0.3120828 1.046
-0.30205548 0.32078505 1.0425
-0.29682639 0.32352024 1.041
-0.18064769 0.3237004 1.046
-0.17747962 0.32194158 1.04625
-0.28280914 0.33680964 1.044
-0.27652082 0.3367531 1.041
-0.18030228 0.33772355 1.044
-0.17978416 0.33310264 1.041
-0.19448034 0.34765679 1.0425001
-0.18612377 0.34675238 1.045
-0.17978416 0.34040353 1.041
-0.26125804 0.35443282 1.0419999
-0.25491065 0.35632926 1.0421999
-0.24572967 0.35808679 1.0419999
-0.21202971 0.35804734 1.041
-0.20429245 0.35606116 1.0435264
-0.19622186 0.35380545 1.0459285
-0.18999909 0.3515442 1.0470001
-0.25424999 0.3607229 1.0470001
-0.24366389 0.36285684 1.045875
-0.23438165 0.36497849 1.0437857
-0.22460955 0.36367872 1.0436251
-0.21469025 0.36254218 1.0445454
-0.20560288 0.36164078 1.0470001
-0.091129497 0.1224265 1.0500001
-0.078242503 0.1297905 1.0500001
-0.082187898 0.13506004 1.0560001
-0.07524088 0.13636208 1.0533333
-0.069037497 0.1389955 1.0500001
-0.081358701 0.14325804 1.057
-0.074806653 0.14271499 1.0563334
-0.065791555 0.14480986 1.0530001
-0.059218835 0.14758684 1.0500001
-0.054249883 0.15397164 1.0509412
-0.047866002 0.1592465 1.0500001
-0.050820366 0.16170117 1.054
-0.044503201 0.16463993 1.0541054
-0.039845377 0.16957451 1.057
-0.039845377 0.17142779 1.057
-0.1132215 0.22797716 1.0500001
-0.10410378 0.22499861 1.0508889
-0.098868713 0.22822964 1.054
-0.11410949 0.233354 1.0536364
-0.10681994 0.23155002 1.0565001
-0.10517991 0.25689533 1.0503078
-0.098493502 0.2586605 1.0500001
-0.35322475 0.26468843 1.0519999
-0.10340116 0.26356652 1.0506316
-0.098404251 0.26493829 1.0530001
-0.1003345 0.2715475 1.0500001
-0.09702839 0.27503693 1.0563334
-0.34273282 0.28504816 1.0500001
-0.3385599 0.2888529 1.0500001
-0.15004151 0.28995749 1.0500001
-0.1482005 0.28995749 1.0500001
-0.10419662 0.28610241 1.0518183
-0.097914606 0.28509521 1.057
-0.34095845 0.2929101 1.054
-0.33637732 0.29479679 1.054125
-0.15145935 0.29647055 1.0513333
-0.14715376 0.29576704 1.0557144
-0.11199417 0.29486683 1.0500001
-0.10620662 0.29272252 1.0555557
-0.16200799 0.30744702 1.0500001
-0.15525998 0.30406073 1.0542144
-0.14857075 0.30177465 1.057
-0.31366333 0.31458822 1.053875
-0.30895486 0.3172569 1.052
-0.17112242 0.31797576 1.0513334
-0.16435899 0.31460062 1.0562501
-0.15845487 0.31042328 1.057
-0.31139025 0.32063031 1.054
-0.30954224 0.32063031 1.054
-0.1813385 0.3286185 1.0500001
-0.17513633 0.32626015 1.0539445
-0.16854493 0.32566133 1.057
-0.28811648 0.3359825 1.0500001
-0.18087429 0.33472142 1.054
-0.17491411 0.33408549 1.0565386
-0.16957451 0.33173591 1.057
-0.181297 0.34535703 1.0533334
-0.17725237 0.34484121 1.057
-0.19359745 0.35751486 1.0516001
-0.18463582 0.35502854 1.0544736
-0.17729647 0.35412967 1.057
-0.25341046 0.36621496 1.0546365
-0.2461417 0.36654311 1.0500001
-0.22598276 0.36773977 1.0500001
-0.21497191 0.36741623 1.0511429
-0.20432062 0.3668088 1.0539286
-0.19580552 0.36445731 1.0548126
-0.18588331 0.362315 1.057
-0.24532288 0.37122974 1.0560001
-0.23165917 0.37343457 1.057
-0.22351201 0.37149596 1.0550001
-0.21384968 0.37184751 1.056
-0.2047867 0.37158129 1.057
-0.082085222 0.13784121 1.0600001
-0.083076432 0.14663829 1.0600001
-0.075001463 0.14692777 1.060231
-0.068208173 0.14849682 1.0600001
-0.074921437 0.15130541 1.0625716
-0.064524144 0.15488082 1.0624999
-0.057386745 0.15788957 1.0615001
-0.053996801 0.16485143 1.0633078
-0.04863162 0.16757774 1.0600001
-0.0517442 0.17316569 1.0654
-0.045617584 0.17501484 1.0618846
-0.0390292 0.17656067 1.0600001
-0.043868989 0.18535355 1.0645999
-0.038121499 0.18503085 1.0606
-0.040566348 0.19385888 1.0662
-0.037880037 0.19467479 1.0625001
-0.11244126 0.23789226 1.0600001
-0.10482582 0.2358302 1.0616876
-0.098114103 0.23426042 1.0636667
-0.11251082 0.24269173 1.0606667
-0.10564196 0.24213971 1.0664285
-0.093317658 0.2778959 1.0633334
-0.088863313 0.27968559 1.067
-0.094874717 0.28551498 1.0641178
-0.14249428 0.29535729 1.060231
-0.13820021 0.29601541 1.0651666
-0.10400642 0.29656014 1.0631001
-0.098076656 0.29405123 1.0655
-0.15250559 0.30826953 1.06075
-0.14475931 0.30433863 1.0625999
-0.13875149 0.30088809 1.067
-0.3150214 0.31873846 1.0600001
-0.16308293 0.31752977 1.0612859
-0.15562892 0.3140645 1.0646251
-0.14872913 0.31148931 1.067
-0.31650734 0.32304466 1.0650001
-0.16422245 0.3251254 1.0629524
-0.15995397 0.32084334 1.067
-0.29640305 0.33746028 1.0643334
-0.17168202 0.33755609 1.0600001
-0.16543943 0.33486423 1.0636841
-0.29465204 0.3414222 1.067
-0.17361541 0.34556314 1.0618999
-0.16743532 0.34462175 1.0661429
-0.17313316 0.35502109 1.0618
-0.16899621 0.35389423 1.067
-0.19142893 0.36891887 1.0600001
-0.18453462 0.3674266 1.060231
-0.17578648 0.36442018 1.0624347
-0.16930801 0.36106569 1.067
-0.25172737 0.37480175 1.0635
-0.24474467 0.37599543 1.0649999
-0.23392297 0.37734285 1.0642858
-0.22615178 0.37701967 1.0645
-0.21394649 0.37642989 1.0617143
-0.20512439 0.37591264 1.0617895
-0.19556691 0.37409061 1.0627999
-0.18681124 0.37352607 1.064889
-0.21233656 0.38070914 1.067
-0.20485333 0.38183165 1.067
-0.063626401 0.1646501 1.0740714
-0.057803392 0.16670167 1.0708573
-0.061910577 0.17386217 1.077
-0.056405243 0.17514597 1.0732105
-0.055027533 0.1845265 1.0754089
-0.049715765 0.18479255 1.0700001
-0.052725751 0.19486459 1.0761112
-0.046189297 0.19525051 1.0712272
-0.094416998 0.20866157 1.077
-0.050985184 0.20394072 1.077
-0.044621278 0.20450003 1.0749564
-0.094416998 0.21054991 1.077
-0.098052241 0.23901848 1.072
-0.11099827 0.24927579 1.0730001
-0.1048855 0.2454533 1.0727333
-0.097481295 0.24304655 1.0754001
-0.11141206 0.25209337 1.077
-0.1065904 0.25091514 1.0760001
-0.091040254 0.28625953 1.0706002
-0.087830774 0.28630689 1.075
-0.13390426 0.29806012 1.0700001
-0.093412407 0.29558805 1.0729998
-0.08914078 0.29289389 1.0760001
-0.14090094 0.30904561 1.0715001
-0.13591211 0.30485824 1.0727059
-0.12935129 0.30119023 1.077
-0.10441363 0.30195293 1.0730001
-0.096124746 0.30063093 1.075
-0.15349594 0.31758466 1.0704286
-0.14480859 0.31467476 1.0726362
-0.13784882 0.3115761 1.077
-0.1604037 0.3264356 1.0700001
-0.15452683 0.32525021 1.0724999
-0.14706171 0.32190526 1.0761112
-0.16123751 0.33508635 1.0700001
-0.15524991 0.33497253 1.0733076
-0.29356527 0.34645954 1.0710001
-0.28891426 0.34801036 1.0700001
-0.16259858 0.34537819 1.0705625
-0.15624259 0.34457338 1.0746841
-0.16435434 0.3554866 1.0729998
-0.15820707 0.35290158 1.0763334
-0.1717791 0.36843646 1.0707501
-0.16700891 0.36395019 1.0744615
-0.24451403 0.37927815 1.0700001
-0.23919851 0.37802744 1.0700001
-0.22137585 0.3799035 1.0700001
-0.21856177 0.3799035 1.0700001
-0.19229682 0.37990347 1.0700001
-0.18455112 0.37729153 1.0717143
-0.17527822 0.3742252 1.0738
-0.16900642 0.37105882 1.077
-0.24372736 0.38539428 1.0755
-0.23611198 0.38543814 1.0735
-0.2254777 0.3838065 1.0739167
-0.21549186 0.38412324 1.0734
-0.2043826 0.38699433 1.0728461
-0.19614904 0.38505656 1.0735883
-0.18737118 0.38210481 1.0762001
-0.19921987 0.39183053 1.077
-0.066275999 0.1685304 1.08
-0.064989053 0.17600779 1.0813334
-0.06330315 0.18531601 1.0830833
-0.059230227 0.18716747 1.0810001
-0.062271867 0.19513069 1.0867273
-0.057213902 0.19470912 1.0816666
-0.10148776 0.20678726 1.087
-0.09596689 0.20493084 1.0852666
-0.060352657 0.2042461 1.087
-0.055446897 0.20529823 1.0827057
-0.10185738 0.21323855 1.085875
-0.097632721 0.21260799 1.0838751
-0.060035009 0.21059901 1.087
-0.053153802 0.21396592 1.0854285
-0.045384251 0.21513635 1.0820526
-0.050505642 0.22108132 1.087
-0.04541852 0.22499378 1.0860999
-0.042882148 0.23156361 1.087
-0.1013076 0.2490084 1.08
-0.096938401 0.24805796 1.084125
-0.10380885 0.25480974 1.084846
-0.098695718 0.25293121 1.086
-0.085212 0.28877398 1.08
-0.076974839 0.28984353 1.0840001
-0.084433526 0.29488939 1.0844544
-0.078626297 0.29299095 1.0857999
-0.13208094 0.30808875 1.0813333
-0.12739676 0.3068561 1.0845
-0.092064023 0.3021414 1.0826668
-0.085764289 0.30112797 1.087
-0.1410732 0.31907159 1.08
-0.13463394 0.31517273 1.0838499
-0.12864645 0.31161028 1.087
-0.14401405 0.32611239 1.0811764
-0.1370312 0.32430547 1.0851427
-0.1505412 0.33611399 1.08
-0.14520361 0.33516589 1.0842799
-0.13757606 0.33244377 1.0865715
-0.15213791 0.3464984 1.0808889
-0.14641793 0.34453467 1.0859499
-0.16000921 0.35883719 1.08
-0.15399934 0.35572267 1.0847646
-0.14884871 0.35315832 1.087
-0.16265598 0.36635473 1.0814285
-0.1565669 0.363821 1.0856874
-0.17336901 0.37895322 1.0806667
-0.16512422 0.37472484 1.0830415
-0.15850513 0.37132764 1.087
-0.24742222 0.38835046 1.0813333
-0.231966 0.38913479 1.08
-0.22439161 0.38875607 1.08
-0.2187108 0.38724118 1.08
-0.19220041 0.38850358 1.08
-0.18422998 0.38585767 1.0821332
-0.17469762 0.38576284 1.084846
-0.16659068 0.38403347 1.087
-0.2433276 0.3910284 1.08
-0.23497085 0.39377955 1.0834
-0.22564253 0.3934741 1.0843636
-0.21762021 0.39057603 1.0840001
-0.20388211 0.39488146 1.0831429
-0.19470651 0.39402491 1.0842307
-0.18517627 0.39289302 1.0862
-0.17756386 0.39229226 1.087
-0.064022966 0.19684674 1.09
-0.1016086 0.20353572 1.09
-0.06317357 0.20587152 1.09
-0.10166177 0.2196278 1.0940001
-0.098784551 0.2196278 1.0940001
-0.062968746 0.21497367 1.092077
-0.057121843 0.21677512 1.0905001
-0.10170013 0.22600028 1.097
-0.098464869 0.22474284 1.094
-0.063060261 0.22311519 1.097
-0.054797485 0.22535104 1.0930001
-0.099055439 0.2317705 1.097
-0.052961789 0.23436961 1.0953077
-0.04583988 0.23555909 1.0929474
-0.094601102 0.24558063 1.09
-0.050970275 0.24138753 1.097
-0.043892071 0.24252312 1.0963334
-0.038948983 0.24523434 1.097
-0.10367898 0.25895858 1.09
-0.09595757 0.25591877 1.092077
-0.10325275 0.26283678 1.0926001
-0.096965089 0.2629241 1.095143
-0.081860214 0.28889963 1.09
-0.079312034 0.28953668 1.09
-0.076856196 0.29658568 1.0913335
-0.12372046 0.30978069 1.0940001
-0.10702346 0.30864802 1.09
-0.093056411 0.30763945 1.0915
-0.085369445 0.30655771 1.0925333
-0.078859672 0.30197483 1.097
-0.13091263 0.31724811 1.09
-0.12446503 0.31475353 1.0952274
-0.11444269 0.31063017 1.097
-0.10867248 0.31255358 1.097
-0.093201935 0.31226864 1.0960001
-0.087074779 0.31276736 1.0955001
-0.13215539 0.32589695 1.0908
-0.12699768 0.32525557 1.0962858
-0.10097885 0.32986423 1.097
-0.098093733 0.32986423 1.097
-0.089438409 0.32217062 1.097
-0.1404683 0.33922616 1.09
-0.13454975 0.33571333 1.0926667
-0.12867591 0.33294168 1.097
-0.097132035 0.33178765 1.097
-0.14201201 0.34595037 1.0904446
-0.13743424 0.34477007 1.0949092
-0.15002397 0.35833749 1.09
-0.14409654 0.35526827 1.0929
-0.13859214 0.35444108 1.097
-0.15221095 0.36617348 1.092
-0.14482592 0.36469251 1.0960455
-0.13896613 0.36256215 1.097
-0.16149077 0.37935996 1.09
-0.15542752 0.37514848 1.0944445
-0.14682004 0.37089691 1.097
-0.16205555 0.38536114 1.0928462
-0.15820019 0.38323876 1.097
-0.23506939 0.3984713 1.09
-0.22362728 0.39788684 1.0921429
-0.21488422 0.39725244 1.0938182
-0.20735796 0.3984713 1.09
-0.19206889 0.39847127 1.09
-0.18411314 0.39812019 1.0910001
-0.17378308 0.39601871 1.0926429
-0.16566059 0.39363012 1.0952941
-0.23339617 0.40216294 1.0938001
-0.22587457 0.40196389 1.0964
-0.21301728 0.40247285 1.097
-0.20414822 0.40327796 1.0955557
-0.19511919 0.4027161 1.0948572
-0.18550512 0.40273327 1.0964
-0.17753044 0.40141496 1.097
-0.094576612 0.22733307 1.1034615
-0.06080823 0.22682434 1.1010001
-0.058877811 0.22875477 1.1010001
-0.10182966 0.23358083 1.1010001
-0.09541896 0.23530053 1.1033477
-0.056947391 0.23454602 1.1010001
-0.095426857 0.24404314 1.1059284
-0.054126274 0.24525908 1.1024998
-0.045879647 0.24741551 1.101
-0.035742573 0.24828428 1.102
-0.09293171 0.25604761 1.1042501
-0.052469004 0.25293463 1.1054286
-0.045671158 0.25526083 1.1039046
-0.035760984 0.25501427 1.1052725
-0.10134705 0.26929358 1.1010001
-0.093312554 0.26514113 1.1056362
-0.04435816 0.2625874 1.1079999
-0.039339539 0.26274928 1.108
-0.10004871 0.27294841 1.108
