# .PCD v0.7 - Point Cloud Data file format
VERSION 0.7
FIELDS x y z
SIZE 4 4 4
TYPE F F F
COUNT 1 1 1
WIDTH 1426
HEIGHT 1
VIEWPOINT 0 0 0 1 0 0 0
POINTS 1426
DATA ascii
-0.19281057 0.088925563 0.94800007
-0.186993 0.088925563 0.94800007
-0.21026324 0.097236358 0.94800013
-0.20448813 0.094831333 0.94653571
-0.19534834 0.094499506 0.94627011
-0.18619056 0.095279865 0.94774193
-0.17535788 0.098898523 0.94800007
-0.21229479 0.10508545 0.94800007
-0.20467734 0.10488442 0.94521201
-0.19524582 0.10506799 0.94371444
-0.18625396 0.10468439 0.94730556
-0.17660449 0.10097622 0.94800007
-0.21367002 0.11500426 0.94775003
-0.20498575 0.11522786 0.94445723
-0.19542795 0.11524002 0.94484389
-0.1860524 0.11478129 0.94677401
-0.213342 0.12405267 0.94768411
-0.20503078 0.12483639 0.94421875
-0.19541651 0.12486275 0.94423068
-0.185781 0.12449587 0.94619989
-0.21054028 0.13324982 0.94800001
-0.20450285 0.13478436 0.94440007
-0.19513011 0.1349654 0.94351435
-0.18583554 0.13417847 0.94705528
-0.20461495 0.14419805 0.9462083
-0.19492859 0.14478296 0.94575644
-0.186996 0.14372006 0.94761914
-0.20112136 0.15271094 0.94800001
-0.19384941 0.15219152 0.94800001
-0.186993 0.15042548 0.94800007
-0.16225961 -0.051284123 0.95900005
-0.15372302 -0.052577551 0.95899993
-0.14470223 -0.054505616 0.95763987
-0.13610505 -0.053797495 0.95552194
-0.17234828 -0.049602676 0.95900005
-0.16378973 -0.046067189 0.95682609
-0.15514603 -0.045207422 0.95488888
-0.14519323 -0.04494147 0.9534415
-0.13542651 -0.045143887 0.95358348
-0.12821737 -0.043940015 0.95400017
-0.16128673 -0.036771998 0.95325005
-0.15513894 -0.035032846 0.95141685
-0.14506556 -0.035015821 0.95100009
-0.13508408 -0.035022687 0.95116681
-0.12586401 -0.03445993 0.95250028
-0.15449964 -0.026985878 0.95100009
-0.14478764 -0.027734755 0.95100015
-0.13453048 -0.026072389 0.95100015
-0.12348172 -0.025659746 0.95100009
-0.11838682 -0.021676458 0.95100003
-0.13089247 -0.014173069 0.95100003
-0.12491754 -0.013686742 0.95100015
-0.11676328 -0.014348589 0.95100009
-0.13089247 -0.0058359704 0.95100003
-0.1249374 -0.0051213619 0.95100009
-0.11694676 -0.0053054276 0.95100015
-0.1325599 0.0091708098 0.95100003
-0.12427837 0.0049466789 0.95100015
-0.11736783 0.0055580665 0.95100009
-0.13222641 0.015284684 0.95100015
-0.12525266 0.015153904 0.95100009
-0.11724047 0.014694139 0.95100015
-0.15137754 0.029271901 0.95400006
-0.14339812 0.027512429 0.95100003
-0.13444965 0.025622692 0.95100015
-0.12538099 0.025078677 0.95347238
-0.11827374 0.025250629 0.95600009
-0.15069126 0.035293285 0.95850009
-0.14480665 0.034984071 0.9537099
-0.13536769 0.035098374 0.95316684
-0.12552974 0.034913819 0.95618933
-0.15048946 0.045399059 0.95900005
-0.14496309 0.045248739 0.9558
-0.13570252 0.045051917 0.95652759
-0.12783632 0.042669557 0.95810002
-0.15205882 0.055880085 0.95899987
-0.14537778 0.055181656 0.9581722
-0.13860956 0.051664378 0.95825005
-0.21480481 0.069359683 0.95900005
-0.20545177 0.067783326 0.95899987
-0.19392686 0.068659082 0.95899993
-0.18555269 0.068084955 0.95881236
-0.175898 0.069032736 0.95900005
-0.16419972 0.068486623 0.95899993
-0.1558878 0.0645587 0.95899981
-0.14796731 0.061372802 0.95900005
-0.22344057 0.077420406 0.95862484
-0.21503748 0.075309679 0.95705861
-0.20483544 0.075612396 0.9561578
-0.19484489 0.075205885 0.95612097
-0.1849805 0.075329632 0.95477772
-0.1747207 0.075597003 0.95571792
-0.16463627 0.075597882 0.95816642
-0.15833622 0.073423177 0.95900005
-0.22466619 0.085716419 0.95724982
-0.21504202 0.085390732 0.95242441
-0.20557123 0.084645651 0.95128143
-0.19545829 0.084907636 0.95232379
-0.18517882 0.084992953 0.95185733
-0.17529228 0.085139811 0.95216686
-0.1651658 0.085353956 0.95568287
-0.23161928 0.097103544 0.95900005
-0.225311 0.095479101 0.95540005
-0.21553901 0.094842114 0.9512729
-0.20870538 0.091430195 0.95100003
-0.18165615 0.093838684 0.95100009
-0.17505527 0.094923839 0.95100009
-0.16605558 0.095251672 0.95555902
-0.23288041 0.10424969 0.95899987
-0.22498158 0.10537918 0.95400012
-0.21759829 0.10440993 0.95100009
-0.18115328 0.10564297 0.95100009
-0.17495385 0.10560007 0.95175022
-0.16511528 0.10497945 0.95465839
-0.15902689 0.10706314 0.95600003
-0.23371452 0.11420713 0.9582172
-0.22544913 0.11564971 0.95406073
-0.21833938 0.11384773 0.95100009
-0.18147089 0.11477408 0.95100009
-0.17529041 0.11519399 0.95216686
-0.16550125 0.11526895 0.95508331
-0.15903558 0.11278544 0.95580006
-0.23459965 0.12541565 0.95799989
-0.22545731 0.12519437 0.95352972
-0.21785483 0.12640324 0.95100015
-0.18186788 0.12469919 0.95100009
-0.17476253 0.12544703 0.95319533
-0.16617101 0.12292514 0.95793736
-0.23458682 0.13472562 0.95835692
-0.22500013 0.13531013 0.95485723
-0.21612717 0.13549681 0.95210022
-0.18174879 0.13700634 0.95100003
-0.17499003 0.13523336 0.95221066
-0.16751392 0.13471122 0.95741647
-0.23372111 0.14292295 0.95899987
-0.22521426 0.1449365 0.95706427
-0.21472739 0.14506292 0.95280033
-0.20884436 0.14798352 0.95100003
-0.1825825 0.14570309 0.95100009
-0.17522673 0.14522886 0.95494729
-0.16856502 0.14292297 0.95900005
-0.22318193 0.15361236 0.9586665
-0.21542563 0.15478602 0.9555769
-0.20627972 0.1557826 0.95207161
-0.19558837 0.15698758 0.95100009
-0.18515937 0.15531564 0.95177168
-0.17713334 0.15461555 0.95692289
-0.22111024 0.16478176 0.95900005
-0.21523777 0.1647978 0.95794094
-0.20467088 0.1647779 0.95375019
-0.19542158 0.1645961 0.95407146
-0.18507546 0.16507354 0.95331442
-0.17801435 0.16357949 0.95753342
-0.2215306 0.17234828 0.95900005
-0.21511875 0.17301188 0.9588635
-0.20561001 0.17270648 0.95852613
-0.19274794 0.17115864 0.95771438
-0.18538244 0.17124406 0.95685714
-0.1615514 -0.062418815 0.96650004
-0.15487102 -0.064201869 0.96496326
-0.14577891 -0.06421233 0.96372736
-0.13830996 -0.061564792 0.96200007
-0.17249389 -0.054371256 0.96400005
-0.16545761 -0.054991025 0.96375012
-0.15547955 -0.056944333 0.9623
-0.14568929 -0.059456412 0.96200001
-0.13830996 -0.059878085 0.96200007
-0.17120072 -0.049757846 0.96200007
-0.16951402 -0.048071135 0.96200007
-0.11608119 0.028282143 0.96300006
-0.154743 0.036585048 0.96453327
-0.12093686 0.03761356 0.96200007
-0.11767774 0.035559107 0.96572232
-0.16343226 0.047418591 0.96592861
-0.15586318 0.045883756 0.96333349
-0.1319848 0.049336173 0.96200007
-0.12420158 0.046174362 0.96281481
-0.11802527 0.044190064 0.96625
-0.21231183 0.057779349 0.96640003
-0.20500821 0.057524528 0.96500003
-0.19448315 0.05769017 0.96645457
-0.18445715 0.05686637 0.9664706
-0.17469166 0.054821827 0.96532172
-0.16564722 0.054723844 0.96419382
-0.15708029 0.055385295 0.96209526
-0.14140223 0.057629142 0.96200007
-0.13481392 0.055350114 0.96285725
-0.12652464 0.054082185 0.96540004
-0.11953087 0.050016463 0.96700007
-0.23227984 0.068666667 0.96700007
-0.22479387 0.065709285 0.96487534
-0.21535461 0.063931353 0.9641431
-0.20509273 0.063418284 0.96241671
-0.19575436 0.063464969 0.96262085
-0.18484744 0.062890984 0.96246171
-0.17497028 0.064037547 0.96238703
-0.16565388 0.0632862 0.96255183
-0.15401742 0.066730328 0.96199995
-0.14579411 0.0649103 0.96373922
-0.1363427 0.061068401 0.96600002
-0.12970372 0.060189303 0.96700007
-0.24160495 0.078839511 0.96700007
-0.2343861 0.075368032 0.96600032
-0.22661811 0.073427849 0.96274996
-0.15410784 0.075399771 0.9630385
-0.1480737 0.073667943 0.96587497
-0.24237563 0.085158996 0.96700007
-0.23510657 0.084404089 0.96417171
-0.22854875 0.081805274 0.96200007
-0.15484349 0.084290721 0.96390027
-0.14835392 0.083078191 0.96700007
-0.24246907 0.095178246 0.96650004
-0.23601593 0.094105236 0.96307695
-0.16108048 0.09445557 0.96200007
-0.15653011 0.094378643 0.96367872
-0.24350321 0.10507087 0.96486968
-0.23782565 0.10457581 0.96199995
-0.16108048 0.10035904 0.96200007
-0.15694636 0.10394379 0.96483338
-0.25008231 0.11868313 0.96700007
-0.24407978 0.11505859 0.96382779
-0.23866899 0.11469606 0.96200007
-0.15780555 0.11539636 0.9643333
-0.26025516 0.12970372 0.96700007
-0.25328705 0.12573428 0.96628588
-0.24456599 0.12508756 0.96294135
-0.23866899 0.12144288 0.96200007
-0.16393887 0.12629516 0.96210527
-0.15798369 0.12513442 0.96478957
-0.26146621 0.13575897 0.96700007
-0.25482801 0.13545491 0.96570033
-0.24480098 0.1350608 0.96288902
-0.16260652 0.13541466 0.96272224
-0.15747346 0.13513592 0.96600026
-0.26499018 0.14541867 0.96675032
-0.25467181 0.14544597 0.96555209
-0.24464433 0.14509843 0.96227795
-0.23625942 0.14698444 0.96199995
-0.16447727 0.14538354 0.96450019
-0.15818766 0.14462389 0.96700013
-0.27212346 0.15004939 0.96700007
-0.2643241 0.15447766 0.96521914
-0.25526491 0.15511371 0.96463674
-0.24475604 0.15529554 0.96272236
-0.23450719 0.15521365 0.96222234
-0.22700261 0.15672317 0.96199995
-0.17257686 0.15606748 0.96228564
-0.16613117 0.15485555 0.96493977
-0.26265264 0.16395301 0.96664709
-0.25443417 0.16476785 0.96662545
-0.24490891 0.16483982 0.96604562
-0.2346752 0.16523319 0.96384871
-0.22601867 0.16529727 0.96199995
-0.17395495 0.16566341 0.96368194
-0.16659975 0.16244243 0.96645457
-0.26089093 0.17378601 0.96700007
-0.25460631 0.17393655 0.96632308
-0.24578713 0.17254268 0.96700007
-0.2348906 0.17374079 0.96631837
-0.22513668 0.17581247 0.96238464
-0.21520844 0.17810087 0.96199995
-0.20420058 0.17738077 0.96323532
-0.19563107 0.17553523 0.96285719
-0.18482532 0.17565483 0.96395248
-0.17673759 0.17273983 0.96545464
-0.23143211 0.18056791 0.96700007
-0.22529513 0.18256798 0.96584612
-0.21393673 0.18286328 0.96456254
-0.20508946 0.18244785 0.96380001
-0.19471996 0.18130882 0.96538472
-0.1876889 0.1812461 0.96700013
-0.1641223 -0.072356775 0.97674996
-0.15514781 -0.071881704 0.97416681
-0.18331257 -0.061104894 0.97619998
-0.1744352 -0.064681165 0.9765175
-0.16579585 -0.065312251 0.97274989
-0.15646747 -0.068454511 0.97000003
-0.17570212 -0.058189049 0.97133338
-0.16922297 -0.0586753 0.97000003
-0.15711489 0.029030379 0.97399998
-0.21471247 0.03809217 0.9780001
-0.20834334 0.038582101 0.97800004
-0.17330989 0.037541412 0.97770005
-0.16428412 0.035048794 0.97523093
-0.15868685 0.034290709 0.97187513
-0.11335216 0.036042735 0.9738335
-0.24206696 0.048299074 0.97799999
-0.23471114 0.04668887 0.9776842
-0.22509362 0.045450654 0.97684628
-0.21489252 0.044361614 0.97470278
-0.20605001 0.045616202 0.97592026
-0.19465156 0.047560927 0.97628576
-0.18445919 0.045540679 0.9756251
-0.17491736 0.044363108 0.97329408
-0.16595155 0.043018781 0.9717499
-0.11308 0.045156363 0.97340012
-0.10568681 0.046250559 0.97785723
-0.098598696 0.04887066 0.97800004
-0.25164104 0.057873148 0.97800004
-0.24475184 0.055031192 0.97542876
-0.2352758 0.054811984 0.97341156
-0.2251467 0.054575976 0.97280532
-0.21513487 0.053655718 0.97155154
-0.20438857 0.052331775 0.97224987
-0.19500868 0.052936677 0.97137493
-0.18529798 0.052218448 0.9708823
-0.17738649 0.050511777 0.97000009
-0.12264009 0.056698602 0.9715001
-0.1145938 0.054494519 0.97284198
-0.10449917 0.054819945 0.97708362
-0.094618015 0.055913415 0.97800022
-0.087881446 0.057873148 0.97800004
-0.25191191 0.065398388 0.97661549
-0.24487935 0.064844519 0.97326654
-0.23540613 0.064123861 0.97009975
-0.22534719 0.060376037 0.97000009
-0.21854423 0.060376033 0.97000003
-0.14179865 0.067391559 0.97000015
-0.13443126 0.065880112 0.97228557
-0.12463197 0.064881109 0.97374982
-0.11446387 0.064922817 0.97438878
-0.10447191 0.065083742 0.97683346
-0.094311796 0.065160878 0.97800034
-0.087881438 0.065375224 0.9780001
-0.25453001 0.07578817 0.9761306
-0.24537298 0.074809507 0.97151595
-0.23810266 0.072281159 0.97000009
-0.14349212 0.075415179 0.97267991
-0.13590473 0.074581243 0.97627604
-0.12525542 0.071941964 0.97800004
-0.11383861 0.074694112 0.97752017
-0.1045482 0.075410545 0.97750026
-0.094563961 0.075247705 0.97800028
-0.087452762 0.072877295 0.9780001
-0.2615009 0.08488062 0.97800004
-0.25526065 0.085368566 0.9738
-0.24727769 0.084812887 0.97000009
-0.15136527 0.089288503 0.97000003
-0.14541049 0.084953517 0.97412002
-0.11260257 0.085452206 0.9780001
-0.1045432 0.083051547 0.97799993
-0.096026562 0.081451103 0.97800004
-0.26236331 0.095297575 0.97772729
-0.25491405 0.09538094 0.97293091
-0.24736221 0.095052093 0.97000015
-0.1518967 0.09583538 0.97107154
-0.14757346 0.094442829 0.97570586
-0.11231678 0.090024896 0.97800004
-0.27110356 0.1078584 0.97800004
-0.26370779 0.10478216 0.97637528
-0.25477421 0.10501175 0.9721784
-0.24891447 0.10483807 0.97000015
-0.15296446 0.10546883 0.97158825
-0.14863028 0.10326979 0.97624999
-0.27328393 0.11471645 0.97560865
-0.26451945 0.11470281 0.97402775
-0.25508651 0.11504959 0.97167718
-0.24915743 0.11139803 0.97000003
-0.15352298 0.11484298 0.97386217
-0.14958125 0.11026275 0.97500002
-0.28093484 0.12632065 0.9780001
-0.27420008 0.12497021 0.97416669
-0.26466811 0.12426671 0.9715482
-0.25817132 0.1250039 0.97000015
-0.1550433 0.12460972 0.97418189
-0.2838833 0.13533661 0.9757393
-0.27512607 0.13452144 0.97219336
-0.26693782 0.13412604 0.97000003
-0.15372472 0.13532372 0.97166675
-0.28431779 0.14487341 0.97508001
-0.27488813 0.14456308 0.97019333
-0.26503092 0.14357024 0.97000021
-0.15410516 0.14510845 0.97121418
-0.2841109 0.15320972 0.97633332
-0.27506205 0.15510251 0.97117227
-0.16164146 0.15615839 0.97100002
-0.15611079 0.15440999 0.97388887
-0.31808797 0.16718911 0.97800004
-0.30608466 0.16890386 0.97800004
-0.28122064 0.16204482 0.97800004
-0.27480161 0.16502741 0.97390467
-0.2677047 0.16627942 0.97018766
-0.25596038 0.16582149 0.97000003
-0.24462216 0.16808915 0.97000003
-0.17092369 0.1683726 0.97000003
-0.16447 0.16639782 0.97462505
-0.15817399 0.1612595 0.9774
-0.31380776 0.17617175 0.97695005
-0.30746087 0.17535132 0.97783333
-0.27318633 0.17481105 0.97452384
-0.26550665 0.17550999 0.97013628
-0.25221878 0.17874709 0.97000009
-0.2442442 0.17734872 0.97000015
-0.23746489 0.17793922 0.97000015
-0.181695 0.17886047 0.97000003
-0.17379068 0.17628209 0.97258335
-0.16600312 0.17434649 0.97673923
-0.31173214 0.1833934 0.97600007
-0.30694202 0.18503819 0.9780001
-0.27276763 0.18472192 0.97700012
-0.26481646 0.18537611 0.97442317
-0.25510421 0.18507342 0.97346449
-0.24527702 0.18486013 0.9726786
-0.23556006 0.18520117 0.97185165
-0.22469749 0.1869874 0.97025019
-0.21448915 0.18741256 0.97025013
-0.20415492 0.18735912 0.97207153
-0.19499165 0.18668742 0.97181255
-0.18475431 0.18567859 0.97292304
-0.17649078 0.18324307 0.97572231
-0.16890386 0.18090717 0.97800004
-0.3046557 0.19333917 0.97799999
-0.26235828 0.19376788 0.97800004
-0.25627956 0.19302332 0.97770005
-0.24477255 0.19171055 0.97624999
-0.23468301 0.192494 0.97650009
-0.22489598 0.19269158 0.97400004
-0.21493356 0.19412947 0.97457153
-0.205667 0.19359659 0.97616673
-0.19522715 0.19216882 0.97671419
-0.1859979 0.19191729 0.9769091
-0.18388698 -0.07125897 0.98824996
-0.17465691 -0.073321275 0.9855715
-0.16502637 -0.075585328 0.98100007
-0.15910184 -0.074820869 0.98100007
-0.19193067 -0.063785397 0.98766667
-0.18460052 -0.065685071 0.98294449
-0.17802206 -0.0688008 0.98100007
-0.11180077 0.018893044 0.98859996
-0.10416666 0.01808363 0.98900014
-0.097157612 0.017187461 0.98900008
-0.22303949 0.028024109 0.98866671
-0.21554008 0.027895007 0.98820007
-0.20895262 0.02861177 0.98900002
-0.17167062 0.02861177 0.98900002
-0.16464405 0.027742604 0.98555553
-0.11263054 0.024985619 0.98694128
-0.10519971 0.025311543 0.9881112
-0.095667943 0.025325328 0.98885733
-0.088436387 0.026877725 0.98900002
-0.25334591 0.037270728 0.9887144
-0.24469531 0.036224991 0.98728573
-0.23475662 0.035773788 0.98580003
-0.2249549 0.034512557 0.98439997
-0.21504505 0.033529401 0.98260731
-0.20549224 0.034902532 0.98537034
-0.19578005 0.037040919 0.98747373
-0.18529621 0.036729749 0.9871667
-0.17557006 0.033496726 0.98471433
-0.1676667 0.031188643 0.98280001
-0.11307317 0.031494774 0.98159999
-0.10510721 0.034317203 0.98545444
-0.095184907 0.034612495 0.98705548
-0.08524663 0.034970395 0.98656231
-0.078739569 0.038937151 0.98700005
-0.26126304 0.04653025 0.98900002
-0.25514993 0.044812843 0.98634493
-0.24551228 0.044226747 0.98239285
-0.2359594 0.042050544 0.98160005
-0.22675598 0.040707141 0.98100001
-0.20242725 0.042799663 0.9818182
-0.1949189 0.042738147 0.98295021
-0.18653764 0.041245915 0.98314291
-0.10347109 0.042566344 0.98169231
-0.094829187 0.044241045 0.98431033
-0.084765747 0.0448176 0.98426449
-0.077243097 0.046026882 0.98528588
-0.26467535 0.05630929 0.98817396
-0.25561222 0.054704621 0.98304003
-0.24768287 0.050740588 0.98100007
-0.09352608 0.0513856 0.98100001
-0.083737202 0.054853275 0.98316008
-0.0767859 0.055122167 0.9864738
-0.27137831 0.065604761 0.98900002
-0.26497778 0.065331087 0.98521429
-0.25724417 0.065107808 0.98100001
-0.083398476 0.065032937 0.98385012
-0.077187613 0.0646955 0.98771441
-0.27277115 0.075283758 0.98860013
-0.26508182 0.074923061 0.98399991
-0.25851899 0.073444858 0.98100007
-0.13308106 0.078587465 0.98149997
-0.12538588 0.076349065 0.9824118
-0.11737846 0.077104233 0.98159999
-0.090301052 0.079120919 0.98100007
-0.083422408 0.075415097 0.98572737
-0.078552313 0.073003367 0.98900002
-0.28199935 0.087569356 0.98899996
-0.27430895 0.084885359 0.98645157
-0.26622856 0.0846515 0.98241186
-0.14139976 0.085759483 0.98149997
-0.1346772 0.085390806 0.98524994
-0.12440094 0.084477641 0.98726666
-0.11532049 0.08489456 0.98310024
-0.10497856 0.086975671 0.98100001
-0.094363369 0.085388668 0.98126113
-0.084418938 0.084902033 0.98648274
-0.078155957 0.083605818 0.98899996
-0.3057124 0.097453415 0.98900002
-0.29392093 0.098840654 0.98899996
-0.28431007 0.095787659 0.98711532
-0.27484128 0.094697289 0.98445427
-0.26681811 0.094386093 0.98100001
-0.14285816 0.095109262 0.98446673
-0.13840155 0.092918769 0.98824996
-0.11510904 0.095246658 0.98492324
-0.10528524 0.095279761 0.98535293
-0.095107801 0.095163114 0.98548573
-0.087382182 0.092574678 0.98690003
-0.30391997 0.10552623 0.98806894
-0.29489976 0.1057311 0.98756248
-0.28512263 0.10499238 0.98506439
-0.27541688 0.10464723 0.98132175
-0.26889646 0.10348787 0.98100001
-0.14493415 0.10547063 0.98376477
-0.11368291 0.10468613 0.98688006
-0.10555981 0.10407431 0.98890495
-0.097626828 0.10178854 0.98900002
-0.30319679 0.11428083 0.98850018
-0.29461876 0.11531509 0.98574066
-0.28530362 0.11545119 0.98280007
-0.27907324 0.11438133 0.98100001
-0.15050174 0.11868138 0.98100007
-0.1461046 0.115495 0.98617667
-0.11318801 0.11110715 0.98860008
-0.30240098 0.12509705 0.98837519
-0.29522148 0.12462864 0.98413634
-0.28672734 0.12538946 0.9810003
-0.27950326 0.12126141 0.98100007
-0.15265514 0.12569939 0.98133343
-0.14695708 0.12445734 0.98725003
-0.3020131 0.13438863 0.98900002
-0.29528865 0.13469139 0.98487496
-0.28953668 0.13444823 0.98100001
-0.15145864 0.13479231 0.98350006
-0.14740857 0.13392283 0.98757905
-0.31321219 0.14891125 0.98899996
-0.30460575 0.14608039 0.98850018
-0.29510203 0.14496055 0.98425007
-0.28982335 0.14534169 0.98100013
-0.14890139 0.14197659 0.98750001
-0.32267016 0.15578103 0.98772734
-0.31496164 0.15577286 0.98684376
-0.30495402 0.15562224 0.98652768
-0.2949287 0.15521736 0.9853043
-0.28767544 0.15674248 0.98130006
-0.15202188 0.15805247 0.98250008
-0.14912802 0.15866527 0.98900002
-0.32078373 0.16426191 0.98100007
-0.31472623 0.16532691 0.98145491
-0.30473775 0.16469389 0.98231268
-0.29537302 0.16470778 0.98490894
-0.28553289 0.16567059 0.9826957
-0.16082187 0.16942197 0.98100007
-0.15448482 0.16586581 0.98315996
-0.14742649 0.16432619 0.98728579
-0.31579566 0.17200199 0.98100007
-0.30271602 0.17510054 0.98294991
-0.29503375 0.17489119 0.98745459
-0.2859205 0.17511728 0.98555994
-0.27901179 0.17531919 0.98100001
-0.16205046 0.17507346 0.98100001
-0.15516537 0.17541091 0.98637033
-0.14948569 0.17201778 0.98850006
-0.3026841 0.1851619 0.98238468
-0.29516459 0.18467885 0.98502702
-0.28521988 0.18516214 0.98631418
-0.27749655 0.18547548 0.98100001
-0.17413998 0.1866224 0.98175007
-0.16450414 0.18556753 0.98537487
-0.15814748 0.1832469 0.98712504
-0.30328274 0.19372481 0.98212504
-0.29504746 0.19497275 0.98408318
-0.28527209 0.19536811 0.98608315
-0.27495915 0.19512899 0.98339993
-0.265825 0.19538607 0.98100019
-0.25545946 0.19557884 0.98114306
-0.24515466 0.1975777 0.98364717
-0.23568022 0.19752419 0.98175001
-0.22555406 0.19857816 0.98200005
-0.21758252 0.19866231 0.98100007
-0.20346896 0.19723324 0.98137504
-0.19501518 0.1973851 0.9821251
-0.18456157 0.19664113 0.98378575
-0.17482008 0.19473286 0.98559254
-0.16697204 0.19345553 0.98747075
-0.30014348 0.20124233 0.98100007
-0.29448372 0.20530838 0.98399973
-0.28547403 0.20467295 0.9871034
-0.27411386 0.20309538 0.98791677
-0.26487374 0.20475094 0.9854399
-0.25441214 0.20475543 0.98521852
-0.2450545 0.20419061 0.98847389
-0.23476774 0.20353788 0.98655576
-0.22458982 0.20308065 0.98376477
-0.21497418 0.20384791 0.98269212
-0.20510148 0.20497528 0.98557693
-0.19629224 0.20278908 0.98783344
-0.18502279 0.20062919 0.98900002
-0.17427169 0.20028239 0.98900002
-0.29326823 0.21289545 0.98583335
-0.28832898 0.21126908 0.98766667
-0.26097402 0.21155369 0.98900002
-0.25477526 0.21144718 0.98850006
-0.21126468 0.21126468 0.98900002
-0.20664056 0.21126468 0.98900002
-0.19293447 -0.073314913 0.99663639
-0.18633558 -0.075160317 0.99521428
-0.17881808 -0.075888649 0.99500006
-0.19361524 -0.066928722 0.99433339
-0.11363482 0.0070537766 0.99760014
-0.10507174 0.0075161024 0.99710006
-0.09841942 0.008708369 0.99350005
-0.24335089 0.01687333 0.99800009
-0.23491423 0.017935721 0.99800009
-0.2248527 0.018081542 0.99800009
-0.17148301 0.01837318 0.99800003
-0.16623354 0.01837318 0.99800003
-0.11428645 0.014748442 0.99513644
-0.1054069 0.01335514 0.99366665
-0.096531518 0.0130448 0.99200004
-0.26405224 0.026470227 0.99676466
-0.25488666 0.024721172 0.99612504
-0.24513406 0.024421055 0.99509412
-0.23526508 0.024424076 0.99516666
-0.22521295 0.023469593 0.99444461
-0.21510458 0.023722686 0.995
-0.20503053 0.02629263 0.99677277
-0.19539611 0.027226251 0.99781263
-0.18480019 0.026387228 0.99731821
-0.17491846 0.024315473 0.9958573
-0.16616145 0.023054773 0.99466664
-0.11771003 0.021539042 0.99275005
-0.091313601 0.023480641 0.99200004
-0.084979467 0.025856918 0.99425
-0.27278817 0.035970852 0.99707699
-0.26454487 0.035044596 0.99358851
-0.25535196 0.032503296 0.99199986
-0.24524225 0.031307515 0.99199992
-0.23567605 0.030872693 0.99200004
-0.2033888 0.031222735 0.99328578
-0.19499691 0.032146797 0.99429399
-0.1855574 0.031858195 0.99371427
-0.17827894 0.030437866 0.99200004
-0.27456897 0.045679308 0.99566674
-0.26607534 0.044864774 0.99212509
-0.28084719 0.055119537 0.99800003
-0.27453825 0.054731876 0.9936251
-0.2669836 0.052179199 0.99200004
-0.28214234 0.065772206 0.99680007
-0.27554175 0.064229809 0.99328578
-0.0745003 0.068122841 0.99200004
-0.30009526 0.079617113 0.99800003
-0.29364184 0.077233009 0.99687505
-0.28496665 0.075186983 0.99531043
-0.2775436 0.074293248 0.99199992
-0.074770615 0.075462937 0.99510711
-0.3134051 0.087752864 0.99766666
-0.30432311 0.08723861 0.99657142
-0.29477802 0.085534208 0.99529058
-0.28554884 0.084442638 0.99213052
-0.13131765 0.089574292 0.99200004
-0.12749119 0.088182844 0.99199998
-0.080877759 0.088704638 0.99200004
-0.075125247 0.0859605 0.9964999
-0.31418666 0.094470955 0.99452013
-0.30397463 0.094259731 0.99278265
-0.29506353 0.094155915 0.99228579
-0.28924668 0.093400761 0.99199998
-0.14001419 0.098270826 0.99200004
-0.1341449 0.095637657 0.9944784
-0.12519225 0.094811939 0.99414313
-0.081747413 0.091313601 0.99200004
-0.073142752 0.091865897 0.99800003
-0.063285396 0.096532106 0.99799997
-0.31357265 0.10428664 0.99431837
-0.3017697 0.10001013 0.99200004
-0.1411708 0.10490194 0.99299997
-0.13542324 0.10415157 0.99711102
-0.12355632 0.10415174 0.99657893
-0.11932266 0.10626076 0.99350005
-0.10218427 0.1076196 0.99200004
-0.095932744 0.10568479 0.99299991
-0.31297314 0.11490974 0.99675006
-0.30725491 0.11674245 0.99229991
-0.14222777 0.11500614 0.99605888
-0.13911122 0.11461365 0.99800003
-0.12211291 0.11461364 0.99800009
-0.11579367 0.11541165 0.99588895
-0.10514225 0.11224558 0.99559999
-0.097115375 0.111114 0.99799997
-0.31337222 0.12523702 0.99772733
-0.30743617 0.12493796 0.99264276
-0.14295453 0.12590942 0.99433327
-0.12161295 0.12161295 0.99800003
-0.11614475 0.12226914 0.99800009
-0.34209111 0.13911122 0.99800003
-0.33334199 0.13736139 0.99800003
-0.32533938 0.13702424 0.99689466
-0.31456372 0.13646549 0.99706256
-0.30649114 0.13519847 0.99270576
-0.14421651 0.13608702 0.99399996
-0.34034127 0.14173597 0.99800003
-0.33427709 0.14498746 0.9976086
-0.32478422 0.14447163 0.99374205
-0.31563193 0.14374879 0.99244457
-0.30682948 0.14301842 0.99199998
-0.15060169 0.14712133 0.99300003
-0.14733969 0.14400485 0.99663639
-0.33334199 0.15136001 0.99799997
-0.32410434 0.15127359 0.99233341
-0.31916279 0.15131968 0.99200004
-0.151178 0.15466926 0.99680007
-0.14785703 0.15676801 0.99680007
-0.14567132 0.16602458 0.99500006
-0.15045002 0.17740929 0.99200004
-0.14737424 0.1737435 0.99590003
-0.15444571 0.18541852 0.99636364
-0.14961018 0.18198198 0.99800003
-0.16329952 0.19641683 0.9939999
-0.15760276 0.19369833 0.99600005
-0.28263736 0.20784715 0.99199998
-0.27568009 0.20821986 0.99199992
-0.24480742 0.20849937 0.99200004
-0.23415416 0.20871679 0.99200004
-0.2252402 0.20900671 0.99200004
-0.2014697 0.20900668 0.99200004
-0.19556899 0.20726916 0.99590003
-0.18478626 0.20468169 0.99520004
-0.17544891 0.20378885 0.99569225
-0.16706081 0.20169996 0.99600005
-0.29257625 0.21679215 0.99200004
-0.28436857 0.21517999 0.99320024
-0.27500254 0.21540156 0.99444437
-0.26527879 0.21550924 0.99338478
-0.25485727 0.2170978 0.99499995
-0.24693485 0.21353409 0.99580002
-0.23479037 0.21332233 0.99605888
-0.22495219 0.21376026 0.9957059
-0.21509075 0.21470627 0.99466676
-0.2049275 0.21333508 0.99472719
-0.19975288 0.21022028 0.99500006
-0.29183507 0.22214709 0.99371433
-0.28539419 0.2244662 0.99463665
-0.27462888 0.22285143 0.99687505
-0.26517618 0.22278559 0.9970625
-0.25788069 0.22244671 0.99800009
-0.28551748 0.2322021 0.99700004
-0.20216197 -0.072831273 1.0070001
-0.19803739 -0.072945245 1.0025001
-0.18340655 -0.078101359 1.001
-0.17989638 -0.078101359 1.001
-0.20216197 -0.069152929 1.0070001
-0.19885851 -0.067339219 1.0028001
-0.26336965 -0.0018636957 1.0070001
-0.25777858 -0.00088280335 1.0070001
-0.23041166 -0.00088280335 1.0070001
-0.22776327 -0.00088280335 1.0070001
-0.16420142 -0.00088280335 1.0070001
-0.27160916 0.0076509621 1.0070001
-0.26519239 0.0052089272 1.0067097
-0.25532621 0.0054917755 1.0053235
-0.24559574 0.0058842446 1.0057418
-0.23477973 0.0054081287 1.0063
-0.22557186 0.0057705045 1.005742
-0.21667916 0.0089261224 1.0070001
-0.19434285 0.0087019186 1.0070001
-0.18459882 0.0073876702 1.0070001
-0.1750599 0.0072389864 1.0070001
-0.16531451 0.0052584372 1.0070001
-0.11412436 0.002413573 1.001375
-0.10688478 0.0026326298 1.0010002
-0.27368647 0.015163662 1.0062857
-0.26496422 0.014964317 1.0041199
-0.25484574 0.014936823 1.0023998
-0.24494879 0.013999906 1.0014737
-0.23510547 0.013931236 1.0022856
-0.22476834 0.014132231 1.0024998
-0.21480227 0.014962945 1.0041999
-0.20440985 0.015379933 1.0063478
-0.1952322 0.015180265 1.0056666
-0.1853701 0.014869657 1.0060689
-0.17534374 0.014674243 1.0038799
-0.16695714 0.014247762 1.0034
-0.29044229 0.02913251 1.0070001
-0.28404197 0.028249707 1.0070001
-0.27514893 0.024567312 1.004387
-0.26602891 0.021948664 1.0015001
-0.25799775 0.020183496 1.001
-0.21374857 0.02078869 1.002
-0.2055292 0.021593865 1.0025002
-0.19491151 0.021948665 1.0015001
-0.18616217 0.021481918 1.0020909
-0.1781413 0.020183496 1.001
-0.29103082 0.035017863 1.0070001
-0.28500515 0.035010017 1.0056071
-0.27723247 0.034249086 1.0018001
-0.29094675 0.045779657 1.0070001
-0.28522128 0.044893447 1.0041499
-0.27993631 0.042999625 1.001
-0.30103594 0.058265019 1.0070001
-0.2948207 0.055572245 1.0062174
-0.28631747 0.054309402 1.0024399
-0.32222322 0.069300063 1.0070001
-0.31346157 0.067758687 1.0061818
-0.30504468 0.065530755 1.0064546
-0.29491839 0.065142639 1.0041999
-0.28724673 0.063864008 1.0016001
-0.32374334 0.075428069 1.0047895
-0.31511101 0.075423822 1.0032057
-0.30521834 0.075353198 1.0031562
-0.29607245 0.073155671 1.0016925
-0.28871176 0.071081012 1.001
-0.071081012 0.078101359 1.001
-0.06844838 0.078978904 1.001
-0.32439706 0.084167898 1.0038799
-0.315451 0.083882824 1.0010002
-0.30645353 0.082882263 1.0012144
-0.071783051 0.083015598 1.001
-0.066841908 0.085717 1.0025791
-0.32237041 0.094287895 1.0034546
-0.073274866 0.094335906 1.001
-0.065460004 0.093607582 1.0033749
-0.32122469 0.10458019 1.0025001
-0.31854823 0.10881537 1.001
-0.13286687 0.10652918 1.0015
-0.12791413 0.10586461 1.0016668
-0.32318768 0.11507352 1.0052857
-0.31749517 0.1154847 1.0010002
-0.13484064 0.11461016 1.00532
-0.12718794 0.11477566 1.0039999
-0.111448 0.11759081 1.001
-0.10489567 0.1170643 1.0010002
-0.097845033 0.115624 1.0037
-0.34429604 0.12663135 1.0051999
-0.33467999 0.1261927 1.0046427
-0.32486427 0.12521091 1.0046206
-0.31775045 0.12437182 1.0010002
-0.14082511 0.12674233 1.0040001
-0.13719511 0.12411486 1.0055789
-0.12452836 0.12491507 1.0042222
-0.11452414 0.12619913 1.0036843
-0.10569824 0.12201884 1.0042001
-0.099756777 0.12094405 1.0070001
-0.3438834 0.13415919 1.0021999
-0.33622491 0.13396284 1.0011363
-0.32456148 0.13273503 1.0013158
-0.31696865 0.13286005 1.0010002
-0.14346825 0.13994756 1.0040001
-0.12359246 0.13300903 1.0070001
-0.11785425 0.13197909 1.0070001
-0.33726916 0.14303957 1.001
-0.1462855 0.1462855 1.0016
-0.14724296 0.15398613 1.00275
-0.14665471 0.17704503 1.00475
-0.1506111 0.18749686 1.00175
-0.14566287 0.18450676 1.0051538
-0.16059043 0.19920233 1.001
-0.15380146 0.19484611 1.0031667
-0.14848752 0.1929808 1.0070001
-0.19130445 0.20797777 1.001
-0.18516165 0.20797777 1.001
-0.17457634 0.20822521 1.00325
-0.16504544 0.20534688 1.00475
-0.15734984 0.20304012 1.0061001
-0.24432091 0.21732987 1.0025001
-0.23606227 0.21847461 1.003143
-0.2247646 0.21861742 1.0015
-0.21148795 0.21850829 1.001
-0.20515305 0.21769035 1.0053334
-0.195428 0.21208268 1.0056667
-0.18506674 0.21150571 1.0052501
-0.17539506 0.21157053 1.0064
-0.16861543 0.21099 1.0070001
-0.28190115 0.22877164 1.0017501
-0.27500412 0.22826785 1.0027502
-0.26497903 0.22839351 1.0023637
-0.25417197 0.22612916 1.0021536
-0.24560823 0.22401901 1.0053749
-0.23449105 0.22246718 1.0059091
-0.22510783 0.22217305 1.005
-0.21580267 0.22226475 1.0047501
-0.28306267 0.233247 1.0039999
-0.27532172 0.23346524 1.0057368
-0.26463121 0.23416379 1.0058333
-0.25607172 0.23359637 1.0055
-0.24983335 0.23041166 1.0070001
-0.21109432 -0.071255468 1.016
-0.20646048 -0.07221476 1.0107501
-0.21237524 -0.066031963 1.017875
-0.20624554 -0.066588029 1.0127858
-0.25191718 -0.020546436 1.0190001
-0.24530658 -0.020546436 1.0190001
-0.23673068 -0.020546436 1.0190001
-0.21600559 -0.020903766 1.0190001
-0.27425027 -0.012850114 1.0190001
-0.26476035 -0.013983418 1.0180001
-0.25508684 -0.015048044 1.0177588
-0.24475423 -0.015296174 1.0176075
-0.23537222 -0.014281813 1.0180458
-0.22485474 -0.013504948 1.0190001
-0.21592152 -0.014976303 1.0190001
-0.19206452 -0.012634145 1.0190001
-0.18450747 -0.013814203 1.0184705
-0.17473738 -0.014895746 1.0177311
-0.16909878 -0.015759252 1.0170001
-0.29122341 -0.00089332333 1.0190001
-0.28394008 -0.0045421235 1.0180871
-0.27498379 -0.0053433706 1.0151002
-0.26529905 -0.006993704 1.0130001
-0.25507298 -0.0053850338 1.0122503
-0.24510877 -0.0055354787 1.0119414
-0.23532413 -0.0054931422 1.0131768
-0.22437838 -0.0053680898 1.0147028
-0.2156938 -0.0050840597 1.0183079
-0.20459704 -0.0036895855 1.0187395
-0.19490324 -0.0051951269 1.0157933
-0.18497205 -0.0055714562 1.0121821
-0.17503989 -0.0050773346 1.0107274
-0.16745757 -0.0049805623 1.0100001
-0.29187852 0.0061341533 1.0190001
-0.28449807 0.0050442424 1.0158892
-0.27589762 0.0048341793 1.0116366
-0.24313998 0.0015937801 1.01
-0.23877186 0.0014757222 1.01
-0.22109371 0.0020673263 1.0115
-0.21468303 0.004437123 1.0134288
-0.2050865 0.0053189285 1.0127189
-0.1948925 0.0044281413 1.0106668
-0.1853507 0.0023611553 1.0100001
-0.17498377 0.002877658 1.0100001
-0.16852747 0.0032465889 1.01
-0.29370186 0.015265197 1.0188638
-0.28479573 0.015287273 1.0144289
-0.2789115 0.014166933 1.01
-0.20843101 0.01221898 1.01
-0.30290639 0.027248148 1.0178462
-0.29515117 0.024504526 1.0160003
-0.28601807 0.023485394 1.0120528
-0.30417669 0.034846116 1.0170001
-0.29578847 0.035462864 1.0113126
-0.32308528 0.048537239 1.0190001
-0.31533697 0.046814997 1.0185715
-0.3045629 0.044568338 1.0168003
-0.29602787 0.045227583 1.0116001
-0.33342806 0.057609148 1.0177143
-0.32478517 0.055164788 1.0150002
-0.31503174 0.054856859 1.0138184
-0.30545965 0.054761771 1.0122502
-0.29794833 0.051797848 1.01
-0.34163237 0.064702138 1.0190001
-0.33473814 0.064858094 1.016143
-0.32525012 0.064774506 1.0121926
-0.31673163 0.064345784 1.0103531
-0.30901623 0.062865764 1.01
-0.33449349 0.074723341 1.0147501
-0.32882103 0.071789354 1.011
-0.33432925 0.085530221 1.0144118
-0.32849577 0.089428768 1.01
-0.33513683 0.095155388 1.0174211
-0.32825077 0.095291227 1.0116667
-0.35110122 0.10735359 1.0168571
-0.34473723 0.10639153 1.0178003
-0.3352074 0.10535999 1.0158849
-0.32753411 0.10515774 1.0114001
-0.35161993 0.11418367 1.0168182
-0.34444523 0.11523073 1.0154448
-0.33476898 0.11543358 1.0129002
-0.32812232 0.11488482 1.0106667
-0.13370043 0.11776263 1.01
-0.098283097 0.1195335 1.01
-0.35004249 0.1202436 1.016
-0.34455678 0.12162904 1.0127274
-0.33431432 0.12155735 1.0100001
-0.13357092 0.12589155 1.0108001
-0.12661697 0.12130436 1.01
-0.1115646 0.12838784 1.01
-0.10481123 0.12680098 1.0125384
-0.14192078 0.13571641 1.0118001
-0.13488401 0.13513836 1.0131716
-0.12528591 0.13557529 1.010143
-0.11509655 0.13555901 1.0127603
-0.10837836 0.13157187 1.0175
-0.1430783 0.1461122 1.0169001
-0.13490352 0.14417751 1.01705
-0.12499535 0.14369836 1.0155501
-0.11718141 0.14319511 1.0181428
-0.14423653 0.15372083 1.0144001
-0.14333078 0.17761055 1.0130001
-0.14194296 0.18534365 1.010375
-0.13869627 0.18838048 1.012
-0.1519994 0.19863223 1.01
-0.14479178 0.19508201 1.0127275
-0.13864951 0.19298531 1.016
-0.16254027 0.20908876 1.0100001
-0.15381287 0.20600915 1.011737
-0.14729096 0.20322862 1.01675
-0.20158364 0.21811174 1.01
-0.19529095 0.21671295 1.0119287
-0.18488902 0.21681106 1.0115
-0.17485282 0.21680889 1.0110003
-0.16472901 0.21485704 1.0127274
-0.15583473 0.21446133 1.0173639
-0.149185 0.21261096 1.0190001
-0.24340782 0.22833702 1.0115
-0.23537205 0.22680499 1.01125
-0.22456685 0.22687371 1.0108999
-0.21389548 0.22702402 1.0136923
-0.20577496 0.22427398 1.0151666
-0.19597211 0.22135298 1.0176667
-0.18433359 0.22188625 1.0146667
-0.17406836 0.22162102 1.0123571
-0.16607514 0.22251087 1.0180769
-0.28510955 0.23818158 1.0100001
-0.27448434 0.23818158 1.0100001
-0.26474458 0.2388899 1.01
-0.25324708 0.23751627 1.0122001
-0.24489033 0.23489697 1.0162907
-0.23551442 0.232619 1.0171249
-0.22489305 0.23114367 1.018
-0.21618424 0.23137075 1.0190001
-0.29063895 0.24363969 1.018
-0.28485617 0.24526371 1.0173203
-0.27550319 0.2446477 1.0162402
-0.26537019 0.24410388 1.0151002
-0.25491488 0.24387498 1.016
-0.24562311 0.24353988 1.0188335
-0.28854343 0.25102386 1.0190001
-0.27603692 0.25102386 1.0190001
-0.21599078 -0.061582912 1.028
-0.23566729 -0.053622194 1.028
-0.18258584 -0.041275568 1.028
-0.17737573 -0.042040985 1.02575
-0.25143853 -0.031542465 1.028
-0.24422881 -0.031542465 1.028
-0.23409015 -0.03244368 1.028
-0.22467294 -0.034720752 1.0276538
-0.21651031 -0.034454152 1.0274374
-0.20727906 -0.031542465 1.028
-0.19263434 -0.033119589 1.028
-0.18466718 -0.03495647 1.0263845
-0.17616965 -0.034571812 1.0249999
-0.28259474 -0.021500375 1.028
-0.27427071 -0.022374911 1.0267143
-0.26439074 -0.02396898 1.0256521
-0.25549626 -0.025466286 1.0249997
-0.24534702 -0.025797116 1.0238999
-0.23507559 -0.025150359 1.0243822
-0.2248368 -0.025346849 1.0233123
-0.21493563 -0.025611699 1.0243793
-0.20526603 -0.024933949 1.0264118
-0.19491699 -0.025157003 1.0245998
-0.18483728 -0.025127463 1.0235001
-0.17513567 -0.024978746 1.0237585
-0.16945945 -0.023313854 1.0227501
-0.29319477 -0.013818603 1.028
-0.28500375 -0.015429407 1.0249999
-0.27565873 -0.017311538 1.0226924
-0.26686612 -0.018303048 1.0220002
-0.2589305 -0.01881502 1.0220001
-0.23358783 -0.018303048 1.0220002
-0.22537299 -0.017348915 1.0220002
-0.21317317 -0.01551882 1.0226924
-0.20531832 -0.01524425 1.0227199
-0.19613588 -0.016010297 1.022
-0.18546234 -0.01821772 1.0220002
-0.17739877 -0.01881502 1.0220001
-0.300825 -0.0023431545 1.028
-0.29469249 -0.0060732183 1.0256249
-0.2879594 -0.0077051981 1.0220001
-0.21144497 -0.0071676262 1.0220002
-0.20616883 -0.0088599827 1.0220002
-0.19979759 -0.0098554865 1.0220001
-0.30323532 0.0056681661 1.0274706
-0.29693839 0.0048667528 1.0228573
-0.3109186 0.018925481 1.028
-0.30488238 0.01544464 1.0263749
-0.29835245 0.012543347 1.0220001
-0.31386515 0.025949335 1.0271817
-0.3058199 0.023017175 1.0230001
-0.337955 0.038752172 1.028
-0.3231751 0.038031198 1.028
-0.31522164 0.035022549 1.0243999
-0.34233233 0.046991836 1.028
-0.33547401 0.04490133 1.0264515
-0.32573664 0.043951541 1.025
-0.31457916 0.043105304 1.0220001
-0.3444826 0.055018924 1.025714
-0.33669984 0.053734813 1.0229234
-0.34501567 0.063542098 1.0225295
-0.34247383 0.074810974 1.0245715
-0.34316188 0.08556319 1.0274
-0.33956632 0.084219612 1.0220001
-0.36138654 0.096429825 1.028
-0.35558328 0.095849425 1.0274706
-0.34565914 0.096384473 1.0258181
-0.33956632 0.094075106 1.0220001
-0.35542986 0.10231816 1.0258334
-0.34468603 0.1017547 1.0220002
-0.10303463 0.12991323 1.0220001
-0.11081199 0.13773134 1.0235001
-0.10610928 0.13543811 1.024
-0.13528894 0.14932555 1.0220002
-0.12556146 0.14860025 1.0220002
-0.1148654 0.14482081 1.025
-0.14242414 0.15635481 1.0250001
-0.13502204 0.15567751 1.0256206
-0.12615229 0.15344983 1.0257059
-0.11914396 0.15095703 1.0270001
-0.13698444 0.16131718 1.028
-0.14329292 0.17753902 1.028
-0.14149049 0.18114388 1.028
-0.14126197 0.19920029 1.0220001
-0.13838053 0.19768965 1.0250001
-0.14362097 0.20607544 1.0239286
-0.13895136 0.20137589 1.027
-0.15320802 0.2166927 1.0220002
-0.14788207 0.21453367 1.0252308
-0.20294932 0.22833858 1.0237144
-0.19481002 0.22549565 1.0247693
-0.18923114 0.22510608 1.0230001
-0.16206592 0.22548722 1.022231
-0.15579061 0.22447713 1.02545
-0.14870019 0.22079727 1.028
-0.23480356 0.23765039 1.02425
-0.22569935 0.23624061 1.0262858
-0.21559513 0.23492913 1.02575
-0.20767649 0.23198734 1.027
-0.15891394 0.23221262 1.028
-0.27326575 0.24997097 1.0220001
-0.26699409 0.24997097 1.0220001
-0.25471497 0.24861617 1.0238001
-0.24253248 0.24629639 1.0250001
-0.23723391 0.24212243 1.0267143
-0.2837612 0.25227484 1.0220002
-0.27537349 0.25381133 1.0250001
-0.26484194 0.25340992 1.0260715
-0.25554278 0.25224492 1.027
-0.24790379 0.25186598 1.0267999
-0.22027302 -0.060733713 1.034
-0.21503703 -0.061519034 1.0350001
-0.24112192 -0.052575454 1.034
-0.2331527 -0.053504571 1.0315001
-0.22438118 -0.054996144 1.0332502
-0.21566457 -0.054636646 1.0356364
-0.19200577 -0.050655555 1.0380001
-0.18654591 -0.05186886 1.0380001
-0.25115448 -0.040949099 1.0380001
-0.2433008 -0.044504859 1.0360954
-0.23418716 -0.045208465 1.0314001
-0.22505702 -0.045192163 1.031
-0.21538597 -0.045132264 1.0330558
-0.20521006 -0.044110082 1.0352002
-0.19507948 -0.044278782 1.0338848
-0.18620539 -0.045875814 1.0327501
-0.17986482 -0.046096008 1.031
-0.28300378 -0.03002934 1.0380001
-0.27394041 -0.033360943 1.037077
-0.26454371 -0.03476325 1.0352002
-0.25504982 -0.03543574 1.0342593
-0.24481013 -0.036203302 1.0323502
-0.23560183 -0.036555443 1.031
-0.22867236 -0.03796142 1.031
-0.21266143 -0.036024611 1.031
-0.20493671 -0.035564274 1.031
-0.1962201 -0.036196776 1.031
-0.3014231 -0.02150931 1.0366668
-0.2938652 -0.022924952 1.0348002
-0.28506601 -0.025521522 1.033059
-0.27464408 -0.027715458 1.0315294
-0.2656008 -0.029310348 1.031
-0.20426859 -0.029826829 1.031
-0.31030318 -0.01000978 1.0380001
-0.30377945 -0.014625648 1.0347501
-0.2967619 -0.016570462 1.031
-0.31148523 -0.0043146247 1.035125
-0.30520719 -0.0053876597 1.0321906
-0.31236613 0.0054296833 1.0327779
-0.3075327 0.004293256 1.031
-0.32122293 0.0181996 1.0380001
-0.31487656 0.015023174 1.0324001
-0.33032274 0.028209379 1.0380001
-0.32416683 0.027034234 1.0350001
-0.31738165 0.022346484 1.0314287
-0.34334382 0.036844227 1.0343637
-0.33463246 0.034921017 1.0348574
-0.32630602 0.034806766 1.0322001
-0.35239059 0.04475173 1.0376002
-0.34619921 0.044660144 1.0317501
-0.33171049 0.04067295 1.031
-0.3537094 0.053644635 1.0372001
-0.34978735 0.053326756 1.031
-0.34978735 0.067788251 1.031
-0.35185894 0.074618362 1.0380001
-0.34758151 0.075582698 1.0325
-0.36373544 0.087622829 1.0375557
-0.35480726 0.086488575 1.0365456
-0.34798372 0.085898787 1.0332501
-0.36343929 0.091836244 1.0338334
-0.35513955 0.092955679 1.0312728
-0.34752774 0.091740102 1.031
-0.11224063 0.14693961 1.0337143
-0.10702179 0.14330585 1.0345834
-0.1419034 0.15998027 1.031
-0.12319124 0.1569698 1.0320001
-0.11622671 0.15291522 1.0358001
-0.14311425 0.16388024 1.0338184
-0.13481586 0.16444495 1.0330715
-0.12756851 0.16205026 1.0350001
-0.14711541 0.17384015 1.0327501
-0.13648035 0.19974938 1.031
-0.14064954 0.20758392 1.0317501
-0.13810728 0.20550014 1.0341667
-0.14306803 0.21564615 1.0322502
-0.13847651 0.21557935 1.0346667
-0.19489177 0.22933775 1.034
-0.15257847 0.22672188 1.0313751
-0.14567912 0.22428289 1.0341003
-0.13844144 0.22144775 1.0366668
-0.22234546 0.23861463 1.031
-0.21344277 0.23749077 1.0322858
-0.20525566 0.23508668 1.0339092
-0.19913352 0.23081538 1.0325
-0.15423803 0.23314562 1.0337335
-0.14832674 0.23022494 1.0380001
-0.24021544 0.24746722 1.034
-0.23392248 0.24533331 1.0335295
-0.22533339 0.24317665 1.035706
-0.21586163 0.24168685 1.0372001
-0.27503312 0.25814649 1.0320001
-0.26522779 0.25839874 1.031
-0.25455213 0.25742424 1.0333334
-0.24449083 0.25310189 1.033875
-0.23932473 0.2502445 1.0380001
-0.27383411 0.26321805 1.036154
-0.26557261 0.2633712 1.0354288
-0.25530162 0.26128048 1.0374286
-0.21202928 -0.063060828 1.0425
-0.2051435 -0.063193053 1.0446668
-0.19625361 -0.062105574 1.044
-0.25571978 -0.05229792 1.0465714
-0.24744684 -0.05186557 1.0425
-0.21180846 -0.055669211 1.0410001
-0.20514245 -0.055094633 1.0432942
-0.19550385 -0.055198815 1.043143
-0.18884452 -0.055219483 1.044
-0.27449626 -0.042541303 1.0458
-0.26458195 -0.044239894 1.0440003
-0.25527257 -0.045111824 1.0426958
-0.24822992 -0.04654311 1.041
-0.20259942 -0.048368331 1.041
-0.30427691 -0.032118496 1.0467857
-0.29449093 -0.034135073 1.0457311
-0.28513288 -0.035418212 1.0440003
-0.27541798 -0.037910569 1.0419999
-0.26648211 -0.03924223 1.041
-0.31253475 -0.021569945 1.0470001
-0.30493107 -0.02521863 1.0438334
-0.29607311 -0.027303491 1.0419999
-0.313981 -0.014491764 1.0445294
-0.30876639 -0.015818574 1.041
-0.32143807 -0.003855054 1.0470001
-0.31713247 -0.0045743589 1.0431001
-0.32216844 0.0052639451 1.04475
-0.31905162 0.0045698876 1.0428001
-0.33135107 0.01927527 1.0470001
-0.32513049 0.015294665 1.0451539
-0.31850088 0.01003871 1.041
-0.35674548 0.026924187 1.0470001
-0.34311986 0.027522514 1.0465001
-0.33482087 0.025417799 1.0449375
-0.32750112 0.023084637 1.0414284
-0.35449061 0.034457192 1.043667
-0.34598953 0.032480851 1.0428001
-0.3367531 0.030116132 1.041
-0.356309 0.044717889 1.041
-0.35683051 0.052018773 1.041
-0.36356461 0.07912837 1.0455
-0.35627952 0.076006569 1.0424999
-0.36413139 0.083047509 1.0410001
-0.35761118 0.082478113 1.0415
-0.06132108 0.11989644 1.044
-0.062997706 0.12232437 1.0465
-0.058935672 0.12306559 1.0450001
-0.10665439 0.1483683 1.0434
-0.1147634 0.15554608 1.0442728
-0.10922653 0.15144855 1.0470001
-0.1461764 0.1681027 1.042125
-0.13367061 0.16868997 1.0419999
-0.12523772 0.16631356 1.0458001
-0.11853979 0.16223024 1.0455
-0.14450262 0.17481768 1.0432503
-0.13521783 0.17462116 1.0451251
-0.12941967 0.17164169 1.0470001
-0.14185958 0.18121621 1.044
-0.13641371 0.20796899 1.0419999
-0.13521445 0.21522753 1.0438573
-0.14192796 0.22808266 1.043
-0.1363392 0.22350094 1.0453334
-0.20256962 0.23826748 1.044
-0.19823888 0.23448554 1.0439999
-0.15114544 0.23699389 1.04175
-0.14644754 0.2348499 1.0452354
-0.13859837 0.23038536 1.0470001
-0.22469378 0.24862786 1.0419
-0.21507768 0.24592701 1.0444739
-0.20668545 0.24148166 1.0443749
-0.15144855 0.24139981 1.0470001
-0.1490009 0.24201173 1.0470001
-0.24346153 0.25692001 1.0429286
-0.23585081 0.25404269 1.0434706
-0.22600938 0.25260195 1.0458751
-0.21937093 0.25057852 1.0470001
-0.27515191 0.2651132 1.041
-0.26329881 0.26765445 1.0414617
-0.25496241 0.26637134 1.0432941
-0.24642354 0.26219422 1.0437692
-0.26470423 0.27265295 1.046
-0.25838041 0.2716895 1.0470001
-0.25317782 -0.060060434 1.054
-0.27150455 -0.050965015 1.057
-0.26420337 -0.052103806 1.0508889
-0.25406286 -0.056379601 1.0504445
-0.28328031 -0.04337471 1.0525715
-0.27585387 -0.04710269 1.0534616
-0.26878601 -0.047866002 1.0500001
-0.31481099 -0.0303765 1.0500001
-0.30468547 -0.033137999 1.0500001
-0.3230885 -0.023453755 1.0560001
-0.31513795 -0.025539404 1.0529333
-0.32447502 -0.014883768 1.05304
-0.3186771 -0.015648499 1.0500001
-0.32675505 -0.0051236288 1.0522223
-0.33332646 0.0049620131 1.0553637
-0.32765388 0.004144588 1.0513334
-0.35204658 0.019404139 1.054
-0.34449387 0.016688487 1.0541764
-0.33491445 0.014731017 1.0531201
-0.32788211 0.0115983 1.0500001
-0.35283467 0.024607332 1.0513999
-0.34541452 0.023894075 1.0510668
-0.33782351 0.022092 1.0500001
-0.36565855 0.076694205 1.0512223
-0.35991549 0.072719499 1.0500001
-0.064389847 0.12657216 1.0523001
-0.058100205 0.12727271 1.052
-0.073204294 0.13542132 1.057
-0.06420286 0.13191588 1.0552
-0.056189828 0.13287887 1.0557144
-0.063011296 0.14270204 1.057
-0.11267855 0.15812027 1.0506667
-0.1084497 0.15535527 1.0513334
-0.12150601 0.1684515 1.0500001
-0.11472416 0.16532245 1.0534998
-0.10748985 0.16308805 1.057
-0.13095821 0.17799489 1.052
-0.12485697 0.17490891 1.0535909
-0.11768286 0.17365173 1.057
-0.14130595 0.18471673 1.0535001
-0.13515492 0.18205871 1.0531
-0.12787586 0.18162078 1.057
-0.13452087 0.22667255 1.054143
-0.1974992 0.2376501 1.0527501
-0.14267749 0.23626167 1.0500001
-0.13828172 0.23491529 1.0558001
-0.211715 0.2494555 1.0500001
-0.20504971 0.24456033 1.0515715
-0.19830024 0.24277881 1.057
-0.14406747 0.24105133 1.0535001
-0.23300068 0.2577658 1.0517143
-0.22428916 0.25646433 1.0528572
-0.21562015 0.25387546 1.0542308
-0.20912138 0.25168881 1.0555
-0.24435826 0.26682881 1.0531667
-0.23609826 0.26409715 1.0556251
-0.22517271 0.26038489 1.057
-0.26364848 0.27684683 1.0531429
-0.25495115 0.27421081 1.0543333
-0.24689984 0.27209172 1.0564001
-0.26223817 0.2807709 1.057
-0.28342634 -0.047392599 1.0600001
-0.32276526 -0.026638977 1.0600001
-0.33500484 -0.0021687271 1.0605
-0.34059155 0.0055808602 1.0615001
-0.33794332 0.004956089 1.0600001
-0.35176119 0.015822519 1.0615001
-0.34314203 0.011158433 1.06075
-0.36669707 0.058783129 1.0643334
-0.37229052 0.068284445 1.067
-0.36693177 0.065377206 1.0662942
-0.37229052 0.072026059 1.067
-0.36729759 0.072243579 1.063375
-0.071756043 0.12860173 1.0630001
-0.068912357 0.12851167 1.0622501
-0.073169813 0.13239186 1.061
-0.065213524 0.135295 1.0608399
-0.057391863 0.13743941 1.0616666
-0.06307441 0.14495918 1.0602858
-0.05556098 0.1460377 1.0622083
-0.049251132 0.14961194 1.0600001
-0.063781932 0.15441997 1.06365
-0.055237655 0.15519518 1.0616956
-0.049320828 0.15261671 1.0615001
-0.1108957 0.16867329 1.0630001
-0.10797136 0.1638194 1.0617501
-0.061424818 0.16400738 1.067
-0.058556248 0.16406974 1.067
-0.11457209 0.17541291 1.0616316
-0.14215083 0.18875487 1.0632501
-0.13386799 0.18776922 1.0625715
-0.124925 0.18353862 1.0627275
-0.11933582 0.18180533 1.0635
-0.13580203 0.1923694 1.0665001
-0.13107026 0.22802643 1.0634
-0.12861139 0.22702129 1.0656667
-0.1954993 0.23852785 1.067
-0.13423236 0.23456246 1.0645834
-0.20381854 0.24872622 1.061625
-0.19704333 0.24280137 1.06525
-0.14031927 0.24160933 1.0600001
-0.13798252 0.24147169 1.0635
-0.21519603 0.25870234 1.0615001
-0.20722647 0.2536898 1.0600001
-0.2330672 0.26753005 1.0623751
-0.2255597 0.26473469 1.0639168
-0.2176743 0.26251987 1.0656667
