# .PCD v0.7 - Point Cloud Data file format
VERSION 0.7
FIELDS x y z
SIZE 4 4 4
TYPE F F F
COUNT 1 1 1
WIDTH 1465
HEIGHT 1
VIEWPOINT 0 0 0 1 0 0 0
POINTS 1465
DATA ascii
-0.18662506 0.18728553 1.1303334
-0.093080759 0.18594643 1.1308888
-0.084689498 0.18518691 1.1329089
-0.074974537 0.18409976 1.136
-0.067839973 0.18157169 1.138
-0.19329405 0.19329405 1.138
-0.1846102 0.19504336 1.1361177
-0.17552246 0.19476421 1.1327499
-0.16666205 0.19741729 1.1316
-0.1575107 0.1991173 1.13
-0.094295017 0.1955585 1.1334287
-0.086351857 0.1932109 1.138
-0.17299193 0.20092604 1.138
-0.16322756 0.20364039 1.1362857
-0.15443039 0.20433585 1.133059
-0.14470389 0.20499235 1.1310667
-0.13692848 0.20760439 1.131091
-0.12541418 0.20862737 1.13
-0.118876 0.20902362 1.13
-0.10005397 0.20506109 1.13
-0.09593948 0.2054576 1.1329333
-0.14465876 0.21050344 1.138
-0.13314483 0.2141605 1.1362224
-0.12490219 0.21453592 1.1344705
-0.11542564 0.21452951 1.1328889
-0.10453672 0.21418293 1.1325713
-0.097194031 0.2138879 1.1362857
-0.12271054 0.22047991 1.138
-0.17184368 -0.10415379 1.149
-0.16697975 -0.10569659 1.1442729
-0.18233675 -0.093517244 1.1470001
-0.17555243 -0.097124547 1.1442729
-0.16904676 -0.099027388 1.141
-0.19138509 -0.084612362 1.149
-0.18657766 -0.084992498 1.1446925
-0.19239239 -0.076554038 1.149
-0.18804996 -0.077489734 1.1430001
-0.05721565 -0.042158902 1.1450001
-0.09166339 -0.031225991 1.149
-0.088117979 -0.034000114 1.1474001
-0.056052886 -0.034554746 1.1454706
-0.11180919 -0.021153091 1.149
-0.10486545 -0.023486665 1.1460001
-0.09506797 -0.024745135 1.1446524
-0.086532772 -0.024898577 1.1456318
-0.061016876 -0.023006363 1.141
-0.057427432 -0.025410684 1.1464287
-0.2417496 -0.01108019 1.149
-0.23509656 -0.011738858 1.1476668
-0.22485806 -0.012519518 1.1464547
-0.21492559 -0.013916068 1.1464739
-0.20647673 -0.012075207 1.1478002
-0.19411917 -0.011943582 1.149
-0.18558468 -0.011356967 1.1478571
-0.17358965 -0.01108019 1.149
-0.16721013 -0.01108019 1.149
-0.15411538 -0.01108019 1.149
-0.14605705 -0.01108019 1.149
-0.13363381 -0.012759007 1.149
-0.12602505 -0.012280522 1.1482002
-0.11463448 -0.014191189 1.1470002
-0.10801607 -0.016793646 1.1435001
-0.093025722 -0.019005256 1.141
-0.085161082 -0.017341612 1.1428462
-0.062588498 -0.014487236 1.1431819
-0.05840214 -0.015102686 1.1486001
-0.27499017 -0.00100729 1.149
-0.25432634 -0.0025722375 1.1476668
-0.24543422 -0.0046884138 1.144778
-0.23492475 -0.0055874982 1.1430955
-0.22564436 -0.0077373805 1.1420909
-0.21485655 -0.0067538405 1.14125
-0.20516476 -0.0067663332 1.1430001
-0.1952132 -0.0063535939 1.1438891
-0.1851909 -0.0055635665 1.1435457
-0.17488831 -0.0055855238 1.1446803
-0.16488643 -0.0050283158 1.1454803
-0.15502234 -0.0049421364 1.1451669
-0.14504713 -0.0051047634 1.1459234
-0.13545959 -0.0051225312 1.1453812
-0.12535378 -0.0057865432 1.1448098
-0.11529656 -0.006554734 1.1447649
-0.10903016 -0.00900249 1.141
-0.061741255 -0.005874292 1.1438571
-0.059430111 -0.0055400953 1.149
-0.27096102 0.00503645 1.149
-0.26524624 0.0048338985 1.1470953
-0.25619742 0.0045597386 1.1425557
-0.24764308 0.0018011995 1.1418002
-0.23356459 0.0015004149 1.141
-0.16204482 0.0010002767 1.141
-0.15504289 0.0010002767 1.141
-0.14704067 0.0010002767 1.141
-0.1370379 0.0010002767 1.141
-0.058418434 0.007007781 1.1423334
-0.27096102 0.01510935 1.149
-0.26514137 0.015064639 1.1456002
-0.25660038 0.015239511 1.1409999
-0.054706194 0.016057028 1.1450001
-0.27136391 0.023570586 1.149
-0.26523358 0.0251179 1.1460003
-0.25648269 0.024418518 1.1409999
-0.053867366 0.02174864 1.145
-0.26499578 0.03452789 1.1487143
-0.25812885 0.03487372 1.1424546
-0.26200733 0.045775734 1.149
-0.25510255 0.045811966 1.1422501
-0.23306444 0.048513416 1.141
-0.26323846 0.056744006 1.149
-0.2553719 0.053878237 1.1423333
-0.23281437 0.052764595 1.1409999
-0.22906336 0.05401494 1.141
-0.28507885 0.069019087 1.141
-0.27096102 0.061444689 1.149
-0.26801014 0.061230782 1.1450001
-0.29211217 0.074892573 1.1482002
-0.28588012 0.075803436 1.1447334
-0.28285211 0.08435338 1.1482002
-0.27666429 0.085746422 1.1426001
-0.2810339 0.093677968 1.149
-0.27488759 0.094548628 1.1455716
-0.26766124 0.098296598 1.1418002
-0.025089907 0.098370761 1.1450001
-0.27096102 0.10274358 1.149
-0.2647469 0.1051505 1.1445793
-0.25907165 0.10602932 1.141
-0.025112992 0.10599061 1.1460001
-0.26465347 0.11550187 1.1439092
-0.25907165 0.11103071 1.141
-0.032625735 0.11703958 1.1432223
-0.028271623 0.11521533 1.1472223
-0.28107774 0.12503459 1.141
-0.27639949 0.12401745 1.1418889
-0.041011345 0.1290357 1.141
-0.035284184 0.12495426 1.1460001
-0.029211409 0.12288938 1.149
-0.27638972 0.13579829 1.1436667
-0.043430723 0.13556993 1.1455001
-0.038208641 0.1317253 1.1470001
-0.27283618 0.14446326 1.1470001
-0.26548707 0.14704826 1.1427779
-0.25907165 0.14904122 1.141
-0.053451944 0.14734523 1.1418
-0.046698719 0.1456304 1.1456668
-0.26412269 0.15284215 1.1470001
-0.25635412 0.15564983 1.1430001
-0.055625379 0.15473981 1.1454003
-0.047296405 0.15397032 1.1479093
-0.2608881 0.16015911 1.149
-0.25458032 0.16321236 1.1478002
-0.24581154 0.16628085 1.1426002
-0.23603006 0.16876516 1.1418002
-0.061088178 0.16724141 1.1423334
-0.059326664 0.16491152 1.1470001
-0.24435981 0.17367944 1.1481112
-0.23598439 0.1742024 1.1454707
-0.22534601 0.17558062 1.1430002
-0.21647157 0.17734495 1.1417273
-0.062375963 0.1753753 1.1450001
-0.059430111 0.1712393 1.149
-0.24275689 0.18030491 1.149
-0.23066941 0.18030491 1.149
-0.22400501 0.18284994 1.1481112
-0.21498352 0.18436158 1.1452502
-0.20643012 0.1863755 1.1437502
-0.074020475 0.18905228 1.141
-0.065428115 0.18675835 1.1453335
-0.21354547 0.1903778 1.149
-0.20398971 0.19364001 1.1478571
-0.19640036 0.19640225 1.1435455
-0.18905228 0.19905506 1.141
-0.083151542 0.19758615 1.1427779
-0.075446896 0.19491151 1.1446193
-0.067741662 0.1934479 1.1484287
-0.19507849 0.20179377 1.149
-0.18499146 0.20406026 1.1445
-0.17599148 0.2054054 1.1436669
-0.16590741 0.20751268 1.1435001
-0.15804371 0.20905782 1.141
-0.091104954 0.20624021 1.142
-0.0862609 0.20436929 1.1468669
-0.077897094 0.20246528 1.149
-0.17023201 0.21052361 1.149
-0.16418827 0.21153089 1.149
-0.15340964 0.21402349 1.1475002
-0.14512974 0.21541025 1.1434445
-0.13670009 0.21723069 1.1418889
-0.1290357 0.21906058 1.141
-0.1030285 0.21906058 1.141
-0.093617998 0.21691433 1.1434
-0.089648813 0.21253818 1.149
-0.14404246 0.2216038 1.149
-0.1344346 0.22316125 1.1472223
-0.12580791 0.22518675 1.1450001
-0.11545525 0.22489221 1.1452
-0.10534308 0.22473332 1.1444004
-0.095725581 0.22474535 1.1468949
-0.089648813 0.22261108 1.149
-0.12490395 0.23066941 1.149
-0.11583835 0.23066941 1.149
-0.10531777 0.23156479 1.149
-0.09770713 0.23117304 1.149
-0.17324834 -0.11043165 1.1556667
-0.19373193 -0.10041603 1.1570001
-0.18351915 -0.10285686 1.1565557
-0.17621557 -0.10545978 1.153
-0.19251478 -0.094735935 1.1570001
-0.18681751 -0.096024953 1.1549999
-0.19593106 -0.084884562 1.1549999
-0.18901898 -0.089960903 1.153
-0.2124213 -0.072606407 1.1556667
-0.20532398 -0.07447885 1.1569998
-0.19737053 -0.075908743 1.1545384
-0.214018 -0.069986932 1.1570001
-0.20549786 -0.069581218 1.1570001
-0.19778915 -0.069986932 1.1570001
-0.093547642 -0.04221471 1.1556667
-0.055593815 -0.041442662 1.153
-0.10325607 -0.031849124 1.1570001
-0.094854683 -0.034904249 1.1551331
-0.051990718 -0.035403833 1.1537999
-0.048889421 -0.033066288 1.1570001
-0.22111812 -0.02130037 1.1570001
-0.21503229 -0.022314673 1.1570001
-0.20630929 -0.022517536 1.1569999
-0.19711298 -0.022652775 1.1570001
-0.18815327 -0.021807522 1.1570001
-0.15315981 -0.022459576 1.1570002
-0.1454142 -0.022591302 1.1569999
-0.13512774 -0.022201974 1.1570001
-0.12746412 -0.021976573 1.1570001
-0.11314905 -0.024765754 1.1551818
-0.10513525 -0.028779089 1.1547143
-0.098047279 -0.029313102 1.153
-0.0528371 -0.024902355 1.153
-0.04741868 -0.025611162 1.1569998
-0.25256154 -0.012896142 1.1570002
-0.24515393 -0.014510995 1.1545999
-0.23490985 -0.014987493 1.155
-0.22491211 -0.01740239 1.1551818
-0.21589442 -0.018854119 1.1562001
-0.2050142 -0.016625673 1.1553528
-0.1957984 -0.016741497 1.1551175
-0.18509892 -0.016364828 1.1551051
-0.17575105 -0.015302124 1.1553156
-0.16459996 -0.013983593 1.1556666
-0.15505426 -0.016217453 1.1559999
-0.14440662 -0.015730189 1.1540908
-0.13513987 -0.016366798 1.1539412
-0.12436844 -0.016921794 1.1547142
-0.11786038 -0.017705597 1.154
-0.053607993 -0.015172003 1.1537999
-0.047875114 -0.016025994 1.1569999
-0.27307114 -0.002697211 1.1536666
-0.26513323 -0.0027007181 1.1543332
-0.25559339 -0.0068821842 1.1542
-0.24865597 -0.0090971701 1.153
-0.056433499 -0.0061675091 1.1551818
-0.28441784 0.0083123781 1.1562001
-0.27662134 0.0053909151 1.153
-0.058051109 0.0043888856 1.155
-0.01521455 0.00304291 1.1570001
-0.28208902 0.014087547 1.1570001
-0.27607605 0.015170367 1.1535333
-0.054679453 0.01417044 1.155
-0.28096202 0.025357584 1.1570001
-0.27619797 0.025845012 1.1545999
-0.28096202 0.035500616 1.1570001
-0.27545509 0.03502449 1.1561109
-0.2688719 0.037062544 1.153
-0.27352381 0.045305543 1.1569998
-0.26722136 0.04555247 1.1545999
-0.27163044 0.057003845 1.1570001
-0.26665351 0.054812267 1.1543332
-0.27658805 0.062477406 1.1556667
-0.3002066 0.078842141 1.153
-0.29674101 0.07812015 1.153
-0.30226237 0.081144273 1.1570001
-0.29364252 0.085133992 1.1545554
-0.28650472 0.087714687 1.153
-0.29364082 0.093315907 1.1569999
-0.28582132 0.095274322 1.1533077
-0.2789799 0.098047279 1.153
-0.28406841 0.10455173 1.1565293
-0.27627331 0.10441927 1.1538888
-0.02122673 0.10411205 1.153
-0.018552313 0.10592178 1.1543332
-0.28248349 0.11106621 1.1570001
-0.2747736 0.11416505 1.1560585
-0.26907405 0.11300707 1.153
-0.023462668 0.11428387 1.1553332
-0.018595561 0.11123526 1.1570001
-0.27424499 0.12042391 1.1543334
-0.03335629 0.12736037 1.153
-0.026441729 0.12344216 1.1552222
-0.28363806 0.13472745 1.1554999
-0.041514549 0.13770854 1.155
-0.037509687 0.13483572 1.1564286
-0.28197634 0.14403108 1.1570001
-0.2776159 0.14583808 1.1543334
-0.043149006 0.1448462 1.1554
-0.27317247 0.15421952 1.1557999
-0.26703548 0.15637925 1.1538
-0.05155063 0.15869507 1.153
-0.046496645 0.15869507 1.153
-0.27081898 0.16127422 1.1570001
-0.26484302 0.16400695 1.1559998
-0.25761223 0.16685465 1.1535
-0.055429541 0.16379783 1.1560767
-0.049700864 0.16127422 1.1570001
-0.25444275 0.17478037 1.1557498
-0.24751602 0.17628452 1.1534444
-0.23551562 0.17891102 1.153
-0.061658595 0.17891102 1.153
-0.058949698 0.17523041 1.1554
-0.25168836 0.1809326 1.153
-0.24510501 0.18315163 1.1542307
-0.23496719 0.18360867 1.1552857
-0.22589451 0.1874398 1.1543334
-0.21934287 0.18901898 1.153
-0.061765552 0.18428409 1.155
-0.059637003 0.18901898 1.153
-0.22247052 0.19305573 1.1570001
-0.21449097 0.19525661 1.1549999
-0.20710655 0.19799116 1.1557999
-0.065415829 0.19588377 1.1544545
-0.059637003 0.19104058 1.153
-0.20251176 0.20149745 1.155
-0.19470079 0.20627879 1.1558571
-0.18800819 0.20923491 1.153
-0.08302734 0.208924 1.1550001
-0.074995391 0.20536639 1.1548461
-0.06923008 0.20228995 1.1556667
-0.18409605 0.21249655 1.1570001
-0.1750939 0.21479976 1.1560587
-0.16540495 0.21584214 1.1542307
-0.15644886 0.21777052 1.153
-0.087053403 0.21473575 1.1559091
-0.16482429 0.22162527 1.1569999
-0.15470402 0.22462279 1.1558887
-0.14520386 0.2260205 1.1545384
-0.13578367 0.2277662 1.153
-0.091982499 0.22844005 1.153
-0.088930987 0.22627835 1.1554
-0.1511312 0.23024686 1.1570001
-0.14481997 0.23114845 1.1570001
-0.13394342 0.23325747 1.1559998
-0.12474947 0.23570901 1.1554614
-0.1143521 0.23579033 1.1543332
-0.10390867 0.23662533 1.1548182
-0.094465084 0.23511571 1.1548461
-0.088244386 0.23126116 1.1570001
-0.19114473 -0.10239168 1.161
-0.18625923 -0.10415589 1.1610001
-0.2025696 -0.091053233 1.1670001
-0.19582666 -0.093842089 1.1610001
-0.20429929 -0.084172934 1.1637501
-0.19847295 -0.088549472 1.161
-0.20729397 -0.075317942 1.1610001
-0.19643733 -0.072264507 1.161
-0.21367674 -0.064258374 1.1635885
-0.20605101 -0.065755323 1.1622308
-0.058414929 -0.053290814 1.169
-0.22170345 -0.0437258 1.169
-0.21439305 -0.043452509 1.1689999
-0.20711631 -0.041969836 1.1676668
-0.19574127 -0.042017758 1.169
-0.18626162 -0.042786375 1.169
-0.17934409 -0.042017758 1.169
-0.14193803 -0.042530168 1.169
-0.13493508 -0.0437258 1.1689999
-0.12810291 -0.043042578 1.169
-0.10367402 -0.042627916 1.1670001
-0.097774103 -0.04348214 1.1642001
-0.054179192 -0.044331677 1.1660908
-0.046588257 -0.042494226 1.1680001
-0.035639301 -0.043218087 1.1681999
-0.029719876 -0.042017758 1.169
-0.24493277 -0.031769522 1.169
-0.23286264 -0.034046903 1.169
-0.22382878 -0.035086174 1.1684999
-0.21494263 -0.035470407 1.1650004
-0.20505743 -0.035712145 1.1637201
-0.19506954 -0.0357517 1.1650001
-0.18511276 -0.035798818 1.1666003
-0.17543805 -0.035351984 1.1671821
-0.16500556 -0.033617415 1.1669999
-0.15477544 -0.033904616 1.1671333
-0.14477962 -0.03559364 1.1668949
-0.13542408 -0.035750013 1.1650004
-0.12596834 -0.034842681 1.1653999
-0.11522222 -0.035221674 1.1659093
-0.10541417 -0.0366381 1.164
-0.09770976 -0.03867678 1.161
-0.050976414 -0.03976297 1.1630001
-0.044809066 -0.036120929 1.1631054
-0.035735704 -0.035739351 1.1646804
-0.026021857 -0.035319302 1.166273
-0.017934408 -0.034331582 1.169
-0.25345477 -0.023363883 1.167909
-0.24559385 -0.025414858 1.1684288
-0.23390217 -0.024709601 1.1672857
-0.22528258 -0.025597289 1.1632856
-0.21480817 -0.027487649 1.1612668
-0.20457982 -0.02748087 1.1610001
-0.19416225 -0.026882159 1.161
-0.18414947 -0.025828699 1.1622174
-0.17527603 -0.025479089 1.1623999
-0.16590308 -0.025445247 1.1609998
-0.15651657 -0.026576152 1.1609999
-0.14525601 -0.027626272 1.1610001
-0.13524149 -0.027226418 1.161
-0.12497484 -0.025942635 1.1624545
-0.1173078 -0.026943553 1.1617274
-0.04263493 -0.024992893 1.1610001
-0.035623357 -0.025445249 1.1609998
-0.025507951 -0.025513284 1.1640401
-0.019471643 -0.02459576 1.169
-0.26216301 -0.014577433 1.1669999
-0.25596648 -0.016544925 1.1625385
-0.24495006 -0.019066622 1.1621429
-0.23563734 -0.018485015 1.1621429
-0.22900724 -0.01933839 1.161
-0.17336696 -0.018659851 1.161
-0.16615748 -0.018575031 1.1610001
-0.12519063 -0.01933839 1.161
-0.044318255 -0.014726889 1.1612667
-0.035644118 -0.015273605 1.1616397
-0.025460258 -0.015278789 1.1617998
-0.018521087 -0.013858221 1.1644286
-0.27201065 -0.0064706765 1.1650001
-0.26555568 -0.0073765647 1.1645555
-0.25954154 -0.0091602895 1.161
-0.053000052 -0.0033953304 1.1626668
-0.045567568 -0.0053670681 1.1641307
-0.035748325 -0.0051048994 1.1650004
-0.025468253 -0.0050910139 1.1619601
-0.018433668 -0.0050890502 1.1610001
-0.053233571 0.0048052724 1.1656003
-0.045509394 0.0038059861 1.1684285
-0.035412211 0.0040446161 1.1681579
-0.025521696 0.0051057418 1.1643604
-0.01832724 0.0050922059 1.1614001
-0.29357454 0.01517008 1.1675454
-0.28709915 0.016226225 1.1631819
-0.052920204 0.014570857 1.1665001
-0.035185602 0.011956272 1.169
-0.025564339 0.015337985 1.1662804
-0.01837844 0.0153194 1.1646001
-0.29104984 0.02459576 1.169
-0.28648105 0.025025764 1.1650001
-0.051908311 0.02137401 1.161
-0.023943601 0.023570936 1.1689999
-0.018788429 0.02459576 1.169
-0.290025 0.031769522 1.169
-0.28530738 0.035773885 1.1658571
-0.27887994 0.039694589 1.161
-0.290025 0.048166696 1.169
-0.28519601 0.044975635 1.166
-0.27931613 0.04667386 1.1610001
-0.290025 0.050216343 1.169
-0.28444448 0.053968009 1.1674
-0.27612978 0.054286774 1.1616156
-0.28267047 0.062020134 1.1674001
-0.27684432 0.060050789 1.161
-0.30332437 0.086695507 1.1634001
-0.30283433 0.094457507 1.1685998
-0.29699591 0.097097315 1.1658
-0.2938225 0.1044978 1.16575
-0.28804022 0.10890567 1.161
-0.29207468 0.11416532 1.169
-0.28568962 0.11588218 1.1638572
-0.27938884 0.11653924 1.161
-0.02137401 0.11806596 1.161
-0.016046505 0.11603045 1.1622499
-0.28236908 0.12174533 1.1670001
-0.03155211 0.12926187 1.161
-0.023859186 0.12581761 1.1630001
-0.017378164 0.1237066 1.1661999
-0.29350251 0.13742539 1.1655
-0.28770092 0.13604726 1.1610001
-0.033944331 0.1361766 1.1625385
-0.027630255 0.13345392 1.1674
-0.29375628 0.14385182 1.1682727
-0.28608248 0.14584298 1.1620001
-0.041778136 0.14571632 1.1623334
-0.036592122 0.1441389 1.1660666
-0.29070821 0.15133224 1.169
-0.28429845 0.15478069 1.166846
-0.27734315 0.1561548 1.1616668
-0.042017758 0.15064903 1.169
-0.28182641 0.16089725 1.169
-0.27563348 0.16378359 1.1662
-0.2666471 0.16846149 1.1618
-0.052854359 0.16789481 1.1627144
-0.048409007 0.16525325 1.1650001
-0.27157819 0.1711455 1.169
-0.2646803 0.17480499 1.1650001
-0.25954154 0.17608114 1.161
-0.055167578 0.17409232 1.1653999
-0.26235479 0.18139373 1.169
-0.25928029 0.18139373 1.169
-0.24381764 0.18872733 1.1636667
-0.23674262 0.18788771 1.161
-0.060205963 0.18572271 1.164
-0.058414929 0.18241856 1.169
-0.2416482 0.19188802 1.1663333
-0.2341738 0.19235803 1.1634001
-0.22573124 0.19606115 1.1627778
-0.21781135 0.19745514 1.161
-0.061207697 0.19689202 1.1636667
-0.058165081 0.19593063 1.164
-0.22136185 0.20291501 1.169
-0.21434212 0.20429093 1.1646923
-0.20570226 0.20672446 1.1637502
-0.19802235 0.20821214 1.1623334
-0.070907429 0.20797251 1.161
-0.064806707 0.20465435 1.1655715
-0.057390105 0.20291501 1.169
-0.21213843 0.21145521 1.169
-0.20382471 0.21304226 1.1683334
-0.19511738 0.2149318 1.1645294
-0.18508114 0.21657191 1.1612667
-0.082703859 0.21681346 1.1620911
-0.075006925 0.21470617 1.1650002
-0.067638338 0.2111136 1.169
-0.19392391 0.22157662 1.1683334
-0.18461213 0.22449204 1.1647894
-0.17484653 0.22492863 1.1620525
-0.1661209 0.22720701 1.1613334
-0.15877835 0.22900724 1.161
-0.085347533 0.22463466 1.1636666
-0.077886567 0.22136185 1.169
-0.18344338 0.23058525 1.169
-0.17524479 0.23058525 1.169
-0.16341855 0.23477603 1.1657273
-0.15545601 0.23466213 1.1632221
-0.14554243 0.2360516 1.1626002
-0.13689137 0.23668483 1.1615715
-0.12417282 0.23918535 1.161
-0.091093995 0.23714973 1.161
-0.086935624 0.23519786 1.1636667
-0.15474832 0.24083348 1.169
-0.14450009 0.24083348 1.169
-0.13418119 0.24320504 1.1666
-0.12548529 0.24423599 1.1650001
-0.11540878 0.24409933 1.1650001
-0.10525504 0.24492028 1.1656666
-0.095639542 0.24484789 1.1657059
-0.087984025 0.24246934 1.1670001
-0.21492097 -0.060671471 1.1730001
-0.20946284 -0.060878363 1.177
-0.18057142 -0.060878363 1.177
-0.17644405 -0.060878363 1.177
-0.22203015 -0.052846048 1.1743335
-0.21527022 -0.054591812 1.1749202
-0.20694059 -0.052165076 1.177
-0.19467808 -0.051312394 1.1765001
-0.18464145 -0.054424524 1.1759475
-0.17482857 -0.054402623 1.1755716
-0.16511808 -0.054461073 1.1767895
-0.15551515 -0.054320961 1.1768261
-0.14529119 -0.054617219 1.1754001
-0.13500494 -0.054624356 1.1755601
-0.12573725 -0.052755434 1.1763847
-0.11499246 -0.051477179 1.177
-0.10473142 -0.051333874 1.177
-0.054026876 -0.052919433 1.1730002
-0.046866164 -0.050988249 1.1750001
-0.23137425 -0.04010487 1.1730001
-0.22554703 -0.044389576 1.1730002
-0.21514949 -0.047417436 1.1730002
-0.20475957 -0.045820013 1.1737061
-0.19479169 -0.046457063 1.1738573
-0.18468806 -0.04668618 1.1730002
-0.17512287 -0.045067038 1.173182
-0.16545944 -0.044067398 1.1735002
-0.15536143 -0.044244274 1.1736403
-0.14590859 -0.045246515 1.1730002
-0.13368289 -0.047303177 1.1730002
-0.12409591 -0.044584397 1.175182
-0.11470881 -0.044893231 1.1759092
-0.10495908 -0.046910033 1.1748183
-0.099748008 -0.046274848 1.1730001
-0.052787602 -0.047645956 1.1730002
-0.044071283 -0.046274845 1.1730002
-0.038048211 -0.045246519 1.1730001
-0.24165756 -0.031878229 1.1730001
-0.23548755 -0.034346219 1.1730001
-0.2277751 -0.037534047 1.1730001
-0.17173111 -0.038048211 1.1730001
-0.16487558 -0.037705433 1.1730002
-0.15445516 -0.03763688 1.1730001
-0.12237127 -0.038048211 1.1730001
-0.01748161 -0.031878229 1.1730001
-0.24165756 -0.02673658 1.1730001
-0.2378013 -0.028021995 1.1730002
-0.016839307 -0.027378397 1.1761112
-0.27333125 -0.013102533 1.1752859
-0.26733664 -0.014925689 1.1740001
-0.01953827 -0.01953827 1.1730001
-0.27250746 -0.0092549697 1.1730001
-0.043189857 0.0082266396 1.1730002
-0.035991549 0.0087408051 1.1730001
-0.30130067 0.01748161 1.1730001
-0.29759869 0.018715605 1.1730001
-0.050388169 0.015424949 1.1730001
-0.044302627 0.015457212 1.17524
-0.034910362 0.016033772 1.1732355
-0.30198419 0.023732243 1.177
-0.29556614 0.025882209 1.1741431
-0.051458094 0.026246328 1.1765556
-0.044534076 0.025620876 1.1768334
-0.034882985 0.025554324 1.1757369
-0.027044417 0.027338728 1.1735716
-0.017995775 0.027250744 1.1730001
-0.29347593 0.035010912 1.1746001
-0.051591836 0.031986937 1.177
-0.048496325 0.031986937 1.177
-0.033225141 0.033225141 1.177
-0.02489306 0.034695506 1.177
-0.017532459 0.035063747 1.1763334
-0.30108994 0.046019915 1.177
-0.2942774 0.044392381 1.1744119
-0.30026448 0.052623671 1.177
-0.29400697 0.053722572 1.1746668
-0.28827515 0.057929259 1.1730001
-0.29200977 0.062942035 1.177
-0.28842509 0.06283509 1.1750001
-0.30952734 0.089464709 1.1730001
-0.30658928 0.09710373 1.1730002
-0.30392355 0.10443036 1.1751819
-0.29821569 0.10797465 1.1730001
-0.30164024 0.11418992 1.177
-0.29677233 0.11422458 1.1738002
-0.29254544 0.12051974 1.1750001
-0.28770953 0.12377359 1.1746
-0.015036061 0.12707125 1.1746
-0.024087118 0.13526249 1.1742002
-0.018752776 0.13251464 1.1754
-0.30129892 0.14478378 1.1746
-0.29787293 0.14568007 1.1730002
-0.033304859 0.14798981 1.1750001
-0.02808029 0.14298631 1.1755
-0.31264651 0.15683916 1.177
-0.30851915 0.15890285 1.177
-0.29437026 0.15500511 1.1751819
-0.28827515 0.15870559 1.1730001
-0.042538494 0.15440516 1.1752857
-0.037146121 0.15167999 1.177
-0.30851915 0.16406202 1.177
-0.28472802 0.16450833 1.1748183
-0.27693754 0.16849387 1.1743335
-0.2816914 0.17025305 1.177
-0.27522302 0.17358139 1.1758001
-0.26736581 0.17995775 1.1730001
-0.052745741 0.17676646 1.1740001
-0.048496325 0.17506827 1.177
-0.27137303 0.18057142 1.177
-0.2656506 0.18430558 1.1745001
-0.05616102 0.18446162 1.1755
-0.24425437 0.19624609 1.1748464
-0.23507623 0.19805636 1.1730001
-0.24353576 0.20250796 1.1765556
-0.23400076 0.20482776 1.175316
-0.22591446 0.2054511 1.1741766
-0.21834874 0.20806544 1.1730001
-0.0616998 0.20772266 1.1730001
-0.057929259 0.20806544 1.1730001
-0.23009957 0.21152651 1.177
-0.22396417 0.21344571 1.1762002
-0.21554902 0.21576552 1.1740528
-0.20575948 0.21735157 1.1730002
-0.07095477 0.21800596 1.1730001
-0.064897366 0.21530558 1.1751055
-0.058126796 0.21221441 1.177
-0.21393412 0.22253276 1.177
-0.20476206 0.2243436 1.1756667
-0.19526772 0.22663994 1.1733335
-0.082266398 0.22726093 1.1730001
-0.075211868 0.22461326 1.1752859
-0.06810122 0.22287673 1.177
-0.20223999 0.23009957 1.177
-0.19433816 0.231966 1.1760001
-0.18482664 0.23486173 1.1750002
-0.17564356 0.23548274 1.1742501
-0.16802913 0.23713288 1.1730001
-0.083221674 0.2347872 1.1752223
-0.079451419 0.2311314 1.177
-0.1826351 0.24041794 1.177
-0.17438039 0.24041793 1.177
-0.16449335 0.24313059 1.1758573
-0.15500687 0.24577846 1.1745386
-0.14525916 0.2462202 1.1751335
-0.13554166 0.24819022 1.1735002
-0.1233996 0.24988419 1.1730001
-0.11517296 0.24988419 1.1730001
-0.10591799 0.24988419 1.1730001
-0.092549697 0.24885586 1.1730001
-0.087555327 0.24618816 1.1750001
-0.14239347 0.2507363 1.177
-0.13440849 0.25231284 1.1763334
-0.12493201 0.25378045 1.1758001
-0.11433925 0.25340223 1.1750002
-0.10451513 0.25356463 1.1752224
-0.096192546 0.25251362 1.1756668
-0.089769788 0.2507363 1.177
-0.1803277 -0.071922608 1.189
-0.1744905 -0.07233955 1.189
-0.16642962 -0.072270058 1.189
-0.15600605 -0.072270058 1.189
-0.14399412 -0.072518237 1.189
-0.13463773 -0.073486142 1.189
-0.20528553 -0.064261414 1.1886667
-0.19391476 -0.062996395 1.1886364
-0.18483047 -0.06528604 1.1864117
-0.17504105 -0.065838799 1.1848094
-0.16524239 -0.06548024 1.1854798
-0.15481123 -0.065463126 1.1851598
-0.1445936 -0.065636337 1.1851665
-0.13525376 -0.065233648 1.1846189
-0.12634504 -0.065068282 1.1866362
-0.11530461 -0.063924119 1.1861765
-0.10855982 -0.062850423 1.1850001
-0.21017469 -0.05901457 1.1810001
-0.20453557 -0.056417108 1.1843333
-0.19527966 -0.056737814 1.1852667
-0.18843248 -0.057979226 1.1810001
-0.1625489 -0.05901457 1.1810001
-0.15840752 -0.05901457 1.1810001
-0.1242412 -0.056943879 1.181
-0.11466429 -0.056685038 1.181
-0.10577758 -0.056426208 1.181
-0.014004749 -0.024899524 1.1835002
-0.017600836 -0.01863618 1.1810001
-0.30404291 0.027324824 1.1836667
-0.30470303 0.034200348 1.1822
-0.2988691 0.034856558 1.1810001
-0.051825613 0.036280267 1.1823335
-0.044150162 0.035137061 1.1822
-0.035003249 0.035693478 1.1812667
-0.027954269 0.038307704 1.1810001
-0.304288 0.042876892 1.1814001
-0.29921421 0.041413732 1.1810001
-0.050903648 0.041554 1.1850001
-0.044563681 0.043973379 1.187476
-0.034258761 0.044638854 1.1840397
-0.024848241 0.04451976 1.181
-0.017462792 0.045071948 1.181
-0.30153826 0.054405492 1.1820002
-0.29731011 0.056632083 1.1816669
-0.041068852 0.053577136 1.189
-0.033447072 0.054395616 1.1881109
-0.024794249 0.054427024 1.1871176
-0.01668255 0.055521935 1.185421
-0.30124107 0.062541395 1.189
-0.29658625 0.063059218 1.1856667
-0.021889489 0.061499044 1.189
-0.015635351 0.061499048 1.189
-0.31216258 0.10475378 1.1830001
-0.3085323 0.10664037 1.1810001
-0.30655032 0.11515192 1.1833335
-0.29921421 0.11906448 1.1810001
-0.30459952 0.12467661 1.1866841
-0.29535475 0.12620093 1.1827143
-0.2888608 0.12734723 1.1810001
-0.011916092 0.12797448 1.1820002
-0.0093338694 0.12860173 1.1830001
-0.30124107 0.13133693 1.189
-0.29711109 0.13193394 1.1850001
-0.022432439 0.13908112 1.1810001
-0.015007423 0.1355221 1.1836667
-0.008686305 0.13237929 1.189
-0.30749959 0.14855555 1.1850001
-0.030024957 0.14805409 1.1810001
-0.023841588 0.14578862 1.1824545
-0.017700776 0.14349262 1.1878002
-0.31123474 0.15467854 1.1842
-0.30495456 0.15483415 1.1831816
-0.29817888 0.15737218 1.1810001
-0.041114207 0.15789615 1.1823335
-0.033895247 0.15554062 1.1836667
-0.026238732 0.15294163 1.1867778
-0.31222996 0.16373216 1.1810001
-0.30550054 0.16491418 1.1854798
-0.2952289 0.16566116 1.1840588
-0.2884967 0.16826127 1.1823335
-0.043220107 0.16195057 1.1880001
-0.037524842 0.16156529 1.189
-0.31112725 0.17112094 1.1830001
-0.30853844 0.17141025 1.1850001
-0.29343292 0.17362969 1.1883334
-0.28563079 0.17461976 1.1842002
-0.2775974 0.17803609 1.1830001
-0.050731823 0.1791144 1.1810001
-0.28268713 0.18303782 1.189
-0.27497071 0.18533187 1.1843334
-0.26391146 0.18782027 1.1836667
-0.25572979 0.18946783 1.1810001
-0.052311074 0.18509451 1.1832858
-0.048661135 0.18118508 1.1810001
-0.27338982 0.19111201 1.1880001
-0.26484925 0.19411382 1.1866
-0.25540739 0.19477332 1.1828823
-0.24951774 0.19775057 1.1810001
-0.057136748 0.19010955 1.1850001
-0.26163152 0.20117484 1.189
-0.25414041 0.20417966 1.1873157
-0.24466501 0.20761934 1.1832858
-0.23916431 0.20810401 1.1810001
-0.25120795 0.2115984 1.189
-0.24495573 0.2131694 1.1871819
-0.23509963 0.21486574 1.184
-0.22674017 0.2168009 1.1810001
-0.061085258 0.21845745 1.1810001
-0.05901457 0.21845745 1.1810001
-0.23105572 0.22271687 1.189
-0.22400595 0.22363013 1.1864547
-0.21614681 0.22742876 1.1861429
-0.20810401 0.22881088 1.1810001
-0.072128922 0.22812064 1.1810001
-0.065092303 0.22547537 1.1843846
-0.05921445 0.2223174 1.1850001
-0.21507293 0.23198229 1.189
-0.20497335 0.23538883 1.1868463
-0.19553086 0.23720917 1.1826
-0.18843248 0.23916431 1.1810001
-0.081792124 0.23812896 1.1810001
-0.075663969 0.23531072 1.1839998
-0.069064677 0.23287977 1.1876668
-0.20117484 0.24078439 1.189
-0.19397761 0.24318603 1.1880001
-0.18481825 0.24560496 1.1859231
-0.17483611 0.24594428 1.1864547
-0.16568854 0.24800579 1.1836668
-0.15840752 0.24951774 1.1810001
-0.083150089 0.24565341 1.1856668
-0.076871917 0.2418718 1.1882
-0.18137005 0.25120795 1.189
-0.17466919 0.25210139 1.189
-0.16564354 0.25297749 1.1883334
-0.1542698 0.2540023 1.1850001
-0.14473078 0.25592026 1.1852857
-0.13551548 0.25673273 1.1818
-0.12498073 0.25809628 1.1810001
-0.11581055 0.25839213 1.1810001
-0.10456967 0.25780049 1.1810001
-0.093360774 0.25653267 1.1820911
-0.085762843 0.25438815 1.1863334
-0.13403796 0.26316592 1.1878573
-0.12533265 0.26256526 1.185889
-0.11548927 0.26323423 1.1868182
-0.10499327 0.26092738 1.1858001
-0.094507001 0.26197895 1.189
-0.087557957 0.26163152 1.189
-0.18154101 -0.080801487 1.197
-0.17314605 -0.081640981 1.197
-0.16329408 -0.083346121 1.194
-0.1548831 -0.084112339 1.1937501
-0.14481306 -0.080801487 1.197
-0.13828716 -0.080666482 1.1950001
-0.20185162 -0.070072845 1.1930001
-0.19544524 -0.072945587 1.1943334
-0.18554597 -0.074450493 1.1944002
-0.175188 -0.076690055 1.1933076
-0.16449937 -0.076497436 1.193
-0.15446322 -0.076549388 1.1936153
-0.14559053 -0.076544248 1.1933333
-0.1347097 -0.077688217 1.1934999
-0.12448668 -0.072868906 1.1947143
-0.11698502 -0.071589477 1.1950001
-0.21021853 -0.06379766 1.1930001
-0.20268831 -0.065471038 1.1930001
-0.19673851 -0.066819042 1.193
-0.12132014 -0.067981116 1.1930001
-0.11818255 -0.067981116 1.1930001
-0.011504496 -0.025100719 1.1930001
-0.0094443299 -0.026234251 1.197
-0.01466488 -0.019904716 1.1950001
-0.044972122 0.049155578 1.1930001
-0.043926261 0.052293167 1.1930001
-0.03692257 0.057551034 1.1935713
-0.026146583 0.059614211 1.1930001
-0.034108084 0.064721569 1.1950002
-0.025339115 0.065127268 1.1943334
-0.017336277 0.065499753 1.1943333
-0.032530472 0.070307791 1.197
-0.02443533 0.071507074 1.1969999
-0.019938029 0.07240653 1.197
-0.31062141 0.12864119 1.1930001
-0.30643797 0.13073291 1.1930001
-0.011504496 0.13909982 1.1930001
-0.0081738643 0.13644703 1.1954
-0.014367372 0.1460765 1.194091
-0.02346774 0.15620808 1.1935713
-0.017434748 0.15368962 1.1955456
-0.043861009 0.16631305 1.1952858
-0.034092553 0.16433825 1.195154
-0.026903441 0.16177392 1.1956667
-0.30448526 0.17341606 1.1947144
-0.29596266 0.17694844 1.1943334
-0.29207465 0.18363975 1.197
-0.28654954 0.18608074 1.1938
-0.2831727 0.19297713 1.1963333
-0.27501261 0.19563097 1.1945999
-0.26669514 0.1997599 1.1930001
-0.057522487 0.19278747 1.1930001
-0.27178684 0.20042966 1.197
-0.26443815 0.20501544 1.1948183
-0.25832823 0.2081268 1.1930001
-0.26129314 0.21197274 1.197
-0.25498989 0.21464993 1.1953334
-0.24591523 0.21801035 1.1936666
-0.24366371 0.22225657 1.197
-0.2354731 0.22465359 1.1946666
-0.22767647 0.22851455 1.1946001
-0.061809383 0.22838219 1.1950001
-0.058666535 0.22838219 1.1950001
-0.22376129 0.23345479 1.1955001
-0.21468446 0.2370722 1.1933999
-0.2081268 0.2395027 1.1930001
-0.070072845 0.23845685 1.1930001
-0.065544181 0.23435998 1.1952223
-0.058764718 0.23191077 1.197
-0.21407148 0.24135511 1.197
-0.20407398 0.24472642 1.1949999
-0.19557644 0.24740478 1.193
-0.18442057 0.24926408 1.1930001
-0.17779677 0.24996133 1.1930001
-0.080531478 0.24996133 1.1930001
-0.073823221 0.24608779 1.1945003
-0.068209052 0.24240446 1.197
-0.19553261 0.251499 1.197
-0.1849978 0.25438654 1.1952223
-0.17525309 0.25731209 1.1944546
-0.16463974 0.25812396 1.1936668
-0.1568795 0.25832823 1.1930001
-0.081318729 0.25617543 1.1943334
-0.077653378 0.25394753 1.197
-0.17629416 0.26129314 1.197
-0.16475108 0.26129314 1.197
-0.15381131 0.26194313 1.1958572
-0.14535941 0.26328492 1.1946001
-0.13628338 0.26755896 1.1947778
-0.12524214 0.26800248 1.193
-0.11380649 0.26844674 1.1941429
-0.10550796 0.26699483 1.1950001
-0.095135398 0.26704121 1.1945385
-0.086084977 0.26454136 1.1946
-0.13276258 0.2724447 1.1962001
-0.12487502 0.27283618 1.1970001
-0.11700475 0.27231151 1.197
-0.22519638 -0.087752581 1.2060001
-0.19185734 -0.082023852 1.2046667
-0.1839752 -0.083207309 1.2041818
-0.17505875 -0.085315801 1.2044001
-0.16782379 -0.086553305 1.2040001
-0.15152973 -0.085354023 1.202
-0.14405757 -0.084510475 1.2033334
-0.13488042 -0.083246514 1.202
-0.19494438 -0.078609996 1.202
-0.18862185 -0.079031497 1.202
-0.13004299 -0.079294503 1.2060001
-0.1262365 -0.077644609 1.205
-0.011610573 -0.021108381 1.204
-0.0095153395 -0.02325972 1.2060001
-0.015136528 -0.017248709 1.2046667
-0.038988873 0.066386461 1.202
-0.033531096 0.074024677 1.2028
-0.02472876 0.076602384 1.2040001
-0.017913807 0.070601471 1.202
-0.02079278 0.082113862 1.2060001
-0.011591286 0.14857922 1.202
-0.0075799781 0.14462817 1.2041819
-0.013984147 0.15595154 1.204
-0.0095153395 0.15118818 1.2060001
-0.043203887 0.16965429 1.202
-0.035300739 0.1691274 1.202
-0.023970824 0.16416986 1.2037144
-0.017973419 0.16176078 1.2060001
-0.30558845 0.17808431 1.202
-0.0440525 0.17233337 1.2060001
-0.30314708 0.18182842 1.2048572
-0.2962895 0.18549672 1.2036
-0.29305151 0.19372523 1.2053334
-0.28625301 0.19663547 1.2026666
-0.27924463 0.19915938 1.202
-0.055848926 0.19494437 1.202
-0.28360999 0.20325823 1.2060002
-0.27497515 0.20533486 1.2036
-0.2680046 0.2089944 1.202
-0.27322716 0.21194538 1.2052
-0.2653484 0.21569845 1.2033333
-0.25816956 0.21812694 1.202
-0.2639626 0.22167218 1.2060001
-0.25432062 0.22504091 1.2043999
-0.24579746 0.2266344 1.2033333
-0.23920201 0.22866447 1.202
-0.24211253 0.23153993 1.2060001
-0.23518863 0.23413391 1.2045716
-0.22658269 0.23819382 1.2040001
-0.062009703 0.23775417 1.2040001
-0.058149301 0.23682624 1.2060001
-0.22023444 0.24130951 1.202
-0.21426961 0.24624032 1.2055001
-0.20828022 0.24845611 1.2060001
-0.065104477 0.24476767 1.2043334
-0.21039474 0.25057063 1.2060001
-0.20413652 0.25343788 1.2051111
-0.19578163 0.25684783 1.2041539
-0.1875681 0.25816956 1.202
-0.07335683 0.25543496 1.2040001
-0.068017058 0.25268513 1.2060001
-0.19136406 0.26114321 1.2060001
-0.18504927 0.26257426 1.2048001
-0.17425346 0.26461133 1.2046666
-0.16477628 0.26617956 1.2048572
-0.1556434 0.26749906 1.2036666
-0.14541796 0.2687071 1.202
-0.082680196 0.26669195 1.2040001
-0.078700118 0.26251256 1.205
-0.14348193 0.27364939 1.2052002
-0.13631159 0.27552363 1.2029999
-0.12539664 0.27713713 1.202
-0.11407363 0.27602294 1.2038182
-0.10418428 0.27471289 1.2041539
-0.094995596 0.27443346 1.204
-0.087400161 0.2731255 1.2060002
-0.1321575 0.2801739 1.2060001
-0.12510909 0.2801739 1.2060001
-0.11841312 0.2801739 1.2060001
-0.2340358 -0.080149248 1.2190001
-0.22630526 -0.082422763 1.2181817
-0.18648277 -0.086346403 1.21
-0.17714804 -0.08804363 1.21
-0.1304743 -0.081679031 1.21
-0.12750065 -0.081814036 1.2120001
-0.23360834 -0.074164763 1.2190001
-0.22775954 -0.075838096 1.2184443
-0.12517047 -0.079557501 1.21
-0.2318985 -0.064119399 1.2190001
-0.22940497 -0.065544277 1.219
-0.0065161376 -0.021366874 1.21
-0.013351926 -0.014061441 1.2132223
-0.0053293006 -0.014911617 1.2153499
0.0019149907 -0.013399323 1.2132002
-0.013892537 -0.0096179098 1.2190001
-0.0010686567 -0.0096179098 1.2190001
0.0032059699 -0.0096179098 1.2190001
-0.032176588 0.078850321 1.21
-0.028640701 0.079557501 1.21
-0.030838503 0.085074365 1.2130001
-0.025363281 0.085252546 1.2117501
-0.025801003 0.091039732 1.2160001
-0.0053038332 0.14886092 1.21
-0.011668433 0.15805423 1.21
-0.0058633108 0.15531439 1.2165625
-0.022329075 0.16786675 1.2130001
-0.015161613 0.1651555 1.2153846
-0.0096179098 0.16136716 1.2190001
-0.31449276 0.17933005 1.2140001
-0.044802442 0.17626816 1.2136667
-0.03507771 0.17242649 1.2126001
-0.025618173 0.17187729 1.2177501
-0.31415424 0.18538119 1.2182857
-0.3057662 0.18693323 1.2121819
-0.050226863 0.18274029 1.2190001
-0.047020894 0.18060298 1.2190001
-0.31169152 0.19200198 1.2190001
-0.30419442 0.19384423 1.2167273
-0.29698834 0.19610566 1.2113334
-0.29402006 0.20431124 1.2155455
-0.28519982 0.20773143 1.2105001
-0.29259819 0.21223521 1.2190001
-0.28529552 0.21544123 1.2165625
-0.27646843 0.21569295 1.212
-0.28212535 0.22121193 1.2190001
-0.27380621 0.22396085 1.2184445
-0.26489174 0.22577524 1.2125
-0.25918067 0.22735767 1.21
-0.26417089 0.23213573 1.2180001
-0.25509357 0.23457542 1.2147273
-0.24526854 0.2357146 1.2111429
-0.23761174 0.23867249 1.21
-0.05563502 0.23848899 1.2126667
-0.24366425 0.2433589 1.2182857
-0.23438138 0.24450283 1.2145624
-0.22566491 0.24576658 1.2126365
-0.21674998 0.24857299 1.21
-0.061878055 0.24786581 1.21
-0.056547627 0.24511231 1.2136153
-0.22338957 0.25221151 1.2177501
-0.21461655 0.25505617 1.2139167
-0.20684949 0.25716016 1.21
-0.071071364 0.25988784 1.21
-0.064182259 0.25568181 1.2119412
-0.057034381 0.25411275 1.2173333
-0.21159402 0.26182088 1.2190001
-0.20426886 0.26461262 1.2161001
-0.19583912 0.2648232 1.2122728
-0.18593748 0.26775679 1.2120001
-0.17608726 0.26837397 1.21
-0.07486482 0.26575598 1.2125713
-0.066988073 0.26368862 1.21775
-0.1944955 0.27037013 1.2190001
-0.1848776 0.27208 1.2190001
-0.17428903 0.27336606 1.2152001
-0.16504113 0.27507266 1.212625
-0.15487775 0.27563938 1.2132307
-0.14654712 0.27716634 1.2113334
-0.1050159 0.27898163 1.21
-0.094408236 0.27898163 1.21
-0.08418981 0.27641958 1.2109231
-0.076849125 0.27421635 1.2164667
-0.16564178 0.2810567 1.2190001
-0.15495521 0.2810567 1.2190001
-0.14415661 0.28212363 1.2144001
-0.13530801 0.28444442 1.2135454
-0.12423681 0.28553012 1.2128462
-0.1146513 0.28529373 1.2129412
-0.10503046 0.28494135 1.2142779
-0.094852254 0.28563115 1.2156999
-0.084809534 0.28395537 1.2169167
-0.078011937 0.2810567 1.2190001
-0.12182686 0.29174328 1.2190001
-0.11577114 0.29174328 1.2190001
-0.23351717 -0.083628736 1.2229999
-0.22408214 -0.084700905 1.223
-0.24346206 -0.074002758 1.2233999
-0.2365582 -0.07534384 1.2229999
-0.25321639 -0.064514339 1.2265002
-0.24517386 -0.065593429 1.2265999
-0.23668003 -0.065670006 1.2229998
-0.25493377 -0.055934839 1.2270001
-0.24401163 -0.055521123 1.2270001
-0.23741575 -0.055934839 1.2270001
-0.24256359 -0.046791643 1.2270001
-0.23987441 -0.046253812 1.2270001
-0.01485994 -0.005547985 1.2253335
-0.0051920586 -0.0076984484 1.2256669
0.0048924815 -0.0063243709 1.2252223
-0.0021443267 0.15868017 1.223
0.0010721633 0.15653583 1.223
-0.011793797 0.16725749 1.223
-0.0067384588 0.16457926 1.2255455
0.00107567 0.16027483 1.2270001
-0.036155194 0.17683887 1.2250001
-0.023134358 0.17619589 1.2248182
-0.015489824 0.17485544 1.2247144
-0.31628817 0.18655643 1.223
-0.050391678 0.1897729 1.223
-0.045949314 0.18463077 1.2252223
-0.01613505 0.18178824 1.2270001
-0.0086053601 0.18178824 1.2270001
-0.31414387 0.19559322 1.2230002
-0.30813974 0.19749248 1.223
-0.052115202 0.1961831 1.2243334
-0.048405148 0.19362059 1.2270001
-0.31194431 0.20222595 1.2270001
-0.30435908 0.20392303 1.2253336
-0.2980614 0.20799968 1.223
-0.061113309 0.20049454 1.223
-0.056484919 0.2036972 1.2263848
-0.30011192 0.21405832 1.2270001
-0.29494202 0.2168626 1.2233999
-0.29284611 0.22323386 1.2254002
-0.28542009 0.2260386 1.2252858
-0.27738395 0.22622646 1.2230002
-0.059161849 0.22911771 1.2270001
-0.28074986 0.23126905 1.2270001
-0.27420053 0.23300661 1.2248183
-0.26568738 0.23705506 1.2247778
-0.25731921 0.23909242 1.223
-0.056591168 0.23567079 1.2256669
-0.26246345 0.24202575 1.2270001
-0.25446931 0.2439404 1.2258002
-0.24632952 0.24659754 1.223
-0.23909242 0.24981405 1.223
-0.052707832 0.24417709 1.2270001
-0.24453564 0.25206533 1.2270001
-0.23453322 0.25512859 1.2248822
-0.22614427 0.25726244 1.224
-0.21979348 0.25839135 1.223
-0.054767996 0.25666434 1.2250001
-0.22302224 0.26282203 1.2270001
-0.21508199 0.26518819 1.2246668
-0.20835705 0.26839823 1.223
-0.063740917 0.26736745 1.2248183
-0.057232082 0.26386309 1.2260002
-0.20439768 0.27261856 1.2255001
-0.19489069 0.27509362 1.2252223
-0.18520996 0.2765635 1.2243334
-0.1760492 0.27897689 1.223
-0.072907105 0.27661812 1.223
-0.067139037 0.27393836 1.2262728
-0.18286391 0.28074986 1.2270001
-0.17380707 0.28310606 1.2263335
-0.16415964 0.28546068 1.2256668
-0.15525743 0.28485358 1.2244548
-0.14578462 0.28754252 1.2250001
-0.082020491 0.28787586 1.223
-0.07530196 0.28509757 1.2257693
-0.069918551 0.28074986 1.2270001
-0.14198844 0.29150656 1.2270001
-0.13429438 0.29222584 1.2255001
-0.12554401 0.29496267 1.2259091
-0.11492613 0.29576331 1.2251819
-0.10502765 0.29404047 1.225
-0.095083162 0.29408219 1.2247778
-0.086211227 0.29282242 1.2262002
-0.078523912 0.29150656 1.2270001
-0.2532725 -0.063183121 1.2320001
-0.26169157 -0.054065343 1.2335001
-0.25467408 -0.054823011 1.2322502
-0.24856654 -0.053848375 1.2320002
-0.23761174 -0.052922614 1.2320001
-0.26294389 -0.046593081 1.2360001
-0.2550734 -0.044514459 1.2356192
-0.24709222 -0.045482244 1.2320002
-0.26330507 -0.037924599 1.2360001
-0.011880587 -0.0032401599 1.2320001
-0.0059402934 -0.0027001332 1.2320002
0.0054090335 -0.00216186 1.2340002
0.011899874 -0.00216186 1.2340001
-0.013201198 0.0028144505 1.2344
-0.005235746 0.0027086076 1.2356668
0.0051770094 0.0020467243 1.2360001
0.013643739 0.0028165546 1.2352002
-0.0036770906 0.16686612 1.2344
0.0010835599 0.16361757 1.2360001
-0.032401599 0.1782088 1.2320001
-0.028081387 0.1782088 1.2320001
-0.011880587 0.17712875 1.2320001
-0.0072091226 0.17417027 1.2340001
-0.042159148 0.18702157 1.233143
-0.038603723 0.18220173 1.2346667
-0.025617369 0.18148167 1.2346667
-0.012600623 0.18108894 1.2320001
-0.0075743999 0.18075931 1.2346667
-0.044750679 0.19565797 1.2330668
-0.3135334 0.20745908 1.2346667
-0.30835521 0.20791027 1.2320001
-0.051996853 0.2062902 1.2320002
-0.046564389 0.20486999 1.2352729
-0.31206527 0.21237776 1.2360001
-0.3052963 0.2146479 1.2332308
-0.055430707 0.21466513 1.2341177
-0.048760198 0.2112942 1.2360001
-0.30014613 0.22212979 1.2360001
-0.29563564 0.2275362 1.233
-0.061762918 0.22646403 1.2360001
-0.055345312 0.22578166 1.2350589
-0.29286718 0.23115332 1.2350001
-0.28484827 0.23578362 1.2346668
-0.2775737 0.23761174 1.2320001
-0.053588416 0.23391195 1.2341334
-0.27450186 0.24235626 1.2360001
-0.26528057 0.24501653 1.234182
-0.25651267 0.2489523 1.2320001
-0.052922614 0.24517211 1.2320001
-0.26222152 0.25030234 1.2360001
-0.25391424 0.25319186 1.2360001
-0.2455944 0.25640097 1.2325716
-0.052124493 0.25543961 1.2336
-0.24232644 0.26071543 1.2340001
-0.234386 0.26321855 1.2333335
-0.22546595 0.26736972 1.2335001
-0.21817078 0.26893327 1.2320001
-0.05280716 0.26570767 1.2332308
-0.22212979 0.27197355 1.2360001
-0.21440361 0.27437863 1.2342857
-0.2059935 0.27732193 1.2328001
-0.19440959 0.27973381 1.2320001
-0.06396316 0.27805373 1.2320002
-0.055185817 0.27486795 1.2344002
-0.20208395 0.28118381 1.2360001
-0.19488563 0.28258038 1.2350001
-0.18503891 0.28531557 1.2343335
-0.17637631 0.28767389 1.2342857
-0.16956837 0.28837425 1.2320001
-0.070743494 0.28675416 1.2320001
-0.065497257 0.28505182 1.234154
-0.058512241 0.28172559 1.2360001
-0.17120248 0.29147765 1.2360001
-0.16355665 0.29224166 1.2335001
-0.15458274 0.29294926 1.2330668
-0.14587583 0.29468372 1.2325716
-0.13518339 0.29696837 1.2336
-0.12852634 0.29917479 1.2320001
-0.11124549 0.29917479 1.2320001
-0.10476518 0.29917479 1.2320001
-0.095044695 0.29917479 1.2320001
-0.084398448 0.29701468 1.2320002
-0.074982762 0.29399225 1.2336668
-0.13327788 0.30014613 1.2360001
-0.12470291 0.3023822 1.2333335
-0.11575051 0.30290693 1.2340002
-0.10603409 0.30293241 1.2360001
-0.094992094 0.30231324 1.2360001
-0.08451768 0.30068791 1.2360001
-0.079099879 0.30014613 1.2360001
-0.26291963 -0.043880384 1.2410001
-0.25349081 -0.040253904 1.2410001
-0.26085654 -0.038200751 1.245
-0.25585106 -0.037432205 1.2436668
-0.01200595 0.0087315999 1.245
-0.0054502366 0.0078500239 1.2433999
0.0054504704 0.0076310337 1.2431334
0.014819523 0.0080658598 1.243
-0.00109145 0.01200595 1.245
0.0021829 0.01200595 1.245
0.00109145 0.1680833 1.245
-0.0021767633 0.17801988 1.2420001
0.0010896967 0.17217031 1.243
-0.033322278 0.18556683 1.2422001
-0.027267313 0.18433793 1.2442
-0.036745321 0.19463156 1.2428182
-0.041150209 0.20706078 1.2418001
-0.037247688 0.20463215 1.2444285
-0.31184992 0.21818626 1.2423334
-0.051133335 0.21758866 1.2410001
-0.043834303 0.21591979 1.2432224
-0.0371093 0.21064985 1.245
-0.30451456 0.2248387 1.245
-0.051133335 0.22302838 1.2410001
-0.044256341 0.22502951 1.2429048
-0.29328328 0.23659332 1.2436666
-0.28830498 0.23825958 1.2410001
-0.043697834 0.23521188 1.2427779
-0.038200751 0.23138739 1.245
-0.29141715 0.24121045 1.245
-0.28450093 0.24308196 1.2434
-0.27449441 0.24780737 1.2425001
-0.268722 0.24913903 1.2410001
-0.045473885 0.24444532 1.2438236
-0.038200751 0.24121045 1.245
-0.27177104 0.25212494 1.245
-0.26505405 0.25436276 1.2442
-0.25585106 0.25767133 1.2436666
-0.047199104 0.25469908 1.2438571
-0.24647221 0.26337215 1.244
-0.23537797 0.26860934 1.243
-0.046013247 0.26562089 1.2437999
-0.23247884 0.2724987 1.245
-0.22512324 0.27525982 1.2432222
-0.21818626 0.27699831 1.2423334
-0.046104193 0.27445629 1.2423334
-0.21501565 0.2812303 1.245
-0.20550282 0.28519088 1.2432222
-0.1953672 0.2875444 1.2418889
-0.054756366 0.28606945 1.2424546
-0.04798435 0.28245851 1.244
-0.19427809 0.29141715 1.245
-0.18471892 0.29271638 1.2443333
-0.17449085 0.29445568 1.244
-0.16726932 0.29694322 1.243
-0.1555759 0.29918441 1.2410001
-0.14252059 0.29918441 1.2410001
-0.071804255 0.29918441 1.2410001
-0.065489441 0.29452896 1.2427778
-0.057782561 0.29110506 1.2436666
-0.16262604 0.30087638 1.245
-0.15425827 0.30305931 1.245
-0.14502433 0.30313173 1.2437999
-0.13533963 0.30511752 1.243
-0.12628146 0.30783239 1.2432858
-0.11430488 0.30808645 1.2418001
-0.10394169 0.30782428 1.2436668
-0.095528908 0.30656859 1.243
-0.084316634 0.30564371 1.2436668
-0.075648442 0.30412465 1.2434
-0.068761349 0.30124021 1.245
-0.12333384 0.31106326 1.245
-0.1156937 0.31106326 1.245
-0.26190415 -0.036162499 1.25
-0.25532916 -0.036162499 1.25
-0.014245833 0.008766667 1.25
-0.008766667 0.0098625002 1.25
-0.013183094 0.015383089 1.253
-0.0057230643 0.01554736 1.2523159
0.005844445 0.015706945 1.25
0.015352351 0.015355638 1.2509375
0.020848595 0.016462339 1.2516667
-0.012771657 0.024439588 1.2589999
-0.0046344688 0.023458725 1.2582
0.0055034677 0.025323639 1.2558005
0.01539558 0.025295341 1.2545004
0.020904116 0.022004332 1.2550001
0.0072845742 0.032449465 1.2590001
0.015661415 0.035077594 1.2582
0.022201583 0.034801535 1.2572858
-0.0011002166 0.17933531 1.2550001
0.0011002166 0.1782351 1.2550001
-0.026348215 0.18831019 1.2525001
-0.032772932 0.19586423 1.2521429
-0.028298507 0.1933161 1.2576667
-0.033374347 0.20531254 1.2524
-0.034597646 0.21514133 1.2516668
-0.029800531 0.21522602 1.2590001
-0.31393027 0.22588973 1.255375
-0.30714124 0.22706434 1.25125
-0.035312921 0.22491588 1.2527895
-0.029800531 0.22295211 1.2590001
-0.31088206 0.23141401 1.2590001
-0.30433837 0.23619346 1.2578
-0.29646891 0.23936725 1.2525001
-0.034843635 0.23580347 1.2538236
-0.30145937 0.24314788 1.2550001
-0.29503384 0.24514979 1.2552223
-0.28548869 0.24815436 1.2525001
-0.042189583 0.24820624 1.25
-0.034944754 0.24524353 1.2537333
-0.29248667 0.2505452 1.2590001
-0.28370267 0.2550261 1.2581111
-0.27600104 0.25600725 1.2533
-0.26519167 0.25861666 1.25
-0.042787395 0.25513631 1.2515385
-0.036557879 0.2547183 1.2568182
-0.27372339 0.26158243 1.2590001
-0.2647343 0.26373535 1.2568183
-0.25532845 0.26512542 1.2539091
-0.24652043 0.26847041 1.2520001
-0.042237081 0.26492956 1.253
-0.038630318 0.26489359 1.2590001
-0.25407711 0.27129519 1.2590001
-0.24461488 0.27381423 1.256875
-0.23635207 0.27588814 1.2526667
-0.2268375 0.27943751 1.25
-0.042384788 0.27571431 1.2541112
-0.038630318 0.27041221 1.2590001
-0.23435667 0.28289846 1.2584286
-0.22529565 0.28456956 1.2553571
-0.21521291 0.28658673 1.2525001
-0.20930417 0.28820416 1.25
-0.051504165 0.28820416 1.25
-0.044119608 0.28465784 1.2554545
-0.22295211 0.29027924 1.2590001
-0.21471784 0.29395407 1.2578572
-0.20514648 0.2948651 1.2540667
-0.19524615 0.29721007 1.2551111
-0.1854939 0.29700765 1.2520001
-0.17533332 0.29806668 1.25
-0.062024165 0.29740918 1.25
-0.054574169 0.29576588 1.2551
-0.048136741 0.29250613 1.2575001
-0.18449567 0.30173317 1.2576667
-0.17581154 0.30367514 1.2573334
-0.16582544 0.3055273 1.25475
-0.15589325 0.30818278 1.2535715
-0.14465001 0.30792916 1.25
-0.071959727 0.30719861 1.25
-0.06513609 0.30449113 1.2555455
-0.05739361 0.30131647 1.2590001
-0.16335106 0.31014624 1.2590001
-0.15341754 0.3123537 1.2590001
-0.14414215 0.31333157 1.2578572
-0.13497278 0.31426376 1.2546431
-0.12551236 0.31579772 1.2522223
-0.11509486 0.3164964 1.2547272
-0.10481038 0.31585202 1.2547144
-0.095191725 0.31370312 1.2542857
-0.085372701 0.31365901 1.2546923
-0.076554038 0.31300825 1.2535
-0.068430841 0.31124997 1.2590001
-0.12251329 0.3211835 1.2590001
