# .PCD v0.7 - Point Cloud Data file format
VERSION 0.7
FIELDS x y z
SIZE 4 4 4
TYPE F F F
COUNT 1 1 1
WIDTH 1485
HEIGHT 1
VIEWPOINT 0 0 0 1 0 0 0
POINTS 1485
DATA ascii
-0.14484544 -0.11468515 1.1254286
-0.13523635 -0.11549382 1.1259999
-0.1259723 -0.11482696 1.12525
-0.11535054 -0.11374778 1.1258126
-0.10567135 -0.1155321 1.1247498
-0.098055854 -0.11538301 1.123
-0.2018674 -0.10858393 1.126
-0.1940247 -0.10557422 1.1244998
-0.18457301 -0.10568418 1.1248748
-0.17501985 -0.1074345 1.1242859
-0.16476895 -0.10802612 1.123
-0.15456598 -0.10829463 1.123
-0.14436302 -0.10802614 1.123
-0.13596994 -0.10818524 1.123
-0.12503107 -0.10927913 1.123
-0.11448289 -0.10716949 1.123
-0.10607952 -0.10620259 1.123
-0.09943416 -0.10927913 1.123
-0.21560477 -0.095496178 1.123
-0.21954276 -0.089589193 1.123
-0.00295349 -0.081713222 1.123
-0.23726369 -0.077775232 1.123
-0.0068976134 -0.076858245 1.124
-0.25498465 -0.063992284 1.123
-0.28315756 -0.031961512 1.1242858
-0.27861255 -0.030519396 1.123
-0.28348747 -0.02453834 1.1252501
-0.27861255 -0.024612417 1.123
-0.040445238 -0.023673289 1.12525
-0.034870755 -0.023148486 1.1251177
-0.027565908 -0.021658927 1.123
-0.0075478074 -0.021330761 1.123
-0.28294396 -0.015258653 1.1257694
-0.27861255 -0.012798457 1.123
-0.040867046 -0.01520175 1.126
-0.035240423 -0.015300462 1.126
-0.025140697 -0.014491037 1.1244999
-0.013501669 -0.013361027 1.123
-0.0073837242 -0.015259701 1.123
-0.28242788 -0.0058130794 1.126
-0.27738354 -0.0040296381 1.1238183
-0.034302652 -0.0059227603 1.1260002
-0.023023749 -0.0082221106 1.1255001
-0.01523072 -0.0079988046 1.1250001
-0.0072336695 -0.0069037494 1.125
-0.27510837 0.0046985727 1.1247647
-0.031588051 0.00098712661 1.126
-0.27504146 0.011828424 1.1245
-0.29622331 0.035352334 1.1247143
-0.29274592 0.042808421 1.1251
-0.28752926 0.046991229 1.1245
-0.28450865 0.054309957 1.1244284
-0.27729991 0.057428971 1.123
-0.28292096 0.062683173 1.125182
-0.27762809 0.063598484 1.123
-0.0049266913 0.068002857 1.1242001
-0.27861255 0.071868256 1.123
-0.010829464 0.079744227 1.123
-0.0054219645 0.074576825 1.1248751
-0.28371182 0.088434331 1.1250001
-0.012811607 0.084903158 1.1242858
-0.0088841403 0.081931517 1.126
-0.28280765 0.093706407 1.1251429
-0.27650478 0.098740593 1.1247143
-0.030519396 0.09943416 1.123
-0.023750894 0.096173763 1.1246365
-0.017430909 0.093078174 1.1255
-0.27436313 0.10468977 1.1252501
-0.2681236 0.10776232 1.1236001
-0.031231835 0.103558 1.125
-0.028626673 0.10167404 1.126
-0.27145982 0.11154531 1.126
-0.26500547 0.11457082 1.1243848
-0.25793815 0.1191241 1.123
-0.26158857 0.12141658 1.126
-0.25397241 0.12342873 1.1243334
-0.24907765 0.12896906 1.123
-0.044360209 0.12667745 1.1245
-0.24395633 0.13272521 1.1248
-0.23623215 0.1370081 1.1243334
-0.23280738 0.14155866 1.12525
-0.22420777 0.14465058 1.125
-0.21622092 0.14787306 1.1245002
-0.046271343 0.14472102 1.123
-0.21065283 0.15339948 1.126
-0.2050622 0.15524748 1.1252501
-0.19591483 0.15811016 1.123
-0.054147318 0.15850396 1.123
-0.19419123 0.16279748 1.1254548
-0.1843479 0.16674471 1.1245
-0.17622492 0.16785668 1.123
-0.064923793 0.16696623 1.1240001
-0.055840336 0.16121076 1.1253999
-0.18196034 0.17208908 1.126
-0.17406009 0.17386346 1.12555
-0.16493811 0.175284 1.1238999
-0.15850396 0.1781939 1.123
-0.075699449 0.17496313 1.124091
-0.069005504 0.17054541 1.1245
-0.17077291 0.18064418 1.126
-0.16441143 0.18152159 1.126
-0.15484194 0.18245767 1.1250001
-0.14521027 0.18595012 1.1242502
-0.13613161 0.18774553 1.1236001
-0.081822366 0.18730554 1.1245
-0.079463698 0.18261842 1.126
-0.13457827 0.19084448 1.126
-0.12477908 0.19313923 1.1246667
-0.11530866 0.1947459 1.1242001
-0.10572928 0.19395943 1.1245
-0.095649242 0.19583507 1.1248001
-0.08524213 0.19414014 1.1241251
-0.20208919 -0.1426512 1.13
-0.19634353 -0.14205682 1.13
-0.2024194 -0.13901888 1.13
-0.1991173 -0.13769804 1.13
-0.17516747 -0.13142531 1.1339999
-0.16534093 -0.1332009 1.1361821
-0.15505497 -0.13234469 1.1376923
-0.14532386 -0.13102426 1.138
-0.13667759 -0.13069171 1.138
-0.12396197 -0.1330322 1.1335
-0.11472376 -0.13062999 1.1340001
-0.18378741 -0.12356514 1.1361177
-0.17557354 -0.1245994 1.1334002
-0.16554132 -0.12527497 1.1314003
-0.15499976 -0.12514213 1.1314734
-0.14525491 -0.12493289 1.1310002
-0.13608827 -0.1253151 1.13
-0.12516443 -0.12644061 1.1305715
-0.11549175 -0.12514287 1.1312726
-0.10814184 -0.12487014 1.1317142
-0.20208919 -0.11491346 1.13
-0.19339366 -0.11370269 1.13
-0.18553011 -0.11520895 1.1305711
-0.17595351 -0.1166415 1.1302859
-0.16873787 -0.11920621 1.13
-0.15486902 -0.11920621 1.13
-0.14661373 -0.11986663 1.13
-0.12303665 -0.11828162 1.13
-0.11612424 -0.11898606 1.13
-0.1991173 -0.10896967 1.13
-0.00198302 -0.080383316 1.132
0.00099414005 -0.080525339 1.1340001
-0.0037284628 -0.074215323 1.1344999
0.0016615755 -0.078056648 1.1366667
-0.28827429 -0.030709634 1.13
-0.29177177 -0.024085101 1.133
-0.28803408 -0.025286574 1.131
-0.29382581 -0.014938283 1.1361334
-0.28770822 -0.014010387 1.13
-0.031898394 -0.012878234 1.13
-0.028728366 -0.010896967 1.13
-0.29278845 -0.0057719732 1.1352
-0.2870189 -0.0042339815 1.1307273
-0.030709634 -0.0049531665 1.13
-0.025291832 -0.0039105802 1.1302104
-0.014622362 -0.0032213111 1.131
-0.0057575963 -0.0021821989 1.1324
-0.29231048 0.0049882336 1.1380001
-0.28499106 0.0048795273 1.1341907
-0.031370055 0.003632322 1.13
-0.024593366 0.0044343402 1.1345454
-0.014927388 0.0049806586 1.1354403
-0.006576987 0.0040547587 1.1364002
-0.28347567 0.012672341 1.1368572
-0.27836797 0.011887601 1.13
-0.016294897 0.01197176 1.138
-0.0084799975 0.014465876 1.138
-0.30029166 0.047887042 1.138
-0.2962147 0.045857999 1.131
-0.30029166 0.052875273 1.138
-0.29509434 0.054393221 1.1357501
-0.29466316 0.065715089 1.137273
-0.28613171 0.066082545 1.1306667
-0.29430577 0.070832916 1.138
-0.28548825 0.07162191 1.1346667
-0.0025784518 0.076784424 1.1316001
0.00099063327 0.074297503 1.13
-0.29227716 0.088478461 1.1340001
-0.28827429 0.084864259 1.13
-0.011557389 0.087505937 1.13
-0.005766246 0.084561974 1.1348
-0.29227787 0.094447508 1.1340001
-0.2867952 0.095403068 1.1312001
-0.020803301 0.0980727 1.13
-0.013707912 0.095194198 1.1334667
-0.0083137229 0.091450952 1.138
-0.29151234 0.10195949 1.138
-0.28446278 0.10419371 1.1348
-0.27638671 0.10929988 1.13
-0.031406291 0.10744601 1.1313334
-0.024610434 0.10414884 1.1325263
-0.017171269 0.10228508 1.1355
-0.2810038 0.11273407 1.138
-0.27492344 0.11490821 1.1343637
-0.26648036 0.11854579 1.13
-0.03280662 0.11034954 1.1340001
-0.028931754 0.11073878 1.138
-0.27036226 0.12171289 1.138
-0.26399264 0.12411271 1.1351429
-0.25788134 0.12665343 1.1340001
-0.044578504 0.12977296 1.13
-0.25639519 0.13069171 1.138
-0.24307074 0.13868077 1.1340001
-0.0447363 0.13222063 1.1340001
-0.24290307 0.14410472 1.1371111
-0.23561063 0.14583538 1.1340001
-0.22532307 0.1482303 1.131
-0.23295048 0.15114346 1.138
-0.22425982 0.15454109 1.1361539
-0.21565564 0.1552956 1.1309999
-0.20704237 0.15949197 1.13
-0.22147755 0.16062111 1.138
-0.21437639 0.16334166 1.1354545
-0.20523462 0.16459915 1.1321052
-0.19588608 0.16775942 1.131091
-0.061160356 0.16893776 1.1313334
-0.055888452 0.16622573 1.1329091
-0.20285481 0.17126268 1.138
-0.19416493 0.17390658 1.1347274
-0.18562564 0.17570679 1.1314286
-0.17771962 0.17851213 1.13
-0.071959719 0.17731401 1.1313334
-0.065458126 0.17489535 1.1348
-0.058861151 0.17259288 1.138
-0.18438028 0.182386 1.1368572
-0.17536187 0.18430212 1.1328571
-0.16513449 0.18662624 1.1313334
-0.15552942 0.18822035 1.13
-0.14859501 0.18921097 1.13
-0.0802413 0.18722969 1.13
-0.075051248 0.1853134 1.1335789
-0.067839973 0.18157169 1.138
-0.16404171 0.19284321 1.1365454
-0.1546475 0.1943437 1.1359999
-0.14481071 0.19412753 1.1340001
-0.13520873 0.19475895 1.132
-0.12534492 0.19807014 1.1325001
-0.11623431 0.19878709 1.13
-0.10472421 0.19853711 1.1318182
-0.094378076 0.19968116 1.1332
-0.082767718 0.19658819 1.1312308
-0.077169858 0.19409147 1.1366668
-0.12293848 0.2026366 1.1364
-0.11452774 0.20316395 1.1359999
-0.10536043 0.20300359 1.1365
-0.094280817 0.2024989 1.136
-0.085814096 0.20249422 1.1356
-0.16233061 -0.14128622 1.1430001
-0.15597992 -0.14168224 1.1415714
-0.14378121 -0.14026973 1.1470001
-0.16404538 -0.13903846 1.141
-0.15467915 -0.13776536 1.1409999
-0.14473465 -0.13638461 1.143889
-0.13520531 -0.13439949 1.1458
-0.12948805 -0.13551074 1.1450001
-0.1171814 -0.1346411 1.149
0.0055957632 -0.07339929 1.1447144
0.01108019 -0.072524875 1.149
-0.0020075666 -0.069261052 1.1450001
0.0040282831 -0.069442518 1.1480001
-0.025006916 0.00900249 1.141
-0.0040011066 0.00900249 1.141
-0.022766832 0.014590228 1.1443847
-0.014681228 0.016453847 1.1433532
-0.0066018263 0.012603486 1.141
-0.022160381 0.022160381 1.149
-0.015459089 0.024107045 1.1485295
-0.0090340497 0.022083234 1.1450001
-0.01309477 0.031225991 1.149
-0.29508162 0.059016325 1.141
-0.29481235 0.064576648 1.1432858
-0.29359362 0.074820578 1.1430001
-0.28732944 0.076771237 1.1409999
0.0030174865 0.078866251 1.146
-0.0010002767 0.08702407 1.141
0.003842327 0.085895345 1.1447649
-0.0041377572 0.09571895 1.1447501
0.0023491743 0.092898905 1.1476668
-0.29348412 0.10770792 1.1455001
-0.28807968 0.10802988 1.141
-0.022006087 0.10903016 1.141
-0.013870767 0.10681205 1.1440001
-0.0083835637 0.10228742 1.1476668
-0.2931214 0.11281648 1.149
-0.28521684 0.11371731 1.1450001
-0.27804798 0.11945022 1.1450001
-0.024572091 0.11279356 1.1472857
-0.016304772 0.11213426 1.1482
-0.27431998 0.12572299 1.1472502
-0.26605225 0.12785161 1.1423334
-0.27196831 0.13195498 1.149
-0.26494986 0.1333829 1.1474001
-0.2549547 0.13539435 1.1453078
-0.24869309 0.13786723 1.1423334
-0.045172006 0.1360144 1.1450001
-0.25241628 0.14483523 1.1484287
-0.24700214 0.1457945 1.143
-0.24448898 0.15326734 1.1476667
-0.23556645 0.15555254 1.1447334
-0.22802365 0.15795517 1.1418002
-0.23419493 0.16167004 1.149
-0.2252329 0.16326737 1.1441112
-0.21689814 0.16777237 1.1436667
-0.05101411 0.16904676 1.141
-0.049013555 0.16904676 1.141
-0.21296309 0.17271823 1.1476668
-0.20564361 0.17518933 1.1442728
-0.1962094 0.17874594 1.1427143
-0.061755031 0.17859189 1.1423334
-0.055050418 0.17504491 1.1450001
-0.049185384 0.17164695 1.1450001
-0.20145801 0.1813122 1.149
-0.19434322 0.18392824 1.1464547
-0.186042 0.18664497 1.1434
-0.17536226 0.18938366 1.1430001
-0.064572304 0.18582968 1.1442502
-0.058052573 0.18254946 1.1483334
-0.1903778 0.1903778 1.149
-0.18433407 0.19118366 1.149
-0.1734187 0.19284035 1.1456667
-0.16510841 0.19760856 1.1442001
-0.15504289 0.19905506 1.141
-0.14604039 0.19905506 1.141
-0.13519515 0.19928767 1.1423334
-0.072396234 0.19614957 1.143
-0.066716678 0.19328672 1.1473335
-0.16418827 0.2004507 1.149
-0.15438037 0.20263812 1.1467143
-0.14454392 0.20361005 1.147182
-0.13505788 0.20457156 1.1461767
-0.12595415 0.20648256 1.1437694
-0.11515631 0.2082767 1.1422
-0.10486487 0.20818385 1.1431819
-0.09571965 0.20787027 1.1437694
-0.085364677 0.20764972 1.1433333
-0.075928979 0.20411578 1.146143
-0.069503009 0.2004507 1.149
-0.12591125 0.21132943 1.149
-0.11530329 0.21367802 1.1470002
-0.10603102 0.21384333 1.1468463
-0.095594004 0.21332352 1.1478001
-0.08533185 0.21253817 1.149
-0.078568622 0.21052361 1.149
-0.13745695 -0.13705403 1.1545999
0.014151153 -0.071766563 1.153
-0.0020250999 -0.066826552 1.155
0.0061852727 -0.067350119 1.1543334
0.013577987 -0.067885742 1.1557999
-0.02122673 0.026280712 1.153
-0.014403852 0.027544208 1.153
-0.0090971701 0.027291508 1.153
-0.015030718 0.033411317 1.1548461
-0.0091129504 0.034430206 1.155
-0.014200247 0.043615043 1.1570001
-0.0091287298 0.04564365 1.1570001
0.0077494406 0.085243851 1.153
0.0062184473 0.095857345 1.1544285
-0.0047691921 0.10421676 1.1541427
0.0020286066 0.10041603 1.1570001
-0.30072734 0.11340735 1.155
-0.29526049 0.11551311 1.1558001
-0.2868107 0.11786038 1.154
-0.033435773 0.1165128 1.1556667
-0.025006041 0.11624074 1.1563333
-0.015181675 0.11436949 1.1545
-0.0091287298 0.11055906 1.1570001
-0.2846207 0.12305226 1.1562001
-0.27931681 0.1276973 1.153
-0.28163823 0.13287373 1.1570001
-0.27598897 0.13519689 1.1548666
-0.26583955 0.13735601 1.153
-0.25977474 0.13847914 1.153
-0.27203614 0.14220533 1.1570001
-0.26468793 0.14406648 1.1562499
-0.25758466 0.14437546 1.153
-0.046465963 0.1434541 1.1558571
-0.2537981 0.15356995 1.1559089
-0.24690151 0.15704094 1.1535714
-0.24372956 0.16265631 1.1559999
-0.23559873 0.16490276 1.1553999
-0.22708979 0.16834576 1.1554
-0.23024686 0.17141727 1.1570001
-0.22461182 0.17254426 1.1570001
-0.21526742 0.17638901 1.155
-0.20923491 0.17891102 1.153
-0.052284107 0.17844404 1.1543332
-0.049700864 0.17648879 1.1570001
-0.21198939 0.18156029 1.1570001
-0.20476347 0.1845078 1.1553332
-0.19792135 0.1886024 1.1554
-0.056276739 0.18604252 1.1545999
-0.1949161 0.19288835 1.1565001
-0.18544249 0.19557723 1.1559091
-0.17543104 0.19748603 1.1552222
-0.064202301 0.19665943 1.1543334
-0.059098732 0.19215862 1.1556667
-0.17141727 0.20184636 1.1570001
-0.16510281 0.2031887 1.1554
-0.15424277 0.20689888 1.155
-0.14555624 0.20883889 1.155
-0.13847914 0.20923491 1.153
-0.073155791 0.20800817 1.1536666
-0.069358803 0.2045351 1.155
-0.14403108 0.21198939 1.1570001
-0.13450593 0.2133154 1.1551818
-0.12497049 0.21585785 1.1547778
-0.11422002 0.21853423 1.153
-0.10411207 0.21812992 1.153
-0.094066508 0.21747208 1.1537999
-0.08469779 0.21653248 1.1547778
-0.075971499 0.21323425 1.1554999
-0.1207021 0.22010382 1.1570001
-0.11664488 0.22010382 1.1570001
-0.10244464 0.22010382 1.1570001
-0.094330207 0.22010382 1.1570001
-0.088244386 0.22010382 1.1570001
-0.22319712 -0.12493815 1.1674615
-0.21574385 -0.12542118 1.1663332
-0.22170345 -0.11614665 1.169
-0.21586508 -0.11524605 1.1689999
-0.0024793388 -0.062238194 1.1638572
0.0047358046 -0.062651396 1.1626469
0.015850911 -0.062947392 1.1623336
0.021423103 -0.062226672 1.1636667
-0.00102307 -0.057290167 1.1670001
0.0051167528 -0.057330143 1.1677998
0.014916874 -0.05750398 1.169
0.022546113 -0.057390105 1.169
-0.013827163 0.038568448 1.1621429
-0.0081424797 0.039694589 1.161
-0.012440426 0.043042056 1.1634001
-0.0079438267 0.043387461 1.1618
0.01119591 0.098727569 1.161
-0.0026477086 0.10824011 1.1626
0.0047669238 0.10474677 1.165
0.011943415 0.10270822 1.1676668
-0.30025396 0.11908377 1.161
-0.29618272 0.11908377 1.161
-0.032230649 0.11840523 1.161
-0.025445249 0.11908378 1.161
-0.014423797 0.118154 1.1632859
-0.0057396712 0.11383279 1.1665384
0.0020496466 0.11170574 1.169
-0.30252591 0.12351024 1.1682001
-0.29484171 0.1243762 1.1652501
-0.28768286 0.12751962 1.1636667
-0.034487996 0.12468296 1.165
-0.026393805 0.12297442 1.1670001
-0.017421996 0.12195398 1.169
-0.29166472 0.13179228 1.169
-0.28495982 0.13571852 1.164
-0.27989775 0.13943997 1.161
-0.043837719 0.1381482 1.163
-0.039968111 0.1363015 1.169
-0.27633789 0.14480671 1.164111
-0.2666662 0.14860027 1.161
-0.04328366 0.1421255 1.1663333
-0.27260301 0.15064903 1.169
-0.26457563 0.15450083 1.165923
-0.25629669 0.15717261 1.1616668
-0.25399199 0.1646684 1.1666666
-0.24611977 0.16662803 1.1625
-0.23613192 0.16895646 1.161
-0.25108171 0.1711455 1.169
-0.24337196 0.17132118 1.1674001
-0.23457599 0.17450297 1.1654
-0.2250149 0.17716032 1.1614001
-0.21882915 0.17811675 1.161
-0.048001882 0.17873041 1.1650001
-0.23058525 0.18139373 1.169
-0.2239494 0.18267769 1.1653999
-0.21537797 0.18478157 1.1635715
-0.20821214 0.18783255 1.1623334
-0.051759277 0.18609208 1.1627778
-0.048607033 0.18436638 1.1655715
-0.21077199 0.19232517 1.169
-0.20426543 0.19405226 1.1650001
-0.19568379 0.19749402 1.1618891
-0.18829484 0.19847295 1.161
-0.17811675 0.19847295 1.161
-0.060798291 0.19802232 1.1623334
-0.054060616 0.19541214 1.1658001
-0.048166696 0.19164196 1.169
-0.19392394 0.20245826 1.1683334
-0.18490157 0.20329276 1.1652666
-0.17520715 0.20524026 1.1656153
-0.16570315 0.20754792 1.1643333
-0.15776055 0.20865105 1.161
-0.064324483 0.20483008 1.1647334
-0.057665084 0.20234315 1.1676668
-0.17217031 0.21008877 1.169
-0.16488644 0.21117339 1.1682001
-0.15421882 0.21382977 1.165
-0.14543033 0.21593362 1.1636668
-0.13579378 0.21817215 1.1621429
-0.12722625 0.21882915 1.161
-0.080406986 0.21882915 1.161
-0.073215835 0.21659642 1.1626667
-0.067940794 0.21406591 1.1683334
-0.14204052 0.22115688 1.169
-0.13383485 0.22294305 1.1683334
-0.12578377 0.22318654 1.1646
-0.1148993 0.22520383 1.1650001
-0.10519562 0.22571567 1.1650001
-0.095105551 0.22551425 1.1647142
-0.084768116 0.22469433 1.1650002
-0.07482601 0.2234682 1.1669999
-0.23137425 -0.12031461 1.1730001
-0.22667332 -0.12148984 1.1730002
-0.21821162 -0.12237127 1.1730001
-0.23293307 -0.11444134 1.176077
-0.22554705 -0.1140304 1.1730002
-0.21903428 -0.11414462 1.1730001
-0.2311314 -0.1042155 1.177
-0.22553214 -0.10541957 1.1737275
-0.2311314 -0.09802448 1.177
0.0056084264 -0.05368755 1.1752223
0.015828853 -0.053851798 1.1751819
0.022479311 -0.054236036 1.1762002
0.0082266396 0.10797465 1.1730001
0.012888315 0.1067048 1.1760001
-0.0030855741 0.11729682 1.1736668
0.0047418899 0.1131817 1.1758001
-0.3030166 0.12800181 1.1743335
-0.29924402 0.12854125 1.1730001
-0.031878229 0.12854125 1.1730001
-0.026124081 0.12718795 1.1763334
-0.016131544 0.12285548 1.1743335
-0.0072123371 0.12058812 1.1756667
-0.30170989 0.13177966 1.1762002
-0.29492205 0.13356772 1.1738001
-0.28896073 0.13882455 1.1730001
-0.04010487 0.13539679 1.1730001
-0.036415562 0.13433133 1.1756668
-0.28303009 0.14563581 1.174
-0.27867743 0.14910784 1.1730001
-0.041676495 0.14620227 1.175182
-0.038177956 0.1434253 1.177
-0.27475327 0.15436901 1.1747779
-0.26810879 0.15798454 1.174
-0.044368971 0.15236789 1.177
-0.26273713 0.16382308 1.1752859
-0.25742528 0.1676178 1.1730001
-0.25469041 0.17261234 1.1762002
-0.24568479 0.17519766 1.1747779
-0.23754422 0.17790109 1.1730001
-0.04833151 0.17790109 1.1730001
-0.2336188 0.1838028 1.1756668
-0.22577059 0.18749006 1.1738001
-0.046432648 0.18676244 1.177
-0.22334504 0.19158551 1.1762002
-0.21586169 0.1942984 1.1751335
-0.20830274 0.19800772 1.1743335
-0.050388169 0.19846769 1.1730001
-0.047144722 0.19553985 1.1755002
-0.20395929 0.20320821 1.1755456
-0.19523787 0.20738971 1.1746001
-0.18509939 0.20875099 1.1730001
-0.17995775 0.20875099 1.1730001
-0.0616998 0.20875099 1.1730001
-0.05378155 0.20609468 1.1747779
-0.048455119 0.20413271 1.1760001
-0.19295345 0.21152651 1.177
-0.18454272 0.21237864 1.1760001
-0.17505611 0.2138918 1.175154
-0.16525429 0.2160058 1.1748183
-0.1570823 0.21847321 1.1736668
-0.063686989 0.21530978 1.1751179
-0.055375233 0.21187045 1.177
-0.15391462 0.22228146 1.1756667
-0.14612679 0.22394596 1.174778
-0.13565737 0.2267803 1.1745002
-0.12442793 0.22849493 1.1730001
-0.11722962 0.22931759 1.1730001
-0.093578026 0.22931759 1.1730001
-0.081238069 0.22931759 1.1730001
-0.075068086 0.22828926 1.1730001
-0.067726664 0.22378691 1.1750002
-0.1320751 0.23009957 1.177
-0.12402676 0.23133779 1.177
-0.11393896 0.23366667 1.1757693
-0.10486585 0.23359294 1.1746668
-0.095579676 0.23264125 1.1755
-0.085413143 0.23308045 1.177
-0.075736806 0.23216324 1.177
-0.23766978 -0.11168505 1.1818001
-0.25120795 -0.1011086 1.189
-0.24495383 -0.10319331 1.189
-0.23736365 -0.10468774 1.1823332
-0.25078541 -0.097818464 1.187
-0.24458593 -0.09546762 1.1889999
-0.23575042 -0.095636442 1.1846366
-0.0010370966 -0.051853079 1.1830001
0.0044870726 -0.051105577 1.1816669
0.015530151 -0.050731827 1.1810001
0.025538469 -0.051422048 1.1810001
-0.0010423567 -0.04690605 1.189
0.0054667792 -0.045068175 1.1860433
0.015563253 -0.044611499 1.1835599
0.024912234 -0.044628635 1.1839999
0.030439034 -0.043924212 1.1836667
0.0077134394 -0.037733313 1.189
0.016102681 -0.036773268 1.1880771
0.025257101 -0.036161758 1.189
0.032270707 -0.034990937 1.1874617
0.0145439 0.10907925 1.1850001
0.0059624296 0.11688355 1.1825001
0.01244516 0.11200819 1.1830001
-0.31113556 0.12829797 1.1850001
-0.3080177 0.12859823 1.1830001
-0.023147216 0.12887378 1.1823335
-0.014989123 0.12629648 1.1850001
-0.0050088749 0.12404266 1.1853637
0.0020812065 0.12279294 1.187
-0.31124139 0.13452047 1.1858001
-0.3051624 0.1361282 1.1853335
-0.29584211 0.13781726 1.182
-0.031994473 0.13567591 1.1849999
-0.026058916 0.13133693 1.189
-0.018762421 0.13029458 1.189
-0.30313632 0.14375044 1.189
-0.29500395 0.1451907 1.1876665
-0.28737432 0.14628008 1.1834
-0.034017079 0.14426854 1.1849999
-0.29185987 0.15114172 1.189
-0.28470102 0.15483436 1.1866667
-0.27813157 0.15789615 1.1823335
-0.043048862 0.15647493 1.1833334
-0.037460841 0.15375309 1.187
-0.28108883 0.16364999 1.189
-0.27467212 0.16451354 1.1854706
-0.26668179 0.16716258 1.1825
-0.050946604 0.16635889 1.1860001
-0.045046963 0.16496469 1.1875453
-0.27205509 0.17198884 1.189
-0.26457557 0.17300162 1.187
-0.25534406 0.1774943 1.184
-0.24537636 0.1791144 1.1810001
-0.050989561 0.1727419 1.187
-0.047948405 0.1751159 1.189
-0.25436321 0.18232475 1.1884286
-0.2452767 0.18474165 1.1874616
-0.23638237 0.18688722 1.1843334
-0.04470649 0.18584785 1.186
-0.2340733 0.19267467 1.1880001
-0.22543396 0.19634265 1.1850001
-0.2153514 0.19982126 1.1810001
-0.042919237 0.19511074 1.1853077
-0.22316164 0.20233905 1.1876668
-0.2158072 0.20389871 1.1860909
-0.20759773 0.20760475 1.187
-0.043728463 0.20543289 1.18425
-0.20221719 0.21264076 1.189
-0.19523613 0.21518135 1.1846001
-0.18528478 0.2175695 1.1836667
-0.17600836 0.21845745 1.1810001
-0.054602426 0.21664037 1.1815714
-0.044888403 0.2151137 1.1863331
-0.18330136 0.22235641 1.1880001
-0.17484868 0.22319788 1.1860001
-0.16546303 0.22465798 1.1845555
-0.15474004 0.22753809 1.1831819
-0.14494807 0.22881088 1.1810001
-0.063440152 0.2255833 1.1828183
-0.055408627 0.22399208 1.187
-0.048990764 0.22306433 1.189
-0.16312882 0.230882 1.189
-0.15490767 0.23264813 1.1876667
-0.14464386 0.23351315 1.1870002
-0.13549472 0.23478559 1.1850001
-0.12534681 0.23625176 1.1831539
-0.11592477 0.23880413 1.182143
-0.10373084 0.23868842 1.1815716
-0.094361298 0.23821482 1.1828183
-0.084872976 0.23773558 1.1827145
-0.075169057 0.23743059 1.1826667
-0.067855075 0.23386185 1.1867777
-0.12404044 0.24078439 1.189
-0.11459072 0.24299686 1.1867143
-0.10506412 0.24342124 1.1866001
-0.095439494 0.24294423 1.1876668
-0.085994422 0.24182676 1.189
-0.075049676 0.24234793 1.189
-0.24542926 -0.09447632 1.193
-0.24409468 -0.087998047 1.1950001
-0.0017431056 -0.041485909 1.1930001
0.0020917268 -0.040788669 1.1930001
-0.0015731783 -0.037220199 1.1960001
0.0047139828 -0.035442319 1.1950001
0.015190151 -0.031950265 1.1950001
0.024652494 -0.031226492 1.193
0.03242176 -0.030330036 1.1930001
0.01923845 -0.027633408 1.197
0.025694368 -0.026043573 1.1963334
0.032793738 -0.02537768 1.1948463
0.02833299 -0.019938029 1.197
0.032880262 -0.01853887 1.197
0.0094127702 0.11818255 1.1930001
0.011504496 0.11609083 1.1930001
-0.01255036 0.12864119 1.1930001
-0.0057583852 0.12822609 1.194
0.0052384334 0.12345308 1.1954
-0.025576929 0.1354429 1.1958002
-0.015710743 0.13199912 1.1950001
-0.0094443299 0.13117126 1.197
-0.30173156 0.14903553 1.1930001
-0.030852966 0.14798966 1.1930001
-0.02757029 0.14519005 1.1943333
-0.30119547 0.15426587 1.1943334
-0.29547912 0.15519151 1.1942308
-0.28900689 0.15722813 1.1930001
-0.03318125 0.15544 1.1953335
-0.02833299 0.15110928 1.197
-0.29067549 0.1605536 1.197
-0.28459793 0.16495748 1.1941431
-0.036257245 0.16453132 1.1954001
-0.27501121 0.17363909 1.1946
-0.26677078 0.17775927 1.1945
-0.042880397 0.17465916 1.1930001
-0.036684707 0.17504957 1.1956668
-0.26310083 0.18203604 1.1956667
-0.25582999 0.18667077 1.1952858
-0.24577788 0.18846457 1.1930001
-0.042704586 0.18384248 1.1933635
-0.035646148 0.18558332 1.1960003
-0.24353129 0.19415194 1.1956668
-0.23541877 0.19670513 1.1934999
-0.22904406 0.1997599 1.1930001
-0.040788669 0.19557644 1.1930001
-0.036203705 0.19441707 1.1957692
-0.23505886 0.20147902 1.197
-0.22602373 0.20611989 1.1950001
-0.21579647 0.2081268 1.1930001
-0.040788669 0.20289749 1.1930001
-0.038455274 0.20486063 1.1963334
-0.22141707 0.21092337 1.197
-0.21217807 0.21133856 1.1946
-0.20473635 0.21520701 1.1941429
-0.1997599 0.21858543 1.1930001
-0.037836254 0.21526617 1.1952223
-0.19416395 0.22139287 1.1946
-0.18523021 0.22621223 1.1952223
-0.17645249 0.22877932 1.1938
-0.054384895 0.22904406 1.1930001
-0.04465539 0.2257452 1.1944119
-0.038355045 0.22363821 1.1954
-0.17154245 0.23312338 1.1946
-0.16477856 0.23530112 1.1946666
-0.15552118 0.23715183 1.1938
-0.14537501 0.23845683 1.193
-0.13909982 0.2395027 1.1930001
-0.063902512 0.23592362 1.1949999
-0.055806167 0.23267132 1.1961112
-0.048271019 0.23191077 1.197
-0.15320802 0.24030572 1.197
-0.14481306 0.24240448 1.197
-0.1354935 0.24234925 1.1950001
-0.12491536 0.24496928 1.1955457
-0.11506037 0.24762817 1.1947144
-0.104937 0.24870069 1.197
-0.094849005 0.24730931 1.1947778
-0.084854841 0.24598214 1.1950001
-0.073962435 0.24577299 1.1949999
-0.067159683 0.24240448 1.197
-0.11438134 0.25079942 1.197
-0.0035224464 -0.034869123 1.2053334
0.0044828346 -0.031400885 1.2040001
0.0088104997 -0.027841181 1.2060001
0.014833303 -0.024515416 1.2036469
0.022761073 -0.021707321 1.2019999
0.036881365 -0.020021314 1.202
0.017973419 -0.017973419 1.2060001
0.024635306 -0.015132437 1.2044444
0.033564936 -0.014057059 1.2026666
0.027841181 -0.0088104997 1.2060001
0.033865165 -0.0064053931 1.2046667
0.012687121 0.11841312 1.2060001
-0.0021075066 0.12961166 1.202
0.0073902998 0.12454979 1.204
-0.021618601 0.13762966 1.2030001
-0.011591286 0.13382667 1.202
-0.0063225199 0.13171917 1.202
0.00105726 0.13004299 1.2060001
-0.023952825 0.14413494 1.2041539
-0.2982122 0.15911674 1.202
-0.030558847 0.15911674 1.202
-0.026210286 0.15533686 1.2040001
-0.30237636 0.16176078 1.2060001
-0.29458278 0.16281489 1.2044001
-0.28872842 0.16543928 1.202
-0.031518117 0.1660307 1.202889
-0.0278254 0.1641383 1.2053334
-0.28389448 0.17435147 1.2053334
-0.27854213 0.17738181 1.202
-0.031612601 0.17492305 1.202
-0.027606234 0.173978 1.2060002
-0.2801739 0.18079145 1.2060001
-0.27418515 0.18301658 1.2041819
-0.26517835 0.18627974 1.2032
-0.030910099 0.18370433 1.202
-0.02854602 0.18502048 1.2060001
-0.26114321 0.19136406 1.2060001
-0.25487614 0.19459148 1.2045456
-0.24734682 0.19743255 1.202889
-0.031625312 0.19634441 1.2025
-0.02854602 0.19453585 1.2060001
-0.25057063 0.20193666 1.2060001
-0.24386236 0.20370317 1.2055001
-0.2361463 0.20660052 1.2036
-0.22866447 0.20969692 1.202
-0.034511108 0.20497145 1.2034285
-0.23471171 0.21039474 1.2060001
-0.22354007 0.21333157 1.2046667
-0.2153236 0.21593176 1.2048572
-0.2089944 0.21742444 1.202
-0.035218503 0.21447439 1.2028
-0.21039474 0.22096734 1.2060001
-0.20485464 0.22280525 1.2045001
-0.1962062 0.22734801 1.2043334
-0.18924955 0.22942542 1.2060001
-0.035887226 0.22376916 1.204
-0.19347858 0.23153992 1.2060001
-0.18523392 0.23263852 1.2054287
-0.17460626 0.23656558 1.2046667
-0.16754678 0.23920201 1.202
-0.06006394 0.23814824 1.202
-0.0551042 0.23782039 1.2029999
-0.045863498 0.23448399 1.2042222
-0.039118621 0.23153993 1.2060001
-0.16281804 0.24211253 1.2060001
-0.15521102 0.24348155 1.2044001
-0.1437345 0.24659555 1.2042857
-0.13462269 0.247082 1.2037144
-0.12609915 0.24903703 1.202
-0.085354023 0.24973954 1.202
-0.072708987 0.24973954 1.202
-0.06390401 0.24515225 1.2041539
-0.058149301 0.24211253 1.2060001
-0.13321477 0.25057063 1.2060001
-0.12404168 0.25251752 1.2052002
-0.115012 0.25450474 1.2035999
-0.10537358 0.25303754 1.2060002
-0.095153399 0.25268513 1.2060001
-0.08556354 0.25247562 1.205
-0.07453683 0.25347805 1.2060002
-0.068017058 0.25268513 1.2060001
-0.0031916511 -0.030830028 1.2126669
-0.0026178861 -0.025482468 1.2158182
0.0048328638 -0.023978304 1.2134091
0.0127292 -0.020154567 1.21
-0.0032059699 -0.011755223 1.2190001
0.0054500061 -0.015006134 1.2182105
0.014668971 -0.01466897 1.2126667
0.021215335 -0.011668433 1.21
0.0067681591 -0.0096179098 1.2190001
0.01558427 -0.0063307597 1.2176666
0.023963926 -0.0048287599 1.2126362
0.033732377 -0.0019093801 1.21
0.026229747 0.0043394999 1.2164
0.035120599 0.0053241011 1.2139202
0.041506659 0.0074499133 1.2140001
0.028853729 0.011755223 1.2190001
0.035265673 0.014961192 1.219
0.042569179 0.015412301 1.2182857
0.036453068 0.021491874 1.219
0.042746268 0.024579104 1.219
0.043814924 0.030991044 1.2190001
0.016761208 0.1159808 1.21375
0.021182269 0.11475717 1.2168572
0.0079873102 0.12829973 1.2145001
0.014507955 0.12350849 1.2165999
0.021373134 0.12075821 1.2190001
-0.015659271 0.13793197 1.2142857
0.0042627919 0.13095954 1.2145001
-0.020171223 0.14438611 1.2110001
-0.017709892 0.14446115 1.2170002
-0.021162247 0.15477403 1.2138889
-0.018167162 0.15816119 1.2190001
-0.3020446 0.16753839 1.2150002
-0.29591268 0.16708258 1.212
-0.022804113 0.16502316 1.2117058
-0.0177397 0.16649671 1.2190001
-0.29385412 0.17469022 1.2179999
-0.28718793 0.17665079 1.2124002
-0.022744652 0.17540187 1.2126
-0.29174328 0.18060298 1.2190001
-0.28442636 0.18418455 1.2164286
-0.27549776 0.18738048 1.2110001
-0.26837397 0.18987723 1.21
-0.023408169 0.18518159 1.2140001
-0.018167162 0.1848776 1.2190001
-0.2810567 0.19128954 1.2190001
-0.27343637 0.19279446 1.218375
-0.26495582 0.1963699 1.2155454
-0.25875753 0.19716759 1.2113334
-0.023617039 0.19479765 1.215
-0.26288953 0.20197611 1.2190001
-0.25537679 0.20536211 1.2156923
-0.24707741 0.20707859 1.2113334
-0.030762233 0.2068495 1.21
-0.026220769 0.20515248 1.2148751
-0.25327164 0.21052536 1.2190001
-0.24467441 0.21300545 1.2157143
-0.23398629 0.21546547 1.2143
-0.22500819 0.21757698 1.2106668
-0.21851793 0.21851793 1.21
-0.031974759 0.21510148 1.2113334
-0.027151925 0.21450631 1.2173333
-0.2318985 0.22121193 1.2190001
-0.22460246 0.22270656 1.2167778
-0.21476769 0.22524063 1.2132308
-0.20661105 0.22748332 1.2106668
-0.032965846 0.22492911 1.2131251
-0.21159402 0.2318985 1.2190001
-0.2039659 0.23335035 1.2142999
-0.19504724 0.23624358 1.2133635
-0.18543391 0.23760884 1.2117778
-0.17895514 0.23849131 1.2126669
-0.042831015 0.23752116 1.2113334
-0.035965115 0.23441671 1.215
-0.1923582 0.24151641 1.2190001
-0.18541193 0.24258506 1.2190001
-0.17481561 0.24358885 1.2148572
-0.16565596 0.24661964 1.2151667
-0.15525854 0.24777143 1.2130002
-0.14744657 0.24928017 1.21
-0.062585235 0.24928017 1.21
-0.053754512 0.24527462 1.2118667
-0.045706075 0.24455675 1.2166427
-0.036975522 0.24130268 1.2190001
-0.19121444 0.25507084 1.2140001
-0.18881646 0.25352323 1.21
-0.16243581 0.25113431 1.2190001
-0.15449452 0.25167504 1.2181668
-0.14407198 0.25417119 1.2153333
-0.13468589 0.25419343 1.2131817
-0.12606893 0.25716192 1.2142857
-0.11435064 0.25903922 1.21
-0.10466553 0.2571311 1.2114444
-0.094885573 0.25800222 1.2161
-0.085247658 0.25715518 1.2137779
-0.075958155 0.25728184 1.2105714
-0.064158097 0.25544417 1.2130666
-0.055582717 0.25186098 1.2167778
-0.12075821 0.26182088 1.2190001
-0.11497761 0.263423 1.2181668
-0.10681377 0.26160401 1.2160001
-0.084423877 0.26224834 1.2190001
-0.075226769 0.26217419 1.2162223
-0.068251565 0.26128393 1.2165
-0.0017886922 -0.015019055 1.2236668
0.0032164899 -0.013938123 1.223
-0.00107567 -0.0096810302 1.2270001
0.0070889019 -0.0062290677 1.2254002
0.013088107 -0.0023594606 1.2238001
0.016657982 0.0032252567 1.2260002
0.022107255 0.0068706116 1.2242
0.026630679 0.015035184 1.2250001
0.028457915 0.022016168 1.2250001
0.034744818 0.026430728 1.2242501
0.041814368 0.028948409 1.223
0.039039429 0.031877648 1.2256669
0.042728208 0.033712216 1.2246001
0.023587592 0.11901013 1.223
0.016094374 0.12724203 1.2238001
0.022544885 0.12346148 1.2246001
-0.011832369 0.13876143 1.2270001
-0.0053720381 0.13566048 1.2262002
0.0060755922 0.13259088 1.223
0.014844246 0.13101661 1.2270001
-0.014484725 0.14566453 1.224
-0.015918951 0.15473853 1.2243334
-0.015154743 0.16433907 1.2252222
-0.30261809 0.17503065 1.223
-0.29827583 0.17733581 1.223
-0.016735567 0.17487694 1.2238001
-0.30127791 0.1811956 1.223
-0.29503638 0.18217327 1.2238001
-0.28703952 0.18778199 1.2240001
-0.017167762 0.18509722 1.224
-0.28325978 0.19505481 1.2270001
-0.27602249 0.19644414 1.223
-0.020371104 0.19835022 1.223
-0.017071329 0.19496277 1.2256669
-0.28074986 0.20115028 1.2270001
-0.27478406 0.20274709 1.2248182
-0.26580542 0.2054788 1.2248183
-0.25839135 0.20907184 1.223
-0.021021841 0.20547424 1.2252858
-0.01828639 0.20545296 1.2270001
-0.2613878 0.21190698 1.2270001
-0.25507155 0.21427524 1.2247144
-0.24521212 0.21800511 1.2250001
-0.23802026 0.21872133 1.223
-0.023355497 0.21531941 1.2250001
-0.24417709 0.22122945 1.2270001
-0.2352239 0.22409205 1.2251819
-0.22611688 0.22790498 1.2243334
-0.031092737 0.22729862 1.223
-0.026866566 0.22442083 1.2259092
-0.22355789 0.2316184 1.2260001
-0.21533999 0.23419285 1.2247778
-0.20709673 0.23821574 1.2240001
-0.031467069 0.23564887 1.2236668
-0.02904309 0.23449606 1.2270001
-0.20222595 0.24202575 1.2270001
-0.1947214 0.24463044 1.2256669
-0.18456101 0.24660018 1.2247778
-0.17598119 0.24840832 1.2240001
-0.042529147 0.24909927 1.223
-0.036005732 0.24523133 1.2244548
-0.18286391 0.25063109 1.2270001
-0.17533422 0.25149164 1.2270001
-0.16481556 0.254805 1.2252222
-0.15528694 0.25666815 1.2250001
-0.14635029 0.2578553 1.223
-0.13830908 0.25839135 1.223
-0.053769395 0.25713918 1.2244546
-0.045127291 0.25465849 1.2256669
-0.038570456 0.25278243 1.2270001
-0.14390835 0.26096174 1.2250001
-0.13474044 0.26220429 1.2252222
-0.12528853 0.26346931 1.2250001
-0.11495081 0.26749256 1.2254002
-0.10398757 0.2663587 1.2256668
-0.095271237 0.26510626 1.2250001
-0.085331328 0.26650071 1.2252223
-0.075174168 0.26848093 1.2250001
-0.065724052 0.26482993 1.2250001
-0.059161849 0.2613878 1.2270001
-0.0010800533 -0.0064803199 1.2320001
0.0038292801 -0.0038292804 1.2320002
0.0084391441 0.0023810267 1.2344
0.014054135 0.006849105 1.2333335
0.016450409 0.014874323 1.2360001
0.022201097 0.015480763 1.2320002
0.017987095 0.023188185 1.2360001
0.024333637 0.025202936 1.2338002
0.028533747 0.032145616 1.2360001
0.03527794 0.034875989 1.2335002
0.043274023 0.037863232 1.2340001
0.036299262 0.0406335 1.2360001
0.04171706 0.042258836 1.2360001
0.048760198 0.05526156 1.2360001
0.025651269 0.12687153 1.2330911
0.031423241 0.12894364 1.2360001
-0.0044765105 0.13883893 1.233143
0.0048751431 0.136959 1.2350001
0.016230958 0.13592121 1.2344
0.023582332 0.13474758 1.2351112
-0.011880587 0.14580719 1.2320001
-0.0065677534 0.14459904 1.2352002
0.018420519 0.14194636 1.2360001
0.023188183 0.14281322 1.2360001
-0.011880587 0.15444763 1.2320001
-0.0070712976 0.15527129 1.2355295
-0.011880587 0.16416812 1.2320001
-0.0080594905 0.16374145 1.2351112
-0.012979927 0.17416735 1.2340002
-0.29589489 0.18669142 1.2333335
-0.013687105 0.18515025 1.2326669
-0.2917836 0.19326028 1.2350001
-0.28776056 0.19580877 1.2340001
-0.013245119 0.19491498 1.2335001
-0.27498156 0.20801826 1.2320001
-0.26893327 0.20845029 1.2320001
-0.014247585 0.20450526 1.2330911
-0.27558541 0.21201658 1.2360001
-0.26552919 0.2138304 1.2350001
-0.25165242 0.21925083 1.2320001
-0.020521013 0.21709073 1.2320001
-0.016074058 0.21563944 1.234286
-0.2447139 0.22489655 1.2333335
-0.23869179 0.22789125 1.2320001
-0.022711677 0.22542806 1.2337143
-0.017336961 0.22212979 1.2360001
-0.23562647 0.23129921 1.2337143
-0.22501822 0.23691635 1.2340001
-0.21853079 0.23797177 1.2320001
-0.024879217 0.23421083 1.2340001
-0.22375512 0.24217565 1.2360001
-0.21535116 0.24348727 1.2344002
-0.20543556 0.24531938 1.2342857
-0.19548965 0.24841227 1.2320001
-0.031861573 0.24787223 1.2320001
-0.027779812 0.24281679 1.2346668
-0.19418198 0.25382018 1.2349092
-0.18578905 0.25481018 1.2333336
-0.17588036 0.25552964 1.2333335
-0.16848832 0.25813276 1.2320001
-0.034254871 0.25584814 1.2340001
-0.16479404 0.2610766 1.2340001
-0.15480581 0.26306263 1.2348573
-0.14426707 0.26539013 1.2336
-0.13435838 0.26791066 1.2335002
-0.12614416 0.26850429 1.2333335
-0.062693059 0.2680715 1.233
-0.055643782 0.26427567 1.2337779
-0.044702113 0.26281038 1.2336668
-0.037499707 0.26143661 1.2340001
-0.13111076 0.27197355 1.2360001
-0.12452874 0.27179751 1.2352002
-0.11467502 0.27153349 1.2340001
-0.10393536 0.2730689 1.2338183
-0.095577314 0.27302709 1.2342223
-0.085447341 0.27244774 1.233778
-0.073925786 0.2733371 1.2340001
-0.067468263 0.27240255 1.2346667
0.0090872347 0.0069090105 1.2436666
0.0076401499 0.014188851 1.245
0.012551676 0.015280301 1.245
0.01593517 0.025976509 1.245
0.020670922 0.029374469 1.2410001
0.026662562 0.034458634 1.245
0.031652048 0.038200751 1.245
0.029469149 0.040383648 1.245
0.035316687 0.044475053 1.2434
0.045119599 0.047541928 1.2418889
0.038200751 0.051298149 1.245
0.044658855 0.054465547 1.2425556
0.051858634 0.057660997 1.2410001
0.046932347 0.061121199 1.245
0.052753419 0.061485019 1.245
0.0097914897 0.1381688 1.2410001
0.011967377 0.1381688 1.2410001
0.029374469 0.13708085 1.2410001
0.033052962 0.13439883 1.243
-0.0010879433 0.14796029 1.2410001
0.0048723384 0.14570253 1.2434
0.015469136 0.1449127 1.2428666
0.025364731 0.14640664 1.2413077
0.031652048 0.1418885 1.245
-0.0010879433 0.1534 1.2410001
0.0026771007 0.15549493 1.2435454
0.017089447 0.15308559 1.2443334
0.023623535 0.15300435 1.2436666
-0.0028314581 0.16623476 1.2426001
0.0018144076 0.16300535 1.2423334
-0.0076261233 0.17489544 1.243
-0.008446902 0.18423282 1.2435
-0.29739004 0.19281706 1.2426001
-0.0072308271 0.1954792 1.2431818
-0.0060681622 0.2054849 1.243
-0.26711652 0.21769357 1.2436666
-0.008446902 0.21393801 1.2435
-0.26001847 0.22085249 1.2410001
-0.25521138 0.22254504 1.2423334
-0.014934495 0.22698455 1.2410001
-0.0098230503 0.2226558 1.245
-0.2444848 0.23138739 1.245
-0.23475918 0.23694007 1.2438571
-0.020670922 0.23717165 1.2410001
-0.015757287 0.23458733 1.2435454
-0.23247884 0.24339335 1.245
-0.22828881 0.24354984 1.243
-0.2132369 0.24913903 1.2410001
-0.20670924 0.24913903 1.2410001
-0.024212657 0.2467254 1.2442
-0.2117413 0.25212494 1.245
-0.20410115 0.25267068 1.245
-0.19909362 0.25457874 1.2410001
-0.027686361 0.25572592 1.2434
-0.18405764 0.26029781 1.2423334
-0.17638971 0.26022798 1.242
-0.16480894 0.26522234 1.245
-0.15574539 0.26683247 1.2423334
-0.14719029 0.26929942 1.2436666
-0.053309221 0.268722 1.2410001
-0.045354933 0.2685037 1.2416668
-0.034394514 0.26691532 1.2427143
-0.029469149 0.26413089 1.245
-0.1418885 0.27177104 1.245
-0.13566636 0.27351561 1.243
-0.12527899 0.27560455 1.2426
-0.11453001 0.27639598 1.2442
-0.10793549 0.27729639 1.2436666
-0.094651066 0.2782959 1.2410001
-0.084927082 0.2776491 1.2420001
-0.075430743 0.27778819 1.2410001
-0.063334197 0.27671275 1.2432222
-0.055621054 0.2740877 1.244077
-0.045477081 0.27213487 1.245
-0.0371093 0.27177104 1.245
-0.10150485 0.28050265 1.245
-0.09233667 0.28137583 1.245
-0.085133098 0.28159413 1.245
-0.07593374 0.28143817 1.245
-0.065850817 0.28050265 1.245
0.0057226857 0.0069402782 1.25
0.006879841 0.015255197 1.2513636
0.012054167 0.018629167 1.25
0.008766667 0.020820834 1.25
0.014245833 0.024891069 1.25
0.016978599 0.034811947 1.253889
0.023030033 0.036193181 1.251
0.017659573 0.040837765 1.2590001
0.026139405 0.044031631 1.2555627
0.033261463 0.047884267 1.2508334
0.029800531 0.052978717 1.2590001
0.035240985 0.054685995 1.2533076
0.040545832 0.058079164 1.25
0.038078457 0.062360369 1.2590001
0.044779204 0.065406986 1.2527224
0.053221811 0.067353673 1.2535715
0.047203958 0.074066617 1.2575455
0.054025166 0.073873483 1.2576667
0.065119676 0.084986694 1.2590001
0.0062404056 0.13914014 1.2563335
0.036325414 0.13647816 1.2555001
0.008044879 0.14520375 1.2516667
0.012054167 0.14684168 1.25
0.033788111 0.14503486 1.2547143
0.0078600468 0.15553017 1.2508334
0.014261174 0.15601555 1.2515
0.026339451 0.15630004 1.2520001
0.03245179 0.15234998 1.25475
-0.0010958334 0.1676625 1.25
0.0055041518 0.16451591 1.2552501
0.01433087 0.16133969 1.2576667
-0.0027002131 0.17606518 1.2559091
0.0011037233 0.17218083 1.2590001
-0.0034617544 0.18501917 1.2533847
0.0020457644 0.18555789 1.2567145
-0.0024925226 0.19397086 1.2513636
0.0040854733 0.1958558 1.256353
-0.0014611111 0.20419025 1.25
0.0037783708 0.2042639 1.2546427
-0.27579054 0.21865237 1.2533334
-0.0036924405 0.21560174 1.2530001
0.0022030633 0.212511 1.256
-0.27334467 0.22349058 1.2544446
-0.26649973 0.22511126 1.2535833
-0.25527656 0.22671185 1.2533334
-0.24974918 0.22994529 1.2550001
-0.0072930697 0.2255633 1.2540001
-0.2505452 0.23288563 1.2590001
-0.2459462 0.23713605 1.2558
-0.23889166 0.23998749 1.25
-0.01315 0.23779583 1.25
-0.0072782622 0.23472366 1.2581999
-0.24502659 0.2417154 1.2590001
-0.2367 0.24217917 1.25
-0.021389572 0.24735917 1.25125
-0.015516442 0.24479918 1.2562727
-0.0077260635 0.24171539 1.2590001
-0.20546874 0.25532916 1.25
-0.023369011 0.25537708 1.2562222
-0.018763296 0.2505452 1.2590001
-0.1841 0.26409584 1.25
-0.175492 0.26673314 1.2590001
-0.16422743 0.26810658 1.2516667
-0.027059544 0.26423013 1.2548001
-0.16666222 0.27041221 1.2590001
-0.15454406 0.27364796 1.2556001
-0.14519793 0.27610222 1.2547501
-0.13749398 0.27775145 1.25475
-0.12382916 0.27943751 1.25
-0.11579306 0.27943751 1.25
-0.052599996 0.27834165 1.25
-0.044929165 0.27658835 1.25
-0.035146993 0.27459207 1.252875
-0.13355052 0.28144944 1.2590001
-0.12456082 0.28285632 1.2574002
-0.11454954 0.28361821 1.256375
-0.10506045 0.28499472 1.2542727
-0.095049962 0.28647277 1.2520001
-0.085053712 0.28787053 1.2527778
-0.074724674 0.28683016 1.2518182
-0.064533241 0.28610507 1.2526474
-0.05498131 0.28480944 1.2543334
-0.045591146 0.28199714 1.254889
-0.038630318 0.28144944 1.2590001
-0.10043883 0.29027924 1.2590001
-0.098231375 0.29027924 1.2590001
-0.083342075 0.29186717 1.2563335
-0.074871711 0.29178974 1.256
-0.064015955 0.29248667 1.2590001
-0.05739361 0.29027924 1.2590001
0.017985692 0.045521446 1.2664001
0.02363961 0.047648583 1.2640001
0.018897427 0.053357437 1.268
0.024446728 0.052896313 1.2675998
0.031628381 0.058266774 1.266
0.034668464 0.064035624 1.2666665
0.040999945 0.068702608 1.2640001
0.038906466 0.073366478 1.268
0.04302758 0.07656534 1.2657778
0.056070197 0.078232333 1.2640001
0.060945865 0.078675576 1.2640001
0.047191549 0.083839715 1.2666665
0.055129543 0.084492728 1.2651764
0.061776947 0.085324213 1.2640001
0.047799367 0.092263907 1.268
0.054469056 0.094487131 1.2679998
0.063361958 0.093375519 1.2679999
0.053135116 0.10160147 1.268
0.038783733 0.13851333 1.2640001
0.037706312 0.14527769 1.265
0.041129693 0.14228651 1.268
0.03689057 0.15365294 1.2654999
0.041129693 0.15229103 1.268
0.0066486401 0.16732411 1.2640001
0.014047707 0.16454332 1.2653333
0.021120653 0.16340716 1.268
0.0037024554 0.17350461 1.266
0.0011081067 0.18062139 1.2640001
0.0070180092 0.20721595 1.2640001
0.011857208 0.206019 1.268
0.0051822686 0.21383011 1.266
0.010004519 0.21009491 1.268
-0.26262128 0.22716187 1.2640001
-0.25818884 0.22937807 1.2640001
-0.0022179666 0.22197025 1.266
-0.26122913 0.23010395 1.268
-0.25154021 0.23602672 1.2640001
-0.0055405335 0.2338105 1.2640001
-0.012199693 0.24884592 1.2653333
-0.0080733495 0.24394177 1.2640001
-0.021054026 0.25818884 1.2640001
-0.014686333 0.25491941 1.2658823
-0.0077812932 0.25233623 1.268
-0.1817295 0.2681618 1.2640001
-0.17618895 0.26853117 1.2640001
-0.0221972 0.26303858 1.266
-0.018897427 0.26122913 1.268
-0.17896974 0.27012205 1.268
-0.1645363 0.27524704 1.2659999
-0.15735114 0.27813476 1.2640001
-0.032200549 0.27723941 1.2666668
-0.027790334 0.27234527 1.268
-0.15229103 0.28197923 1.268
-0.14568563 0.28212652 1.2653333
-0.13578689 0.28546107 1.267
-0.12430783 0.28745371 1.266
-0.11524309 0.28810772 1.2640001
-0.10970256 0.28921583 1.2640001
-0.045459725 0.28718123 1.2648
-0.11449617 0.29102039 1.268
-0.10549456 0.2920469 1.2666668
-0.090040676 0.29457754 1.268
-0.085324213 0.29364827 1.2640001
-0.066117026 0.29364827 1.2640001
-0.055210128 0.29309538 1.268
0.015251954 0.045011867 1.273
0.017855946 0.050219849 1.273
0.024015846 0.05781091 1.2742499
0.026621211 0.063315317 1.276
0.032097019 0.066275999 1.2751428
0.036393259 0.074652351 1.2752222
0.03652529 0.08311867 1.2754999
0.042294782 0.085391715 1.2744285
0.044687457 0.094966173 1.2744285
0.064169809 0.098765701 1.273
0.046103988 0.10452296 1.2765
0.055188101 0.10598428 1.2743334
0.063694365 0.10504469 1.2746665
0.054398082 0.11439127 1.27675
0.064309821 0.11383061 1.278
0.052657861 0.12212142 1.2780001
0.041291878 0.1383836 1.273
0.067782991 0.13500579 1.2780001
0.07058394 0.13556598 1.2780001
0.043611538 0.1442441 1.2754999
0.035711896 0.15902951 1.273
0.042450611 0.15248148 1.27425
0.013968588 0.16812077 1.27425
0.024648361 0.16469586 1.2780001
0.0052152905 0.17618632 1.2746667
0.011203799 0.17141815 1.2780001
0.0033479899 0.18190746 1.273
0.014507957 0.20869137 1.273
0.0061379815 0.21761936 1.273
0.014114074 0.21512479 1.273
-0.0026054531 0.22684102 1.2746667
0.0048549804 0.22146177 1.2780001
0.01455252 0.22168984 1.2771667
-0.26397783 0.23397796 1.2770001
-0.25743645 0.23616678 1.2767501
-0.0033479899 0.2310113 1.273
-0.01004397 0.25667924 1.273
-0.19083543 0.2689552 1.273
-0.021203937 0.26672322 1.273
-0.014849982 0.26333967 1.2751428
-0.0078119766 0.26002723 1.273
-0.18580227 0.27254623 1.2767501
-0.17426315 0.27424785 1.27425
-0.16917738 0.27897462 1.2780001
-0.030250261 0.27897462 1.2780001
-0.026889119 0.27113196 1.2780001
-0.16581625 0.28121537 1.2780001
-0.15505178 0.28514096 1.2754999
-0.14522532 0.28709278 1.27425
-0.13336159 0.28848514 1.273
-0.034595896 0.28234714 1.273
-0.053679615 0.29520392 1.2755001
-0.04687186 0.29127511 1.273
0.02545647 0.065562919 1.2850001
0.028228667 0.071136236 1.2880001
0.031921867 0.074740797 1.2852223
0.032745253 0.08016941 1.2880001
0.038616873 0.096354723 1.2830001
0.041616242 0.096729651 1.2830001
0.039443426 0.10255729 1.2855
0.042768035 0.10542223 1.2838334
0.04794161 0.11337075 1.2867501
0.058487691 0.11810015 1.2830001
0.06636104 0.11547571 1.2830001
0.055818282 0.12537205 1.2837503
0.065249644 0.1248735 1.2832505
0.071796954 0.12817831 1.2863334
0.046816848 0.13818568 1.2867501
0.055806652 0.13531514 1.2874446
0.064359248 0.13491671 1.28425
0.047133233 0.14493342 1.2844287
0.054037731 0.14372423 1.2880001
0.064109832 0.1443285 1.287091
0.046468228 0.15539657 1.2875835
0.063106753 0.15419126 1.2880001
0.01687145 0.16983926 1.2830001
0.02594115 0.166896 1.2863334
0.034938969 0.16523454 1.2856669
0.044287641 0.16322443 1.2880001
0.059844773 0.16372627 1.2880001
0.062103067 0.16146797 1.2880001
0.0078733433 0.1777126 1.2830001
0.013813966 0.17419948 1.2861251
0.022582933 0.17050114 1.2880001
0.0067639216 0.18143976 1.2855
-0.0011247633 0.22832696 1.2830001
0.0045095729 0.22660868 1.286
0.013400923 0.2268188 1.2857778
-0.26514146 0.23755628 1.28425
-0.25982034 0.23957458 1.2830001
-0.0018767972 0.23515868 1.2855
0.0028228667 0.23203965 1.2880001
0.01354976 0.23147507 1.2880001
-0.26309118 0.24050824 1.2880001
-0.25644603 0.24182412 1.2830001
-0.21227957 0.26534948 1.2880001
-0.20695645 0.2665689 1.2830001
-0.01463332 0.2676782 1.2840002
-0.0078733433 0.26431939 1.2830001
-0.19252191 0.27414834 1.28425
-0.1848361 0.27556702 1.2830001
-0.024218027 0.27428257 1.284875
-0.019195493 0.27212435 1.2880001
0.027430374 0.074585572 1.293
0.038582537 0.10781027 1.2945001
0.041908175 0.10986737 1.2920001
0.046481524 0.11563912 1.2932501
0.048704091 0.12119391 1.2920001
0.0509694 0.12685718 1.2920001
0.046507273 0.1346949 1.293875
0.0509694 0.13705105 1.2920001
0.057010219 0.14762248 1.2920001
0.061729606 0.14611228 1.2920001
0.046438787 0.15743881 1.2920001
0.054367363 0.15517351 1.2919999
0.061972324 0.15549712 1.2919999
0.039642867 0.16876535 1.2920001
0.046465714 0.16756418 1.2927142
0.054514468 0.16535741 1.2936667
0.060030628 0.16876535 1.2920001
0.017768281 0.17654575 1.2936667
0.024966594 0.17363347 1.2945
0.03058164 0.17103066 1.2920001
0.048229814 0.17533027 1.2945001
0.053120349 0.17449719 1.2953334
0.0050969399 0.1868878 1.2920001
0.010962131 0.1810822 1.2936667
0.048892576 0.18988512 1.2970001
0.053440724 0.18988512 1.2970001
0.048892576 0.19329622 1.2970001
0.0079285735 0.22992863 1.2920001
0.01019388 0.22992863 1.2920001
0.0047624041 0.23622815 1.293
0.011107894 0.23509553 1.293
-0.26843885 0.24125516 1.2920001
-0.21665837 0.26703051 1.2961667
-0.01019388 0.26843885 1.2920001
-0.0079285735 0.26843885 1.2920001
-0.021520413 0.27750006 1.2920001
-0.016370747 0.27472168 1.2941428
