# .PCD v0.7 - Point Cloud Data file format
VERSION 0.7
FIELDS x y z
SIZE 4 4 4
TYPE F F F
COUNT 1 1 1
WIDTH 1440
HEIGHT 1
VIEWPOINT 0 0 0 1 0 0 0
POINTS 1440
DATA ascii
-0.21829174 -0.059786912 1.5860001
-0.18492232 -0.057933051 1.5860001
-0.17657995 -0.052834947 1.5860001
-0.17101838 -0.048663765 1.5860001
-0.1682376 -0.045882981 1.5860001
-0.15641925 -0.042406995 1.5860001
-0.14413744 -0.040321406 1.5860001
-0.13764894 -0.040321406 1.5860001
-0.14042972 -0.037540618 1.5860001
-0.13625854 -0.037540618 1.5860001
-0.12708195 -0.033091363 1.5860001
-0.12096422 -0.029198259 1.5860001
-0.11540265 -0.0273444 1.5860001
-0.10566989 -0.022941489 1.5860001
-0.09732753 -0.0208559 1.5860001
-0.091765955 -0.018075114 1.5860001
-0.08481399 -0.017148184 1.5860001
-0.076471634 -0.013440468 1.5860001
-0.068129271 -0.01251354 1.5860001
-0.070910059 -0.009732753 1.5860001
-0.063958094 -0.0083423601 1.5860001
-0.055615734 -0.0041711801 1.5860001
-0.044492587 -0.0034759832 1.5860001
-0.037540618 -0.0013903934 1.5860001
-0.033369441 0.0013903934 1.5860001
-0.025027078 0.00208559 1.5860001
-0.01459913 0.0069519668 1.5860001
-0.0041711801 0.013903933 1.5860001
0.006488502 0.014367398 1.5860001
0.015850484 0.014738169 1.5860001
0.024563616 0.017148186 1.5860001
0.031979047 0.018075114 1.5860001
0.033369441 0.0208559 1.5860001
0.044492587 0.023636686 1.5860001
0.056211617 0.024828453 1.5860002
0.065348484 0.028271331 1.5860001
0.073690847 0.029198259 1.5860001
0.079252422 0.033369441 1.5860001
0.08481399 0.033369441 1.5860001
0.095010214 0.034296367 1.5860001
0.10566989 0.034759834 1.5860001
0.11540264 0.034759834 1.5860001
0.12513541 0.036845423 1.5860001
0.13486816 0.036845423 1.5860001
0.14182012 0.037540618 1.5860001
0.14487898 0.040877566 1.5860001
0.15711445 0.04402912 1.5860001
0.1647616 0.046578176 1.5860001
0.17518955 0.048663765 1.5860001
0.1682376 0.051444553 1.5860001
0.17518955 0.051444553 1.5860001
0.18492232 0.052834947 1.5860001
0.19503427 0.054730929 1.5860003
0.20550013 0.05756228 1.5860002
0.21551096 0.058396518 1.5860001
0.22246294 0.057701327 1.5860001
0.22478026 0.066275418 1.5860002
0.22698173 0.075428836 1.5860002
0.23567167 0.078557223 1.5860001
0.24192843 0.079252422 1.5860001
0.22802453 0.08481399 1.5860001
0.23457924 0.08401949 1.5860002
0.24262363 0.084118798 1.5860001
0.22756106 0.095010206 1.5860002
0.23428127 0.093503945 1.5860002
0.24331883 0.090375565 1.5860001
0.22782589 0.105074 1.5860002
0.23418197 0.10467676 1.5860002
0.24053805 0.10706028 1.5860001
0.22524372 0.11540265 1.5860001
0.23497647 0.11262186 1.5860001
-0.27529788 0.12930658 1.5860001
0.22292639 0.123745 1.5860001
0.20994939 0.1459913 1.5860001
0.21273018 0.1459913 1.5860001
0.19789933 0.15618752 1.5860001
0.20346089 0.15340674 1.5860001
-0.30727693 0.1682376 1.5860001
-0.28364024 0.1654568 1.5860001
-0.3100577 0.17657995 1.5860001
-0.30727693 0.17797035 1.5860001
-0.28503063 0.17240877 1.5860001
-0.31117001 0.18436615 1.5860001
-0.30542308 0.18538578 1.5860001
-0.29337299 0.18770309 1.5860001
-0.30424333 0.19427586 1.5860003
-0.29615375 0.19419162 1.5860002
-0.23456469 -0.072465524 1.594
-0.22568117 -0.071966439 1.5940001
-0.21659803 -0.071966439 1.5940001
-0.23755914 -0.068472929 1.5940001
-0.22498247 -0.067774221 1.5940001
-0.21520063 -0.068472929 1.5940001
-0.20541878 -0.068472929 1.5940002
-0.19563694 -0.066376813 1.5940001
-0.18473716 -0.062883303 1.5940001
-0.18166286 -0.057293672 1.5940001
-0.17537452 -0.054498859 1.5940001
-0.16768879 -0.051704045 1.5940001
-0.16429509 -0.047711458 1.594
-0.15471289 -0.046912935 1.594
-0.1462619 -0.043319609 1.594
-0.13554846 -0.041456398 1.5940002
-0.13275363 -0.037729979 1.5940001
-0.12492815 -0.035494126 1.5940001
-0.11654371 -0.033258278 1.5940001
-0.11249124 -0.028646836 1.5940001
-0.10480551 -0.026550725 1.5940001
-0.094824024 -0.023356657 1.594
-0.085940517 -0.021659803 1.5940001
-0.082446992 -0.018166287 1.5940001
-0.074994154 -0.015837276 1.594
-0.066237077 -0.014812511 1.5940001
-0.061020091 -0.008850242 1.5940002
-0.054498855 -0.0083844401 1.594
-0.045555457 -0.0069870339 1.5940001
-0.034935165 -0.0023290112 1.5940002
-0.026550727 -0.0013974067 1.5940002
-0.0209611 0.0013974067 1.5940001
-0.014812511 0.0025153321 1.5940001
-0.0055896267 0.0097818468 1.5940001
0.0060554291 0.0097818468 1.5940002
0.013974067 0.0097818468 1.5940001
-0.0051238243 0.012576659 1.5940002
0.0027948134 0.01257666 1.5940001
0.018166287 0.01257666 1.5940001
0.02515332 0.013974067 1.5940001
0.034935165 0.017234683 1.5940002
0.041922197 0.018166287 1.5940001
0.037729979 0.0209611 1.5940001
0.041922197 0.0209611 1.5940001
0.054498862 0.0209611 1.5940002
0.064879596 0.023755912 1.594
0.076298401 0.027109688 1.5940001
0.085241809 0.028227616 1.5940001
0.09269464 0.027482333 1.594
0.1048055 0.02934554 1.5940002
0.097818464 0.032140352 1.5940001
0.1048055 0.032140352 1.5940002
0.11458734 0.032140352 1.5940001
0.12548712 0.033817239 1.5940001
0.13554846 0.034003559 1.5940002
0.14533029 0.03633257 1.5940001
0.15511215 0.041456398 1.5940002
0.16573243 0.043319605 1.5940001
0.17411686 0.044996493 1.5940001
0.1841782 0.04779131 1.5940001
0.19423954 0.048909232 1.5940002
0.19982915 0.051704045 1.5940001
0.20541878 0.05240275 1.5940001
0.21460174 0.053301077 1.594
0.23616171 0.068472929 1.5940002
0.24175136 0.068472929 1.5940001
0.22777729 0.076857366 1.5940001
0.23523013 0.074062556 1.594
0.24175136 0.071267739 1.5940001
0.23336691 0.099215873 1.5940001
0.22777729 0.11877956 1.5940001
0.23476431 0.11438773 1.594
0.22498246 0.1262324 1.5940002
0.23523013 0.12157438 1.5940002
0.21939285 0.14952251 1.5940001
0.22218765 0.14952251 1.5940001
0.20611748 0.15581083 1.5940001
0.21566644 0.15511213 1.594
0.22218765 0.15511215 1.5940002
0.19913045 0.16279788 1.5940001
0.20448719 0.16442817 1.594
0.21659803 0.16293761 1.5940001
-0.3144165 0.18445767 1.5940001
-0.31301907 0.19563693 1.594
-0.30882686 0.19982915 1.5940001
-0.29625022 0.19982915 1.5940001
-0.31329858 0.20541878 1.5940001
-0.30463466 0.20541878 1.594
-0.29764763 0.20262396 1.5940001
-0.32000613 0.21659803 1.5940001
-0.3138575 0.21464166 1.594
-0.30579916 0.21589933 1.594
-0.32000613 0.22358507 1.5940001
-0.31406716 0.22463313 1.594
-0.30742946 0.22498246 1.594
-0.32000613 0.23336691 1.5940001
-0.31348488 0.23290111 1.594
-0.30659103 0.23280795 1.5940001
-0.30882686 0.25572541 1.5940001
-0.33817241 0.26969948 1.5940001
-0.30789527 0.26643887 1.594
-0.31348488 0.2757549 1.594
-0.30770892 0.27473015 1.5940001
-0.3130191 0.28227615 1.5940001
-0.30882686 0.28087875 1.5940001
-0.24120519 -0.083222844 1.6090001
-0.23719881 -0.074387796 1.6010001
-0.2230452 -0.075664923 1.6042
-0.21434295 -0.075516351 1.605
-0.20529866 -0.073123641 1.604
-0.1954198 -0.073108159 1.6036667
-0.18706702 -0.073745072 1.6044285
-0.19509251 -0.06877362 1.6010002
-0.1842052 -0.066795424 1.6040001
-0.17596751 -0.063353017 1.6058
-0.16785625 -0.060653936 1.6090001
-0.17357153 -0.056609582 1.6010002
-0.16522083 -0.05535711 1.6026001
-0.1551213 -0.05460988 1.6046363
-0.14585157 -0.053319044 1.609
-0.15017913 -0.049124017 1.6010001
-0.14456497 -0.047720473 1.601
-0.13501087 -0.045852296 1.6042
-0.12558387 -0.042803001 1.6044285
-0.11640964 -0.041778717 1.6063334
-0.10861287 -0.040906142 1.6090001
-0.12351181 -0.037895668 1.6010001
-0.11376616 -0.036318667 1.6021429
-0.10447899 -0.034915641 1.6046364
-0.094507299 -0.032442804 1.6090001
-0.10386221 -0.029474409 1.6010001
-0.094839431 -0.028271373 1.601
-0.083614267 -0.026470222 1.603
-0.074852958 -0.024486879 1.6049999
-0.066791654 -0.022265757 1.6074002
-0.072984248 -0.018246064 1.6010001
-0.062274013 -0.016389867 1.6023334
-0.055225838 -0.015130172 1.605
-0.048429113 -0.013635381 1.6090001
-0.042808075 -0.009123031 1.6010001
-0.035188772 -0.0070417626 1.6055715
-0.024852039 -0.0051619103 1.6045556
-0.015471122 -0.0056322911 1.6043333
-0.0065825973 -0.0023509278 1.6090001
0.0056422269 -0.0014105566 1.6090001
-0.0056165108 0.0042117988 1.6023334
0.0055234721 0.0046511209 1.6059229
0.015487193 0.0056273229 1.6060001
0.024734398 0.0086438078 1.6055715
0.026667323 0.01263189 1.6010001
0.035722937 0.013779973 1.6042
0.045025598 0.015474044 1.6050001
0.054829363 0.015460016 1.6036667
0.06416218 0.016036162 1.6050001
0.074054226 0.017631957 1.6090001
0.084633395 0.018337237 1.6090001
0.094507299 0.018337237 1.6090001
0.10014952 0.018337237 1.6090001
0.047720473 0.02105315 1.6010001
0.067370079 0.02105315 1.6010001
0.074387796 0.022456693 1.601
0.084368549 0.022924541 1.601
0.096532598 0.024172137 1.601
0.10496593 0.023633532 1.6050001
0.11542777 0.026740378 1.6056666
0.12533148 0.026751481 1.6063333
0.13518901 0.026751481 1.6063334
0.14504655 0.02816204 1.6063334
0.15516123 0.028211134 1.6090001
0.16362457 0.028211134 1.6090001
0.12772244 0.032281496 1.6010001
0.13427232 0.032281496 1.6010002
0.14526673 0.032983266 1.6010001
0.15498741 0.034878667 1.6031818
0.16376422 0.035562735 1.6044285
0.17490903 0.038085029 1.6090001
0.18478292 0.038085029 1.6090001
0.15860039 0.040702756 1.6010001
0.16795735 0.041638453 1.6010002
0.17636737 0.041455373 1.6029999
0.18572992 0.043265738 1.6036667
0.19480205 0.043650106 1.6063334
0.20448767 0.046160556 1.6046364
0.21425751 0.044760313 1.6057999
0.22090685 0.045018584 1.6050001
0.2203563 0.051931102 1.6010001
0.23719881 0.065966539 1.6010001
0.23439173 0.11930119 1.6010001
0.22877756 0.1263189 1.6010001
0.23439172 0.12571739 1.601
0.24000591 0.1263189 1.6010001
0.21827394 0.13659723 1.6063334
0.22537322 0.13558164 1.603857
0.23351933 0.13353299 1.6032857
0.21827394 0.14504187 1.6063334
0.22328573 0.14464521 1.6018889
0.20912796 0.15438977 1.6010001
0.21474212 0.15298623 1.601
0.19789961 0.16421457 1.6010001
0.20632087 0.16662066 1.601
0.2139401 0.16501661 1.601
0.1988885 0.17773014 1.6090001
0.2039673 0.17583722 1.6045556
0.2138404 0.17462692 1.609
0.1988885 0.1819618 1.6090001
0.20453072 0.18266708 1.6090001
0.21299405 0.18196182 1.6090001
-0.31579724 0.20772442 1.6010001
-0.29895473 0.20912796 1.6010001
-0.31860432 0.21754922 1.6010001
-0.30246359 0.21404035 1.6010001
-0.29895473 0.21193504 1.6010001
-0.32141143 0.22456694 1.6010001
-0.31860432 0.22456694 1.6010001
-0.30316535 0.22597046 1.601
-0.32141143 0.23439173 1.6010001
-0.31579724 0.2350935 1.6010001
-0.30597246 0.23439173 1.6010001
-0.32160693 0.24543686 1.6090001
-0.31419012 0.24355625 1.6016153
-0.307376 0.24140945 1.6010001
-0.31497318 0.25629115 1.6063334
-0.33486807 0.2664876 1.6068183
-0.32385328 0.26595512 1.6077691
-0.31557193 0.26484975 1.6070001
-0.33599642 0.27490813 1.6081113
-0.32491583 0.27508447 1.6026
-0.31698707 0.27423236 1.6042
-0.34276527 0.28493243 1.6090001
-0.33558422 0.28377837 1.609
-0.325914 0.285638 1.6066
-0.31790257 0.28562108 1.6010001
-0.32231221 0.29269049 1.6090001
-0.31666997 0.29410106 1.6090001
-0.24225456 -0.086418293 1.6160001
-0.23602112 -0.083018228 1.6159999
-0.21533738 -0.080751516 1.6160001
-0.19267029 -0.080751516 1.6160001
-0.18842021 -0.080751516 1.6160001
-0.23942117 -0.077918135 1.6160001
-0.22808762 -0.077918135 1.6160001
-0.2110873 -0.077918135 1.6160001
-0.20542054 -0.077918135 1.6160001
-0.19550368 -0.077918135 1.6160001
-0.18275344 -0.073668048 1.6160001
-0.17992005 -0.072251357 1.6160001
-0.17425328 -0.066584587 1.6160001
-0.16433643 -0.061626159 1.6160001
-0.15583625 -0.060917813 1.6160001
-0.15158619 -0.058084425 1.6160001
-0.14355825 -0.056195501 1.6160001
-0.13600257 -0.052417655 1.6160001
-0.13175248 -0.048167571 1.6160001
-0.12466901 -0.047459222 1.6160001
-0.11475217 -0.044861954 1.6160001
-0.1076687 -0.042500801 1.6160001
-0.094918452 -0.035417333 1.6160001
-0.085001595 -0.032583948 1.6160001
-0.077918135 -0.032583948 1.6160001
-0.073668048 -0.029750559 1.6160001
-0.064317882 -0.024650464 1.6159999
-0.055959389 -0.021958748 1.6160001
-0.052417655 -0.018417014 1.6160001
-0.045050848 -0.015016949 1.6159999
-0.035417333 -0.012750241 1.6160001
-0.02550048 -0.01275024 1.6160001
-0.017000321 -0.01275024 1.6160001
-0.032583948 -0.0099168532 1.6160001
-0.025500478 -0.0099168532 1.6160001
-0.0065167891 -0.0065167891 1.6159999
0.0056667733 -0.0042500799 1.6160001
0.016150305 -0.0025500481 1.6159999
0.022667093 -0.0014166933 1.6160001
0.017000321 0.0014166933 1.6160001
0.024893327 0.0034405407 1.6160001
0.035417333 0.0099168532 1.6160001
0.044861957 0.0099168532 1.6160001
0.055817716 0.0087834988 1.6159999
0.063751198 0.0099168532 1.6160001
0.048167571 0.01275024 1.6160001
0.068001285 0.01275024 1.6160001
0.075084746 0.015583627 1.6160001
0.094918452 0.015583627 1.6160001
0.1048353 0.017708667 1.6160001
0.11475215 0.021250403 1.6160001
0.12466901 0.021250401 1.6160001
0.13458587 0.021250403 1.6160001
0.14510989 0.022464709 1.6160001
0.15371123 0.023375439 1.6160001
0.16518643 0.025783818 1.6159999
0.17141989 0.029750559 1.6160001
0.16858651 0.034000643 1.6160001
0.17566998 0.034000643 1.6160001
0.18558681 0.034283981 1.6159999
0.19455922 0.037306253 1.6160001
0.20542054 0.038250718 1.6160001
0.2139207 0.038250718 1.6160001
0.19975376 0.041084107 1.6160001
0.20542052 0.041084107 1.6160001
0.21817076 0.17850336 1.6160001
0.19975376 0.18700352 1.6160001
0.20542054 0.18728685 1.6159999
0.2139207 0.18700351 1.6160001
0.19668426 0.19597591 1.6159998
0.20542051 0.1955037 1.6159998
0.21329106 0.19440182 1.6160001
0.19597591 0.20542052 1.6160001
0.20542052 0.20542052 1.6160001
0.21203177 0.20353161 1.6160001
0.18842021 0.2153374 1.6160001
0.19640522 0.21392068 1.6159999
0.20380144 0.21473023 1.6160001
0.18728685 0.22582093 1.6159999
0.19489653 0.22687332 1.6160001
-0.32583946 0.24792133 1.6160001
-0.33008954 0.25783819 1.6160001
-0.32468036 0.25539121 1.6159999
-0.31592262 0.25358811 1.6160001
0.19408698 0.25075471 1.6160001
-0.33150625 0.26208827 1.6160001
-0.32583946 0.26208827 1.6160001
-0.3385897 0.28758875 1.6160001
-0.34236756 0.29136661 1.6160001
-0.33474439 0.29527935 1.6159998
-0.32498944 0.29778895 1.6159999
-0.34425646 0.30458903 1.6160001
-0.33518964 0.30232233 1.6159999
-0.32371444 0.30246401 1.6160001
-0.31875598 0.30175567 1.6160001
-0.34451401 0.3143771 1.6159999
-0.3459565 0.32272273 1.6159999
-0.35275665 0.3385897 1.6160001
-0.34708986 0.3385897 1.6160001
-0.35445666 0.34765655 1.6159999
-0.34646022 0.34740463 1.6160001
-0.34567311 0.35559008 1.6159998
-0.33611047 0.35594422 1.6160001
-0.34425646 0.36125681 1.6160001
-0.33717301 0.3640902 1.6160001
-0.24060643 -0.081151277 1.6240001
-0.23548107 -0.08456818 1.6240002
-0.22555581 -0.082778372 1.6240003
-0.21497971 -0.083998702 1.6240001
-0.20501375 -0.082574978 1.6240003
-0.19575967 -0.083286837 1.6240001
-0.23491161 -0.078303866 1.6240001
-0.18365817 -0.077354729 1.6240001
-0.17653963 -0.072609037 1.6240001
-0.17321765 -0.06881249 1.6240001
-0.16514997 -0.065490507 1.6240002
-0.15447217 -0.063354947 1.6240001
-0.14521807 -0.061219387 1.6240001
-0.14094695 -0.058371972 1.6240001
-0.13525212 -0.055999126 1.6240002
-0.12813359 -0.052677147 1.6240001
-0.12386248 -0.049829733 1.6240001
-0.11532024 -0.048406027 1.6240001
-0.10535429 -0.044134911 1.6240002
-0.096812055 -0.041287493 1.6240001
-0.10108317 -0.038440078 1.6240001
-0.095388353 -0.038440078 1.6240001
-0.086371534 -0.036541805 1.6240002
-0.075456448 -0.03369439 1.6240001
-0.065205768 -0.028758874 1.6240002
-0.055524558 -0.025626719 1.6240001
-0.04650775 -0.022304738 1.6240002
-0.043423053 -0.017796334 1.6240001
-0.035592664 -0.017084479 1.6240002
-0.026338572 -0.015660774 1.6240003
-0.015660774 -0.014237067 1.6240001
-0.0042711198 -0.0080676712 1.6240001
0.0056948266 -0.0071185334 1.6240001
0.015660772 -0.0061693955 1.6240001
0.025911462 -0.0031321547 1.6240002
0.029897841 0.0028474133 1.6240001
0.035236739 0.0046270466 1.6240003
0.044948451 0.0067117596 1.6240003
0.052677147 0.0071185334 1.6240001
0.065490507 0.007830387 1.6240001
0.075456455 0.0099659469 1.6240001
0.081151277 0.0099659469 1.6240001
0.095388345 0.0099659469 1.6240001
0.076168306 0.013525213 1.6240001
0.085422397 0.014237067 1.6240003
0.095388345 0.012813359 1.6240001
0.10535429 0.01494892 1.6240001
0.11532024 0.017084481 1.6240002
0.12528619 0.017084481 1.6240003
0.13525213 0.017369222 1.6240002
0.14436385 0.017938705 1.6240002
0.15518403 0.018508187 1.6240001
0.15660773 0.021355599 1.6240001
0.16372626 0.021355599 1.6240001
0.17511591 0.028474133 1.6240001
0.18223445 0.029897841 1.6240001
0.18650557 0.032745253 1.6240001
0.19504781 0.03369439 1.6240001
0.20453918 0.035592668 1.6240001
0.21497971 0.035592668 1.6240001
0.19504781 0.20643747 1.6240001
0.21497971 0.20074263 1.6240001
0.19362411 0.21782711 1.6240001
0.18935299 0.22067453 1.6240001
0.19504781 0.22209823 1.6240002
0.20216635 0.22494565 1.6240001
0.18698013 0.23443703 1.6240002
0.19504783 0.23491158 1.6240003
0.18679032 0.24459282 1.6240003
0.19504784 0.24487752 1.6240004
0.18764453 0.25427398 1.6240002
0.19291225 0.2548435 1.6240001
0.19220039 0.26053831 1.6240001
0.18365815 0.27477539 1.6240001
0.18650556 0.28047022 1.6240001
-0.34501156 0.29660556 1.6240001
0.16562454 0.29660556 1.6240001
-0.3431133 0.30324951 1.6240001
-0.33457103 0.30752066 1.6240002
-0.32745254 0.30752063 1.6240001
0.16420084 0.30419865 1.6240002
-0.34097773 0.31535104 1.6240001
-0.33457109 0.31463915 1.6240003
-0.32745254 0.31463918 1.6240002
-0.3431133 0.32634521 1.6240003
-0.33457109 0.32460511 1.6240004
-0.32887623 0.3217577 1.6240001
-0.35165554 0.33599478 1.6240001
-0.34492528 0.33457109 1.6240004
-0.33457109 0.33362195 1.6240002
-0.3527945 0.3436828 1.6240002
-0.34285444 0.34414876 1.6240004
-0.33552024 0.34643531 1.6240002
-0.35592666 0.35592666 1.6240001
-0.3402659 0.35165554 1.6240001
-0.33741847 0.35165554 1.6240001
-0.35307926 0.3644689 1.6240001
-0.34524882 0.36660448 1.6240003
-0.33741847 0.36589262 1.6240001
-0.23596747 -0.091641344 1.6370001
-0.22702335 -0.090521969 1.6390001
-0.21409164 -0.090521969 1.6390001
-0.20403364 -0.090521969 1.6390001
-0.19828622 -0.090521969 1.6390001
-0.23177664 -0.087273918 1.6320001
-0.22462304 -0.087273918 1.6320001
-0.214608 -0.087273918 1.6320001
-0.20488955 -0.0873987 1.6343335
-0.1940484 -0.086851373 1.6348002
-0.18673848 -0.082625538 1.6343335
-0.18170144 -0.078689598 1.6320001
-0.17466344 -0.074741222 1.6350001
-0.16488566 -0.071692482 1.6355001
-0.15560345 -0.071551643 1.6370001
-0.14655939 -0.070405975 1.6390001
-0.16167136 -0.067243837 1.6320001
-0.15365931 -0.06667155 1.6320002
-0.14470728 -0.065909259 1.6343335
-0.13684046 -0.062828772 1.6362002
-0.13114934 -0.057705704 1.6320001
-0.1252165 -0.055919793 1.6355001
-0.11520929 -0.053704116 1.6358889
-0.1054939 -0.050954718 1.6372501
-0.097706258 -0.050289985 1.6390001
-0.10253493 -0.046259943 1.6320001
-0.093933776 -0.044965111 1.6334002
-0.085202008 -0.042747144 1.6362002
-0.082981758 -0.038629439 1.6320001
-0.073599145 -0.035798684 1.6334002
-0.064492866 -0.032965474 1.6348002
-0.055364482 -0.030697186 1.6362002
-0.04597941 -0.030173989 1.6390001
-0.05150592 -0.02718368 1.6320001
-0.043780033 -0.026039103 1.6320002
-0.034386374 -0.024361106 1.6343335
-0.025328213 -0.023420587 1.6355001
-0.017242279 -0.02155285 1.6390001
-0.02289152 -0.018599359 1.6320001
-0.013708062 -0.016576516 1.6340001
-0.0037247811 -0.011753996 1.6348002
0.0037346003 -0.01119889 1.6376002
0.013481906 -0.010615557 1.6362002
0.024426563 -0.010057997 1.6390001
0.030173989 -0.010057997 1.6390001
0.01287648 -0.0071536 1.6320001
0.02432224 -0.0071536 1.6320001
0.034769315 -0.0045606587 1.6339092
0.044115074 -0.0039475206 1.6363751
0.05455146 -0.0037346003 1.6376002
0.063940123 -0.0021552851 1.6390001
0.071842834 -0.0014368567 1.6390001
0.038629439 0.00143072 1.6320001
0.045067679 0.0021460799 1.6320001
0.05436736 0.0028614399 1.6320001
0.064476497 0.0028634856 1.6343335
0.074503802 0.0042942059 1.6343335
0.084614985 0.0042982972 1.6358889
0.094138131 0.0048761079 1.6369002
0.10489053 0.0057474268 1.6390001
0.11063796 0.0071842833 1.6390001
0.13937509 0.0071842833 1.6390001
0.075828157 0.01001504 1.6320001
0.085843198 0.01001504 1.6320001
0.093950607 0.01001504 1.6320001
0.10501485 0.011159616 1.6320002
0.11464399 0.011461869 1.6346251
0.12473959 0.011467238 1.6355001
0.13490301 0.011941759 1.6351112
0.14517182 0.012541812 1.6355001
0.15466438 0.01362099 1.6360835
0.16492623 0.015771329 1.6358889
0.1724228 0.018679136 1.6390001
0.17492218 0.023654439 1.6355001
0.18542576 0.025197653 1.636
0.19493356 0.025384465 1.6390001
0.20403364 0.025863418 1.6390001
0.21840221 0.02586342 1.6390001
0.18742432 0.03004512 1.6320001
0.19577509 0.030668955 1.6348002
0.20550494 0.032164399 1.636
0.21424268 0.033005621 1.6370001
0.22347935 0.036429882 1.6362002
0.19028576 0.23893024 1.6320001
0.18360907 0.24560694 1.6320001
0.17817023 0.25719735 1.6390001
0.18355922 0.25436708 1.6340001
0.1931472 0.25896031 1.6320001
0.17772326 0.26402432 1.6330001
0.18482843 0.26490563 1.6369002
0.19344851 0.26565805 1.6380001
0.17671721 0.2748698 1.6358889
0.18492159 0.27509761 1.6351819
0.19174878 0.27442172 1.6340001
0.17637172 0.28523886 1.6383002
0.18448986 0.28605771 1.6350001
0.1724228 0.2945556 1.6390001
0.18463609 0.29240033 1.6390001
0.1573792 0.30760479 1.6320001
0.1645328 0.30331263 1.6320001
0.17474388 0.30538732 1.6390001
0.18371238 0.30399781 1.6390001
0.15686333 0.31392667 1.6330001
0.16471128 0.31509233 1.6337501
0.17615864 0.31697056 1.6390002
0.1824808 0.31323475 1.6390001
0.15712401 0.32401678 1.6383002
0.16484508 0.32539666 1.6351112
0.17350043 0.32293352 1.6390001
-0.35338783 0.33335775 1.6320001
-0.34194207 0.33621919 1.6320001
-0.33764991 0.33764991 1.6320001
0.15709633 0.33430865 1.6390001
0.16523851 0.33478764 1.6390001
0.17098594 0.33622447 1.6390001
-0.33717299 0.34384969 1.6320001
0.14584096 0.34556404 1.6390001
0.15595421 0.34539822 1.6390001
0.16497727 0.34523746 1.6390001
0.17098594 0.34628245 1.6390001
0.14548174 0.35526279 1.6390001
0.15518051 0.35490361 1.6390001
0.16482797 0.35408255 1.6390001
0.17098594 0.35202989 1.6390001
-0.35767999 0.36197215 1.6320001
0.13937509 0.36927217 1.6390001
0.14512253 0.36496159 1.6390001
0.1552763 0.36486578 1.6390001
0.16293953 0.36467424 1.6390002
-0.35490364 0.37584066 1.6390001
-0.34656143 0.37584871 1.6376002
0.13937509 0.37501958 1.6390001
0.14512253 0.37501955 1.6390001
0.15482131 0.37466037 1.6390001
-0.36160889 0.38603547 1.6390001
-0.35490358 0.3850776 1.6390001
-0.34915617 0.3850776 1.6390001
0.13937509 0.38076702 1.6390001
0.14512253 0.38076702 1.6390001
-0.35605305 0.39398608 1.6390002
0.15086995 0.40663043 1.6390001
-0.23477325 -0.096739292 1.6470001
-0.22428113 -0.092888974 1.6470002
-0.21513663 -0.093851544 1.647
-0.20589586 -0.093274012 1.6470001
-0.19492245 -0.091926396 1.647
-0.18337148 -0.083263166 1.647
-0.177596 -0.082300588 1.6470001
-0.16604505 -0.082300588 1.6470001
-0.17398633 -0.078690916 1.6470001
-0.16521999 -0.077762708 1.6470002
-0.15449409 -0.075081237 1.6470001
-0.14583087 -0.072193503 1.6470001
-0.14005539 -0.067861892 1.6470001
-0.13355798 -0.064974152 1.6470001
-0.12561668 -0.062086415 1.647
-0.11695347 -0.062086411 1.6470001
-0.12272895 -0.0577548 1.6470001
-0.11406573 -0.0577548 1.6470001
-0.10540251 -0.05438577 1.647
-0.095295422 -0.051979318 1.6470001
-0.08807607 -0.050535448 1.6470001
-0.085188329 -0.046685129 1.647
-0.075947568 -0.04244978 1.6470001
-0.073637374 -0.038984489 1.647
-0.064974152 -0.037059326 1.647
-0.054867059 -0.033930946 1.6470001
-0.04475997 -0.032246429 1.647
-0.036096752 -0.03032127 1.647
-0.02310192 -0.025989659 1.6470001
-0.01588257 -0.023583211 1.647
-0.00721935 -0.01588257 1.6470001
0.00721935 -0.01299483 1.6470001
0.014438699 -0.013716765 1.6470001
0.024545789 -0.01299483 1.647
0.036096752 -0.01010709 1.647
0.041872229 -0.01010709 1.6470001
0.047647711 -0.00721935 1.6470001
0.054867059 -0.00721935 1.6470001
0.065551698 -0.0060642539 1.6470001
0.074599952 -0.0038503204 1.6470002
0.085188329 -0.00144387 1.647
0.093129613 -0.0021658051 1.6470001
0.098183163 0.00144387 1.6470001
0.10540251 0.00144387 1.647
0.11454701 0.0052941903 1.6470002
0.12561668 0.0064974152 1.6470001
0.13500184 0.0064974152 1.6470001
0.14294313 0.0062567703 1.647
0.17543019 0.016604505 1.6470001
0.18481535 0.018770309 1.6470001
0.19203471 0.018770309 1.6470001
0.18337148 0.02165805 1.647
0.19636631 0.02165805 1.6470001
0.20647341 0.02310192 1.6470002
0.21455911 0.025700886 1.6470001
0.21802437 0.03032127 1.6470001
0.22091211 0.031765141 1.6470001
0.19781019 0.27000368 1.6470001
0.17615213 0.29503074 1.6470002
0.18378401 0.29681841 1.6470002
0.177596 0.3032127 1.6470001
0.18048374 0.30176884 1.6470001
0.17470826 0.31476367 1.6470002
0.18048374 0.3133198 1.6470001
0.15256892 0.32679591 1.647
0.14871861 0.33786559 1.6470001
0.15377215 0.33533883 1.6470002
0.1732644 0.33209008 1.6470001
0.14799668 0.34580684 1.6470001
0.15256892 0.34412232 1.647
0.1689328 0.34219718 1.6470001
0.17182054 0.34219718 1.6470001
0.16604505 0.35952362 1.6470001
0.15449409 0.36818686 1.6470001
0.16604505 0.36241138 1.6470001
-0.36298892 0.3762725 1.6470001
-0.35952362 0.37396231 1.6470001
-0.34364104 0.37829393 1.6470001
0.15449409 0.37540621 1.6470001
-0.36674297 0.38551331 1.6470001
-0.34797266 0.38551331 1.647
0.14438699 0.38695717 1.6470002
0.15160635 0.38406941 1.6470001
0.13427991 0.39706424 1.6470001
0.14294313 0.39417651 1.6470001
0.14698596 0.40457234 1.6470001
0.15160635 0.40428358 1.6470001
0.1448683 0.41390941 1.6470002
0.14149925 0.42161006 1.6470001
-0.2316577 -0.1010782 1.6550001
-0.22488691 -0.10156184 1.6550001
-0.21473074 -0.10011095 1.6550001
-0.2051549 -0.10127165 1.6550001
-0.19296749 -0.10011095 1.6550001
-0.23069045 -0.097209185 1.6550001
-0.22488691 -0.097209185 1.6550001
-0.21473074 -0.097209185 1.6550001
-0.20457454 -0.097209185 1.6550001
-0.1952889 -0.096048474 1.6550001
-0.18716395 -0.091405652 1.6550001
-0.19006571 -0.088503882 1.6550001
-0.18368183 -0.087343171 1.6550001
-0.17519417 -0.085964836 1.655
-0.1654007 -0.084876671 1.655
-0.15814628 -0.082700349 1.6550001
-0.16104805 -0.079798579 1.6550001
-0.15524451 -0.078347698 1.6550001
-0.14508833 -0.073995054 1.6550001
-0.13783392 -0.071093284 1.6550001
-0.13348126 -0.068191513 1.6550001
-0.12477597 -0.066015191 1.655
-0.11461978 -0.063838869 1.6550001
-0.10881625 -0.062387984 1.6550001
-0.11171801 -0.059486218 1.6550001
-0.1044636 -0.058035333 1.6550001
-0.094307423 -0.054649938 1.6550001
-0.087053001 -0.052231796 1.6550001
-0.082700349 -0.047879148 1.6550001
-0.075445935 -0.045702823 1.6550001
-0.065289751 -0.042075615 1.6550001
-0.059486218 -0.042075615 1.6550001
-0.063838869 -0.039173849 1.6550001
-0.054511759 -0.037930232 1.655
-0.044977382 -0.036272079 1.6550001
-0.034821197 -0.032644875 1.6550001
-0.027566783 -0.03046855 1.6550001
-0.02176325 -0.027566783 1.6550001
-0.014218656 -0.02582572 1.6550001
-0.010156184 -0.018861484 1.6550001
-0.0043526501 -0.016926972 1.6550001
0.0043526501 -0.016685158 1.6550001
0.015959717 -0.015959717 1.6550001
0.023214133 -0.015959717 1.6550001
0.034821201 -0.01305795 1.6550001
0.044977382 -0.011123438 1.6550001
0.054649938 -0.010156184 1.6550001
0.065289751 -0.010156184 1.6550001
0.071093284 -0.010156184 1.6550001
0.077622257 -0.006528975 1.6550001
0.085602112 -0.0043526501 1.6550001
0.095758304 -0.0043526501 1.6550001
0.10359307 -0.0020312367 1.6550001
0.11171801 -0.0014508833 1.6550001
0.12622684 -0.0014508833 1.6550001
0.11655429 0.002418139 1.6550001
0.1245687 0.0026944976 1.655
0.13348126 0.0043526501 1.6550001
0.14847374 0.0053199059 1.6550001
0.15331 0.0062871613 1.6550001
0.1654007 0.010156184 1.6550001
0.17555688 0.01305795 1.6550001
0.18426219 0.015234276 1.6550001
0.19538562 0.016926972 1.6550001
0.20312366 0.018861484 1.6550001
0.21618162 0.024665017 1.6550001
-0.36707348 0.37868056 1.6550001
-0.36997524 0.38303322 1.6550001
-0.34531021 0.38448408 1.6550001
0.13783392 0.38593495 1.6550001
0.14073569 0.38738585 1.6550001
0.15524451 0.38738585 1.6550001
0.13686667 0.3946403 1.6550001
0.14557196 0.3956075 1.6550001
0.15379365 0.39464027 1.655
0.13638304 0.404071 1.6550001
0.14400017 0.4044337 1.655
0.15379363 0.40189469 1.6550001
0.13493215 0.41640353 1.655
0.14322291 0.41350174 1.655
0.13435179 0.4233678 1.6550001
0.14073569 0.43091235 1.6550001
-0.22451608 -0.10569751 1.6630001
-0.21431081 -0.10467698 1.6630001
-0.20556343 -0.10545453 1.6630001
-0.19681604 -0.10205276 1.6630001
-0.19098446 -0.093305387 1.6630001
-0.18588182 -0.094034329 1.6630001
-0.17494757 -0.092819422 1.6630001
-0.16765812 -0.091847487 1.6630001
-0.17057391 -0.088931695 1.6630001
-0.16328442 -0.088931695 1.6630001
-0.15453705 -0.08310011 1.6630001
-0.14433177 -0.07629659 1.6630001
-0.13500123 -0.073186412 1.6630001
-0.12508753 -0.072020099 1.6630001
-0.11808963 -0.071436934 1.6630001
-0.12100542 -0.068521142 1.6630001
-0.11517384 -0.067549206 1.6630001
-0.10642646 -0.063661493 1.6630001
-0.10059487 -0.059773762 1.6630001
-0.094763279 -0.057829902 1.6630001
-0.083683267 -0.053359021 1.6630001
-0.074352734 -0.051026385 1.6630001
-0.074352726 -0.048110589 1.6630001
-0.066334292 -0.045923747 1.6630001
-0.055400074 -0.043007951 1.6630001
-0.046652693 -0.042279001 1.6630001
-0.043736897 -0.039363209 1.6630001
-0.035475481 -0.035475489 1.6630001
-0.024201084 -0.032365307 1.6630001
-0.016036863 -0.032073725 1.6630001
-0.010205276 -0.024784243 1.6630001
-0.0049568489 -0.023034768 1.6630001
0.0043736901 -0.021868451 1.6630001
-0.0029157933 -0.018952657 1.6630001
0.0043736901 -0.018952657 1.6630001
0.014578966 -0.018952657 1.6630001
0.024784243 -0.017980725 1.6630001
0.034989521 -0.016036863 1.6630001
0.045777954 -0.014870545 1.6630001
0.05556206 -0.014093 1.6630001
0.064876407 -0.013850018 1.6630001
0.074352726 -0.011177207 1.6630001
0.08310011 -0.010205276 1.6630001
0.097679079 -0.010205276 1.6630001
0.086015902 -0.0072894827 1.6630001
0.094763279 -0.0072894827 1.6630001
0.10559338 -0.0060398579 1.6630001
0.11517382 -0.0043736896 1.6630001
0.12465017 -0.0021868451 1.6630001
0.13558438 -0.0014578967 1.6630001
0.14287387 -0.0014578967 1.6630001
0.15016335 -0.0014578967 1.6630001
0.13558438 0.0014578967 1.6630001
0.14433177 0.0021868451 1.6630001
0.15550898 0.0034017588 1.6630001
0.16425635 0.0053456216 1.6630001
0.17348969 0.0063175522 1.6630001
0.18369499 0.0072894832 1.6630001
0.17640549 0.010205276 1.6630001
0.18442394 0.011663172 1.6630001
0.19448343 0.012537912 1.6630001
0.20556343 0.017008794 1.6630001
0.21139501 0.018952657 1.6630001
0.21431081 0.021868451 1.6630001
0.22014239 0.021868451 1.6630001
0.13485543 0.40675318 1.6630001
0.13558438 0.41258475 1.6630001
0.13850018 0.42716372 1.6630001
0.14724757 0.42424789 1.6630001
0.15016335 0.42133212 1.6630001
0.12916964 0.43474478 1.6630001
0.1355844 0.43299529 1.6630001
0.14400779 0.43396723 1.6630001
-0.22559614 -0.10913579 1.6710001
-0.21387686 -0.10840334 1.6710001
-0.2045991 -0.10693843 1.6710001
-0.19336811 -0.10400861 1.6710001
-0.18897338 -0.10107879 1.6710001
-0.17725411 -0.10107879 1.6710001
-0.1919032 -0.098148972 1.6710001
-0.18311375 -0.096684061 1.6710001
-0.17359184 -0.097416513 1.6710001
-0.16553482 -0.093265928 1.6710001
-0.15440151 -0.087015659 1.6710001
-0.14561205 -0.081741974 1.6710001
-0.13623662 -0.08057005 1.6710001
-0.14209627 -0.077640228 1.6710001
-0.13389276 -0.077054262 1.6710001
-0.1252498 -0.076175317 1.6710001
-0.1171928 -0.073245496 1.6710001
-0.11279807 -0.068850771 1.6710001
-0.10620597 -0.066653401 1.6710001
-0.095219158 -0.061037913 1.6710001
-0.083499871 -0.056399032 1.6710001
-0.074710406 -0.054201674 1.6710001
-0.067874163 -0.052248459 1.6710001
-0.062991127 -0.04834203 1.6710001
-0.054201666 -0.045412209 1.6710001
-0.045412213 -0.044435602 1.6710001
-0.035157837 -0.038087659 1.6710001
-0.01318419 -0.034669537 1.6710001
-0.00585964 -0.03076311 1.6710001
-0.01025437 -0.02783329 1.6710001
-0.0036622749 -0.027100835 1.6710001
0.0043947301 -0.02636838 1.6710001
0.014649101 -0.023438562 1.6710002
0.024317507 -0.023145577 1.6710001
0.035157841 -0.021973649 1.6710001
0.02783329 -0.019043829 1.6710001
0.035157841 -0.019043829 1.6710001
0.045412213 -0.019043829 1.6710001
0.052736759 -0.019043829 1.6710001
0.06738586 -0.01611401 1.6710001
0.074710406 -0.0146491 1.6710001
0.084964775 -0.012451734 1.6710001
0.094633184 -0.012012261 1.6710001
0.1048457 -0.011510006 1.6710002
0.11572788 -0.01025437 1.6710001
0.12305244 -0.01025437 1.6710001
0.11865771 -0.0073245498 1.6710001
0.12451736 -0.0061526219 1.6710001
0.13440549 -0.005127185 1.6710002
0.14502609 -0.0034181233 1.6710001
0.15528046 -0.00292982 1.6710001
0.16553482 -0.002197365 1.6710001
0.17139447 -0.00146491 1.6710001
0.1596752 0.00146491 1.6710001
0.16651143 0.0024415168 1.6710001
0.17432427 0.005127185 1.6710001
0.18395086 0.0035576387 1.6710002
0.19483304 0.0073245498 1.6710001
0.20069267 0.0073245498 1.6710001
0.18897338 0.01025437 1.6710001
0.19629794 0.01025437 1.6710001
0.20618609 0.012085507 1.6710002
0.21592775 0.017285937 1.6710001
0.12598227 0.44679758 1.6710001
0.13506471 0.44562557 1.671
0.14209627 0.44679752 1.6710001
0.12393139 0.45382911 1.6710001
0.13037699 0.45558703 1.6710001
0.13110945 0.46437648 1.6710001
-0.21753256 -0.1228245 1.6880001
-0.22339992 -0.11480546 1.6832001
-0.21500778 -0.1156352 1.685091
-0.20508213 -0.11418407 1.686
-0.19682984 -0.11487841 1.6858182
-0.19486195 -0.10777038 1.684
-0.18531731 -0.1043634 1.6834288
-0.17374732 -0.10450368 1.6857144
-0.16499919 -0.10284702 1.6880001
-0.16320027 -0.097687319 1.6832001
-0.15559079 -0.095216021 1.6857144
-0.14523312 -0.09280543 1.688
-0.13614282 -0.090268612 1.6880001
-0.1516984 -0.0898408 1.6800001
-0.14507081 -0.088367999 1.6800001
-0.1356554 -0.085525855 1.6820002
-0.12595144 -0.083338439 1.6845715
-0.11838506 -0.081389733 1.6880001
-0.11371218 -0.076585606 1.6845715
-0.10555627 -0.073625974 1.6864001
-0.099147491 -0.072510853 1.6880001
-0.10186516 -0.067913614 1.684
-0.094907053 -0.067214906 1.6850001
-0.08477857 -0.063515544 1.6847999
-0.075789079 -0.062704213 1.6857144
-0.065745994 -0.061940759 1.688
-0.057712719 -0.060672347 1.6880001
-0.073640004 -0.057439201 1.6800001
-0.06337148 -0.055795077 1.681143
-0.054991547 -0.054258652 1.684
-0.04655626 -0.052472007 1.6860001
-0.03995496 -0.051793467 1.6880001
-0.053020798 -0.048602398 1.6800001
-0.0456568 -0.048602398 1.6799999
-0.035034783 -0.046048272 1.6843638
-0.025156826 -0.0443944 1.6880001
-0.014798133 -0.044394404 1.688
-0.0309288 -0.0397656 1.6800001
-0.02444848 -0.038587358 1.6800001
-0.015627109 -0.03921435 1.6816002
-0.0047936132 -0.036499139 1.682
0.0044254134 -0.033932846 1.6826669
0.014147897 -0.032302409 1.6857141
0.025156826 -0.031076079 1.6880001
0.016200801 -0.027983198 1.6799999
0.025037602 -0.027983198 1.6799999
0.035431359 -0.026577026 1.6840001
0.045749981 -0.025092706 1.6834286
0.054112077 -0.02336001 1.6864001
0.065111786 -0.0221972 1.6880001
0.073990665 -0.0221972 1.6880001
0.064803198 -0.0191464 1.6800001
0.075236708 -0.01917679 1.6826668
0.084962532 -0.017502274 1.6834286
0.095146887 -0.017936097 1.6845715
0.10481778 -0.017719185 1.684
0.11521767 -0.01551437 1.6849999
0.12474966 -0.014026667 1.6840001
0.13434741 -0.011074053 1.684
0.14590959 -0.010950617 1.6880001
0.1553804 -0.010358693 1.6880001
0.16425928 -0.010358693 1.6880001
0.17017853 -0.010358693 1.6880001
0.14580721 -0.0073639997 1.6799999
0.1548848 -0.0073756888 1.6826668
0.16481474 -0.0067818933 1.6816
0.1756805 -0.0049245288 1.6840001
0.18503419 -0.0020675308 1.6832001
0.19619799 -0.0014751378 1.6826668
0.20421425 -0.0014798134 1.6880001
0.1782088 0.0014728 1.6800001
0.19588239 0.0029456001 1.6800002
0.20569907 0.0035828112 1.6845715
0.21553865 0.005016637 1.684
0.21797439 0.0117824 1.6800001
0.1384432 0.456568 1.6800001
0.14433441 0.456568 1.6800001
0.12577713 0.46599388 1.6800001
0.13814864 0.46511024 1.6800001
0.1428616 0.46098641 1.6800001
0.12578413 0.47649989 1.6880001
0.13454905 0.47591078 1.6820002
0.12726393 0.48093933 1.6880001
0.13268994 0.48291242 1.6880001
0.11986488 0.49573746 1.6880001
0.1228245 0.49425763 1.6880001
-0.12191978 -0.48321867 1.6960001
-0.11349443 -0.48371425 1.6960001
-0.10529437 -0.48430002 1.6960002
-0.095751628 -0.48321867 1.6960001
-0.087722771 -0.48024502 1.6960001
-0.043117974 -0.48024502 1.6960001
-0.11250322 -0.47231528 1.6960001
-0.10556469 -0.47429773 1.6960001
-0.095156901 -0.47429764 1.6960001
-0.085244723 -0.47330651 1.6960001
-0.076819383 -0.47330651 1.6960001
-0.063933544 -0.47132406 1.6960001
-0.043117974 -0.47727135 1.6960001
-0.14422219 -0.46537673 1.6960001
-0.11411395 -0.46500504 1.6960001
-0.10556469 -0.46537673 1.6960001
-0.095156908 -0.46537676 1.6960001
-0.084749125 -0.46537673 1.6960001
-0.075828157 -0.46537673 1.6960001
-0.064825639 -0.46478206 1.6960001
-0.057986241 -0.4638899 1.6960001
-0.047578454 -0.46240309 1.6960001
-0.12429871 -0.45288739 1.6960001
-0.11448564 -0.45496893 1.6960001
-0.10556469 -0.45496896 1.6960001
-0.095156901 -0.45496899 1.6959999
-0.084749125 -0.45496893 1.6960001
-0.075828157 -0.45496902 1.6960001
-0.065420367 -0.4549689 1.6959999
-0.056796778 -0.45586109 1.6960001
-0.049065281 -0.45794261 1.6960001
-0.03122336 -0.45050848 1.6960001
-0.028249707 -0.45348215 1.6960001
-0.13530123 -0.44307435 1.6960001
-0.12489343 -0.44456112 1.6960001
-0.11448565 -0.44456115 1.6960001
-0.10556469 -0.44456115 1.6960001
-0.095156901 -0.44456115 1.6960001
-0.084749125 -0.44456115 1.6960001
-0.075828165 -0.44456115 1.6960001
-0.065420367 -0.44456112 1.6960001
-0.057986241 -0.44604802 1.6960001
-0.031223362 -0.44456115 1.6960001
-0.027060246 -0.44515592 1.6960001
-0.019328747 -0.44753483 1.6960001
-0.16206411 -0.43266657 1.6960001
-0.15351486 -0.43452507 1.6960001
-0.14124854 -0.43564022 1.6960001
-0.13530123 -0.43564022 1.6960001
-0.12489345 -0.43564025 1.6960001
-0.11485735 -0.43601191 1.6960001
-0.10556469 -0.43712702 1.6960001
-0.094562173 -0.43623495 1.6960001
-0.084749117 -0.43564022 1.6960001
-0.075828157 -0.43564022 1.6960001
-0.065420374 -0.43564025 1.6960001
-0.055012587 -0.43266657 1.6960001
-0.03122336 -0.43415338 1.6960001
-0.15314314 -0.42969289 1.6960001
-0.14124854 -0.42969289 1.6960001
-0.13500386 -0.42612451 1.6960001
-0.12489344 -0.42523238 1.6959999
-0.11547686 -0.42506722 1.6960001
-0.10705151 -0.42225876 1.6960001
-0.093298361 -0.42560416 1.6960001
-0.08474911 -0.42523244 1.6960001
-0.075828165 -0.42563793 1.6960002
-0.066449717 -0.42557555 1.696
-0.055012587 -0.42820609 1.6960001
-0.13530122 -0.41779828 1.6960001
-0.12448793 -0.41509497 1.6960002
-0.11448565 -0.41482463 1.6960001
-0.1059364 -0.41445291 1.6960001
-0.095156901 -0.41445291 1.6960001
-0.08623594 -0.4148246 1.6960001
-0.078801811 -0.41482463 1.6960001
-0.13232757 -0.40887734 1.6960001
-0.12303491 -0.40627536 1.6960001
-0.11448564 -0.40627539 1.6960001
-0.1060603 -0.40540805 1.6960001
-0.095156908 -0.40590373 1.6960001
-0.086533308 -0.40649843 1.6960001
-0.078801811 -0.40887734 1.6960001
-0.069880851 -0.40590367 1.6960001
-0.13232757 -0.39698273 1.6960001
-0.12638026 -0.39698273 1.6960001
-0.095156901 -0.39846957 1.6960001
-0.084749125 -0.3960906 1.6960001
-0.075828157 -0.39995638 1.6960001
-0.069880851 -0.39995638 1.6960001
-0.057986241 -0.39995638 1.6960001
-0.13530123 -0.38211444 1.6960001
-0.12935393 -0.38211444 1.6960001
-0.098130554 -0.38211444 1.6960001
-0.20310052 -0.12281189 1.6960001
-0.19675672 -0.12340661 1.6960001
-0.22153717 -0.1174593 1.6960001
-0.19180064 -0.11299883 1.6960001
-0.18585332 -0.111512 1.6960001
-0.1784192 -0.111512 1.6960001
-0.18436649 -0.10853834 1.6960001
-0.17494994 -0.10853835 1.6960001
-0.16503777 -0.10705152 1.6960001
-0.15760362 -0.10259104 1.6960001
-0.15314315 -0.099617384 1.6960001
-0.14496562 -0.09738715 1.6960001
-0.13530123 -0.094165683 1.6960001
-0.1278671 -0.090696424 1.6960001
-0.12340661 -0.086731553 1.6960001
-0.11448565 -0.082766682 1.6960001
-0.10853834 -0.081775464 1.6960001
-0.10556469 -0.077810593 1.6960001
-0.096148126 -0.07483694 1.6960001
-0.090696424 -0.069880851 1.6960001
-0.084749125 -0.069880851 1.6960001
-0.075828157 -0.06839402 1.6960001
-0.065632775 -0.067332007 1.6960001
-0.055607319 -0.063338816 1.6960001
-0.052038934 -0.057986241 1.6960001
-0.044604801 -0.055756003 1.6960001
-0.034791745 -0.053228397 1.6960001
-0.025276056 -0.052038934 1.6960001
-0.019328747 -0.052038934 1.6960001
-0.025276056 -0.049065281 1.6960001
-0.014868267 -0.049065281 1.6960001
-0.0044604801 -0.042126756 1.6960001
0.0044604801 -0.040144321 1.6960001
0.015760362 -0.036575936 1.6960001
0.024681324 -0.035386477 1.6960001
0.034197014 -0.032710191 1.6960001
0.043117974 -0.031223362 1.6960001
0.049065281 -0.028249707 1.6960001
0.055756003 -0.027506296 1.6960001
0.065420367 -0.025276054 1.6960001
0.075828157 -0.024284834 1.6960001
0.084749117 -0.023491859 1.6960001
0.096148111 -0.02329362 1.6960001
0.10482127 -0.023045816 1.6960001
0.111512 -0.0223024 1.6960001
0.11597247 -0.019328747 1.6960001
0.12489344 -0.01784192 1.6960001
0.13455781 -0.014868267 1.6960001
0.14481692 -0.014570901 1.6960001
0.15526719 -0.015080669 1.6960001
0.16444305 -0.013381439 1.6960001
0.17395872 -0.011399005 1.6960001
0.17990603 -0.0074341334 1.6960001
0.18585332 -0.0054516979 1.6960001
0.14124854 0.46835041 1.6960001
0.14124854 0.47132406 1.6960001
0.12595545 0.48704189 1.6960001
0.13381439 0.48916596 1.6960001
0.1174593 0.49660009 1.6960001
0.12571944 0.49445248 1.6960001
0.13232757 0.49511328 1.6960001
-0.092672437 -0.49176177 1.705
-0.085198849 -0.49176177 1.705
-0.079219982 -0.49176177 1.705
-0.046336215 -0.49325648 1.705
-0.12256676 -0.48279348 1.705
-0.11658789 -0.48279348 1.705
-0.10014602 -0.48877233 1.705
-0.094167151 -0.4887723 1.705
-0.084825173 -0.48615661 1.705
-0.075632669 -0.48578292 1.7050002
-0.0627781 -0.48428819 1.705
-0.054706633 -0.48398924 1.7050002
-0.044977382 -0.48605469 1.705
-0.037367918 -0.48428822 1.705
-0.14199808 -0.47083575 1.705
-0.13392662 -0.47322726 1.7050002
-0.12346359 -0.474722 1.7050002
-0.11637436 -0.4768146 1.705
-0.084202372 -0.47880757 1.705
-0.071959928 -0.4768146 1.705
-0.064604968 -0.47648245 1.705
-0.055304516 -0.47531986 1.705
-0.045186434 -0.47428513 1.705
-0.034805547 -0.47510639 1.705
-0.028399616 -0.47083575 1.705
-0.13362768 -0.46306324 1.7050002
-0.1240615 -0.46485683 1.705
-0.054108746 -0.46545476 1.7050002
-0.043678939 -0.46518904 1.705
-0.034378484 -0.46485689 1.705
-0.026264306 -0.4644298 1.705
-0.019431317 -0.46186745 1.705
-0.15096638 -0.45289916 1.705
-0.14274544 -0.45514119 1.705
-0.13542134 -0.45618755 1.7050002
-0.12705092 -0.45887801 1.705
-0.053809803 -0.4558886 1.705
-0.044433847 -0.45561683 1.705
-0.034752164 -0.45626226 1.705
-0.024556058 -0.45588857 1.705
-0.016441884 -0.4546074 1.705
-0.1539558 -0.44393086 1.705
-0.14498751 -0.44542554 1.705
-0.13601921 -0.44990972 1.705
-0.054706626 -0.44482771 1.7050002
-0.045482092 -0.44585267 1.705
-0.035374958 -0.44492733 1.705
-0.024128998 -0.44393083 1.705
-0.014947168 -0.44499844 1.705
-0.16292411 -0.43496254 1.705
-0.15794174 -0.43396607 1.705
-0.14584163 -0.43496254 1.705
-0.11210375 -0.43346781 1.705
-0.10463016 -0.43346778 1.705
-0.097156584 -0.43346781 1.705
-0.055304516 -0.43538958 1.705
-0.044841502 -0.4349626 1.705
-0.035232607 -0.43453547 1.705
-0.025410183 -0.43496254 1.705
-0.017189242 -0.4372046 1.705
-0.15320845 -0.42599422 1.705
-0.14498751 -0.42449951 1.705
-0.13751394 -0.42300481 1.705
-0.11210375 -0.42599425 1.705
-0.10350913 -0.42599425 1.705
-0.095163621 -0.42350304 1.705
-0.082209416 -0.42001539 1.705
-0.075034782 -0.42061329 1.7050002
-0.062778093 -0.42300478 1.705
-0.055304516 -0.42409185 1.705
-0.044841498 -0.42449948 1.705
-0.035042807 -0.4256621 1.705
-0.027403139 -0.42798722 1.705
-0.14349279 -0.41403651 1.705
-0.13512239 -0.41403645 1.7050002
-0.10313545 -0.41104707 1.705
-0.097156584 -0.41553122 1.705
-0.082209416 -0.41403651 1.705
-0.073839001 -0.41403651 1.7050002
-0.064272813 -0.41403645 1.705
-0.055304512 -0.41403654 1.705
-0.045482095 -0.41446358 1.705
-0.037367918 -0.41403651 1.705
-0.14461383 -0.40469456 1.705
-0.13452451 -0.40506819 1.705
-0.12480885 -0.40282613 1.705
-0.11509318 -0.40282613 1.705
-0.10612488 -0.40447035 1.7050002
-0.083205886 -0.40606466 1.705
-0.075376429 -0.40634939 1.705
-0.064272821 -0.40506825 1.705
-0.054930836 -0.40544188 1.705
-0.045007579 -0.4044039 1.705
-0.037367918 -0.40805766 1.705
-0.15096638 -0.39311051 1.705
-0.14498751 -0.39460516 1.705
-0.13462415 -0.39430621 1.705
-0.12378971 -0.39419755 1.705
-0.11509318 -0.39460519 1.705
-0.10463017 -0.39417815 1.705
-0.094167151 -0.39311048 1.705
-0.085198849 -0.39191473 1.7050002
-0.074735828 -0.39460519 1.705
-0.064272821 -0.39501286 1.705
-0.056425553 -0.39572623 1.705
-0.043845017 -0.39809287 1.705
-0.033382006 -0.3970964 1.705
-0.026605958 -0.39609993 1.7050002
-0.15096638 -0.3856369 1.705
-0.14498752 -0.38414213 1.705
-0.13469058 -0.38414219 1.705
-0.12406148 -0.38414219 1.705
-0.11509318 -0.38414219 1.705
-0.10503782 -0.38414219 1.705
-0.093793467 -0.38414216 1.705
-0.085198849 -0.38414219 1.705
-0.076230548 -0.38488954 1.705
-0.14498752 -0.37816331 1.705
-0.13452451 -0.3751739 1.705
-0.12406148 -0.37517387 1.705
-0.11509319 -0.37517387 1.705
-0.10463016 -0.3751739 1.705
-0.094167151 -0.3751739 1.705
-0.085198849 -0.3751739 1.705
-0.076657608 -0.3747468 1.705
-0.13422556 -0.36500984 1.705
-0.12406149 -0.3647109 1.705
-0.11536495 -0.3651185 1.705
-0.10712137 -0.36720204 1.705
-0.094167151 -0.36919501 1.705
-0.083205894 -0.36819851 1.705
-0.07523407 -0.36620557 1.705
-0.13601921 -0.35723728 1.705
-0.12465937 -0.35544363 1.7050002
-0.11658789 -0.35574257 1.705
-0.21075505 -0.12107205 1.705
-0.20776561 -0.12406148 1.705
-0.19281845 -0.11808261 1.705
-0.18598546 -0.11637437 1.705
-0.17488186 -0.11310023 1.705
-0.16740826 -0.11210375 1.705
-0.16292411 -0.10911432 1.705
-0.15634736 -0.105527 1.7050002
-0.14498752 -0.1011425 1.705
-0.13751394 -0.10014602 1.705
-0.13103683 -0.096160106 1.705
-0.12505795 -0.093170673 1.705
-0.12107205 -0.088188283 1.705
-0.11509318 -0.086195327 1.705
-0.10463016 -0.082956776 1.705
-0.097156584 -0.082209416 1.705
-0.10313545 -0.079219982 1.705
-0.094167151 -0.077725261 1.705
-0.085198849 -0.073241115 1.705
-0.074735835 -0.072493754 1.705
-0.064272813 -0.071248151 1.705
-0.05829395 -0.070251681 1.705
-0.053809799 -0.065767527 1.705
-0.049325649 -0.0627781 1.705
-0.043346781 -0.05829395 1.705
-0.034378484 -0.056799233 1.705
-0.025410183 -0.055304516 1.705
-0.0179366 -0.053809799 1.705
-0.0037367917 -0.045588858 1.705
0.0029894332 -0.043346781 1.705
0.014947167 -0.040357351 1.705
0.025410183 -0.040357351 1.705
0.028399616 -0.037367918 1.705
0.034378484 -0.037367918 1.705
0.044841498 -0.034378484 1.705
0.055304516 -0.03138905 1.705
0.064272813 -0.03138905 1.705
0.064272813 -0.028399616 1.705
0.075632669 -0.027801728 1.7050002
0.085198849 -0.027652258 1.705
0.093569264 -0.027203843 1.7050002
0.10463016 -0.0269049 1.705
0.11569107 -0.024214409 1.7050002
0.12406149 -0.022420749 1.705
0.13004035 -0.022420749 1.705
0.14797695 -0.022420749 1.705
0.12705092 -0.019431317 1.705
0.13542132 -0.01883343 1.7050002
0.14498751 -0.018434839 1.705
0.15545054 -0.019431317 1.705
0.16591355 -0.017438361 1.705
0.17562921 -0.014947167 1.705
0.18235543 -0.010463017 1.705
0.1883343 -0.0074735833 1.705
0.19506052 -0.0052315081 1.705
0.20776561 -0.0044841501 1.705
0.21374448 -0.0014947165 1.705
0.21374448 0.0014947166 1.705
0.11658789 0.49624592 1.705
0.12107205 0.49176177 1.705
0.13601921 0.49475121 1.705
-0.08559861 -0.49607149 1.7129999
-0.073960207 -0.49519548 1.7130002
-0.064574391 -0.49406922 1.7130002
-0.055564012 -0.49406916 1.7130002
-0.040546712 -0.4955709 1.7130001
-0.035397921 -0.49364009 1.7130002
-0.02853287 -0.49106571 1.7130001
-0.13065051 -0.48205534 1.7130001
-0.12764704 -0.48355705 1.7130001
-0.070581309 -0.48505878 1.7130001
-0.067577846 -0.48656052 1.7130001
-0.058567468 -0.48806223 1.7130001
-0.033038057 -0.48656052 1.7130001
-0.02853287 -0.48505878 1.7129999
-0.14266434 -0.47004148 1.7130001
-0.13665743 -0.47004148 1.7129999
-0.12764704 -0.47905186 1.7130001
-0.033939097 -0.4778505 1.7130001
-0.025100345 -0.47476122 1.7130002
-0.014850441 -0.47204378 1.7130002
-0.15167473 -0.46103111 1.7130001
-0.14446643 -0.46463528 1.7130001
-0.13515569 -0.46703804 1.7130001
-0.022525949 -0.46703804 1.7130001
