# .PCD v0.7 - Point Cloud Data file format
VERSION 0.7
FIELDS x y z
SIZE 4 4 4
TYPE F F F
COUNT 1 1 1
WIDTH 1440
HEIGHT 1
VIEWPOINT 0 0 0 1 0 0 0
POINTS 1440
DATA ascii
0.0064172 0.046845563 1.4640001
0.01411784 0.046631653 1.4640001
0.025668798 0.047487281 1.4640001
0.035936318 0.047487281 1.4640001
0.042353518 0.047487281 1.4640001
-0.0051337602 0.050054159 1.4640001
0.0051337602 0.050054159 1.4640001
0.01540128 0.050054159 1.4640001
0.026438862 0.050567538 1.4640001
0.035386272 0.051154252 1.464
0.044920396 0.0513376 1.4640001
0.053904481 0.052621037 1.464
0.064172 0.053904478 1.464
0.073889479 0.054087825 1.464
0.083936974 0.055701297 1.4640001
0.094974563 0.0609634 1.4640001
0.10538469 0.065170228 1.464
0.11515958 0.065688789 1.464
0.12449367 0.0673806 1.4640001
0.11935992 0.0705892 1.4640001
0.12534931 0.072300456 1.464
0.13304995 0.075722963 1.4640001
0.12962744 0.085990481 1.4640001
0.13219433 0.084707044 1.4640001
0.12962744 0.097541437 1.4640001
0.13219433 0.091124237 1.4640001
0.12770228 0.10331692 1.4640001
0.15679184 0.10266643 1.4699999
-0.28430912 -0.034590639 1.4770001
-0.27493694 -0.032370917 1.4770001
-0.26371506 -0.032370917 1.4770001
-0.25456488 -0.033406787 1.4770001
-0.24657388 -0.033480782 1.4770001
-0.23824994 -0.032370917 1.4770001
-0.2936042 -0.024278186 1.4770001
-0.28486404 -0.025896735 1.4769999
-0.27479851 -0.026144562 1.4737693
-0.26521945 -0.025817342 1.4721874
-0.25525075 -0.026878601 1.4725456
-0.24557875 -0.026086561 1.4727999
-0.2355441 -0.025601357 1.4746666
-0.22585651 -0.023122082 1.4770001
-0.21494287 -0.022012223 1.4770001
-0.20760548 -0.022875449 1.4770001
-0.30169696 -0.018127713 1.4770001
-0.29590487 -0.015825517 1.4759231
-0.26933831 -0.0193305 1.47
-0.2461417 -0.0193305 1.47
-0.23325469 -0.018041801 1.4700001
-0.2242575 -0.015745049 1.4718666
-0.21465857 -0.01576264 1.4732666
-0.20423484 -0.015514807 1.4744999
-0.1950808 -0.013265172 1.4761251
-0.18516164 -0.011653529 1.4770001
-0.17998229 -0.011653529 1.4770001
-0.29295677 -0.0061504738 1.4770001
-0.28673574 -0.0070878505 1.47
-0.2152129 -0.0090209004 1.47
-0.19376218 -0.0081811994 1.4735001
-0.18499707 -0.0059949649 1.4738183
-0.17595971 -0.0045309053 1.4758334
-0.16503282 0.0050454554 1.4738183
-0.15502726 0.0067096073 1.4770001
-0.14512044 0.0066962186 1.4744548
-0.13543992 0.0085459221 1.4770001
-0.27372354 0.014707136 1.4714
-0.15464401 0.0115983 1.47
-0.13376093 0.013683538 1.4728001
-0.12447137 0.016219208 1.473889
-0.11459304 0.016974458 1.4735
-0.105745 0.017696099 1.4770001
-0.082869545 0.01942255 1.4770001
-0.077690199 0.01942255 1.4770001
-0.1121169 0.0219079 1.47
-0.10526136 0.023042304 1.4720001
-0.09566655 0.024558941 1.4746667
-0.085776486 0.024024434 1.4735001
-0.075603731 0.023626165 1.4700001
-0.063302785 0.028415835 1.4735
-0.054323308 0.029745957 1.47525
-0.045208823 0.029063253 1.4735
-0.035307314 0.028847447 1.4735001
-0.025896734 0.029781243 1.4770001
-0.015106427 0.029781243 1.4770001
-0.0618576 0.032217499 1.47
-0.054125398 0.032217499 1.47
-0.036083601 0.032217499 1.47
-0.025835363 0.033582907 1.4735001
-0.015067562 0.034003951 1.4731113
-0.0051695281 0.037992109 1.4742001
0.0023257965 0.037992101 1.4742
0.018127713 0.037550263 1.4770001
0.027892901 0.037495911 1.4750001
0.034274817 0.038150124 1.47525
0.041434772 0.037550263 1.4770001
-0.0043815807 0.043042578 1.47
0.0047286428 0.043693751 1.470778
0.01578445 0.043180421 1.4721539
0.02528061 0.043080628 1.4714001
0.036112238 0.043847505 1.4711667
0.044959266 0.043234866 1.4723334
0.054189831 0.043863356 1.4717499
0.063641138 0.045121793 1.4706365
0.074122749 0.046972092 1.4746667
0.082869545 0.047908958 1.4770001
0.054125398 0.0502593 1.47
0.064435005 0.0502593 1.47
0.075517818 0.050774775 1.47
0.086196303 0.052345082 1.4723334
0.095275998 0.0551337 1.4732308
0.10560543 0.054934487 1.4732308
0.11463866 0.054170404 1.4737333
0.12257787 0.055677976 1.4770001
0.099229902 0.060568899 1.47
0.10644662 0.061084379 1.47
0.11675622 0.061084379 1.47
0.12571031 0.063496776 1.4715557
0.13313422 0.065595597 1.4743751
0.13628003 0.074100249 1.4700001
0.14465487 0.076850154 1.4746668
0.1661707 0.078121811 1.4770001
0.13676636 0.085155457 1.4717501
0.14502171 0.085459217 1.4769999
0.15581201 0.087617278 1.4770001
0.1640743 0.087493964 1.4770001
0.13596153 0.09563873 1.4742001
0.14466856 0.094993927 1.4770001
0.15732266 0.095170498 1.4770001
0.16250199 0.093875654 1.4770001
0.13440405 0.10488178 1.4770001
0.14466856 0.1051172 1.4770001
0.13854752 0.11394563 1.4770001
0.14502169 0.11394563 1.4769999
0.15408556 0.11265079 1.4770001
0.14890622 0.12171464 1.4770001
0.15149589 0.12041981 1.4770001
-0.29481336 -0.041744232 1.488
-0.28446388 -0.044042859 1.4862001
-0.27471 -0.043239955 1.488143
-0.26492816 -0.043549992 1.4872001
-0.25548205 -0.043762948 1.4868573
-0.24549748 -0.043776099 1.4872857
-0.23529485 -0.042522013 1.4878001
-0.22713205 -0.040466055 1.4890001
-0.30153739 -0.032633916 1.4890001
-0.29538959 -0.035135336 1.4843333
-0.28680131 -0.035622649 1.483
-0.27547604 -0.035969339 1.4829999
-0.26536417 -0.035969339 1.4829999
-0.25559899 -0.037182763 1.483
-0.24355143 -0.036836069 1.4829999
-0.23366283 -0.03533899 1.4829999
-0.22454454 -0.034957554 1.4868183
-0.2145136 -0.033504155 1.4890002
-0.20494099 -0.031067487 1.4890001
-0.30118904 -0.025568567 1.4829999
-0.29577199 -0.029252175 1.483
-0.23098385 -0.029035494 1.4830002
-0.22454526 -0.028044941 1.4829999
-0.21581604 -0.027302029 1.4829999
-0.20497675 -0.025752958 1.4835999
-0.19587259 -0.024531923 1.4868183
-0.18536064 -0.023496419 1.4890002
-0.17796361 -0.0230613 1.489
-0.20151499 -0.01950145 1.483
-0.19403942 -0.017876329 1.4829999
-0.18479945 -0.016158344 1.4829999
-0.17491853 -0.015242852 1.4842856
-0.168391 -0.01174821 1.4890001
-0.17273827 -0.0068809562 1.4847143
-0.16470473 -0.0046608606 1.4877145
-0.15409315 -0.0050025522 1.4875001
-0.14578338 -0.0041309991 1.4870001
-0.13662733 -0.0021755944 1.4890002
-0.16381218 0.0013000966 1.483
-0.15679166 0.0018201353 1.483
-0.14483076 0.0018201353 1.483
-0.13495302 0.0036648652 1.4840909
-0.12499863 0.0052036736 1.48525
-0.11536714 0.0062978268 1.4870001
-0.10442853 0.0078321397 1.4890002
-0.093985677 0.0091374964 1.4890001
-0.084848188 0.0091374964 1.489
-0.078321397 0.0091374964 1.4890001
-0.12480928 0.01170087 1.483
-0.11440851 0.01170087 1.483
-0.10278969 0.014310529 1.4841999
-0.094623551 0.015315702 1.4848461
-0.085985288 0.015312062 1.4843847
-0.075163387 0.015065766 1.4855715
-0.065528899 0.016969636 1.4890002
-0.054824978 0.019580349 1.4890001
-0.045687482 0.019580349 1.489
-0.033939272 0.019580349 1.4890001
-0.024801776 0.019580349 1.489
-0.018274993 0.019580349 1.4890001
-0.072805412 0.022101643 1.483
-0.064562112 0.024208624 1.4848
-0.054696545 0.024739966 1.4855
-0.044130519 0.024490798 1.4846363
-0.034829527 0.023760295 1.48525
-0.025664575 0.024954475 1.4840909
-0.015724231 0.025137067 1.4853077
-0.0050296867 0.027022246 1.488143
0.0026107132 0.027412489 1.4890001
0.032633916 0.027412489 1.489
-0.0047722813 0.032253832 1.4850001
0.0059117675 0.033159915 1.4857693
0.015265771 0.033317469 1.4864286
0.025045099 0.033152122 1.4863334
0.034679879 0.032330237 1.4872001
0.044419024 0.034228805 1.4862728
0.054268878 0.036031291 1.4856668
0.064397596 0.036985103 1.4890002
0.0091006765 0.040302996 1.483
0.06693437 0.041408297 1.4854002
0.075785592 0.042745776 1.4876668
0.085760646 0.044070762 1.4860001
0.094436161 0.043954309 1.4872859
0.10420229 0.044579025 1.4870001
0.11436617 0.044885959 1.4872857
0.12475479 0.047179315 1.4890002
0.13184102 0.048298195 1.4890001
0.096207149 0.050703771 1.483
0.10140754 0.050703771 1.483
0.12662855 0.053398643 1.4856666
0.13534619 0.055367507 1.4885718
0.14465725 0.055180989 1.4890002
0.15011601 0.054824978 1.4890001
0.13741235 0.063403912 1.4847143
0.14484681 0.065246351 1.4885001
0.15359695 0.065412864 1.4890002
0.161081 0.065528907 1.4890001
0.14537382 0.073335208 1.485
0.15539798 0.076243222 1.4857693
0.16327418 0.075988881 1.4859999
0.15575157 0.084506281 1.4829999
0.16563231 0.082946166 1.483
0.14604419 0.09664052 1.4830002
0.15427813 0.095773786 1.4829999
0.13613869 0.10493637 1.4829999
0.14777766 0.10097418 1.4830002
0.15384477 0.10444109 1.4829999
0.12857763 0.11682941 1.4890001
0.13480541 0.11454151 1.4847143
0.15315138 0.11362845 1.483
0.12698972 0.12516432 1.4872
0.13547897 0.12506373 1.4860001
0.1448455 0.12502944 1.4843845
0.15111366 0.12636974 1.4860001
0.12621795 0.13585749 1.4890002
0.13572192 0.13572389 1.4886252
0.14493451 0.13512002 1.4853078
0.11878745 0.1475053 1.4890001
0.12567024 0.14513193 1.4890002
0.13575707 0.14489459 1.4890002
0.14358923 0.14489459 1.4890002
0.11791722 0.15098625 1.489
0.1255753 0.15377103 1.4890002
0.13505422 0.15353002 1.4890002
0.11617674 0.16316958 1.4890001
0.12601712 0.16377205 1.4890002
0.13295989 0.1639155 1.4890002
0.12836008 0.1749178 1.4890002
0.13184102 0.17361243 1.489
-0.29377449 -0.05114824 1.4960001
-0.28534347 -0.052272379 1.4960002
-0.27672508 -0.051803984 1.4960001
-0.26492164 -0.05114824 1.4960001
-0.25386763 -0.052272379 1.4960002
-0.24787223 -0.05114824 1.4960001
-0.30033198 -0.043279279 1.4960001
-0.295086 -0.047213759 1.4960002
-0.28984001 -0.048525251 1.4960001
-0.27410209 -0.048525255 1.4959999
-0.26492167 -0.048525251 1.4960001
-0.25705269 -0.048525251 1.4960001
-0.24393776 -0.048525251 1.4960001
-0.23388298 -0.046776593 1.4959999
-0.22557685 -0.041967787 1.4960001
-0.21901938 -0.040656295 1.4960001
-0.30426645 -0.038033307 1.4960001
-0.22164237 -0.038033307 1.4960001
-0.21464773 -0.037158977 1.4960002
-0.20415579 -0.03366166 1.4960002
-0.19593711 -0.031213542 1.4960001
-0.19147803 -0.02754136 1.4960001
-0.18623206 -0.02754136 1.4960001
-0.17530294 -0.024044044 1.4959999
-0.17180562 -0.018360905 1.4960001
-0.16618493 -0.014051714 1.4960002
-0.1547562 -0.01180344 1.4960001
-0.14426427 -0.01180344 1.4960001
-0.1377068 -0.01180344 1.4960001
-0.16262516 -0.0091804536 1.4960001
-0.1573792 -0.0091804536 1.4960001
-0.14229703 -0.0085247066 1.4960001
-0.13508381 -0.0065574669 1.4960002
-0.12677769 -0.0021858222 1.4960002
-0.1167229 -0.0013114935 1.4959999
-0.11344417 0.0019672401 1.4960001
-0.10570636 0.0034098825 1.4960001
-0.094427511 0.0052459734 1.4960002
-0.083935574 0.0065574665 1.4960001
-0.074755117 0.0083061242 1.4959999
-0.069509149 0.0091804536 1.4960001
-0.065137498 0.013552099 1.4960002
-0.0554404 0.01466488 1.4960002
-0.044778127 0.016674699 1.4960002
-0.033836529 0.016524816 1.4960001
-0.024918372 0.017049413 1.4959999
-0.016175084 0.017486578 1.4960002
-0.0061203022 0.023169717 1.4960002
0.0053916946 0.024626931 1.4960002
0.015737921 0.026229866 1.4960002
0.025967568 0.025967568 1.4960001
0.034098826 0.024918376 1.4960002
0.044590775 0.02754136 1.4960001
0.052459732 0.02754136 1.4960001
0.022295386 0.030164346 1.4960001
0.045902263 0.030164346 1.4959999
0.055644788 0.031288486 1.4960002
0.065574668 0.033224497 1.4960002
0.074755117 0.036159746 1.4960002
0.084664181 0.035701759 1.4960002
0.095214412 0.037508707 1.4960001
0.10491946 0.036721811 1.4960002
0.11453709 0.037158977 1.4960002
0.080001093 0.040656295 1.4960001
0.10623096 0.040656295 1.4960001
0.1180344 0.040656295 1.4960001
0.125716 0.042904567 1.4960002
0.13508381 0.046339434 1.4960002
0.14338994 0.047650918 1.4960002
0.16655965 0.048525251 1.4960001
0.1377068 0.05114824 1.4960001
0.14426427 0.05114824 1.4960001
0.15681712 0.056394216 1.4960002
0.1636088 0.05672209 1.4960002
0.15531828 0.065387316 1.4960002
0.16393666 0.065574668 1.4960001
0.1560677 0.072132133 1.4960001
0.16262516 0.072132133 1.4960001
0.1193459 0.14557576 1.4960001
0.12196888 0.14164129 1.4960001
0.11606716 0.15705132 1.4960002
0.12196888 0.15869069 1.4960001
0.1377068 0.15869069 1.4960001
0.14242819 0.15344472 1.4960001
0.10885394 0.16655965 1.4959999
0.11532398 0.1653356 1.4960002
0.12284321 0.16830832 1.4959999
0.10885394 0.17574011 1.4960001
0.11541141 0.17574011 1.4960002
0.12406726 0.17574009 1.4960002
0.10666812 0.18492055 1.4960002
0.11576908 0.18468212 1.4960002
0.12491973 0.18459268 1.4960002
0.10360797 0.19016653 1.4960001
0.1167229 0.19016653 1.4960001
-0.28442135 -0.062175829 1.5090002
-0.27572808 -0.063309737 1.5089999
-0.26499242 -0.063274421 1.5081428
-0.25531778 -0.062175829 1.5090002
-0.30029604 -0.051592711 1.5090001
-0.2941238 -0.056035906 1.5064286
-0.28489473 -0.058034893 1.5045002
-0.27380857 -0.05691918 1.5035456
-0.26484364 -0.056658089 1.5030001
-0.25565809 -0.057783209 1.5048001
-0.24438573 -0.055876549 1.5055
-0.23532261 -0.05388416 1.5057273
-0.22674334 -0.052651025 1.5090001
-0.30396092 -0.045598939 1.5074999
-0.23453814 -0.048752308 1.503
-0.2238235 -0.046719845 1.5053999
-0.21475896 -0.044381775 1.5066
-0.20545147 -0.042073611 1.5064286
-0.19578773 -0.04100959 1.5090001
-0.20423265 -0.038211271 1.5029999
-0.19474068 -0.036488328 1.5043334
-0.18474303 -0.034314271 1.5052501
-0.17532127 -0.034051828 1.5071539
-0.16800703 -0.030426471 1.5090001
-0.1805153 -0.027670231 1.503
-0.173408 -0.027185258 1.5053999
-0.16480806 -0.024679042 1.508
-0.15477812 -0.023812018 1.5089999
-0.14948657 -0.02248913 1.5090001
-0.16364965 -0.018183295 1.503
-0.15563421 -0.017148912 1.5045
-0.14556117 -0.016923569 1.5057273
-0.13454583 -0.014818882 1.5063334
-0.12523359 -0.012787937 1.5089999
-0.11509142 -0.01190601 1.5090002
-0.13044538 -0.0092234099 1.503
-0.12430761 -0.0075855772 1.5045002
-0.11580105 -0.0063634049 1.5057273
-0.105726 -0.0052902447 1.5075003
-0.095543757 -0.0047234795 1.5077144
-0.085657135 -0.0029765028 1.5089999
-0.075404726 -0.00132289 1.5090002
-0.064821608 -0.00132289 1.5090002
-0.10277514 0.0013176299 1.503
-0.09486936 0.0013176299 1.503
-0.08380945 0.0024477786 1.5038574
-0.073834911 0.0030803143 1.507
-0.065195069 0.0058028321 1.5054001
-0.055468012 0.0065999851 1.5064999
-0.045304619 0.0068482812 1.5079091
-0.034659721 0.0087310737 1.5090001
-0.0264578 0.0092602298 1.5090001
-0.01587468 0.0092602298 1.5090001
-0.04400884 0.012385723 1.503
-0.035207812 0.012760759 1.506
-0.025084943 0.01319997 1.5059999
-0.014963823 0.012760759 1.506
-0.0057202498 0.017156076 1.5056666
0.00528104 0.018481009 1.5059999
0.016139258 0.019314194 1.5090001
0.025796356 0.019181905 1.5090001
0.033491295 0.018948274 1.5079999
0.044978261 0.019843349 1.5090001
0.054238487 0.019843349 1.5090002
0.015811559 0.02239971 1.503
0.02415655 0.02327813 1.5029999
0.03689364 0.02239971 1.503
0.045415215 0.023554655 1.5047144
0.055831101 0.024176419 1.5043335
0.063993536 0.025481317 1.5072858
0.074081838 0.027780689 1.5090001
0.084664956 0.027780689 1.5090001
0.095248081 0.027780689 1.5090001
0.10450831 0.027780689 1.5090001
0.068516761 0.03030549 1.503
0.075104915 0.03030549 1.5029999
0.084199451 0.031407986 1.5054001
0.095436566 0.032395463 1.5050001
0.10556754 0.031668488 1.50525
0.11558286 0.032239668 1.5055716
0.12473091 0.034615006 1.5072
0.13421753 0.037186325 1.5072858
0.14154923 0.038363811 1.5090001
0.13518885 0.041373581 1.503
0.14515825 0.042885438 1.5052501
0.15451588 0.046220746 1.5064286
0.1581156 0.051387571 1.503
0.16206849 0.051387571 1.503
0.11199855 0.18842109 1.503
0.12781011 0.18578583 1.503
0.13044538 0.18578583 1.503
0.10803843 0.19658789 1.5075001
0.11545234 0.19587938 1.5057693
0.12481669 0.19497842 1.5073638
0.10706174 0.2048656 1.5076666
0.11509143 0.20504794 1.5089999
0.12038299 0.20372507 1.5090001
0.099216752 0.21695396 1.5090001
0.10574301 0.21439637 1.5090002
0.1143355 0.21449716 1.5089999
0.10677612 0.22243449 1.5089999
0.11509143 0.22092263 1.5090001
0.12038299 0.22092263 1.5090001
0.067467391 0.28442135 1.5090001
0.070113167 0.28574425 1.5090001
-0.26979241 -0.070438415 1.516
-0.29238588 -0.062464252 1.516
-0.2844117 -0.066451333 1.5159999
-0.27444401 -0.067115843 1.516
-0.26500791 -0.067248747 1.516
-0.25536296 -0.065502033 1.5159999
-0.24586993 -0.062464252 1.5160002
-0.30168906 -0.054490093 1.516
-0.29637295 -0.059806198 1.516
-0.24055383 -0.059806198 1.516
-0.23523772 -0.058477171 1.516
-0.2250485 -0.055376112 1.5159999
-0.21840338 -0.052718058 1.5160002
-0.30700517 -0.04385788 1.516
-0.21330878 -0.048509471 1.516
-0.20387271 -0.04598432 1.516
-0.19315188 -0.043857876 1.5159999
-0.18526632 -0.04226305 1.516
-0.17676054 -0.041199826 1.5160002
-0.17144446 -0.035883721 1.5160002
-0.16516179 -0.033708949 1.5159999
-0.15473667 -0.03170678 1.5159999
-0.16081223 -0.02790956 1.516
-0.15336968 -0.027377948 1.516
-0.14539552 -0.023656676 1.516
-0.14220585 -0.019935399 1.516
-0.13600372 -0.019049382 1.5160002
-0.12404248 -0.016391328 1.5159999
-0.1138533 -0.01550531 1.5159999
-0.1049931 -0.013290267 1.5159999
-0.098790981 -0.012847259 1.5160002
-0.093031868 -0.009303187 1.516
-0.084614694 -0.007088142 1.5159999
-0.074093238 -0.0046515935 1.5159999
-0.065122306 -0.0053161066 1.5159999
-0.057148144 -0.0026580533 1.5159999
-0.04651593 -0.0013290267 1.5160002
-0.063793279 0.0013290267 1.516
-0.05581912 0.0013290267 1.516
-0.044389494 0.0018606372 1.516
-0.034997702 0.0042824191 1.5159999
-0.024871785 0.0058856891 1.5159999
-0.016517902 0.0055059674 1.5159999
-0.009303187 0.0079741599 1.516
-0.00398708 0.014619294 1.5160002
0.0061135227 0.014087683 1.516
0.015827499 0.014377651 1.5159999
0.02436549 0.015062302 1.5159999
0.034820501 0.015682515 1.516
0.045186907 0.017277347 1.516
0.056616534 0.017808955 1.516
0.064457789 0.019270886 1.516
0.067780361 0.023922481 1.516
0.074425489 0.023922481 1.5159999
0.085057706 0.024719898 1.5159999
0.095025405 0.025251508 1.5159999
0.1049931 0.025916019 1.516
0.1142963 0.02790956 1.516
0.1249285 0.02790956 1.516
0.12625754 0.030567611 1.5160002
0.13556072 0.032561153 1.5159999
0.1448639 0.036326725 1.5159999
0.15018001 0.038541771 1.516
0.15416709 0.041864343 1.516
0.16280577 0.048509471 1.516
0.12546012 0.20493591 1.5159999
0.098347977 0.21663135 1.516
0.10765116 0.2139733 1.516
0.11668855 0.21503651 1.516
0.12182743 0.21618833 1.5159999
0.098347969 0.2250485 1.5159999
0.1049931 0.22759581 1.5159999
0.11429629 0.22626677 1.5159999
0.097778387 0.2352377 1.5159999
0.1049931 0.23523773 1.5159999
0.11163825 0.23523772 1.5159999
0.098347977 0.24586993 1.516
0.1049931 0.24055383 1.516
0.11163824 0.24055383 1.516
0.099676996 0.25650215 1.516
0.067780361 0.27776659 1.516
0.071767442 0.28308266 1.516
0.070438415 0.29371488 1.5160002
-0.29176548 -0.071936049 1.5289999
-0.28383359 -0.073639654 1.5272002
-0.27495801 -0.073533922 1.5250001
-0.26469514 -0.074027687 1.5266925
-0.25483444 -0.074092828 1.5280772
-0.24563257 -0.073388174 1.5290002
-0.23792514 -0.071712643 1.529
-0.30209437 -0.061133761 1.5270001
-0.29595378 -0.066299424 1.5255716
-0.28973043 -0.06809333 1.5230001
-0.25368103 -0.06809333 1.5230001
-0.24533078 -0.06634292 1.5236667
-0.23521546 -0.064495139 1.5261999
-0.22515935 -0.063320488 1.5266922
-0.2148333 -0.062756188 1.5290002
-0.20562093 -0.061391391 1.529
-0.19972308 -0.060319051 1.529
-0.30526379 -0.054813582 1.5250001
-0.22163711 -0.057412025 1.5230001
-0.21387491 -0.055342555 1.5248001
-0.20545785 -0.054648243 1.5278002
-0.19650605 -0.054689277 1.5290002
-0.18497841 -0.052276511 1.529
-0.20561516 -0.049401045 1.5230001
-0.19523203 -0.048284419 1.5238572
-0.18393466 -0.047323171 1.5248001
-0.17430644 -0.045860108 1.5262727
-0.16588373 -0.042365208 1.5260001
-0.16355751 -0.038052157 1.5230001
-0.15518403 -0.036791947 1.5260001
-0.14517488 -0.031944107 1.5272858
-0.13806361 -0.030829737 1.529
-0.14302178 -0.026544088 1.5247144
-0.13551864 -0.023426505 1.52675
-0.12514278 -0.021210197 1.5255716
-0.11505023 -0.021407321 1.526
-0.10455301 -0.020106349 1.529
-0.10414274 -0.017357124 1.5230001
-0.094904795 -0.014706333 1.5247144
-0.085658886 -0.01338648 1.5267501
-0.075063705 -0.01206381 1.529
-0.082780123 -0.0093461433 1.5230001
-0.074502118 -0.0088120783 1.5230001
-0.064340323 -0.0093829632 1.529
-0.054885473 -0.0066968566 1.5270001
-0.045631219 -0.0057224822 1.5268184
-0.035250474 -0.0031259013 1.5270002
-0.024127621 -0.0013404234 1.529
-0.016085081 -0.0013404234 1.529
-0.032043919 0.0013351634 1.5230001
-0.024032939 0.0013351634 1.5230001
-0.014031049 0.00200406 1.5245001
-0.0053516994 0.0061506936 1.526
0.0053511732 0.00802413 1.526
0.014715726 0.00802413 1.5260001
0.023205951 0.0084770741 1.5270001
0.030829737 0.0093829632 1.529
-0.0040054903 0.012016471 1.5230001
0.0040054903 0.012016471 1.5230001
0.026703266 0.01201647 1.5230001
0.035545848 0.012560004 1.5242001
0.045484975 0.013375303 1.526
0.054813579 0.013367412 1.5250001
0.064214081 0.014713096 1.5260001
0.074075408 0.016509093 1.5270001
0.085450448 0.017357124 1.5230001
0.092126273 0.017357124 1.5230001
0.10053175 0.017425504 1.529
0.074769147 0.020027449 1.5230001
0.085450456 0.020027449 1.5230001
0.095464177 0.020695033 1.5230001
0.10429856 0.021392198 1.5252501
0.11497483 0.022724077 1.5250001
0.12527464 0.022962052 1.5246364
0.13436183 0.024435807 1.5257274
0.14395612 0.026445746 1.5275002
0.14518505 0.031619031 1.5240002
0.15477346 0.036125973 1.5263335
0.15888444 0.041390061 1.5230001
0.1645963 0.043392118 1.5264286
0.17559546 0.041553125 1.529
0.12550536 0.21362613 1.5230001
0.09657681 0.22742282 1.5230001
0.095464177 0.23365358 1.5230001
0.094553836 0.24554868 1.523
0.10433347 0.2458608 1.5230001
0.1118867 0.24647114 1.5230001
0.088565826 0.25679639 1.5230001
0.094796598 0.25501618 1.523
0.10458433 0.25495708 1.524091
0.11096409 0.25535461 1.5250001
0.077744558 0.26942509 1.529
0.086477563 0.26499498 1.5248462
0.094858848 0.26453856 1.5240002
0.10363139 0.26412815 1.5238572
0.074569501 0.27550948 1.5262729
0.085558288 0.2740688 1.525
0.094878428 0.27395046 1.5243335
0.10247378 0.27337468 1.523
0.076848596 0.28488803 1.5244999
0.085896775 0.2842879 1.5256667
0.095067255 0.28422979 1.5273637
0.10026874 0.28208593 1.5250001
0.076104306 0.2950711 1.523
0.085404113 0.29546762 1.529
0.093382828 0.29176548 1.5289999
0.075260967 0.30423254 1.5266925
0.085766375 0.30554253 1.5286249
0.087127514 0.31298885 1.529
-0.27469826 -0.082140163 1.536
-0.26527232 -0.082140163 1.5359999
-0.25584641 -0.082140163 1.536
-0.24776703 -0.082140163 1.536
-0.30028287 -0.071367681 1.536
-0.29489663 -0.074060798 1.5359999
-0.28547072 -0.078773759 1.536
-0.27469823 -0.079447038 1.536
-0.26661888 -0.079447038 1.536
-0.25449982 -0.079447038 1.5359999
-0.24480459 -0.078369789 1.536
-0.23430143 -0.074060798 1.5360001
-0.22541413 -0.072444931 1.536
-0.2154496 -0.071367681 1.536
-0.30513048 -0.064904191 1.536
-0.22487552 -0.068674557 1.5359999
-0.21464166 -0.068135932 1.536
-0.2046771 -0.06598144 1.5360001
-0.19578981 -0.061672449 1.536
-0.30836225 -0.057902079 1.536
-0.19255808 -0.056555517 1.536
-0.18582527 -0.056555517 1.5360001
-0.17801523 -0.054670334 1.536
-0.31374848 -0.044436481 1.536
-0.17235968 -0.049822718 1.536
-0.16472918 -0.046231896 1.5360001
-0.1548544 -0.041743357 1.5359999
-0.15216129 -0.03905024 1.536
-0.14542848 -0.037030399 1.5360001
-0.13502325 -0.034153655 1.5360001
-0.12590335 -0.031644158 1.536
-0.11984384 -0.030970879 1.536
-0.13241173 -0.026482346 1.5360001
-0.12523007 -0.026931198 1.5360001
-0.11670186 -0.026482346 1.5360001
-0.10583961 -0.023430144 1.536
-0.094259195 -0.020198399 1.536
-0.084833287 -0.020198399 1.5359999
-0.091566078 -0.017505281 1.536
-0.084833287 -0.017505281 1.5359999
-0.075407356 -0.01615872 1.5360001
-0.064634882 -0.0134656 1.5360001
-0.055208955 -0.013465601 1.5360001
-0.046052355 -0.012657663 1.536
-0.03905024 -0.01211904 1.536
-0.043089919 -0.0094259195 1.536
-0.034433462 -0.0082717249 1.5360001
-0.024686933 -0.0058350926 1.5360001
-0.014812159 -0.0045783045 1.536
-0.0094259195 -0.0040396801 1.5359999
-0.0033664 0.0020198398 1.536
0.0044885329 0.0031419734 1.5360001
0.02558464 0.0058350936 1.5359999
0.035010558 0.0080793602 1.5360001
0.045783043 0.0094259195 1.536
0.05453568 0.0087526394 1.536
0.061941758 0.0094259195 1.536
0.067327999 0.01211904 1.536
0.074734077 0.01279232 1.536
0.09627904 0.01615872 1.536
0.10583963 0.016428033 1.536
0.11580416 0.016607573 1.5360001
0.12433237 0.016607573 1.5359999
0.13734911 0.020198399 1.536
0.14462054 0.022352895 1.536
0.15216129 0.02827776 1.536
0.1548544 0.030970879 1.5359999
0.16428033 0.038376961 1.536
0.16832 0.047129601 1.536
0.17191082 0.042641062 1.5359999
0.082140163 0.26796544 1.536
0.095605761 0.28143105 1.536
0.094259202 0.29758975 1.536
0.092912637 0.30432254 1.536
0.076305069 0.3128508 1.5360001
0.083217405 0.31698021 1.536
0.092912637 0.31105536 1.536
-0.28316447 -0.084318094 1.5430001
-0.27459744 -0.086572587 1.5430001
-0.26454884 -0.086379342 1.5430001
-0.25430697 -0.08521989 1.5430001
-0.24619079 -0.083867192 1.5430001
-0.29569951 -0.07764478 1.5430001
-0.24213271 -0.079809099 1.5430001
-0.23446743 -0.078907304 1.5430001
-0.22454765 -0.075751014 1.5430001
-0.21507877 -0.074398316 1.5430001
-0.20831528 -0.071692921 1.5430001
-0.31247294 -0.062224045 1.5430001
-0.30886576 -0.066282138 1.5430001
-0.20290449 -0.068987526 1.5430001
-0.19559994 -0.065199986 1.5430001
-0.18531944 -0.060871348 1.5430001
-0.31314927 -0.053431518 1.5430001
-0.1739568 -0.054919489 1.5430001
-0.16818528 -0.052755166 1.5430001
-0.1609709 -0.044638991 1.5430001
-0.15420742 -0.043286294 1.5430001
-0.14473854 -0.041933596 1.5430001
-0.13797507 -0.041933596 1.5430001
-0.14203314 -0.039228205 1.5430001
-0.13324063 -0.038551856 1.5430001
-0.12464134 -0.035749841 1.5430001
-0.11565556 -0.031788372 1.5430001
-0.10956843 -0.031112023 1.5430001
-0.11362652 -0.028406629 1.5430001
-0.10578088 -0.026783392 1.5430001
-0.094882004 -0.024155298 1.5430001
-0.08521989 -0.022995843 1.5430001
-0.075382099 -0.022749899 1.5430001
-0.065509163 -0.021449905 1.5430001
-0.058165956 -0.020290449 1.5430001
-0.064929441 -0.017585056 1.5430001
-0.053296249 -0.017043976 1.5430001
-0.043286294 -0.014879663 1.5430001
-0.035440654 -0.013256428 1.5430001
-0.02434854 -0.01217427 1.5430001
-0.022995844 -0.0094688768 1.5430001
-0.014338585 -0.0078456402 1.5430001
-0.0049598878 -0.0043586893 1.5430001
0.0054107867 -0.0027053934 1.5430001
0.014879663 -0.0027053934 1.5430001
0.023536922 -0.0018937753 1.5430001
0.0081161801 0.0013526967 1.5430001
0.014879663 0.0027053934 1.5430001
0.02454178 0.0025121511 1.5430001
0.035170112 0.0033817422 1.5430001
0.044638991 0.0054107863 1.5430001
0.053296249 0.0056813261 1.5430001
0.065831237 0.0076652807 1.5430001
0.076021545 0.0089277979 1.5430001
0.08521989 0.0094688768 1.5430001
0.094688766 0.0094688768 1.5430001
0.079809099 0.013526967 1.5430001
0.08521989 0.013526968 1.5430001
0.094237864 0.013076068 1.5430001
0.10551033 0.013076068 1.5430001
0.11497921 0.013977866 1.5430001
0.12670259 0.01578146 1.5430001
0.13526967 0.01623236 1.5430001
0.14338584 0.017585056 1.5430001
0.14744394 0.020290449 1.5430001
0.15420742 0.025024889 1.5430001
0.16421738 0.034899574 1.5430001
0.1764303 0.038068749 1.5430001
0.18329039 0.036522813 1.5430001
0.17585057 0.045540791 1.5430001
0.18261404 0.041933596 1.5430001
0.079809099 0.2800082 1.5430001
0.096041463 0.30165136 1.5430001
0.068987526 0.3178837 1.5430001
0.073857233 0.31680158 1.5430001
0.068987526 0.32735258 1.5430001
0.075751014 0.32464722 1.5429999
0.082514495 0.32599989 1.5430001
0.068311177 0.33479241 1.5430001
0.074736491 0.33343971 1.5430001
0.082514495 0.33141068 1.5430001
0.06808573 0.34674123 1.5430001
0.074060142 0.34527585 1.5430001
0.054107867 0.35846463 1.5430001
0.068987526 0.35305384 1.5430001
0.07385724 0.35386544 1.5430001
0.068987526 0.36252269 1.5430001
0.071692921 0.36252269 1.5430001
-0.31257814 -0.091452986 1.557
-0.30404708 -0.094524167 1.557
-0.29346853 -0.091452986 1.557
-0.28422219 -0.092380509 1.5542001
-0.27471802 -0.093090206 1.5538889
-0.26546693 -0.093742549 1.5546668
-0.25586194 -0.092564225 1.556
-0.24660458 -0.09236297 1.557
-0.31394309 -0.080533229 1.557
-0.3041406 -0.083693691 1.5557274
-0.29558715 -0.085643962 1.555091
-0.28671384 -0.086965337 1.5500001
-0.27040783 -0.088324167 1.5500001
-0.25546068 -0.088324167 1.5500001
-0.24389654 -0.086342029 1.5523334
-0.23468535 -0.085961916 1.5564166
-0.22570547 -0.081599757 1.5550001
-0.21641056 -0.081382863 1.5558333
-0.20747544 -0.080533229 1.557
-0.31443676 -0.074949853 1.5543751
-0.3064239 -0.075162992 1.5517501
-0.22284867 -0.077453502 1.5500001
-0.2140706 -0.07697992 1.5514001
-0.20489161 -0.075266905 1.5546668
-0.19633016 -0.072262101 1.55525
-0.18290597 -0.072343409 1.557
-0.32544783 -0.063763604 1.557
-0.31616309 -0.065711729 1.5507779
-0.19369775 -0.067593046 1.5523334
-0.18506411 -0.066375732 1.554846
-0.17635629 -0.063724153 1.556
-0.32377091 -0.053779818 1.557
-0.31660816 -0.055712171 1.5500001
-0.17393067 -0.058429834 1.5500001
-0.16565517 -0.053854946 1.55525
-0.15424161 -0.050503891 1.557
-0.14878173 -0.050503891 1.557
-0.33350769 -0.044134032 1.557
-0.32468107 -0.046042424 1.556125
-0.31846729 -0.044976503 1.5546666
-0.16170117 -0.047559168 1.5500001
-0.15462358 -0.046484746 1.5530001
-0.14508244 -0.046546113 1.5550001
-0.13564987 -0.044570737 1.554
-0.12543149 -0.04226651 1.55525
-0.11875239 -0.042314071 1.557
-0.33332568 -0.036308207 1.557
-0.32349786 -0.036854189 1.557
-0.31524932 -0.036688499 1.5500001
-0.12365383 -0.038726747 1.5500001
-0.11409777 -0.03704546 1.5544547
-0.10520614 -0.033710901 1.5535001
-0.096385263 -0.032280769 1.5558333
-0.085993111 -0.03139431 1.557
-0.077803291 -0.03139431 1.557
-0.33168772 -0.0272994 1.557
-0.3230429 -0.023659481 1.557
-0.31803802 -0.02593443 1.557
-0.10327134 -0.0285355 1.5500001
-0.094846569 -0.027991969 1.5500001
-0.084292926 -0.027192779 1.5508751
-0.074735843 -0.0285355 1.5500001
-0.064867206 -0.026766678 1.5523334
-0.054613411 -0.022847299 1.5531112
-0.044942755 -0.021793494 1.5535001
-0.03636954 -0.021369189 1.5558333
-0.0272994 -0.020474549 1.557
-0.32258791 -0.014104689 1.557
-0.044841498 -0.017664833 1.5500001
-0.034472872 -0.016785538 1.5523334
-0.024499655 -0.016335916 1.5526251
-0.015375732 -0.014211019 1.554
-0.0095118331 -0.0122295 1.5500001
-0.32213292 -0.0081898198 1.557
-0.0033986175 -0.0088431556 1.5517501
0.005447607 -0.008174479 1.5535001
0.014980919 -0.0081744781 1.5535001
0.024503183 -0.0068101222 1.5528001
0.035032157 -0.003841155 1.5531819
0.044459976 -0.0024557183 1.5556
0.05368882 -0.0022749498 1.557
0.064153589 -0.00136497 1.557
0.072343409 -0.00136497 1.557
-0.3467024 0.0068248501 1.557
0.039406165 0.0013588333 1.5500001
0.044841498 0.0013588333 1.5500001
0.055259224 0.0022647223 1.5500001
0.065371282 0.0027207348 1.5535001
0.074522696 0.003739093 1.5526251
0.084374495 0.0040785451 1.5523334
0.094515972 0.0059880712 1.5535001
0.10486642 0.0081683416 1.5535001
0.11342611 0.0089744357 1.5514001
0.12544963 0.0083602685 1.5530001
0.13444954 0.008872305 1.557
0.1405919 0.0095547903 1.557
0.11685966 0.0122295 1.5500001
0.12501267 0.0122295 1.5500001
0.13588333 0.0122295 1.5500001
0.14597276 0.014186471 1.552
0.15446749 0.016808039 1.5546666
0.15680936 0.021469567 1.5500001
0.16430993 0.025589509 1.5546668
0.17389718 0.028118381 1.557
0.18072483 0.0285355 1.5500001
0.16713651 0.032611996 1.5500001
0.17490128 0.033194356 1.5500001
0.18072483 0.032612 1.5500001
0.18072483 0.046200335 1.5500001
0.096477166 0.2975845 1.5500001
0.065903425 0.317967 1.5500001
0.058429834 0.32747883 1.5500001
0.064614646 0.32444432 1.5517501
0.057199869 0.33503392 1.5535001
0.063618116 0.33390242 1.5500001
0.076094672 0.33699065 1.5500001
0.081530005 0.33699065 1.5500001
0.05577302 0.34552979 1.5517501
0.06449233 0.344412 1.55
0.075415254 0.3417466 1.5500001
0.080850586 0.34310544 1.5500001
0.055168636 0.35492724 1.5500001
0.064408705 0.35465547 1.5500001
0.05435333 0.36552617 1.5500001
0.064641647 0.36416736 1.55
0.072018169 0.36824384 1.5500001
0.04777395 0.3780967 1.557
0.054499079 0.37466666 1.5540833
0.065443389 0.37494791 1.55525
0.072018169 0.37096149 1.5500001
0.045493156 0.38613954 1.5515556
0.053730179 0.38380477 1.557
0.063698597 0.38310158 1.557
0.039406165 0.39542046 1.5500001
0.044958096 0.39580733 1.5538889
0.053233832 0.39829823 1.557
0.038857155 0.405626 1.55525
0.042948995 0.40426099 1.55525
0.054598801 0.40266615 1.557
0.055417784 0.41522384 1.557
-0.30164346 -0.10009079 1.5640001
-0.29753014 -0.10009079 1.5640001
-0.27422133 -0.10009079 1.5640001
-0.26599467 -0.10009079 1.5640001
-0.31124121 -0.091864146 1.5640001
-0.302329 -0.093920805 1.5640001
-0.29478794 -0.09538985 1.5640001
-0.28656128 -0.096434504 1.5640001
-0.27696353 -0.097348571 1.5640001
-0.2632525 -0.097348571 1.5640001
-0.25502583 -0.097348571 1.5640001
-0.24487965 -0.096251689 1.5640001
-0.23720145 -0.09343113 1.5640001
-0.3126123 -0.086379714 1.5640001
-0.30849901 -0.087750822 1.5640001
-0.2248615 -0.087750822 1.5640001
-0.21526374 -0.085922681 1.5640001
-0.20539179 -0.082540616 1.5640001
-0.19881046 -0.08089529 1.5640001
-0.20155267 -0.078153081 1.5640001
-0.19424011 -0.07632494 1.5640001
-0.18564783 -0.075410865 1.5640001
-0.17961498 -0.074039757 1.5640001
-0.1748161 -0.065127566 1.5640001
-0.16773205 -0.062613875 1.5640001
-0.33180779 -0.052102052 1.5640001
-0.32769451 -0.05347316 1.5640001
-0.16281891 -0.056558151 1.5640001
-0.15493505 -0.053815939 1.5640001
-0.14548965 -0.053168468 1.5640001
-0.136288 -0.051827837 1.5640001
-0.33226481 -0.044332448 1.5640001
-0.32632339 -0.042504307 1.5640001
-0.13231179 -0.047303177 1.5640001
-0.12477071 -0.046617623 1.5640001
-0.11536884 -0.044463031 1.5640001
-0.10694632 -0.042504307 1.5640001
-0.33200368 -0.035061158 1.5640001
-0.32495227 -0.033729222 1.5640001
-0.31946784 -0.032906562 1.5640001
-0.10392989 -0.038665209 1.5640001
-0.094057918 -0.035922993 1.5640001
-0.084185943 -0.033729225 1.5640001
-0.074039757 -0.031535454 1.5640001
-0.067184232 -0.031535454 1.5640001
-0.33378831 -0.024222886 1.5640001
-0.32612753 -0.024875792 1.5640001
-0.054570042 -0.027696352 1.5640001
-0.045932069 -0.02673658 1.5640001
-0.0347347 -0.025136955 1.5640001
-0.023765849 -0.022394741 1.5640001
-0.017824387 -0.020566599 1.5640001
-0.33417609 -0.014832881 1.5640002
-0.32604918 -0.016179059 1.5640001
-0.013711067 -0.017824387 1.5640001
-0.0054844264 -0.013025514 1.5640001
0.0054844269 -0.01233996 1.5640001
0.015082174 -0.01233996 1.5640001
-0.33396241 -0.0052885539 1.564
-0.32714605 -0.0057586478 1.5640001
0.02879324 -0.0095977467 1.5640001
0.035648771 -0.0089121936 1.5640001
0.045932069 -0.0061699795 1.5640001
0.055758338 -0.0059414618 1.5640001
0.066635787 -0.0035648774 1.5640001
0.075410865 -0.0022851776 1.5640001
0.085008606 -0.0013711067 1.5640001
0.093235254 -0.0013711067 1.5640001
-0.34414777 0.0065813125 1.5640001
-0.33454999 0.0048968093 1.564
-0.32769451 0.0027422132 1.5640001
0.09597747 0.0013711067 1.5640001
0.10361649 0.0029380857 1.5640001
0.11489874 0.0057586483 1.5640001
0.12477071 0.0068555335 1.5640001
0.13436845 0.0054844264 1.5640001
-0.34414777 0.01233996 1.5640001
-0.33455002 0.01233996 1.5640001
-0.32769451 0.01233996 1.5640001
0.15493505 0.013254032 1.5640001
0.16041948 0.015082173 1.5640001
0.16864611 0.023308814 1.5640001
0.17522743 0.02495414 1.5640001
-0.33701804 0.037019879 1.5640001
-0.33592114 0.042504307 1.5640001
0.058957588 0.38665208 1.5640001
0.06627015 0.3843669 1.5640001
0.047988731 0.39899203 1.5640001
0.055160668 0.39477322 1.564
0.0616998 0.39487872 1.5640001
0.046891846 0.40776712 1.5640001
0.055218205 0.40721866 1.5640002
0.0616998 0.40310538 1.5640001
0.037362657 0.41578808 1.5640001
0.045246523 0.41544536 1.5640001
0.05438723 0.41407421 1.5640001
0.038390987 0.42092973 1.5640001
0.045246515 0.42092976 1.5640001
0.05347316 0.42367196 1.5640001
0.046617627 0.43464079 1.5640001
0.046617627 0.44286746 1.5640001
-0.29407597 -0.10290025 1.577
-0.28468052 -0.10365126 1.5763751
-0.27538052 -0.10467525 1.574
-0.26426637 -0.10267038 1.5755
-0.25480992 -0.10244075 1.5760002
-0.24518026 -0.10198126 1.575
-0.2367079 -0.10105073 1.5790001
-0.28664896 -0.097846523 1.572
-0.23337491 -0.09617833 1.572875
-0.22426225 -0.095614769 1.5764546
-0.21562083 -0.093530983 1.5766668
-0.20902276 -0.092745192 1.5790001
-0.21315426 -0.088988453 1.57375
-0.20507137 -0.087439731 1.576
-0.19547324 -0.083044507 1.575
-0.18613504 -0.082473293 1.5766668
-0.18420871 -0.078552842 1.572
-0.17480013 -0.073856272 1.5757694
-0.16749506 -0.07059709 1.5790001
-0.17364311 -0.067527883 1.572
-0.16446345 -0.065450959 1.5735556
-0.15524495 -0.064367063 1.5755002
-0.14523751 -0.063629784 1.5778335
-0.13888709 -0.063214384 1.5790001
-0.15434945 -0.059259161 1.572
-0.14415136 -0.058156669 1.572
-0.13439411 -0.056597766 1.5745456
-0.12589459 -0.05346505 1.5737501
-0.11664376 -0.052304935 1.5760002
-0.10935628 -0.051217496 1.5790001
-0.11438396 -0.047545139 1.572
-0.10436875 -0.04611389 1.5748001
-0.095301993 -0.044201091 1.5755
-0.086251475 -0.044016927 1.5760001
-0.076134115 -0.041066278 1.5790001
-0.10060276 -0.039965481 1.572
-0.095090277 -0.039965481 1.572
-0.085443437 -0.038587362 1.572
-0.074986272 -0.036345728 1.5743334
-0.06488701 -0.034516823 1.5748
-0.055247534 -0.033151589 1.5755001
-0.046220716 -0.032424174 1.57375
-0.035946183 -0.031802617 1.57725
-0.02906939 -0.031837903 1.5790001
-0.05099044 -0.028940519 1.572
-0.044099838 -0.028940519 1.572
-0.03583112 -0.028940519 1.572
-0.0254599 -0.027437413 1.5760002
-0.01519307 -0.023022873 1.5755
-0.0096897967 -0.02076385 1.5790001
-0.0049297474 -0.016768504 1.575
0.0055247536 -0.016577329 1.5755002
0.014648573 -0.016307229 1.5762
0.024260247 -0.013613256 1.5749999
0.034559365 -0.012439899 1.5766668
0.045126766 -0.013012012 1.5790001
0.055370267 -0.013842567 1.5790002
0.065060057 -0.013842567 1.5790001
0.07059709 -0.013842566 1.5790001
0.039965481 -0.0096468404 1.572
0.045477957 -0.0096468404 1.572
0.055124797 -0.0096468404 1.572
0.064819716 -0.0082758805 1.5731667
0.075070985 -0.0074547352 1.5741001
0.085275114 -0.0066601159 1.5758183
0.095992588 -0.0055293562 1.5755
0.10464275 -0.0049407049 1.5765002
0.11478147 -0.0041514062 1.5774447
0.12391182 -0.0025698857 1.5780001
0.13482662 -0.0019379593 1.5790001
0.14257844 -0.0013842566 1.5790001
-0.33626127 0.0096468404 1.572
-0.32937068 0.0082687205 1.572
0.10887148 0.00137812 1.572
0.11668082 0.0022968666 1.572
0.1254089 0.0027562398 1.572
0.13617906 0.002298912 1.5743333
0.14518858 0.0051399772 1.5745456
0.15445437 0.0064797807 1.576308
0.16247065 0.0076026726 1.5772501
-0.3433719 0.015958214 1.573
-0.33560205 0.015523794 1.57375
-0.32845193 0.016996814 1.572
0.1584838 0.01240308 1.572
0.16574261 0.015190003 1.5755
0.17422302 0.01589901 1.5772501
0.18410613 0.017995337 1.5790001
-0.34353593 0.02483735 1.5737501
-0.33591673 0.023772568 1.572
0.16813064 0.0206718 1.572
0.17590821 0.021383872 1.57375
0.18289949 0.021792706 1.5734
-0.35021693 0.034606416 1.5790001
-0.34443417 0.035482049 1.5732728
-0.35298544 0.042911958 1.5790001
-0.34376392 0.045261532 1.576375
-0.33763939 0.04547796 1.572
-0.36221382 0.0562931 1.5790001
-0.35636914 0.055216465 1.5790002
-0.34385133 0.053523879 1.577
-0.33763939 0.05099044 1.572
-0.36129102 0.065060064 1.5790001
-0.35783035 0.064367935 1.5790001
-0.36959654 0.088592425 1.5790001
-0.35575396 0.089976683 1.5790001
-0.36572057 0.095790558 1.5790002
-0.35713822 0.095513709 1.5790001
-0.36516687 0.10492666 1.5790004
-0.35713819 0.10520351 1.5790002
-0.37374929 0.11766182 1.5790001
-0.36388016 0.11606444 1.5782225
-0.35812208 0.11475983 1.5772501
-0.36655903 0.12310372 1.5778335
-0.36352149 0.13407856 1.5766667
-0.35968933 0.13092139 1.572
0.062015399 0.40930164 1.572
0.062015399 0.41205788 1.572
0.028940519 0.42583907 1.572
0.035371747 0.42675781 1.572
0.045477957 0.42721722 1.572
0.05099044 0.42446095 1.572
0.027838022 0.43686405 1.572
0.035513096 0.43453187 1.5720003
0.044099838 0.43410778 1.572
0.05099044 0.43135154 1.572
0.026259283 0.44645691 1.576667
0.034845266 0.44592801 1.5783638
0.042792901 0.44509631 1.5748001
0.025708511 0.45509163 1.5769001
0.034558006 0.4547447 1.576667
0.042064846 0.45445159 1.5770003
0.026070168 0.46441814 1.5790004
0.034606416 0.46511027 1.5790004
0.040835571 0.46372598 1.5790001
0.028146552 0.47295436 1.5790001
0.034606416 0.47341582 1.5790001
-0.27668828 -0.12652579 1.5860001
-0.29198259 -0.11262186 1.5860001
-0.28433543 -0.11331706 1.5860001
-0.27854213 -0.11354879 1.5860001
-0.30171534 -0.10566989 1.5860001
-0.29377025 -0.10785481 1.5860002
-0.28503063 -0.10984107 1.5860001
-0.27446365 -0.10928492 1.5860001
-0.26417473 -0.10706028 1.5860001
-0.25722277 -0.10706028 1.5860001
-0.24053805 -0.1042795 1.5860001
-0.23497649 -0.10316718 1.5860001
-0.22607796 -0.10205487 1.5860001
-0.21829174 -0.10149872 1.5860001
-0.21481577 -0.098022729 1.5860001
-0.2061258 -0.094199143 1.5860002
-0.19604546 -0.090375565 1.5860001
-0.19465506 -0.087594777 1.5860001
-0.18492229 -0.085740924 1.5860001
-0.17936073 -0.08203321 1.5860001
-0.17240877 -0.077862024 1.5860001
-0.16601296 -0.073134683 1.5860001
-0.15572405 -0.070910059 1.5860001
-0.15294327 -0.068129271 1.5860001
-0.14599131 -0.068129271 1.5860001
-0.13486814 -0.063958094 1.5860001
-0.12930658 -0.062567696 1.5860001
-0.12420847 -0.058859985 1.5860001
-0.11540265 -0.056079198 1.5860001
-0.10706028 -0.052371483 1.5860001
-0.09593714 -0.051444549 1.5860001
-0.094546743 -0.048663765 1.5860001
-0.084118798 -0.04796857 1.5860001
-0.075081244 -0.043102194 1.5860001
-0.066738874 -0.040321406 1.5860001
-0.05422534 -0.040321406 1.5860001
-0.063958094 -0.037540618 1.5860001
-0.055615731 -0.037540618 1.5860001
-0.043896705 -0.036348853 1.5860002
-0.034759834 -0.034759834 1.5860001
-0.02502708 -0.032674246 1.5860001
-0.0208559 -0.029198259 1.5860001
-0.014738169 -0.028085943 1.5860001
-0.0063958094 -0.022524374 1.5860001
0.0055615734 -0.0208559 1.5860001
0.015294326 -0.020855898 1.5860001
0.018075114 -0.018075114 1.5860001
0.025027078 -0.017379917 1.5860001
0.034759834 -0.015294326 1.5860001
0.043896705 -0.016883349 1.5860002
0.055615731 -0.018075114 1.5860001
0.065348484 -0.018075114 1.5860001
0.075776443 -0.013208737 1.5860001
0.08203321 -0.01251354 1.5860001
0.098717928 -0.01251354 1.5860001
0.10288911 -0.01251354 1.5860001
0.093156345 -0.009732753 1.5860001
0.10845068 -0.009732753 1.5860001
0.11540264 -0.009732753 1.5860001
0.12596965 -0.0063958094 1.5860001
0.13486816 -0.0055615734 1.5860001
0.14552784 -0.003244251 1.5860001
0.15526058 -0.0013903934 1.5860001
0.15711445 0.0013903934 1.5860001
0.166152 0.0062567703 1.5860001
0.17379916 0.0090375561 1.5860001
0.17657995 0.01251354 1.5860001
0.18436615 0.014182012 1.5860001
-0.3610388 0.047736838 1.5860001
-0.35408685 0.046346445 1.5860001
-0.34898871 0.048663765 1.5860001
-0.36567345 0.052834947 1.5860001
-0.35335854 0.055814363 1.5860002
-0.34759834 0.058396522 1.5860001
-0.36567345 0.065348484 1.5860001
-0.35501376 0.065348484 1.5860001
-0.3478764 0.064792328 1.5860001
-0.36196575 0.074617773 1.5860002
-0.3573311 0.075081237 1.5860001
-0.34898871 0.070910059 1.5860001
-0.37123501 0.0834236 1.5860001
-0.36428308 0.084814005 1.5860003
-0.35663587 0.085509188 1.5860001
-0.34898871 0.08481399 1.5860001
-0.36408442 0.091964588 1.5860002
-0.35415307 0.094348118 1.5860002
-0.37441307 0.10626577 1.5860002
-0.3545503 0.10149872 1.5860001
-0.37262541 0.11401225 1.5860001
-0.36845422 0.11401226 1.5860001
-0.36845422 0.12652579 1.5860001
-0.36845422 0.13347776 1.5860001
-0.38235816 0.14877209 1.5860001
-0.378187 0.14738169 1.5860001
-0.3638196 0.14460091 1.5860001
-0.38235816 0.15294327 1.5860001
-0.378187 0.15294327 1.5860001
0.018075114 0.46578178 1.5860001
0.0208559 0.46717215 1.5860001
0.040321406 0.46856254 1.5860001
0.024254641 0.47597802 1.5860002
0.034759831 0.47968569 1.5860001
0.029198259 0.48246649 1.5860001
0.013903933 0.4991512 1.5860001
-0.2757549 -0.12343759 1.594
-0.29205799 -0.11598475 1.5940001
-0.28460515 -0.11784796 1.5940002
-0.27493975 -0.1163341 1.594
-0.26690468 -0.11199217 1.594
-0.25852025 -0.11039513 1.5940001
-0.2305721 -0.11039513 1.5940001
-0.25293061 -0.10760031 1.5940002
-0.24454618 -0.10760031 1.5940002
-0.23476432 -0.10760031 1.5940001
-0.22498249 -0.1062029 1.594
-0.21520062 -0.10340809 1.594
-0.2082136 -0.10201069 1.5940001
-0.20430084 -0.097538985 1.5940001
-0.19563694 -0.094324961 1.594
-0.18655379 -0.091530137 1.5940001
-0.18306029 -0.087105013 1.5940002
-0.17607324 -0.083844401 1.5940001
-0.17188102 -0.079652183 1.5940001
-0.16419528 -0.077206716 1.594
-0.15604375 -0.07592576 1.594
-0.14616874 -0.071826696 1.5940001
-0.14113808 -0.068472929 1.5940001
-0.13554846 -0.067541324 1.5940002
-0.12576661 -0.064280711 1.594
-0.11505315 -0.061951689 1.594
-0.10760031 -0.060088485 1.5940001
-0.11179253 -0.057293672 1.5940001
-0.10440624 -0.055297375 1.594
-0.094185211 -0.05393989 1.5940001
-0.085241809 -0.05240275 1.5940001
-0.079652183 -0.051704045 1.5940001
-0.074861065 -0.046912938 1.594
-0.065678112 -0.043785408 1.594
-0.054498862 -0.041456398 1.5940002
-0.04471701 -0.040524792 1.5940001
-0.037729979 -0.040524792 1.5940001
-0.034935165 -0.037729979 1.5940002
-0.02515332 -0.035633866 1.5940001
-0.015371474 -0.033537757 1.594
-0.0097818468 -0.03353776 1.5940001
-0.0047511826 -0.025432801 1.5940001
0.0061885151 -0.024953689 1.594
0.014812511 -0.02487384 1.5940001
0.024554431 -0.022158878 1.594
0.034935165 -0.0209611 1.5940002
0.04471701 -0.0209611 1.5940001
0.05310145 -0.0209611 1.5940001
0.02934554 -0.018166287 1.5940001
0.034935165 -0.018166287 1.5940002
0.065678112 -0.018166287 1.5940001
0.075925767 -0.016303077 1.5940002
0.085241809 -0.013974067 1.5940001
0.093626253 -0.012576659 1.5940002
0.10760031 -0.01257666 1.5940001
0.11318994 -0.012576659 1.5940002
0.12157438 -0.0097818468 1.5940001
0.13554844 -0.0083844401 1.5940001
0.14560977 -0.0075459955 1.5940001
0.15511215 -0.00419222 1.5940001
0.16209918 -0.0027948134 1.5940001
0.16768879 0.00419222 1.5940001
0.17653905 0.0079186382 1.5940002
0.18445769 0.0090831434 1.5940001
0.19284213 0.0097818468 1.5940001
0.18864989 0.01257666 1.5940001
0.19423953 0.01257666 1.5940001
-0.35354388 0.067075521 1.5940001
-0.34795424 0.068472929 1.5940001
-0.36751795 0.076857373 1.5940001
-0.35354388 0.075615235 1.594
-0.34702265 0.075459965 1.594
-0.35400972 0.084310196 1.594
-0.38288942 0.13554846 1.594
-0.37217596 0.13554844 1.5940002
-0.38288945 0.14253548 1.5940001
-0.37345693 0.14707705 1.594
-0.36612055 0.14952251 1.5940001
-0.38288942 0.15790695 1.5940001
-0.37478447 0.15399423 1.5940001
-0.36472315 0.15371473 1.5940001
-0.37590238 0.17188102 1.5940001
-0.39826089 0.18864989 1.5940001
0.0209611 0.47931048 1.5940001
0.024105266 0.48594818 1.594
0.032140352 0.48490012 1.5940001
0.02487384 0.49272555 1.5940001
-0.27227074 -0.12418772 1.6036668
-0.26800579 -0.12271843 1.6090001
-0.27088386 -0.11930119 1.6010001
-0.26491687 -0.11706783 1.6045556
-0.2553874 -0.11272743 1.6044286
-0.2448267 -0.11256749 1.605
-0.23565587 -0.11290501 1.6058
-0.22606486 -0.11209732 1.605
-0.21581517 -0.11143398 1.6090001
-0.2203563 -0.10807284 1.6010001
-0.21326688 -0.10761943 1.6026001
-0.20494778 -0.10476298 1.6040001
-0.19496219 -0.10241511 1.6076669
-0.18619348 -0.10014952 1.6090001
-0.20070669 -0.099651575 1.6010001
-0.19509251 -0.098715879 1.6010002
-0.18505792 -0.095040813 1.6044286
-0.17820032 -0.092626549 1.6090001
-0.1810571 -0.08842323 1.6010001
-0.17385674 -0.087166965 1.6036668
-0.16545913 -0.084714606 1.6031817
-0.1547755 -0.082315929 1.6050001
-0.14528733 -0.080401726 1.6090001
-0.15158269 -0.077194884 1.6010001
-0.144683 -0.075855635 1.6023334
-0.13628379 -0.074013367 1.6063334
-0.12553954 -0.071938388 1.6090001
-0.11848676 -0.071938388 1.6090001
-0.13193306 -0.06877362 1.6010001
-0.12421359 -0.06807185 1.6010001
-0.11448903 -0.067570589 1.601
-0.1045576 -0.063614734 1.6045556
-0.095793366 -0.060578544 1.6070001
-0.095440954 -0.057545274 1.6010001
-0.084252544 -0.056506552 1.6055715
-0.074573644 -0.053471405 1.605
-0.065393947 -0.053325504 1.6067144
-0.055716988 -0.052895874 1.6090001
-0.049369484 -0.052190598 1.6090001
-0.071580708 -0.049124017 1.6010001
-0.062808566 -0.046667814 1.601
-0.054770626 -0.046698496 1.602
-0.045002807 -0.046416875 1.6043334
-0.035528887 -0.044327334 1.6050001
-0.0253269 -0.042215005 1.6050001
-0.015477549 -0.042215005 1.605
-0.0077457884 -0.041560575 1.6070001
-0.023860237 -0.037895668 1.6010002
-0.015438977 -0.037895668 1.6010002
-0.0047790604 -0.03544363 1.6042
