# .PCD v0.7 - Point Cloud Data file format
VERSION 0.7
FIELDS x y z
SIZE 4 4 4
TYPE F F F
COUNT 1 1 1
WIDTH 1465
HEIGHT 1
VIEWPOINT 0 0 0 1 0 0 0
POINTS 1465
DATA ascii
-0.15538038 0.40546885 1.6879998
-0.14772096 0.40474558 1.6850001
-0.17017853 0.4128679 1.6880001
-0.16383648 0.4149819 1.688
-0.15538038 0.41582754 1.688
-0.14724794 0.41597083 1.6868571
-0.15478846 0.42352256 1.6880001
-0.14847462 0.42371988 1.6880001
-0.15834002 0.43950456 1.6880001
-0.15909046 -0.03122336 1.6960001
-0.12935393 -0.03122336 1.6960001
-0.15760362 -0.028249707 1.6960001
-0.14323097 -0.025771661 1.6960001
-0.13629244 -0.026267273 1.6960001
-0.12489344 -0.028249707 1.6960001
-0.11448565 -0.02676288 1.6960001
-0.10556469 -0.025276056 1.6960001
-0.096148126 -0.023293616 1.6960001
-0.085343853 -0.023491863 1.6960001
-0.090696424 -0.019328747 1.6960001
-0.083262295 -0.019328747 1.6960001
-0.075828157 -0.018139284 1.6960001
-0.066411592 -0.015363877 1.6960001
-0.055012587 -0.011399005 1.6960001
-0.052038934 -0.0074341334 1.6960001
-0.044604801 -0.0059473068 1.6960001
-0.034940425 -0.00223024 1.6960001
-0.02676288 -0.0014868267 1.6960001
-0.0223024 0.0014868267 1.6960001
-0.014231056 0.0044604801 1.6960001
-0.0044604801 0.014372658 1.6960001
0.0044604801 0.016355094 1.6960001
0.013877049 0.018337531 1.6960001
0.025276054 0.019328747 1.6960001
0.01784192 0.0223024 1.6960001
0.025870785 0.023491863 1.6960001
0.034197014 0.025771663 1.6960001
0.041135538 0.027258491 1.6960001
0.046941243 0.033772204 1.6960001
0.054417856 0.035981204 1.6960001
0.057986241 0.040144321 1.6960001
0.065420374 0.041631147 1.6960001
0.075828157 0.046091627 1.6960001
0.084005706 0.048321865 1.6960001
0.087722771 0.052038934 1.6960001
0.096313328 0.054351773 1.6960001
0.10496996 0.056796778 1.6960001
0.11299883 0.057986241 1.6960001
0.10853834 0.060959894 1.6960001
0.11448566 0.062149353 1.6960001
0.12489344 0.06319014 1.6960001
0.13530123 0.067402802 1.6960001
0.14223975 0.068889625 1.6960001
0.14719585 0.072854504 1.6960001
0.15526719 0.077102587 1.6960001
0.16503777 0.078801811 1.6960001
0.17445433 0.077810593 1.6960001
0.16503777 0.081775464 1.6960001
0.17544554 0.081775464 1.6960001
0.18436649 0.087722771 1.6960001
0.18659674 0.091439836 1.6960001
0.19536902 0.09485954 1.6960001
0.2056777 0.098130554 1.6960001
0.21633327 0.098873973 1.6960001
0.2066689 0.10259104 1.6960001
0.21618459 0.10378049 1.6960001
0.22451083 0.10407787 1.6960001
0.23045813 0.10853834 1.6960001
0.23258218 0.11491045 1.6960001
0.23640545 0.12489345 1.6960001
0.23640543 0.13530122 1.6960001
0.24235274 0.13232757 1.6960001
0.22748448 0.14273536 1.6960001
0.23432389 0.14362743 1.6960001
-0.16461296 0.42417043 1.6960001
-0.15552208 0.42850342 1.6960001
-0.14719585 0.42671925 1.6960001
-0.16206411 0.43564022 1.6960001
-0.15462999 0.43564025 1.6960001
-0.16206411 0.44456115 1.6960001
-0.15512559 0.44456115 1.6960001
-0.16404654 0.45397773 1.6960001
-0.15760362 0.45199531 1.6960001
-0.16292411 -0.034378484 1.705
-0.15594877 -0.032385528 1.705
-0.14438961 -0.032584824 1.7050002
-0.13516511 -0.033097297 1.705
-0.12406149 -0.032883767 1.705
-0.11509318 -0.03138905 1.705
-0.1524611 -0.028399616 1.705
-0.14797695 -0.028399616 1.705
-0.11210375 -0.028399616 1.705
-0.10463017 -0.028399616 1.705
-0.093569264 -0.027203843 1.7050002
-0.084451489 -0.027652258 1.705
-0.075732306 -0.023417227 1.705
-0.064272813 -0.017438361 1.705
-0.055304516 -0.014448929 1.705
-0.046336215 -0.010463017 1.705
-0.043346781 -0.0074735833 1.705
-0.032883767 -0.0044841501 1.705
-0.025410183 -0.0029894332 1.705
-0.0179366 -0.0014947166 1.705
-0.011957733 0.0014947166 1.705
-0.0037367917 0.011210375 1.705
0.0037367917 0.012705092 1.705
0.015943645 0.014448927 1.705
0.025410181 0.017637657 1.7050002
0.033631124 0.018683959 1.705
0.035873201 0.022420749 1.705
0.04583798 0.02590842 1.705
0.052315082 0.028399616 1.705
0.056051876 0.03213641 1.705
0.063845746 0.035232607 1.705
0.071248159 0.03637144 1.705
0.067262247 0.040357351 1.705
0.075034775 0.041553121 1.7050002
0.085796736 0.044542555 1.7050002
0.093740091 0.047190338 1.705
0.10463017 0.048329171 1.705
0.10687225 0.053062443 1.705
0.11509319 0.054806277 1.705
0.12363441 0.056158636 1.705
0.13103683 0.057297472 1.705
0.13552098 0.062279861 1.705
0.14438963 0.0648707 1.7050002
0.15545052 0.067262247 1.705
0.14797695 0.070251681 1.705
0.15545054 0.071746401 1.705
0.16548647 0.074095242 1.705
0.17488186 0.072742872 1.705
0.18310279 0.076977909 1.705
0.18726663 0.08434473 1.705
0.19580789 0.086693563 1.705
0.20417829 0.08699251 1.7050002
0.2152392 0.088188283 1.705
0.19580789 0.091177724 1.705
0.20520325 0.093313023 1.705
0.2152392 0.093569264 1.7050002
0.22450642 0.095362924 1.7050002
0.23168108 0.097156584 1.705
0.22570221 0.10014602 1.705
0.23467052 0.10463017 1.7050002
0.24214411 0.10761961 1.705
0.23765995 0.11359847 1.705
0.24423671 0.11539213 1.7050002
0.24662822 0.12406148 1.705
0.24534705 0.13473803 1.705
0.2446353 0.14299455 1.705
-0.16740826 0.42898369 1.705
-0.16591354 0.43396607 1.705
-0.1666609 0.44617292 1.705
-0.16292411 0.45887801 1.705
-0.15843996 0.45887801 1.705
-0.16591355 0.46410951 1.705
-0.15993468 0.46186745 1.705
-0.14266434 -0.040546712 1.7130001
-0.13665743 -0.040546712 1.7130001
-0.16068511 -0.037543248 1.7130001
-0.15417761 -0.035040367 1.7130002
-0.14641866 -0.036792383 1.7130001
-0.13515569 -0.037543248 1.7130001
-0.12464359 -0.037543248 1.7129999
-0.11638407 -0.035290655 1.7130001
-0.10602214 -0.032137021 1.7130001
-0.094608992 -0.03153633 1.7129999
-0.08559861 -0.03153633 1.7129999
-0.075086504 -0.02703114 1.7130001
-0.067577846 -0.022525949 1.7130001
-0.063072659 -0.01952249 1.7130001
-0.055564009 -0.016519031 1.7130001
-0.045051903 -0.012764705 1.7130001
-0.037543248 -0.01051211 1.7130001
-0.040546712 -0.00750865 1.7130001
-0.034539789 -0.00750865 1.7129999
-0.02703114 -0.0060069198 1.7130001
-0.01201384 -0.0015017299 1.7130001
-0.00750865 0.0060069198 1.7130001
0.0060069198 0.01051211 1.7130001
0.0150173 0.01051211 1.7130001
0.025529409 0.01351557 1.7129999
0.034539789 0.015517876 1.7129999
0.042799305 0.018771626 1.7130001
0.045051903 0.022525949 1.7130001
0.056164701 0.026730796 1.7130001
0.062572084 0.027531719 1.7129999
0.066076115 0.03153633 1.7130001
0.076159164 0.034539789 1.7130002
0.084847741 0.036792383 1.7130001
0.079591691 0.040546712 1.7130001
0.08559861 0.040546712 1.7129999
0.095209688 0.041748095 1.7130001
0.1044775 0.043979235 1.7130002
0.11413148 0.048055358 1.7130001
0.12464359 0.04955709 1.7130001
0.13065051 0.04955709 1.7130001
0.11863667 0.052560549 1.7130001
0.12614532 0.052560549 1.7130001
0.13515569 0.055564012 1.7130002
0.14416608 0.058567468 1.7130001
0.14767011 0.062572084 1.7129999
0.15527889 0.063373007 1.7130001
0.16488996 0.066376463 1.7130001
0.17495154 0.066826984 1.7130001
0.16819376 0.070581309 1.7130001
0.17870587 0.070581309 1.7130001
0.18531348 0.074185468 1.7130001
0.19422376 0.078590535 1.7130002
0.20573701 0.079591691 1.7129999
0.21474738 0.079591691 1.7129999
0.22225603 0.079591691 1.7130001
0.19672662 0.082595147 1.7129999
0.20648786 0.083346017 1.7130001
0.21474738 0.084096879 1.7130002
0.22566906 0.085325569 1.7130001
0.23577163 0.085598603 1.7130002
0.24328026 0.088602066 1.7130001
0.22826296 0.093107268 1.7130001
0.23614706 0.094233558 1.7130002
0.24392386 0.095038056 1.7130002
0.2507889 0.097612448 1.7130001
0.23877507 0.10061591 1.7130001
0.24553286 0.10361937 1.7130002
0.25404266 0.10587197 1.7129999
0.25570366 0.11536017 1.7130001
0.26280275 0.11413148 1.7130001
0.25593773 0.12421453 1.7130002
0.25351933 0.13474615 1.7130001
0.2507889 0.14266434 1.7130001
-0.16819376 0.43700343 1.7130001
-0.16819376 0.44301036 1.7130001
-0.16969548 0.45802766 1.7130001
-0.17360631 -0.3623088 1.7220001
-0.17209668 -0.3540059 1.7220001
-0.16152933 -0.042269357 1.7220001
-0.15549086 -0.04226936 1.7220001
-0.14506076 -0.044053458 1.7220001
-0.13397878 -0.044156384 1.7220001
-0.12529844 -0.043778978 1.7220001
-0.11624074 -0.040759739 1.7220001
-0.1660582 -0.037740499 1.7220001
-0.1585101 -0.037740499 1.7220001
-0.1132215 -0.037740499 1.7220001
-0.10491858 -0.035476066 1.7220001
-0.095106065 -0.034721259 1.7220001
-0.085041918 -0.033714846 1.7220001
-0.076990619 -0.031702019 1.7220001
-0.072461754 -0.02868278 1.7220001
-0.06491366 -0.023650713 1.7220001
-0.057365559 -0.0226443 1.7220001
-0.05510113 -0.018870249 1.7220001
-0.0452886 -0.01585101 1.7220001
-0.034721259 -0.01207696 1.7220001
-0.02566354 -0.01056734 1.7220001
-0.023650713 -0.0065416866 1.7220001
-0.01488054 -0.0058228201 1.7220001
-0.003925012 0.0051327078 1.7220001
0.0037740499 0.0067932899 1.7220001
0.013586581 0.0075480998 1.7220001
0.02415392 0.01056734 1.7220001
0.034721259 0.01358658 1.7220001
0.046798218 0.017612234 1.7220001
0.052836701 0.01962506 1.7220001
0.049817462 0.0226443 1.7220001
0.054346323 0.0226443 1.7220001
0.066926487 0.026669955 1.7220001
0.073216572 0.027927969 1.7220001
0.080009863 0.02868278 1.7220001
0.073971376 0.031702019 1.7220001
0.08484064 0.032909714 1.7220001
0.094502218 0.036532801 1.7220001
0.10416378 0.037740499 1.7220001
0.11020226 0.037740499 1.7220001
0.1056734 0.040759739 1.7220001
0.11523432 0.044282187 1.7220001
0.12469461 0.046798218 1.7220001
0.13435619 0.048811048 1.7220001
0.14190428 0.049817462 1.7220001
0.13737541 0.052836701 1.7220001
0.14492352 0.055101134 1.7220001
0.15549086 0.058875185 1.7220001
0.16152933 0.058875181 1.7220001
0.15247162 0.061894421 1.7220001
0.16530338 0.062649235 1.7220001
0.17533158 0.063188381 1.7220001
0.18266402 0.066423282 1.7220001
0.18719289 0.07095214 1.7220001
0.19474097 0.073468171 1.7220001
0.20430189 0.075984202 1.7220001
0.21285641 0.076990619 1.7220001
0.22795261 0.080009863 1.7220001
0.2339911 0.080009863 1.7220001
0.24506164 0.083700046 1.7220001
0.25210655 0.087557957 1.7220001
0.2490873 0.093596444 1.7220001
0.25512576 0.095106065 1.7220001
0.26116425 0.098125301 1.7220001
0.258145 0.10114454 1.7220001
0.26267385 0.10416379 1.7220001
0.26619634 0.11473111 1.7220001
0.27022198 0.11624074 1.7220001
0.26418349 0.12572977 1.7220001
0.26267385 0.13284656 1.7220001
0.27248642 0.13209175 1.7220001
-0.17058706 0.45590526 1.7220001
-0.1112902 -0.46650416 1.7390001
-0.12958448 -0.45735699 1.7390001
-0.163124 -0.44058725 1.739
-0.15397686 -0.44058725 1.739
-0.14482972 -0.44058725 1.7390001
-0.13720709 -0.44287404 1.7390001
-0.12653543 -0.44058725 1.739
-0.163124 -0.43509898 1.7390001
-0.15474282 -0.43289688 1.7378575
-0.14482972 -0.43361804 1.7390002
-0.13568257 -0.43410802 1.7390002
-0.1248194 -0.43458471 1.7382729
-0.11738829 -0.43448916 1.7390001
-0.17532018 -0.42534199 1.7390001
-0.16550875 -0.42423064 1.7360002
-0.15518965 -0.42400378 1.7316157
-0.14430839 -0.42382011 1.7327778
-0.13547452 -0.42468503 1.7363334
-0.12523036 -0.42486832 1.7350001
-0.11541339 -0.42433518 1.7380003
-0.10824116 -0.42381746 1.7390001
-0.17430383 -0.41416216 1.7390002
-0.16566809 -0.41491839 1.7336668
-0.15478604 -0.41428027 1.7310003
-0.14416344 -0.41428021 1.7310001
-0.1350611 -0.41404179 1.7346364
-0.12486626 -0.41419083 1.7370002
-0.11433924 -0.41467032 1.7390002
-0.10824116 -0.41467032 1.7390001
-0.17493904 -0.40361753 1.7390002
-0.16540858 -0.40517521 1.7310001
-0.15478602 -0.40517521 1.7310003
-0.14416344 -0.40517518 1.7310001
-0.13546985 -0.40439084 1.7363335
-0.12501091 -0.40399864 1.7390002
-0.11521041 -0.40443423 1.7390002
-0.10824116 -0.40704772 1.7390001
-0.17379566 -0.39485154 1.7390002
-0.16540858 -0.39455259 1.7310003
-0.15478604 -0.39455256 1.7310004
-0.14416344 -0.39455259 1.7310003
-0.13566978 -0.39455172 1.7350003
-0.12501092 -0.39485154 1.7390002
-0.11616868 -0.39485154 1.7390001
-0.18141827 -0.38265535 1.7390001
-0.17505601 -0.38511297 1.7363335
-0.16540857 -0.38393006 1.7310001
-0.15478604 -0.38393006 1.7310003
-0.14416343 -0.38393 1.7310001
-0.13519555 -0.38432747 1.7327778
-0.12501091 -0.3857044 1.7390002
-0.11586377 -0.3857044 1.7390002
-0.18414296 -0.37453857 1.732778
-0.17469443 -0.37521303 1.732778
-0.16540858 -0.37482497 1.7310001
-0.15478604 -0.37482497 1.7310003
-0.14416343 -0.37482497 1.7310001
-0.13505839 -0.374825 1.7310001
-0.12684032 -0.37594745 1.7390001
-0.11738829 -0.37960631 1.7390001
-0.19272377 -0.36420238 1.7310001
-0.18513621 -0.36571991 1.7310003
-0.17451365 -0.36693388 1.7310002
-0.1654086 -0.36571991 1.7310001
-0.15478604 -0.36571988 1.7310003
-0.14416344 -0.36571991 1.7310001
-0.13526529 -0.36475757 1.7336669
-0.12805995 -0.36436108 1.7390002
-0.19244967 -0.35646144 1.737667
-0.18408562 -0.35544747 1.7310003
-0.17527241 -0.35471797 1.7310001
-0.16540858 -0.35509732 1.7310003
-0.15478604 -0.35509732 1.7310004
-0.14438437 -0.3556385 1.7336669
-0.13629238 -0.35704339 1.7390001
-0.12958448 -0.35826299 1.7390001
-0.19361447 -0.34911585 1.7390001
-0.18437459 -0.34588838 1.7381113
-0.17505133 -0.34553149 1.7363334
-0.16485581 -0.34535164 1.7368184
-0.15436995 -0.3458899 1.7366002
-0.14482972 -0.3460668 1.7390002
-0.19208995 -0.33387062 1.7390001
-0.1844673 -0.33539513 1.7390002
-0.17532019 -0.33539513 1.7390002
-0.16464852 -0.33539516 1.7390002
-0.15425405 -0.33581093 1.7390002
-0.14584607 -0.33793601 1.7390002
-0.19158177 -0.32269076 1.739
-0.18446732 -0.32472348 1.7390002
-0.17532018 -0.32515907 1.7390002
-0.16464853 -0.32472345 1.7390002
-0.15441243 -0.32559463 1.7390002
-0.19395325 -0.31523749 1.7390002
-0.18446732 -0.31595743 1.7390002
-0.17836922 -0.31710082 1.7390001
-0.16922209 -0.31862536 1.7390001
-0.20276161 -0.30033109 1.7390001
-0.20276161 -0.29423299 1.739
-0.20352386 -0.2843236 1.7390001
-0.16251418 -0.052748509 1.7390001
-0.15393464 -0.054022979 1.7356669
-0.14462107 -0.054289814 1.7331821
-0.13526647 -0.053199351 1.7336668
-0.12580857 -0.052860565 1.7336668
-0.11594987 -0.050826501 1.7358001
-0.19056542 -0.047260225 1.7390001
-0.17147863 -0.040972769 1.7310001
-0.16671658 -0.044561595 1.7355716
-0.15630352 -0.047042806 1.7310001
-0.11488181 -0.045043621 1.731889
-0.10501064 -0.043759033 1.7360001
-0.098077677 -0.042178478 1.739
-0.10319068 -0.037937749 1.7310001
-0.095745735 -0.037996192 1.7336668
-0.084916912 -0.036828943 1.7358
-0.074533321 -0.033465873 1.7350001
-0.068603553 -0.032014988 1.7390001
-0.064645931 -0.027618682 1.7310002
-0.054573964 -0.026192559 1.7345556
-0.044777505 -0.02406643 1.7374001
-0.036588561 -0.022867849 1.7390001
-0.05007783 -0.019727631 1.7310001
-0.043296374 -0.018991668 1.733
-0.034490194 -0.017572785 1.7321428
-0.026187884 -0.015718343 1.7345557
-0.016103841 -0.011242198 1.7326
-0.01669261 -0.0075875497 1.7310001
-0.0045603225 -0.0045665568 1.7345557
0.0045724013 -0.0030478777 1.737667
0.01372071 -0.0015245234 1.739
-0.0030350201 0.00151751 1.7310001
0.005159534 0.0027315181 1.7310002
0.015737822 0.0035509872 1.7372223
0.025286049 0.0063959844 1.7374003
0.033539511 0.0076226168 1.7390001
0.028832689 0.01062257 1.7310001
0.035705317 0.011393598 1.733
0.043401577 0.012942668 1.7370002
0.05533836 0.016110854 1.7342001
0.065032758 0.017614862 1.7367145
0.074025914 0.018580949 1.7374001
0.05918289 0.022762651 1.7310001
0.06525293 0.022762651 1.7310001
0.074964993 0.023976658 1.7310002
0.085611202 0.02558169 1.7353638
0.095948346 0.025887284 1.7372223
0.10475653 0.026788056 1.7390002
0.11230656 0.027949594 1.739
0.089533091 0.031867709 1.7310001
0.096361883 0.032626465 1.7310001
0.10470819 0.034035582 1.7310001
0.11494337 0.034935459 1.732778
0.12501091 0.036588561 1.7390002
0.13263352 0.038113084 1.7390001
0.14635424 0.038113084 1.7390001
0.1570259 0.038113084 1.7390001
0.11836578 0.042490281 1.7310001
0.12573619 0.042079121 1.7350001
0.13574986 0.043724846 1.7350001
0.1445336 0.04411611 1.7354445
0.15374073 0.044138707 1.7363335
0.16423273 0.044488363 1.7390002
0.17570131 0.044592306 1.7390002
0.18345098 0.046243876 1.739
0.14719847 0.05007783 1.7310001
0.1551999 0.052836943 1.7310002
0.16582476 0.054258581 1.7324547
0.17478366 0.054708675 1.7336669
0.18307692 0.055272564 1.7354445
0.19361447 0.059456408 1.739
0.20276161 0.059456408 1.7390001
0.18730335 0.065300852 1.7323333
0.19560274 0.065094605 1.735
0.20560025 0.065484375 1.7372223
0.21495779 0.065935634 1.7390002
0.22410494 0.067079023 1.7390002
0.23386188 0.067993745 1.7390001
0.24544828 0.068603553 1.739
0.19879381 0.07132297 1.7310001
0.20586281 0.072164133 1.733
0.21496557 0.073681198 1.7355716
0.22473997 0.074817516 1.7353637
0.23492897 0.074153379 1.7334
0.24494798 0.074544236 1.7354445
0.25398558 0.076531067 1.7390001
0.26069349 0.07775069 1.7390001
0.25548223 0.084449299 1.7326
0.26592043 0.084937729 1.7390002
0.27637428 0.087768979 1.7390002
0.28203681 0.089946873 1.7390001
0.25949422 0.092568107 1.7310001
0.2664074 0.095385939 1.734
0.27579769 0.095994316 1.7381114
0.28325644 0.096654788 1.7390001
0.26859927 0.10470819 1.7310001
0.27523816 0.10492171 1.7345557
0.28470474 0.10481098 1.7390002
0.27590933 0.11438987 1.7340001
0.28470472 0.11472039 1.7390002
0.26859927 0.12595333 1.7310001
0.2754862 0.12557636 1.7342001
0.28394246 0.12462977 1.7390002
0.26859927 0.13354087 1.7310001
-0.114931 -0.47045088 1.748
-0.13178754 -0.46278882 1.748
-0.12514709 -0.46432123 1.748
-0.11615694 -0.4649342 1.7479999
-0.10880134 -0.46738607 1.748
-0.14404684 -0.45206192 1.748
-0.13331996 -0.45282814 1.748
-0.12106065 -0.45819157 1.748
-0.114931 -0.45819157 1.748
-0.15324134 -0.44593227 1.748
-0.14514144 -0.4459323 1.748
-0.1337578 -0.44680795 1.748
-0.12412548 -0.44644308 1.748
-0.11799583 -0.44286746 1.748
-0.17009787 -0.43060815 1.748
-0.16703305 -0.43367296 1.748
-0.15477376 -0.43980262 1.748
-0.14557926 -0.43980262 1.748
-0.13638479 -0.43980262 1.748
-0.11459047 -0.43503511 1.748
-0.10880134 -0.43060815 1.748
-0.17418431 -0.42550012 1.748
-0.10573652 -0.4244785 1.748
-0.18235719 -0.4122192 1.748
-0.17929237 -0.41681641 1.748
-0.10573652 -0.41528404 1.748
-0.18235719 -0.4030247 1.748
-0.17929237 -0.40915436 1.748
-0.11186618 -0.40455711 1.748
-0.10624731 -0.40608954 1.748
-0.18235719 -0.3907654 1.748
-0.17929237 -0.39689505 1.748
-0.11247914 -0.39566913 1.7479999
-0.10675813 -0.39519235 1.748
-0.099606864 -0.39383021 1.748
-0.1838896 -0.38616815 1.748
-0.11263238 -0.38386953 1.748
-0.10726894 -0.38463572 1.748
-0.12259308 -0.37544128 1.748
-0.11646342 -0.37544128 1.748
-0.12310389 -0.36420357 1.748
-0.11799583 -0.36624679 1.748
-0.19155167 -0.35245508 1.748
-0.13423941 -0.35337448 1.7479999
-0.12719031 -0.3570523 1.748
-0.19231789 -0.3440268 1.748
-0.13791719 -0.34479299 1.748
-0.19308409 -0.33559853 1.748
-0.15170892 -0.33253369 1.748
-0.14455765 -0.33457693 1.748
-0.13740639 -0.33764172 1.748
-0.19359489 -0.32844725 1.748
-0.17546132 -0.32257301 1.748
-0.16396822 -0.32027438 1.748
-0.15416077 -0.3215003 1.7479999
-0.1473306 -0.32552838 1.748
-0.20176776 -0.31210151 1.748
-0.1946165 -0.31107992 1.748
-0.18542202 -0.31184614 1.748
-0.17427719 -0.31386608 1.7479999
-0.16396822 -0.31502038 1.748
-0.15426293 -0.31516635 1.748
-0.20197208 -0.30556321 1.7479999
-0.1946165 -0.30495024 1.748
-0.18542202 -0.30495024 1.748
-0.17929237 -0.30495024 1.748
-0.20074613 -0.29575577 1.748
-0.1946165 -0.29575577 1.748
-0.18542202 -0.29575577 1.748
-0.17622754 -0.29444233 1.748
-0.20258503 -0.28410941 1.7479999
-0.19505432 -0.28743696 1.748
-0.18511555 -0.28594834 1.7479999
-0.17929237 -0.28809369 1.748
-0.20381097 -0.27736682 1.748
-0.18235719 -0.27430198 1.748
-0.20381097 -0.25438061 1.748
-0.20381097 -0.24518614 1.748
-0.20381097 -0.23752406 1.748
-0.1624358 -0.062828943 1.748
-0.15416078 -0.064054869 1.7479999
-0.14619224 -0.064054869 1.7479999
-0.19155167 -0.050569639 1.748
-0.18848684 -0.050569639 1.748
-0.1711195 -0.051591247 1.748
-0.16498983 -0.057720903 1.748
-0.15783857 -0.059764121 1.748
-0.14251444 -0.059764121 1.748
-0.13485238 -0.059764121 1.748
-0.12565789 -0.058231708 1.748
-0.11339859 -0.053634465 1.748
-0.10573652 -0.050569639 1.748
-0.18695444 -0.047504812 1.748
-0.1731627 -0.045972399 1.748
-0.10573652 -0.047504812 1.748
-0.095009625 -0.044439986 1.748
-0.08734756 -0.04137516 1.748
-0.081217907 -0.038310334 1.748
-0.072023429 -0.035245508 1.748
-0.065893777 -0.033202291 1.748
-0.058231708 -0.032180678 1.748
-0.050569639 -0.029115854 1.748
-0.044439986 -0.028094245 1.748
-0.034479301 -0.025284819 1.748
-0.027583439 -0.0229862 1.748
-0.0229862 -0.019921374 1.748
-0.015324133 -0.014557927 1.748
-0.0076620667 -0.010726893 1.748
0.0045972397 -0.0076620667 1.748
0.015324133 -0.0038310334 1.748
0.026817234 0.0022986201 1.748
0.035245508 0.0040864353 1.748
0.042907573 0.0076620667 1.748
0.045972399 0.010726893 1.748
0.055166882 0.010726893 1.748
0.064361356 0.012259306 1.748
0.078153081 0.016856547 1.748
0.084282734 0.019921374 1.748
0.091944799 0.019921374 1.748
0.10726893 0.0229862 1.748
0.11493101 0.026051028 1.748
0.12106065 0.032180678 1.748
0.13577183 0.036471438 1.7479999
0.14634547 0.035245508 1.748
0.15324134 0.038310334 1.748
0.16396822 0.038310334 1.748
0.17163029 0.04137516 1.748
0.18644363 0.045461595 1.748
0.18848686 0.053634465 1.748
0.19417867 0.054510128 1.748
0.20585419 0.055933088 1.7479998
0.21607025 0.056699295 1.748
0.22526476 0.057574961 1.748
0.23369303 0.058997914 1.748
0.21607028 0.062828943 1.748
0.22526477 0.062828943 1.748
0.23507221 0.064054869 1.7479999
0.24518614 0.064361356 1.748
0.2538698 0.067936994 1.748
0.25667924 0.072789639 1.748
0.26549059 0.074705154 1.748
0.2739189 0.075088255 1.748
0.28043163 0.076620668 1.748
0.27583441 0.08275032 1.748
0.28502887 0.084282734 1.748
0.2886045 0.093988009 1.748
0.29444227 0.096542038 1.748
0.28962612 0.10880134 1.748
0.29537266 0.10611963 1.748
0.30188543 0.10726893 1.748
0.28962612 0.11186618 1.748
0.29575577 0.114931 1.748
0.30265164 0.1141648 1.748
0.28962612 0.12259307 1.748
0.29575577 0.12106065 1.748
-0.12476457 -0.47287312 1.7570001
-0.11860336 -0.47287312 1.7570001
-0.14170791 -0.4605507 1.7570001
-0.13451983 -0.46517161 1.7570001
-0.12476457 -0.46517164 1.7570001
-0.1147526 -0.4636313 1.7570001
-0.10705108 -0.46401641 1.7570001
-0.1457127 -0.45562172 1.7570002
-0.13606013 -0.45644322 1.7570001
-0.12432449 -0.45526966 1.7570001
-0.11552276 -0.45438951 1.7570001
-0.10689706 -0.45623785 1.7570002
-0.11449588 -0.44617453 1.7570001
-0.10496067 -0.44338733 1.7570001
-0.093188353 -0.44283721 1.7570001
-0.084716685 -0.44206706 1.7570001
-0.17097367 -0.43590584 1.7570001
-0.10432055 -0.43618593 1.7570001
-0.093958504 -0.43590587 1.7570001
-0.18021549 -0.42512372 1.7570001
-0.10166002 -0.42512375 1.7570001
-0.093958504 -0.42512378 1.7570001
-0.1832961 -0.41126099 1.7570001
-0.10135196 -0.4149577 1.7570002
-0.093958504 -0.41434163 1.7570001
-0.087797292 -0.4128013 1.7570001
-0.18432297 -0.40407291 1.7570001
-0.10166002 -0.40509978 1.7570001
-0.093958504 -0.40509981 1.7570001
-0.087797292 -0.40509978 1.7570001
-0.18514445 -0.39647406 1.7570002
-0.10166002 -0.39585796 1.7570001
-0.093958504 -0.39585799 1.7570001
-0.086256988 -0.39585796 1.7570001
-0.18637671 -0.38969675 1.7570001
-0.11244214 -0.38045493 1.7570001
-0.10289226 -0.3841517 1.7570002
-0.093958504 -0.38507584 1.7570001
-0.087797292 -0.38507584 1.7570001
-0.11321229 -0.37352356 1.7570001
-0.10474063 -0.37429377 1.7570001
-0.096268959 -0.37506387 1.7570001
-0.11464258 -0.36461183 1.7570001
-0.10474063 -0.3650519 1.7570001
-0.097039111 -0.3665922 1.7570001
-0.19869913 -0.35889068 1.7570001
-0.12437949 -0.35542503 1.7570001
-0.11552275 -0.35619518 1.7570001
-0.10859139 -0.35581008 1.7570001
-0.13246609 -0.34502798 1.7570001
-0.12476457 -0.34502801 1.7570001
-0.11654962 -0.34605482 1.7570001
-0.10936154 -0.34656826 1.7570001
-0.14093776 -0.33347568 1.7570001
-0.13362132 -0.33386075 1.7570001
-0.12476458 -0.33424586 1.7570001
-0.11737112 -0.3336297 1.7570002
-0.14236803 -0.32456392 1.7570001
-0.1340064 -0.32500401 1.7570001
-0.12476458 -0.32500401 1.7570001
-0.11737112 -0.32562011 1.7570002
-0.16481246 -0.31268159 1.7570001
-0.15659751 -0.31370845 1.7570001
-0.14478852 -0.31576222 1.7570001
-0.1340064 -0.31576219 1.7570001
-0.12538069 -0.31761056 1.7570002
-0.11860336 -0.3188428 1.7570001
-0.17405428 -0.3049801 1.7570001
-0.16481246 -0.3049801 1.7570001
-0.15557064 -0.3049801 1.7570001
-0.14478853 -0.3049801 1.7570001
-0.1340064 -0.3049801 1.7570001
-0.17343816 -0.29358181 1.7570002
-0.16481246 -0.29419795 1.7570001
-0.15557064 -0.29419795 1.7570001
-0.14478852 -0.29419798 1.7570001
-0.1340064 -0.29419795 1.7570001
-0.20177974 -0.28187552 1.7570001
-0.19500241 -0.28310776 1.7570002
-0.18406625 -0.28264567 1.7570001
-0.17405428 -0.28495613 1.7570001
-0.16481246 -0.28495613 1.7570001
-0.15557064 -0.28495613 1.7570001
-0.1452086 -0.28523621 1.7570001
-0.1355467 -0.28649643 1.7570001
-0.21102156 -0.2726337 1.7570001
-0.20486034 -0.27532923 1.7570001
-0.19561853 -0.27571431 1.7570001
-0.18497643 -0.27571434 1.7570001
-0.17405428 -0.27571431 1.7570001
-0.16481246 -0.27571431 1.7570001
-0.15557064 -0.27571431 1.7570001
-0.14709897 -0.27648446 1.7570001
-0.21102156 -0.26801279 1.7570001
-0.20640065 -0.26493219 1.7570001
-0.19561853 -0.26493222 1.7570001
-0.18483643 -0.26493222 1.7570001
-0.17405428 -0.26493222 1.7570001
-0.16481246 -0.26493222 1.7570001
-0.15557064 -0.26493222 1.7570001
-0.14709897 -0.26416203 1.7570001
-0.20424423 -0.25476617 1.7570002
-0.19561853 -0.25415006 1.7570001
-0.1848364 -0.25415009 1.7570001
-0.17405428 -0.25569037 1.7570001
-0.16442738 -0.25453514 1.7570001
-0.15557064 -0.25415006 1.7570001
-0.14786913 -0.25723067 1.7570001
-0.20177974 -0.24644853 1.7570001
-0.19561853 -0.24490823 1.7570001
-0.1848364 -0.24490826 1.7570001
-0.17405428 -0.24798883 1.7570001
-0.16327216 -0.24798883 1.7570001
-0.15557064 -0.24798883 1.7570001
-0.20486034 -0.23412611 1.7570001
-0.19484837 -0.23797686 1.7570001
-0.18637671 -0.23643656 1.7570001
-0.21102156 -0.22642459 1.7570001
-0.20547648 -0.22396012 1.7570002
-0.20588721 -0.2130753 1.7570001
-0.21102156 -0.20794095 1.7570001
-0.20691408 -0.20691408 1.7570001
-0.2130753 -0.19356479 1.7570001
-0.21102156 -0.18945731 1.7570001
-0.17200054 -0.061098699 1.7570001
-0.16481246 -0.066233046 1.7570002
-0.15634079 -0.068543501 1.7570001
-0.14386433 -0.066849165 1.7570002
-0.13462251 -0.064384684 1.7570002
-0.12476457 -0.061612137 1.7570001
-0.19253792 -0.053910617 1.7570001
-0.18432297 -0.052370314 1.7570001
-0.17508115 -0.054937486 1.7570001
-0.12168396 -0.056991223 1.7570001
-0.11552275 -0.056991223 1.7570001
-0.10474063 -0.053910617 1.7570001
-0.095498808 -0.05083001 1.7570001
-0.18226923 -0.046722535 1.7570001
-0.17713489 -0.046209101 1.7570001
-0.091904767 -0.046722535 1.7570001
-0.084716685 -0.04261506 1.7570001
-0.077015169 -0.038507584 1.7570001
-0.06315244 -0.035426978 1.7570001
-0.052370314 -0.032346372 1.7570001
-0.046209101 -0.032346372 1.7570001
-0.041588191 -0.029265763 1.7570001
-0.036967281 -0.029265763 1.7570001
-0.024131419 -0.02310455 1.7570001
-0.015403034 -0.016943337 1.7570001
-0.0030806067 -0.010782124 1.7570001
0.0046209102 -0.010782124 1.7570001
0.01386273 -0.0077015166 1.7570001
0.024336793 -0.0027725459 1.7570002
0.033886675 -0.0015403033 1.7570001
0.038507584 0.0015403033 1.7570001
0.043898646 0.0046209102 1.7570001
0.053910617 0.0077015166 1.7570001
0.068286784 0.011808992 1.7570001
0.074704714 0.013092578 1.7570001
0.083176382 0.016943337 1.7570001
0.097039111 0.020023944 1.7570001
0.10474063 0.020023944 1.7570001
0.1162929 0.02310455 1.7570001
0.12322427 0.02772546 1.7570001
0.14940943 0.029265763 1.7570001
0.12630488 0.032346372 1.7570001
0.13477655 0.033116523 1.7570001
0.14324822 0.033116523 1.7570001
0.15480049 0.034656826 1.7570001
0.16481246 0.035426978 1.7570001
0.17405428 0.036967281 1.7570001
0.18226923 0.037480716 1.7570001
0.1848364 0.041588191 1.7570001
0.19484837 0.046979252 1.7570001
0.20486034 0.047749404 1.7570001
0.19715883 0.05083001 1.7570001
0.20486034 0.05083001 1.7570001
0.21564247 0.05083001 1.7570001
0.22457623 0.052062254 1.7570002
0.23566641 0.055964354 1.7570001
0.24182762 0.056991223 1.7570001
0.24490823 0.06007183 1.7570001
0.25415006 0.062382288 1.7570001
0.26431608 0.066849165 1.7570002
0.27571431 0.069313653 1.7570001
0.27879491 0.075474866 1.7570001
0.28495613 0.076245017 1.7570001
0.29419795 0.084716685 1.7570001
0.30035916 0.084716685 1.7570001
0.29727855 0.092418201 1.7570001
0.30446663 0.094985373 1.7570001
0.31268159 0.093958504 1.7570001
0.30583581 0.10320032 1.7570001
-0.10218076 -0.47219896 1.766
-0.14088559 -0.46755439 1.766
-0.1377892 -0.46910259 1.766
-0.10187112 -0.46662545 1.766
-0.094955862 -0.46497408 1.7659999
-0.10429192 -0.45362064 1.766
-0.094439797 -0.45516887 1.7660002
-0.085460268 -0.4542399 1.766
-0.078957863 -0.45052427 1.766
-0.10372895 -0.44742787 1.766
-0.095987983 -0.44742787 1.766
-0.085150629 -0.44433147 1.7659999
-0.076746158 -0.44388914 1.7659999
-0.069668703 -0.4443315 1.766
-0.085150629 -0.43504232 1.7659999
-0.07740967 -0.43504235 1.7659999
-0.085150637 -0.42575315 1.7659999
-0.076746158 -0.42531082 1.7659999
-0.0841185 -0.41543186 1.7659999
-0.075861476 -0.4149158 1.7660002
-0.069668703 -0.416464 1.766
-0.083292797 -0.40469775 1.766
-0.076746158 -0.40452081 1.7659999
-0.19042778 -0.39324111 1.766
-0.082828343 -0.39401519 1.766
-0.078957863 -0.39633751 1.766
-0.083602436 -0.38550016 1.7659999
-0.078957863 -0.38550016 1.7660002
-0.092670433 -0.3739993 1.7659999
-0.085150629 -0.37466279 1.7660002
-0.078957863 -0.37621096 1.7660002
-0.10372895 -0.36072907 1.7660002
-0.094052747 -0.3634384 1.7659999
-0.086389184 -0.3644447 1.766
-0.1161145 -0.35298806 1.766
-0.104073 -0.35384822 1.7659999
-0.094439782 -0.35453627 1.7659999
-0.11487594 -0.34462786 1.766
-0.1048549 -0.34496558 1.766
-0.097536176 -0.34834349 1.766
-0.11379221 -0.33673206 1.766
-0.10527714 -0.33595797 1.7660002
-0.11405023 -0.32408848 1.7659999
-0.10594065 -0.3251206 1.7660002
-0.12496132 -0.31339857 1.7659999
-0.1161145 -0.31428325 1.7659999
-0.10721238 -0.31467029 1.7659999
-0.12540366 -0.30499408 1.7659999
-0.1161145 -0.30499411 1.7659999
-0.10992172 -0.30499411 1.7660002
-0.13469282 -0.2957049 1.7659999
-0.12540367 -0.29570496 1.7659999
-0.11921088 -0.2957049 1.766
-0.14191772 -0.28125513 1.7660002
-0.13391873 -0.28331941 1.7659999
-0.12746792 -0.2858997 1.7659999
-0.20281333 -0.27093384 1.766
-0.15017475 -0.27403024 1.7660002
-0.14243379 -0.27403024 1.7659999
-0.13557748 -0.27358788 1.7659999
-0.21210249 -0.26474106 1.766
-0.20281333 -0.26474106 1.7660002
-0.15017475 -0.26628923 1.766
-0.1430973 -0.26474103 1.7659999
-0.136241 -0.26474103 1.7659999
-0.17494583 -0.25235552 1.7660002
-0.16875307 -0.25235552 1.766
-0.15017475 -0.25390369 1.766
-0.14359494 -0.25506485 1.7659999
-0.13557748 -0.25589424 1.7659999
-0.20281333 -0.24306636 1.766
-0.17494585 -0.24527808 1.7659999
-0.16609903 -0.24527805 1.7659999
-0.15450969 -0.24554345 1.766
-0.14398198 -0.24616273 1.7659999
-0.13655064 -0.24616274 1.766
-0.20405188 -0.23439649 1.766
-0.19521309 -0.23377723 1.766
-0.18354692 -0.23446529 1.7659999
-0.17494585 -0.23532535 1.7660002
-0.16565669 -0.2353254 1.7660002
-0.15481934 -0.2353254 1.7660003
-0.14467007 -0.23652953 1.7659999
-0.1377892 -0.23996997 1.766
-0.21365067 -0.22293985 1.766
-0.20529044 -0.22510731 1.766
-0.19507235 -0.22448803 1.7660002
-0.18423501 -0.22448802 1.7659999
-0.17494586 -0.22448805 1.7659999
-0.16604373 -0.22448803 1.7659999
-0.15238646 -0.22493039 1.7659999
-0.14707837 -0.22448803 1.766
-0.21365069 -0.21519889 1.7659999
-0.20539363 -0.21571495 1.7659999
-0.19507237 -0.21519887 1.7660002
-0.18423502 -0.21519886 1.7659999
-0.17494583 -0.21558593 1.7659999
-0.16772096 -0.21726315 1.7660002
-0.15094884 -0.21597297 1.766
-0.21396032 -0.20529044 1.766
-0.20529044 -0.20529044 1.766
-0.19404022 -0.20797396 1.7659999
-0.18500909 -0.20823202 1.766
-0.22139165 -0.19816875 1.766
-0.21442477 -0.19816875 1.766
-0.20797396 -0.19610451 1.7659999
-0.17339766 -0.074313283 1.766
-0.16521434 -0.074976794 1.7659999
-0.15602347 -0.075173385 1.7659999
-0.19042778 -0.061927736 1.766
-0.18384796 -0.063088879 1.7659999
-0.17563391 -0.066228271 1.7659999
-0.16720489 -0.069668703 1.766
-0.14243379 -0.069668703 1.766
-0.13469282 -0.068636574 1.7660002
-0.12540366 -0.065540187 1.7660002
-0.11673377 -0.061618097 1.766
-0.10837353 -0.060379539 1.766
-0.19197598 -0.057283152 1.766
-0.18423501 -0.056509055 1.766
-0.10372895 -0.057283152 1.7660002
-0.095213883 -0.054186765 1.766
-0.18113862 -0.044897605 1.766
-0.085150629 -0.046445798 1.766
-0.07740967 -0.041801218 1.766
-0.07276509 -0.038704835 1.766
-0.066572316 -0.038704835 1.7660002
-0.054186765 -0.035608448 1.7660002
-0.044897605 -0.034576319 1.7660002
-0.037156641 -0.032512061 1.766
-0.032512061 -0.029415673 1.766
-0.024771092 -0.026319286 1.766
-0.015481934 -0.020126512 1.766
-0.010837353 -0.017030127 1.766
-0.0046445802 -0.01393374 1.7660002
0.0030963868 -0.012385546 1.766
0.012385546 -0.010837353 1.766
0.013933741 -0.0077409665 1.766
0.025080731 -0.0065024123 1.766
0.035608448 -0.0036124513 1.7660002
0.043349411 -0.0015481933 1.766
0.046961863 0.0025803223 1.7660002
0.054186769 0.0034060255 1.766
0.065024123 0.0077409665 1.766
0.075861476 0.0077409665 1.7660002
0.083602436 0.0077409665 1.766
0.07740967 0.010837353 1.766
0.08559297 0.013049059 1.7659999
0.093997456 0.014818422 1.7659999
0.10549831 0.015703104 1.7659999
0.1153404 0.016256031 1.766
0.12385546 0.017030127 1.766
0.13159643 0.017030127 1.766
0.11766269 0.020126512 1.766
0.125846 0.023665238 1.7659999
0.13469283 0.026319284 1.7659999
0.14359494 0.026706332 1.7659999
0.15481934 0.026319284 1.766
0.16565669 0.028177118 1.766
0.17432657 0.028177118 1.766
0.18113862 0.029415673 1.766
0.15791571 0.032512061 1.766
0.16565669 0.032512061 1.7660002
0.17494585 0.032512061 1.7660002
0.18475105 0.034576315 1.7659999
0.19507235 0.043349411 1.766
0.20590971 0.044897605 1.7660002
0.21519887 0.046755437 1.766
0.22293985 0.046445798 1.766
0.23532538 0.052638572 1.766
0.24693684 0.055734958 1.766
0.2546778 0.056509055 1.766
0.26164466 0.057283152 1.766
0.25854829 0.061927736 1.766
0.26551515 0.061153635 1.766
0.27403021 0.065024123 1.766
0.28486758 0.069668703 1.766
0.28848001 0.073797219 1.7660002
0.29493082 0.078183763 1.766
0.2988013 0.082054242 1.766
0.30576819 0.087472916 1.766
0.31273505 0.088247016 1.766
0.30654228 0.091343403 1.766
0.31273505 0.091343403 1.766
-0.094974563 -0.47175887 1.7760001
-0.091860637 -0.46864495 1.7760001
-0.085010014 -0.46428546 1.7760003
-0.079404958 -0.46241713 1.7760001
-0.074907072 -0.45584324 1.7760001
-0.071620159 -0.44529057 1.7760001
-0.066949278 -0.44580951 1.7760001
-0.071620159 -0.43439183 1.7760001
-0.065392315 -0.43750575 1.7760001
-0.070841677 -0.42582855 1.7760001
-0.065392315 -0.42349309 1.7760001
-0.070063196 -0.41415137 1.7760001
-0.064725049 -0.41570833 1.7760001
-0.072287425 -0.40414232 1.7760001
-0.065703705 -0.40698934 1.7760003
-0.077069521 -0.39391088 1.7760001
-0.07629104 -0.38456908 1.7760001
-0.077069521 -0.3744489 1.7760001
-0.084075838 -0.36510712 1.7760001
-0.079404958 -0.36588562 1.7760001
-0.0934176 -0.35031599 1.7760001
-0.086255588 -0.35841218 1.7760003
-0.096842922 -0.34346539 1.7760003
-0.096842907 -0.33536917 1.7760003
-0.1012024 -0.32696161 1.7760001
-0.096531525 -0.32229072 1.7760001
-0.10198088 -0.3152844 1.7760001
-0.098088481 -0.31761983 1.7760001
-0.11365808 -0.30049327 1.7760001
-0.10500829 -0.30637515 1.7760001
-0.12299984 -0.29115152 1.7760001
-0.11538804 -0.29495743 1.7760001
-0.12424541 -0.28430086 1.7760003
-0.11988592 -0.28648064 1.7760001
-0.13234159 -0.27713889 1.7760001
-0.1284492 -0.27480343 1.7760001
-0.13234159 -0.26624015 1.7760001
-0.1286049 -0.26374903 1.7760003
-0.13234159 -0.25378448 1.7760001
-0.12767072 -0.25378448 1.7760001
-0.13358717 -0.24444273 1.7760003
-0.12922768 -0.24288577 1.7760001
-0.14272134 -0.23302501 1.7760001
-0.13584477 -0.2354902 1.7760001
-0.16114536 -0.22575921 1.7760001
-0.15725295 -0.22420225 1.7760001
-0.14390758 -0.22575919 1.7760001
-0.13701248 -0.22575919 1.7760001
-0.21953136 -0.2101896 1.7760001
-0.17593648 -0.21096808 1.7760001
-0.16419938 -0.21402213 1.7760004
-0.15530676 -0.21369275 1.7760001
-0.14542006 -0.21548326 1.7760003
-0.13856944 -0.21953136 1.7760001
-0.22264528 -0.20396176 1.7760001
-0.21953136 -0.20084783 1.7760001
-0.20209341 -0.20333898 1.7760003
-0.19506483 -0.20307207 1.7760001
-0.18488899 -0.20357253 1.7760001
-0.17697446 -0.20499974 1.7760001
-0.16815168 -0.20707569 1.7760001
-0.15102512 -0.20707569 1.7760001
-0.20474026 -0.19539848 1.7760001
-0.19306304 -0.19773392 1.7760001
-0.18527824 -0.19773392 1.7760001
-0.1790504 -0.19773392 1.7760001
-0.20707569 -0.18839216 1.7760001
-0.19150607 -0.073177122 1.7760001
-0.18483339 -0.072287433 1.7760001
-0.17718205 -0.077536605 1.7760003
-0.16815168 -0.079404958 1.7760001
-0.15258208 -0.077848002 1.7760001
-0.14635424 -0.073177122 1.7760001
-0.13545552 -0.071620159 1.7760001
-0.12767072 -0.070063196 1.7760001
-0.19384152 -0.064613834 1.7760001
-0.18839216 -0.066949278 1.7760001
-0.12299984 -0.066949278 1.7760001
-0.11521503 -0.065392315 1.7760001
-0.10431632 -0.061759412 1.7760001
-0.0934176 -0.056050561 1.7760001
-0.087708749 -0.052417655 1.7760001
-0.082518883 -0.048265759 1.7760001
-0.074734077 -0.043594882 1.7760001
-0.066949278 -0.042037919 1.7760001
-0.060721438 -0.038924001 1.7760001
-0.054493602 -0.038924001 1.7760001
-0.045151837 -0.037367038 1.7760001
-0.035031602 -0.035031598 1.7760001
-0.02024048 -0.02646832 1.7760001
-0.014012639 -0.022316426 1.7760001
-0.0046708803 -0.01712656 1.7760001
0.0046708798 -0.0155696 1.7760001
0.014012639 -0.012974667 1.7760001
0.024911359 -0.01089872 1.7760001
0.035810079 -0.01089872 1.7760001
0.02958224 -0.0077848001 1.7760001
0.036588561 -0.0070063202 1.7760001
0.04437336 -0.0046708798 1.7760001
0.053715121 -0.0023354399 1.7760001
0.06383536 -0.0015569599 1.7760001
0.054493599 0.0015569599 1.7760001
0.06383536 0.0031139199 1.7760001
0.074734077 0.0031139199 1.7760001
0.086077645 0.0037811883 1.7760001
0.094196081 0.0070063202 1.7760001
0.10275936 0.0077848001 1.7760001
0.096531525 0.01089872 1.7760001
0.10431632 0.0116772 1.7760001
0.11625301 0.011936693 1.7760001
0.12689224 0.01479112 1.7760001
0.13545552 0.015569601 1.7760001
0.14479728 0.01712656 1.7760001
0.12922768 0.02024048 1.7760001
0.13545552 0.02024048 1.7760001
0.14557576 0.02101896 1.7760001
0.15413904 0.02024048 1.7760001
0.16521075 0.022316426 1.7760001
0.17671496 0.024132878 1.7760001
0.18605672 0.028025281 1.7760001
0.19399722 0.037678432 1.7760003
0.20396176 0.03814552 1.7760001
0.21537946 0.038924001 1.7760001
0.22575919 0.038924001 1.7760001
0.19773392 0.042037919 1.7760001
0.20396177 0.042037919 1.7760001
0.21517186 0.042660706 1.7760003
0.22700477 0.043906271 1.7760003
0.23432249 0.047487278 1.7760001
0.24288577 0.0467088 1.7760001
0.25378448 0.048265759 1.7760001
0.26156926 0.048265759 1.7760001
0.23821488 0.051379681 1.7760001
0.2452212 0.052158162 1.7760001
0.25456297 0.052158162 1.7760001
0.26485622 0.054147612 1.7760001
0.2755819 0.056361955 1.7760003
0.27636039 0.06149992 1.7760001
0.28453442 0.064224593 1.7760001
0.29115152 0.066949278 1.7760001
0.30827808 0.060721438 1.7760001
0.31294897 0.065392315 1.7760001
0.29488823 0.072554335 1.7760003
0.30558878 0.076007955 1.7760003
0.31606287 0.076913819 1.7760003
0.30672112 0.083297357 1.7760001
0.31450593 0.084075838 1.7760001
-0.089196451 -0.47258469 1.7850001
-0.057899449 -0.47101983 1.7850001
-0.074330375 -0.4651517 1.785
-0.065723702 -0.46163076 1.7850001
-0.064680465 -0.45537138 1.785
-0.063264646 -0.44598225 1.785
-0.063845888 -0.43408936 1.7850001
-0.061029151 -0.42407432 1.7850002
-0.057899449 -0.42094466 1.7850001
-0.061029151 -0.41312039 1.7850001
-0.057899449 -0.41468525 1.7850002
-0.070418246 -0.40216646 1.7850001
-0.063115619 -0.40425292 1.785
-0.071983099 -0.39590704 1.785
-0.067288548 -0.39903674 1.7850001
-0.071983099 -0.38495311 1.785
-0.072653756 -0.37355202 1.785
-0.075783446 -0.36416292 1.785
-0.085619651 -0.35432675 1.785
-0.078764111 -0.3573074 1.7850002
-0.09310858 -0.3466143 1.7850001
-0.087944567 -0.34645778 1.7850001
-0.09482991 -0.33393899 1.7850001
-0.096499085 -0.32496718 1.7850002
-0.097020701 -0.31453484 1.7850001
-0.10275849 -0.30305925 1.7850002
-0.098585546 -0.3067106 1.7850001
-0.1126692 -0.29262695 1.7850001
-0.10719223 -0.29653907 1.7850001
-0.12284072 -0.28089058 1.7850001
-0.11384284 -0.28519392 1.785
-0.10797465 -0.28480271 1.7850001
-0.12323194 -0.27384877 1.785
-0.11384284 -0.27345756 1.785
-0.10797465 -0.27384874 1.7850002
-0.12323194 -0.26485085 1.785
-0.11475567 -0.26393804 1.785
-0.1220583 -0.25507057 1.785
-0.11736375 -0.25350571 1.7850001
-0.12424909 -0.24599442 1.7850001
-0.13301225 -0.2315978 1.7850001
-0.1283177 -0.23629236 1.785
-0.13379467 -0.22299112 1.7850001
-0.22220871 -0.21281961 1.7850001
-0.14240135 -0.21281961 1.7850001
-0.13703616 -0.21483156 1.785
-0.22168708 -0.20708181 1.7850002
-0.17307241 -0.20311753 1.7850001
-0.16430926 -0.20551698 1.785
-0.15536724 -0.20499536 1.785
-0.146157 -0.20687318 1.7850001
-0.13927165 -0.20812505 1.7850001
-0.2034305 -0.1940414 1.7850001
-0.19605336 -0.19471204 1.785
-0.18621714 -0.19404139 1.785
-0.17630643 -0.19664948 1.785
-0.16743895 -0.19873595 1.7850001
-0.2034305 -0.18934685 1.7850001
-0.19717109 -0.18934685 1.7850001
-0.18778199 -0.18934685 1.7850001
-0.18308745 -0.082937047 1.7850001
-0.19664948 -0.071461476 1.7850002
-0.18621714 -0.077720881 1.7850002
-0.15179045 -0.079807349 1.7850001
-0.14553104 -0.07563442 1.7850002
-0.1345771 -0.073547952 1.7850001
-0.12518801 -0.071983099 1.7850001
-0.11736375 -0.070418246 1.7850001
-0.20186564 -0.067288548 1.7850001
-0.19873595 -0.064158849 1.7850002
-0.1126692 -0.067288548 1.7850001
-0.10484495 -0.064158849 1.7850001
-0.097020701 -0.061029151 1.7850001
-0.19873595 -0.057899449 1.7850001
-0.092326149 -0.057899449 1.7850001
-0.0845019 -0.053204902 1.7850001
-0.074591182 -0.046423882 1.7850002
-0.064158857 -0.043815799 1.7850001
-0.054769751 -0.04225095 1.7850002
-0.04851035 -0.04225095 1.7850001
-0.043815799 -0.039121252 1.7850001
-0.039121252 -0.039121252 1.7850001
-0.029732149 -0.032861851 1.7850001
-0.023472751 -0.029732147 1.7850002
-0.013301225 -0.025820024 1.7850001
-0.0046945498 -0.02034305 1.7850002
0.0031297 -0.02034305 1.7850001
0.0078242496 -0.01721335 1.7850001
0.01408365 -0.015648499 1.7850001
0.025037602 -0.01408365 1.7850001
0.035991549 -0.01095395 1.7850001
0.04225095 -0.01095395 1.7850001
0.047467113 -0.006781016 1.7850002
0.054769751 -0.0062593995 1.7850001
0.063376427 -0.0031297 1.7850001
0.076051705 -0.0021907899 1.7850001
0.086066753 -0.00156485 1.7850001
0.092326149 -0.00156485 1.7850001
0.096081793 0.0028167299 1.7850001
0.10484495 0.0062593995 1.7850001
0.11360811 0.0065723695 1.7850001
0.12049345 0.0078242496 1.7850001
0.12675285 0.010953951 1.7850002
0.13614196 0.0125188 1.7850001
0.14553104 0.01408365 1.7850002
0.15492016 0.01721335 1.7850002
0.16430925 0.01721335 1.7850002
0.17369835 0.01721335 1.7850002
0.17682804 0.02034305 1.7850002
0.18413068 0.023472751 1.7850002
0.19247656 0.029732149 1.7850001
0.19560626 0.0344267 1.7850001
0.20499535 0.035991549 1.7850001
0.21501037 0.035991549 1.7850001
0.22439949 0.034739669 1.7850001
0.2347275 0.038338829 1.7850001
0.24505551 0.037869371 1.7850001
0.25350571 0.039121252 1.7850001
0.2369183 0.04350283 1.7850001
0.24693331 0.044128768 1.7850001
0.25507057 0.043815795 1.785
0.26490673 0.044486452 1.785
0.2732228 0.047258466 1.7850001
0.2746312 0.052422475 1.7850001
0.28574163 0.054456782 1.7850001
0.29367018 0.056856215 1.7850002
0.30514574 0.0563346 1.785
0.31140515 0.057899449 1.7850001
0.28949726 0.061029151 1.7850001
0.29614782 0.063767642 1.785
0.30475453 0.064550057 1.785
0.31140515 0.065723702 1.7850001
0.29888636 0.070418246 1.7850001
0.30514574 0.070418246 1.7850002
0.31375241 0.072765522 1.7850001
-0.070773296 -0.47024927 1.794
-0.064482339 -0.47024927 1.794
-0.054416806 -0.47150746 1.794
-0.048754938 -0.47024927 1.794
-0.063224152 -0.46521649 1.794
-0.056618642 -0.46395826 1.794
-0.06133686 -0.45766735 1.794
-0.055045903 -0.45452186 1.794
-0.048754938 -0.45294911 1.794
-0.055045903 -0.44508538 1.794
-0.047706444 -0.44298843 1.794
-0.055045903 -0.43564895 1.794
-0.047182191 -0.43564895 1.794
-0.054652717 -0.42660573 1.7939999
-0.047182202 -0.42621255 1.794
-0.053997409 -0.41467911 1.794
-0.047182195 -0.41520333 1.7939999
-0.062909603 -0.40104869 1.794
-0.055045903 -0.40419415 1.794
-0.047182199 -0.40419415 1.794
-0.064482331 -0.39475775 1.794
-0.055045903 -0.39475775 1.794
-0.047182199 -0.39475775 1.794
-0.064482339 -0.38532132 1.794
-0.055045903 -0.38532132 1.794
-0.04665795 -0.38741827 1.794
-0.064482331 -0.37588486 1.794
-0.055439088 -0.37627804 1.7939999
-0.071402393 -0.36393204 1.794
-0.064482331 -0.36487567 1.7940001
-0.057562284 -0.36581931 1.794
-0.08125823 -0.35176954 1.794
-0.073918782 -0.35386652 1.794
-0.067627817 -0.35543925 1.794
-0.083704717 -0.34373105 1.794
-0.073918782 -0.34443003 1.794
-0.067627817 -0.34757555 1.794
-0.092791662 -0.33342087 1.794
-0.084927954 -0.3349936 1.7940001
-0.075806066 -0.3356227 1.794
-0.092791654 -0.3255572 1.794
-0.084927954 -0.3255572 1.7940001
-0.077064261 -0.32398444 1.794
-0.093578026 -0.31533438 1.794
-0.085356884 -0.31583479 1.7940001
-0.077064261 -0.31612074 1.794
-0.1022281 -0.30039334 1.794
-0.095308043 -0.30448246 1.794
-0.084927954 -0.30511153 1.7940003
-0.077064261 -0.30668429 1.794
-0.11481002 -0.29095688 1.794
-0.10380083 -0.29410234 1.794
-0.095937148 -0.29410237 1.794
-0.086893879 -0.29449558 1.7939999
-0.11585852 -0.28361747 1.794
-0.10380083 -0.28466594 1.794
-0.095937148 -0.28466594 1.794
-0.089646183 -0.28623867 1.794
-0.1179555 -0.27837497 1.794
-0.10380083 -0.27522948 1.794
-0.095937148 -0.27522948 1.794
-0.11376152 -0.26684156 1.794
-0.10537358 -0.26579309 1.794
-0.097509883 -0.26657942 1.794
-0.11418092 -0.25478393 1.794
-0.107171 -0.25545794 1.7939999
-0.12267372 -0.24062921 1.794
-0.11481002 -0.24377468 1.794
-0.10851906 -0.24534744 1.794
-0.13053742 -0.23119278 1.794
-0.12334774 -0.23388891 1.7939999
-0.11570873 -0.23478761 1.7939999
-0.22175634 -0.22175634 1.794
-0.13053742 -0.22490181 1.794
-0.12424645 -0.22490181 1.794
-0.1179555 -0.22490184 1.794
-0.22175634 -0.21861085 1.794
-0.13179561 -0.21483628 1.794
-0.12550464 -0.21672359 1.794
-0.16356495 -0.20288345 1.794
-0.15570126 -0.20288345 1.794
-0.14547844 -0.20366982 1.794
-0.1348267 -0.20574299 1.7940001
-0.12739193 -0.20760168 1.794
-0.19344702 -0.19030154 1.794
-0.18243784 -0.19030154 1.794
-0.17418095 -0.19305383 1.7939999
-0.16485174 -0.19459081 1.7940001
-0.15601581 -0.1959634 1.794
-0.14671417 -0.1974912 1.7939999
-0.13745748 -0.19847979 1.794
-0.20393194 -0.18610756 1.794
-0.19580613 -0.18519014 1.7939999
-0.18445994 -0.1849093 1.7939999
-0.17412479 -0.18490927 1.7939999
-0.1661862 -0.18505907 1.794
-0.15884674 -0.18715605 1.794
-0.17142867 -0.17771962 1.794
-0.16828318 -0.17771962 1.794
-0.19030154 -0.08020974 1.794
-0.18715605 -0.08020974 1.794
-0.1483618 -0.08125823 1.794
-0.13630414 -0.08125823 1.794
-0.12581919 -0.08020974 1.794
-0.20288345 -0.070773296 1.794
-0.14311934 -0.077064261 1.794
-0.13525563 -0.077064261 1.794
-0.12361737 -0.075806066 1.794
-0.11559639 -0.073132411 1.794
-0.20288345 -0.062909603 1.794
-0.10537358 -0.06657932 1.794
-0.099082619 -0.064482339 1.794
-0.083879471 -0.056094393 1.794
-0.077064261 -0.05190042 1.794
-0.073918782 -0.048754942 1.794
-0.063695967 -0.04796857 1.794
-0.055045903 -0.045609459 1.794
-0.045609459 -0.043512475 1.794
-0.03460028 -0.039318498 1.794
-0.024489809 -0.034824956 1.7939999
-0.016251648 -0.034076035 1.794
-0.014154661 -0.02988206 1.794
-0.00550459 -0.024377469 1.794
0.0047182203 -0.022542605 1.794
0.01258192 -0.020445621 1.794
0.015727401 -0.01730014 1.794
0.024220197 -0.016041949 1.794
0.03460028 -0.01415466 1.794
0.047182199 -0.01100918 1.794
0.05347316 -0.01100918 1.794
0.058191381 -0.0078637004 1.794
0.06526871 -0.0070773303 1.794
0.073289685 -0.005976412 1.794
0.084927961 -0.0031454801 1.794
0.095937133 -0.0026212335 1.794
0.10600267 0.0028309319 1.794
0.11559638 0.0023591102 1.794
0.12424646 0.0052424669 1.794
0.13525565 0.0078637004 1.794
0.14311934 0.0078637004 1.794
0.13840112 0.01100918 1.794
0.14626481 0.01100918 1.794
