# .PCD v0.7 - Point Cloud Data file format
VERSION 0.7
FIELDS x y z
SIZE 4 4 4
TYPE F F F
COUNT 1 1 1
WIDTH 1447
HEIGHT 1
VIEWPOINT 0 0 0 1 0 0 0
POINTS 1447
DATA ascii
0.18457867 -0.29444686 1.6710001
0.19483304 -0.29444689 1.6710002
0.20508741 -0.29444686 1.6710001
0.21534178 -0.29444692 1.6710002
0.2251966 -0.29418054 1.6710002
0.2358505 -0.29298201 1.6710001
0.12744717 -0.28858727 1.6710001
0.13623662 -0.28565744 1.6710002
0.14502609 -0.28565747 1.6710002
0.15528047 -0.28565744 1.6710001
0.16469775 -0.28523892 1.6710002
0.17516138 -0.28523889 1.6710002
0.18457866 -0.28565744 1.6710001
0.19483304 -0.28565747 1.6710002
0.20508741 -0.28565747 1.6710001
0.21534179 -0.28565747 1.6710002
0.22559614 -0.28565747 1.6710001
0.23467858 -0.28682938 1.6710001
0.1368226 -0.27598903 1.6710002
0.14502609 -0.27540305 1.6710001
0.15528047 -0.27540311 1.671
0.16553484 -0.27540305 1.6710001
0.17432429 -0.27540308 1.6710002
0.18457866 -0.27540308 1.671
0.19483304 -0.27540305 1.6710001
0.20508741 -0.27540308 1.671
0.21560812 -0.27580258 1.6710002
0.22517762 -0.27519378 1.6710001
0.23365316 -0.27467063 1.6710001
0.14502609 -0.2651487 1.6710002
0.15528046 -0.26514873 1.6710001
0.16553484 -0.26514873 1.6710002
0.17139447 -0.2651487 1.6710001
0.18545762 -0.26544169 1.6710002
0.19483303 -0.26514873 1.6710002
0.20362248 -0.26514873 1.6710002
0.21729498 -0.26710191 1.6710001
0.22559614 -0.2651487 1.6710001
0.23292069 -0.26514873 1.6710001
0.14600269 -0.25391772 1.6710001
0.15528046 -0.25489435 1.671
0.16494887 -0.25489432 1.6710002
0.17139447 -0.25489435 1.6710001
0.18750848 -0.25928906 1.6710001
0.19385642 -0.25831246 1.6710001
0.22706105 -0.25928906 1.6710001
0.14444013 -0.24522594 1.6710001
0.15528046 -0.24463998 1.6710001
0.16553482 -0.24463998 1.6710002
0.17139447 -0.24463998 1.6710001
0.13623662 -0.23438561 1.6710001
0.14502609 -0.23548427 1.6710002
0.15528046 -0.23585051 1.6710001
0.16553484 -0.23585051 1.6710002
0.17139447 -0.23585051 1.6710001
0.1919032 -0.23585051 1.6710001
0.14561205 -0.22823298 1.6710001
0.15576878 -0.22706103 1.6710002
0.16553484 -0.22559614 1.6710001
0.17139447 -0.22559613 1.6710001
0.20948213 -0.22559613 1.6710001
0.21314441 -0.22706105 1.6710001
0.1596752 -0.21534176 1.6710001
0.16553482 -0.21534178 1.6710002
0.17139447 -0.21534176 1.6710001
0.206064 -0.21534179 1.6710001
0.15590827 -0.20362248 1.6710002
0.16720901 -0.20571521 1.6710002
0.17139447 -0.20655231 1.6710001
0.20655231 -0.20948213 1.6710001
-0.3222802 -0.1919032 1.6710001
0.15528047 -0.19593172 1.6710002
0.16553482 -0.19776285 1.6710001
-0.31495565 -0.18897338 1.6710001
-0.30470127 -0.18531112 1.6710001
-0.29444692 -0.18311375 1.6710001
-0.28565744 -0.18018393 1.6710001
-0.27589139 -0.18018393 1.6710001
-0.27335221 -0.17608218 1.6710001
-0.26573467 -0.17373832 1.6710001
-0.2636838 -0.16846465 1.6710001
-0.25510362 -0.16595338 1.6710002
-0.24610487 -0.162605 1.6710001
-0.23292069 -0.1596752 1.6710001
-0.2258054 -0.15507118 1.6710002
-0.21827158 -0.15088573 1.6710001
-0.21387686 -0.14795591 1.6710001
-0.20655231 -0.14356118 1.6710001
-0.20069267 -0.13916644 1.6710001
-0.19483304 -0.13721323 1.6710001
-0.18750848 -0.13037699 1.6710001
-0.18018393 -0.12744717 1.6710001
-0.17359184 -0.12451735 1.6710001
-0.16748804 -0.12256414 1.6710001
-0.15381555 -0.12158753 1.6710001
-0.162605 -0.11865771 1.6710001
-0.15528047 -0.11865771 1.6710001
-0.14502609 -0.11670449 1.6710001
-0.13623662 -0.11377468 1.6710001
-0.12305244 -0.10986825 1.6710001
-0.11572788 -0.10986825 1.6710001
-0.10459457 -0.10635246 1.6710001
-0.09521915 -0.1025437 1.6710001
-0.084964775 -0.098148972 1.6710001
-0.074710406 -0.098148972 1.6710001
-0.064456038 -0.095951602 1.6710001
-0.054201666 -0.092289329 1.6710001
-0.045412213 -0.0893595 1.6710001
-0.035157841 -0.088627055 1.6710001
-0.024903469 -0.084476478 1.6710001
-0.017578918 -0.083499871 1.6710001
-0.00585964 -0.08057005 1.6710001
-0.00146491 -0.077640228 1.6710001
0.004980694 -0.076468304 1.6710001
0.014356119 -0.075882331 1.6710001
0.024903471 -0.074710406 1.6710001
0.035157841 -0.074710406 1.6710001
0.045998178 -0.073538475 1.6710001
0.053615708 -0.072952516 1.6710001
0.064456038 -0.071780592 1.6710001
0.065920949 -0.068850771 1.6710001
0.074710414 -0.065920949 1.6710001
0.084085837 -0.063577093 1.6710001
0.09521915 -0.061526217 1.6710001
0.10767089 -0.05420167 1.6710001
-0.48488522 0.11572788 1.6710001
-0.47756064 0.1171928 1.6710001
-0.49367467 0.12451735 1.6710001
-0.48708257 0.1237849 1.6710001
-0.49472108 0.13456248 1.6710001
-0.48547116 0.13506469 1.6710002
-0.49497685 0.14404947 1.6710002
-0.48547116 0.14385417 1.6710001
-0.4951396 0.15576877 1.6710001
-0.48598391 0.1556467 1.6710002
-0.49562788 0.16651143 1.6710001
-0.48664314 0.16494885 1.6710001
-0.49367467 0.17334767 1.6710001
-0.49513957 0.18018393 1.6710001
-0.49806941 0.19776285 1.6710001
-0.49806941 0.20215759 1.6710001
0.10802637 -0.48241913 1.6880001
0.11749718 -0.4821232 1.6880001
0.10654656 -0.47502008 1.6880001
0.11537809 -0.47483245 1.6873332
0.12536134 -0.47417447 1.688
0.13466303 -0.47206044 1.6880001
0.14650153 -0.47375163 1.688
0.15402332 -0.47438535 1.684
0.10654657 -0.46466142 1.688
0.11472361 -0.46419206 1.684
0.12552074 -0.46516249 1.6844445
0.13499685 -0.46496719 1.6847999
0.1446728 -0.46651468 1.6840001
0.15390293 -0.46860054 1.6826668
0.16839014 -0.46589574 1.6799999
0.17477226 -0.46393204 1.6800002
0.18497665 -0.46096188 1.6880001
0.19385554 -0.46120849 1.6880001
0.099147491 -0.45134306 1.6880001
0.10591235 -0.45387989 1.688
0.11525393 -0.45500404 1.6836364
0.12518799 -0.45509517 1.6800002
0.13461392 -0.45745167 1.6800001
0.17820878 -0.4550952 1.6799999
0.18506885 -0.45372158 1.681143
0.19596957 -0.45514831 1.688
0.20865367 -0.45134306 1.6880001
0.097174406 -0.44443727 1.6880001
0.10495453 -0.44495785 1.6862222
0.11531509 -0.44505584 1.6821334
0.12408339 -0.44589022 1.6800002
0.18655467 -0.44822213 1.6800002
0.19588241 -0.44478554 1.6800001
0.20504417 -0.44402117 1.6826668
0.21438356 -0.44303462 1.6826668
0.2238656 -0.44331279 1.6800001
0.095342256 -0.4348537 1.6879998
0.10457134 -0.43452445 1.6843638
0.11487839 -0.43447599 1.6800002
0.1222424 -0.43447599 1.6800001
0.2106104 -0.43742159 1.6800001
0.096610673 -0.42555198 1.688
0.10484076 -0.42479214 1.6844444
0.11447673 -0.42590696 1.6800002
0.097371712 -0.41464368 1.6880001
0.1048125 -0.41631672 1.6840001
0.1163512 -0.41974801 1.6800001
0.096187867 -0.40576482 1.688
0.10210712 -0.40990829 1.6880001
0.095408797 -0.39519837 1.6873332
0.10325731 -0.39385942 1.6826668
0.087308988 -0.38327166 1.6880001
0.095004015 -0.38445553 1.6879998
0.10370615 -0.3842079 1.6840001
0.11046 -0.38145518 1.6800001
0.087308981 -0.37439275 1.6880001
0.094708048 -0.37439278 1.6879998
0.10526171 -0.37551212 1.6864001
0.11046001 -0.37556401 1.6799999
0.086322449 -0.36551389 1.6880001
0.095299982 -0.36610579 1.688
0.10471819 -0.36488616 1.6824
0.11046 -0.3652544 1.6800001
0.26215839 -0.360836 1.6800001
0.1053358 -0.35555878 1.6879998
0.11170486 -0.35480103 1.684
0.26142198 -0.35568118 1.6800001
0.10654656 -0.34775612 1.6880001
0.11450902 -0.34515885 1.681778
0.10802637 -0.33443779 1.6880001
0.11528341 -0.33551964 1.6859999
0.1222424 -0.33432558 1.6799999
0.10802637 -0.32555893 1.6880001
0.11478345 -0.32574886 1.6836923
0.1222424 -0.3225432 1.6800001
0.11538616 -0.3154822 1.6832001
0.12322427 -0.3141973 1.6800002
0.23712079 -0.3107608 1.6800001
0.243012 -0.3107608 1.6799999
0.1171743 -0.30497608 1.6879998
0.12544984 -0.30551168 1.6835556
0.1318156 -0.30486959 1.6800001
0.23638441 -0.30413318 1.6800001
0.24301201 -0.30486959 1.6800002
0.11690524 -0.29448283 1.688
0.12497313 -0.29508856 1.6807274
0.1310792 -0.29603279 1.6799999
0.23564801 -0.29897839 1.6800001
0.2415392 -0.29897839 1.6800001
0.1180891 -0.28560397 1.6880001
0.12531891 -0.2845481 1.681778
0.1310792 -0.28425041 1.6799999
0.11986488 -0.27524525 1.6880001
0.12573329 -0.27513483 1.6873332
0.13225743 -0.27482447 1.6800001
0.10408021 -0.26390004 1.6880001
0.11986488 -0.2678462 1.6880001
0.12696798 -0.26607043 1.6880001
0.1356155 -0.26533762 1.6815001
0.14433441 -0.26068559 1.6800001
0.1782088 -0.265104 1.6800001
0.18189079 -0.26289478 1.6800001
0.2047192 -0.26068559 1.6799999
0.21532336 -0.26363119 1.6800001
0.2238656 -0.26068559 1.6800001
0.23564801 -0.26068559 1.6800001
0.10533581 -0.25493148 1.6879998
0.11172591 -0.2560077 1.6880001
0.12705253 -0.25431651 1.688
0.13553067 -0.25481546 1.6857141
0.14433441 -0.25773999 1.6800001
0.17820878 -0.25479439 1.6799999
0.1855728 -0.25479439 1.6800002
0.1954616 -0.2539528 1.6800002
0.20471922 -0.25479439 1.6800002
0.21502881 -0.25479436 1.6800002
0.2253384 -0.25479439 1.6800002
0.231966 -0.25553077 1.6800001
0.1275599 -0.24416919 1.6880001
0.13605215 -0.24410154 1.6817143
0.14875279 -0.243012 1.6800001
0.1782088 -0.2444848 1.6800001
0.1855728 -0.24448477 1.6800002
0.19588239 -0.24448478 1.6800002
0.20471923 -0.24448478 1.6800002
0.21502881 -0.24448481 1.6800002
0.2253384 -0.2444848 1.6800002
0.2312296 -0.2474304 1.6800001
0.12677068 -0.23627687 1.6880001
0.13425887 -0.23385698 1.683
0.1428616 -0.2312296 1.6800001
0.17820878 -0.23417521 1.6799999
0.1855728 -0.23417522 1.6800002
0.1963032 -0.2333336 1.6800002
0.20471922 -0.23417521 1.6800002
0.21551973 -0.23515707 1.6800002
0.2244968 -0.23459598 1.6800002
0.12775721 -0.22838454 1.6880001
0.13562326 -0.22571421 1.6846666
0.14474256 -0.22302401 1.6847999
0.15582225 -0.22416015 1.6800001
0.17820878 -0.2253384 1.6799999
0.1855728 -0.22533841 1.6800002
0.19588239 -0.2253384 1.6800002
0.20471922 -0.2253384 1.6800002
-0.29152322 -0.21161331 1.6880001
0.11912497 -0.21531284 1.6880001
0.1228245 -0.21753256 1.6880001
0.13762264 -0.21753256 1.6880001
0.14570259 -0.21522576 1.6873332
0.15493855 -0.21591246 1.6800001
0.17842096 -0.21527952 1.6820002
0.18557279 -0.21502879 1.6800002
0.19588239 -0.21502881 1.6800002
0.20275547 -0.21502881 1.6800002
-0.29152322 -0.20717385 1.6880001
0.14687148 -0.20569406 1.688
0.154644 -0.206192 1.6800002
0.1634808 -0.20570107 1.6799999
0.17789671 -0.20447023 1.6840001
0.18571776 -0.20487934 1.6813335
0.1959876 -0.20482597 1.680889
0.20443568 -0.20569809 1.6811429
0.2106104 -0.2076648 1.6800001
-0.31420198 -0.19472052 1.6826668
-0.30499798 -0.19594762 1.6856
-0.29448283 -0.19336228 1.6880001
-0.28560397 -0.19237573 1.6880001
-0.27573857 -0.19089592 1.6880001
0.12874375 -0.1997748 1.6880001
0.13550863 -0.19723797 1.688
0.14588274 -0.19546159 1.6861539
0.154644 -0.19293679 1.6799999
0.16701552 -0.19470415 1.6800001
0.17591545 -0.19523016 1.6836364
0.18536241 -0.19560401 1.6873845
0.19563131 -0.19503941 1.6879998
0.20273443 -0.19385554 1.6880001
-0.30486959 -0.18999119 1.6799999
-0.29554185 -0.18802746 1.6800002
-0.28425041 -0.18557282 1.6800002
-0.27531341 -0.18629017 1.6845715
-0.26530895 -0.18426132 1.6844445
-0.25896734 -0.18201704 1.6880001
0.14827731 -0.1855686 1.6880001
0.15519629 -0.18623032 1.686
0.16435423 -0.18638259 1.6843078
0.17302093 -0.18696144 1.6868571
0.18793629 -0.18793629 1.6880001
0.19533536 -0.18793629 1.6880001
-0.26166746 -0.17722695 1.6799999
-0.2546331 -0.17517623 1.6848001
-0.24416919 -0.17215161 1.6880001
-0.2352903 -0.17017853 1.6880001
0.15834002 -0.17905742 1.6880001
0.16129965 -0.17905742 1.6880001
-0.25184879 -0.16937199 1.6800001
-0.24385358 -0.16726799 1.6800002
-0.23435871 -0.16508569 1.6813335
-0.22510597 -0.16350685 1.6845715
-0.21727131 -0.16184844 1.6860001
0.17609778 -0.16129965 1.6880001
-0.2223928 -0.1575896 1.6800001
-0.21410772 -0.15546532 1.681778
-0.20581855 -0.15482986 1.686
-0.198295 -0.15242077 1.6880001
0.17550585 -0.15715615 1.6880001
-0.2039828 -0.14801639 1.6800001
-0.19531369 -0.1464588 1.6843636
-0.18896374 -0.14172193 1.684
-0.19293679 -0.139916 1.6800001
-0.18490478 -0.13582197 1.6840001
-0.17597654 -0.13330543 1.6868571
-0.16573909 -0.13170339 1.6880001
-0.17231759 -0.12813359 1.6800001
-0.16370122 -0.12662473 1.6822857
-0.1561168 -0.12608103 1.6853334
-0.14545552 -0.12392659 1.6857144
-0.13614282 -0.1228245 1.6880001
-0.1428616 -0.1192968 1.6800001
-0.13472614 -0.11850429 1.6826668
-0.12585425 -0.11626354 1.684
-0.11604729 -0.11457216 1.6826667
-0.1054332 -0.11133141 1.682
-0.096031226 -0.11081067 1.6853334
-0.093768269 -0.10653254 1.6799999
-0.085129745 -0.10497621 1.682182
-0.075291641 -0.10334498 1.684
-0.066043392 -0.10301302 1.6866666
-0.060384799 -0.098677598 1.6800001
-0.054623351 -0.097439744 1.6840001
-0.045151837 -0.094736107 1.6832001
-0.035431359 -0.094487138 1.6840001
-0.02574875 -0.094412081 1.6880001
-0.014798133 -0.091748424 1.688
-0.0073990668 -0.091748424 1.6880001
-0.024301201 -0.089104399 1.6800001
-0.013844321 -0.08630608 1.6800001
-0.0044277511 -0.085693575 1.6853334
0.0040615965 -0.08383476 1.6850001
0.014136875 -0.082492828 1.6845714
0.025156826 -0.081389733 1.6880001
0.045874212 -0.081389733 1.6880001
0.056232907 -0.081389733 1.6880001
0.069551229 -0.081389733 1.6880001
0.075893283 -0.083503745 1.688
0.084094256 -0.083363108 1.683
0.0191464 -0.078058399 1.6800001
0.025037602 -0.078058399 1.6799999
0.035394538 -0.07815133 1.682
0.0456568 -0.078058399 1.6799999
0.054493595 -0.078058399 1.6799999
0.064998701 -0.076816164 1.6849999
0.075618647 -0.07561864 1.6830001
0.084167004 -0.075313069 1.6844445
0.093504868 -0.074774601 1.6871111
0.078058399 -0.069221601 1.6800001
0.085716955 -0.068043366 1.6800001
0.095529489 -0.067504212 1.683
0.10383123 -0.063979134 1.684
-0.48278385 0.12577711 1.6800001
-0.47748175 0.12459888 1.6800001
-0.48160559 0.1340248 1.6800001
-0.47865999 0.1354976 1.6800001
-0.48160559 0.1428616 1.6800001
-0.49574447 0.16524817 1.6800001
-0.4978064 0.1782088 1.6800001
-0.49810094 0.1870456 1.6800001
-0.4978064 0.19440959 1.6800001
-0.4992792 0.2076648 1.6800001
-0.4992792 0.2106104 1.6800001
0.096643724 -0.49511325 1.6960001
0.10556469 -0.49511325 1.6960001
0.11448565 -0.49511325 1.6960001
0.12452174 -0.4939982 1.6960001
0.13232757 -0.49213964 1.6960001
0.087722771 -0.48619232 1.6960001
0.095454268 -0.48500282 1.6959999
0.10444957 -0.48582059 1.6960001
0.11349443 -0.48718348 1.6960001
0.12613247 -0.48544893 1.6960001
0.1341861 -0.48359042 1.6960001
0.14422219 -0.48173186 1.6960001
0.15314315 -0.48321867 1.6960001
0.095562406 -0.4745681 1.6960002
0.10259104 -0.47429767 1.6960001
0.13530123 -0.47727135 1.6960001
0.14273536 -0.47727135 1.6960001
0.17990603 -0.47132406 1.6960001
0.098130554 -0.46537676 1.6960001
0.10259104 -0.46537673 1.6960001
0.17990603 -0.46835041 1.6960001
0.18287967 -0.46537673 1.6960001
0.08623594 -0.45348212 1.6960001
0.094813786 -0.45508325 1.696
0.10259104 -0.45794261 1.6960001
0.078801811 -0.44456115 1.6960001
0.084749125 -0.44456115 1.6960001
0.091439836 -0.44530457 1.6960001
0.075828157 -0.43415341 1.6960001
0.084749125 -0.43564022 1.6960001
0.090696424 -0.43564022 1.6960001
0.075828157 -0.42523241 1.6960001
0.084749125 -0.42523241 1.6960001
0.092926666 -0.42374563 1.6960001
0.075828165 -0.41482463 1.6960001
0.084749117 -0.4148246 1.6960001
0.092480615 -0.41601411 1.6960001
0.075828157 -0.40590367 1.6960001
0.084749125 -0.40590367 1.6960001
0.091439836 -0.40664709 1.6960001
0.075828157 -0.39549589 1.6960001
0.084749125 -0.39549592 1.6960001
0.090696424 -0.39549589 1.6960001
0.075828165 -0.38508809 1.6960001
0.084377415 -0.38508809 1.6960001
0.069880851 -0.37468031 1.6960001
0.075828157 -0.37468037 1.6960001
0.083262287 -0.37468034 1.6960001
0.067898415 -0.36377695 1.6960001
0.075828165 -0.36427253 1.6960001
0.084324315 -0.36384773 1.6960001
0.09416569 -0.36229011 1.6960001
0.067756809 -0.35535154 1.6960001
0.075828157 -0.35535157 1.6960001
0.084749117 -0.35535157 1.6960001
0.095156901 -0.35535157 1.6960001
0.10259104 -0.35237792 1.6960001
0.068096653 -0.34702533 1.6960001
0.075084746 -0.3464306 1.6960001
0.084749125 -0.34494379 1.6960001
0.095156901 -0.34494373 1.6959999
0.10526733 -0.34405166 1.6960001
0.111512 -0.34494376 1.6960001
0.077810593 -0.33354476 1.6960001
0.084749117 -0.33490768 1.6960001
0.095156908 -0.33453599 1.6960001
0.10407787 -0.33453599 1.6960001
0.077612355 -0.32620978 1.6960001
0.084749117 -0.32524335 1.6960001
0.095156901 -0.32561505 1.6960001
0.10407787 -0.32561505 1.6960001
0.087722771 -0.31966773 1.6960001
0.095156901 -0.31520721 1.6959999
0.10556469 -0.31520721 1.6960001
0.111512 -0.31074676 1.6960001
0.087722771 -0.30479947 1.6960001
0.095562406 -0.30506977 1.6960002
0.10556469 -0.30479944 1.6960001
0.11225541 -0.30479944 1.6960001
0.086533308 -0.29528376 1.6960001
0.096049003 -0.2958785 1.6960001
0.10556468 -0.29587847 1.6960001
0.111512 -0.2958785 1.6960001
0.086731553 -0.28398392 1.6960001
0.096186243 -0.28512761 1.696
0.10556471 -0.28547069 1.6960001
0.11418829 -0.28517336 1.6960001
0.087722771 -0.27654976 1.6960001
0.095156908 -0.27506295 1.6960001
0.10556469 -0.27506292 1.6960001
0.11448565 -0.27506292 1.6960001
0.087722771 -0.26465517 1.6960001
0.095156908 -0.26465514 1.6959999
0.10754713 -0.26812443 1.6960001
0.11475598 -0.26506063 1.6960002
0.12340661 -0.26316833 1.6960001
0.087722771 -0.25424734 1.6960001
0.095156908 -0.25424737 1.6960001
0.10259104 -0.25127369 1.6960001
0.11547687 -0.25325611 1.6960001
0.12241539 -0.25375175 1.6960001
0.087722771 -0.24830005 1.6960001
0.095156901 -0.2453264 1.6960001
0.10556469 -0.24532638 1.6960001
0.11448565 -0.24532638 1.6960001
0.12255699 -0.2453264 1.6960001
0.098130561 -0.23491859 1.6960001
0.10556469 -0.23491859 1.6960001
0.11448564 -0.23491859 1.6960001
0.12229149 -0.23417521 1.6960001
0.095292069 -0.22424048 1.6960002
0.10556468 -0.2245108 1.6960001
0.11448565 -0.22451083 1.6960001
0.12448795 -0.22424048 1.6960002
0.13381439 -0.22153717 1.6960001
0.095751643 -0.21618462 1.6960001
0.10556469 -0.21558987 1.6960001
0.11411394 -0.21521816 1.6960001
0.12675197 -0.21521816 1.6960001
0.13492952 -0.21521817 1.6960001
0.14124854 -0.21261621 1.6960001
-0.31074676 -0.20369525 1.6960001
-0.30394983 -0.20369527 1.6960001
-0.29885215 -0.20220843 1.6960001
0.099617384 -0.2066689 1.6960001
0.1063081 -0.20666891 1.6960001
0.11448564 -0.20518209 1.6960001
0.12459608 -0.20547946 1.6959999
0.13530123 -0.2066689 1.6960001
0.14199194 -0.2066689 1.6960001
0.2066689 -0.20369525 1.6960001
-0.29439169 -0.19774795 1.6960001
-0.28457862 -0.19715321 1.6960001
-0.27506292 -0.19378306 1.6960001
-0.26911563 -0.19180064 1.6960001
0.10853834 -0.19774795 1.6960001
0.11485736 -0.19514599 1.6960001
0.12489343 -0.19477428 1.6960001
0.13411176 -0.19358483 1.6960001
0.14124854 -0.19477428 1.6960001
-0.2616815 -0.18734016 1.6960001
-0.25499076 -0.18362309 1.6960001
0.11597248 -0.18585332 1.6960001
0.12489345 -0.18585335 1.6960001
0.13530123 -0.18585333 1.6960001
0.14337257 -0.18542853 1.6960001
0.17633764 -0.18466386 1.6960001
0.18585333 -0.18585335 1.6960001
0.19417956 -0.18466386 1.6960001
-0.25276053 -0.17990603 1.6960001
-0.2453264 -0.17693236 1.6960001
-0.23581071 -0.17395872 1.6960001
0.1174593 -0.1784192 1.6960001
0.12489343 -0.1789148 1.6960001
0.13557155 -0.17585105 1.6960002
0.14422219 -0.17544556 1.6960001
0.15433261 -0.17514819 1.6959999
0.16533512 -0.17544556 1.6960001
0.17480835 -0.17565796 1.696
0.18696846 -0.17507383 1.6960001
0.19279186 -0.17643677 1.6960001
-0.22451083 -0.16801141 1.6960001
-0.21484645 -0.16503775 1.6960001
-0.20815572 -0.16206411 1.6960001
0.13827488 -0.16652459 1.6960001
0.14422219 -0.1665246 1.6960001
0.15462998 -0.16801141 1.6960001
0.16578117 -0.16726801 1.6960001
0.17485084 -0.16503777 1.6960001
0.18436649 -0.16503775 1.6960001
-0.2017128 -0.15809923 1.6960001
-0.19417956 -0.15492734 1.6960001
0.16801141 -0.1561168 1.6960001
0.17098506 -0.1561168 1.6960001
-0.18634893 -0.14422219 1.6960001
-0.1784192 -0.14124854 1.6960001
-0.173364 -0.13708541 1.6960001
-0.16503775 -0.13579683 1.6960001
-0.15686022 -0.13307099 1.6960001
-0.15165633 -0.12935393 1.6960001
-0.14347878 -0.12861052 1.6960001
-0.13455781 -0.12563685 1.6960001
-0.12578554 -0.12281189 1.6960001
-0.1174593 -0.12043296 1.6960001
-0.11299883 -0.1174593 1.6960001
-0.10556469 -0.11547687 1.6960001
-0.094661295 -0.11349443 1.6960001
-0.087722771 -0.111512 1.6960001
-0.075828157 -0.10853835 1.6960001
-0.064924769 -0.10655591 1.6960001
-0.055756003 -0.10333445 1.6960001
-0.049065281 -0.10259104 1.6960001
-0.044604801 -0.099617384 1.6960001
-0.034197014 -0.099617384 1.6960001
-0.024532642 -0.098873973 1.6960001
-0.015760362 -0.097238466 1.6960001
-0.0052038934 -0.094413497 1.6960001
0.0044604801 -0.090696424 1.6960001
0.0074341334 -0.087722771 1.6960001
0.015760362 -0.087128043 1.6960001
0.023789227 -0.084749117 1.6960001
0.034197014 -0.081775464 1.6960001
0.044109192 -0.081775464 1.6960001
0.054269176 -0.084005706 1.6960001
0.066163786 -0.084377408 1.6960001
0.056300998 -0.49375474 1.705
0.064272813 -0.49475119 1.705
0.074735828 -0.49475121 1.705
0.085198849 -0.49475124 1.705
0.091177717 -0.49624592 1.705
0.12406148 -0.49774066 1.705
0.13661709 -0.49415332 1.7050002
0.14438964 -0.49295753 1.7050002
0.15395582 -0.49176177 1.705
0.045738328 -0.48548397 1.7050002
0.055304512 -0.48578289 1.705
0.064272821 -0.48578295 1.705
0.074735828 -0.48578295 1.705
0.084825173 -0.48540926 1.705
0.091177717 -0.48279348 1.705
0.13900866 -0.48727763 1.705
0.14498751 -0.4887723 1.705
0.1539558 -0.4887723 1.705
0.046668373 -0.47648251 1.705
0.055304516 -0.47531986 1.705
0.064272821 -0.47531986 1.705
0.074735828 -0.47531986 1.705
0.085198849 -0.47531986 1.705
0.092174195 -0.47183219 1.705
0.18385015 -0.47233045 1.705
0.049325649 -0.46485686 1.705
0.055304516 -0.46485689 1.705
0.064272813 -0.46485683 1.705
0.074735828 -0.46485695 1.705
0.085198849 -0.46485689 1.705
0.09237349 -0.46545476 1.7050002
0.049325649 -0.45439386 1.705
0.055304516 -0.4558886 1.705
0.064272813 -0.4558886 1.705
0.074735835 -0.4558886 1.705
0.082209416 -0.4558886 1.705
0.022420749 -0.44094142 1.705
0.035873201 -0.44243613 1.705
0.045140442 -0.44532591 1.705
0.055304512 -0.44542554 1.705
0.064272821 -0.44542554 1.705
0.073701024 -0.44508061 1.705
0.037367918 -0.43795198 1.705
0.044841498 -0.43496254 1.705
0.055304516 -0.43496254 1.705
0.064272821 -0.43496257 1.705
0.070251681 -0.43496254 1.705
0.046087097 -0.42524692 1.705
0.055304516 -0.42449951 1.705
0.064272813 -0.42449951 1.705
0.070251681 -0.42449951 1.705
0.045738328 -0.41373754 1.7050002
0.055304516 -0.41403654 1.705
0.064272821 -0.41403651 1.705
0.070251681 -0.41403651 1.705
0.044705614 -0.40479648 1.705
0.055304516 -0.40506825 1.705
0.064272813 -0.40506822 1.705
0.070251681 -0.40506819 1.705
0.037367918 -0.39460519 1.705
0.044841498 -0.39460516 1.705
0.055304512 -0.39460525 1.705
0.064272813 -0.39460519 1.705
0.070251681 -0.39460522 1.705
0.03637144 -0.38613513 1.705
0.045962535 -0.38526323 1.705
0.055678196 -0.38414216 1.705
0.064272813 -0.38414219 1.705
0.070251681 -0.3856369 1.705
0.047531985 -0.37636966 1.7050002
0.055304516 -0.3751739 1.705
0.064272813 -0.3751739 1.705
0.070251681 -0.37666857 1.705
0.049325649 -0.36471087 1.705
0.055304516 -0.3647109 1.705
0.063151777 -0.36508453 1.705
0.049325649 -0.35723728 1.705
0.055304516 -0.35424787 1.705
0.062479157 -0.35364994 1.7050002
0.2615754 -0.35125843 1.705
0.055304516 -0.34677425 1.705
0.063774578 -0.34527957 1.705
0.07523407 -0.34378484 1.705
0.064272813 -0.33481655 1.705
0.073241122 -0.33549592 1.705
0.085198849 -0.3318271 1.705
0.064272813 -0.32435352 1.705
0.073573276 -0.32368922 1.705
0.083704129 -0.32136407 1.705
0.064272813 -0.31538522 1.705
0.074735843 -0.31538525 1.705
0.085198849 -0.31538522 1.705
0.05829395 -0.30641693 1.705
0.064272813 -0.30492219 1.705
0.074735828 -0.30492222 1.705
0.084202364 -0.30508825 1.705
0.091177717 -0.30193275 1.705
0.05829395 -0.29445919 1.705
0.064272821 -0.29445919 1.705
0.074735835 -0.29445916 1.705
0.082956776 -0.29371181 1.705
0.091177717 -0.29296446 1.705
0.065269291 -0.28648737 1.705
0.074735835 -0.2854909 1.705
0.08477179 -0.28634501 1.705
0.091177717 -0.28698558 1.705
0.077084668 -0.27652261 1.705
0.084202372 -0.27486178 1.705
0.079219982 -0.26456484 1.705
0.083704136 -0.26456484 1.705
0.052315082 -0.25260711 1.705
0.075234078 -0.25460008 1.705
0.083704136 -0.25559655 1.705
0.05829395 -0.24961768 1.705
0.067262247 -0.24662824 1.705
0.074735828 -0.24513349 1.705
0.084927075 -0.24472588 1.705
0.092672437 -0.24064939 1.705
0.075143479 -0.23494229 1.705
0.085198849 -0.23467053 1.705
0.092672437 -0.23467052 1.705
0.078472629 -0.22644958 1.705
0.085198849 -0.22570221 1.705
0.094167151 -0.22869165 1.705
-0.30043805 -0.21224976 1.705
-0.29445916 -0.21224977 1.705
-0.28549087 -0.21224976 1.705
0.077938795 -0.21587981 1.705
0.085198857 -0.21523921 1.705
0.093569256 -0.21195082 1.7050002
-0.30043805 -0.20776561 1.705
-0.29445919 -0.20440249 1.705
-0.28634501 -0.20434912 1.705
0.079219982 -0.20776561 1.705
0.086394623 -0.20597196 1.7050002
0.094167151 -0.20477618 1.705
0.10373334 -0.20298252 1.7050002
0.2062709 -0.20178674 1.705
0.21075505 -0.20328146 1.705
-0.27577519 -0.19730261 1.705
-0.26605958 -0.19281845 1.705
0.088188283 -0.19879732 1.705
0.09502127 -0.19623496 1.705
0.10422251 -0.19553614 1.705
0.11210375 -0.19281845 1.705
0.20776561 -0.19879732 1.705
-0.2615754 -0.18982902 1.705
-0.25559655 -0.18833429 1.705
-0.24577413 -0.18299603 1.705
-0.23765995 -0.18086071 1.705
0.095661864 -0.18982902 1.705
0.10505724 -0.18598545 1.705
0.11270164 -0.18444803 1.7050002
0.18285368 -0.18285368 1.705
-0.23467052 -0.1768748 1.705
-0.22570223 -0.17189242 1.705
-0.21972334 -0.17189242 1.705
0.1076196 -0.17787129 1.705
0.1147195 -0.17450817 1.705
0.12443516 -0.17450815 1.705
0.13103683 -0.17288889 1.705
0.16591355 -0.17189242 1.705
0.18325226 -0.17547974 1.7050002
-0.21374448 -0.16790651 1.705
-0.2062709 -0.16441883 1.705
0.11658789 -0.16890298 1.705
0.12525725 -0.16710933 1.7050002
0.13362768 -0.1656146 1.7050002
0.14498752 -0.16292411 1.705
0.15545052 -0.16441882 1.705
0.16531566 -0.16411988 1.7050002
0.18235543 -0.16890298 1.705
-0.19879732 -0.15993468 1.705
-0.18883254 -0.15196286 1.705
0.13661711 -0.15873891 1.7050002
0.14438964 -0.15873891 1.7050002
0.15566407 -0.1586535 1.705
0.16491707 -0.15495229 1.705
-0.18235543 -0.14648223 1.705
-0.17488186 -0.14448927 1.705
-0.16740826 -0.14199808 1.705
0.16292411 -0.14797695 1.705
-0.16292411 -0.13900866 1.705
-0.15545054 -0.13601921 1.705
-0.14498751 -0.13302979 1.705
-0.13452449 -0.13004035 1.705
-0.12346359 -0.12585515 1.7050002
-0.11509318 -0.12206852 1.705
-0.10313544 -0.11808261 1.705
-0.09341979 -0.11658789 1.705
-0.085198849 -0.11310023 1.705
-0.077725261 -0.11210375 1.705
-0.064272813 -0.10911432 1.705
-0.053809799 -0.10612489 1.705
-0.044841498 -0.1038828 1.705
-0.034378484 -0.10313544 1.705
-0.025410183 -0.10313545 1.705
-0.013452451 -0.10014602 1.705
0.0074735833 -0.10014602 1.705
-0.0029894332 -0.095661864 1.705
0.0044841501 -0.095661871 1.705
0.014349279 -0.093569264 1.7050002
0.023915466 -0.091177717 1.705
0.056799233 -0.091177717 1.705
0.061283384 -0.091177717 1.705
0.026157541 -0.087440923 1.705
0.034378484 -0.085198849 1.705
0.044841498 -0.085198849 1.705
0.055304516 -0.088188283 1.705
0.062279861 -0.087191813 1.705
-0.03273771 -0.49406916 1.7130001
-0.025529409 -0.49406916 1.7130002
-0.015317647 -0.49376884 1.7130001
-0.00750865 -0.49406919 1.7129999
0.00750865 -0.49406919 1.7129999
0.025529409 -0.49406922 1.7130002
0.03491522 -0.49369374 1.7130002
0.044551328 -0.49507031 1.7130002
0.052560549 -0.49707264 1.7130001
-0.10962629 -0.48806223 1.7130001
-0.03153633 -0.48505878 1.7130001
-0.024328027 -0.48626018 1.7130001
-0.015317647 -0.48565951 1.7130001
-0.0060069202 -0.48580965 1.7130001
0.00750865 -0.48656052 1.7130001
0.014716953 -0.48746157 1.7130001
0.025958477 -0.48591691 1.7130002
0.034539789 -0.48505878 1.7130002
0.040546712 -0.48505878 1.7130001
-0.01051211 -0.47304496 1.7129999
-0.00750865 -0.47304496 1.7129999
0.00750865 -0.47154322 1.7130001
0.013515572 -0.47254434 1.7130002
0.022525949 -0.47454667 1.7130001
0.036792383 -0.47679925 1.7130001
0.043216456 -0.47337866 1.7130002
0.18771625 -0.47304496 1.7130001
0.19222143 -0.47304496 1.7130001
-0.01051211 -0.46703804 1.7130001
0.00750865 -0.46403456 1.7129999
0.013849288 -0.46336713 1.7130002
0.022525949 -0.46403456 1.7129999
0.045266431 -0.46360549 1.7130002
-0.00750865 -0.45502418 1.7130001
0.0060069198 -0.45652592 1.7130001
0.015617992 -0.45562488 1.7130001
0.025529409 -0.45502418 1.7130002
0.034539789 -0.45502418 1.7130002
0.043550175 -0.45652595 1.7130002
0.00750865 -0.44301033 1.7129999
0.015660899 -0.44451207 1.7129999
0.02580245 -0.44464862 1.7130001
0.033252589 -0.44515568 1.7130002
0.040546712 -0.44901726 1.7130001
0.00750865 -0.43550169 1.7130001
0.015768165 -0.43625259 1.7130001
0.023276815 -0.4347508 1.7130001
0.035397921 -0.43357089 1.7130002
0.00750865 -0.42649132 1.7130001
0.011513263 -0.42699191 1.7129999
0.025529409 -0.42799306 1.7129999
0.035397921 -0.42541865 1.7130002
0.041297577 -0.42423871 1.7130001
-0.01051211 -0.41597921 1.7130001
-0.00750865 -0.41597921 1.7130001
0.022525949 -0.41898265 1.7130001
0.034539793 -0.41597927 1.7130002
0.040546712 -0.41748095 1.7130001
-0.01051211 -0.40546709 1.7130001
-0.00750865 -0.40847057 1.7130001
0.034873504 -0.40596765 1.7130002
0.04655363 -0.40997228 1.7130001
-0.01051211 -0.39795846 1.7130001
-0.00750865 -0.39795846 1.7130001
0.02853287 -0.39495498 1.7130001
0.033038057 -0.39495501 1.7130002
0.02733149 -0.3865453 1.7130001
0.033538636 -0.38494346 1.7130002
0.042799309 -0.383692 1.7130001
0.052560549 -0.3859446 1.7130001
0.036542099 -0.37893653 1.7129999
0.043249823 -0.37453145 1.7130001
0.044408303 -0.36534947 1.7130002
0.26880968 -0.36191693 1.7130001
0.2748166 -0.36191693 1.7130001
0.044885043 -0.35590997 1.7130002
0.27331486 -0.35891348 1.7130001
0.044676472 -0.3476505 1.7130002
0.055564005 -0.34239444 1.7130002
0.061570931 -0.34389618 1.7130001
0.055939443 -0.33488578 1.7130002
0.055564005 -0.3258754 1.7130002
0.04955709 -0.31536329 1.7130001
0.055564012 -0.31536329 1.7129999
0.04955709 -0.30785465 1.7130001
0.055188574 -0.30447575 1.7130002
0.04955709 -0.2958408 1.7130001
0.054062277 -0.29584083 1.7130002
0.056690305 -0.28645501 1.7130002
0.063573234 -0.2828258 1.7130002
0.073584773 -0.2808235 1.7130001
0.064574383 -0.27631834 1.7130002
0.073209338 -0.27444115 1.7130002
0.04955709 -0.26280275 1.7130001
0.055564005 -0.26280275 1.7129999
0.073584765 -0.26580623 1.7130002
0.04955709 -0.25529411 1.7130001
0.055564009 -0.25589481 1.7130001
0.064301342 -0.25570366 1.7130001
0.073584773 -0.2597993 1.7129999
0.05593944 -0.24515741 1.7130002
0.063716263 -0.24435292 1.7130002
0.05706574 -0.23877507 1.7130001
0.064574391 -0.23614702 1.7130002
0.070581309 -0.23276815 1.7130001
0.072984084 -0.2252595 1.7130001
-0.29283735 -0.21775085 1.7130001
-0.28502834 -0.21504775 1.7130001
-0.27706921 -0.21399653 1.7130001
0.066576689 -0.21574853 1.7129999
0.072726645 -0.21431835 1.7130002
-0.28202489 -0.20633769 1.7130001
-0.27631831 -0.20573699 1.7130002
0.067577846 -0.20573701 1.7130001
0.075086497 -0.20543666 1.7130001
0.084096879 -0.20423529 1.7130001
-0.27331486 -0.19973008 1.7130001
-0.26505533 -0.19597578 1.7130001
-0.25529408 -0.19222143 1.7130001
0.067577846 -0.19973008 1.7130001
0.076588228 -0.19973008 1.7130001
0.086599767 -0.19622606 1.7130002
0.091605522 -0.19372316 1.7129999
-0.24403112 -0.18696538 1.7130001
-0.23577161 -0.18421221 1.7130002
-0.22826296 -0.18170933 1.7130001
0.088602066 -0.18771625 1.7130001
0.094608985 -0.18621451 1.7130002
0.10211764 -0.18170933 1.7130001
-0.23276815 -0.17870587 1.7130001
-0.2252595 -0.17720413 1.7130002
-0.21534808 -0.17390034 1.7130001
-0.20874047 -0.17269894 1.7130001
0.10462052 -0.17536871 1.7130002
-0.21174394 -0.16969548 1.7130001
-0.20513633 -0.16729271 1.7130001
-0.19672664 -0.16168626 1.7129999
0.10562167 -0.16969548 1.7129999
0.11488234 -0.16744289 1.7130001
0.12314186 -0.16519031 1.7130001
0.13065051 -0.16068511 1.7130001
-0.19071971 -0.15768164 1.7130001
-0.18396193 -0.15317646 1.7130001
-0.17570241 -0.15167473 1.7129999
0.13966089 -0.1546782 1.7130001
0.14566781 -0.15567935 1.7129999
0.15567935 -0.15567935 1.7129999
0.16068511 -0.15317646 1.7130001
-0.17420068 -0.14867127 1.7130001
-0.16519029 -0.14416607 1.7130001
0.16368857 -0.14566781 1.7130001
-0.15392733 -0.13891003 1.7130001
-0.14566781 -0.13665743 1.7129999
-0.13515569 -0.13365397 1.7130001
-0.12664589 -0.13165165 1.7129999
0.16218683 -0.13966089 1.7130001
-0.11563321 -0.12564474 1.7129999
-0.10612226 -0.12264129 1.7130002
-0.094608992 -0.12164012 1.7129999
-0.088602066 -0.12164013 1.7130001
-0.097612448 -0.11863667 1.7130001
-0.08559861 -0.11663437 1.7129999
-0.074585922 -0.1136309 1.7129999
-0.064574383 -0.11262975 1.7129999
-0.058567468 -0.11262975 1.7130001
-0.055564012 -0.10962629 1.7129999
-0.045352243 -0.10782421 1.7130001
-0.037543248 -0.10662283 1.7130001
-0.025529411 -0.10361937 1.7130001
-0.0150173 -0.10361937 1.7130001
-0.0045051896 -0.10161706 1.7129999
0.005105882 -0.10301868 1.7130001
0.014116262 -0.1012166 1.7130001
0.14867127 -0.10061591 1.7130001
0.15267588 -0.10361937 1.7129999
0.01802076 -0.097612448 1.7130001
0.025958477 -0.095467113 1.7130002
0.033939097 -0.09280692 1.7130001
0.052560549 -0.091605529 1.7130001
0.14867127 -0.097612448 1.7130001
0.034539789 -0.088602066 1.7129999
0.045051899 -0.088602066 1.7130001
-0.13435619 -0.49666497 1.7220001
-0.12560038 -0.49424958 1.7220001
-0.11503305 -0.49545726 1.7220001
-0.10416379 -0.49515533 1.7220001
-0.095106065 -0.49515536 1.7220001
-0.084438078 -0.49545726 1.7220001
-0.073971376 -0.49515536 1.7220001
-0.06491366 -0.49515536 1.7220001
-0.055855941 -0.49515533 1.7220001
-0.0452886 -0.49515533 1.7220001
-0.036734086 -0.49465215 1.7220001
-0.013586581 -0.49817461 1.7220001
-0.0032349001 -0.49580234 1.7220001
0.00301924 -0.49515533 1.7220001
0.0150962 -0.496665 1.7220001
0.031702019 -0.49968421 1.7220001
-0.12529846 -0.48458803 1.7220001
-0.11473111 -0.48458806 1.7220001
-0.10416379 -0.48458803 1.7220001
-0.095106058 -0.48458803 1.7220001
-0.084538721 -0.48458812 1.7220001
-0.073971368 -0.48458803 1.7220001
-0.06491366 -0.48458803 1.7220001
-0.055855937 -0.48458803 1.7220001
-0.045288604 -0.48458803 1.7220001
-0.035098661 -0.48458803 1.7220001
-0.026526181 -0.4841567 1.7220001
-0.014592993 -0.48257521 1.7220001
-0.00366622 -0.48415676 1.7220001
0.0041514551 -0.48421061 1.7220001
0.015233438 -0.48431358 1.7220001
0.02566354 -0.48307842 1.7220001
0.031702019 -0.48156878 1.7220001
-0.12469461 -0.47734183 1.7220001
-0.11412726 -0.47613415 1.7220001
-0.10454118 -0.47590771 1.7220001
-0.095106058 -0.4755303 1.7220001
-0.084538721 -0.4755303 1.7220001
-0.073971376 -0.4755303 1.7220001
-0.06491366 -0.4755303 1.7220001
-0.055855945 -0.4755303 1.7220001
-0.045288604 -0.47553039 1.7220001
-0.034721259 -0.4755303 1.7220001
-0.02566354 -0.4755303 1.7220001
-0.016605821 -0.4755303 1.7220001
-0.00301924 -0.4755303 1.7220001
0.00366622 -0.4759616 1.7220001
0.016605821 -0.47603354 1.7220001
0.027173162 -0.4755303 1.7220001
0.03385862 -0.47509894 1.7220001
0.19474097 -0.47251105 1.7220001
-0.11020226 -0.46949181 1.7220001
-0.10416378 -0.46479523 1.7220001
-0.095106065 -0.46496296 1.7220001
-0.084639363 -0.46526486 1.7220001
-0.073971376 -0.46496296 1.7220001
-0.06491366 -0.46496296 1.7220001
-0.055855945 -0.46496293 1.7220001
-0.0452886 -0.46496296 1.7220001
-0.034721259 -0.46496296 1.7220001
-0.025663542 -0.46496296 1.7220001
-0.015398125 -0.464661 1.7220001
-0.0045288606 -0.46482572 1.7220001
0.0028035801 -0.46560994 1.7220001
0.018618647 -0.46848539 1.7220001
0.027173162 -0.4664726 1.7220001
0.034721259 -0.46647257 1.7220001
0.041766152 -0.46647254 1.7220001
-0.10416378 -0.45396429 1.7220001
-0.095106058 -0.45439562 1.7220001
-0.085041933 -0.45439562 1.7220001
-0.073971368 -0.45439562 1.7220001
-0.06491366 -0.45439562 1.7220001
-0.055855941 -0.45477304 1.7220001
-0.045288604 -0.45439565 1.7220001
-0.034721259 -0.45439562 1.7220001
-0.025663538 -0.45439562 1.7220001
-0.0150962 -0.45439556 1.7220001
-0.0045288601 -0.45499951 1.7220001
0.0040975399 -0.45353296 1.7220001
0.011573753 -0.4533892 1.7220001
-0.1434139 -0.44231865 1.7220001
-0.10416378 -0.44714943 1.7220001
-0.094728656 -0.44571531 1.7220001
-0.084538728 -0.44533786 1.7220001
-0.074348785 -0.4449605 1.7220001
-0.064158849 -0.44458309 1.7220001
-0.052836701 -0.44231865 1.7220001
-0.045288604 -0.44533786 1.7220001
-0.034721255 -0.44533789 1.7220001
-0.025663538 -0.44533789 1.7220001
-0.015096202 -0.44533786 1.7220001
-0.0075480998 -0.44533789 1.7220001
0.00301924 -0.44533789 1.7220001
0.01056734 -0.44231865 1.7220001
-0.092086822 -0.4392994 1.7220001
-0.084538728 -0.43477058 1.7220001
-0.073971368 -0.43477058 1.7220001
-0.06521558 -0.43567634 1.7220001
-0.056287259 -0.43584886 1.7220001
-0.044641621 -0.43520188 1.7220001
-0.034721255 -0.43477055 1.7220001
-0.025663542 -0.43477055 1.7220001
-0.015096201 -0.43477058 1.7220001
-0.0075480998 -0.43477055 1.7220001
0.0035224466 -0.43460283 1.7220001
0.015398124 -0.43416673 1.7220001
0.027475085 -0.43567634 1.7220001
0.031702019 -0.4377898 1.7220001
-0.10718302 -0.42118397 1.7220001
-0.083632946 -0.42601475 1.7220001
-0.073971376 -0.42722246 1.7220001
-0.06491366 -0.42420322 1.7220001
-0.056862354 -0.42520961 1.7220001
-0.042916339 -0.42420322 1.7220001
-0.034721259 -0.42571282 1.7220001
-0.02566354 -0.42420322 1.7220001
-0.0150962 -0.42420325 1.7220001
-0.0075480998 -0.42420325 1.7220001
0.0041514551 -0.4238258 1.7220001
0.015507915 -0.42392877 1.7220001
0.026040945 -0.42458063 1.7220001
0.031702019 -0.42571282 1.7220001
-0.080009863 -0.41816473 1.7220001
-0.061894421 -0.41514549 1.7220001
-0.05812037 -0.41439068 1.7220001
-0.044156384 -0.41401324 1.7220001
-0.034721259 -0.41363585 1.7220001
-0.02566354 -0.41514552 1.7220001
-0.016001973 -0.41514549 1.7220001
-0.0045288601 -0.41313267 1.7220001
0.0045288606 -0.41514549 1.7220001
0.015233438 -0.41541997 1.7220001
0.02566354 -0.41514549 1.7220001
-0.061894421 -0.40759742 1.7220001
-0.056526881 -0.40407494 1.7220001
-0.044707976 -0.40422979 1.7220001
-0.034050316 -0.403404 1.7220001
-0.025663542 -0.40457821 1.7220001
-0.016605822 -0.40457812 1.7220001
-0.0041514551 -0.40420076 1.7220001
0.0045288606 -0.40457818 1.7220001
0.015196842 -0.40447757 1.7220001
0.025389062 -0.40498984 1.7220001
0.031702019 -0.40759742 1.7220001
-0.043175131 -0.39582238 1.7220001
-0.033211637 -0.39401081 1.7220001
-0.02566354 -0.39401081 1.7220001
-0.0150962 -0.39401087 1.7220001
-0.0057365559 -0.39521849 1.7220001
0.0049062655 -0.39438823 1.7220001
0.015233438 -0.39373636 1.7220001
0.024657125 -0.39501724 1.7220001
-0.025160333 -0.38595951 1.7220001
-0.0150962 -0.38495305 1.7220001
-0.0075480998 -0.38495311 1.7220001
0.00603848 -0.38797233 1.7220001
0.016174501 -0.38624701 1.7220001
0.024657125 -0.38394666 1.7220001
0.031702019 -0.38193387 1.7220001
-0.0226443 -0.37589538 1.7220001
-0.0150962 -0.37589541 1.7220001
-0.0075480998 -0.37589538 1.7220001
0.016605821 -0.37287614 1.7220001
0.027927969 -0.37665018 1.7220001
0.034343854 -0.37551802 1.7220001
0.27475083 -0.37438574 1.7220001
-0.0226443 -0.36985689 1.7220001
-0.014410008 -0.3665632 1.7220001
-0.0075480998 -0.36532801 1.7220001
0.02868278 -0.36985689 1.7220001
0.036446538 -0.36554366 1.7220001
0.040759739 -0.36532801 1.7220001
0.27626047 -0.36721507 1.7220001
-0.01056734 -0.35777995 1.7220001
-0.0075480998 -0.35476068 1.7220001
0.035928957 -0.35476071 1.7220001
0.043778978 -0.35627031 1.7220001
0.035098664 -0.34532556 1.7220001
0.045666005 -0.34494814 1.7220001
0.02566354 -0.33664525 1.7220001
0.034721259 -0.33513567 1.7220001
0.0452886 -0.33513564 1.7220001
0.052836701 -0.33664525 1.7220001
0.035583895 -0.32499963 1.7220001
0.044876888 -0.32484278 1.7220001
0.044876888 -0.31578505 1.7220001
0.046798222 -0.30569804 1.7220001
0.048005916 -0.2943759 1.7220001
0.049817462 -0.28531817 1.7220001
0.053591512 -0.28456336 1.7220001
0.049817462 -0.27324122 1.7220001
0.055855941 -0.27475083 1.7220001
0.06491366 -0.27173159 1.7220001
0.045504261 -0.26418349 1.7220001
0.055855941 -0.26720273 1.7220001
0.06491366 -0.26569313 1.7220001
0.044156387 -0.25474837 1.7220001
0.046546619 -0.24531324 1.7220001
0.052836701 -0.2415392 1.7220001
0.04830784 -0.23701034 1.7220001
0.056233339 -0.2343685 1.7220001
0.06491366 -0.23172668 1.7220001
0.058875181 -0.22191414 1.7220001
0.06491366 -0.22493339 1.7220001
-0.27475083 -0.21436603 1.7220001
0.058875185 -0.21587567 1.7220001
0.063907243 -0.21537246 1.7220001
-0.27173162 -0.20530832 1.7220001
-0.26539117 -0.20259099 1.7220001
-0.258145 -0.20077945 1.7220001
0.058875181 -0.20530832 1.7220001
0.063907243 -0.20547606 1.7220001
0.072964966 -0.20279229 1.7220001
-0.26116425 -0.19776022 1.7220001
-0.25452194 -0.19655254 1.7220001
-0.24455845 -0.19323134 1.7220001
-0.2339911 -0.19172174 1.7220001
0.058875181 -0.19776022 1.7220001
0.065344982 -0.19560364 1.7220001
0.073593974 -0.1951184 1.7220001
0.082651697 -0.19436356 1.7220001
-0.2332363 -0.18794769 1.7220001
-0.22493339 -0.18568327 1.7220001
-0.21788847 -0.18367045 1.7220001
0.072461754 -0.18870249 1.7220001
0.084916122 -0.18606067 1.7220001
0.095106065 -0.18266402 1.7220001
-0.21512085 -0.17888997 1.7220001
-0.20631474 -0.17461272 1.7220001
0.089067578 -0.17813516 1.7220001
0.095380537 -0.17552763 1.7220001
0.10416378 -0.17209668 1.7220001
-0.20077945 -0.16756782 1.7220001
-0.19534484 -0.16515243 1.7220001
0.098125301 -0.16756782 1.7220001
0.10416377 -0.1675678 1.7220001
0.11020226 -0.16756782 1.7220001
-0.18568325 -0.1577553 1.7220001
-0.17561913 -0.15448445 1.7220001
-0.16756782 -0.15247162 1.7220001
0.14718795 -0.15322644 1.7220001
0.15473606 -0.15322642 1.7220001
-0.17058706 -0.14945237 1.7220001
-0.16454858 -0.14743955 1.7220001
-0.15624566 -0.1441687 1.7220001
-0.14592992 -0.14140107 1.7220001
0.15750368 -0.1439171 1.7220001
0.16228414 -0.14567833 1.7220001
-0.14039466 -0.13737541 1.7220001
-0.13435619 -0.13737541 1.7220001
-0.12454365 -0.13435619 1.7220001
-0.11925998 -0.13133694 1.7220001
0.15775529 -0.13360137 1.7220001
0.16152933 -0.13435619 1.7220001
-0.1132215 -0.1283177 1.7220001
-0.10416379 -0.12630486 1.7220001
-0.095106065 -0.12529846 1.7220001
-0.086048335 -0.12328563 1.7220001
0.1585101 -0.12680808 1.7220001
0.16152933 -0.1283177 1.7220001
-0.083029099 -0.11925998 1.7220001
-0.074575223 -0.11744843 1.7220001
-0.064158849 -0.11699555 1.7220001
-0.055252094 -0.11503305 1.7220001
-0.045791809 -0.11271829 1.7220001
-0.037740499 -0.11020226 1.7220001
0.15549086 -0.11171188 1.7220001
-0.033211641 -0.10718302 1.7220001
-0.02566354 -0.10718302 1.7220001
-0.015096201 -0.10718302 1.7220001
-0.0045288601 -0.10517019 1.7220001
0.00301924 -0.1056734 1.7220001
0.015743181 -0.10588906 1.7220001
0.02566354 -0.10114453 1.7220001
0.14844596 -0.10517019 1.7220001
0.15247162 -0.10718302 1.7220001
0.034721259 -0.097118884 1.7220001
0.0452886 -0.093596444 1.7220001
0.052836701 -0.095106058 1.7220001
0.14643314 -0.098125301 1.7220001
-0.16007495 -0.49547008 1.739
-0.1535331 -0.49561986 1.7374003
-0.14416344 -0.49470827 1.7310003
-0.13505839 -0.49429438 1.7310002
-0.086498067 -0.49319074 1.7310001
-0.16274285 -0.48289275 1.7390002
-0.15358645 -0.48508316 1.7345557
-0.14416344 -0.48408568 1.7310001
-0.13505837 -0.48408568 1.7310001
-0.18446732 -0.47260225 1.7390001
-0.17349073 -0.47351694 1.7390001
-0.16464852 -0.47412673 1.7390002
-0.15379977 -0.475099 1.7370003
-0.14467105 -0.47502795 1.7334001
-0.13505839 -0.47498062 1.7310001
-0.1263869 -0.47411349 1.7310001
-0.11745527 -0.47315961 1.7310002
-0.10319068 -0.47346312 1.7310001
-0.18141827 -0.46345508 1.7390001
-0.17379564 -0.46497956 1.7390002
-0.16464852 -0.46497956 1.7390002
-0.15411286 -0.46493006 1.7355715
-0.14386912 -0.4657636 1.7320001
-0.13505837 -0.46587557 1.7310001
-0.12595332 -0.46587557 1.7310001
-0.11533076 -0.4658756 1.7310003
-0.10470819 -0.46587557 1.7310001
-0.08346305 -0.46284056 1.7310001
-0.0045525301 -0.46891057 1.7310001
-0.18141827 -0.45583248 1.7390001
-0.17532016 -0.45583248 1.7390002
-0.16452228 -0.45548066 1.7376667
-0.15318963 -0.45541105 1.7331818
-0.14416344 -0.45525301 1.7310003
-0.13505839 -0.45525301 1.7310003
-0.12595333 -0.45525298 1.7310003
-0.11533076 -0.45525295 1.7310004
-0.10470819 -0.45828801 1.7310001
-0.08346305 -0.45677051 1.7310001
-0.07132297 -0.45070046 1.7310001
-0.06525293 -0.45070046 1.7310001
-0.056147873 -0.4514592 1.7310001
-0.003338522 -0.45312849 1.7310002
-0.17430383 -0.44566903 1.7390002
-0.16624556 -0.44501618 1.7368183
-0.15478604 -0.44463047 1.7310003
-0.14416344 -0.44463041 1.7310001
-0.1350584 -0.44463041 1.7310001
-0.12595335 -0.44463041 1.7310001
-0.11533076 -0.44463047 1.7310003
-0.10470819 -0.44376326 1.7310001
-0.097626477 -0.44260707 1.7310001
-0.0662646 -0.44665375 1.7310001
-0.056754876 -0.44645143 1.7310002
-0.0030350201 -0.44463041 1.7310001
-0.16304895 -0.43489629 1.7382002
-0.15401004 -0.4351247 1.734077
-0.14416344 -0.43552539 1.7310001
-0.13505837 -0.43552539 1.7310001
-0.12595333 -0.43552539 1.7310001
-0.11533076 -0.43552539 1.7310003
-0.10470819 -0.43552536 1.7310001
-0.095603123 -0.43552536 1.7310001
-0.063735418 -0.43249035 1.7310001
-0.053979993 -0.43509179 1.7310001
-0.0030350201 -0.43552539 1.7310001
-0.17379566 -0.42229295 1.7390001
-0.16464852 -0.42534199 1.7390002
-0.15358177 -0.42425025 1.7345557
-0.14438437 -0.42555153 1.7336669
-0.13526879 -0.4255527 1.7336669
-0.12595333 -0.4249028 1.7310003
-0.11533076 -0.42490277 1.7310004
-0.10443228 -0.42504075 1.7310002
-0.095603131 -0.42490277 1.7310003
-0.085891068 -0.42368874 1.7310002
-0.074357994 -0.42338529 1.7310001
-0.065686502 -0.42468601 1.7310001
-0.053618688 -0.42464986 1.7310003
-0.046284057 -0.42338529 1.7310001
-0.034902729 -0.42186776 1.7310001
-0.0030350201 -0.4249028 1.7310001
-0.17417678 -0.41467032 1.7390002
-0.16485149 -0.41451761 1.7379336
-0.15433373 -0.41426066 1.7377694
-0.14482974 -0.41467035 1.7390002
-0.13552888 -0.41419172 1.7370003
-0.12609886 -0.41323438 1.7330002
-0.11533076 -0.41428021 1.7310003
-0.10470819 -0.41428024 1.7310001
-0.095603123 -0.41428021 1.7310001
-0.084980555 -0.41428027 1.7310003
-0.074357994 -0.41428021 1.7310001
-0.066120073 -0.4147138 1.7310001
-0.053112846 -0.41428021 1.7310001
-0.044007789 -0.4112452 1.7310001
-0.036420241 -0.4112452 1.7310001
-0.0030350201 -0.41731524 1.7310001
0.01365759 -0.41428024 1.7310001
-0.16464852 -0.40399864 1.7390002
-0.15397686 -0.40399867 1.7390002
-0.14482972 -0.4039987 1.7390002
-0.13568257 -0.40399867 1.7390002
-0.12501091 -0.40399861 1.7390002
-0.11452293 -0.40486243 1.7346925
-0.10516263 -0.4047448 1.7339092
-0.095603123 -0.40517518 1.7310001
-0.084980555 -0.40517521 1.7310003
-0.074357986 -0.40517518 1.7310001
-0.065632306 -0.40479583 1.7310001
-0.051595338 -0.40214014 1.7310001
-0.037937749 -0.40821019 1.7310001
-0.0030350201 -0.40821019 1.7310001
0.01365759 -0.40821019 1.7310001
-0.16312398 -0.39637604 1.7390002
-0.15397686 -0.39485154 1.7390002
-0.14482972 -0.39485157 1.7390002
-0.13568258 -0.39485154 1.7390002
-0.12501091 -0.39485154 1.7390002
-0.11433925 -0.39485154 1.7390002
-0.10445448 -0.39382511 1.7318001
-0.095603131 -0.39455259 1.7310003
-0.085004658 -0.39466521 1.7315004
-0.074472539 -0.3951546 1.7336669
-0.06527923 -0.39470279 1.7316669
-0.054630361 -0.39455253 1.7310004
-0.044441365 -0.3921679 1.7310001
-0.036420237 -0.39303508 1.7310001
-0.0030350201 -0.39303508 1.7310001
0.00151751 -0.39151758 1.7310001
0.01365759 -0.39910513 1.7310001
-0.1433052 -0.38722894 1.7390001
-0.13568258 -0.38799116 1.7390001
-0.12501091 -0.38570437 1.7390002
-0.1142808 -0.38550723 1.7381113
-0.10470819 -0.38393006 1.7310001
-0.095603131 -0.38393006 1.7310001
-0.085076995 -0.38437364 1.7330002
-0.074588656 -0.38511145 1.7363335
-0.06525293 -0.38393006 1.7310001
-0.054630358 -0.38393 1.7310003
-0.044007789 -0.38393006 1.7310001
-0.034902733 -0.38393003 1.7310001
-0.026303507 -0.38291836 1.7310001
-0.0030350201 -0.38393006 1.7310001
0.0045525301 -0.38393003 1.7310001
0.014332039 -0.3832556 1.7310001
0.022762651 -0.38089502 1.7310001
-0.14178067 -0.37350821 1.7390001
-0.13324334 -0.37594745 1.7390001
-0.12536272 -0.3760882 1.7390002
-0.11406206 -0.37544852 1.7390002
-0.10503197 -0.37445179 1.7363335
-0.095751584 -0.37387672 1.7336669
-0.08498057 -0.374825 1.7310003
-0.074357994 -0.37482497 1.7310001
-0.065252922 -0.37482497 1.7310001
