# .PCD v0.7 - Point Cloud Data file format
VERSION 0.7
FIELDS x y z
SIZE 4 4 4
TYPE F F F
COUNT 1 1 1
WIDTH 1444
HEIGHT 1
VIEWPOINT 0 0 0 1 0 0 0
POINTS 1444
DATA ascii
-0.055304516 -0.1370157 1.705
-0.044841498 -0.13228244 1.705
-0.035873201 -0.13004035 1.705
-0.022420749 -0.12705092 1.705
-0.014448929 -0.123065 1.705
-0.011957733 -0.11808261 1.705
-0.0044841501 -0.11359847 1.705
0.0029894332 -0.11210375 1.705
0.014947167 -0.10911432 1.705
0.0269049 -0.10612489 1.705
0.034378484 -0.10263722 1.705
0.041852064 -0.10014602 1.705
0.044841498 -0.097156584 1.705
0.05455716 -0.094914511 1.705
0.064272813 -0.09267243 1.705
0.071248159 -0.092174195 1.705
0.076977909 -0.08744093 1.705
0.085198849 -0.085198849 1.7050002
0.092672437 -0.082209416 1.705
0.095661864 -0.079219982 1.705
0.10463016 -0.079219982 1.705
0.11509318 -0.079219982 1.705
0.12406148 -0.079219982 1.705
0.13452449 -0.077725261 1.705
0.14558539 -0.075034782 1.7050002
0.15566407 -0.072814055 1.705
0.16591354 -0.071746401 1.705
0.1756292 -0.070999034 1.705
0.18444803 -0.061881267 1.7050002
0.19580789 -0.061283384 1.705
0.20776561 -0.061283384 1.705
0.18683958 -0.05829395 1.705
0.19640578 -0.057098173 1.7050002
0.20417829 -0.057098173 1.7050002
0.21573745 -0.057297472 1.705
0.22570221 -0.056799233 1.705
0.23467052 -0.055304516 1.705
0.24513355 -0.055304516 1.705
0.25559655 -0.055304516 1.705
0.26499191 -0.054450393 1.705
0.27353314 -0.054023333 1.705
0.28549087 -0.052315082 1.705
0.27652261 -0.049325649 1.705
0.28549087 -0.049325649 1.705
0.29296446 -0.049325649 1.705
-0.11338061 -0.49482006 1.7130001
-0.10962629 -0.49707264 1.7130001
-0.023727333 -0.49346846 1.7130001
-0.016519031 -0.49406919 1.7130002
-0.11262975 -0.48505878 1.7129999
-0.024027681 -0.48505881 1.7130002
-0.016519031 -0.48505881 1.7130002
-0.11262975 -0.4745467 1.7130001
-0.052560549 -0.47905186 1.7130001
-0.033939101 -0.47484699 1.7130001
-0.027245674 -0.47390312 1.7130002
-0.12164013 -0.46103111 1.7130001
-0.11663437 -0.46403456 1.7129999
-0.034164354 -0.46365917 1.7130002
-0.02733149 -0.46403456 1.7130001
-0.12464359 -0.45802766 1.7130001
-0.11788581 -0.45502418 1.7130001
-0.054062277 -0.45202073 1.7130001
-0.043174736 -0.45502418 1.7130002
-0.034915224 -0.45539963 1.7130002
-0.02853287 -0.45652592 1.7130001
-0.13665743 -0.44000688 1.7130001
-0.11600864 -0.44376123 1.7130002
-0.10361937 -0.44000688 1.7130001
-0.061570931 -0.44451207 1.7130001
-0.05583705 -0.44437554 1.7130001
-0.045695502 -0.44515568 1.7130002
-0.037543248 -0.44451207 1.7130001
-0.13365397 -0.43249822 1.7130001
-0.12539445 -0.43174738 1.7130001
-0.11463205 -0.43399993 1.7130002
-0.10512108 -0.43399999 1.7129999
-0.09520968 -0.43339929 1.7130001
-0.070581309 -0.43399993 1.7129999
-0.063973702 -0.43339929 1.7130001
-0.055564012 -0.43399993 1.7130002
-0.04655363 -0.43399993 1.7130002
-0.13140137 -0.42498958 1.7130001
-0.12464359 -0.42498958 1.7130002
-0.11563321 -0.42498958 1.7130002
-0.10512108 -0.42498958 1.7129999
-0.09520968 -0.42438889 1.7130001
-0.082595147 -0.42198613 1.7130001
-0.073155709 -0.42413145 1.7130002
-0.064574391 -0.42461419 1.7130002
-0.055564012 -0.42498958 1.7130002
-0.048055358 -0.42799306 1.7130001
-0.13065051 -0.41898265 1.7130001
-0.12501903 -0.41560379 1.7130002
-0.11563321 -0.41555014 1.7130002
-0.10462052 -0.41597927 1.7130002
-0.094608992 -0.41597918 1.7130002
-0.073584773 -0.4164798 1.7130002
-0.064574391 -0.41597924 1.7130002
-0.057816602 -0.41597921 1.7130001
-0.12314186 -0.40847057 1.7130001
-0.11520415 -0.40782693 1.7130002
-0.10555016 -0.40525252 1.7129999
-0.094942711 -0.4053002 1.7130002
-0.086027674 -0.40353632 1.7130002
-0.075086497 -0.40546715 1.7129998
-0.064574383 -0.40734422 1.7130002
-0.058567468 -0.40546709 1.7130001
-0.10395309 -0.39462125 1.7130002
-0.094608985 -0.39495504 1.7130002
-0.085598603 -0.39495501 1.7130002
-0.078590535 -0.39695731 1.7129999
-0.11262975 -0.38744634 1.7130001
-0.10498457 -0.38621762 1.7130001
-0.094984427 -0.38632002 1.7130002
-0.088602066 -0.38894805 1.7130001
-0.11262975 -0.37843597 1.7130001
-0.10498457 -0.37720725 1.7130001
-0.096611291 -0.37643364 1.7130002
-0.15317646 -0.16519031 1.7130001
-0.14266434 -0.16669203 1.7130001
-0.13515571 -0.16669203 1.7130001
-0.12314186 -0.16669203 1.7130001
-0.11713494 -0.16368857 1.7130001
-0.1051211 -0.16068511 1.7130001
-0.093107261 -0.15617992 1.7130001
-0.08559861 -0.15317646 1.7130001
-0.071582466 -0.14767011 1.7129999
-0.064574383 -0.14666896 1.7129999
-0.05706574 -0.14266434 1.7130001
-0.054062277 -0.13966089 1.7130001
-0.045051899 -0.13590656 1.7130001
-0.034539789 -0.1326528 1.7129999
-0.025529409 -0.13065051 1.7129999
-0.013515569 -0.12564474 1.7129999
-0.0015017299 -0.11563321 1.7130001
0.0045051901 -0.11413148 1.7130001
0.01051211 -0.11262975 1.7130001
0.024027679 -0.10962629 1.7130001
0.036041521 -0.10662283 1.7130001
0.045051903 -0.10211764 1.7130001
0.05706574 -0.097612448 1.7130001
0.064574391 -0.097612448 1.7129999
0.075386845 -0.094008304 1.7130001
0.082595147 -0.091605529 1.7130001
0.087100342 -0.088602066 1.7130001
0.095359854 -0.084847748 1.7130001
0.10361937 -0.083796538 1.7130001
0.11563321 -0.082595147 1.7129999
0.12164013 -0.082595147 1.7130001
0.12464359 -0.079591691 1.7130001
0.13815916 -0.079591691 1.7130001
0.14566781 -0.079591691 1.7129999
0.15467818 -0.077589385 1.7129999
0.16418914 -0.077589385 1.7130002
0.17510171 -0.075386837 1.7130001
0.18170933 -0.070581309 1.7130001
0.18531348 -0.066376463 1.7130001
0.19522491 -0.066076115 1.7130002
0.20473586 -0.064073816 1.7130002
0.21474738 -0.063072659 1.7130002
0.2252595 -0.061570931 1.7130001
0.23577161 -0.061570931 1.7129999
0.2597993 -0.061570931 1.7130001
0.26640689 -0.062772319 1.7130001
0.27331486 -0.063072659 1.7130001
0.23577161 -0.058567468 1.7129999
0.24478197 -0.058567468 1.7129999
0.25529408 -0.058567468 1.7130001
0.26430446 -0.058567468 1.7130001
0.2768189 -0.057566315 1.7129999
0.28468508 -0.056851204 1.7130002
0.29283735 -0.052560549 1.7130001
-0.11744843 -0.4930419 1.7220001
-0.013586581 -0.49515536 1.7220001
-0.00603848 -0.49062648 1.7220001
-0.12227922 -0.48609763 1.7220001
-0.11775035 -0.48458803 1.7220001
-0.02415392 -0.48156878 1.7220001
-0.01434139 -0.48383322 1.7220001
-0.0075480998 -0.48760727 1.7220001
-0.12227922 -0.47251105 1.7220001
-0.11775035 -0.4755303 1.7220001
-0.022644302 -0.4755303 1.7220001
-0.0150962 -0.4755303 1.7220001
-0.12227922 -0.46345335 1.7220001
-0.11925998 -0.46798217 1.7220001
-0.023650713 -0.46445975 1.7220001
-0.015096201 -0.46496293 1.7220001
-0.13133694 -0.45288599 1.7220001
-0.12529846 -0.45439562 1.7220001
-0.032708433 -0.4523828 1.7220001
-0.025286134 -0.45401824 1.7220001
-0.0150962 -0.45439556 1.7220001
-0.13254464 -0.44473404 1.7220001
-0.12529846 -0.44533789 1.7220001
-0.11925998 -0.44533789 1.7220001
-0.052836701 -0.44835714 1.7220001
-0.044785395 -0.44634432 1.7220001
-0.03434385 -0.44571531 1.7220001
-0.02566354 -0.44533789 1.7220001
-0.0150962 -0.44533786 1.7220001
-0.14039466 -0.43326095 1.7220001
-0.13435619 -0.43477055 1.7220001
-0.12469461 -0.4380917 1.7220001
-0.11925998 -0.4377898 1.7220001
-0.041363589 -0.43386477 1.7220001
-0.034721259 -0.43477058 1.7220001
-0.02566354 -0.43477055 1.7220001
-0.01811544 -0.43628016 1.7220001
-0.14039466 -0.42722246 1.7220001
-0.13616773 -0.42359933 1.7220001
-0.054346323 -0.42118397 1.7220001
-0.045288604 -0.42420325 1.7220001
-0.034721259 -0.42420322 1.7220001
-0.026526181 -0.42463452 1.7220001
-0.01962506 -0.42722246 1.7220001
-0.13349354 -0.41471419 1.7220001
-0.1283177 -0.41212624 1.7220001
-0.054044403 -0.41454163 1.7220001
-0.045288604 -0.41514549 1.7220001
-0.034721255 -0.41514549 1.7220001
-0.026526179 -0.41471416 1.7220001
-0.1326309 -0.40479383 1.7220001
-0.12560037 -0.40367237 1.7220001
-0.11590526 -0.4023976 1.7220001
-0.072461754 -0.4000493 1.7220001
-0.06491366 -0.40220591 1.7220001
-0.054849528 -0.40407497 1.7220001
-0.0452886 -0.40457821 1.7220001
-0.035152581 -0.40608782 1.7220001
-0.02717316 -0.40608779 1.7220001
-0.14374937 -0.39333984 1.7220001
-0.13435619 -0.39401081 1.7220001
-0.12529846 -0.39401081 1.7220001
-0.11590527 -0.39468178 1.7220001
-0.10718302 -0.39703006 1.7220001
-0.082274288 -0.39174637 1.7220001
-0.073971376 -0.39401081 1.7220001
-0.06491366 -0.39401084 1.7220001
-0.056233343 -0.39438823 1.7220001
-0.046295013 -0.39602363 1.7220001
-0.14600183 -0.38581571 1.7220001
-0.13349354 -0.38538441 1.7220001
-0.12529846 -0.38495308 1.7220001
-0.11710338 -0.38495311 1.7220001
-0.10718302 -0.38495311 1.7220001
-0.092086822 -0.38344347 1.7220001
-0.084538721 -0.38495311 1.7220001
-0.073971376 -0.38495311 1.7220001
-0.06491366 -0.38495314 1.7220001
-0.057365559 -0.38797233 1.7220001
-0.14475578 -0.37690178 1.7220001
-0.13435619 -0.37589538 1.7220001
-0.12529846 -0.37589538 1.7220001
-0.11590527 -0.37522447 1.7220001
-0.10491858 -0.37363097 1.7220001
-0.093294516 -0.37529153 1.7220001
-0.084538721 -0.37589541 1.7220001
-0.073971376 -0.37589538 1.7220001
-0.06491366 -0.37589538 1.7220001
-0.058875181 -0.37589538 1.7220001
-0.1434139 -0.36985689 1.7220001
-0.13234335 -0.36633444 1.7220001
-0.12529846 -0.36532807 1.7220001
-0.11473113 -0.36532801 1.7220001
-0.10416377 -0.36532804 1.7220001
-0.095106058 -0.36532804 1.7220001
-0.084538721 -0.36532804 1.7220001
-0.074642316 -0.36650217 1.7220001
-0.066207625 -0.36683765 1.7220001
-0.12529846 -0.35777995 1.7220001
-0.11473111 -0.35627031 1.7220001
-0.10416379 -0.35627031 1.7220001
-0.095106058 -0.35476071 1.7220001
-0.084236801 -0.35476071 1.7220001
-0.076990619 -0.35777995 1.7220001
-0.1434139 -0.17058706 1.7220001
-0.13435619 -0.17058706 1.7220001
-0.12529846 -0.17058706 1.7220001
-0.15247162 -0.16756782 1.7220001
-0.14794275 -0.16756782 1.7220001
-0.1137247 -0.16656141 1.7220001
-0.10416377 -0.16354217 1.7220001
-0.09661568 -0.16152933 1.7220001
-0.092086822 -0.1585101 1.7220001
-0.083632946 -0.15609471 1.7220001
-0.074726187 -0.15322642 1.7220001
-0.067932896 -0.15247162 1.7220001
-0.063404039 -0.14945237 1.7220001
-0.055855941 -0.14542674 1.7220001
-0.046194367 -0.14099851 1.7220001
-0.036230877 -0.14039466 1.7220001
-0.040759739 -0.13737541 1.7220001
-0.033966452 -0.13662061 1.7220001
-0.026418351 -0.135111 1.7220001
-0.01962506 -0.13133694 1.7220001
-0.01358658 -0.1283177 1.7220001
-0.0075480998 -0.12227922 1.7220001
-0.00603848 -0.11925998 1.7220001
0.0045288601 -0.11624074 1.7220001
0.015096201 -0.11397631 1.7220001
0.02566354 -0.11171187 1.7220001
0.031702019 -0.11020226 1.7220001
0.045288596 -0.1056734 1.7220001
0.055855941 -0.10114453 1.7220001
0.06491366 -0.10114453 1.7220001
0.075480998 -0.098125301 1.7220001
0.082274288 -0.095106065 1.7220001
0.095106065 -0.089067578 1.7220001
0.10491858 -0.086803146 1.7220001
0.1137247 -0.087054752 1.7220001
0.12529846 -0.084035516 1.7220001
0.13284656 -0.083029099 1.7220001
0.14794275 -0.083029099 1.7220001
0.15624568 -0.081519485 1.7220001
0.16530338 -0.082274288 1.7220001
0.17511591 -0.080009863 1.7220001
0.18417364 -0.072461754 1.7220001
0.19474097 -0.07095214 1.7220001
0.20530832 -0.07095214 1.7220001
0.21285641 -0.07095214 1.7220001
0.20832756 -0.067932896 1.7220001
0.21587567 -0.067932896 1.7220001
0.22417858 -0.065668471 1.7220001
0.2339911 -0.06491366 1.7220001
0.24455845 -0.062649228 1.7220001
0.25512576 -0.061894421 1.7220001
0.26267385 -0.06491366 1.7220001
0.27475083 -0.066423275 1.7220001
0.28229895 -0.061894421 1.7220001
0.29286629 -0.057365559 1.7220001
-0.003878081 -0.49555132 1.7310001
0.0045525297 -0.49470827 1.7310003
0.014772083 -0.49487194 1.7338573
0.025916897 -0.49547011 1.7390002
0.034192882 -0.49503452 1.7390002
0.042178478 -0.49343738 1.739
-0.12291831 -0.48256817 1.7310001
-0.0045525301 -0.48408568 1.7310001
0.0048386417 -0.48378792 1.7339092
0.015238218 -0.48451704 1.7380003
0.025916897 -0.48479846 1.7390002
0.035064038 -0.4852142 1.7390002
0.041162129 -0.48479843 1.7390001
-0.12291831 -0.47498065 1.7310001
-0.0042817201 -0.47466764 1.7339092
0.0042616515 -0.4738571 1.7358001
0.01524523 -0.47412679 1.7390002
0.025535764 -0.47450787 1.7390002
0.032014988 -0.47565126 1.7390001
-0.004990112 -0.46562162 1.7332858
0.0045735701 -0.4665041 1.7390002
0.015656548 -0.46506235 1.7382729
0.025045738 -0.46497962 1.7390002
-0.13607007 -0.45171213 1.7310001
-0.0045572049 -0.45594966 1.7336668
0.004567726 -0.45664981 1.7363334
0.014889643 -0.4561381 1.7383848
0.023630111 -0.45659474 1.7390001
-0.01062257 -0.44159541 1.7310001
-0.0045671412 -0.44464478 1.7370003
0.004846931 -0.44482806 1.7360911
0.014424334 -0.44598171 1.7390002
0.022867849 -0.44973439 1.7390001
-0.013657589 -0.43552542 1.7310001
-0.0045735701 -0.43448919 1.7390002
0.004267964 -0.43489629 1.7382002
0.011891282 -0.43509895 1.7390001
-0.14286272 -0.42425245 1.7310001
-0.13809341 -0.42035025 1.7310001
-0.022762651 -0.42338526 1.7310001
-0.014871598 -0.42459923 1.7310004
-0.0045735696 -0.42534199 1.7390002
0.0045735701 -0.42534199 1.7390002
0.010671663 -0.42686653 1.7390001
-0.14339349 -0.41498929 1.732143
-0.13809341 -0.41428024 1.7310001
-0.024785995 -0.41326857 1.7310001
-0.0151751 -0.41428027 1.7310003
-0.0045735701 -0.41467032 1.7390002
0.0045735701 -0.41467032 1.7390002
-0.14329629 -0.40474162 1.7310001
-0.13733466 -0.40517518 1.7310001
-0.034295723 -0.40456814 1.7310002
-0.025418293 -0.40517518 1.7310001
-0.0151751 -0.40517518 1.7310003
-0.0045735701 -0.4039987 1.7390002
0.002744142 -0.40460849 1.7390001
-0.14719847 -0.39910513 1.7310001
-0.051595338 -0.39151758 1.7310001
-0.04362841 -0.3926557 1.7310001
-0.034902733 -0.39455259 1.7310003
-0.025797671 -0.39455259 1.7310003
-0.0151751 -0.39455253 1.7310004
-0.0049547008 -0.39523268 1.7390002
0.0015245234 -0.39485154 1.739
-0.14416344 -0.38575101 1.7310002
-0.13809341 -0.38544753 1.7310001
-0.054630358 -0.38393006 1.7310003
-0.044007789 -0.38393006 1.7310001
-0.034902733 -0.38393006 1.7310001
-0.025797671 -0.38393006 1.7310001
-0.015181529 -0.38407674 1.7316669
-0.0060980935 -0.38875344 1.7390001
-0.15124516 -0.37280163 1.7310001
-0.14416346 -0.37330747 1.7310001
-0.13809341 -0.37178996 1.7310001
-0.0542165 -0.37454903 1.7310002
-0.044007789 -0.37482497 1.7310001
-0.034902733 -0.374825 1.7310001
-0.025797671 -0.37482494 1.7310001
-0.014889364 -0.37406823 1.7331336
-0.0076226168 -0.37350821 1.7390001
-0.15306973 -0.36576134 1.733
-0.14416344 -0.36571991 1.7310001
-0.13687941 -0.3651129 1.7310002
-0.07233464 -0.36369655 1.7310001
-0.063431919 -0.3651129 1.7310002
-0.054630365 -0.36571988 1.7310003
-0.044007793 -0.36571991 1.7310001
-0.034628682 -0.36544675 1.7326002
-0.025867218 -0.36517778 1.7356669
-0.016749496 -0.36567783 1.7372224
-0.1533287 -0.35523352 1.7316669
-0.14416344 -0.35509732 1.7310003
-0.13505839 -0.35509732 1.7310003
-0.12595333 -0.35357982 1.7310001
-0.11533076 -0.35206228 1.7310001
-0.10470819 -0.35206231 1.7310001
-0.095603131 -0.35054481 1.7310001
-0.08548639 -0.35256815 1.7310001
-0.074082077 -0.35468349 1.7310002
-0.065252937 -0.35509732 1.7310003
-0.054725043 -0.3557075 1.7340003
-0.044041689 -0.35536733 1.7323335
-0.035606518 -0.35607639 1.7358001
-0.025916897 -0.35826299 1.739
-0.019818803 -0.35826299 1.7390001
-0.15379977 -0.34795558 1.7370002
-0.14475726 -0.34589148 1.7381114
-0.13505837 -0.34447479 1.7310001
-0.12595335 -0.34447479 1.7310001
-0.11533076 -0.34447479 1.7310003
-0.10470819 -0.34447476 1.7310001
-0.095603131 -0.34447479 1.7310001
-0.085012704 -0.34460628 1.7316669
-0.074397728 -0.34465012 1.731889
-0.065350331 -0.34500387 1.7336668
-0.054882839 -0.3460668 1.7390002
-0.044211179 -0.34759131 1.7390002
-0.036588561 -0.34759134 1.7390001
-0.14398593 -0.33672416 1.7380002
-0.13542368 -0.33474576 1.7356668
-0.12595333 -0.33536971 1.7310001
-0.11533076 -0.33536968 1.7310003
-0.10470819 -0.33536968 1.7310001
-0.095603123 -0.33536971 1.7310001
-0.085199289 -0.33471525 1.7355005
-0.074701644 -0.33539513 1.7390002
-0.065554507 -0.33539513 1.7390002
-0.056712262 -0.33630985 1.7390001
-0.14178067 -0.32624799 1.7390001
-0.13481142 -0.32472348 1.7390002
-0.12614854 -0.32524157 1.7336669
-0.11533076 -0.32474709 1.7310004
-0.10470819 -0.32474715 1.7310003
-0.095638789 -0.32487044 1.7316669
-0.086220264 -0.32540104 1.7390002
-0.07775069 -0.32777253 1.7390001
-0.065046325 -0.32573983 1.7390002
-0.059456408 -0.32624799 1.7390001
-0.12435754 -0.31644747 1.7390002
-0.11444114 -0.31560245 1.7354445
-0.1048695 -0.31460384 1.7336668
-0.096312128 -0.31559277 1.7370001
-0.089946873 -0.31710082 1.7390001
-0.10458229 -0.30825862 1.7390001
-0.099094018 -0.30795372 1.7390001
-0.15280037 -0.17285395 1.7326
-0.14449657 -0.17644143 1.7350001
-0.13476777 -0.17588082 1.737
-0.12558112 -0.17694728 1.7378572
-0.11510689 -0.17453486 1.7339091
-0.10570233 -0.17333224 1.7374001
-0.099094018 -0.17227113 1.7390001
-0.10394944 -0.16768485 1.7310001
-0.095358916 -0.16660938 1.7344285
-0.08590176 -0.16541314 1.7374001
-0.074701644 -0.1610913 1.739
-0.081945539 -0.15933855 1.7310001
-0.074357986 -0.15731519 1.7310001
-0.065328322 -0.15496662 1.733
-0.054688223 -0.15040708 1.733
-0.045735702 -0.15092781 1.7390001
-0.051595338 -0.14719847 1.7310001
-0.04403935 -0.14579433 1.7323333
-0.034983385 -0.14500709 1.7350001
-0.026616039 -0.14221682 1.735
-0.024280161 -0.13809341 1.7310001
-0.01623353 -0.13446049 1.7363335
-0.01062257 -0.12898836 1.7310001
-0.0041289749 -0.12628996 1.7355715
0.0050081462 -0.12427638 1.7378572
0.014330518 -0.12104714 1.7390001
0.022867849 -0.12043734 1.7390001
-0.00151751 -0.11988329 1.7310001
0.0045525301 -0.11887162 1.7310001
0.01669261 -0.11684827 1.7310001
0.026431326 -0.11574228 1.7326
0.035364512 -0.11446089 1.7350001
0.043448918 -0.11205247 1.7390001
0.047042809 -0.10774321 1.7310001
0.055391934 -0.10665589 1.7344286
0.065458655 -0.1050308 1.7363335
0.07377106 -0.10267039 1.7350001
0.085373305 -0.10214306 1.7390001
0.08764533 -0.096766762 1.7336668
0.095799498 -0.095804185 1.7345557
0.1050308 -0.095902354 1.7363334
0.11416391 -0.095902361 1.7363334
0.12409619 -0.093605727 1.7390001
0.13873163 -0.092995919 1.7390001
0.14787877 -0.092995919 1.7390001
0.10774321 -0.089533091 1.7310001
0.11836578 -0.089533091 1.7310001
0.12656033 -0.088319078 1.7310002
0.13575947 -0.087542549 1.7344286
0.14403392 -0.087032616 1.7340001
0.15467228 -0.087412 1.7340001
0.16497426 -0.088468812 1.7355715
0.1747825 -0.086636007 1.7336668
0.18367206 -0.084119044 1.7355716
0.19513899 -0.082324259 1.7390002
0.2050484 -0.081561998 1.7390001
0.21495779 -0.080799736 1.739
0.2225804 -0.080799736 1.7390001
0.18726073 -0.074964993 1.7310002
0.19501689 -0.076143377 1.732143
0.20518178 -0.075994723 1.7336668
0.2148263 -0.075378425 1.7344286
0.22419783 -0.074230522 1.7350003
0.23496406 -0.073253639 1.7355716
0.24526243 -0.073122181 1.737667
0.25383314 -0.07241486 1.7390001
0.26577523 -0.072668947 1.7390002
0.27517647 -0.07241486 1.7390001
0.2276265 -0.068287946 1.7310001
0.23521405 -0.068287946 1.7310001
0.24515477 -0.067137055 1.7326
0.25479326 -0.06668891 1.7344286
0.26434654 -0.068366848 1.733
0.2821835 -0.066369802 1.7336668
0.29591444 -0.05918289 1.7310001
0.038310334 -0.49803433 1.748
0.046278883 -0.49496952 1.7479999
0.055166885 -0.49496958 1.7479998
0.035245508 -0.48271018 1.748
0.045972396 -0.48577499 1.748
0.053634465 -0.48883986 1.748
0.029115854 -0.47198331 1.748
0.035858471 -0.47443518 1.7479999
0.041988127 -0.47596759 1.7479999
0.029115854 -0.46278882 1.748
0.035245504 -0.46432126 1.748
0.04137516 -0.46585363 1.748
0.027583441 -0.45512676 1.748
0.035245512 -0.45512676 1.748
0.018899765 -0.44388905 1.748
0.026051026 -0.44777116 1.7479999
0.034632541 -0.44777116 1.7479999
0.04137516 -0.44899711 1.748
0.017469514 -0.43459243 1.7479999
0.022986198 -0.43673778 1.748
0.015153865 -0.42481905 1.748
0.012259305 -0.41528404 1.748
0.0068958597 -0.40532333 1.748
0.012259306 -0.40762198 1.748
-0.0015324133 -0.3922978 1.748
0.0056188488 -0.39485183 1.748
-0.0045972397 -0.38463575 1.748
0.002554022 -0.38667893 1.748
-0.0052102054 -0.3766672 1.7479999
-0.013353886 -0.36230633 1.748
-0.032180678 -0.35245508 1.748
-0.026817232 -0.35551989 1.748
-0.016856547 -0.3570523 1.748
-0.15477374 -0.34440991 1.748
-0.050569639 -0.34172818 1.748
-0.044439986 -0.34326056 1.748
-0.035858475 -0.34418005 1.7479999
-0.029115854 -0.34785783 1.748
-0.1616696 -0.33483231 1.748
-0.15477376 -0.33598161 1.748
-0.14711168 -0.33406612 1.748
-0.052408535 -0.33437258 1.7479999
-0.044439986 -0.33713093 1.748
-0.036777921 -0.33866334 1.748
-0.16396822 -0.32946888 1.748
-0.15170892 -0.32793647 1.748
-0.14619224 -0.32425866 1.7479999
-0.1376107 -0.32272625 1.7479999
-0.083771922 -0.3223176 1.748
-0.074809641 -0.32445371 1.7479999
-0.066404581 -0.3223176 1.748
-0.056358755 -0.32470137 1.748
-0.14251444 -0.31414476 1.748
-0.13485236 -0.3141447 1.7479998
-0.12473844 -0.31230584 1.7479999
-0.11569721 -0.31184614 1.748
-0.092864245 -0.31230584 1.7479999
-0.084720567 -0.31502038 1.748
-0.074650422 -0.31502038 1.748
-0.066506736 -0.31598365 1.7479999
-0.059764121 -0.31720957 1.748
-0.14251444 -0.30801508 1.748
-0.13515887 -0.3074021 1.7479999
-0.12351252 -0.30678916 1.7479999
-0.11454789 -0.30533335 1.748
-0.10617435 -0.30407459 1.748
-0.095520429 -0.30495024 1.748
-0.08734756 -0.30801508 1.748
-0.072023429 -0.30801508 1.748
-0.1042041 -0.29882059 1.748
-0.096542038 -0.29882059 1.748
-0.13331996 -0.18235719 1.748
-0.12412548 -0.18235719 1.748
-0.11646342 -0.18235719 1.748
-0.15324134 -0.17929237 1.748
-0.13791719 -0.17929237 1.748
-0.10497031 -0.17852615 1.748
-0.095009625 -0.1739289 1.748
-0.08275032 -0.17009787 1.748
-0.075088255 -0.16498983 1.748
-0.06742619 -0.16090339 1.748
-0.062828943 -0.15783857 1.748
-0.055166878 -0.15477374 1.748
-0.044439986 -0.15324134 1.748
-0.036777921 -0.15170892 1.748
-0.032180678 -0.14864409 1.748
-0.026051026 -0.14557926 1.748
-0.019921374 -0.14251444 1.748
-0.013791719 -0.13791719 1.748
-0.0045972397 -0.13229835 1.748
0.0045972397 -0.13025513 1.748
0.015980883 -0.1258768 1.748
0.027583439 -0.12106065 1.748
0.035245508 -0.12106065 1.748
0.044439986 -0.11595261 1.748
0.053634465 -0.11186618 1.748
0.065893769 -0.10880134 1.748
0.076620668 -0.10573652 1.748
0.084282734 -0.10573652 1.748
0.095009625 -0.10343789 1.748
0.10573652 -0.10267169 1.748
0.114931 -0.10267169 1.748
0.12473844 -0.098380938 1.7479999
0.13485236 -0.095520429 1.748
0.14496629 -0.095316105 1.7479999
0.15416078 -0.094703145 1.7479999
0.16396824 -0.094703138 1.7479999
0.17469512 -0.093477212 1.748
0.1838896 -0.091944799 1.748
0.19155167 -0.090412386 1.748
0.20227855 -0.090412386 1.748
0.18695444 -0.08734756 1.748
0.1946165 -0.08734756 1.748
0.206365 -0.086325951 1.748
0.21607028 -0.084282734 1.748
0.22603096 -0.083516523 1.748
0.23445924 -0.082750313 1.748
0.24518612 -0.081217907 1.748
0.25284821 -0.081217907 1.748
0.26510751 -0.081217907 1.748
0.23445924 -0.078153081 1.748
0.24518614 -0.078153081 1.748
0.25652599 -0.076927148 1.7479999
0.26510748 -0.076927155 1.7479999
0.27430198 -0.077131473 1.748
0.28410941 -0.073862322 1.7479999
0.28809369 -0.065893769 1.748
0.29269093 -0.062828943 1.748
0.065616921 -0.49412933 1.7570002
0.072394259 -0.49443737 1.7570001
0.047749404 -0.48211494 1.7570001
0.053910617 -0.48519558 1.7570001
0.06315244 -0.48651582 1.7570001
0.046209101 -0.47595373 1.7570001
0.053525541 -0.47595376 1.7570001
0.060841981 -0.47518358 1.7570001
0.045284919 -0.4645555 1.7570002
0.053910617 -0.46517166 1.7570001
0.061612133 -0.46517164 1.7570001
0.045053873 -0.45477459 1.7570001
0.053910617 -0.45438951 1.7570001
0.061612137 -0.45747009 1.7570001
0.026698591 -0.44463423 1.7570001
0.035867065 -0.44426751 1.7570001
0.044283722 -0.44553277 1.7570001
0.053397182 -0.44617453 1.7570001
0.06007183 -0.44360736 1.7570001
0.026698591 -0.43590584 1.7570001
0.034400109 -0.43693271 1.7570001
0.041588191 -0.43898645 1.7570001
0.06007183 -0.43898645 1.7570001
0.016943337 -0.42204311 1.7570001
0.022664463 -0.42490369 1.7570001
0.016943337 -0.4143416 1.7570001
0.021564247 -0.4143416 1.7570001
0.014302817 -0.40421963 1.7570001
0.021564247 -0.40818039 1.7570001
0.01386273 -0.39585799 1.7570001
0.020023944 -0.39585796 1.7570001
0.0053054895 -0.38387787 1.7570001
0.010782124 -0.38815644 1.7570001
-0.0035940411 -0.37326685 1.7570001
0.0015403033 -0.37583402 1.7570001
-0.005647779 -0.36607876 1.7570001
-0.023984725 -0.35448983 1.7570001
-0.01386273 -0.35542503 1.7570001
-0.032346372 -0.34348765 1.7570001
-0.024336793 -0.34471992 1.7570001
-0.01386273 -0.34502801 1.7570001
-0.16173185 -0.33116522 1.7570001
-0.15659751 -0.33219209 1.7570001
-0.05083001 -0.33116522 1.7570001
-0.044668797 -0.33270553 1.7570001
-0.035426978 -0.33424586 1.7570001
-0.024644854 -0.33424589 1.7570001
-0.014889601 -0.33629957 1.7570001
-0.16327216 -0.32654431 1.7570001
-0.15595572 -0.32461894 1.7570001
-0.051600162 -0.32423386 1.7570001
-0.044668797 -0.32500401 1.7570001
-0.035426978 -0.32500401 1.7570001
-0.024644854 -0.32500404 1.7570001
-0.15433839 -0.31699443 1.7570002
-0.14786913 -0.31576219 1.7570001
-0.083176382 -0.31268159 1.7570001
-0.077015169 -0.31268159 1.7570001
-0.063665874 -0.31370845 1.7570001
-0.053910617 -0.31576219 1.7570001
-0.045053873 -0.31614727 1.7570001
-0.035426978 -0.31614727 1.7570001
-0.026185157 -0.31807265 1.7570001
-0.15249003 -0.30960098 1.7570001
-0.1441724 -0.30528814 1.7570002
-0.13297953 -0.3039532 1.7570001
-0.12527801 -0.30292633 1.7570001
-0.1162929 -0.30112931 1.7570001
-0.10936154 -0.30035916 1.7570001
-0.090877898 -0.30343977 1.7570001
-0.084436625 -0.30456001 1.7570001
-0.075754918 -0.30456001 1.7570001
-0.064692743 -0.30498007 1.7570001
-0.05421868 -0.30590427 1.7570002
-0.044668797 -0.30806068 1.7570001
-0.15249003 -0.29727855 1.7570001
-0.11398245 -0.29727855 1.7570001
-0.10320032 -0.29551819 1.7570001
-0.093958504 -0.29419795 1.7570001
-0.084716685 -0.29419795 1.7570001
-0.075474866 -0.29573825 1.7570001
-0.066233046 -0.29727855 1.7570001
-0.10011972 -0.28803673 1.7570001
-0.083176382 -0.28803673 1.7570001
-0.14376165 -0.18432297 1.7570001
-0.13339028 -0.18760894 1.7570002
-0.12553473 -0.18714686 1.7570001
-0.11552275 -0.18534984 1.7570001
-0.10474063 -0.18252595 1.7570001
-0.097039111 -0.18021549 1.7570001
-0.093958504 -0.17713489 1.7570001
-0.085486837 -0.17482443 1.7570001
-0.075474866 -0.17097367 1.7570001
-0.073934563 -0.16789307 1.7570001
-0.064384684 -0.16358021 1.7570002
-0.053910617 -0.16327216 1.7570001
-0.047749404 -0.16173185 1.7570001
-0.06007183 -0.15865125 1.7570001
-0.053910617 -0.15865125 1.7570001
-0.044668797 -0.15711094 1.7570001
-0.035426978 -0.15454377 1.7570001
-0.024644854 -0.14786913 1.7570001
-0.013862731 -0.14324822 1.7570002
-0.0046209102 -0.13606013 1.7570001
0.0046209102 -0.1340064 1.7570001
0.012322427 -0.13092579 1.7570001
0.025415005 -0.12553473 1.7570001
0.033886675 -0.12476457 1.7570001
0.041588191 -0.12168396 1.7570001
0.046209101 -0.11860336 1.7570001
0.053910617 -0.11552275 1.7570001
0.063768558 -0.11305827 1.7570002
0.075474866 -0.10936154 1.7570001
0.084716685 -0.10936154 1.7570001
0.095498808 -0.10628093 1.7570001
0.10474063 -0.10628093 1.7570001
0.11244214 -0.10628093 1.7570001
0.12476457 -0.10320032 1.7570001
0.1340064 -0.10011972 1.7570001
0.14386433 -0.10073584 1.7570002
0.15557064 -0.10011972 1.7570001
0.16481246 -0.10011972 1.7570001
0.17405428 -0.10011972 1.7570001
0.15865125 -0.097039111 1.7570001
0.16481246 -0.097039111 1.7570001
0.17405428 -0.097039111 1.7570001
0.18576059 -0.094574623 1.7570002
0.19623464 -0.09272626 1.7570002
0.20486034 -0.092418201 1.7570001
0.21256186 -0.090877898 1.7570001
0.21564247 -0.087797292 1.7570001
0.22488429 -0.087797292 1.7570001
0.23566641 -0.087797292 1.7570001
0.24490823 -0.084716685 1.7570001
0.25492021 -0.083946534 1.7570001
0.26471213 -0.083396427 1.7570001
0.27366057 -0.082662947 1.7570001
0.28803673 -0.081636079 1.7570001
0.29111734 -0.081636079 1.7570001
0.27879491 -0.078555472 1.7570001
0.28649643 -0.078555472 1.7570001
0.29573825 -0.064692743 1.7570001
0.076248527 -0.49348664 1.7659999
0.085150629 -0.49387372 1.7659999
0.09443979 -0.49387366 1.7659999
0.10527715 -0.49387369 1.7660002
0.1161145 -0.49387366 1.7659999
0.1241651 -0.49449292 1.766
0.15946391 -0.49697006 1.766
0.16668881 -0.4949058 1.7659999
0.17391372 -0.4949058 1.7660002
0.18113862 -0.49387366 1.766
0.066959366 -0.4841975 1.7659999
0.075861476 -0.48458454 1.7659999
0.085150629 -0.48458454 1.7659999
0.094439782 -0.48458454 1.7659999
0.10569939 -0.48486602 1.766
0.11549522 -0.48644233 1.766
0.12540366 -0.48613268 1.766
0.13469282 -0.48458448 1.7660002
0.14707837 -0.48458448 1.7660002
0.15120687 -0.48252025 1.7660002
0.16875307 -0.48768088 1.766
0.057283152 -0.47839174 1.766
0.067456998 -0.47573766 1.7659999
0.075861476 -0.47529539 1.7659999
0.085150629 -0.47529534 1.7659999
0.09443979 -0.47529539 1.7659999
0.10505597 -0.47662237 1.7659999
0.13624102 -0.47219896 1.766
0.14398198 -0.47529531 1.7659999
0.15017475 -0.47529534 1.7660002
0.068120509 -0.46600619 1.7659999
0.075861476 -0.46600622 1.7659999
0.085150629 -0.46600622 1.7659999
0.094439782 -0.46600616 1.7659999
0.10372895 -0.46600619 1.766
0.13624102 -0.46600622 1.766
0.14398198 -0.46600619 1.7659999
0.065466456 -0.45450538 1.7660002
0.075861476 -0.45516887 1.7660002
0.085150629 -0.45710409 1.7659999
0.093555108 -0.45715934 1.7659999
0.14088559 -0.45671704 1.766
0.046961863 -0.44226721 1.7660002
0.05470283 -0.44329938 1.7659999
0.066572316 -0.4443315 1.7659999
0.075861476 -0.44433144 1.7659999
0.085150629 -0.4443315 1.766
0.09443979 -0.4443315 1.766
0.029415673 -0.43349415 1.766
0.036640581 -0.43401018 1.7659999
0.044897605 -0.43504235 1.7659999
0.054186769 -0.43504235 1.7659999
0.065024123 -0.43504229 1.7660002
0.075861484 -0.43504232 1.7659999
0.082054242 -0.43194595 1.766
0.027867479 -0.42575315 1.7659999
0.035608452 -0.42575315 1.7659999
0.044510558 -0.42614022 1.7659999
0.054186769 -0.42614019 1.7659999
0.065024123 -0.42575321 1.7660002
0.075861469 -0.42575318 1.7659999
0.084376529 -0.42807546 1.766
0.027867477 -0.41491583 1.7659999
0.035608452 -0.41491577 1.7660002
0.044897605 -0.4149158 1.7660002
0.054186765 -0.4149158 1.7660002
0.065024123 -0.41491583 1.7660003
0.075579986 -0.41533804 1.766
0.024771092 -0.40407848 1.7660002
0.035608452 -0.40407845 1.7659999
0.044897605 -0.40407848 1.7659999
0.054186769 -0.40407848 1.7659999
0.061411668 -0.40614271 1.7660002
0.015481934 -0.39169291 1.766
0.024771091 -0.39478931 1.766
0.035221402 -0.39517635 1.7659999
0.044510558 -0.39517635 1.7659999
0.052638572 -0.39788568 1.766
0.014320789 -0.38511312 1.7659999
0.023222897 -0.38588721 1.7659999
0.034060255 -0.38550013 1.766
0.041801218 -0.38704833 1.766
0.0052638575 -0.37404352 1.766
0.013652249 -0.375085 1.766
0.021158641 -0.37827525 1.7660002
-0.0036124513 -0.3627933 1.7659999
0.0037598982 -0.3642678 1.7659999
0.013933741 -0.36614773 1.766
0.020126512 -0.36692181 1.766
-0.0046445802 -0.35453629 1.7659999
0.0037598982 -0.35497862 1.7659999
0.01393374 -0.35453629 1.7660002
0.020126512 -0.35453629 1.7660002
-0.0061927731 -0.34602121 1.766
0.0015481933 -0.34679532 1.766
-0.013417676 -0.3349258 1.7659999
-0.16410848 -0.32202423 1.766
-0.023222899 -0.32047603 1.766
-0.01393374 -0.32512057 1.7660002
-0.1625603 -0.31737962 1.766
-0.15791571 -0.31428322 1.7659999
-0.043865476 -0.31221899 1.7660002
-0.035608448 -0.31196094 1.766
-0.024348855 -0.31400177 1.766
-0.01393374 -0.31428322 1.7659999
-0.15327112 -0.30396196 1.7659999
-0.14707837 -0.30344588 1.766
-0.13624102 -0.3018977 1.766
-0.12540366 -0.3018977 1.766
-0.052638572 -0.3018977 1.766
-0.044897605 -0.30460706 1.7659999
-0.035608448 -0.30499411 1.7659999
-0.024771089 -0.30499411 1.7660002
-0.014320789 -0.30538115 1.7659999
-0.15017475 -0.29725313 1.766
-0.14398198 -0.2988013 1.7660002
-0.13391873 -0.29802722 1.766
-0.12540366 -0.2972531 1.7659999
-0.11655684 -0.29482025 1.7659999
-0.10744462 -0.29384708 1.766
-0.075861476 -0.29260853 1.7660002
-0.064508051 -0.29467276 1.7659999
-0.054186769 -0.2957049 1.7659999
-0.044897605 -0.2957049 1.7659999
-0.035608452 -0.29570493 1.7659999
-0.025700008 -0.29818204 1.766
-0.10310967 -0.28703505 1.766
-0.094158299 -0.28528979 1.766
-0.085460268 -0.28393871 1.766
-0.075861476 -0.28486761 1.7660002
-0.065024123 -0.28486758 1.7660003
-0.054186765 -0.28486755 1.7660002
-0.045284651 -0.28680283 1.7659999
-0.035608444 -0.28796396 1.7659999
-0.10063256 -0.27712661 1.766
-0.063475929 -0.27712661 1.766
-0.055218894 -0.27609447 1.7660002
-0.14243379 -0.19042778 1.766
-0.13572495 -0.19404024 1.7659999
-0.12385546 -0.19042778 1.766
-0.15481934 -0.18500909 1.766
-0.14707837 -0.18733139 1.766
-0.11301811 -0.18733139 1.766
-0.10527714 -0.18655729 1.766
-0.09443979 -0.18268681 1.766
-0.088247016 -0.18113862 1.766
-0.083602436 -0.17804223 1.766
-0.075861476 -0.17649405 1.7659999
-0.068120509 -0.17184946 1.766
-0.057283152 -0.17184946 1.766
-0.064095207 -0.1681338 1.766
-0.054186765 -0.16875307 1.7660002
-0.044897605 -0.16410848 1.766
-0.041801218 -0.15946391 1.766
-0.035608448 -0.15843178 1.7660002
-0.02454992 -0.1528288 1.7659999
-0.015481934 -0.15017475 1.766
-0.012385546 -0.14707837 1.766
-0.0054186769 -0.14165969 1.766
-0.0046445802 -0.1377892 1.766
0.0046445802 -0.1377892 1.7660002
0.014707837 -0.13391872 1.766
0.021674706 -0.13159643 1.766
0.027867479 -0.12850004 1.766
0.036382545 -0.12772594 1.766
0.045516882 -0.1241651 1.766
0.054186765 -0.12230727 1.7660002
0.054186765 -0.11921088 1.7660002
0.065024123 -0.1168886 1.766
0.075861476 -0.1145663 1.7659999
0.084376529 -0.11379221 1.766
0.092891596 -0.11301811 1.766
0.094439782 -0.10992172 1.7660002
0.10527714 -0.10992172 1.766
0.11663056 -0.10785747 1.7659999
0.12540366 -0.10682533 1.7660002
0.13469283 -0.10527715 1.7659999
0.14460126 -0.10558678 1.766
0.15415584 -0.10505597 1.7659999
0.16565669 -0.10496751 1.766
0.17494585 -0.10450305 1.766
0.18268681 -0.10218076 1.766
0.18733139 -0.097536176 1.766
0.19507235 -0.097536176 1.766
0.20668381 -0.096762083 1.766
0.21519887 -0.093407661 1.7660002
0.22448803 -0.091343403 1.7660002
0.2353254 -0.091343403 1.766
0.24616273 -0.088247024 1.7660002
0.25545192 -0.088247024 1.7660002
0.26628923 -0.088247016 1.766
0.27403021 -0.086698823 1.766
0.28370643 -0.084763572 1.7659999
0.28331938 -0.078957863 1.766
0.29260853 -0.07276509 1.766
0.29467276 -0.067604445 1.7660002
0.3018977 -0.066572316 1.766
0.12715174 -0.4940753 1.7760001
0.13545552 -0.49511325 1.7760004
0.1445142 -0.49553788 1.7760003
0.15413903 -0.49511325 1.7760004
0.16309156 -0.49316704 1.7760001
0.17628247 -0.49424833 1.7760001
0.18449976 -0.49511325 1.7760001
0.19617696 -0.49667025 1.7760001
0.20271619 -0.49729306 1.7760003
0.23561996 -0.49251834 1.7760001
0.24132881 -0.49511328 1.7760001
0.1012024 -0.48421454 1.7760001
0.11721684 -0.48332483 1.7760001
0.12611376 -0.48382533 1.7760001
0.13545553 -0.48265758 1.7760001
0.14324032 -0.48577151 1.7760001
0.15600739 -0.4842146 1.7760003
0.16503777 -0.48421454 1.7760004
0.17593649 -0.48421457 1.7760001
0.18372126 -0.48421454 1.7760001
0.22264528 -0.48421454 1.7760001
0.23821488 -0.48732847 1.7760001
0.10379732 -0.47383484 1.7760001
0.11521504 -0.4748728 1.7760004
0.12611376 -0.4748728 1.7760001
0.13493653 -0.47539178 1.7760001
0.14479728 -0.4748728 1.7760001
0.15502873 -0.47442794 1.7760001
0.16503777 -0.4748728 1.7760004
0.17593649 -0.4748728 1.7760001
0.18372126 -0.47487283 1.7760001
0.10431631 -0.46464133 1.7760001
0.11521503 -0.46553099 1.7760004
0.12611376 -0.46553102 1.7760001
0.13506629 -0.46553105 1.7760001
0.14479728 -0.46428546 1.7760003
0.15413903 -0.46553102 1.7760001
0.16503775 -0.46553108 1.7760004
0.17593649 -0.46553102 1.7760001
0.18372126 -0.46553108 1.7760001
0.085632801 -0.45385385 1.7760001
0.096220128 -0.45494375 1.7760003
0.10431631 -0.4561893 1.7760001
0.11521503 -0.45618927 1.7760004
0.12611376 -0.45618927 1.7760001
0.13545552 -0.45618927 1.7760001
0.14518651 -0.4558 1.7760001
0.15413903 -0.45618922 1.7760001
0.16489621 -0.45647237 1.7760003
0.17632572 -0.45657852 1.7760001
0.18372126 -0.45618927 1.7760001
0.085632801 -0.44497919 1.7760003
0.094974563 -0.44514897 1.7760003
0.10431632 -0.44529057 1.7760004
0.11521503 -0.44529057 1.7760005
0.12611376 -0.44529048 1.7760004
0.13545553 -0.44529057 1.7760004
0.14479728 -0.44529054 1.7760004
0.15413903 -0.44529057 1.7760004
0.16472636 -0.44560197 1.7760005
0.17593648 -0.44529057 1.7760004
0.18372126 -0.4452906 1.7760001
0.086255588 -0.43626016 1.7760003
0.094974563 -0.43439186 1.7760001
0.10431631 -0.43439186 1.7760001
0.11521503 -0.43439183 1.7760004
0.12611376 -0.43439183 1.7760001
0.13545552 -0.43439183 1.7760001
0.14479727 -0.43439183 1.7760001
0.15413904 -0.43439186 1.7760001
0.16461313 -0.43410873 1.7760003
0.17593649 -0.43439186 1.7760001
0.18372127 -0.43594879 1.7760001
0.048265759 -0.42505008 1.7760001
0.054493599 -0.42505008 1.7760001
0.086022042 -0.42466083 1.7760001
0.094974563 -0.42505008 1.7760001
0.10431632 -0.42505005 1.7760001
0.11521503 -0.42505002 1.7760004
0.12611376 -0.42505008 1.7760001
0.13545553 -0.42505005 1.7760001
0.14479728 -0.42505008 1.7760001
0.15258208 -0.42505008 1.7760001
0.16503775 -0.42505002 1.7760004
0.17749344 -0.42505011 1.7760001
0.079404958 -0.41259441 1.7760001
0.085632801 -0.4157083 1.7760001
0.09497457 -0.4157083 1.7760001
0.10431632 -0.41570833 1.7760001
0.11521504 -0.4157083 1.7760004
0.12611376 -0.4157083 1.7760001
0.13493653 -0.41674629 1.7760001
0.14524212 -0.41659802 1.7760001
0.15413903 -0.41609758 1.7760001
0.16503775 -0.41570839 1.7760004
0.17749344 -0.4157083 1.7760001
0.05760752 -0.40013871 1.7760001
0.06452734 -0.40359864 1.7760001
0.074734077 -0.40480959 1.7760005
0.085632801 -0.40480959 1.7760004
0.09497457 -0.40480962 1.7760004
0.1043163 -0.40480956 1.7760004
0.1147702 -0.40547687 1.7760004
0.12299984 -0.40636656 1.7760001
0.1676327 -0.4084425 1.7760001
0.17593648 -0.40480959 1.7760001
0.02958224 -0.39235392 1.7760001
0.036588565 -0.39157546 1.7760001
0.047227785 -0.39183494 1.7760001
0.054493599 -0.39391088 1.7760001
0.06383536 -0.39391088 1.7760001
0.074734069 -0.39391088 1.7760004
0.085632801 -0.39391088 1.7760001
0.094585322 -0.39430013 1.7760001
0.10587328 -0.39546785 1.7760001
0.027713889 -0.38394633 1.7760003
0.036254924 -0.38367942 1.7760001
0.045541078 -0.38417983 1.7760001
0.054493602 -0.38456911 1.7760001
0.063835353 -0.38456911 1.7760001
0.073799901 -0.38425773 1.7760003
0.085632801 -0.38456905 1.7760001
0.09186063 -0.38456908 1.7760001
0.01712656 -0.37211344 1.7760001
0.025335984 -0.37494424 1.7760003
0.035810079 -0.37522733 1.7760001
0.045151837 -0.37522736 1.7760001
0.054493602 -0.37522733 1.7760001
0.062589787 -0.37647292 1.7760003
0.073177122 -0.37834129 1.7760001
0.085632801 -0.37834129 1.7760001
0.0077848001 -0.36432862 1.7760001
0.01401264 -0.36401725 1.7760003
0.025335986 -0.36560252 1.7760003
0.035810079 -0.36588562 1.7760001
0.045151837 -0.36588562 1.7760001
0.05360391 -0.36633044 1.7760001
-0.0046708798 -0.35031599 1.7760001
0.0070063202 -0.35265142 1.7760001
0.014012638 -0.3544679 1.7760001
0.025989255 -0.35462758 1.7760004
0.034642361 -0.35615456 1.7760001
0.045151841 -0.35965776 1.7760001
0.05293664 -0.35965776 1.7760001
-0.0037811883 -0.34364334 1.7760001
0.0050601196 -0.34369892 1.7760001
0.013623401 -0.34447742 1.7760001
0.022316426 -0.34512615 1.7760001
0.032696161 -0.34720209 1.7760001
-0.0046708793 -0.33474636 1.7760001
0.0042816401 -0.33513561 1.7760001
0.01089872 -0.33630335 1.7760001
-0.0046708798 -0.32540464 1.7760001
0.0023354399 -0.32618314 1.7760001
-0.1634808 -0.31450593 1.7760001
-0.0046708798 -0.3183983 1.7760001
-0.16036688 -0.30827808 1.7760001
-0.15725295 -0.30672112 1.7760001
-0.01323416 -0.30127177 1.7760001
-0.14479728 -0.29613382 1.7760003
-0.13607831 -0.29551101 1.7760003
-0.12533528 -0.29348695 1.7760001
-0.11521504 -0.29115152 1.7760001
-0.024486734 -0.29398239 1.7760003
-0.015050613 -0.29530343 1.7760001
-0.11054416 -0.2880376 1.7760001
-0.1049391 -0.28430086 1.7760003
-0.098088481 -0.28180975 1.7760001
-0.04437336 -0.28258824 1.7760001
-0.035810083 -0.28336671 1.7760001
-0.025845537 -0.28741479 1.7760003
-0.01712656 -0.2880376 1.7760001
-0.11210112 -0.27869585 1.7760001
-0.10431632 -0.27636039 1.7760001
-0.094974555 -0.27713886 1.7760001
-0.085632801 -0.27558193 1.7760001
-0.074734077 -0.27558196 1.7760004
-0.063835353 -0.27469224 1.7760001
-0.053974614 -0.27454394 1.7760001
-0.045541078 -0.27597114 1.7760001
-0.035810083 -0.27745026 1.7760003
-0.073177122 -0.26935408 1.7760001
-0.06487333 -0.26727813 1.7760001
-0.056050561 -0.26935408 1.7760001
-0.15102512 -0.19150607 1.7760001
-0.14479728 -0.19358201 1.7760001
-0.155696 -0.18839216 1.7760001
-0.082518883 -0.18216431 1.7760001
-0.074734077 -0.18216431 1.7760001
-0.065392315 -0.18216431 1.7760001
-0.070063196 -0.17749344 1.7760001
-0.063446112 -0.17632572 1.7760001
-0.054493602 -0.17541748 1.7760001
-0.045151841 -0.16867065 1.7760001
-0.035810079 -0.16244282 1.7760001
-0.02958224 -0.16036688 1.7760001
-0.023354398 -0.15725295 1.7760001
-0.013389856 -0.15413904 1.7760003
-0.0040480956 -0.14666563 1.7760003
0.0038923998 -0.14246184 1.7760001
0.014012639 -0.13856944 1.7760001
0.024392374 -0.13493653 1.7760001
0.035810079 -0.13234159 1.7760001
0.045151841 -0.12922768 1.7760001
0.054493602 -0.12611376 1.7760001
0.06383536 -0.1245568 1.7760001
0.073177122 -0.12299984 1.7760001
0.065392315 -0.11988592 1.7760001
0.074734077 -0.11988592 1.7760001
0.086255588 -0.11864035 1.7760003
0.095753036 -0.11599351 1.7760001
0.10369353 -0.11490364 1.7760003
0.11521503 -0.11365808 1.7760001
0.12611376 -0.11210112 1.7760001
0.1354555 -0.11210112 1.7760001
0.14479728 -0.11210112 1.7760001
0.15413904 -0.11054417 1.7760001
0.16503775 -0.11054416 1.7760001
0.17593648 -0.11054417 1.7760001
0.18527824 -0.11054416 1.7760001
0.16348079 -0.10743024 1.7760001
0.17593649 -0.10743024 1.7760001
0.18605672 -0.10509481 1.7760001
0.19462 -0.10275935 1.7760001
0.20396176 -0.10198088 1.7760001
0.21330351 -0.1012024 1.7760001
0.20707569 -0.094974563 1.7760001
0.21719591 -0.097310007 1.7760001
0.22575921 -0.096531533 1.7760001
0.23510097 -0.096531518 1.7760001
0.24444273 -0.0934176 1.7760001
0.25300598 -0.092639118 1.7760001
0.26520216 -0.09186063 1.7760001
0.27558193 -0.09186063 1.7760001
0.28492367 -0.09186063 1.7760001
0.26312622 -0.088746719 1.7760001
0.27713889 -0.088746719 1.7760001
0.28180975 -0.088746719 1.7760001
0.30205023 -0.070063196 1.7760001
0.23587944 0.3581008 1.7760001
0.18934685 -0.49449259 1.7850001
0.19515915 -0.49516326 1.785
0.20551698 -0.49501422 1.785
0.21438444 -0.49605745 1.7850001
0.22377355 -0.49605745 1.7850001
0.23264103 -0.49710068 1.785
0.24657564 -0.49561039 1.785
0.25350571 -0.49605742 1.785
0.28636754 -0.49762231 1.7850001
0.18934685 -0.48510349 1.7850001
0.19560625 -0.48510349 1.785
0.20499538 -0.48510352 1.785
0.21438445 -0.48510349 1.785
0.22377352 -0.48496124 1.785
0.23441453 -0.48479062 1.785
0.24568146 -0.48510352 1.785
0.25350571 -0.48510349 1.785
0.18934685 -0.47414955 1.7850002
0.19560625 -0.47414955 1.7850001
0.20499536 -0.47414955 1.7850001
0.21438445 -0.4741495 1.7850001
0.22377355 -0.47414955 1.7850001
0.2347275 -0.4741495 1.785
0.2472463 -0.47414955 1.7850001
0.25194085 -0.47727925 1.7850001
0.18934685 -0.46476045 1.7850002
0.19560625 -0.46476045 1.7850001
0.20499536 -0.46476045 1.7850001
0.21438445 -0.46476045 1.7850001
0.22377355 -0.46476045 1.7850001
0.2347275 -0.46476051 1.785
0.24607265 -0.46436927 1.785
0.25402731 -0.46371722 1.785
0.16743895 -0.45537135 1.7850001
0.17369835 -0.45537135 1.7850001
0.18934685 -0.45537135 1.7850002
0.19560625 -0.45537138 1.7850001
0.20499536 -0.45537138 1.7850001
0.21438445 -0.45537132 1.7850001
0.22377355 -0.45537138 1.7850001
0.2347275 -0.45537129 1.785
0.24568142 -0.45537132 1.7850001
0.25507054 -0.45537138 1.7850001
0.26132995 -0.45224166 1.7850001
0.17056865 -0.44285256 1.7850001
0.18934685 -0.44598225 1.7850002
0.19560625 -0.44598225 1.7850001
0.20499536 -0.44598225 1.7850001
0.21438444 -0.44598225 1.7850001
0.22377354 -0.44598225 1.7850001
0.2347275 -0.44598225 1.785
0.24568145 -0.44598225 1.7850001
0.25507057 -0.44598225 1.7850001
0.26132995 -0.44598225 1.7850002
0.15648499 -0.43033373 1.7850001
0.17213351 -0.43502828 1.7850001
0.18666424 -0.43391055 1.785
0.1959192 -0.43596721 1.7850001
0.20527989 -0.43545511 1.785
0.21438445 -0.43502828 1.785
0.22377352 -0.43502823 1.785
0.23428039 -0.43569899 1.785
0.24568148 -0.43545505 1.785
0.25507057 -0.43659317 1.7850001
0.26132995 -0.43972284 1.7850001
0.15596338 -0.42511758 1.7850002
0.17448078 -0.42329192 1.7850001
0.18465231 -0.42407438 1.785
0.20812505 -0.42407432 1.7850002
0.21438445 -0.42407438 1.7850001
0.22377355 -0.42407438 1.7850001
0.23159778 -0.42407438 1.785
0.12675285 -0.41155556 1.7850002
0.13666356 -0.41364202 1.785
0.14490511 -0.41280746 1.7850001
0.15492015 -0.41233799 1.7850001
0.16430925 -0.41155556 1.7850001
0.17682804 -0.41468525 1.785
0.18465231 -0.41468525 1.785
0.20812505 -0.41468525 1.7850002
0.21438444 -0.41468525 1.7850001
0.22377355 -0.41468525 1.7850001
0.23277143 -0.41429403 1.785
0.11736375 -0.40216646 1.7850001
0.1264051 -0.40460065 1.7850001
0.13614196 -0.40619034 1.785
0.14597817 -0.40619034 1.785
0.15581433 -0.40574327 1.785
0.16430926 -0.40529615 1.7850001
0.17543705 -0.40460065 1.7850001
0.18465228 -0.40529612 1.785
0.20624724 -0.4040443 1.7850001
0.21399324 -0.40568733 1.785
0.22338235 -0.40568733 1.785
0.23355386 -0.40568736 1.785
0.098585546 -0.39277735 1.7850001
0.10359307 -0.39465517 1.7850001
0.11423405 -0.39590707 1.7850001
0.12518801 -0.39590704 1.785
0.1345771 -0.39590704 1.785
0.14866075 -0.39590704 1.7850001
0.15648499 -0.39590704 1.785
0.16430925 -0.39590701 1.7850001
0.17526321 -0.39590704 1.785
0.18465231 -0.39590704 1.785
0.20588957 -0.39590701 1.785
0.21250662 -0.39528114 1.7850001
0.079807349 -0.38547471 1.7850002
0.096499085 -0.38443148 1.7850001
0.10523617 -0.38690916 1.785
0.11501648 -0.3888652 1.7850001
0.12504573 -0.38623345 1.785
0.13614196 -0.38547468 1.7850002
0.14866075 -0.38495308 1.7850001
0.15626144 -0.38428244 1.785
0.16326602 -0.38599634 1.785
0.17682804 -0.38839573 1.7850001
0.18517391 -0.38599631 1.785
0.065053053 -0.37355205 1.785
0.075112797 -0.37399915 1.785
0.086066753 -0.37399915 1.7850001
0.093578033 -0.37462506 1.7850001
0.12675285 -0.37556398 1.7850001
0.13614196 -0.37712884 1.7850001
0.14553106 -0.37712884 1.7850001
0.15648499 -0.37712884 1.7850001
0.16117954 -0.37712884 1.7850001
0.057899449 -0.36617488 1.7850001
0.063376427 -0.36695731 1.7850001
0.077460073 -0.36695734 1.7850001
0.0845019 -0.36617488 1.7850001
0.038338829 -0.35443854 1.7850001
0.04225095 -0.35678577 1.7850001
0.051640049 -0.35522094 1.7850001
0.01721335 -0.34270215 1.7850001
0.027645685 -0.34478864 1.785
0.036382761 -0.34544066 1.785
0.04225095 -0.34426701 1.7850001
0.057899449 -0.34270215 1.7850001
0.0078242496 -0.33174819 1.7850001
0.014474862 -0.33526909 1.785
0.023472749 -0.3380076 1.785
0.035991549 -0.33879003 1.7850001
0.04225095 -0.3380076 1.7850001
0.051640049 -0.33957246 1.7850001
0.0055887499 -0.32347682 1.785
0.013692437 -0.32431519 1.785
-0.0046945494 -0.31414363 1.785
0.0023472749 -0.31531727 1.7850001
0.01095395 -0.31766453 1.7850001
-0.0046945498 -0.30514574 1.7850001
0.00156485 -0.30827546 1.7850001
-0.14553104 -0.29340938 1.7850001
-0.13614196 -0.29262695 1.7850002
-0.1283177 -0.29262695 1.7850001
-0.011997183 -0.29367018 1.7850002
-0.0046945498 -0.29888636 1.7850001
-0.14240135 -0.28636754 1.7850001
-0.13927165 -0.28949726 1.7850001
-0.12440557 -0.28871483 1.7850001
-0.11371244 -0.28636754 1.785
-0.10797465 -0.28323784 1.7850001
-0.024610823 -0.28295329 1.785
-0.013799131 -0.28437594 1.785
-0.095455848 -0.27384874 1.7850002
-0.079807349 -0.27071905 1.7850001
-0.051640049 -0.27071905 1.7850001
-0.045380648 -0.27176228 1.7850002
-0.035991549 -0.27295455 1.785
-0.025559217 -0.274892 1.7850001
-0.01721335 -0.2754136 1.7850001
-0.072765522 -0.26680693 1.7850001
-0.063532911 -0.2638337 1.7850001
-0.054769751 -0.26758936 1.7850002
-0.032861851 -0.26758936 1.7850001
-0.065723702 -0.25820026 1.7850001
-0.023472751 -0.24568145 1.7850001
-0.16117954 -0.19247656 1.7850001
-0.15492016 -0.1940414 1.7850001
-0.14553106 -0.19769271 1.7850002
-0.074591182 -0.18621714 1.7850002
-0.045380652 -0.17265512 1.7850002
-0.035209127 -0.16665652 1.7850001
