# .PCD v0.7 - Point Cloud Data file format
VERSION 0.7
FIELDS x y z
SIZE 4 4 4
TYPE F F F
COUNT 1 1 1
WIDTH 1452
HEIGHT 1
VIEWPOINT 0 0 0 1 0 0 0
POINTS 1452
DATA ascii
-0.12705092 -0.37517387 1.705
-0.11210375 -0.37816331 1.705
-0.10413193 -0.37816331 1.705
-0.095960811 -0.37577176 1.7050002
-0.14424016 -0.36695293 1.705
-0.13486944 -0.36551574 1.705
-0.12705092 -0.36770028 1.705
-0.21374448 -0.14199808 1.705
-0.20477618 -0.14199808 1.705
-0.19730261 -0.14199808 1.705
-0.19730261 -0.13900866 1.705
-0.18385015 -0.13601921 1.705
-0.17488186 -0.13601921 1.705
-0.16591354 -0.13302979 1.705
-0.15545052 -0.13004035 1.705
-0.15096638 -0.12705092 1.705
-0.14498752 -0.12505795 1.705
-0.13751394 -0.12107205 1.705
-0.13302979 -0.11708613 1.705
-0.12406149 -0.11310023 1.705
-0.11658789 -0.11210375 1.705
-0.11359847 -0.10911432 1.705
-0.10562664 -0.10512841 1.705
-0.097156584 -0.10014602 1.705
-0.094167151 -0.097156584 1.705
-0.085198849 -0.093170673 1.705
-0.077725261 -0.091177717 1.705
-0.071746394 -0.088188283 1.705
-0.064272813 -0.086693563 1.705
-0.055304516 -0.083205894 1.705
-0.049325649 -0.082209416 1.705
-0.044094142 -0.078472622 1.705
-0.034378484 -0.079219982 1.705
-0.025410183 -0.077227026 1.705
-0.014947167 -0.073241115 1.705
-0.0044841496 -0.065767527 1.705
0.0044841501 -0.061283384 1.705
0.011957733 -0.061283384 1.705
0.016441884 -0.05829395 1.705
0.025410183 -0.055304516 1.705
0.034378484 -0.054308038 1.705
0.044841498 -0.052315082 1.705
0.055304516 -0.052315082 1.705
0.064272813 -0.049325649 1.705
0.075034775 -0.048129875 1.7050002
0.085198849 -0.043346781 1.705
0.09341979 -0.044094138 1.705
0.10373334 -0.042748895 1.7050002
0.11509318 -0.043346781 1.705
0.12406149 -0.043346781 1.705
0.13362768 -0.040955238 1.7050002
0.14498751 -0.040357351 1.705
0.15545052 -0.041353825 1.705
0.15594877 -0.037367918 1.705
0.16591357 -0.035873201 1.705
0.17413449 -0.03213641 1.705
0.18634133 -0.024911946 1.705
0.19580787 -0.022420749 1.705
0.20477618 -0.022420749 1.705
0.22271279 -0.022420749 1.705
0.19580787 -0.019431317 1.705
0.20477618 -0.0179366 1.705
0.21459863 -0.018150132 1.705
0.22450642 -0.01703977 1.7050002
0.12705092 0.42748898 1.705
0.13527186 0.42823634 1.705
0.1255562 0.43346781 1.705
0.13452451 0.43496254 1.705
0.14199808 0.43346781 1.705
0.13302979 0.44243613 1.705
-0.15167473 -0.49106571 1.7130001
-0.14446643 -0.49406916 1.7130001
-0.13815916 -0.49406919 1.7130002
-0.03153633 -0.4955709 1.7130001
-0.02733149 -0.49406919 1.7130001
-0.14386573 -0.48445812 1.7130001
-0.13815916 -0.48505878 1.7130002
-0.024671281 -0.48505881 1.7130002
-0.016519031 -0.48656052 1.7130001
-0.15317646 -0.47529757 1.7130001
-0.14566781 -0.4745467 1.7129999
-0.13794462 -0.47476122 1.7130002
-0.025529409 -0.47404611 1.7130002
-0.01952249 -0.47154322 1.7130001
-0.16368857 -0.46253282 1.7130001
-0.15417762 -0.46303344 1.7130002
-0.14746988 -0.46463528 1.7130001
-0.13665743 -0.46703804 1.7130001
-0.03153633 -0.46403456 1.7130001
-0.024671281 -0.46403459 1.7130002
-0.01952249 -0.46403456 1.7129999
-0.1629377 -0.45502418 1.7130001
-0.15527889 -0.45682627 1.7130001
-0.055564012 -0.4527716 1.7130001
-0.04655363 -0.45502418 1.7130002
-0.03153633 -0.45502415 1.7129999
-0.025529411 -0.45502412 1.7130002
-0.01952249 -0.45502415 1.7129999
-0.17269894 -0.44601381 1.7130001
-0.16218683 -0.44401154 1.7130002
-0.062171619 -0.44481239 1.7130001
-0.056565158 -0.44501269 1.7130002
-0.045051903 -0.44901726 1.7130001
-0.034539785 -0.44451204 1.7129999
-0.025529409 -0.4445121 1.7129999
-0.01952249 -0.44601381 1.7130001
-0.16248718 -0.43460065 1.7130001
-0.10061591 -0.43399996 1.7130001
-0.061570931 -0.43399993 1.7129999
-0.055564005 -0.43399993 1.7130002
-0.048555937 -0.43299881 1.7129999
-0.034539789 -0.43399993 1.7130002
-0.027031142 -0.43399996 1.7130001
-0.16188648 -0.42438889 1.7130001
-0.082595147 -0.42198613 1.7130001
-0.072583616 -0.42298725 1.7129999
-0.063072659 -0.42423871 1.7130001
-0.055939443 -0.42461416 1.7130002
-0.04655363 -0.42348784 1.7130001
-0.035540942 -0.42549014 1.7130002
-0.16368857 -0.41537851 1.7130001
-0.064574391 -0.41597921 1.7130002
-0.05706574 -0.41597918 1.7130002
-0.16484374 -0.40465853 1.7129999
-0.15768164 -0.40096191 1.7130001
-0.070581309 -0.40246361 1.7130001
-0.064574391 -0.40505752 1.7130001
-0.057280272 -0.4061107 1.7130002
-0.025529411 -0.40997228 1.7130001
-0.16579098 -0.39435431 1.7130001
-0.15768164 -0.39195153 1.7130001
-0.11443182 -0.39555568 1.7130001
-0.10699826 -0.39457956 1.7130002
-0.075086497 -0.39420414 1.7130002
-0.064574391 -0.39795846 1.7130001
-0.058567468 -0.39645672 1.7130001
-0.16478072 -0.38594463 1.7130001
-0.15567935 -0.38494346 1.7130002
-0.14716953 -0.38294116 1.7130001
-0.12464359 -0.3859446 1.7129999
-0.11563321 -0.383692 1.7130001
-0.10782421 -0.3859446 1.7130001
-0.093407609 -0.38534391 1.7130001
-0.085223176 -0.38556919 1.7130002
-0.07808996 -0.3859446 1.7130002
-0.1639889 -0.37663388 1.7130001
-0.15467818 -0.37543252 1.7129999
-0.14746988 -0.37393078 1.7130001
-0.12364243 -0.37559938 1.7130002
-0.11590626 -0.37502289 1.7130001
-0.10523661 -0.37439281 1.7129999
-0.0933218 -0.37393075 1.7130002
-0.08559861 -0.37543252 1.7129999
-0.078089952 -0.37543249 1.7130002
-0.19672664 -0.36492038 1.7129999
-0.18321106 -0.36191693 1.7130001
-0.17570241 -0.36191693 1.7129999
-0.16535716 -0.36492041 1.7130002
-0.15467818 -0.36492041 1.7130002
-0.14566779 -0.36341867 1.7130002
-0.13365398 -0.36291805 1.7129999
-0.12426815 -0.36454499 1.7130002
-0.11600864 -0.36529583 1.7130002
-0.10962629 -0.36492038 1.7129999
-0.096110716 -0.36792386 1.7130001
-0.082595147 -0.36792386 1.7130001
-0.079591691 -0.36792386 1.7130001
-0.19792803 -0.3565107 1.7130001
-0.1769038 -0.35470861 1.7130001
-0.16519029 -0.35590997 1.7129999
-0.15467821 -0.35590997 1.7130002
-0.14566781 -0.35591 1.7130002
-0.13556528 -0.35618302 1.7130001
-0.12507264 -0.35676813 1.7130002
-0.11788581 -0.35666087 1.7130001
-0.19672664 -0.34990308 1.7130001
-0.18321106 -0.34990308 1.7130001
-0.17510171 -0.34870169 1.7130001
-0.16519029 -0.34840137 1.7130002
-0.15510726 -0.34775776 1.7130002
-0.14666896 -0.34790078 1.7129999
-0.13966089 -0.34689963 1.7130001
-0.21474738 -0.14466666 1.7129999
-0.20573701 -0.14566781 1.7129999
-0.19522491 -0.14416608 1.7130001
-0.18771625 -0.14266434 1.7130001
-0.19222143 -0.13966089 1.7130001
-0.18471278 -0.13966089 1.7129999
-0.17570241 -0.13966089 1.7129999
-0.16569088 -0.13565628 1.7129999
-0.15167473 -0.13065051 1.7130001
-0.14416608 -0.12764704 1.7130001
-0.13665743 -0.12364244 1.7129999
-0.13065051 -0.11863667 1.7130001
-0.12389272 -0.11713494 1.7130001
-0.11563321 -0.11463206 1.7129999
-0.10361937 -0.10812456 1.7130001
-0.096110716 -0.10211764 1.7130001
-0.091605529 -0.097612448 1.7130001
-0.08559861 -0.096861586 1.7130001
-0.075086497 -0.094608992 1.7130002
-0.065325253 -0.092356399 1.7130001
-0.054963313 -0.08740069 1.7130001
-0.045051899 -0.083346009 1.7130001
-0.034539789 -0.082595147 1.7129999
-0.024027679 -0.079591691 1.7130001
-0.01351557 -0.075086504 1.7130001
-0.00750865 -0.070581309 1.7130001
-0.0015017299 -0.067577846 1.7130001
0.0045051901 -0.064574391 1.7129999
0.015517876 -0.062572084 1.7129999
0.025529411 -0.061570931 1.7130001
0.025529409 -0.058567468 1.7129999
0.035290655 -0.057816602 1.7130001
0.045051903 -0.055564009 1.7130001
0.052560549 -0.055564009 1.7130001
0.064574391 -0.052560549 1.7129999
0.072083041 -0.052560549 1.7130001
0.079591691 -0.04955709 1.7130001
0.085598603 -0.047755014 1.7130001
0.094608985 -0.04755478 1.7129999
0.10482075 -0.047154319 1.7130001
0.11713494 -0.04655363 1.7130001
0.12314186 -0.04655363 1.7130001
0.13665743 -0.043550175 1.7129999
0.14416608 -0.043550171 1.7130001
0.15167473 -0.043550171 1.7130001
0.16519029 -0.042048439 1.7130002
0.17570239 -0.036041521 1.7130001
0.18321106 -0.03153633 1.7130001
0.22075431 -0.033038057 1.7130001
0.18621451 -0.02853287 1.7130001
0.1952249 -0.026280275 1.7130001
0.20573699 -0.024328027 1.7130001
0.21474738 -0.023727333 1.7130001
0.22075431 -0.025529409 1.7129999
0.13165165 0.42699191 1.7129999
0.13365397 0.43099651 1.7130001
0.11863667 0.44451207 1.7130001
0.12524427 0.44451207 1.7130001
0.13215223 0.44901726 1.7130001
0.12764704 0.45202073 1.7130001
0.13065051 0.45202073 1.7130001
-0.15247162 -0.49062648 1.7220001
-0.14794277 -0.49465215 1.7220001
-0.023399111 -0.49666497 1.7220001
-0.014794276 -0.49545726 1.7220001
-0.15498765 -0.48458803 1.7220001
-0.14945237 -0.48609763 1.7220001
-0.02415392 -0.48156878 1.7220001
-0.015233438 -0.48431361 1.7220001
-0.15599407 -0.47502708 1.7220001
-0.01419043 -0.47583216 1.7220001
-0.16756782 -0.46345332 1.7220001
-0.15649728 -0.46848539 1.7220001
-0.013586581 -0.46496293 1.7220001
-0.16656141 -0.4523828 1.7220001
-0.013586579 -0.45439562 1.7220001
-0.17209668 -0.44231865 1.7220001
-0.1675678 -0.44533789 1.7220001
-0.052836701 -0.44533789 1.7220001
-0.045288604 -0.44533789 1.7220001
-0.014684484 -0.44533789 1.7220001
-0.17407081 -0.43442222 1.7220001
-0.16696398 -0.43386477 1.7220001
-0.052836701 -0.4302417 1.7220001
-0.044475731 -0.43465438 1.7220001
-0.031702019 -0.4302417 1.7220001
-0.024908729 -0.43401572 1.7220001
-0.015096201 -0.43477058 1.7220001
-0.1751159 -0.42420325 1.7220001
-0.1675678 -0.42420325 1.7220001
-0.052836701 -0.42118397 1.7220001
-0.044533793 -0.42344844 1.7220001
-0.034117412 -0.42239165 1.7220001
-0.02566354 -0.42420325 1.7220001
-0.0150962 -0.42420328 1.7220001
-0.1751159 -0.41514549 1.7220001
-0.16756782 -0.41816473 1.7220001
-0.052836701 -0.41514549 1.7220001
-0.045288604 -0.41514549 1.7220001
-0.034721259 -0.41514549 1.7220001
-0.02566354 -0.4155229 1.7220001
-0.0150962 -0.41514549 1.7220001
-0.18568327 -0.40306854 1.7220001
-0.17587072 -0.40457818 1.7220001
-0.06491366 -0.4000493 1.7220001
-0.053843111 -0.40357175 1.7220001
-0.0452886 -0.40457821 1.7220001
-0.034721259 -0.40457818 1.7220001
-0.025663542 -0.40457818 1.7220001
-0.015096201 -0.40457815 1.7220001
-0.19172174 -0.39401081 1.7220001
-0.18568327 -0.39401081 1.7220001
-0.17662553 -0.39401081 1.7220001
-0.071958549 -0.39199796 1.7220001
-0.06491366 -0.39401081 1.7220001
-0.055478536 -0.39363343 1.7220001
-0.045288604 -0.39401078 1.7220001
-0.034289937 -0.39487344 1.7220001
-0.026094859 -0.39487344 1.7220001
-0.016605821 -0.39582238 1.7220001
-0.19247656 -0.38570791 1.7220001
-0.18568327 -0.38495311 1.7220001
-0.17602168 -0.38525501 1.7220001
-0.072461762 -0.38495311 1.7220001
-0.06491366 -0.38495314 1.7220001
-0.055855937 -0.38495311 1.7220001
-0.046194375 -0.38525504 1.7220001
-0.031702019 -0.38797233 1.7220001
-0.02868278 -0.38646272 1.7220001
-0.19373457 -0.37589538 1.7220001
-0.18568325 -0.37589538 1.7220001
-0.17511593 -0.37589538 1.7220001
-0.16555499 -0.37488899 1.7220001
-0.072461762 -0.37589538 1.7220001
-0.06491366 -0.37589538 1.7220001
-0.055855945 -0.37589538 1.7220001
-0.04830784 -0.37589538 1.7220001
-0.19344702 -0.36468104 1.7220001
-0.18598518 -0.36562997 1.7220001
-0.17561913 -0.36683762 1.7220001
-0.16303895 -0.36532801 1.7220001
-0.11221508 -0.36180559 1.7220001
-0.10416379 -0.36532804 1.7220001
-0.094804145 -0.36442226 1.7220001
-0.08497005 -0.36468098 1.7220001
-0.073971376 -0.36532804 1.7220001
-0.064913653 -0.36532807 1.7220001
-0.055855937 -0.36623377 1.7220001
-0.049062651 -0.36759245 1.7220001
-0.20077945 -0.35174146 1.7220001
-0.19292945 -0.35476071 1.7220001
-0.18611456 -0.35562333 1.7220001
-0.17511591 -0.35777995 1.7220001
-0.1434139 -0.35174146 1.7220001
-0.13360137 -0.35249627 1.7220001
-0.12469461 -0.35294914 1.7220001
-0.11382534 -0.35445875 1.7220001
-0.10416378 -0.35476071 1.7220001
-0.095106058 -0.35476074 1.7220001
-0.084538728 -0.35476074 1.7220001
-0.073971376 -0.35476071 1.7220001
-0.066121355 -0.35596839 1.7220001
-0.20077945 -0.34570298 1.7220001
-0.19776022 -0.34570298 1.7220001
-0.18507941 -0.34751454 1.7220001
-0.17511591 -0.3449482 1.7220001
-0.16454858 -0.34419334 1.7220001
-0.15488701 -0.34389144 1.7220001
-0.14509124 -0.34469658 1.7220001
-0.13435619 -0.34570298 1.7220001
-0.12529846 -0.34570295 1.7220001
-0.11473113 -0.34570298 1.7220001
-0.10416379 -0.34570298 1.7220001
-0.095106058 -0.34570301 1.7220001
-0.08467596 -0.34597746 1.7220001
-0.073971376 -0.34656563 1.7220001
-0.066926487 -0.3467094 1.7220001
-0.20153427 -0.33362603 1.7220001
-0.19776022 -0.33463243 1.7220001
-0.17300245 -0.33845681 1.7220001
-0.16427408 -0.33554733 1.7220001
-0.15549086 -0.33513561 1.7220001
-0.14492352 -0.33513564 1.7220001
-0.13435619 -0.33513561 1.7220001
-0.12529846 -0.33513561 1.7220001
-0.11473113 -0.33513558 1.7220001
-0.10416379 -0.33513561 1.7220001
-0.095709905 -0.33573946 1.7220001
-0.089067578 -0.33966449 1.7220001
-0.20293604 -0.32413697 1.7220001
-0.19776022 -0.3245683 1.7220001
-0.16152933 -0.32607794 1.7220001
-0.15462823 -0.32499963 1.7220001
-0.14492352 -0.32456827 1.7220001
-0.13435619 -0.3245683 1.7220001
-0.12529846 -0.3245683 1.7220001
-0.11473111 -0.3245683 1.7220001
-0.10454119 -0.32494572 1.7220001
-0.098125301 -0.32607794 1.7220001
-0.2037987 -0.31551057 1.7220001
-0.19776022 -0.3155106 1.7220001
-0.15549086 -0.31852981 1.7220001
-0.1434139 -0.31702021 1.7220001
-0.13397877 -0.31588796 1.7220001
-0.12529846 -0.31702018 1.7220001
-0.11710338 -0.3159419 1.7220001
-0.10617661 -0.31752339 1.7220001
-0.19776022 -0.30947208 1.7220001
-0.20530832 -0.15247162 1.7220001
-0.19776022 -0.15247162 1.7220001
-0.21512085 -0.14869757 1.7220001
-0.20530832 -0.14945237 1.7220001
-0.19474097 -0.14743955 1.7220001
-0.18568325 -0.14442031 1.7220001
-0.17511591 -0.1426591 1.7220001
-0.16756782 -0.14039466 1.7220001
-0.16303895 -0.13737541 1.7220001
-0.15549086 -0.13435619 1.7220001
-0.14794275 -0.13133694 1.7220001
-0.14039466 -0.1283177 1.7220001
-0.13435619 -0.12529846 1.7220001
-0.1283177 -0.12227922 1.7220001
-0.12529846 -0.11925998 1.7220001
-0.11473112 -0.11699555 1.7220001
-0.10416379 -0.11221508 1.7220001
-0.098125301 -0.11020226 1.7220001
-0.094502218 -0.10476762 1.7220001
-0.084538721 -0.10114454 1.7220001
-0.075480998 -0.10114454 1.7220001
-0.072461754 -0.098125301 1.7220001
-0.064309813 -0.096917607 1.7220001
-0.056459792 -0.093294516 1.7220001
-0.045288596 -0.087557964 1.7220001
-0.036230877 -0.086048342 1.7220001
-0.02717316 -0.083029099 1.7220001
-0.01811544 -0.080009863 1.7220001
-0.01207696 -0.076990619 1.7220001
-0.0045288601 -0.071958549 1.7220001
0.0045288601 -0.067932896 1.7220001
0.01358658 -0.06491366 1.7220001
0.02566354 -0.061894421 1.7220001
0.034721259 -0.061894421 1.7220001
0.040759739 -0.061894421 1.7220001
0.0452886 -0.058875181 1.7220001
0.055855945 -0.057365563 1.7220001
0.06491366 -0.055855941 1.7220001
0.073971376 -0.054849532 1.7220001
0.084538721 -0.052836701 1.7220001
0.093596444 -0.052836701 1.7220001
0.10416378 -0.052836701 1.7220001
0.086048342 -0.049817462 1.7220001
0.09661568 -0.049817462 1.7220001
0.10416378 -0.049817462 1.7220001
0.11442919 -0.049213611 1.7220001
0.12529846 -0.048811048 1.7220001
0.13435619 -0.046798218 1.7220001
0.14492351 -0.0452886 1.7220001
0.15549086 -0.046798218 1.7220001
0.16454858 -0.046798218 1.7220001
0.17360631 -0.04226936 1.7220001
0.17964478 -0.037740499 1.7220001
0.18568328 -0.034721259 1.7220001
0.19172174 -0.031702019 1.7220001
0.1962506 -0.02868278 1.7220001
0.20530832 -0.02868278 1.7220001
0.21587567 -0.027676366 1.7220001
0.11925998 0.45137638 1.7220001
0.12429205 0.45540202 1.7220001
0.13133694 0.45741487 1.7220001
0.12400449 0.46560994 1.7220001
0.11925998 0.4755303 1.7220001
0.12227922 0.4755303 1.7220001
-0.0045525301 -0.4947083 1.7310003
0.0045525297 -0.49470827 1.7310003
0.0151751 -0.49470827 1.7310004
0.025507495 -0.49402708 1.7318001
0.035064038 -0.49547011 1.7390002
0.044211179 -0.49547011 1.7390002
0.05446706 -0.49519292 1.7390002
0.063521802 -0.49343738 1.739
-0.0045525301 -0.48408568 1.7310001
0.0045525301 -0.48408568 1.7310001
0.0151751 -0.48408559 1.7310003
0.02610865 -0.48358583 1.7331821
0.035064038 -0.48479834 1.7390002
0.044160333 -0.4842391 1.7370001
0.054882836 -0.48479837 1.7390002
0.064029977 -0.48479843 1.7390002
-0.0045525301 -0.47498062 1.7310001
0.0045525301 -0.47498068 1.7310001
0.015532308 -0.47468045 1.7316157
0.025590952 -0.47429615 1.7374003
0.035064038 -0.47412676 1.7390002
0.044211179 -0.47412676 1.7390002
0.054882839 -0.47412679 1.7390002
0.063521802 -0.47615945 1.739
0.11510152 -0.47565129 1.7390001
0.14482972 -0.47107771 1.7390001
-0.17147863 -0.46284056 1.7310001
-0.16844361 -0.46284056 1.7310001
-0.0045525301 -0.46587557 1.7310001
0.0045525301 -0.46587557 1.7310001
0.015197893 -0.46565163 1.7330002
0.025916897 -0.46497965 1.7390002
0.035064038 -0.46497959 1.7390002
0.044211179 -0.46497959 1.7390002
0.054577935 -0.46497959 1.7390001
0.062505454 -0.46497962 1.7390001
0.09604498 -0.46497962 1.739
0.10606326 -0.46497965 1.7390002
0.11390368 -0.46585077 1.7390002
0.12653543 -0.46497962 1.7390001
0.13619076 -0.46447146 1.7390002
0.14482972 -0.46497959 1.7390002
0.1570259 -0.46193057 1.7390001
-0.17147863 -0.45525298 1.7310001
-0.16844361 -0.45980552 1.7310001
-0.0045525297 -0.45525301 1.7310003
0.0045525301 -0.45525298 1.7310003
0.014889833 -0.45536891 1.7326003
0.025916897 -0.45583248 1.7390002
0.035064038 -0.45583248 1.7390002
0.044211179 -0.45583248 1.7390002
0.05152889 -0.45583248 1.7390001
0.097061314 -0.45786515 1.739
0.10570028 -0.45532432 1.7390002
0.11129019 -0.45583248 1.739
0.12805995 -0.45430797 1.7390001
0.13568257 -0.45583248 1.7390002
0.14482972 -0.45583248 1.7390002
0.15397686 -0.45583248 1.7390002
0.1608372 -0.45507023 1.7390001
0.1768447 -0.45278344 1.7390001
-0.17299613 -0.44766545 1.7310001
-0.0045525301 -0.44463041 1.7310001
0.0045525301 -0.44463041 1.7310001
0.015627209 -0.44420061 1.7327145
0.026174957 -0.44520426 1.7375457
0.035064038 -0.44516078 1.7390002
0.044211179 -0.44516078 1.7390002
0.054447267 -0.44450745 1.7390002
0.062505454 -0.44211179 1.7390001
0.096383758 -0.44431388 1.7390002
0.10519212 -0.44516078 1.7390002
0.11372944 -0.44577065 1.7390001
0.12566426 -0.44472519 1.7390002
0.13568258 -0.44516084 1.7390002
0.14482971 -0.44516078 1.7390002
0.15431565 -0.44397509 1.7390002
0.1626884 -0.44320074 1.7390002
0.17633653 -0.44465268 1.7390002
0.18141825 -0.4436363 1.739
-0.0042497292 -0.43511686 1.7318001
0.0045525301 -0.43552542 1.7310001
0.015110698 -0.43504253 1.7365388
0.025893519 -0.43505821 1.7372223
0.035064038 -0.43448916 1.7390002
0.044211179 -0.43448916 1.7390002
0.054882843 -0.43448916 1.7390002
0.062505454 -0.43296462 1.7390001
0.096044973 -0.43448916 1.7390002
0.10475653 -0.43448916 1.7390002
0.11433925 -0.43448913 1.7390002
0.12501091 -0.43448916 1.7390002
0.13568258 -0.43448919 1.7390002
0.14482974 -0.43448913 1.7390002
0.15397686 -0.43448919 1.7390002
0.16464852 -0.43448916 1.7390002
0.17532019 -0.43448919 1.7390002
0.18141827 -0.43144011 1.7390001
-0.18422572 -0.42399231 1.7310002
-0.0048360913 -0.42555618 1.7353638
0.0045607123 -0.42555273 1.7336669
0.014885866 -0.4255068 1.7377695
0.025590952 -0.42555761 1.7374001
0.035064038 -0.42534196 1.7390002
0.044211179 -0.42534199 1.7390002
0.054882843 -0.42534193 1.7390002
0.065118924 -0.42447087 1.7390002
0.074091837 -0.42412233 1.7390001
0.085373305 -0.42686653 1.7390001
0.096044973 -0.42621318 1.7390002
0.10519211 -0.42577758 1.7390002
0.11433925 -0.42534196 1.7390002
0.1251495 -0.42561921 1.7390002
0.13568257 -0.42534196 1.7390002
0.14482972 -0.42534196 1.7390002
0.15397687 -0.42572317 1.7390002
0.16450992 -0.42561916 1.7390002
0.17493904 -0.42496088 1.7390002
0.18141825 -0.42534199 1.739
-0.18448587 -0.41384667 1.7310001
-0.0045648026 -0.41419169 1.7370001
0.0045716572 -0.4149133 1.7382729
0.01524523 -0.41467035 1.7390002
0.025916897 -0.41467032 1.7390002
0.035064038 -0.41467038 1.7390002
0.044211179 -0.41467032 1.7390002
0.054882839 -0.41467032 1.7390002
0.064029977 -0.41619483 1.7390002
0.073177122 -0.4192439 1.7390001
0.096044973 -0.4192439 1.7390001
0.1051921 -0.4180243 1.7390001
0.11461642 -0.41480893 1.7390002
0.12687422 -0.41551727 1.7390002
0.13568258 -0.41467026 1.7390002
0.14482974 -0.41467035 1.7390002
0.1532146 -0.4116213 1.7390001
0.16464852 -0.41467032 1.7390002
0.17532019 -0.41467032 1.7390002
0.18141827 -0.41467035 1.7390001
-0.19272377 -0.40365767 1.7310001
-0.18665373 -0.40517518 1.7310001
-0.0049911141 -0.40327078 1.7321428
0.0049406742 -0.40412229 1.733
0.015235879 -0.40368894 1.7376667
0.025916897 -0.40399867 1.7390002
0.035064038 -0.4039987 1.7390002
0.044211179 -0.4039987 1.7390002
0.054273032 -0.40460849 1.7390001
0.062505454 -0.40552318 1.7390001
0.11472038 -0.40437981 1.7390002
0.12602726 -0.40501502 1.7390002
0.13507277 -0.40460849 1.7390001
0.14482972 -0.4039987 1.7390002
0.15397686 -0.40361756 1.7390002
0.16464853 -0.4039987 1.7390002
0.17532018 -0.40399867 1.7390002
0.18141825 -0.40399864 1.739
-0.18665373 -0.39607009 1.7310001
-0.036420241 -0.39151758 1.7310001
-0.024280161 -0.39151758 1.7310001
-0.014485324 -0.39303511 1.7310002
-0.0042938339 -0.39562491 1.7375457
0.004291283 -0.39529335 1.7360911
0.015245232 -0.39485157 1.7390002
0.024697278 -0.39607114 1.7390001
0.035064034 -0.39713833 1.7390001
0.043601368 -0.39668098 1.7390001
0.051833794 -0.39790058 1.7390001
0.12653543 -0.39485154 1.7390001
0.13263352 -0.39790058 1.7390001
0.1452653 -0.39572269 1.7390002
0.15484801 -0.39528713 1.7390002
0.16464852 -0.39485154 1.7390002
0.17532018 -0.39485154 1.7390002
0.18141825 -0.39485154 1.739
-0.041731525 -0.38317129 1.7310001
-0.034902729 -0.38393 1.7310001
-0.025418293 -0.3835507 1.7310001
-0.0151751 -0.38393006 1.7310003
-0.0045735701 -0.3857044 1.7390002
0.0045735701 -0.3857044 1.7390002
0.014059492 -0.38638198 1.7390002
0.12653543 -0.3857044 1.739
0.15550138 -0.38722891 1.7390001
0.16464852 -0.3857044 1.7390002
0.17532019 -0.3857044 1.7390002
0.18141825 -0.3857044 1.739
-0.19272377 -0.37482497 1.7310001
-0.042490285 -0.37482497 1.7310001
-0.034902729 -0.37482494 1.7310001
-0.025797671 -0.374825 1.7310001
-0.0151751 -0.374825 1.7310003
-0.0045735701 -0.37503275 1.7390002
0.0041379919 -0.37742838 1.7390002
0.010671663 -0.37655726 1.7390001
0.16769756 -0.37960631 1.7390001
0.17684469 -0.37808177 1.7390001
0.18141827 -0.37503272 1.7390001
-0.054124523 -0.36268488 1.7310001
-0.044007789 -0.36571988 1.7310001
-0.034902733 -0.36571985 1.7310001
-0.025797671 -0.36571991 1.7310001
-0.01519063 -0.36520988 1.7327147
-0.0045735701 -0.36436102 1.7390002
0.18141827 -0.36741012 1.7390001
-0.19474711 -0.35256815 1.7310001
-0.063735418 -0.35357985 1.7310001
-0.054630361 -0.35509738 1.7310004
-0.044007789 -0.35509732 1.7310003
-0.035209246 -0.35580578 1.7324548
-0.025837412 -0.35715953 1.7336669
-0.015727691 -0.35737172 1.7363334
-0.19424129 -0.34447479 1.7310001
-0.18564206 -0.34346309 1.7310001
-0.08346305 -0.34219852 1.7310001
-0.074357986 -0.34265375 1.7310002
-0.064819358 -0.34360763 1.7310001
-0.054688219 -0.3448728 1.7330003
-0.044211179 -0.3460668 1.7390002
-0.035935193 -0.34606677 1.7390002
-0.028965943 -0.34454226 1.7390001
-0.20182882 -0.33840472 1.7310001
-0.19489165 -0.33580324 1.7310001
-0.1851362 -0.33536968 1.7310003
-0.17494723 -0.33450255 1.7310001
-0.16844361 -0.3323347 1.7310001
-0.092568107 -0.3338522 1.7310001
-0.08498057 -0.33536968 1.7310003
-0.074357986 -0.33536971 1.7310001
-0.06525293 -0.33536971 1.7310001
-0.054783776 -0.33481297 1.7360003
-0.044646759 -0.33779082 1.7390002
-0.038113084 -0.33844417 1.7390001
-0.19424129 -0.32474715 1.7310001
-0.18513621 -0.32474715 1.7310004
-0.17451365 -0.32474715 1.7310003
-0.16601558 -0.32414013 1.7310002
-0.15630352 -0.32201561 1.7310002
-0.11077823 -0.3201946 1.7310001
-0.10167317 -0.32171214 1.7310001
-0.094996117 -0.32414013 1.7310002
-0.084980562 -0.32474717 1.7310004
-0.074386626 -0.32487163 1.7316669
-0.065252922 -0.32474712 1.7310003
-0.054882843 -0.32472345 1.7390002
-0.046243876 -0.32573983 1.739
-0.21193987 -0.31372523 1.733
-0.20486385 -0.31108955 1.7310001
-0.19424129 -0.31412458 1.7310001
-0.18513621 -0.31412455 1.7310003
-0.17451364 -0.31412455 1.7310001
-0.16540858 -0.31412458 1.7310001
-0.15478604 -0.31412458 1.7310003
-0.14416344 -0.31260705 1.7310001
-0.13581714 -0.31184828 1.7310001
-0.12595333 -0.31260705 1.7310001
-0.11381325 -0.31336582 1.7310001
-0.10432882 -0.3137452 1.7310001
-0.09569975 -0.31444407 1.7327778
-0.085109137 -0.31460497 1.7336669
-0.074472547 -0.31460845 1.7336668
-0.065417349 -0.31492797 1.7354445
-0.055492651 -0.31618616 1.7390001
-0.21190874 -0.30947822 1.7390001
-0.2049395 -0.30642918 1.7390002
-0.19538262 -0.30450484 1.7384669
-0.18422571 -0.30532303 1.7310002
-0.17451364 -0.30501953 1.7310001
-0.16540858 -0.3050195 1.7310001
-0.15478604 -0.30501953 1.7310003
-0.14416344 -0.3050195 1.7310001
-0.1350584 -0.30501953 1.7310001
-0.12595333 -0.30501953 1.7310001
-0.11533076 -0.30501947 1.7310003
-0.10470819 -0.30501953 1.7310001
-0.095643453 -0.30493599 1.7368183
-0.085678212 -0.30520961 1.7390002
-0.074701644 -0.30532038 1.7390002
-0.06623207 -0.30609041 1.7390002
-0.057931885 -0.30642918 1.7390002
-0.20276161 -0.29423299 1.739
-0.1946308 -0.29423296 1.7390002
-0.18361871 -0.29591444 1.7310001
-0.17451364 -0.29591444 1.7310001
-0.16540858 -0.29591441 1.7310001
-0.15478604 -0.29591444 1.7310003
-0.1440074 -0.29505438 1.7324547
-0.13544907 -0.29505435 1.7324547
-0.12543243 -0.29495743 1.7343336
-0.11520164 -0.29514885 1.7336669
-0.10490983 -0.29495743 1.7343334
-0.09630429 -0.29470465 1.7382002
-0.087278962 -0.29385185 1.7390002
-0.07775069 -0.29270846 1.7390001
-0.19483408 -0.28691527 1.7390001
-0.18425517 -0.28627548 1.7370001
-0.17475098 -0.28654033 1.7360911
-0.16497424 -0.28560373 1.7355717
-0.15448783 -0.2863802 1.7350003
-0.14506659 -0.28556171 1.7382002
-0.13531664 -0.28556171 1.7382002
-0.12481813 -0.28607279 1.7382729
-0.11535559 -0.28610221 1.7390002
-0.10432095 -0.28552145 1.7390002
-0.09604498 -0.28508583 1.7390002
-0.085373305 -0.28447607 1.7390001
-0.07775069 -0.28508589 1.739
-0.16363217 -0.27797142 1.7390002
-0.15397686 -0.27593872 1.7390002
-0.14482974 -0.27593872 1.7390002
-0.13568257 -0.27593872 1.7390002
-0.12226677 -0.27654853 1.7390001
-0.11738829 -0.27746326 1.7390001
-0.10519211 -0.27898777 1.7390001
-0.083848782 -0.27898777 1.7390001
-0.15245233 -0.26984063 1.7390001
-0.1433052 -0.26984063 1.7390001
-0.13568257 -0.26984063 1.739
-0.19666351 -0.16007495 1.7390001
-0.21429385 -0.15452097 1.7336668
-0.20381974 -0.15666471 1.7350001
-0.19457529 -0.15429817 1.7340001
-0.18568355 -0.15257321 1.7345556
-0.17567566 -0.15134293 1.7350001
-0.16617304 -0.15092781 1.739
-0.18361871 -0.14719847 1.7310001
-0.17395303 -0.14660978 1.733
-0.16434273 -0.14456601 1.7358001
-0.15550138 -0.14178067 1.7390001
-0.14787877 -0.14178067 1.7390001
-0.15401438 -0.13761406 1.7326
-0.14394888 -0.13559732 1.733
-0.13704756 -0.13400552 1.7370002
-0.13303503 -0.12797667 1.7310001
-0.12519723 -0.12655394 1.7345557
-0.11720362 -0.12329704 1.7363334
-0.10671663 -0.12196186 1.7390001
-0.1117899 -0.11887162 1.7310001
-0.10480217 -0.11695628 1.7326
-0.095261231 -0.11291484 1.7358001
-0.085169911 -0.11103421 1.7350001
-0.07775069 -0.1112902 1.7390001
-0.092568107 -0.10774321 1.7310001
-0.084980562 -0.1062257 1.7310001
-0.074020602 -0.10571761 1.7332858
-0.066415392 -0.10393848 1.7350001
-0.057931885 -0.10214306 1.7390001
-0.053214043 -0.097097225 1.7344286
-0.044919088 -0.093651228 1.737
-0.038113084 -0.092995919 1.7390001
-0.040972769 -0.089533091 1.7310001
-0.034902725 -0.088521421 1.7310001
-0.025864296 -0.085180439 1.7350001
-0.014194987 -0.082644247 1.735
-0.0060980935 -0.080799736 1.7390001
-0.003951137 -0.076322064 1.7342001
0.0041289749 -0.073689222 1.7355715
0.014220702 -0.072614007 1.7376667
0.025916897 -0.071652599 1.739
0.035064038 -0.071652599 1.739
0.044211179 -0.071652599 1.739
0.050309271 -0.071652599 1.7390001
0.016201969 -0.067328878 1.7323333
0.025797671 -0.066770442 1.7310001
0.034931954 -0.066823035 1.7323333
0.044463437 -0.065750659 1.7340001
0.054375254 -0.065172754 1.7360911
0.0655545 -0.064029977 1.7390002
0.074701644 -0.062505454 1.739
0.085373305 -0.062505454 1.7390001
0.092995919 -0.062505454 1.7390001
0.05918289 -0.05918289 1.7310001
0.065252922 -0.059182893 1.7310001
0.075116746 -0.058424138 1.7310001
0.085032284 -0.057699569 1.732
0.096291192 -0.057169311 1.7355716
0.10488966 -0.056629818 1.7340001
0.11463205 -0.05595237 1.7342001
0.12532505 -0.054971967 1.7363335
0.13497949 -0.052387971 1.7355716
0.14466314 -0.052919324 1.7370001
0.15429771 -0.052959431 1.7358001
0.16436185 -0.052509263 1.7360002
0.17532018 -0.051071532 1.7390001
0.14568096 -0.047042809 1.7310001
0.15023349 -0.047042809 1.7310001
0.17547753 -0.046338409 1.733
0.18317278 -0.04312937 1.7363335
0.19208995 -0.041162129 1.7390001
0.20581065 -0.041162129 1.7390001
0.21190874 -0.041162129 1.7390001
0.18817124 -0.037937749 1.7310001
0.19636609 -0.035325941 1.7330002
0.20517945 -0.034961175 1.7336668
0.21358953 -0.034523353 1.7310001
0.22003895 -0.033385217 1.7310001
0.21700393 -0.028832689 1.7310001
0.11988329 0.45828801 1.7310001
0.11988329 0.46587554 1.7310001
0.12747085 0.46511683 1.7310001
0.13202336 0.46284056 1.7310001
0.12747085 0.47498062 1.7310001
0.0681924 -0.4957357 1.748
0.075526081 -0.49409387 1.748
0.085815147 -0.49496949 1.748
0.094243415 -0.49650192 1.748
0.10661218 -0.49540734 1.748
0.114931 -0.49496952 1.748
0.12208226 -0.49292627 1.748
0.068958603 -0.48577499 1.748
0.075088255 -0.48577499 1.748
0.0848957 -0.48516208 1.7479999
0.095179893 -0.48543447 1.748
0.10573652 -0.48577499 1.748
0.114931 -0.48577505 1.748
0.12412548 -0.48577499 1.748
0.13148105 -0.48516208 1.7479999
0.14557926 -0.48271018 1.748
0.056699295 -0.47045088 1.748
0.066574842 -0.4738563 1.748
0.075088255 -0.47504809 1.7479998
0.084282734 -0.47504815 1.7479998
0.09490747 -0.47535461 1.7479997
0.10543003 -0.47596759 1.7479999
0.11431804 -0.47535461 1.7479999
0.12412547 -0.47504809 1.7479998
0.1347502 -0.47535461 1.7479997
0.14557928 -0.47696367 1.748
0.15449513 -0.47463024 1.7479999
0.16396822 -0.47504815 1.7479998
0.1757897 -0.47264007 1.748
0.18235719 -0.47658053 1.748
0.057720903 -0.46227801 1.748
0.066276878 -0.46393815 1.748
0.075088255 -0.46432126 1.748
0.084282734 -0.4643212 1.748
0.093860313 -0.46470433 1.748
0.10267169 -0.46278882 1.748
0.11646341 -0.46278882 1.748
0.12374238 -0.46393812 1.748
0.13102135 -0.46432126 1.748
0.15426295 -0.46534279 1.748
0.16435133 -0.46470436 1.748
0.17554647 -0.46364015 1.748
0.18235719 -0.46125641 1.748
0.057574958 -0.45556459 1.748
0.065893769 -0.45512676 1.748
0.075088255 -0.45742536 1.748
0.085815147 -0.45589295 1.748
0.094158277 -0.45546728 1.748
0.10573652 -0.45819157 1.748
0.11646342 -0.45665917 1.748
0.12228658 -0.45573974 1.7479999
0.15400754 -0.45436054 1.748
0.1658071 -0.45512676 1.7479999
0.1731627 -0.45589295 1.748
0.18235719 -0.45512676 1.748
0.066769436 -0.44637012 1.748
0.075088255 -0.44593227 1.748
0.084665842 -0.44631541 1.748
0.092864245 -0.44715819 1.7479999
0.11799583 -0.44439986 1.748
0.12106065 -0.44899711 1.748
0.15477374 -0.44899711 1.748
0.16550064 -0.44746467 1.748
0.17163029 -0.4474647 1.748
0.18542202 -0.4459323 1.748
0.066915378 -0.43571618 1.748
0.075088255 -0.43520537 1.7479998
0.084282734 -0.43520543 1.7479998
0.092864245 -0.43673778 1.7479999
0.10726893 -0.43673781 1.748
0.17929237 -0.43060815 1.748
0.18542202 -0.43597159 1.748
0.19563811 -0.43418375 1.748
0.20350449 -0.43428594 1.7479999
0.21453786 -0.43060815 1.748
0.078153081 -0.4229461 1.748
0.084665842 -0.42409542 1.748
0.093915045 -0.42360282 1.748
0.10573652 -0.42601091 1.748
0.12310388 -0.42243528 1.748
0.15477374 -0.42217988 1.748
0.16703305 -0.4244785 1.748
0.18695444 -0.42447853 1.748
0.1946165 -0.4244785 1.748
0.20534341 -0.4244785 1.7479998
0.21607028 -0.4244785 1.748
0.22424315 -0.4244785 1.748
0.06742619 -0.41528401 1.748
0.075088255 -0.41528404 1.748
0.084282734 -0.41528404 1.748
0.095009625 -0.41528404 1.7479998
0.10573651 -0.41440839 1.748
0.11186618 -0.41528401 1.748
0.12351252 -0.41344514 1.7479999
0.15538672 -0.41650996 1.7479999
0.18695444 -0.41528401 1.748
0.1946165 -0.41528404 1.748
0.20534337 -0.41528395 1.7479998
0.21607028 -0.41528401 1.748
0.22526476 -0.41528404 1.748
0.23139441 -0.4122192 1.748
0.058231708 -0.4030247 1.748
0.066404574 -0.40608954 1.748
0.074705154 -0.40647265 1.748
0.084282734 -0.40608954 1.748
0.095009625 -0.40608954 1.7479998
0.10573652 -0.40608954 1.748
0.11186618 -0.4030247 1.748
0.12182686 -0.40532333 1.748
0.13485236 -0.40506792 1.748
0.15477374 -0.40915436 1.748
0.18695444 -0.40608954 1.748
0.19499961 -0.40647265 1.748
0.20534338 -0.40608954 1.7479998
0.21607028 -0.40608954 1.748
0.22526476 -0.40608954 1.748
0.23358357 -0.40565172 1.748
0.026926693 -0.39339235 1.748
0.035245508 -0.39344713 1.748
0.04487782 -0.39295456 1.748
0.055604719 -0.39470586 1.7479998
0.06344191 -0.39444321 1.7479999
0.075701222 -0.3947497 1.7479999
0.084282726 -0.39536262 1.7479998
0.095009625 -0.39536259 1.7479997
0.10650272 -0.39651197 1.748
0.11520962 -0.39578056 1.7479999
0.12310389 -0.39553294 1.748
0.13495453 -0.39505616 1.7479997
0.1449663 -0.39199132 1.7479999
0.15170892 -0.39383021 1.748
0.18695442 -0.39536265 1.748
0.19522946 -0.3947497 1.7479999
0.20534338 -0.39536259 1.7479997
0.21607025 -0.39536262 1.7479998
0.22526474 -0.39536259 1.7479998
0.23445922 -0.39578056 1.7479999
0.016345741 -0.38361409 1.748
0.026051028 -0.38770056 1.748
0.035245508 -0.38770056 1.748
0.045315653 -0.38507357 1.748
0.055584811 -0.38435709 1.7479999
0.064667843 -0.38463575 1.7479999
0.075088255 -0.38463572 1.748
0.084720559 -0.3855114 1.748
0.094498821 -0.38565731 1.748
0.10573652 -0.38616815 1.748
0.11697421 -0.38667893 1.748
0.12324982 -0.38419789 1.748
0.13485236 -0.38463572 1.7479998
0.14557926 -0.38463575 1.748
0.1543359 -0.38376006 1.748
0.1624358 -0.38157091 1.748
0.1731627 -0.38157091 1.748
0.18695442 -0.38463572 1.748
0.1946165 -0.38463569 1.748
0.20534337 -0.38463569 1.7479998
0.21519461 -0.38507357 1.748
0.22465178 -0.38647464 1.7479999
0.23139441 -0.38770056 1.748
0.0052102054 -0.37360239 1.7479999
0.013178754 -0.37544125 1.7479999
0.054400671 -0.37390888 1.748
0.06665998 -0.37620747 1.748
0.073555842 -0.37697369 1.748
0.085815154 -0.37544122 1.748
0.090412386 -0.37544128 1.748
0.10573652 -0.37850609 1.748
0.12450858 -0.37544128 1.748
0.13485236 -0.37544128 1.7479998
0.14557926 -0.37544128 1.748
0.15477376 -0.37544128 1.748
0.16396824 -0.37544125 1.748
0.17408215 -0.37482831 1.7479999
0.18695444 -0.37544128 1.748
0.1946165 -0.37544125 1.748
0.20492548 -0.3757199 1.7479999
0.21402705 -0.37748447 1.748
-0.0045972397 -0.36011711 1.748
0.0038310331 -0.36624676 1.748
0.051591247 -0.36828998 1.748
0.12412548 -0.36854541 1.748
0.13485236 -0.36828998 1.748
0.14557926 -0.36808568 1.7479999
0.15608725 -0.36624676 1.748
0.16396822 -0.36471438 1.7479998
0.17469512 -0.36471438 1.7479997
0.18312339 -0.36471435 1.748
0.20381097 -0.3693116 1.748
0.21300545 -0.3693116 1.748
-0.032180678 -0.35245508 1.748
-0.026051028 -0.35245505 1.748
-0.014813329 -0.35296586 1.748
-0.0045972397 -0.3570523 1.748
0.0015324133 -0.3570523 1.748
0.015834937 -0.35296586 1.748
0.15630615 -0.35398749 1.748
0.16396822 -0.35551989 1.748
0.17469512 -0.35460046 1.7479999
0.18235719 -0.35551989 1.748
-0.033202291 -0.3427498 1.748
-0.025175363 -0.3443552 1.748
-0.015324134 -0.34479305 1.7479998
-0.04382702 -0.33375961 1.7479999
-0.034862403 -0.33521542 1.748
-0.026051028 -0.3355985 1.748
-0.015017651 -0.33590496 1.7479999
-0.043758914 -0.32402027 1.748
-0.035628609 -0.32678714 1.748
-0.026561832 -0.32742563 1.748
-0.21607028 -0.31107992 1.748
-0.052102052 -0.31261232 1.748
-0.044439986 -0.31414476 1.748
-0.037544128 -0.31491095 1.748
-0.21453786 -0.30495027 1.748
-0.20810172 -0.30433726 1.7479999
-0.081217907 -0.30188543 1.748
-0.075088255 -0.30188543 1.748
-0.063850552 -0.30290702 1.748
-0.053634465 -0.30418402 1.748
-0.04487782 -0.30538806 1.748
-0.21423137 -0.29636872 1.7479999
-0.20840822 -0.29575574 1.748
-0.19768132 -0.29575577 1.748
-0.08198411 -0.29652196 1.748
-0.074212596 -0.2961936 1.748
-0.066276878 -0.29613888 1.748
-0.055166878 -0.29728815 1.748
-0.045461595 -0.29779899 1.748
-0.21402705 -0.28247485 1.748
-0.20569703 -0.28467527 1.7479998
-0.19461648 -0.28502887 1.748
-0.18542202 -0.28043163 1.748
-0.17699374 -0.28119785 1.748
-0.13025513 -0.28196406 1.748
-0.12719031 -0.28196406 1.748
-0.1130921 -0.2828835 1.7479999
-0.10726893 -0.28273025 1.748
-0.094090179 -0.28227052 1.7479999
-0.083261125 -0.28349647 1.748
-0.074066654 -0.28451809 1.748
-0.066769436 -0.28656128 1.748
-0.21453786 -0.27736682 1.748
-0.20381097 -0.27736682 1.748
-0.19155167 -0.27736682 1.748
-0.18542202 -0.27583441 1.748
-0.17408213 -0.27491495 1.7479999
-0.16440606 -0.27342632 1.748
-0.15783857 -0.27123716 1.748
-0.14864409 -0.27123716 1.748
-0.13025513 -0.27430201 1.748
-0.12463629 -0.27328035 1.748
-0.1145479 -0.2739189 1.748
-0.10573652 -0.27430198 1.748
-0.095009625 -0.27430198 1.7479998
-0.084282734 -0.27430201 1.748
-0.075526096 -0.27517769 1.748
-0.066915385 -0.2753236 1.748
-0.161925 -0.26715073 1.748
-0.15439063 -0.26549062 1.748
-0.14557926 -0.26510751 1.748
-0.13485236 -0.26510748 1.7479998
-0.12412548 -0.26510748 1.748
-0.11493102 -0.26510751 1.748
-0.10573652 -0.26510751 1.748
-0.095520422 -0.26612914 1.748
-0.086325951 -0.26715073 1.748
-0.15170892 -0.25897786 1.748
-0.14557926 -0.25897786 1.748
-0.13419563 -0.25766438 1.748
-0.12412548 -0.25897786 1.748
-0.11493101 -0.25897786 1.748
-0.10573652 -0.25897786 1.748
-0.20227855 -0.16090339 1.748
-0.21607028 -0.15783857 1.748
-0.20994063 -0.15783857 1.748
-0.16090339 -0.15170892 1.748
-0.15477374 -0.15170892 1.748
-0.14711168 -0.15170892 1.748
-0.16090339 -0.14864409 1.748
-0.1543359 -0.14645493 1.748
-0.14519615 -0.14596237 1.748
-0.138428 -0.14353605 1.748
-0.13454589 -0.13638479 1.7479999
-0.12412548 -0.13178754 1.748
-0.11493101 -0.12616868 1.748
-0.10573652 -0.12489168 1.748
-0.098074451 -0.12106065 1.748
-0.094090179 -0.11738286 1.7479999
-0.085815147 -0.114931 1.748
-0.073555842 -0.11186618 1.748
-0.064361356 -0.10726893 1.748
-0.056699295 -0.10471491 1.748
-0.044439986 -0.097563647 1.748
-0.034479301 -0.093477212 1.748
-0.026051028 -0.090412386 1.748
-0.024518613 -0.08734756 1.748
-0.015324133 -0.08734756 1.748
-0.0045972397 -0.083261125 1.748
0.0045972401 -0.081217907 1.748
0.010726893 -0.081217907 1.748
0.0061296532 -0.078153081 1.748
0.015324133 -0.076620668 1.748
0.026051028 -0.075088255 1.748
0.035245508 -0.075088255 1.748
0.042907573 -0.075088255 1.748
0.056699291 -0.072023429 1.748
0.064361356 -0.072023429 1.748
0.059764121 -0.068958603 1.748
0.065893769 -0.068958603 1.748
0.074475288 -0.067119703 1.7479999
0.084282734 -0.065893769 1.748
0.098074451 -0.062828943 1.748
0.10573652 -0.062828943 1.748
0.11493101 -0.062828943 1.748
0.12106065 -0.062828943 1.748
0.12565789 -0.059764121 1.748
0.13485236 -0.058231708 1.748
0.14557926 -0.058997914 1.748
0.15477373 -0.059764121 1.748
0.16396822 -0.058231708 1.748
0.17546132 -0.057082396 1.748
0.18235719 -0.055166878 1.748
0.18746524 -0.046483204 1.748
0.1946165 -0.044950794 1.748
0.20381097 -0.043214057 1.7479999
0.083484441 -0.4956696 1.7570002
0.094471939 -0.49546424 1.7570001
0.10166002 -0.49597767 1.7570001
0.12681831 -0.4964911 1.7570001
0.13462251 -0.49320513 1.7570002
0.14478852 -0.49135676 1.7570001
0.15249003 -0.49289706 1.7570001
0.084716685 -0.48827615 1.7570001
0.095498808 -0.48827615 1.7570001
0.137087 -0.48673585 1.7570001
0.14456847 -0.48695591 1.7570001
0.15557064 -0.48519555 1.7570002
0.16327216 -0.48519555 1.7570001
0.17251398 -0.48211494 1.7570001
0.17405428 -0.47718596 1.7570002
0.1832961 -0.47441342 1.7570001
0.084716685 -0.4605507 1.7570001
0.17302741 -0.46876565 1.7570001
0.18432297 -0.46568504 1.7570001
0.19561853 -0.462091 1.7570001
0.075474866 -0.45562172 1.7570002
0.083176382 -0.45592979 1.7570001
0.18822506 -0.45500559 1.7570002
0.19561853 -0.45438951 1.7570001
0.20398018 -0.4548296 1.7570001
0.081636079 -0.44514766 1.7570001
0.18945731 -0.44514766 1.7570001
0.19561853 -0.44553277 1.7570001
0.20524542 -0.44553277 1.7570001
0.21487232 -0.44360736 1.7570001
0.22686468 -0.44514769 1.7570001
0.23443417 -0.44514766 1.7570002
0.24336793 -0.44514766 1.7570001
0.18945731 -0.43282524 1.7570001
0.19407822 -0.436676 1.7570001
0.21366207 -0.43678603 1.7570001
0.22474428 -0.43562582 1.7570001
0.2325858 -0.43282524 1.7570001
0.22847833 -0.42666402 1.7570001
0.23434615 -0.42402354 1.7570001
0.24798883 -0.42666402 1.7570001
0.23669328 -0.41536847 1.7570001
0.24490823 -0.41395655 1.7570001
0.25106946 -0.4128013 1.7570001
0.068286784 -0.40304604 1.7570001
0.075474866 -0.40355948 1.7570001
0.19253792 -0.40355948 1.7570001
0.23874702 -0.40818039 1.7570001
0.24336793 -0.40509978 1.7570001
0.068081409 -0.39647406 1.7570002
0.072394259 -0.39893857 1.7570001
0.10474063 -0.39508781 1.7570001
0.11244214 -0.39277735 1.7570001
0.19253792 -0.39893857 1.7570001
0.23566641 -0.39277735 1.7570001
0.24490823 -0.39585799 1.7570001
0.25106946 -0.39585796 1.7570001
0.025064938 -0.38325551 1.7570001
0.035426978 -0.38353556 1.7570001
0.043436553 -0.3823033 1.7570002
0.053140465 -0.38276538 1.7570001
0.065792955 -0.38397565 1.7570001
0.075474866 -0.38045493 1.7570001
0.082662947 -0.38250867 1.7570001
0.095498808 -0.38199523 1.7570001
0.10516071 -0.38437575 1.7570001
0.11483818 -0.38387787 1.7570001
0.2248843 -0.38291946 1.7570002
0.23594648 -0.38465577 1.7570001
0.24462819 -0.38549596 1.7570001
0.014889599 -0.37378028 1.7570001
0.024644854 -0.37429377 1.7570001
0.035426978 -0.37429374 1.7570001
0.044668797 -0.37429374 1.7570001
0.05545092 -0.37506387 1.7570001
0.064692743 -0.37275344 1.7570001
0.075859942 -0.37390867 1.7570001
0.083484441 -0.37306148 1.7570002
0.094838679 -0.37385365 1.7570001
0.10474063 -0.37429377 1.7570001
0.11552276 -0.37429374 1.7570001
0.12168396 -0.37737432 1.7570001
0.18945731 -0.37121311 1.7570001
0.19561853 -0.37121311 1.7570001
0.20486034 -0.37121311 1.7570001
0.2146156 -0.37378028 1.7570001
0.22488432 -0.37429377 1.7570001
0.23381805 -0.37367758 1.7570002
0.0061612134 -0.36351159 1.7570001
0.01386273 -0.36505193 1.7570001
0.024644854 -0.36505195 1.7570001
0.035426978 -0.36505193 1.7570001
0.044668797 -0.36505193 1.7570001
0.054295693 -0.36466685 1.7570001
0.064832769 -0.36533201 1.7570001
0.075859942 -0.365437 1.7570001
0.084716685 -0.36505193 1.7570001
0.09344507 -0.36556533 1.7570001
0.10628093 -0.3681325 1.7570001
0.11603618 -0.36607876 1.7570001
0.12476457 -0.36466685 1.7570001
0.13439147 -0.36466685 1.7570001
0.14495966 -0.36402506 1.7570001
0.15372227 -0.36443576 1.7570002
0.18791701 -0.3650519 1.7570001
0.19561853 -0.36505193 1.7570001
0.20486034 -0.36505193 1.7570001
0.21410216 -0.36505193 1.7570001
0.22488432 -0.36505195 1.7570001
0.23412611 -0.3650519 1.7570001
-0.0046209102 -0.35426977 1.7570001
0.005005986 -0.35542503 1.7570001
0.01386273 -0.3562502 1.7570001
0.025260976 -0.35550207 1.7570002
0.033578612 -0.35519394 1.7570002
0.047749404 -0.35889068 1.7570001
0.053910617 -0.35889068 1.7570001
0.064692743 -0.35889068 1.7570001
0.077015169 -0.35889068 1.7570001
0.084716685 -0.35889068 1.7570001
0.093958504 -0.35889068 1.7570001
0.12538069 -0.35765845 1.7570002
0.1340064 -0.35735038 1.7570001
0.14461738 -0.35683697 1.7570001
0.15557064 -0.35704231 1.7570002
0.16481246 -0.35457784 1.7570002
0.17097367 -0.35272947 1.7570001
0.18586327 -0.35581008 1.7570001
0.19561853 -0.35735038 1.7570001
0.20486034 -0.35735038 1.7570001
0.21454225 -0.35669026 1.7570001
0.22437085 -0.35683697 1.7570001
0.23412611 -0.35735038 1.7570001
-0.0046209102 -0.34502801 1.7570001
0.0046209102 -0.34554142 1.7570001
0.013582676 -0.34544808 1.7570001
0.023384606 -0.34628823 1.7570001
0.032346372 -0.34810856 1.7570001
0.14555867 -0.3442578 1.7570001
0.15625522 -0.34382999 1.7570001
0.16515476 -0.34451455 1.7570001
0.17405428 -0.34656829 1.7570001
0.1832961 -0.34810856 1.7570001
0.21718277 -0.34502795 1.7570001
0.22158363 -0.34436783 1.7570001
-0.020023944 -0.33116522 1.7570001
-0.015094973 -0.33301359 1.7570002
-0.0077015166 -0.33578613 1.7570001
0.0077015166 -0.33732644 1.7570001
0.01386273 -0.33732644 1.7570001
0.15865125 -0.33732644 1.7570001
0.22026338 -0.33732644 1.7570001
-0.034656826 -0.32269356 1.7570001
-0.02378913 -0.32431945 1.7570001
-0.01386273 -0.32500401 1.7570001
-0.033578612 -0.31514606 1.7570002
-0.024644854 -0.31576222 1.7570001
-0.01386273 -0.31576219 1.7570001
-0.043641929 -0.30343977 1.7570001
-0.035426978 -0.3049801 1.7570001
-0.024644854 -0.3049801 1.7570001
-0.01386273 -0.3049801 1.7570001
-0.2161559 -0.29214421 1.7570001
-0.061612137 -0.29265764 1.7570001
-0.053910617 -0.29265764 1.7570001
-0.044283722 -0.29381287 1.7570001
-0.035426978 -0.29419795 1.7570001
-0.024644854 -0.29419798 1.7570001
-0.014742903 -0.29419795 1.7570001
-0.21410216 -0.28700987 1.7570001
-0.19767226 -0.28290239 1.7570001
-0.06315244 -0.28363585 1.7570001
-0.053910617 -0.28495613 1.7570001
-0.044668797 -0.28495613 1.7570001
-0.035426978 -0.28495613 1.7570001
-0.024644854 -0.28495616 1.7570001
-0.015711095 -0.28557223 1.7570002
-0.21102156 -0.27879491 1.7570001
-0.20424423 -0.27448207 1.7570002
-0.19561853 -0.27571431 1.7570001
-0.1848364 -0.2726337 1.7570001
-0.17713489 -0.2726337 1.7570001
-0.073934563 -0.2726337 1.7570001
-0.063837022 -0.27537203 1.7570001
-0.053910617 -0.27571431 1.7570001
-0.044668797 -0.27571431 1.7570001
-0.036307152 -0.27615437 1.7570001
-0.026625244 -0.27659446 1.7570001
-0.20177974 -0.2695531 1.7570001
-0.18124236 -0.26852623 1.7570001
-0.1736692 -0.26685756 1.7570001
-0.16549703 -0.26373419 1.7570001
-0.15762438 -0.26133814 1.7570001
-0.10011972 -0.26031128 1.7570001
-0.093958504 -0.26185158 1.7570001
-0.084032103 -0.26373419 1.7570001
-0.075474866 -0.26493222 1.7570001
-0.065000802 -0.26524028 1.7570001
-0.054350704 -0.26735264 1.7570001
-0.047749404 -0.2695531 1.7570001
-0.16173185 -0.25569037 1.7570001
-0.15513055 -0.25503021 1.7570001
-0.14478852 -0.25415009 1.7570001
-0.1340064 -0.25260976 1.7570001
-0.12476458 -0.25415006 1.7570001
-0.11552276 -0.25415006 1.7570001
-0.10474063 -0.25415009 1.7570001
-0.093958504 -0.25415006 1.7570001
-0.084716685 -0.25415006 1.7570001
-0.075474866 -0.25415006 1.7570001
-0.066233046 -0.25599843 1.7570002
-0.14544865 -0.24666858 1.7570001
-0.13451983 -0.2459351 1.7570001
-0.12476457 -0.24798883 1.7570001
-0.11490663 -0.2467566 1.7570002
-0.1057675 -0.24696197 1.7570001
-0.093958504 -0.24798883 1.7570001
-0.084716685 -0.24721868 1.7570001
-0.078555472 -0.24798883 1.7570001
-0.21564247 -0.16173185 1.7570001
-0.20794095 -0.16173185 1.7570001
-0.14016761 -0.14940943 1.7570001
-0.1340064 -0.14324822 1.7570002
-0.13092579 -0.137087 1.7570001
-0.12476457 -0.13503326 1.7570001
-0.11552275 -0.13092579 1.7570001
-0.10833467 -0.13195266 1.7570001
-0.11244214 -0.12784518 1.7570001
-0.10217346 -0.12579145 1.7570001
-0.093958504 -0.12425113 1.7570001
-0.087797292 -0.12168396 1.7570001
-0.084716685 -0.11757649 1.7570001
-0.077015169 -0.11552275 1.7570001
-0.069313653 -0.11244214 1.7570001
-0.061612137 -0.10936154 1.7570001
-0.053140465 -0.10628093 1.7570001
-0.044668797 -0.10166002 1.7570001
-0.035426978 -0.10011972 1.7570001
-0.029265763 -0.10011972 1.7570001
-0.033886675 -0.097039111 1.7570001
-0.024644854 -0.094728656 1.7570001
-0.01386273 -0.092418201 1.7570001
-0.0038507583 -0.08702714 1.7570001
0.0046209102 -0.084716685 1.7570001
0.01386273 -0.082662947 1.7570001
0.02310455 -0.081636079 1.7570001
0.016943337 -0.078555472 1.7570001
0.024644854 -0.078555472 1.7570001
0.032346372 -0.078555472 1.7570001
0.047749404 -0.075474866 1.7570001
0.053910617 -0.075474866 1.7570001
0.064179309 -0.074447997 1.7570001
0.073934563 -0.072394259 1.7570001
0.078555472 -0.069313653 1.7570001
0.084716685 -0.069313653 1.7570001
0.093958504 -0.066233046 1.7570001
0.10474063 -0.066233046 1.7570001
0.11552275 -0.066233046 1.7570001
0.12630488 -0.06315244 1.7570001
0.13477655 -0.062382288 1.7570001
0.14386433 -0.062536314 1.7570002
0.15557064 -0.06315244 1.7570001
0.16481246 -0.062125567 1.7570001
0.17328413 -0.06315244 1.7570001
0.1817558 -0.06315244 1.7570001
0.17405428 -0.056991223 1.7570001
0.18791701 -0.052370314 1.7570001
0.19523345 -0.053525541 1.7570001
0.19869913 -0.047749404 1.7570001
0.20332004 -0.047749404 1.7570001
