# .PCD v0.7 - Point Cloud Data file format
VERSION 0.7
FIELDS x y z
SIZE 4 4 4
TYPE F F F
COUNT 1 1 1
WIDTH 1452
HEIGHT 1
VIEWPOINT 0 0 0 1 0 0 0
POINTS 1452
DATA ascii
-0.11738829 -0.050309271 1.7390001
-0.17451364 -0.047042806 1.7310001
-0.11449208 -0.045089599 1.7336668
-0.10470819 -0.040972769 1.7310001
-0.097569495 -0.041162129 1.7390001
-0.10167317 -0.037937749 1.7310001
-0.095603131 -0.037937749 1.7310001
-0.084677055 -0.03672374 1.7310002
-0.07381691 -0.033720985 1.7326
-0.0655545 -0.032014988 1.739
-0.055391014 -0.032014988 1.739
-0.044211175 -0.032014988 1.7390001
-0.06525293 -0.028832689 1.7310001
-0.051595338 -0.028832689 1.7310001
-0.04367926 -0.026210358 1.733
-0.035638779 -0.02406643 1.7374003
-0.028965943 -0.022867849 1.7390001
-0.040972769 -0.019727631 1.7310001
-0.034295723 -0.018513624 1.7310002
-0.025396157 -0.017585808 1.7332858
-0.015858525 -0.014991375 1.7344286
-0.0045735701 -0.011688013 1.739
-0.0030350201 -0.0075875497 1.7310001
0.0054276935 -0.0049961233 1.7332858
0.015221563 -0.0030464169 1.7360002
0.025154635 -0.002286785 1.7390001
0.0151751 0.0030350201 1.7310001
0.02585222 0.0045572054 1.7345557
0.034664497 0.0049503176 1.7380002
0.041162129 0.0076226168 1.7390001
0.028832689 0.01062257 1.7310001
0.035661481 0.011381326 1.7310001
0.044488862 0.014444398 1.7350001
0.054737315 0.016720077 1.7343336
0.065403715 0.018248692 1.7350001
0.073856972 0.019033749 1.7370002
0.080799736 0.019818803 1.7390001
0.05918289 0.022762651 1.7310001
0.06525293 0.024583662 1.7310002
0.074397728 0.025809359 1.731889
0.085211419 0.025862543 1.7356668
0.095995881 0.025902089 1.7381113
0.10595438 0.028203681 1.7390001
0.1112902 0.028965943 1.7390001
0.087509744 0.034396894 1.7310001
0.095653772 0.034919094 1.7318889
0.1051399 0.035044555 1.7381113
0.11395812 0.035445169 1.7390002
0.089533091 0.040972769 1.7310001
0.096210137 0.042186778 1.7310002
0.10470819 0.044007793 1.7310001
0.11463206 0.04438844 1.7342001
0.12501091 0.044211175 1.7390001
0.13507277 0.046040606 1.7390001
0.10774321 0.05007783 1.7310001
0.11533076 0.054630365 1.7310004
0.12644073 0.054839592 1.7376667
0.13568257 0.054882843 1.7390002
0.14330521 0.054882839 1.7390002
0.11533076 0.06525293 1.7310003
0.12615047 0.06535501 1.7336668
0.13568258 0.0655545 1.7390002
0.14254293 0.066316761 1.7390001
0.11593775 0.073750988 1.7310002
0.1263414 0.07458242 1.7363334
0.13507088 0.074188136 1.7360002
0.14421992 0.073482022 1.7390001
0.15092781 0.071652599 1.7390001
0.11887162 0.081439704 1.7310001
0.12519458 0.081186786 1.7310001
0.13202336 0.080428027 1.7310001
-0.13505839 0.3072958 1.7310001
-0.15205452 0.31473157 1.7310002
-0.14294943 0.31533858 1.7310002
-0.1350584 0.31412455 1.7310001
-0.15153421 0.32409677 1.7310001
-0.14416344 0.32474712 1.7310003
-0.13505839 0.32474715 1.7310003
-0.12898836 0.32626465 1.7310001
-0.15058064 0.33615172 1.7350001
-0.14504254 0.33615455 1.7370002
-0.13540672 0.33623552 1.7354445
-0.12918706 0.33589104 1.7336668
-0.15092781 0.3460668 1.7390001
-0.14482972 0.34606683 1.7390002
-0.13554698 0.34571147 1.7372223
-0.12918706 0.34500074 1.7336668
-0.14178067 0.35216489 1.7390001
-0.13415805 0.35216489 1.7390001
-0.14178067 0.36436108 1.7390001
-0.13568258 0.38526884 1.7390002
-0.14178067 0.39180249 1.7390001
-0.13738716 0.39388123 1.7374003
-0.24212131 -0.48424262 1.748
-0.25591302 -0.47045088 1.748
-0.24501586 -0.47487789 1.748
-0.23752406 -0.47658053 1.748
-0.26204267 -0.46125641 1.748
-0.25591302 -0.46278882 1.748
-0.24671854 -0.46355501 1.748
-0.23752406 -0.46278882 1.748
-0.22219993 -0.46432126 1.748
-0.26449454 -0.45390081 1.7479999
-0.25591305 -0.45512676 1.748
-0.24518614 -0.45512673 1.7479998
-0.23675784 -0.45589295 1.748
-0.22373234 -0.45436054 1.748
-0.21913511 -0.45206192 1.748
-0.27200338 -0.44593227 1.748
-0.26554534 -0.44680801 1.748
-0.25897786 -0.4474647 1.748
-0.24242778 -0.44715819 1.7479999
-0.23445924 -0.44593227 1.748
-0.22526476 -0.44593227 1.748
-0.21760271 -0.4459323 1.748
-0.28349644 -0.43328989 1.748
-0.27736682 -0.43367299 1.748
-0.23200735 -0.4361248 1.7479999
-0.22526477 -0.43520537 1.7479998
-0.21760271 -0.4352054 1.748
-0.28426266 -0.42677709 1.748
-0.23262033 -0.4238655 1.7479999
-0.22526476 -0.42447853 1.748
-0.26204267 -0.4122192 1.748
-0.2551468 -0.41298538 1.748
-0.24518615 -0.41375157 1.748
-0.23407614 -0.41490087 1.748
-0.22603096 -0.41758263 1.748
-0.26204267 -0.40608954 1.748
-0.25503737 -0.40652737 1.748
-0.24518615 -0.40608954 1.7479998
-0.23445924 -0.40608951 1.748
-0.22832958 -0.4030247 1.748
-0.29269093 -0.3922978 1.748
-0.28451806 -0.39408565 1.7479998
-0.27399549 -0.39444321 1.7479999
-0.26510751 -0.39536262 1.7479998
-0.25591302 -0.39995989 1.748
-0.24390912 -0.39561805 1.7479998
-0.23445922 -0.39536262 1.7479998
-0.22832958 -0.39536265 1.748
-0.29269093 -0.38770056 1.748
-0.28502887 -0.38463572 1.7479998
-0.27430198 -0.38463572 1.748
-0.26510751 -0.38463575 1.748
-0.25635087 -0.38376006 1.748
-0.24476819 -0.38435709 1.7479999
-0.23445924 -0.38463575 1.748
-0.22564787 -0.38501883 1.748
-0.29269093 -0.37850609 1.748
-0.28387958 -0.37659058 1.748
-0.27430201 -0.37544125 1.748
-0.26510751 -0.37544128 1.748
-0.25552991 -0.37544128 1.748
-0.24579911 -0.37605426 1.7479999
-0.23752406 -0.37697369 1.748
-0.28043163 -0.3693116 1.748
-0.27368903 -0.3653273 1.7479999
-0.26510748 -0.36471438 1.7479998
-0.25591302 -0.36471435 1.7479998
-0.24396019 -0.36594033 1.7479999
-0.27246308 -0.35460043 1.7479999
-0.26572046 -0.35582638 1.7479999
-0.25897786 -0.3570523 1.748
-0.24671854 -0.34172818 1.748
-0.28962612 -0.30648267 1.748
-0.21913511 -0.072023429 1.748
-0.24058889 -0.068958603 1.748
-0.23445924 -0.068958603 1.748
-0.22526474 -0.068958603 1.748
-0.21913511 -0.068958603 1.748
-0.19308409 -0.062828943 1.748
-0.1838896 -0.062828943 1.748
-0.17469512 -0.062828943 1.748
-0.16396822 -0.062828943 1.748
-0.15477376 -0.062828943 1.748
-0.14711168 -0.062828943 1.748
-0.1946165 -0.058742512 1.748
-0.18542202 -0.058538191 1.7479999
-0.17469512 -0.059764121 1.748
-0.15477376 -0.059764121 1.748
-0.14557926 -0.059764121 1.748
-0.13485236 -0.058231708 1.748
-0.12259307 -0.053634465 1.748
-0.11646342 -0.052102052 1.748
-0.10497031 -0.045206193 1.748
-0.094703145 -0.043214057 1.7479999
-0.086325951 -0.042396769 1.748
-0.081217907 -0.038310334 1.748
-0.076620668 -0.038310334 1.748
-0.065893769 -0.035245508 1.748
-0.056699295 -0.034223899 1.748
-0.047504812 -0.032180678 1.748
-0.035245508 -0.027583439 1.748
-0.026051026 -0.0229862 1.748
-0.015834937 -0.018899765 1.748
-0.0061296532 -0.015324133 1.748
0.0045972401 -0.010726893 1.748
0.015324134 -0.0076620667 1.748
0.026051024 -0.0056188493 1.748
0.033202287 -0.002554022 1.748
0.038310334 0.0015324133 1.748
0.042907573 0.0045972401 1.748
0.053634465 0.0076620667 1.748
0.047504812 0.010726893 1.748
0.055166878 0.010726893 1.748
0.065127566 0.013025513 1.748
0.075088255 0.015834937 1.748
0.085815147 0.019921374 1.748
0.091944799 0.019921374 1.748
0.1042041 0.024518613 1.748
0.11646342 0.029115854 1.748
0.11799583 0.032180678 1.748
0.12368765 0.036121171 1.748
0.13638479 0.042141367 1.748
0.14519615 0.044823088 1.748
0.15324134 0.045972399 1.748
0.14864409 0.055166878 1.748
0.15293483 0.053021502 1.7479999
0.14741817 0.06528081 1.7479999
0.14864409 0.072023429 1.748
0.15477374 0.075088255 1.748
-0.14251444 0.34172818 1.748
-0.15170892 0.35551989 1.748
-0.14557926 0.35551989 1.748
-0.13842799 0.3560307 1.748
-0.14455765 0.36420357 1.748
-0.13791719 0.36624679 1.748
-0.14496629 0.37482828 1.7479999
-0.13726045 0.37587908 1.748
-0.14404684 0.38386953 1.748
-0.13715099 0.38310334 1.748
-0.15170892 0.39383021 1.748
-0.14496629 0.39444321 1.7479999
-0.14251444 0.4030247 1.748
-0.1376107 0.40731543 1.7479999
-0.24182762 -0.48827615 1.7570001
-0.23566641 -0.48519558 1.7570001
-0.22745146 -0.48416868 1.7570001
-0.24285449 -0.47389999 1.7570001
-0.23528133 -0.47556868 1.7570001
-0.22488432 -0.47595379 1.7570001
-0.21564247 -0.47287312 1.7570001
-0.26287845 -0.46568504 1.7570001
-0.25517693 -0.46773878 1.7570001
-0.24336793 -0.46825221 1.7570001
-0.23451118 -0.46632686 1.7570001
-0.22539775 -0.46517158 1.7570001
-0.21410219 -0.46517158 1.7570001
-0.20794095 -0.46517161 1.7570001
-0.23412611 -0.45592979 1.7570001
-0.22565444 -0.45669994 1.7570001
-0.21371709 -0.45477459 1.7570001
-0.20794095 -0.45284918 1.7570001
-0.21256186 -0.44514766 1.7570001
-0.20794095 -0.44514766 1.7570001
-0.21256186 -0.43590584 1.7570001
-0.20640065 -0.43590584 1.7570001
-0.22026338 -0.42512372 1.7570001
-0.21410219 -0.42512372 1.7570001
-0.20640065 -0.42512375 1.7570001
-0.22446422 -0.41406158 1.7570001
-0.21410216 -0.41434163 1.7570001
-0.20640065 -0.4143416 1.7570001
-0.22396012 -0.40540785 1.7570002
-0.21410216 -0.40509981 1.7570001
-0.20640065 -0.40509978 1.7570001
-0.22334398 -0.39585799 1.7570001
-0.21410216 -0.39585799 1.7570001
-0.20794095 -0.39585796 1.7570001
-0.29419795 -0.38507584 1.7570001
-0.23412611 -0.38045493 1.7570001
-0.22295891 -0.38315049 1.7570001
-0.21478674 -0.38627389 1.7570001
-0.20794095 -0.38969675 1.7570001
-0.29111734 -0.37737432 1.7570001
-0.28649643 -0.37275341 1.7570001
-0.24336793 -0.37429371 1.7570001
-0.23528133 -0.37390867 1.7570001
-0.22488432 -0.37429371 1.7570001
-0.21718277 -0.37583402 1.7570001
-0.28407595 -0.36549202 1.7570001
-0.27879491 -0.36351159 1.7570001
-0.25106946 -0.3650519 1.7570001
-0.2459351 -0.36402503 1.7570001
-0.23566641 -0.36505193 1.7570001
-0.2260823 -0.36539423 1.7570001
-0.28407595 -0.3562502 1.7570001
-0.27802476 -0.35503992 1.7570001
-0.26390532 -0.35375634 1.7570001
-0.25415006 -0.35581011 1.7570001
-0.24490823 -0.35581011 1.7570001
-0.23566641 -0.35581011 1.7570001
-0.22680967 -0.35619518 1.7570001
-0.29111734 -0.34194735 1.7570001
-0.2846761 -0.34460792 1.7570001
-0.27571434 -0.34502801 1.7570001
-0.26493222 -0.34502795 1.7570001
-0.25415009 -0.34502801 1.7570001
-0.24462819 -0.34516802 1.7570001
-0.23566644 -0.34502801 1.7570001
-0.22847833 -0.34605482 1.7570001
-0.29111734 -0.33424583 1.7570001
-0.28495613 -0.33424586 1.7570001
-0.27571431 -0.33424583 1.7570001
-0.26493222 -0.33424583 1.7570001
-0.25415006 -0.33424586 1.7570001
-0.24490823 -0.33424586 1.7570001
-0.23605148 -0.33463094 1.7570001
-0.29111734 -0.32500401 1.7570001
-0.28433999 -0.32685238 1.7570002
-0.27532923 -0.32538909 1.7570001
-0.26493222 -0.32500404 1.7570001
-0.25415006 -0.32500401 1.7570001
-0.24578841 -0.32544407 1.7570001
-0.29111734 -0.31576219 1.7570001
-0.28557223 -0.31391382 1.7570002
-0.27532923 -0.31537712 1.7570001
-0.26493222 -0.31576222 1.7570001
-0.25415006 -0.31576219 1.7570001
-0.24721868 -0.31576219 1.7570001
-0.29111734 -0.30189946 1.7570001
-0.28495616 -0.3049801 1.7570001
-0.27543429 -0.30540016 1.7570001
-0.26493222 -0.30498007 1.7570001
-0.25415009 -0.3049801 1.7570001
-0.24737272 -0.30528814 1.7570002
-0.28557223 -0.29604632 1.7570002
-0.274174 -0.29727855 1.7570001
-0.26647249 -0.29727855 1.7570001
-0.25415006 -0.29727855 1.7570001
-0.20640065 -0.081636079 1.7570001
-0.24182762 -0.072394259 1.7570001
-0.23566641 -0.072394259 1.7570001
-0.22642459 -0.072394259 1.7570001
-0.21348605 -0.073626503 1.7570002
-0.20640065 -0.075474866 1.7570001
-0.19715883 -0.072394259 1.7570001
-0.16173185 -0.072394259 1.7570001
-0.21256186 -0.069313653 1.7570001
-0.20486034 -0.06777335 1.7570001
-0.19638868 -0.066233046 1.7570001
-0.18534984 -0.067259915 1.7570001
-0.17405428 -0.06746529 1.7570002
-0.16481246 -0.06777335 1.7570001
-0.15634079 -0.067003198 1.7570001
-0.14478852 -0.064692743 1.7570001
-0.13477655 -0.061612137 1.7570001
-0.12784518 -0.06007183 1.7570001
-0.12630488 -0.056991223 1.7570001
-0.11398245 -0.052370314 1.7570001
-0.10628093 -0.05083001 1.7570001
-0.11244214 -0.047749404 1.7570001
-0.10525406 -0.047749404 1.7570001
-0.093188353 -0.046979252 1.7570001
-0.084716685 -0.044668797 1.7570001
-0.077015169 -0.041588191 1.7570001
-0.072394259 -0.038507584 1.7570001
-0.064692743 -0.038507584 1.7570001
-0.052370314 -0.035426978 1.7570001
-0.044668797 -0.034400109 1.7570001
-0.038507584 -0.032346372 1.7570001
-0.033886675 -0.029265763 1.7570001
-0.024131419 -0.024131419 1.7570001
-0.012322427 -0.020023944 1.7570001
-0.0077015166 -0.020023944 1.7570001
-0.0015403033 -0.01386273 1.7570001
0.0046209102 -0.012835861 1.7570001
0.01386273 -0.010782124 1.7570001
0.024644854 -0.010782124 1.7570001
0.02772546 -0.0077015166 1.7570001
0.036967281 -0.0030806067 1.7570001
0.041588191 -0.0015403033 1.7570001
0.046722535 0.0046209102 1.7570001
0.052370314 0.0061612134 1.7570001
0.06315244 0.0077015166 1.7570001
0.06777335 0.010782124 1.7570001
0.075474866 0.012835861 1.7570001
0.081636079 0.016943337 1.7570001
0.097039111 0.020023944 1.7570001
0.10566481 0.020640064 1.7570002
0.11508267 0.023984725 1.7570001
0.12168396 0.02772546 1.7570001
0.12630488 0.032346372 1.7570001
0.1340064 0.036967281 1.7570001
0.14478852 0.036967281 1.7570001
0.15557064 0.038507584 1.7570001
0.1340064 0.041588191 1.7570001
0.14940943 0.041588191 1.7570001
0.15601073 0.04422871 1.7570001
0.16173185 0.046209101 1.7570001
0.1578811 0.054680768 1.7570001
0.16173185 0.05545092 1.7570001
0.15529059 0.065112822 1.7570001
0.15762438 0.073421128 1.7570001
0.16173185 0.075474866 1.7570001
-0.14940943 0.35889068 1.7570001
-0.1535169 0.36299816 1.7570001
-0.14632882 0.36351159 1.7570001
-0.137087 0.36197129 1.7570001
-0.14709897 0.37352356 1.7570001
-0.1340064 0.37429371 1.7570001
-0.14764908 0.3852959 1.7570001
-0.14632882 0.39585796 1.7570001
-0.14530195 0.40509978 1.7570001
-0.14324822 0.41126099 1.7570001
-0.22603622 -0.49077728 1.766
-0.22242379 -0.48664877 1.7660002
-0.21674708 -0.48303631 1.766
-0.21442477 -0.47761765 1.766
-0.2074579 -0.47529536 1.766
-0.20590971 -0.46600619 1.7660002
-0.20652899 -0.45609775 1.766
-0.20590971 -0.4458797 1.766
-0.20281333 -0.43349415 1.766
-0.20281333 -0.42575315 1.7660002
-0.20281333 -0.4180122 1.766
-0.20590971 -0.40098208 1.766
-0.20590971 -0.39478931 1.7660002
-0.2131346 -0.38343588 1.7660002
-0.20797396 -0.38756442 1.7660002
-0.21564123 -0.37444162 1.7659999
-0.22216573 -0.36459953 1.766
-0.21829526 -0.36382544 1.7660002
-0.22263022 -0.35391697 1.766
-0.21705671 -0.35453624 1.766
-0.22410098 -0.34486005 1.7659999
-0.21752116 -0.34602121 1.766
-0.23145491 -0.33518383 1.766
-0.22572657 -0.33719653 1.766
-0.29260853 -0.3266688 1.766
-0.28538364 -0.32254028 1.7659999
-0.24384046 -0.32279831 1.766
-0.23631062 -0.32638729 1.766
-0.28331938 -0.31737962 1.766
-0.24430493 -0.31366396 1.766
-0.23996997 -0.31428325 1.7660002
-0.28022298 -0.3018977 1.766
-0.24430493 -0.30437484 1.766
-0.23996997 -0.30809048 1.766
-0.28228727 -0.29467279 1.7659999
-0.27403021 -0.29415673 1.7659999
-0.26429871 -0.29482025 1.7659999
-0.25545189 -0.29415673 1.7659999
-0.24771094 -0.29570493 1.7659999
-0.28641576 -0.28951216 1.766
-0.27325612 -0.28873807 1.766
-0.26628923 -0.28796396 1.766
-0.25545192 -0.28796396 1.7659999
-0.24925913 -0.28951216 1.766
-0.26783744 -0.27093384 1.766
-0.21365067 -0.083602443 1.766
-0.20513561 -0.084376529 1.766
-0.19971694 -0.082054242 1.766
-0.22139165 -0.075861476 1.766
-0.21597297 -0.078183763 1.766
-0.20281333 -0.075861476 1.7660002
-0.19490033 -0.076205522 1.7659999
-0.18423499 -0.074313283 1.7659999
-0.17494585 -0.074313283 1.7659999
-0.16627596 -0.074622922 1.766
-0.15843178 -0.073797219 1.7660002
-0.20281333 -0.069668703 1.766
-0.17494585 -0.069668703 1.766
-0.15327114 -0.069668703 1.7660002
-0.14398198 -0.067604445 1.7660002
-0.13469282 -0.065024123 1.766
-0.12643577 -0.062443797 1.7660002
-0.12230727 -0.057283152 1.766
-0.1153404 -0.056509055 1.766
-0.10549831 -0.05462911 1.7659999
-0.09521389 -0.051864475 1.766
-0.083602436 -0.046445798 1.766
-0.075087383 -0.044123508 1.766
-0.066056252 -0.042833347 1.7659999
-0.054186765 -0.041801218 1.7660002
-0.054186765 -0.038704835 1.7660002
-0.044897605 -0.037156641 1.766
-0.034989171 -0.034369893 1.766
-0.024771092 -0.027093383 1.766
-0.013933741 -0.023222899 1.7660002
-0.0046445802 -0.021158641 1.7660002
0.0046445797 -0.020126512 1.766
-0.0030963868 -0.017030127 1.766
0.0046445802 -0.016256031 1.766
0.013933741 -0.015481934 1.7659999
0.021674706 -0.01393374 1.766
0.034060255 -0.010837353 1.766
0.036382545 -0.0069668703 1.766
0.044278327 -0.0040253028 1.766
0.054186765 -0.0015481933 1.7660002
0.047993992 0.0015481933 1.766
0.054806042 0.0027867481 1.766
0.064802952 0.0042022392 1.7659999
0.075087376 0.0069668703 1.766
0.082054242 0.0077409665 1.766
0.07740967 0.010837353 1.766
0.085537679 0.013546691 1.7659999
0.094052739 0.014320788 1.7659999
0.10527715 0.015481934 1.7659999
0.1161145 0.015481934 1.7659999
0.12385546 0.017030127 1.766
0.11766269 0.020126512 1.766
0.12579072 0.025158139 1.7659999
0.13430576 0.026706332 1.7659999
0.14398198 0.027867479 1.7659999
0.15327114 0.029415673 1.766
0.1346928 0.032512061 1.7660002
0.14398198 0.032512061 1.7660002
0.15567943 0.034920365 1.7659999
0.1625603 0.035608448 1.7660002
0.16617276 0.044897605 1.7659999
0.17339765 0.046445798 1.766
0.16654137 0.053744424 1.7659999
0.17184946 0.051090378 1.766
0.15946391 0.060379539 1.766
0.1656567 0.065024123 1.7660002
0.16565669 0.07276509 1.7660002
-0.15017475 0.40407848 1.7660002
-0.14442432 0.41602167 1.7659999
-0.1377892 0.416464 1.766
-0.15017475 0.42730135 1.766
-0.14398198 0.42575318 1.7659999
-0.1377892 0.42730135 1.766
-0.15172294 0.43659052 1.766
-0.14707837 0.43813872 1.766
-0.22264528 -0.49355632 1.7760001
-0.21797439 -0.4904424 1.7760001
-0.21174656 -0.48577154 1.7760001
-0.20707569 -0.48265761 1.7760001
-0.20396176 -0.47331583 1.7760001
-0.20292377 -0.46760699 1.7760001
-0.20396177 -0.45618927 1.7760001
-0.20333898 -0.44435638 1.7760003
-0.20084782 -0.43439183 1.7760001
-0.19773392 -0.43439183 1.7760001
-0.20084782 -0.42505011 1.7760001
-0.19648835 -0.42442727 1.7760003
-0.20209341 -0.41508555 1.7760003
-0.19695544 -0.4164868 1.7760001
-0.20333895 -0.40574375 1.7760003
-0.20396176 -0.39546785 1.7760001
-0.2101896 -0.38301215 1.7760001
-0.20707567 -0.38456908 1.7760001
-0.21174656 -0.37522736 1.7760001
-0.20707567 -0.37522736 1.7760001
-0.21486048 -0.36588562 1.7760001
-0.21330352 -0.35446787 1.7760001
-0.21552774 -0.34364334 1.7760001
-0.2248695 -0.33430153 1.7760001
-0.21797439 -0.33630335 1.7760001
-0.24132881 -0.32229072 1.7760001
-0.23276553 -0.32462615 1.7760001
-0.22575921 -0.32851857 1.7760001
-0.23599066 -0.31650773 1.7760001
-0.2421073 -0.3028287 1.7760001
-0.23759207 -0.30609834 1.7760003
-0.29115152 -0.29270849 1.7760001
-0.28336671 -0.29115152 1.7760001
-0.26312622 -0.29115152 1.7760001
-0.24355304 -0.29382059 1.7760001
-0.23743641 -0.29348695 1.7760001
-0.28447884 -0.28581336 1.7760001
-0.27597117 -0.28453445 1.7760001
-0.26451021 -0.28388572 1.7760001
-0.25333962 -0.28403398 1.7760001
-0.24444273 -0.28492367 1.7760001
-0.23821488 -0.2880376 1.7760001
-0.28258824 -0.27636039 1.7760001
-0.27558193 -0.27558193 1.7760001
-0.26425859 -0.27586502 1.7760003
-0.25611991 -0.27636039 1.7760001
-0.27454394 -0.26520216 1.7760001
-0.26468319 -0.26468319 1.7760005
-0.2568984 -0.26935408 1.7760001
-0.27402496 -0.25378448 1.7760001
-0.26624015 -0.25534144 1.7760001
-0.29426545 -0.24444272 1.7760001
-0.22264528 -0.082518883 1.7760001
-0.21537946 -0.086670779 1.7760001
-0.20396176 -0.087189764 1.7760001
-0.19617696 -0.082518883 1.7760001
-0.17282256 -0.082518883 1.7760001
-0.24444272 -0.07629104 1.7760001
-0.23510097 -0.07629104 1.7760001
-0.22575919 -0.077847995 1.7760001
-0.19150607 -0.079404958 1.7760001
-0.18527824 -0.079404958 1.7760001
-0.17593648 -0.079404958 1.7760001
-0.16659473 -0.079404958 1.7760001
-0.155696 -0.074734077 1.7760001
-0.14324032 -0.070063196 1.7760001
-0.13856944 -0.070063196 1.7760001
-0.13389856 -0.066949278 1.7760001
-0.12533528 -0.064613834 1.7760001
-0.11614921 -0.061344225 1.7760003
-0.10275936 -0.05760752 1.7760001
-0.094974555 -0.055531573 1.7760001
-0.086411282 -0.052158162 1.7760001
-0.079404958 -0.051379681 1.7760001
-0.082518883 -0.048265759 1.7760001
-0.076291047 -0.048265759 1.7760001
-0.06383536 -0.046189815 1.7760001
-0.054493602 -0.045151841 1.7760001
-0.048265759 -0.042037919 1.7760001
-0.045151841 -0.038924001 1.7760001
-0.02646832 -0.033474639 1.7760001
-0.023354398 -0.02958224 1.7760001
-0.014791121 -0.027246801 1.7760001
-0.0046708803 -0.024392374 1.7760001
0.0052936641 -0.0233544 1.7760003
0.014012639 -0.021797439 1.7760001
0.02024048 -0.021797441 1.7760001
0.025222752 -0.015880993 1.7760003
0.035810083 -0.012974667 1.7760001
0.043594882 -0.01089872 1.7760001
0.047227785 -0.0067468267 1.7760001
0.054493602 -0.0062278397 1.7760001
0.063446119 -0.0042816401 1.7760001
0.071620159 -0.0015569599 1.7760001
0.066949278 0.0015569599 1.7760001
0.075772054 0.0025949331 1.7760001
0.085632801 0.0051898668 1.7760001
0.094974555 0.0062278402 1.7760001
0.10369353 0.0065392321 1.7760003
0.11365807 0.0077848001 1.7760001
0.098088481 0.01089872 1.7760001
0.10431632 0.01089872 1.7760001
0.11521504 0.01089872 1.7760001
0.12611376 0.013493653 1.7760001
0.13467704 0.016348081 1.7760001
0.14168335 0.01712656 1.7760001
0.12767072 0.02024048 1.7760001
0.136234 0.02101896 1.7760001
0.14479728 0.021797441 1.7760001
0.15413904 0.024392374 1.7760001
0.16441497 0.027091105 1.7760003
0.17593648 0.02880376 1.7760001
0.16815168 0.035810079 1.7760001
0.17593649 0.035810083 1.7760001
0.18294279 0.036588565 1.7760001
0.16970864 0.042037919 1.7760001
0.17718205 0.043906271 1.7760003
0.18488899 0.045151837 1.7760001
0.17632572 0.054882843 1.7760001
0.18372126 0.054493602 1.7760001
0.17593649 0.06383536 1.7760001
0.18372127 0.062278401 1.7760001
0.17531368 0.071308769 1.7760003
-0.45307535 0.36899951 1.7760001
-0.15413904 0.40325263 1.7760001
-0.15102512 0.41259441 1.7760001
-0.15102512 0.42505008 1.7760001
-0.15413904 0.43542981 1.7760001
-0.14791121 0.43594879 1.7760001
-0.22064385 -0.49605745 1.7850001
-0.21393736 -0.49605748 1.785
-0.20812505 -0.49605742 1.7850002
-0.20436943 -0.48353863 1.7850001
-0.19560625 -0.48040894 1.7850002
-0.20186564 -0.47571439 1.7850001
-0.19560625 -0.4741495 1.7850001
-0.18934685 -0.47414955 1.7850002
-0.20264807 -0.46476045 1.7850001
-0.19435439 -0.46601233 1.7850001
-0.18934685 -0.46789014 1.7850001
-0.20186563 -0.45537138 1.7850002
-0.20186564 -0.44754708 1.7850001
-0.19873595 -0.44285256 1.7850001
-0.19456302 -0.43398508 1.785
-0.19247656 -0.42407432 1.7850002
-0.19508463 -0.41468525 1.785
-0.20186563 -0.40529618 1.7850002
-0.19873595 -0.40842584 1.7850001
-0.20290887 -0.39590704 1.7850002
-0.20499535 -0.38495311 1.7850001
-0.21125475 -0.37086946 1.7850001
-0.20656019 -0.37399915 1.7850001
-0.21125476 -0.36461005 1.7850002
-0.20812505 -0.36461005 1.7850002
-0.21125475 -0.35678577 1.7850001
-0.20812505 -0.35522094 1.7850002
-0.21125476 -0.34583187 1.7850002
-0.20812505 -0.34583187 1.7850002
-0.22273032 -0.33122659 1.7850002
-0.2137585 -0.33425194 1.7850001
-0.20812505 -0.33487791 1.7850001
-0.23003297 -0.32392395 1.7850002
-0.22377355 -0.32392395 1.7850001
-0.21438444 -0.32392395 1.7850001
-0.20812505 -0.32548881 1.7850001
-0.23159778 -0.31453484 1.785
-0.22377355 -0.31453484 1.7850001
-0.21751414 -0.31453481 1.7850002
-0.23316264 -0.30514574 1.7850001
-0.22377355 -0.30514574 1.7850001
-0.21751414 -0.30514574 1.7850001
-0.23277143 -0.29614785 1.785
-0.22377355 -0.29575664 1.7850001
-0.21751414 -0.29575664 1.7850002
-0.29419178 -0.28480268 1.785
-0.28845403 -0.28219461 1.7850002
-0.25194085 -0.28010815 1.7850001
-0.24568145 -0.28010815 1.7850002
-0.23441453 -0.28448972 1.785
-0.22439949 -0.28542861 1.7850001
-0.21751414 -0.28949726 1.7850001
-0.29387882 -0.27384877 1.7850001
-0.28726175 -0.27340168 1.785
-0.25350571 -0.27384877 1.785
-0.24568145 -0.27384874 1.7850001
-0.2347275 -0.27384877 1.785
-0.22612083 -0.2746312 1.7850001
-0.29575661 -0.26445964 1.7850001
-0.28480271 -0.26445964 1.785
-0.25507054 -0.26445964 1.7850001
-0.24568146 -0.26445964 1.7850001
-0.23673947 -0.26490673 1.785
-0.29486248 -0.25507054 1.785
-0.28480271 -0.25507054 1.785
-0.27071905 -0.25350571 1.7850001
-0.26445964 -0.25507057 1.785
-0.25507057 -0.25507054 1.7850001
-0.24568142 -0.25507057 1.7850001
-0.29471341 -0.24568145 1.785
-0.28480271 -0.24568145 1.785
-0.27384874 -0.24568145 1.7850001
-0.26445964 -0.24568145 1.7850001
-0.25546175 -0.24607265 1.785
-0.24568145 -0.24568145 1.7850001
-0.23942204 -0.24568145 1.7850002
-0.29450479 -0.2369183 1.7850001
-0.28428108 -0.23733558 1.7850001
-0.27519006 -0.23629236 1.785
-0.2655029 -0.23837881 1.7850002
-0.21751414 -0.092326149 1.7850001
-0.2441166 -0.082937047 1.7850001
-0.23368426 -0.083980285 1.785
-0.22377354 -0.08658836 1.785
-0.21438445 -0.089196451 1.7850001
-0.2034305 -0.089196451 1.7850001
-0.19560625 -0.085023522 1.7850002
-0.18621714 -0.0845019 1.785
-0.17630643 -0.0845019 1.785
-0.16743895 -0.082937047 1.7850001
-0.24568145 -0.079807349 1.7850002
-0.2347275 -0.079807349 1.7850001
-0.16117954 -0.079807349 1.7850001
-0.15179045 -0.073547952 1.7850001
-0.14553106 -0.073547952 1.7850002
-0.13614194 -0.071461476 1.7850002
-0.1283177 -0.070418246 1.7850001
-0.1220583 -0.067288548 1.7850001
-0.11423405 -0.064158849 1.7850002
-0.10484495 -0.061029151 1.7850002
-0.098585546 -0.061029151 1.7850001
-0.093890995 -0.057899449 1.7850001
-0.085440814 -0.056647569 1.7850001
-0.075425766 -0.052891929 1.7850001
-0.067288548 -0.051640049 1.7850001
-0.070418246 -0.04851035 1.7850001
-0.062593997 -0.04851035 1.7850001
-0.057899449 -0.04851035 1.7850001
-0.046945497 -0.043815799 1.7850001
-0.04225095 -0.039121252 1.7850001
-0.035991553 -0.039121252 1.7850002
-0.023472749 -0.035209127 1.7850001
-0.014709589 -0.034113728 1.7850001
-0.0078242496 -0.032861851 1.7850001
-0.0125188 -0.029732149 1.7850001
-0.0039121248 -0.0281673 1.7850001
0.0040686098 -0.028480267 1.7850001
0.01345771 -0.027854333 1.7850001
0.023472751 -0.022690326 1.7850001
0.029732149 -0.01721335 1.7850001
0.035991549 -0.016170116 1.7850002
0.045380652 -0.0125188 1.7850001
0.054769751 -0.010953951 1.7850002
0.062593997 -0.01095395 1.7850001
0.067288548 -0.0078242496 1.7850001
0.074442148 -0.0046945503 1.785
0.086066753 -0.00156485 1.7850002
0.095455848 -0.00156485 1.7850001
0.10171525 -0.00156485 1.7850001
0.087631598 0.00156485 1.7850001
0.095455848 0.00156485 1.7850002
0.10562737 0.0023472749 1.7850001
0.11345162 0.0039121248 1.7850001
0.1220583 0.0078242496 1.7850001
0.12988254 0.01095395 1.7850001
0.13614194 0.013040416 1.7850002
0.146157 0.01533553 1.7850001
0.15492016 0.01721335 1.7850001
0.15492015 0.02034305 1.7850001
0.16430925 0.021386283 1.7850002
0.17265512 0.024515985 1.7850002
0.1846523 0.029732149 1.7850001
0.18809496 0.035365611 1.7850001
0.19247656 0.035991549 1.7850002
0.18934685 0.045380648 1.7850001
0.19247656 0.045380652 1.7850002
0.18934685 0.054769751 1.7850002
0.19247656 0.054769751 1.7850002
0.18621716 0.064158849 1.7850001
0.19247656 0.061029151 1.7850001
-0.15492015 0.40842584 1.7850001
-0.15492015 0.41155556 1.7850001
-0.15179045 0.42407435 1.7850001
-0.14866075 0.42407435 1.7850001
-0.15492015 0.43189859 1.7850001
-0.20445621 -0.49541306 1.794
-0.195544 -0.49436459 1.794
-0.18715605 -0.49226761 1.794
-0.2044562 -0.48912212 1.794
-0.19449551 -0.48702514 1.794
-0.18636969 -0.48519027 1.794
-0.18463966 -0.47496748 1.794
-0.1953343 -0.46364373 1.794
-0.1849093 -0.46395829 1.7939999
-0.19501977 -0.45452189 1.7940001
-0.18636969 -0.45530826 1.794
-0.19379652 -0.44578445 1.794
-0.18715604 -0.44508541 1.794
-0.1910879 -0.43643537 1.794
-0.18589786 -0.43501988 1.794
-0.19030154 -0.42621255 1.794
-0.18636967 -0.42699891 1.794
-0.19209896 -0.41363057 1.7939999
-0.18715604 -0.41677609 1.794
-0.19659251 -0.40419415 1.794
-0.20288345 -0.39318502 1.794
-0.19659251 -0.39475775 1.794
-0.20288344 -0.38532129 1.794
-0.19659249 -0.38532129 1.794
-0.20414165 -0.37525576 1.794
-0.1959634 -0.37619939 1.794
-0.20445621 -0.36487567 1.7939999
-0.19816524 -0.36802116 1.794
-0.20602894 -0.35386649 1.794
-0.20477076 -0.34380096 1.794
-0.20602894 -0.3349936 1.794
-0.20707743 -0.32555714 1.794
-0.21389265 -0.31612074 1.794
-0.20917444 -0.31612074 1.794
-0.21441691 -0.30528629 1.794
-0.20917442 -0.30511156 1.794
-0.21389264 -0.2941024 1.794
-0.20917444 -0.29410234 1.794
-0.22175634 -0.28309321 1.794
-0.21546537 -0.28466594 1.794
-0.20917442 -0.28781143 1.794
-0.29724786 -0.27522948 1.794
-0.22301452 -0.27460042 1.794
-0.2163641 -0.27567884 1.7939999
-0.23308007 -0.26516396 1.794
-0.22490181 -0.26579306 1.794
-0.21782449 -0.26657942 1.794
-0.30249032 -0.25268689 1.794
-0.24062921 -0.25635663 1.794
-0.23433827 -0.2547839 1.7940001
-0.22647454 -0.25635663 1.794
-0.3022806 -0.24314561 1.794
-0.26264757 -0.24062921 1.794
-0.25446934 -0.24125831 1.794
-0.2437747 -0.24062921 1.794
-0.23433825 -0.24377471 1.794
-0.2280473 -0.2437747 1.794
-0.30039334 -0.235911 1.794
-0.2934733 -0.23245099 1.794
-0.28529504 -0.23245096 1.794
-0.27334219 -0.23370917 1.794
-0.26579306 -0.23394507 1.7939999
-0.2547839 -0.23433827 1.7940001
-0.24377468 -0.23433828 1.794
-0.23478761 -0.23523697 1.7939999
-0.29410237 -0.22678912 1.794
-0.28466594 -0.22490181 1.794
-0.27522948 -0.22490181 1.794
-0.26579306 -0.22490181 1.794
-0.25521281 -0.22518778 1.7940001
-0.2437747 -0.2280473 1.794
-0.29095688 -0.21861085 1.794
-0.28152046 -0.21703812 1.794
-0.27585858 -0.21735266 1.794
-0.26453486 -0.21672359 1.794
-0.2563566 -0.21546538 1.794
-0.26264757 -0.20917442 1.794
-0.25321114 -0.20838806 1.794
-0.24692018 -0.20917442 1.794
-0.23643525 -0.10327659 1.794
-0.25006565 -0.094364405 1.794
-0.2437747 -0.094364405 1.794
-0.23473145 -0.095543951 1.7939999
-0.22490181 -0.094364405 1.794
-0.21546538 -0.093840159 1.794
-0.25276181 -0.086500704 1.7939999
-0.2437747 -0.08807344 1.794
-0.23512462 -0.088859811 1.794
-0.2280473 -0.089646183 1.794
-0.19501975 -0.088859811 1.794
-0.18401058 -0.089646183 1.794
-0.17378777 -0.088859811 1.794
-0.16671044 -0.084927961 1.794
-0.15884674 -0.08020974 1.794
-0.15412852 -0.077064261 1.794
-0.14783755 -0.077064261 1.794
-0.13557018 -0.075176969 1.794
-0.12424646 -0.072346039 1.794
-0.1179555 -0.070773296 1.794
-0.11481002 -0.067627817 1.794
-0.10600267 -0.065740526 1.794
-0.095937133 -0.062909603 1.794
-0.086500704 -0.06133686 1.794
-0.08020974 -0.058191381 1.794
-0.073289685 -0.056933187 1.794
-0.064482339 -0.05452165 1.794
-0.055832267 -0.052686788 1.794
-0.05347316 -0.048754938 1.794
-0.044823088 -0.045609459 1.794
-0.035386652 -0.043250348 1.794
-0.023591101 -0.043250348 1.794
-0.01730014 -0.042463981 1.794
-0.025163841 -0.039318498 1.794
-0.01336829 -0.03853213 1.794
-0.0055045905 -0.035386648 1.794
0.0047182203 -0.033027541 1.794
0.01100918 -0.033027541 1.794
-0.0047182199 -0.02988206 1.794
0.01730014 -0.02988206 1.794
0.026107484 -0.024849292 1.794
0.035386652 -0.02123199 1.794
0.042463981 -0.020445621 1.794
0.039318498 -0.01730014 1.794
0.046238553 -0.016041949 1.794
0.055045903 -0.015727399 1.794
0.063695967 -0.01415466 1.794
0.072346039 -0.01100918 1.794
0.077064261 -0.0078637004 1.794
0.083879463 -0.0057667135 1.794
0.095937148 -0.003460028 1.794
0.10537358 -0.0026212335 1.794
0.11323728 -0.00157274 1.794
0.11638276 0.00157274 1.794
0.12424646 0.0047182203 1.794
0.13289653 0.0070773303 1.794
0.13840112 0.01100918 1.794
0.14311934 0.01100918 1.794
0.15570126 0.014941029 1.794
0.16450861 0.016041949 1.794
0.17300141 0.01730014 1.794
0.16828318 0.020445621 1.794
0.1753605 0.02123199 1.794
0.18401057 0.02673658 1.794
0.19239853 0.028833566 1.794
0.19659249 0.039318498 1.794
0.19737886 0.046395831 1.794
0.19785069 0.054416806 1.794
0.18715605 0.067627817 1.794
0.19030154 0.064482339 1.794
-0.15465277 0.41887307 1.794
-0.15570126 0.42778528 1.794
-0.20288345 0.46710378 1.794
-0.18450911 -0.4950116 1.804
-0.18266402 -0.48631328 1.8040001
-0.17744502 -0.48488992 1.8040001
-0.18187326 -0.4728705 1.8040001
-0.17554724 -0.47603354 1.804
-0.16922121 -0.47603351 1.8040001
-0.18187326 -0.46443579 1.8040003
-0.17554724 -0.46496293 1.8040003
-0.16922121 -0.46338144 1.8040003
-0.18345477 -0.45389238 1.804
-0.17645095 -0.45434427 1.804
-0.18345477 -0.44440341 1.804
-0.17712875 -0.44440341 1.804
-0.18187326 -0.43491435 1.8040003
-0.17712873 -0.43491435 1.804
-0.1834548 -0.42542532 1.804
-0.17765592 -0.42753395 1.8040003
-0.1845091 -0.41593626 1.804
-0.19136231 -0.40486568 1.8040001
-0.18661779 -0.40486568 1.804
-0.19136231 -0.39379516 1.8040003
-0.18661779 -0.39379516 1.804
-0.19136231 -0.38588762 1.8040001
-0.18693408 -0.38430613 1.8040001
-0.19215307 -0.3740263 1.8040001
-0.1881993 -0.37481704 1.8040003
-0.20085135 -0.36374652 1.8040001
-0.19452532 -0.36585522 1.804
-0.1881993 -0.36849105 1.8040001
-0.20243286 -0.35583898 1.804
-0.19768833 -0.3574205 1.8040001
-0.20190568 -0.34476849 1.804
-0.19768833 -0.34318694 1.8040003
-0.20243283 -0.33369792 1.804
-0.19768833 -0.33369792 1.8040003
-0.20361897 -0.32381347 1.804
-0.19768833 -0.32737187 1.8040001
-0.20559585 -0.3147198 1.804
-0.20638663 -0.30444002 1.8040001
-0.20717737 -0.29732323 1.8040001
-0.21034038 -0.28467119 1.8040001
-0.21169595 -0.27450436 1.804
-0.21420628 -0.26411164 1.804
-0.22457393 -0.25462258 1.804
-0.21903868 -0.25541332 1.8040001
-0.22457393 -0.24513352 1.804
-0.21982943 -0.24671504 1.8040001
-0.30417645 -0.2356445 1.8040003
-0.23406298 -0.23248148 1.8040001
-0.22655082 -0.23603985 1.804
-0.30206776 -0.22773695 1.8040001
-0.29574174 -0.22378318 1.8040001
-0.25145957 -0.22299244 1.8040001
-0.24513353 -0.22457393 1.804
-0.23643523 -0.22852772 1.8040001
-0.22931847 -0.22931847 1.8040001
-0.29521459 -0.21666642 1.804
-0.28660414 -0.21455772 1.804
-0.27454954 -0.21287079 1.8040001
-0.26727462 -0.21350341 1.8040003
-0.25145957 -0.21666642 1.8040003
-0.24592428 -0.21627104 1.804
-0.28414401 -0.20612304 1.8040003
-0.27518216 -0.20559588 1.804
-0.2662203 -0.20612304 1.8040003
-0.25145957 -0.20717737 1.8040001
-0.24671504 -0.20717737 1.8040001
-0.2609486 -0.16447669 1.8040001
-0.24197052 -0.10279793 1.8040001
-0.2609486 -0.091727391 1.8040001
-0.25620407 -0.093308896 1.8040001
-0.24355203 -0.099634923 1.8040001
-0.23248148 -0.099634923 1.8040001
-0.22615544 -0.099634923 1.8040003
-0.21350339 -0.094890401 1.8040001
-0.20559587 -0.093308896 1.8040001
-0.19389272 -0.093308896 1.8040001
-0.18503629 -0.093308896 1.8040003
-0.17712875 -0.093308896 1.8040001
-0.16922121 -0.090145878 1.8040001
-0.25778559 -0.086982869 1.8040001
-0.16447669 -0.085401356 1.8040001
-0.15498766 -0.081447594 1.8040001
-0.14391711 -0.080656841 1.8040001
-0.13759108 -0.080656841 1.8040001
-0.1439171 -0.077493824 1.8040001
-0.13284656 -0.077493824 1.8040001
-0.12493902 -0.076439492 1.8040003
-0.11481738 -0.073065601 1.8040001
-0.10596094 -0.071167797 1.8040003
-0.10279793 -0.068004787 1.8040001
-0.094890401 -0.066423282 1.8040001
-0.083819859 -0.063787431 1.8040003
-0.074330807 -0.061678756 1.8040003
-0.066423282 -0.06167876 1.8040001
-0.063260265 -0.058515746 1.8040001
-0.055352733 -0.056934237 1.8040001
-0.04797237 -0.053244054 1.8040003
-0.044282183 -0.049026705 1.8040001
-0.035019077 -0.047671128 1.804
-0.024776941 -0.046918023 1.804
-0.014233559 -0.045863688 1.804
-0.0079075331 -0.044282183 1.8040001
-0.0031630131 -0.037956163 1.8040001
0.0041119172 -0.037639864 1.8040001
0.014233559 -0.034793146 1.8040001
0.023722598 -0.031102965 1.8040003
0.033211641 -0.030048626 1.8040001
0.026885614 -0.026885614 1.8040001
0.035847489 -0.025831277 1.804
0.045863692 -0.023195432 1.804
0.054720126 -0.021824792 1.8040001
0.06167876 -0.020559587 1.8040001
0.066950448 -0.016342236 1.8040003
0.07478267 -0.015137278 1.804
0.083819844 -0.012652054 1.804
0.094890401 -0.011070547 1.8040001
0.10596094 -0.011070547 1.8040003
0.11386847 -0.011070547 1.8040001
0.086982869 -0.0079075331 1.8040001
0.094890401 -0.0079075331 1.8040001
0.10659355 -0.0066423276 1.8040001
0.11590184 -0.0056482377 1.804
0.12388468 -0.0036901822 1.804
0.13442807 -0.0015815067 1.8040003
0.12652053 0.0015815067 1.8040001
0.13506067 0.002846712 1.8040001
0.14352173 0.0051398962 1.804
0.15446049 0.0063260258 1.804
0.14708012 0.011070547 1.8040001
0.15498766 0.011070547 1.8040001
0.16684896 0.0118613 1.8040001
0.17599909 0.013329842 1.804
0.18458441 0.015137278 1.804
0.19294381 0.015815066 1.8040001
0.18503629 0.022818882 1.804
0.19262752 0.023089997 1.8040001
0.19768833 0.033211641 1.8040003
0.20085135 0.037956163 1.8040001
0.20243286 0.044282183 1.8040001
0.20296001 0.057461411 1.8040003
0.19557965 0.065896116 1.804
0.20190568 0.062733091 1.8040003
-0.15498765 0.42542529 1.8040001
-0.17695284 -0.49430236 1.8130001
-0.17165485 -0.48476598 1.8130001
-0.16370785 -0.4815872 1.8130001
-0.17006545 -0.4736402 1.8130001
-0.16529724 -0.47522959 1.8130001
-0.16561511 -0.46632901 1.8130001
-0.17133698 -0.45552111 1.8130001
-0.17165484 -0.44503108 1.813
-0.17165487 -0.43390527 1.8130001
-0.17695284 -0.42436889 1.8130001
-0.18278061 -0.41324311 1.8130001
-0.17880712 -0.41562721 1.8130001
-0.18278061 -0.40529612 1.8130001
-0.18278061 -0.39575979 1.8130001
-0.17960182 -0.39734918 1.8130001
-0.18357532 -0.38622338 1.8130001
-0.17960182 -0.38940218 1.8130001
-0.18437003 -0.3750976 1.813
-0.1939064 -0.36238244 1.8130001
-0.18701901 -0.36450163 1.8130001
-0.19504167 -0.35398132 1.813
-0.1891382 -0.35602486 1.8130001
-0.19422427 -0.34553486 1.8130001
-0.19549578 -0.33536267 1.8130001
-0.1960256 -0.32582632 1.8130001
-0.20185338 -0.31628993 1.8130001
-0.19740306 -0.31628996 1.8130001
-0.20321573 -0.30539122 1.813
-0.19867459 -0.30675355 1.8130001
-0.20630369 -0.29340261 1.8130001
-0.20662157 -0.284502 1.8130001
-0.20821096 -0.27337623 1.8130001
-0.21456856 -0.26225045 1.8130001
-0.20821096 -0.26860803 1.8130001
-0.2141712 -0.25549549 1.813
-0.22092614 -0.24317768 1.8130001
-0.21502267 -0.24726471 1.813
-0.22274259 -0.2336413 1.813
-0.21774735 -0.23840949 1.8130001
-0.30357477 -0.22251552 1.8130001
-0.23523068 -0.22410491 1.813
-0.22569433 -0.22728372 1.8130001
-0.29085958 -0.21456856 1.8130001
-0.26225045 -0.21138975 1.8130001
-0.2431777 -0.21456854 1.8130001
-0.23893929 -0.21668775 1.8130001
-0.28609139 -0.20344278 1.8130001
-0.24317768 -0.20821096 1.8130001
-0.26701862 -0.17006545 1.8130001
-0.26670074 -0.16434361 1.8130001
-0.23205191 -0.10331079 1.8130001
-0.22410493 -0.10225119 1.8130001
-0.21774735 -0.10013199 1.8130001
-0.21297915 -0.096953198 1.8130001
-0.20503217 -0.095893599 1.8130001
-0.18754882 -0.096953198 1.8130001
-0.17165485 -0.093774401 1.8130001
-0.16688664 -0.09059561 1.8130001
-0.16211846 -0.087416813 1.8130001
-0.15496618 -0.085032724 1.8130001
-0.1446351 -0.083443329 1.8130001
-0.13509871 -0.082118832 1.8130001
-0.12874113 -0.081059232 1.8130001
-0.12238354 -0.077880435 1.8130001
-0.11602595 -0.077880435 1.8130001
-0.10394654 -0.074065879 1.8130001
-0.096953198 -0.071522847 1.8130001
-0.092185006 -0.068344057 1.8130001
-0.084238023 -0.067284457 1.8130001
-0.074701637 -0.065165266 1.8130001
-0.065165266 -0.063575864 1.8130001
-0.058807675 -0.061986469 1.8130001
-0.052450091 -0.058807675 1.8130001
-0.045297801 -0.055628881 1.8130001
-0.034966726 -0.052450091 1.8130001
-0.022251554 -0.052450091 1.8130001
-0.017483363 -0.052450091 1.8130001
-0.011125777 -0.049271297 1.8130001
-0.004132431 -0.045456745 1.8130001
0.0031787932 -0.042913709 1.8130001
0.007946983 -0.039734915 1.8130001
0.015099268 -0.038940217 1.8130001
0.023840949 -0.036026325 1.8130001
0.034436926 -0.033024132 1.813
0.046092499 -0.030198537 1.8130001
0.054039486 -0.030198537 1.8130001
0.047681898 -0.027019743 1.8130001
0.056423578 -0.026225045 1.8130001
0.065165259 -0.023311151 1.8130001
0.074701644 -0.020662157 1.8130001
0.084238023 -0.020662157 1.8130001
0.084238023 -0.017483363 1.8130001
0.093774401 -0.015893966 1.8130001
0.10490018 -0.015893966 1.813
0.11682065 -0.013509872 1.8130001
0.12556234 -0.012397294 1.8130001
0.13191992 -0.011125777 1.8130001
0.12768154 -0.0068873852 1.8130001
0.13509871 -0.006357586 1.8130001
0.14423774 -0.0043708403 1.813
0.15417148 -0.0031787932 1.8130001
0.16307209 -0.002860914 1.8130001
0.17483364 -0.0015893966 1.8130001
0.1859594 -0.0015893966 1.8130001
0.1939064 -0.0015893966 1.8130001
0.14781389 0.0015893966 1.8130001
0.15417147 0.0031787932 1.8130001
0.16410519 0.0043708407 1.813
0.17483364 0.00476819 1.8129998
0.18595941 0.00476819 1.813
0.19390638 0.00476819 1.8130001
0.18754882 0.011125777 1.8130001
0.19629049 0.013509871 1.8130001
0.20582686 0.016688664 1.8130001
0.1986746 0.023840949 1.8130001
0.20503217 0.023840951 1.813
0.2056679 0.034330972 1.813
0.21138975 0.03814552 1.8130001
0.22251552 0.039734915 1.8130001
0.20741627 0.0468872 1.8130001
0.21456856 0.045695156 1.813
0.22251554 0.046092506 1.8130001
0.20741627 0.054834187 1.8130001
0.21456857 0.055628881 1.813
0.22219765 0.054993123 1.8130001
0.20821096 0.061986469 1.8130001
0.21297915 0.063575864 1.8130001
-0.16052906 0.41324311 1.8130001
-0.17206891 -0.49383247 1.8230001
-0.16620898 -0.49063614 1.8230001
-0.16540991 -0.48504257 1.8230001
-0.16141449 -0.47465453 1.8230001
-0.16354539 -0.46400008 1.8230001
-0.16700807 -0.45627564 1.8230001
-0.16620898 -0.44588757 1.8230001
-0.16620898 -0.43629858 1.8230001
-0.17237332 -0.42442656 1.8230001
-0.16700806 -0.42750868 1.8230001
-0.18059246 -0.41072798 1.8230001
-0.1761176 -0.4145636 1.8230002
-0.18059246 -0.4059335 1.8230001
-0.1761176 -0.40369606 1.8230002
-0.18059246 -0.39474633 1.8230001
-0.17659704 -0.39394724 1.8230001
-0.18059246 -0.38515735 1.8230001
-0.18059246 -0.37556839 1.8230001
-0.18378878 -0.3659794 1.8230001
-0.19337776 -0.35479224 1.8230001
-0.18538696 -0.35639039 1.8230001
-0.19124687 -0.34413782 1.8230001
-0.18538694 -0.34999776 1.8230001
-0.19231232 -0.33401617 1.8230001
-0.19337778 -0.32442716 1.8230001
-0.19550864 -0.31430545 1.8230001
-0.19710682 -0.30524918 1.8230001
-0.20296673 -0.29566023 1.8230001
-0.19897133 -0.29645929 1.8230001
-0.20296673 -0.28607124 1.8230001
-0.20570645 -0.27556899 1.8230001
-0.20776123 -0.26369694 1.8230001
-0.20856032 -0.25490707 1.8230001
-0.21415389 -0.24292082 1.8230001
-0.21535252 -0.23453046 1.8230001
-0.23173368 -0.22214471 1.8230001
-0.22488441 -0.2244278 1.8230001
-0.21666528 -0.22579765 1.8230001
-0.24132267 -0.21255572 1.8230001
-0.23453048 -0.21535249 1.8230001
-0.22574058 -0.21615158 1.8230001
-0.21894838 -0.21735021 1.8230001
-0.28607124 -0.20296673 1.8230001
-0.27648225 -0.20296673 1.8230001
-0.26305768 -0.2074416 1.8230002
-0.25410795 -0.20616306 1.8230001
-0.24345355 -0.20563035 1.8230001
-0.23584323 -0.20661967 1.8230001
-0.22693919 -0.20935939 1.8230001
-0.28287491 -0.19018143 1.8230001
-0.2780804 -0.19337778 1.8230001
-0.22214471 -0.19657409 1.8230001
-0.27648225 -0.18059246 1.8230001
-0.28287491 -0.17100348 1.8230001
-0.27739546 -0.1737432 1.8230001
-0.27584296 -0.1642912 1.8230002
-0.26369694 -0.16141449 1.8230001
-0.27328596 -0.15608729 1.8230001
-0.26609418 -0.15582094 1.8230001
-0.24132267 -0.11346959 1.8230001
-0.23492999 -0.11027327 1.8230001
-0.22427559 -0.11240415 1.8230001
-0.21788293 -0.11133871 1.8230001
-0.23492999 -0.10707694 1.8230001
-0.22454195 -0.10627786 1.8230001
-0.21628477 -0.10388061 1.8230001
-0.1917796 -0.10068429 1.8230001
-0.18698511 -0.10068429 1.8230001
-0.20296673 -0.097487964 1.8230001
-0.19817226 -0.097487964 1.8230001
-0.18219063 -0.097487964 1.8230001
-0.17260164 -0.097487964 1.8230001
-0.16461082 -0.093758911 1.8230001
-0.15662001 -0.091095306 1.8230001
-0.15342368 -0.087898985 1.8230001
-0.14543286 -0.087898992 1.8230001
-0.13584389 -0.085768104 1.8230001
-0.12465674 -0.081506327 1.8230001
-0.11666592 -0.081506327 1.8230001
-0.11027327 -0.078310005 1.8230001
-0.10547878 -0.078310005 1.8230001
-0.094291635 -0.072982788 1.8230001
-0.087898985 -0.071917348 1.8230001
-0.081506327 -0.068721026 1.8230001
-0.075113676 -0.068721026 1.8230001
-0.065524697 -0.066590138 1.8230001
-0.055935722 -0.063393809 1.8230001
-0.049543064 -0.062328368 1.8230001
-0.044748574 -0.059132043 1.8230001
-0.036225032 -0.057001159 1.8230001
-0.027168777 -0.052739389 1.8230001
-0.012785306 -0.052739389 1.8230001
-0.0031963266 -0.049543064 1.8230001
0.0047944901 -0.045281295 1.8230001
0.012785306 -0.04315041 1.8230001
0.025570612 -0.039954085 1.8230001
0.036225036 -0.038888641 1.8230001
0.046346739 -0.035159592 1.8230001
0.055935714 -0.032495987 1.8230001
0.065524697 -0.030365104 1.8230001
0.067122862 -0.027168777 1.8230001
0.075113676 -0.025250981 1.8230002
0.084702648 -0.02397245 1.8230001
0.095090717 -0.021575205 1.8230001
0.10308153 -0.021575205 1.8230001
0.11187144 -0.020776123 1.8230001
0.11666592 -0.017579796 1.8230001
0.1262549 -0.016780714 1.8230001
0.13648315 -0.01310494 1.8230002
0.1438347 -0.011187144 1.8230001
0.15502185 -0.011187144 1.8230001
0.16141449 -0.011187144 1.8230001
0.14862919 -0.0079908166 1.8230001
0.15502185 -0.0079908166 1.8230001
0.16540991 -0.0071917349 1.8230001
0.1741998 -0.0063926536 1.8230001
0.18378878 -0.003729048 1.8230001
0.19018143 -0.0047944901 1.8230001
0.19977041 0.0047944901 1.8230001
0.20616306 0.0063926536 1.8230001
0.21362115 0.0069253743 1.8230001
0.19977042 0.011187144 1.8230001
0.2055238 0.012465673 1.8230002
0.21575205 0.01438347 1.8230002
0.22294378 0.014383469 1.8230001
0.21575204 0.023972452 1.8230002
0.22342324 0.024611715 1.8230002
0.23173368 0.02397245 1.8230001
0.21639132 0.034520335 1.8230002
0.2244278 0.034474667 1.8230001
0.23173368 0.033561427 1.8230001
0.24292083 0.036757756 1.8230001
0.21575205 0.049543064 1.8230001
0.22853735 0.044748574 1.8230001
0.23279913 0.044215854 1.8230001
-0.16141449 0.40753165 1.8230001
-0.16381173 0.41312522 1.8230001
-0.1719415 -0.49975523 1.8330001
-0.16471031 -0.49654138 1.8330001
-0.15908606 -0.49172056 1.8330001
-0.16229993 -0.48689979 1.8330001
-0.15828259 -0.48288247 1.8330001
-0.15747914 -0.47404432 1.8330001
-0.16229993 -0.46118891 1.8330001
-0.15747914 -0.46440277 1.8330001
-0.16358547 -0.45540395 1.8329999
-0.15747914 -0.45476118 1.8330001
-0.16229993 -0.44511962 1.8330001
-0.15780053 -0.44511962 1.8329999
-0.16229993 -0.43547806 1.8330001
-0.15828261 -0.43628147 1.8330001
-0.16459553 -0.42537731 1.8330001
-0.15908606 -0.42583644 1.8330001
-0.17274497 -0.41539139 1.8330001
-0.16643204 -0.41665402 1.8330001
-0.17301279 -0.40494636 1.8330001
-0.16580595 -0.40450808 1.8330001
-0.17408408 -0.39316222 1.8330001
-0.16551378 -0.39369786 1.8329999
-0.15747914 -0.39369786 1.8330001
-0.17515537 -0.38405627 1.8329999
-0.16712071 -0.3840563 1.8330001
-0.17515537 -0.37441468 1.8329999
-0.16792418 -0.37521815 1.8330001
-0.18158309 -0.36477312 1.8330001
-0.17607363 -0.36431393 1.8330001
-0.18158309 -0.35513154 1.8330001
-0.17607363 -0.35559067 1.8330001
-0.18479694 -0.34548998 1.8329999
-0.1770837 -0.3461327 1.8329999
-0.19122466 -0.33745527 1.8330001
-0.18479694 -0.33584833 1.8329999
-0.17836922 -0.33906221 1.8330001
-0.19122465 -0.32620677 1.8330001
-0.1857152 -0.32666591 1.8330001
-0.19122466 -0.31495827 1.8330001
-0.18586823 -0.31442264 1.8329999
-0.19283162 -0.30370978 1.8330001
-0.18672526 -0.30435255 1.8329999
-0.20086625 -0.29085433 1.8330001
-0.19443853 -0.29406819 1.8329999
-0.20166972 -0.28362316 1.8330001
-0.19535677 -0.28488573 1.8330001
-0.20166972 -0.27398157 1.8330001
-0.19765238 -0.27639198 1.8330001
-0.20247318 -0.26514345 1.8330001
-0.20367837 -0.25510013 1.8330001
-0.21050783 -0.24586029 1.8330001
-0.20499836 -0.24586026 1.8330001
-0.21050783 -0.23621871 1.8330001
-0.20649052 -0.23702218 1.8330001
-0.21372171 -0.22400603 1.8329999
-0.20568705 -0.22979099 1.8330001
-0.22175634 -0.21211475 1.8330001
-0.21693556 -0.21372169 1.8330001
-0.29085433 -0.20086625 1.8330001
-0.28281969 -0.20086625 1.8330001
-0.27398157 -0.20166972 1.8330001
-0.26594692 -0.20327663 1.8330001
-0.25871572 -0.2040801 1.8330001
-0.23380831 -0.20327663 1.8330001
-0.22497018 -0.2040801 1.8330001
-0.21693555 -0.20086625 1.8330001
-0.2854979 -0.19658111 1.8330001
-0.2731781 -0.19765238 1.8330001
-0.23300485 -0.19765238 1.8330001
-0.22400603 -0.19636685 1.8329999
-0.21532862 -0.19604546 1.8330001
-0.29085433 -0.18158309 1.8330001
-0.2844266 -0.18479694 1.8329999
-0.27478504 -0.1857152 1.8330001
-0.29085433 -0.1767623 1.8330001
-0.28635493 -0.17579815 1.8329999
-0.2731781 -0.17676231 1.8330001
-0.28603354 -0.16551378 1.8330001
-0.28378385 -0.15651497 1.8329999
-0.27570328 -0.15587221 1.8330001
-0.26514345 -0.15426528 1.8330001
