# .PCD v0.7 - Point Cloud Data file format
VERSION 0.7
FIELDS x y z
SIZE 4 4 4
TYPE F F F
COUNT 1 1 1
WIDTH 1436
HEIGHT 1
VIEWPOINT 0 0 0 1 0 0 0
POINTS 1436
DATA ascii
-0.085131295 -0.025800463 1.4713124
-0.075603738 -0.02663313 1.4700001
-0.064109758 -0.027309841 1.4706365
-0.054977927 -0.025157502 1.4743078
-0.044579379 -0.023122083 1.4770001
-0.036255427 -0.022012223 1.4770001
-0.11135595 -0.01942255 1.4770001
-0.10541566 -0.017784059 1.47
-0.052836701 -0.018686149 1.47
-0.044161752 -0.01773113 1.4708751
-0.035890497 -0.015240206 1.4727999
-0.026867859 -0.013272074 1.4770001
-0.018127713 -0.011653529 1.4770001
-0.032217499 -0.0077322004 1.47
-0.025773998 -0.0077322004 1.4700001
-0.015074208 -0.0056022648 1.4740834
-0.0090638567 -0.0025896733 1.4770001
-0.0115983 0.0051548001 1.47
-0.0054264497 0.0054264502 1.4746666
0.0047477344 0.0090638567 1.4770001
0.012948366 0.0090638567 1.4770001
-0.0115983 0.0115983 1.47
0.0051655392 0.015486646 1.4726249
0.015142224 0.016060969 1.4744999
0.025323393 0.018299539 1.4760001
0.032370917 0.01942255 1.4770001
-0.0115983 0.0219079 1.47
0.02578781 0.025787042 1.4708749
0.034697276 0.026225323 1.4757274
0.040139936 0.02719157 1.4770001
-0.0115983 0.0399497 1.47
-0.0055843666 0.038231432 1.4700001
0.0058487155 0.036777515 1.47
0.034654316 0.035822514 1.4738183
0.041434776 0.034960594 1.4770001
-0.0115983 0.042527098 1.47
-0.0044388562 0.045677256 1.4700001
0.0051548001 0.045104504 1.4700001
0.015464402 0.045104504 1.4700001
0.025785761 0.045123424 1.4705834
0.035204221 0.0447811 1.4763001
0.042729609 0.042729609 1.4770001
-0.0032248183 0.051026382 1.4735
0.0054583293 0.053330939 1.4726924
0.015353061 0.054013189 1.477
0.023307059 0.051793467 1.4770001
0.032370917 0.050498631 1.4770001
0.047908958 0.058267649 1.4770001
0.037550263 0.063446999 1.4770001
0.044456061 0.064310223 1.4770001
0.050498631 0.066036671 1.4770001
-0.15011601 -0.063962474 1.489
-0.14619993 -0.063962482 1.4890002
-0.15011601 -0.058741048 1.4890001
-0.14698316 -0.055608191 1.4890001
-0.11226067 -0.050908908 1.4890001
-0.10442853 -0.052214257 1.4890002
-0.094130717 -0.052649379 1.4890002
-0.085370325 -0.051953197 1.4890001
-0.078321397 -0.050908908 1.4890001
-0.1475053 -0.048298195 1.4890001
-0.13445173 -0.041118734 1.4890001
-0.11378358 -0.043729451 1.4890002
-0.10424541 -0.044308815 1.486375
-0.094623558 -0.044563189 1.4848462
-0.08563824 -0.043994464 1.4846001
-0.075538084 -0.044286456 1.485625
-0.065709494 -0.042505711 1.4872001
-0.056783013 -0.041118734 1.4890001
-0.15011601 -0.031328559 1.4890001
-0.1446335 -0.03315606 1.4890002
-0.1366608 -0.03424051 1.4890002
-0.12139817 -0.030023202 1.4890001
-0.11518047 -0.034479175 1.4881431
-0.1043623 -0.03533899 1.4829999
-0.094907053 -0.036402706 1.4829999
-0.086673111 -0.036836069 1.4829999
-0.079305895 -0.037702803 1.483
-0.064354785 -0.036077682 1.4829999
-0.05469304 -0.035164412 1.4855
-0.044866394 -0.034696184 1.4878001
-0.03449871 -0.031887997 1.4890002
-0.14228387 -0.024801776 1.489
-0.13738878 -0.024801776 1.4890002
-0.12139817 -0.027412489 1.4890001
-0.11445495 -0.025733471 1.4848462
-0.1070413 -0.029035494 1.4830002
-0.051570505 -0.029035494 1.4830002
-0.043769918 -0.02816876 1.4829999
-0.034538228 -0.026158661 1.4836667
-0.026061896 -0.024242813 1.4866002
-0.017622314 -0.022843741 1.4890001
-0.14340274 -0.015104841 1.4890002
-0.13706245 -0.015664279 1.4890002
-0.1170087 -0.01950145 1.483
-0.02502686 -0.017876329 1.4829999
-0.015835375 -0.015838882 1.485
-0.0060916641 -0.012618448 1.4890002
-0.14489459 -0.0091374964 1.4890001
-0.13706245 -0.0091374964 1.4890001
-0.01170087 -0.0091006765 1.483
-0.0046439539 -0.0055763507 1.483857
0.0049201902 -0.0043177181 1.4890002
0.013985964 -0.0031701517 1.4890002
-0.0013000966 0.0013000966 1.483
0.0053113182 0.0043039611 1.4853077
0.016019205 0.0046529705 1.4872857
0.024428817 0.0072727012 1.4890002
0.031328559 0.0091374964 1.4890001
0.018201353 0.01170087 1.483
0.026001932 0.013651014 1.4829999
0.034968775 0.014982232 1.4864999
0.043536618 0.016962463 1.4884547
0.051779147 0.018710112 1.489
0.037702803 0.022101643 1.483
0.045162424 0.02573185 1.4848461
0.054041762 0.025062848 1.4890002
0.065267831 0.027412489 1.4890001
0.073099971 0.027412489 1.4890001
0.046803478 0.03510261 1.4829999
0.054785855 0.033911329 1.4878752
0.065267831 0.033939272 1.4890002
0.075710684 0.033939272 1.4890002
0.083542824 0.035244629 1.4890001
0.044636652 0.044636652 1.4829999
0.054604057 0.044203285 1.4829999
0.065220825 0.044346295 1.4878752
0.075710684 0.044382125 1.4890002
0.082759604 0.043598913 1.4890001
0.016901257 0.057204254 1.483
0.026868664 0.055470791 1.4829999
0.03533899 0.05495863 1.4829999
0.043943267 0.054344039 1.4829999
0.054604057 0.054604057 1.4829999
0.065220825 0.054785196 1.4878751
0.07540945 0.053921275 1.4890002
0.082237467 0.050908908 1.4890001
0.018235542 0.061228152 1.4860001
0.026065711 0.063217096 1.4867501
0.033410642 0.064080723 1.485
0.043769922 0.062838003 1.4829999
0.055001665 0.063514262 1.4840909
0.06516742 0.06436412 1.4890002
-0.14332749 -0.065387309 1.4960002
-0.15082173 -0.05508272 1.4960001
-0.14271434 -0.05472504 1.4960002
-0.13639531 -0.052459732 1.4960001
-0.11484934 -0.053771228 1.4960002
-0.10473211 -0.057518356 1.4960002
-0.094864689 -0.057705712 1.4960002
-0.083935574 -0.05508272 1.4960001
-0.074755125 -0.052022565 1.4959999
-0.14426427 -0.044590775 1.4960002
-0.13606744 -0.045246515 1.4960002
-0.12524763 -0.042295665 1.4960002
-0.11869015 -0.046558015 1.4960001
-0.064700343 -0.047650918 1.4960002
-0.055270076 -0.044403415 1.4960002
-0.046558015 -0.041312043 1.4960001
-0.15082173 -0.035410319 1.4960001
-0.14688724 -0.038033307 1.4960001
-0.13246083 -0.032787334 1.4959999
-0.12546618 -0.034754574 1.4960002
-0.041967787 -0.038033307 1.4960001
-0.034098826 -0.035410319 1.4960001
-0.02557412 -0.030820094 1.4960001
-0.15082173 -0.026229866 1.4960001
-0.14662495 -0.025442969 1.4960001
-0.13311657 -0.024918374 1.4960001
-0.12328038 -0.026229866 1.4960001
-0.022295386 -0.02754136 1.4960001
-0.017049413 -0.026229868 1.4960001
-0.15194586 -0.015175851 1.4960002
-0.14767414 -0.016524818 1.4960001
-0.01180344 -0.018360905 1.4960001
-0.0049836747 -0.016000221 1.4960001
0.0032787332 -0.012459187 1.4960001
0.01180344 -0.01180344 1.4960001
-0.15082173 -0.0013114933 1.4960001
-0.14370219 -0.0061827535 1.4960002
-0.13552098 -0.0056831376 1.4960002
0.0065574669 -0.0091804536 1.4959999
0.016674701 -0.0061827539 1.4960002
0.0245905 -0.0036066067 1.4960002
0.030164346 -0.0013114933 1.4960001
-0.15213323 0.0013114933 1.4960001
0.025442969 0.0023606878 1.4960001
0.034199711 0.0049433205 1.4960002
0.043716442 0.0083061242 1.4960002
0.05114824 0.0091804536 1.4960001
0.046426862 0.012852634 1.4960001
0.055519883 0.015300757 1.4960002
0.06459105 0.018033033 1.4960002
0.0590172 0.02360688 1.4960001
0.065574661 0.02360688 1.4960002
0.075129829 0.02416895 1.4960002
0.083148681 0.025180673 1.4960002
0.085902818 0.033443078 1.4960002
0.094165221 0.034361124 1.4960002
0.10439487 0.035934914 1.4960002
0.11409992 0.038033307 1.4960001
0.086745925 0.045152843 1.4960002
0.094427526 0.044590775 1.4960002
0.10491946 0.044590771 1.4960002
0.11409992 0.043279279 1.4960001
0.076066613 0.0590172 1.4960001
0.085028492 0.055738468 1.4960002
0.094052806 0.054520655 1.4960002
0.10465716 0.052722029 1.4960001
0.1167229 0.053771228 1.4960001
0.022295386 0.064263172 1.4960001
0.068197653 0.069509149 1.4960001
0.074755117 0.065574668 1.4960002
0.083560862 0.065012597 1.4960002
0.090493038 0.061640188 1.4960001
0.076066613 0.072132133 1.4960001
0.080001093 0.072132133 1.4960001
-0.1468408 -0.080696292 1.5090001
-0.14364928 -0.075296246 1.50675
-0.13581671 -0.071877025 1.5089999
-0.12832034 -0.070113167 1.5090001
-0.09127941 -0.070113167 1.5090001
-0.14098641 -0.069834389 1.503
-0.13422923 -0.065377265 1.5051819
-0.12534383 -0.063829444 1.5089999
-0.11471347 -0.064065672 1.5089999
-0.10569093 -0.064739205 1.5070001
-0.095121838 -0.064739205 1.507
-0.084894307 -0.064267732 1.5084
-0.076727614 -0.062175829 1.5090001
-0.13242182 -0.056658089 1.5030001
-0.12456094 -0.055783808 1.5047144
-0.11630859 -0.057759531 1.5042002
-0.083601914 -0.058813639 1.5042
-0.073834918 -0.057691973 1.5070001
-0.065351553 -0.055015221 1.5060002
-0.05550484 -0.054187208 1.5075001
-0.047624037 -0.051592711 1.5090001
-0.13044538 -0.048752308 1.503
-0.12570189 -0.047698207 1.503
-0.052265991 -0.047873888 1.5029999
-0.044324443 -0.046702486 1.5048001
-0.035019327 -0.043834209 1.5075001
-0.027780689 -0.04100959 1.5090001
-0.16006969 -0.030426471 1.5090001
-0.15538654 -0.03477649 1.5063334
-0.031623118 -0.038211271 1.503
-0.024685556 -0.036372524 1.5047143
-0.015947308 -0.034031592 1.5062308
-0.0092602298 -0.030426471 1.5090001
-0.16006969 -0.025134912 1.5090002
-0.15544765 -0.024744166 1.5081428
-0.14889219 -0.02239971 1.503
-0.12622158 -0.024186358 1.505
-0.01185867 -0.027670231 1.503
-0.0063134609 -0.024527086 1.5076667
0.0013228899 -0.02248913 1.5090001
-0.16006969 -0.01190601 1.5090001
-0.15664648 -0.016638959 1.5066
-0.13096611 -0.01587468 1.5090001
-0.12519284 -0.015870735 1.5085
-0.0039546434 -0.01979075 1.5050001
0.0054262746 -0.017455895 1.5056667
0.015852982 -0.014531408 1.50675
0.025134912 -0.01190601 1.5090002
-0.16006969 -0.0092602298 1.5090001
-0.15474083 -0.005644219 1.5062729
-0.14537852 -0.0039528902 1.5030001
-0.13316743 -0.0035198163 1.5040001
-0.12610587 -0.0081945537 1.5077999
0.019764449 -0.0092234099 1.503
0.025034972 -0.0092234099 1.5029999
0.034706201 -0.0054070409 1.5068181
0.043655369 -0.00132289 1.5090002
-0.1538333 0.0062587424 1.5030001
-0.1448676 0.0055442154 1.5050002
-0.13673159 0.0047618784 1.5083998
0.04581197 0.002965325 1.5037501
0.05554378 0.0049713072 1.5057695
0.063855529 0.0074841031 1.507
0.070113167 0.0092602298 1.5090001
-0.15444739 0.014882513 1.5089999
-0.1455179 0.014551789 1.5089999
-0.13658839 0.014221068 1.5089999
0.066759922 0.012737091 1.5030001
0.074887931 0.016492072 1.5052501
0.084496647 0.018481009 1.5059999
0.095156029 0.018500734 1.5075001
0.10318542 0.019843349 1.5090001
-0.14154923 0.025134912 1.5090002
-0.13784513 0.024605755 1.5090001
0.095228702 0.0247954 1.5030001
0.10506719 0.026099462 1.5075001
0.11244565 0.027780689 1.5090001
-0.14154923 0.03174936 1.5090001
-0.13824201 0.033733696 1.5090001
0.10620098 0.03083254 1.503
0.11561509 0.033260442 1.5043334
0.12377357 0.035438199 1.5084
0.1344938 0.036305979 1.5089999
0.14154923 0.038363811 1.5090001
-0.13758056 0.04100959 1.5090001
0.1175326 0.045062944 1.5030001
0.12521739 0.044813007 1.5035001
0.13460273 0.044864513 1.5052502
0.14154923 0.046301153 1.5090002
0.098822251 0.059293348 1.503
0.10639863 0.057316907 1.5030001
0.11585008 0.055644527 1.5030001
0.12517485 0.055340454 1.5030001
0.13421829 0.055122536 1.5072858
0.14154923 0.051592711 1.5090001
0.088281207 0.069834389 1.503
0.095743723 0.06626524 1.5035456
0.10569093 0.064739205 1.507
0.11588328 0.064729802 1.5068183
0.12514539 0.064821616 1.5089999
0.13272996 0.063939683 1.5089999
0.086963579 0.072469652 1.503
0.095709838 0.073054262 1.5072858
0.10186253 0.070113167 1.5090001
0.11773721 0.070113167 1.5090001
0.12435166 0.070113167 1.5090001
0.13096611 0.070113167 1.5090001
-0.14353487 -0.081070624 1.516
-0.1395478 -0.081070624 1.516
-0.13489619 -0.076086782 1.5159999
-0.12549809 -0.072337024 1.5159999
-0.11429629 -0.071767434 1.5159999
-0.1049931 -0.071767442 1.5159999
-0.095542245 -0.072801128 1.5159999
-0.085855119 -0.070970021 1.516
-0.12293497 -0.067115843 1.516
-0.11695435 -0.067780361 1.516
-0.083728679 -0.067780361 1.516
-0.074425489 -0.065122306 1.5159999
-0.065122306 -0.063793279 1.5159999
-0.056084923 -0.062995866 1.516
-0.062464252 -0.059806198 1.516
-0.055819117 -0.059806198 1.516
-0.04554937 -0.055698298 1.5159999
-0.038541771 -0.051832039 1.516
-0.032561153 -0.048509471 1.516
-0.025251508 -0.04385788 1.5159999
-0.016745735 -0.041731436 1.516
-0.013290267 -0.038541771 1.516
-0.0053161071 -0.032561153 1.5159999
0.0026580533 -0.030567612 1.516
-0.0022150443 -0.027023541 1.5160002
0.005168437 -0.024956167 1.5159999
0.013290267 -0.022593454 1.516
-0.12625754 -0.017277347 1.516
0.009303187 -0.019935399 1.516
0.016834337 -0.019049382 1.5159999
0.024586994 -0.015283807 1.516
0.03189664 -0.01196124 1.516
0.037212744 -0.009303187 1.516
0.044743899 -0.0051684366 1.5159999
0.055376112 -0.0031010623 1.5159999
0.062464252 -0.0013290267 1.516
-0.13423169 0.0079741599 1.516
0.059806198 0.0013290267 1.516
0.06565392 0.0034554694 1.516
0.072564855 0.0071767443 1.516
-0.1541671 0.019935399 1.516
-0.1448639 0.019935399 1.5160002
-0.13688974 0.019049382 1.5160002
0.077526547 0.012847259 1.5160002
0.085057713 0.013290266 1.5159999
0.095120333 0.013480127 1.5159999
0.1049931 0.016834337 1.5159999
0.11163824 0.019935399 1.516
-0.15336968 0.024985703 1.5159999
-0.14619294 0.025251508 1.5159999
0.1049931 0.022593454 1.516
0.11482792 0.024719898 1.5159999
0.12404248 0.027023541 1.5159999
0.13423169 0.02790956 1.5160002
-0.15195204 0.034111686 1.5159999
-0.14539552 0.035086304 1.5159999
-0.13821876 0.038541771 1.516
0.12678915 0.031630836 1.516
0.1361303 0.032086503 1.5159999
0.14486392 0.034554698 1.5159999
0.15106604 0.037655752 1.5160002
-0.16081223 0.047844961 1.516
-0.1541671 0.045186903 1.5160002
-0.14539552 0.044655297 1.5159999
-0.1395478 0.04385788 1.516
0.14574991 0.044743899 1.5159999
0.15345147 0.045902543 1.516
-0.16081223 0.05581912 1.516
-0.15582837 0.054157838 1.5159999
-0.14752196 0.051832039 1.516
0.1395478 0.058477171 1.516
0.14510556 0.056181576 1.5159999
0.1541671 0.055819113 1.5160002
-0.16147673 0.064457789 1.516
-0.15815417 0.065122306 1.5160002
0.13755426 0.065122306 1.516
0.14486392 0.064362861 1.5159999
0.15452956 0.064880662 1.5159999
-0.16347028 0.070438415 1.516
-0.15815417 0.070438415 1.516
0.099676996 0.077083543 1.516
0.10466085 0.073760979 1.5159999
0.11341027 0.071767442 1.5159999
0.12435893 0.074235626 1.5159999
0.13423169 0.071767442 1.516
0.1448639 0.070438415 1.516
0.15616064 0.071102932 1.516
-0.15236144 -0.096063673 1.5289999
-0.14509447 -0.085453577 1.5264286
-0.13467032 -0.082499005 1.5260001
-0.12465936 -0.08243604 1.529
-0.11617002 -0.082659446 1.5290002
-0.10723387 -0.081765823 1.529
-0.095170058 -0.081765823 1.529
-0.13218117 -0.078774638 1.5230001
-0.12450399 -0.077105686 1.523
-0.1149345 -0.077517055 1.5245001
-0.10434788 -0.077594645 1.5260001
-0.095560178 -0.078184642 1.5245001
-0.08555302 -0.076197416 1.5248001
-0.076272629 -0.072453365 1.5264286
-0.067021161 -0.071042433 1.529
-0.072098821 -0.06809333 1.5230001
-0.063383535 -0.067666568 1.5254002
-0.054846898 -0.066889666 1.5260001
-0.046268187 -0.062317502 1.5254002
-0.041390061 -0.057412025 1.5230001
-0.034764875 -0.0541563 1.52525
-0.026808467 -0.052276511 1.529
-0.023170883 -0.048575804 1.5250001
-0.015093069 -0.046048168 1.5255716
-0.0073631234 -0.042182572 1.5275002
-0.00476844 -0.037575312 1.523
0.0054682484 -0.034389798 1.5246364
0.01406261 -0.031469706 1.5275002
0.020106349 -0.030829737 1.529
0.0080109797 -0.028038429 1.5230001
0.01507804 -0.026146833 1.5238572
0.023982432 -0.02377864 1.5262307
0.034851007 -0.020106349 1.529
0.026703266 -0.017357124 1.5230001
0.035290916 -0.015241375 1.5248001
0.044951838 -0.013199218 1.5272858
0.054957356 -0.01206381 1.5289999
0.047398299 -0.008678562 1.5230001
0.055275761 -0.0082780123 1.5230001
0.064543791 -0.005473508 1.5251819
0.073893748 -0.0034220193 1.5263333
0.08310625 -0.0013404234 1.529
0.06809333 0.0013351634 1.5230001
0.076135345 0.0040060156 1.5236
0.085618772 0.0053459131 1.5260003
0.094602853 0.0070168404 1.5252501
0.10434788 0.00802413 1.5260001
0.11516726 0.009373758 1.5275
0.10494383 0.012550536 1.5230001
0.11482403 0.014686797 1.5230001
0.1240823 0.015048202 1.526
0.13203171 0.016755292 1.529
0.1434253 0.017425504 1.529
-0.15888444 0.025368104 1.5230001
0.11749437 0.020027449 1.5230001
0.12603943 0.02216371 1.523
0.1348515 0.022697777 1.523
0.14430448 0.02404773 1.5241252
0.15497835 0.024352917 1.5265998
-0.1562141 0.036049411 1.5230001
0.14820313 0.030708756 1.5230001
0.15559787 0.033995312 1.5230001
0.16410612 0.035808451 1.5290002
0.17237845 0.03779994 1.529
-0.14152731 0.048065878 1.5230001
0.15799433 0.042280171 1.5230001
0.16481903 0.045559052 1.5285001
0.17425501 0.045574393 1.5289999
0.18210609 0.045765884 1.5290002
-0.15300973 0.056343894 1.5230001
-0.14429826 0.05483871 1.5256667
0.1648249 0.055029243 1.5236
0.17462061 0.054713652 1.5290002
0.18202949 0.055493522 1.529
-0.16422509 0.064532898 1.5230001
-0.15369414 0.064154036 1.5245003
-0.14491774 0.064023495 1.5278001
0.13752182 0.06809333 1.5230001
0.14375259 0.06809333 1.5230001
0.15087345 0.06809333 1.5230001
0.16493694 0.063898683 1.5257691
0.17364575 0.063731037 1.5290002
0.18229757 0.061659478 1.529
-0.16326252 0.075428531 1.5247144
-0.15513825 0.075293213 1.5282
-0.14717166 0.073680453 1.5281429
0.10725812 0.077884533 1.5230001
0.11425184 0.07648579 1.523
0.13752182 0.07343398 1.5230001
0.1446427 0.072098821 1.5230001
0.15309873 0.073879041 1.5230001
0.16474478 0.07205902 1.5278002
0.17157418 0.071042433 1.529
0.18631884 0.071042433 1.529
-0.16219123 0.081765823 1.529
-0.15481889 0.08243604 1.529
-0.17184226 0.10642961 1.529
-0.1548544 -0.10503169 1.5360001
-0.14778496 -0.093249276 1.5360001
-0.11984384 -0.09021952 1.536
-0.1413888 -0.087526396 1.536
-0.13384806 -0.086449146 1.536
-0.12523009 -0.086449146 1.536
-0.11499623 -0.086449146 1.536
-0.10469504 -0.084833272 1.5360001
-0.094708055 -0.084534034 1.5360001
-0.086179838 -0.082140163 1.536
-0.082140163 -0.079447038 1.536
-0.07450965 -0.076305062 1.5360001
-0.064634874 -0.072714239 1.536
-0.057902079 -0.071367681 1.536
-0.052515838 -0.068674557 1.536
-0.045783043 -0.065308154 1.536
-0.037030399 -0.061268479 1.536
-0.033663999 -0.057902079 1.5359999
-0.023968767 -0.054131709 1.536
-0.01481216 -0.052515838 1.5359999
-0.0134656 -0.049822718 1.536
-0.0053862398 -0.044436481 1.536
0.00134656 -0.04174336 1.536
0.0067327996 -0.03905024 1.5359999
0.01481216 -0.034561709 1.5359999
0.021544959 -0.032317437 1.536
0.0269312 -0.02827776 1.536
0.03420262 -0.023430143 1.536
0.044436481 -0.020198399 1.5359999
0.046590976 -0.016966658 1.536
0.055208955 -0.01615872 1.5360001
0.063737176 -0.013016745 1.5360001
0.071367681 -0.01211904 1.536
0.067327999 -0.0094259195 1.536
0.07621529 -0.0072714239 1.536
0.085506558 -0.0033664 1.536
0.091117226 -0.0022442667 1.5359999
0.09627904 0.0020198401 1.536
0.10445458 0.0028854858 1.5360001
0.11499622 0.0061941757 1.536
0.12388352 0.0094259195 1.536
0.12792321 0.01211904 1.536
0.13523309 0.014042697 1.5360001
0.14542848 0.015485439 1.5360001
0.1548544 0.016832002 1.536
0.16024064 0.017505281 1.536
0.16562688 0.02827776 1.536
0.17370623 0.02827776 1.536
0.16670413 0.033663999 1.536
0.17559142 0.033933308 1.5360001
0.18492757 0.038152531 1.5360001
0.19255808 0.03905024 1.536
0.18806954 0.045633424 1.5360001
0.19424127 0.046792962 1.5360001
-0.14408192 0.056555517 1.536
0.18794131 0.054824229 1.5360001
0.1952512 0.055208959 1.5360001
0.201984 0.057902079 1.536
0.17774592 0.067327999 1.536
0.18643735 0.065491788 1.5360001
0.19558784 0.063624963 1.5360001
0.20279193 0.064365566 1.536
0.17639937 0.071367681 1.536
0.18986496 0.071367681 1.536
0.19525118 0.071367681 1.5359999
0.20153515 0.072265387 1.5359999
-0.16131788 0.085371897 1.536
-0.15431578 0.086449146 1.536
-0.17101312 0.096952319 1.536
-0.16334809 0.094569936 1.536
-0.15485439 0.094259195 1.5360001
-0.17191082 0.10188971 1.5359999
-0.16428033 0.10503167 1.5359999
-0.15460958 0.10466444 1.5360001
-0.1721673 0.11522706 1.5360001
-0.16428031 0.11580415 1.5359999
-0.15377715 0.11445759 1.536
-0.17101312 0.12253696 1.536
-0.16428031 0.12523007 1.5360001
-0.15754752 0.12388352 1.536
-0.16293375 0.13061632 1.5359999
-0.1618727 -0.10596124 1.5430001
-0.1533958 -0.10578088 1.5430001
-0.14428765 -0.09513966 1.5430001
-0.13572057 -0.090630673 1.5430001
-0.12444809 -0.09198337 1.5430001
-0.11459273 -0.092563093 1.5430001
-0.10596123 -0.092434257 1.5430001
-0.096717812 -0.091307022 1.5430001
-0.13391697 -0.087925285 1.5430001
-0.11497921 -0.087925285 1.5430001
-0.10415764 -0.087925285 1.5430001
-0.09198337 -0.087925285 1.5430001
-0.085896239 -0.08521989 1.5430001
-0.079809099 -0.082514495 1.5430001
-0.074398316 -0.079809099 1.5430001
-0.064736202 -0.07671722 1.5430001
-0.056813262 -0.073045619 1.5430001
-0.044638991 -0.067183934 1.5430001
-0.034358494 -0.063576743 1.5430001
-0.025701236 -0.061547697 1.5430001
-0.023536922 -0.057624884 1.5430001
-0.015556011 -0.05613691 1.5430001
-0.0081161801 -0.050049778 1.5430001
-0.0033817417 -0.046668038 1.5430001
0.0045089889 -0.043737192 1.5430001
0.014879663 -0.037875507 1.5430001
0.025250338 -0.033366516 1.5430001
0.031112023 -0.031112023 1.5430001
0.035170112 -0.027053932 1.5430001
0.044097912 -0.024078 1.5430001
0.053296249 -0.020831529 1.5430001
0.060871348 -0.020290449 1.5430001
0.065199986 -0.016502898 1.5430001
0.075751014 -0.013526968 1.5430001
0.082514495 -0.01217427 1.5430001
0.078456402 -0.0094688768 1.5430001
0.08521989 -0.0081161801 1.5430001
0.095268488 -0.00405809 1.5430001
0.10469872 -0.0018937753 1.5430001
0.11227382 -0.0013526967 1.5430001
0.12039001 -0.0013526967 1.5430001
0.10956843 0.0013526967 1.5430001
0.1155203 0.0024348539 1.5430001
0.1244481 0.0045991689 1.5430001
0.13468994 0.0083094221 1.5430001
0.14473854 0.0094688768 1.5430001
0.15285473 0.0094688768 1.5430001
0.13932775 0.01217427 1.5430001
0.14473854 0.01217427 1.5430001
0.15465833 0.013076068 1.5430001
0.1609709 0.013526967 1.5430001
0.16529953 0.025160158 1.5430001
0.17503896 0.027324473 1.5430001
0.18396674 0.028406629 1.5430001
0.19567199 0.024459001 1.5499998
0.20425719 0.028406629 1.5430001
0.17990865 0.031112023 1.5430001
0.18570592 0.033044446 1.5430001
0.19530858 0.034857951 1.543
0.20358086 0.036184635 1.5430001
0.19817007 0.043962643 1.5430001
0.20391902 0.044977166 1.5430001
0.20499505 0.053738952 1.5430001
0.21372607 0.054107867 1.5430001
0.19451778 0.066823214 1.5430001
0.20576018 0.064478546 1.5430001
0.21417697 0.061773147 1.5430001
0.20696259 0.071692921 1.5430001
-0.16728349 0.087023489 1.5430001
-0.1690871 0.093336068 1.5430001
-0.15826552 0.10956843 1.5430001
-0.15664229 0.11606137 1.5430001
-0.17179248 0.12580079 1.5430001
-0.15826552 0.12039001 1.5430001
-0.16676816 0.13468994 1.5430001
-0.16490601 0.14449258 1.5430001
-0.15826552 0.14744394 1.5430001
-0.17585059 0.15478715 1.543
-0.16502899 0.15420739 1.5429999
-0.15826552 0.15556012 1.5430001
-0.17595461 0.16409251 1.543
-0.16547988 0.16412719 1.5430001
-0.15826552 0.1609709 1.5430001
-0.19208293 0.19884641 1.5430001
-0.1649159 -0.11176185 1.5546666
-0.1589835 -0.11278316 1.5500001
-0.16713651 -0.10734783 1.5500001
-0.15151167 -0.10510269 1.557
-0.1476488 -0.1031293 1.5546666
-0.1228473 -0.10237275 1.557
-0.11465748 -0.10237275 1.557
-0.10373772 -0.10237275 1.557
-0.1416347 -0.098056912 1.5535001
-0.13515955 -0.095652744 1.5542001
-0.12571652 -0.097582154 1.5531112
-0.1152238 -0.098438263 1.5523334
-0.10486642 -0.098059982 1.5535001
-0.095332496 -0.09615393 1.5535001
-0.087680109 -0.092225917 1.5546666
-0.082982421 -0.087065056 1.5517501
-0.074904591 -0.084440976 1.5535001
-0.065569982 -0.08283779 1.5546668
-0.058693711 -0.080533229 1.557
-0.053911243 -0.074932218 1.554
-0.045547042 -0.073370337 1.5556
-0.03548922 -0.072343409 1.557
-0.043482665 -0.069300503 1.5500001
-0.034838479 -0.068314627 1.554
-0.024375636 -0.066201411 1.5525455
-0.015320627 -0.063672744 1.5535001
-0.013588334 -0.058429834 1.5500001
-0.0054465835 -0.054480154 1.5535001
0.0044330843 -0.052153341 1.55525
0.0073376996 -0.046472102 1.5500001
0.01464121 -0.044606112 1.5535001
0.024095036 -0.043192342 1.5558333
0.03548922 -0.042314071 1.557
0.017664833 -0.039406165 1.5500001
0.025041357 -0.038241453 1.5500001
0.03566689 -0.035670981 1.5527998
0.044540051 -0.033261862 1.5530001
0.053233832 -0.03139431 1.557
0.039406165 -0.0285355 1.5500001
0.045520917 -0.027856084 1.5500001
0.054792546 -0.026100041 1.5519092
0.065348275 -0.023828166 1.5529166
0.074904591 -0.021793494 1.5535001
0.082580686 -0.021157034 1.557
0.069300503 -0.017664833 1.5500001
0.074735843 -0.017664833 1.5500001
0.084831096 -0.015498677 1.5507001
0.094830081 -0.014446591 1.5542001
0.1045567 -0.013376705 1.557
0.11329252 -0.01228473 1.557
0.096024215 -0.008605944 1.5500001
0.10496988 -0.0071338746 1.5500001
0.11460562 -0.0060238275 1.5509999
0.12484737 -0.0045817788 1.5525455
0.13430074 -0.0020459208 1.55525
0.14423183 -0.0022749498 1.557
0.15560657 -0.00136497 1.557
0.16243143 -0.00136497 1.557
0.12908916 0.0027176666 1.5500001
0.13633627 0.0031706109 1.5500001
0.14554109 0.0040778634 1.5515556
0.15543582 0.0044964901 1.5521538
0.16378275 0.0068143294 1.5550001
0.18700089 0.0095547903 1.557
0.16646786 0.015343295 1.551
0.17494561 0.014751988 1.5557274
0.18563591 0.015014668 1.557
0.19519071 0.01501467 1.557
0.20416053 0.016574634 1.557
0.21293533 0.01774461 1.557
0.16713651 0.021741332 1.5500001
0.17567775 0.022323688 1.5500001
0.18517865 0.02352535 1.5505384
0.20560837 0.024136944 1.5531819
0.21548308 0.024546066 1.5556873
0.22461337 0.025631102 1.557
0.23306862 0.026275672 1.557
0.19431317 0.031253166 1.5500001
0.20654267 0.033291414 1.5500001
0.21493961 0.035368789 1.5517498
0.2250523 0.035462629 1.5558333
0.23450184 0.035762213 1.5569998
0.24159969 0.03958413 1.557
0.20790149 0.042123832 1.5500001
0.21469565 0.044841498 1.5500001
0.22525485 0.045213293 1.5535001
0.2351471 0.044795837 1.557
0.24159969 0.045044009 1.557
0.21500924 0.054039754 1.55
0.22549872 0.054133523 1.5513998
0.23571981 0.054913782 1.5569999
0.24159969 0.050503891 1.557
0.21531333 0.066582836 1.5500001
0.22480226 0.065397359 1.5540833
0.23313689 0.065245569 1.557
0.21365798 0.07212659 1.5523334
0.22794999 0.072343409 1.557
0.23682228 0.073025897 1.557
0.24341965 0.07416337 1.557
-0.16713651 0.13995983 1.5500001
-0.17490128 0.14617164 1.5500001
-0.16713651 0.14811283 1.5500001
-0.17664833 0.15083049 1.5500001
-0.18072483 0.16985416 1.5500001
-0.17393067 0.16985416 1.5500001
-0.16532473 0.16804238 1.5500001
-0.19246078 0.17881107 1.557
-0.18228771 0.17412858 1.5517501
-0.17451519 0.17315634 1.55525
-0.16577767 0.17257184 1.5500001
-0.19246078 0.18154101 1.557
-0.18651721 0.18525815 1.5564615
-0.19159549 0.19567201 1.5500001
-0.18741798 0.19529493 1.5554445
-0.1645328 -0.11654407 1.5640001
-0.15493505 -0.1119737 1.5640001
-0.12477071 -0.11105964 1.5640001
-0.14442323 -0.10511818 1.5640001
-0.13436845 -0.10488965 1.5640001
-0.12516245 -0.1063587 1.5640001
-0.11517296 -0.10557521 1.5640001
-0.10420411 -0.10466114 1.5640001
-0.094606362 -0.10191894 1.5640001
-0.08912193 -0.10009079 1.5640001
-0.091864146 -0.097348571 1.5640001
-0.085282825 -0.094606355 1.5640001
-0.074039757 -0.091864146 1.5640001
-0.069926441 -0.091864146 1.5640001
-0.08089529 -0.08912193 1.5640001
-0.075410865 -0.08912193 1.5640001
-0.06489905 -0.088207863 1.5640001
-0.055431884 -0.082854018 1.5640001
-0.046617627 -0.08089529 1.5640001
-0.052102052 -0.078153081 1.5640001
-0.044560965 -0.077467524 1.5640001
-0.035648771 -0.076781966 1.5640001
-0.02559399 -0.073582716 1.5640001
-0.020566599 -0.069926441 1.5640001
-0.014396621 -0.069240883 1.5640001
-0.007541087 -0.062385358 1.5640001
-0.0027422132 -0.058957588 1.5640001
0.005210205 -0.056763817 1.5640001
0.013254032 -0.051645014 1.5640001
0.017824387 -0.047988731 1.5640001
0.024405697 -0.046891846 1.5640001
0.034277666 -0.045246523 1.5640001
0.042504307 -0.042504307 1.5640001
0.045246519 -0.038390987 1.5640001
0.054844264 -0.034277666 1.5640001
0.064442016 -0.031535454 1.5640001
0.067184232 -0.02879324 1.5640001
0.074725315 -0.02673658 1.5640001
0.085465647 -0.023765849 1.5640001
0.093235254 -0.021937706 1.5640001
0.102833 -0.020566599 1.5640001
0.097348571 -0.017824387 1.5640001
0.10502677 -0.017275944 1.5640001
0.11380184 -0.015082174 1.5640001
0.12202849 -0.01233996 1.5640001
0.12614182 -0.0095977467 1.5640001
0.13456433 -0.006463788 1.5640001
0.14615998 -0.0057586478 1.5640001
0.15424949 -0.0047988733 1.5640001
0.1631617 -0.0031992488 1.5640001
0.16681798 0.0041133203 1.5640001
0.17550166 0.0082266396 1.5640001
0.18455094 0.0079524191 1.5640001
0.19378309 0.008683675 1.5640001
0.20292377 0.0095977467 1.5640001
0.20648865 0.012888404 1.5640001
0.21526372 0.014625139 1.5640001
0.22309864 0.015865663 1.5640001
0.23308812 0.016453281 1.5640001
0.22806074 0.02148067 1.5640001
0.23754422 0.022966037 1.5640001
0.24405698 0.027422132 1.5640001
0.23994367 0.031535454 1.5640001
0.24474254 0.034620441 1.5640001
0.24542809 0.045246515 1.5640001
0.24425288 0.055431884 1.5640001
0.23857255 0.066270158 1.5640001
0.2451788 0.066187054 1.5640002
0.25456879 0.068098299 1.5640001
0.24268588 0.072668649 1.5640001
-0.16041948 0.15219285 1.5640001
-0.18509939 0.17961498 1.5640001
-0.16727501 0.17687276 1.5640001
-0.19424011 0.18601346 1.5640001
-0.18235719 0.18647051 1.5640001
-0.17961498 0.18647051 1.5640001
-0.19332604 0.19058383 1.5640001
-0.18290563 0.1955198 1.5640001
-0.17573018 0.19583972 1.5640001
-0.19149791 0.20520897 1.5640001
-0.18627463 0.20507839 1.5640001
-0.18509939 0.21252154 1.5640001
-0.17550164 0.2248615 1.5640001
-0.18715605 0.23445924 1.5640001
-0.19743936 0.24268588 1.5640001
-0.17303208 -0.12319884 1.5790001
-0.1655539 -0.12209709 1.57375
-0.17226499 -0.11851832 1.572
-0.16675252 -0.11989644 1.572
-0.15405075 -0.11539326 1.575
-0.14475924 -0.11436084 1.576375
-0.13525622 -0.11455783 1.5743335
-0.12497984 -0.11517033 1.5743334
-0.116571 -0.1130255 1.5749999
-0.10658777 -0.11212478 1.5790001
-0.1447026 -0.10887148 1.572
-0.13919012 -0.10887148 1.572
-0.11576208 -0.10887148 1.572
-0.10484912 -0.10899268 1.57375
-0.094936736 -0.10717802 1.5760001
-0.086553447 -0.10267038 1.5755
-0.077518374 -0.10105073 1.5790001
-0.082687199 -0.096468396 1.572
-0.07491263 -0.096057437 1.5727779
-0.065224327 -0.094907604 1.574625
-0.057380684 -0.093334533 1.57725
-0.054119594 -0.087905005 1.572875
-0.044601213 -0.086066425 1.5764549
-0.035306249 -0.082650758 1.5750002
-0.027685134 -0.081671141 1.5790001
-0.023902753 -0.077692397 1.5731667
-0.015179776 -0.074530989 1.5743333
-0.0083055403 -0.07059709 1.5790001
-0.0044819582 -0.06588041 1.5737503
0.004495766 -0.063952841 1.5772502
0.0087280935 -0.058340415 1.572
0.015529165 -0.05591128 1.574625
0.024045562 -0.053617109 1.5762001
0.034606412 -0.052601755 1.5790001
0.040143441 -0.051217496 1.5790001
0.028940519 -0.048234198 1.572
0.036657993 -0.047682948 1.572
0.045925278 -0.045928344 1.5755
0.054829072 -0.044694219 1.5766668
0.064367935 -0.043604087 1.5790001
0.071981348 -0.040143441 1.5790001
0.048234198 -0.039965481 1.572
0.055715416 -0.038784236 1.5719999
0.064771645 -0.037209239 1.572
0.074193813 -0.034275517 1.575182
0.084840737 -0.032737222 1.5778335
0.095513709 -0.031837903 1.5790001
0.10520351 -0.031837903 1.5790001
0.11558543 -0.032530032 1.5790001
0.12181459 -0.031837903 1.5790001
0.077174723 -0.028940519 1.572
0.086362183 -0.02802177 1.572
0.09588673 -0.026216496 1.57375
0.10495336 -0.025116149 1.573867
0.11463863 -0.024867527 1.5755001
0.12383775 -0.024171252 1.5790004
0.13242723 -0.021686688 1.5790001
0.11769144 -0.016813064 1.572
0.12589459 -0.015523793 1.57375
0.13540708 -0.015201766 1.5760835
0.14520375 -0.015214551 1.5774447
0.1553501 -0.014970121 1.5783639
0.16417284 -0.013565714 1.5790001
0.13643388 -0.0096468404 1.572
0.1447026 -0.0089577809 1.572
0.15526819 -0.0087280935 1.572
0.16521549 -0.0068998048 1.57375
0.17424932 -0.005535712 1.5775003
0.18445219 -0.0031145778 1.5790002
0.19518019 -0.0013842568 1.5790001
0.20348573 -0.0013842568 1.5790001
0.16950876 0.0027562398 1.572
0.17502123 0.0027562398 1.572
0.18466809 0.0027562401 1.572
0.1961346 0.0038301568 1.5743334
0.20558693 0.0043905065 1.5758183
0.21404868 0.0059028361 1.5770912
0.22412609 0.0083001703 1.5781252
0.23591688 0.0085032908 1.5790002
0.24362917 0.0096897967 1.5790001
0.22404005 0.01242149 1.5743333
0.23454122 0.014484067 1.57375
0.24465275 0.015201595 1.576667
0.25297293 0.015572889 1.5790002
0.24737254 0.02342804 1.572
0.25561857 0.02486906 1.5760835
0.264047 0.02664694 1.5790002
0.24943972 0.037209239 1.572
0.25504783 0.035842884 1.5725836
0.26527941 0.035005908 1.5779234
0.24943972 0.045477957 1.572
0.25533333 0.045546822 1.5743334
0.26597685 0.044560377 1.5785336
0.27408281 0.045680474 1.5790001
0.24943972 0.055124801 1.572
0.25599393 0.055349302 1.5784169
0.26328564 0.052878607 1.5790001
0.27269855 0.051217496 1.5790001
0.28238836 0.055370264 1.5790001
0.24943972 0.062015399 1.572
0.25537115 0.064186655 1.5769999
0.25219595 0.070284121 1.572
-0.18053372 0.17777748 1.572
-0.17502123 0.17777748 1.572
-0.18145247 0.18145247 1.572
-0.17502125 0.18466811 1.5720001
-0.16759832 0.18555316 1.5748001
-0.17571031 0.19224773 1.572
-0.16813064 0.19155867 1.572
-0.18191184 0.20533989 1.572
-0.17536579 0.20499536 1.572
-0.19406436 0.21536256 1.5720001
-0.18447122 0.21538047 1.5720003
-0.17611454 0.2156602 1.5735556
-0.19441244 0.22474606 1.5727779
-0.18466808 0.22463356 1.5720001
-0.17639937 0.22187732 1.572
-0.20071721 0.23393938 1.5790001
-0.1945343 0.2345417 1.5737501
-0.18351966 0.23382102 1.5720001
-0.17722623 0.23345351 1.572
-0.20348573 0.24593627 1.5790001
-0.19490688 0.24398582 1.5743334
-0.186666 0.24405284 1.5772502
-0.17856911 0.24224491 1.5790001
-0.20190372 0.25490099 1.5790002
-0.19518019 0.25470325 1.5790004
-0.18815534 0.25456133 1.5781252
-0.20467223 0.26478857 1.5790002
-0.19481803 0.26482832 1.5783002
-0.1867656 0.26428342 1.5734001
-0.19241168 0.27546707 1.5790001
-0.18836761 0.27467158 1.5776001
-0.19241168 0.2810041 1.5790001
-0.17101838 -0.12791619 1.5860001
-0.1654568 -0.12559886 1.5860001
-0.15655829 -0.12152038 1.5860001
-0.14182012 -0.12096422 1.5860001
-0.13486816 -0.12096422 1.5860001
-0.12652579 -0.12096422 1.5860001
-0.15155287 -0.11818343 1.5860001
-0.14877209 -0.11818343 1.5860001
-0.11540265 -0.1172565 1.5860001
-0.10566989 -0.11470745 1.5860001
-0.095937133 -0.11262187 1.5860001
-0.090375565 -0.10984107 1.5860001
-0.08481399 -0.10520642 1.5860001
-0.074617773 -0.10242564 1.5860001
-0.068129271 -0.10149872 1.5860001
-0.062567696 -0.098717928 1.5860001
-0.056079198 -0.095937133 1.5860001
-0.04402912 -0.091302492 1.5860001
-0.034759831 -0.087594777 1.5860001
-0.02502708 -0.0834236 1.5860001
-0.018075114 -0.08203321 1.5860001
-0.015294326 -0.079252422 1.5860001
-0.0052834945 -0.072578534 1.5860001
0.0013903934 -0.070910059 1.5860001
0.0069519668 -0.067202337 1.5860001
0.013903933 -0.063958086 1.5860001
0.018075114 -0.059786912 1.5860001
0.026417471 -0.057701323 1.5860001
0.034759831 -0.057006132 1.5860001
0.044214509 -0.052556872 1.5860001
0.051444553 -0.051444553 1.5860001
0.057006124 -0.048663765 1.5860001
0.065348484 -0.046809912 1.5860001
0.07424701 -0.042546034 1.5860001
0.079252422 -0.037540618 1.5860001
0.085509188 -0.036845423 1.5860001
0.093712516 -0.03531599 1.5860001
0.10659683 -0.035686761 1.5860001
0.11540264 -0.036150225 1.5860001
0.12513541 -0.033369441 1.5860001
0.13208736 -0.031979047 1.5860001
0.12837966 -0.028271331 1.5860001
0.13521574 -0.025722276 1.5860002
0.14460091 -0.0208559 1.5860001
0.15572405 -0.0208559 1.5860001
0.1640664 -0.0208559 1.5860001
0.15155287 -0.018075114 1.5860001
0.16615202 -0.017379917 1.5860001
0.17426264 -0.013440468 1.5860001
0.20438781 -0.01251354 1.5860001
0.17936073 -0.009732753 1.5860001
0.18547848 -0.0086204382 1.5860001
0.19521122 -0.0063958094 1.5860002
0.20609906 -0.0065241526 1.5860003
0.21516337 -0.0038235816 1.5860002
0.22107254 -0.0013903934 1.5860001
0.23497647 -0.0013903934 1.5860001
0.24192843 -0.0013903934 1.5860001
0.21829174 0.0013903934 1.5860001
0.22524373 0.0027807865 1.5860002
0.23457922 0.0033766697 1.5860002
0.24498729 0.0050054155 1.5860002
0.25444198 0.0083423601 1.5860001
0.25722277 0.01251354 1.5860001
0.26417473 0.015294327 1.5860003
0.27205363 0.017148184 1.5860001
0.26626033 0.021551095 1.5860001
0.27529788 0.025027085 1.5860003
0.28224984 0.029198259 1.5860001
0.27668828 0.034759834 1.5860002
0.28224984 0.033369441 1.5860001
0.27807868 0.043102194 1.5860001
0.28463337 0.046677493 1.5860002
0.29198259 0.044492584 1.5860002
0.26635966 0.057403382 1.5860002
0.27539057 0.055893812 1.5860003
0.28456715 0.053761881 1.5860001
0.29059219 0.051444553 1.5860001
0.26500899 0.063680008 1.5860001
0.27251709 0.062567696 1.5860001
-0.20160703 0.2294149 1.5860001
-0.20160703 0.23497647 1.5860001
-0.20716861 0.24053805 1.5860001
-0.18353191 0.24749002 1.5860001
-0.17936073 0.2488804 1.5860001
-0.18399538 0.25536892 1.5860001
-0.21273018 0.26139393 1.5860001
-0.20605628 0.2633405 1.5860001
-0.18353191 0.26000354 1.5860001
-0.20346087 0.27514338 1.5860002
-0.19743583 0.27529788 1.5860002
-0.1877031 0.27946907 1.5860001
-0.2040402 0.28537822 1.5860002
-0.19478145 0.28528345 1.5860003
-0.1877031 0.28224984 1.5860001
-0.20577821 0.29476339 1.5860003
-0.1950523 0.29416752 1.5860003
-0.1877031 0.29615378 1.5860001
-0.21273018 0.30310574 1.5860001
-0.20624167 0.30387819 1.5860002
-0.19743586 0.30171534 1.5860001
-0.19326466 0.32618627 1.5860001
-0.17188102 -0.13275363 1.5940001
-0.16768879 -0.13275363 1.5940001
-0.16396238 -0.1290272 1.594
-0.15511215 -0.12576659 1.594
-0.14552991 -0.12396993 1.594
-0.13554843 -0.12436918 1.5940002
-0.12576661 -0.12367049 1.5940001
-0.11738215 -0.12157438 1.5940001
-0.11179253 -0.11877956 1.5940001
-0.1048055 -0.11784796 1.5940002
-0.094185211 -0.11542579 1.5940001
-0.087105013 -0.11132673 1.5940002
-0.083844401 -0.10760031 1.5940001
-0.076857366 -0.1057371 1.5940002
-0.064280704 -0.10201069 1.5940001
-0.054498855 -0.097818464 1.5940001
-0.044717014 -0.094324946 1.5940001
-0.034935165 -0.090831436 1.5940002
-0.02934554 -0.090831436 1.5940001
-0.024221716 -0.087105013 1.594
-0.014812511 -0.084123872 1.5940001
-0.0055896267 -0.076158658 1.5940001
0.00419222 -0.072199345 1.5940002
0.0097818468 -0.068472929 1.5940001
0.015371474 -0.06567812 1.5940001
0.02487384 -0.061765373 1.5940001
0.034376204 -0.061206412 1.5940001
0.040524792 -0.060088485 1.5940001
0.045648616 -0.056362066 1.594
0.054498859 -0.05310145 1.5940001
0.060088485 -0.051704045 1.5940001
0.067075521 -0.048909232 1.5940001
0.076857366 -0.044251207 1.5940002
0.084682845 -0.041642718 1.5940001
0.095023654 -0.040524792 1.5940001
0.1048055 -0.040524792 1.5940002
0.11458734 -0.040524792 1.5940001
0.12157438 -0.040524792 1.5940001
0.096421063 -0.037729979 1.5940002
0.1034081 -0.037729979 1.5940001
0.11318994 -0.037729979 1.5940001
0.12576661 -0.03633257 1.5940001
0.13461684 -0.034003559 1.5940002
0.13834326 -0.02934554 1.5940001
0.14533029 -0.02515332 1.594
0.15455317 -0.02487384 1.5940001
0.16405554 -0.023755914 1.5940001
0.17537452 -0.017467584 1.5940001
0.18585509 -0.012576659 1.5940002
0.19703434 -0.012576659 1.5940002
0.20541878 -0.015837274 1.594
0.21460176 -0.013774438 1.594
0.22218765 -0.01257666 1.5940001
0.19284213 -0.0097818468 1.5940001
0.21729673 -0.0090831434 1.5940001
0.22498247 -0.0058691083 1.594
0.23392586 -0.0036332575 1.5940001
0.24454618 -0.0032606155 1.5940002
0.2522319 -0.00209611 1.5940001
0.24734098 0.0013974067 1.5940001
0.25492689 0.0025951839 1.594
0.26550725 0.006987032 1.594
0.27249429 0.0083844401 1.5940001
0.27584809 0.014812511 1.5940001
0.28227615 0.018166287 1.5940001
0.28566986 0.025752207 1.594
0.29205799 0.02934554 1.5940001
0.28726691 0.035334427 1.594
0.29485282 0.034935161 1.594
0.28702736 0.041642718 1.5940001
-0.20541878 0.23755914 1.5940001
-0.20402136 0.24175136 1.5940001
-0.18026546 0.24734098 1.5940001
-0.18306027 0.25432801 1.5940001
-0.18864989 0.28786576 1.5940001
-0.18864989 0.29345539 1.5940001
-0.2124058 0.30882686 1.5940001
-0.20262396 0.30742946 1.5940001
-0.19470532 0.30556628 1.594
-0.18864989 0.30323723 1.5940002
-0.21170712 0.31371778 1.5940001
-0.20541878 0.3144165 1.594
-0.19576396 0.31416243 1.594
-0.2110084 0.32000613 1.5940001
-0.20448717 0.32373253 1.594
-0.19656855 0.32349965 1.594
-0.1982321 0.33517796 1.594
-0.20597775 0.3580156 1.5940001
-0.21380322 0.36192831 1.5940002
-0.20541878 0.36192831 1.5940002
-0.17165658 -0.13789441 1.605
-0.16522405 -0.13640231 1.604
-0.15472041 -0.13443221 1.6044285
-0.14527705 -0.13332236 1.6050001
-0.13572641 -0.13211128 1.6055715
-0.12597612 -0.13217977 1.6074002
-0.11989731 -0.13118178 1.6090001
-0.15017913 -0.12772244 1.6010001
-0.1459685 -0.12772244 1.6010001
-0.13474016 -0.12772244 1.6010001
-0.12421359 -0.12702067 1.6010001
-0.11512397 -0.12543844 1.6036667
-0.10511953 -0.12316062 1.6074002
-0.10245866 -0.11930119 1.6010001
-0.095672391 -0.11959925 1.6050001
-0.083729312 -0.11385132 1.6032858
-0.076170057 -0.11143398 1.6090001
-0.07377544 -0.10750607 1.6029999
-0.063910231 -0.10501993 1.6058
-0.055645101 -0.10354792 1.6070001
-0.04654837 -0.10108989 1.6090001
-0.051931102 -0.099651575 1.6010001
-0.044913389 -0.097546257 1.6010001
-0.035176247 -0.095682912 1.6050001
-0.025163937 -0.093937472 1.6045556
-0.016046681 -0.092632279 1.6058
-0.015438977 -0.08842323 1.6010002
-0.0063311406 -0.083255716 1.6049999
0.0023509276 -0.081342101 1.6090001
-0.0014035433 -0.077194884 1.6010001
0.006679981 -0.075585105 1.6040001
0.015093069 -0.07385128 1.6067144
0.025672132 -0.072502613 1.609
0.03385336 -0.071938388 1.6090001
0.017310368 -0.067837924 1.6010002
0.025744876 -0.066940412 1.6018889
0.035564736 -0.066915847 1.6044285
0.044994038 -0.06468372 1.603857
0.054626636 -0.063084714 1.6080002
0.063945234 -0.061594307 1.6090001
0.05543996 -0.056843504 1.6010001
0.065038227 -0.055070531 1.6031818
0.074719757 -0.054982882 1.6081113
0.084633395 -0.053601153 1.6090001
0.09380202 -0.052895878 1.6090001
0.103911 -0.052190598 1.6090001
0.075089566 -0.048422243 1.6010001
0.084680445 -0.047252622 1.601
0.095186323 -0.046128687 1.6031818
0.10501852 -0.046742111 1.6057999
0.11533193 -0.046418041 1.6043333
0.12527204 -0.043638088 1.6055715
0.13541344 -0.042316698 1.6090001
0.14528733 -0.042316701 1.6090001
0.15422086 -0.04184651 1.6090001
0.12772244 -0.037895668 1.6010001
0.13625942 -0.036523685 1.6023334
0.14480573 -0.035151701 1.6036667
0.15471298 -0.035166312 1.6043334
0.16447911 -0.034870949 1.607
0.14456496 -0.029474409 1.6010002
0.15523189 -0.028912991 1.6010001
0.16561812 -0.027603017 1.601
0.17464884 -0.024510723 1.6066
0.18421869 -0.022286795 1.609
0.19465682 -0.022568906 1.6090001
0.20472403 -0.022868946 1.605
0.2139107 -0.022265757 1.6074002
0.22145739 -0.021158351 1.6090001
0.23274185 -0.021158351 1.6090001
0.18479945 -0.016655039 1.6021429
0.19452554 -0.016535467 1.605
0.20257807 -0.017310368 1.6010002
0.21474212 -0.018246064 1.6010002
0.22558141 -0.01603546 1.6042
0.23517254 -0.015495083 1.6063334
0.24505219 -0.015259656 1.609
0.25460547 -0.013400288 1.6090001
0.26236355 -0.01269501 1.6090001
0.22877756 -0.0070177168 1.6010001
0.23439173 -0.0084212599 1.601
0.24482232 -0.0079588676 1.6018889
0.25617388 -0.0065207263 1.6031818
0.26544926 -0.0056387205 1.6063333
0.27411816 -0.0032912989 1.6090001
0.2652697 0.0014035433 1.6010002
0.27528673 0.0042126337 1.6032858
0.28408611 0.0073348945 1.609
0.29198521 0.0098738968 1.6090001
0.27930513 0.01263189 1.6010001
0.28593448 0.014666007 1.6044285
0.29440331 0.016322155 1.6090001
0.30185914 0.01692668 1.6090001
0.28772637 0.02105315 1.6010001
0.2947762 0.024933912 1.6046363
0.301577 0.023415241 1.609
-0.18667126 0.28772637 1.6010001
-0.18667126 0.29334056 1.6010002
-0.19509253 0.31860432 1.6010001
-0.21193504 0.32702559 1.6010002
-0.20912796 0.32702559 1.6010002
-0.2115835 0.33430192 1.6090001
-0.20508915 0.33572856 1.6023334
-0.21017294 0.34417582 1.6090001
-0.20606594 0.34634998 1.6034
-0.21422249 0.35562575 1.605
-0.2052682 0.3543947 1.601
-0.22145739 0.3681553 1.6090001
-0.21452713 0.36620271 1.602
-0.20688228 0.36744764 1.6010001
-0.22145739 0.37520808 1.6090001
-0.21431403 0.37646139 1.6083332
-0.20565918 0.37436175 1.609
-0.21469855 0.38292485 1.6067144
-0.16150305 -0.14166933 1.6160001
-0.15441957 -0.14214157 1.6160001
-0.14544718 -0.1411971 1.6160001
-0.13458587 -0.14025263 1.6160001
-0.12891909 -0.14025263 1.6160001
-0.14166933 -0.13741925 1.6160001
-0.13387752 -0.13671091 1.6160001
-0.12438567 -0.1362859 1.6159999
-0.11531883 -0.13288584 1.6159999
-0.11191877 -0.12891909 1.6160001
-0.10511865 -0.12721905 1.6159999
-0.094918452 -0.12325231 1.6160001
-0.087834984 -0.12041894 1.6160001
-0.082168207 -0.11758555 1.6160001
-0.075084746 -0.1138077 1.6160001
-0.065167896 -0.10908539 1.6160001
-0.054684363 -0.10795204 1.6159999
-0.044727031 -0.10422815 1.6160001
-0.035417333 -0.10058523 1.6160001
-0.024083786 -0.097751841 1.6160001
-0.01275024 -0.094918452 1.6160001
-0.0085001597 -0.092085063 1.6160001
-0.0042500799 -0.088307224 1.6160001
0.0070834663 -0.082168207 1.6160001
0.014166933 -0.080751516 1.6160001
0.017000321 -0.077918135 1.6160001
0.024556018 -0.076501437 1.6160001
0.035417333 -0.073668048 1.6160001
0.043917496 -0.072251357 1.6160001
0.049584266 -0.069417976 1.6160001
0.055251043 -0.06847351 1.6160001
0.065451227 -0.065451227 1.6159999
0.07451807 -0.062051166 1.6159999
0.082168207 -0.060917813 1.6160001
0.085001603 -0.058084425 1.6160001
0.094918452 -0.056195501 1.6160001
0.10511865 -0.05468436 1.6159999
0.11418549 -0.053551007 1.6159999
0.12041894 -0.052417655 1.6160001
0.12679406 -0.04887592 1.6160001
0.13458587 -0.046750885 1.6160001
0.14365271 -0.047317553 1.6159999
0.15441957 -0.045806419 1.6160001
0.16433641 -0.041792452 1.6160001
0.16858651 -0.038250718 1.6160001
0.17425326 -0.034203026 1.6160001
0.19833706 -0.032583948 1.6160001
0.20400384 -0.032583948 1.6160001
0.17779501 -0.02904221 1.6160001
0.18558683 -0.027389405 1.6160001
0.19550368 -0.028333867 1.6160001
0.20542054 -0.028617207 1.6159999
0.21553978 -0.026512401 1.6160001
0.22582093 -0.022950431 1.6159999
0.23595816 -0.023768965 1.6160001
0.24508797 -0.023274247 1.6160001
0.25287977 -0.021958746 1.6160001
0.25594926 -0.017472552 1.6160001
0.26532644 -0.016393166 1.6160001
0.27389404 -0.013694701 1.6160001
0.27578294 -0.0080279289 1.6160001
0.28418869 -0.0025500481 1.6159999
0.28475535 0.0014166933 1.6160001
0.295077 0.0050596185 1.6159998
0.30296996 0.005059619 1.6160001
0.29750562 0.01275024 1.6160001
0.30317235 0.01275024 1.6160001
-0.2110873 0.3385897 1.6160001
-0.21392068 0.34652323 1.6159999
-0.20258714 0.34992325 1.6160001
-0.21675408 0.35275665 1.6160001
-0.20258714 0.35275665 1.6160001
-0.20542054 0.37684041 1.6160001
-0.15423489 -0.49497536 1.6240003
-0.14521807 -0.4954499 1.6240004
-0.13525212 -0.49544999 1.6240004
-0.12457433 -0.49687362 1.6240003
-0.1145067 -0.49646685 1.6240003
-0.10596446 -0.49687362 1.6240003
-0.16087885 -0.48548397 1.6240001
-0.15518403 -0.48548397 1.6240003
-0.14521809 -0.48548391 1.6240004
-0.13525213 -0.48548397 1.6240003
-0.12467603 -0.48548391 1.6240003
-0.11532024 -0.48263657 1.6240001
-0.16315678 -0.47466379 1.6240002
-0.15518403 -0.47551799 1.6240004
-0.14521807 -0.47551805 1.6240004
-0.13525213 -0.47551799 1.6240004
-0.12386248 -0.47551805 1.6240003
-0.15447217 -0.46768764 1.6240001
-0.14486216 -0.46661988 1.6240003
-0.13667583 -0.46555209 1.6240002
-0.12386248 -0.46519616 1.6240003
-0.14094695 -0.45985726 1.6240001
-0.13753006 -0.45644036 1.6240002
-0.14948919 -0.44277278 1.6240001
-0.16209915 -0.43626443 1.6240003
-0.15544289 -0.43604252 1.6240004
-0.14948919 -0.43707797 1.6240001
-0.16087885 -0.42568827 1.6240001
-0.15553994 -0.4260442 1.6240003
-0.17226851 -0.14379437 1.6240001
-0.16799739 -0.14379437 1.6240001
-0.15518402 -0.14569265 1.6240001
-0.14237067 -0.14379437 1.6240001
-0.13525215 -0.1426554 1.6240002
-0.12528619 -0.14165881 1.6240001
-0.11816765 -0.14094695 1.6240001
-0.12101506 -0.13809955 1.6240001
-0.11532024 -0.13715041 1.6240001
-0.10630343 -0.13335384 1.6240002
-0.10250688 -0.12955731 1.6240001
-0.095388353 -0.12813359 1.6240002
-0.085422397 -0.12386248 1.6240003
-0.076880157 -0.12101506 1.6240001
-0.074744597 -0.1174558 1.6240001
-0.065490514 -0.11389653 1.6240003
-0.056236416 -0.11318468 1.6240001
-0.045558613 -0.10891356 1.6240001
-0.036304519 -0.10464244 1.6240001
-0.027050428 -0.10108318 1.6240001
-0.015660772 -0.098235756 1.6240001
-0.0071185329 -0.094439209 1.6240001
