# .PCD v0.7 - Point Cloud Data file format
VERSION 0.7
FIELDS x y z
SIZE 4 4 4
TYPE F F F
COUNT 1 1 1
WIDTH 1440
HEIGHT 1
VIEWPOINT 0 0 0 1 0 0 0
POINTS 1440
DATA ascii
-0.048754938 -0.033027541 1.794
-0.05190042 -0.02988206 1.794
-0.04403672 -0.02988206 1.794
-0.03617302 -0.02988206 1.794
-0.025688088 -0.022542605 1.794
-0.01415466 -0.020445621 1.794
-0.0047182203 -0.014154661 1.794
0.0026212335 -0.012057673 1.794
0.01415466 -0.0078637004 1.794
0.02988206 -0.0078637004 1.794
0.03617302 -0.0068152067 1.794
0.043512475 -0.0026212335 1.794
0.047182199 0.0031454801 1.794
0.055045899 0.0047182199 1.794
0.064482339 0.0057667135 1.794
0.072346039 0.0078637004 1.794
0.077064261 0.01100918 1.794
0.084927961 0.015727401 1.794
0.096723504 0.014941029 1.794
0.10458721 0.01651377 1.794
0.11166454 0.01730014 1.794
0.11481002 0.020445621 1.794
0.12424646 0.022542605 1.794
0.13446926 0.024377469 1.794
0.1468939 0.024849292 1.794
0.15491489 0.02595021 1.794
0.16435131 0.028309319 1.794
0.17457414 0.02988206 1.794
0.18086509 0.02988206 1.794
0.16828318 0.033027541 1.794
0.17457414 0.033027541 1.794
0.18479696 0.033813909 1.794
0.19187428 0.037745759 1.794
0.19659251 0.04403672 1.794
0.20602894 0.047182199 1.794
0.21625176 0.04796857 1.794
0.22175634 0.047182199 1.794
0.20917442 0.05190042 1.794
0.2123199 0.05190042 1.794
0.22553091 0.053158611 1.794
0.23370917 0.056933187 1.794
0.24220195 0.058191381 1.794
0.235911 0.06133686 1.794
0.2446734 0.064032987 1.7939999
0.24692018 0.070773296 1.794
0.25545791 0.075266846 1.7939999
0.25845364 0.08125823 1.794
0.26474455 0.085976452 1.794
0.26736581 0.092791662 1.794
0.27313253 0.093840152 1.794
-0.12335752 -0.48868555 1.8040001
-0.11465923 -0.48631328 1.8040001
-0.1067517 -0.48315027 1.8040001
-0.099634923 -0.48235953 1.8040001
-0.11228696 -0.47603354 1.8040003
-0.10556557 -0.47642887 1.804
-0.096867286 -0.47563815 1.804
-0.10469574 -0.46274886 1.8040001
-0.094525442 -0.46459803 1.8040003
-0.086982869 -0.46021843 1.8040001
-0.10543377 -0.45283809 1.804
-0.094890393 -0.45389244 1.8040003
-0.086982869 -0.4554739 1.8040001
-0.10505723 -0.44485521 1.804
-0.095321722 -0.44440335 1.8040001
-0.10358869 -0.43412358 1.8040001
-0.095321722 -0.43462676 1.8040001
-0.10406314 -0.42542529 1.8040001
-0.094890408 -0.42542529 1.8040003
-0.10406314 -0.41593629 1.8040001
-0.094890393 -0.41593623 1.8040003
-0.10415351 -0.40554348 1.804
-0.09574198 -0.40571731 1.8040003
-0.10406314 -0.39316255 1.8040001
-0.09836971 -0.39442775 1.8040001
-0.11307773 -0.38351536 1.8040001
-0.10686468 -0.384758 1.804
-0.11454626 -0.37436518 1.804
-0.10754246 -0.3748171 1.804
-0.12256677 -0.3645373 1.8040001
-0.11544999 -0.36532804 1.804
-0.1083332 -0.36532804 1.8040001
-0.12335752 -0.35900202 1.8040001
-0.11544999 -0.35583898 1.804
-0.10806962 -0.35794768 1.8040003
-0.12423614 -0.34529561 1.804
-0.11650433 -0.34529561 1.804
-0.12493903 -0.33369792 1.804
-0.118613 -0.33369792 1.8040003
-0.13284655 -0.32420886 1.804
-0.12584275 -0.32466072 1.804
-0.118613 -0.32737187 1.8040001
-0.13403268 -0.31432444 1.804
-0.12683682 -0.31535244 1.8040001
-0.14233559 -0.30206776 1.8040001
-0.13442807 -0.30523077 1.804
-0.12810203 -0.30839381 1.8040001
-0.15024313 -0.29257873 1.8040001
-0.1439171 -0.29574171 1.804
-0.13442807 -0.29732326 1.804
-0.15150833 -0.28562012 1.8040001
-0.14391711 -0.28625271 1.804
-0.15159871 -0.2749562 1.804
-0.1439171 -0.27518216 1.8040003
-0.15024313 -0.26411161 1.8040003
-0.1439171 -0.26411161 1.804
-0.13759108 -0.26411161 1.8040003
-0.1526154 -0.25225034 1.8040001
-0.14391711 -0.25462258 1.804
-0.13759108 -0.25778559 1.8040001
-0.15403876 -0.24513355 1.8040001
-0.14436896 -0.24603724 1.804
-0.1654256 -0.23374668 1.8040001
-0.15455633 -0.23535694 1.8040001
-0.14708012 -0.2388075 1.8040001
-0.17554724 -0.22615546 1.8040001
-0.1660582 -0.22615544 1.804
-0.15498766 -0.22615544 1.8040003
-0.1836807 -0.21350341 1.804
-0.17554724 -0.21508491 1.8040003
-0.1660582 -0.21824794 1.804
-0.15593655 -0.21919683 1.8040001
-0.18413256 -0.2035625 1.804
-0.17712875 -0.20401435 1.804
-0.19136231 -0.19294381 1.8040001
-0.18543166 -0.19492069 1.804
-0.20243286 -0.18187326 1.8040001
-0.19452533 -0.18503627 1.804
-0.1881993 -0.18661779 1.8040001
-0.24197052 -0.17554724 1.8040001
-0.23627707 -0.17617984 1.8040001
-0.20243286 -0.17871025 1.8040001
-0.19610682 -0.17871025 1.8040001
-0.24829654 -0.16289519 1.8040001
-0.23801674 -0.16526745 1.8040001
-0.17396574 -0.1660582 1.8040001
-0.1660582 -0.16394953 1.8040003
-0.25398999 -0.15846696 1.8040001
-0.24468167 -0.15611731 1.804
-0.23775315 -0.15235181 1.8040003
-0.25356826 -0.14497143 1.8040003
-0.24355203 -0.1439171 1.8040001
-0.25462258 -0.13442807 1.8040001
-0.24355203 -0.13442807 1.8040001
-0.23722599 -0.13126506 1.8040001
-0.25225034 -0.12414827 1.8040001
-0.24513352 -0.12388468 1.804
-0.2388075 -0.12493902 1.8040001
-0.2609486 -0.11228697 1.8040001
-0.25514975 -0.11544999 1.804
-0.24468167 -0.11499812 1.804
-0.2609486 -0.10596094 1.8040003
-0.25652039 -0.10659355 1.8040001
-0.24671504 -0.10596094 1.8040001
-0.2609486 -0.099634923 1.8040001
-0.25514975 -0.094363235 1.804
-0.2455854 -0.092405185 1.804
-0.2388075 -0.093308896 1.8040001
-0.23722598 -0.085401356 1.8040001
-0.19452532 -0.082238346 1.8040001
-0.18503627 -0.080656841 1.8040001
-0.17554724 -0.080656841 1.8040003
-0.1660582 -0.081711181 1.8040003
-0.16289519 -0.077493824 1.8040001
-0.15498766 -0.072749302 1.8040001
-0.1439171 -0.068004787 1.8040003
-0.13442807 -0.06484177 1.8040003
-0.12810203 -0.06167876 1.8040001
-0.12335752 -0.058515746 1.8040001
-0.11544999 -0.056407068 1.8040003
-0.10701528 -0.054298397 1.8040003
-0.10279793 -0.049026705 1.8040001
-0.094890401 -0.045072939 1.8040001
-0.086982869 -0.042700678 1.8040001
-0.082238346 -0.039537668 1.8040001
-0.074330807 -0.037956163 1.8040001
-0.06484177 -0.036374655 1.8040003
-0.052189719 -0.033211641 1.8040001
-0.045863688 -0.03426598 1.8040003
-0.036374655 -0.032157302 1.8040003
-0.030048626 -0.026885614 1.8040001
-0.023722598 -0.025831277 1.8040003
-0.015815066 -0.022141093 1.8040001
-0.0047445199 -0.017396573 1.8040003
0.0053771222 -0.015498765 1.8040001
0.014233559 -0.011070547 1.8040003
0.023722598 -0.011070547 1.8040003
0.031630132 -0.011070547 1.8040001
0.01423356 -0.0079075331 1.8040001
0.0237226 -0.0079075331 1.8040001
0.039537668 -0.0079075331 1.8040001
0.046496294 -0.0053771227 1.8040001
0.055352729 -0.0031630134 1.804
0.064051017 -0.00237226 1.8040001
0.072749302 -0.0015815067 1.8040001
0.049026705 0.0015815067 1.8040001
0.055352733 0.0015815067 1.8040003
0.06563253 0.00237226 1.8040001
0.074330807 0.0042173513 1.804
0.083819844 0.0063260258 1.804
0.094890401 0.0079075331 1.8040001
0.10279793 0.0079075331 1.8040001
0.084610611 0.0118613 1.8040001
0.093308896 0.012652054 1.804
0.10659355 0.012335752 1.8040001
0.11544999 0.01423356 1.804
0.12493902 0.015815066 1.804
0.13442807 0.015815066 1.804
0.1439171 0.017396573 1.8040003
0.15182464 0.017396573 1.8040001
0.12652053 0.020559587 1.8040001
0.13442807 0.020559587 1.8040003
0.14312635 0.021350341 1.8040001
0.15604198 0.021613926 1.804
0.16684896 0.024513353 1.8040001
0.17554724 0.025304107 1.804
0.18424551 0.026094861 1.8040001
0.1660582 0.030048626 1.8040001
0.18661779 0.030048626 1.8040001
0.19373457 0.03479315 1.8040001
0.20243286 0.039537668 1.8040001
0.21982943 0.039537668 1.8040001
0.20559587 0.042700678 1.8040001
0.21440712 0.044056255 1.804
0.22705916 0.045411829 1.804
0.23353581 0.047972366 1.8040003
0.2356445 0.053244054 1.8040003
0.24592428 0.056143485 1.8040001
0.25145957 0.058515746 1.8040001
0.25462258 0.06523715 1.804
0.26200294 0.066950448 1.8040003
0.25462258 0.071167797 1.8040003
0.26463878 0.074330807 1.804
0.27043763 0.075912319 1.8040001
0.26727462 0.082238346 1.8040001
0.27201912 0.083819844 1.804
0.27676368 0.090145878 1.8040003
-0.11284716 -0.49112356 1.8130001
-0.10648958 -0.48794478 1.8130001
-0.093774401 -0.4815872 1.8130001
-0.09059561 -0.47522962 1.8130001
-0.087416805 -0.47522959 1.8130001
-0.084767818 -0.46569324 1.8130001
-0.083329797 -0.45570272 1.813
-0.09059561 -0.44344169 1.8130001
-0.084238023 -0.44503108 1.8129998
-0.08423803 -0.43430263 1.813
-0.085146241 -0.42482302 1.813
-0.086145297 -0.41546831 1.8130001
-0.091655202 -0.40317693 1.8130001
-0.087416805 -0.40529618 1.8130001
-0.092866175 -0.39530566 1.813
-0.087416805 -0.39575973 1.8130001
-0.10140351 -0.3855876 1.8130001
-0.093774401 -0.38860747 1.8130001
-0.10225119 -0.37456784 1.813
-0.10331079 -0.36609104 1.8130001
-0.1077611 -0.3537997 1.8130001
-0.11284717 -0.34489906 1.8130001
-0.10839685 -0.34489909 1.8130001
-0.11443654 -0.33536267 1.8130001
-0.10966837 -0.33854148 1.8130001
-0.12238354 -0.32423693 1.8130001
-0.11562861 -0.32542896 1.813
-0.12317824 -0.31549525 1.8130001
-0.1164233 -0.31628993 1.813
-0.12556234 -0.30516419 1.813
-0.11920475 -0.30993235 1.8130001
-0.13509871 -0.292449 1.8130001
-0.12715173 -0.29403839 1.8130001
-0.13509873 -0.28450203 1.813
-0.12768154 -0.28662121 1.8130001
-0.13637023 -0.27623716 1.8130001
-0.13382718 -0.26606503 1.8130001
-0.13721792 -0.25483325 1.8130001
-0.14304569 -0.24317768 1.8130001
-0.13600694 -0.24635649 1.813
-0.1443461 -0.23479724 1.8129998
-0.13827752 -0.23840949 1.8130001
-0.14508922 -0.22501315 1.813
-0.17006545 -0.21297915 1.8130001
-0.16370785 -0.21297915 1.8130001
-0.15462558 -0.21547678 1.813
-0.14781389 -0.21774735 1.8130001
-0.17165484 -0.20503217 1.8130001
-0.16370785 -0.20503217 1.813
-0.15629068 -0.20715135 1.8130001
-0.18278061 -0.19231699 1.8130001
-0.17602567 -0.19668783 1.813
-0.16688664 -0.19867459 1.8130001
-0.19231699 -0.18278061 1.8130001
-0.18505119 -0.18550529 1.813
-0.23311152 -0.17536342 1.8130001
-0.22569433 -0.17960182 1.8130001
-0.20344278 -0.17642303 1.8130001
-0.19470109 -0.17721772 1.8130001
-0.18595941 -0.17960183 1.8130001
-0.2368201 -0.16688664 1.8130001
-0.25589284 -0.15364167 1.8130001
-0.24794587 -0.15258208 1.8130001
-0.25509816 -0.14304569 1.8130001
-0.247628 -0.14463511 1.8130001
-0.25271407 -0.13509873 1.8130001
-0.247628 -0.13509873 1.8130001
-0.24794587 -0.12874113 1.8130001
-0.26225045 -0.11602595 1.8130001
-0.25271407 -0.11761536 1.8130001
-0.24794587 -0.11761536 1.8130001
-0.25377366 -0.10384058 1.8130001
-0.24675384 -0.10529753 1.813
-0.23999889 -0.10648958 1.8130001
-0.25430346 -0.096953198 1.8130001
-0.24476708 -0.096953198 1.8130001
-0.1939064 -0.084238023 1.8130001
-0.18516472 -0.085032724 1.8130001
-0.17960182 -0.084238023 1.8130001
-0.14781389 -0.071522847 1.8130001
-0.13668811 -0.068344057 1.8130001
-0.12556233 -0.063046068 1.8130001
-0.11920475 -0.061986469 1.8130001
-0.11443656 -0.058807675 1.8130001
-0.10384058 -0.055628881 1.8130001
-0.096953198 -0.052450091 1.8130001
-0.093774401 -0.047152102 1.8130001
-0.074701644 -0.039734915 1.8130001
-0.068344057 -0.039734915 1.8130001
-0.055628881 -0.036556125 1.8130001
-0.044503108 -0.036556125 1.8130001
-0.034013085 -0.034013089 1.8130001
-0.027019743 -0.030198537 1.8130001
-0.020662157 -0.027019743 1.8130001
-0.014304571 -0.024900546 1.8130001
-0.00476819 -0.020662157 1.8130001
0.00476819 -0.020662157 1.8130001
0.007946983 -0.01430457 1.8130001
0.013668811 -0.015576087 1.8130001
0.023840949 -0.01430457 1.8130001
0.03814552 -0.011125777 1.8130001
0.044503108 -0.011125777 1.8130001
0.049271297 -0.007946983 1.8130001
0.055628885 -0.007946983 1.8130001
0.065801024 -0.0066754655 1.8130001
0.075496338 -0.0039734915 1.8130001
0.083443329 -0.002384095 1.8130001
0.09059561 -0.0015893966 1.8130001
0.077880435 0.0015893966 1.8130001
0.084238023 0.0015893966 1.8130001
0.093774408 0.0031787932 1.8130001
0.10507678 0.0044149905 1.813
0.1153902 0.0066754655 1.8130001
0.12397294 0.007946983 1.8130001
0.11920475 0.011125777 1.8130001
0.12556234 0.011125777 1.8130001
0.13509871 0.011125777 1.8130001
0.1446351 0.012715173 1.8130001
0.15462558 0.013396342 1.813
0.16325375 0.015212798 1.813
0.17483363 0.017483363 1.8130001
0.18278061 0.017483363 1.8130001
0.16529724 0.020662157 1.8130001
0.17483364 0.020662157 1.8130001
0.18659517 0.021933675 1.8130001
0.19231699 0.025430346 1.8130001
0.19761498 0.03443693 1.8130001
0.20556198 0.036026325 1.8130001
0.21496591 0.036953472 1.813
0.22450228 0.036158778 1.813
0.23152213 0.038675319 1.8130001
0.23745584 0.045456745 1.8130001
0.24681059 0.047000732 1.813
0.25271407 0.047681898 1.8130001
0.23999889 0.052450091 1.8130001
0.24635649 0.052450091 1.8130001
0.25589287 0.05615868 1.8130001
0.26542923 0.058807675 1.8130001
0.25589287 0.061986469 1.8130001
0.26648882 0.064105667 1.8130001
0.27496561 0.066754669 1.8130001
0.28238282 0.067284457 1.8130001
0.26860803 0.071522847 1.8130001
0.27587387 0.074247524 1.813
0.28291261 0.074701637 1.8130001
0.27814442 0.084238023 1.8130001
0.28132319 0.084238023 1.8130001
-0.091095306 -0.48424348 1.8230001
-0.08630082 -0.48264533 1.8230001
-0.082784854 -0.47529373 1.8230002
-0.081506327 -0.46826187 1.8230001
-0.076711841 -0.46346736 1.8230001
-0.076711841 -0.45547655 1.8230001
-0.076711841 -0.44588754 1.8230001
-0.084702656 -0.43310225 1.8230001
-0.076711841 -0.43629861 1.8230001
-0.081506327 -0.42351329 1.8230001
-0.075912759 -0.42670959 1.8230001
-0.082784854 -0.41328508 1.8230002
-0.078310005 -0.41712064 1.8230001
-0.083104491 -0.40433529 1.8230001
-0.084169932 -0.39474633 1.8230001
-0.094291642 -0.38475782 1.8230001
-0.087099895 -0.38595647 1.8230001
-0.094291642 -0.37556839 1.8230002
-0.087898992 -0.37556839 1.8230001
-0.10228245 -0.36438122 1.8230001
-0.097487964 -0.36917573 1.8230001
-0.10308153 -0.35718951 1.8230001
-0.10352547 -0.34538087 1.8230002
-0.11027327 -0.33401611 1.8230001
-0.10707694 -0.33401617 1.8230001
-0.11027327 -0.32442716 1.8230001
-0.10707694 -0.32602531 1.8230001
-0.11240416 -0.31430545 1.8230001
-0.12305857 -0.30205286 1.8230001
-0.11550362 -0.30553976 1.8230001
-0.12305858 -0.29566023 1.8230001
-0.12561563 -0.28543198 1.8230002
-0.13424572 -0.2748841 1.8230001
-0.12732035 -0.27435139 1.8230002
-0.13371301 -0.26156607 1.8230001
-0.12732035 -0.26476237 1.8230001
-0.13344663 -0.25410795 1.8230001
-0.12945123 -0.25730428 1.8230001
-0.13371301 -0.24238811 1.8230001
-0.13584389 -0.23492999 1.8230001
-0.1438347 -0.22214471 1.8230001
-0.13797477 -0.2274719 1.8230001
-0.15342368 -0.21255572 1.8230001
-0.14703102 -0.21575205 1.8230001
-0.15395641 -0.20509762 1.8230001
-0.14862919 -0.20776123 1.8230001
-0.18059246 -0.19018143 1.8230001
-0.1741998 -0.19284505 1.8230001
-0.16461082 -0.19657409 1.8230001
-0.15821818 -0.19817226 1.8230001
-0.18059246 -0.18378878 1.8230001
-0.17579795 -0.18378879 1.8230001
-0.23386456 -0.17206891 1.8230001
-0.22598028 -0.1761176 1.8230002
-0.19018143 -0.17739613 1.8230001
-0.1829897 -0.17659704 1.8230001
-0.17739613 -0.17739613 1.8230001
-0.26050061 -0.14543286 1.8230001
-0.244519 -0.10228245 1.8230001
-0.25730428 -0.091095306 1.8230001
-0.19018143 -0.087898985 1.8230001
-0.18698511 -0.087898985 1.8230001
-0.1741998 -0.084702648 1.8230001
-0.16141449 -0.078310005 1.8230001
-0.15582094 -0.075912759 1.8230001
-0.1438347 -0.071917348 1.8230001
-0.13744205 -0.071917348 1.8230001
-0.13264756 -0.068721026 1.8230001
-0.1262549 -0.066590138 1.8230001
-0.11666592 -0.063393809 1.8230001
-0.10228245 -0.059132043 1.8230001
-0.09269347 -0.052739389 1.8230001
-0.09269347 -0.049543064 1.8230001
-0.084702648 -0.044215854 1.8230001
-0.075113676 -0.04315041 1.8230001
-0.068721026 -0.04315041 1.8230001
-0.071917348 -0.039954085 1.8230001
-0.063926533 -0.039954085 1.8230001
-0.055935722 -0.039954085 1.8230001
-0.0479449 -0.039954085 1.8230001
-0.033561431 -0.036757756 1.8230001
-0.024611715 -0.032922167 1.8230002
-0.01438347 -0.030365104 1.8230001
-0.012785306 -0.027168777 1.8230001
-0.0047944901 -0.02397245 1.8230001
0.0047944901 -0.02397245 1.8230001
0.017579796 -0.017579796 1.8230001
0.022374287 -0.015981633 1.8230001
0.033561427 -0.01438347 1.8230001
0.049543064 -0.011187144 1.8230001
0.055935714 -0.011187144 1.8230001
0.065524697 -0.011187144 1.8230001
0.075113676 -0.0079908166 1.8230001
0.084702648 -0.0058599324 1.8230001
0.094930902 -0.0035159593 1.8230002
0.10388061 -0.0015981632 1.8230001
0.11027327 -0.0015981633 1.8230001
0.11602666 0.0022374287 1.8230002
0.12671152 0.0038812535 1.8230001
0.13538727 0.0057077263 1.8230001
0.14543286 0.0063926536 1.8230001
0.15502185 0.0079908166 1.8230001
0.16620898 0.011187144 1.8230001
0.1741998 0.01438347 1.8230001
0.18698511 0.017579796 1.8230001
0.19018143 0.017579796 1.8230001
0.19721337 0.024611715 1.8230002
0.20616306 0.025570614 1.8230001
0.21575204 0.024885688 1.8230001
0.22470176 0.025890246 1.8230002
0.23173368 0.027168777 1.8230001
0.19817226 0.030365104 1.8230001
0.20616306 0.031164184 1.8230001
0.21495296 0.031164184 1.8230001
0.22534102 0.030365104 1.8230001
0.23532955 0.034360513 1.8230001
0.244519 0.03835592 1.8230001
0.25171074 0.037556838 1.8230001
0.244519 0.04315041 1.8230001
0.25650522 0.045547657 1.8230001
0.26329738 0.046746276 1.8230001
0.2700896 0.0479449 1.8230001
0.25730428 0.052739389 1.8230001
0.2643362 0.05401792 1.8230002
0.2700896 0.054337554 1.8230001
0.28926757 0.078310005 1.8230001
0.28734976 0.084063396 1.8230002
-0.081953429 -0.49011365 1.8330001
-0.083024718 -0.48582849 1.8330001
-0.077454031 -0.48304313 1.8329999
-0.075525708 -0.47404438 1.8329999
-0.069097988 -0.4708305 1.8330001
-0.072311848 -0.46440277 1.8330001
-0.066285856 -0.464001 1.8330001
-0.059456408 -0.46279585 1.8330001
-0.072311848 -0.45476118 1.8330001
-0.065884136 -0.45476118 1.8329999
-0.059456408 -0.45476118 1.8330001
-0.072311848 -0.44511962 1.8330001
-0.065884128 -0.44511959 1.8329999
-0.059456408 -0.44672656 1.8330001
-0.072311848 -0.43708497 1.8330001
-0.065884136 -0.435478 1.8329999
-0.073918775 -0.42422953 1.8330001
-0.066285856 -0.42623818 1.8330001
-0.059456408 -0.4290503 1.8330001
-0.075123981 -0.41579315 1.8330001
-0.067491062 -0.41619489 1.8330001
-0.075817883 -0.40509242 1.8330001
-0.069097988 -0.40976715 1.8330001
-0.081953429 -0.39209092 1.8330001
-0.075525716 -0.39369786 1.8329999
-0.08356037 -0.3840563 1.8330001
-0.077454031 -0.38469905 1.8329999
-0.093201935 -0.37120083 1.8330001
-0.084631644 -0.37441468 1.8330001
-0.078739569 -0.37441468 1.8330001
-0.094808869 -0.36477306 1.8329999
-0.086774215 -0.36798698 1.8330001
-0.10123659 -0.35673845 1.8330001
-0.094808869 -0.35513154 1.8329999
-0.10123659 -0.3422761 1.8330001
-0.095210604 -0.34589168 1.8330001
-0.088381149 -0.34709686 1.8330001
-0.10284352 -0.33584836 1.8330001
-0.096415795 -0.33584836 1.8330001
-0.1035322 -0.3257477 1.8330001
-0.096951447 -0.32834935 1.8330001
-0.10552173 -0.31513682 1.8329999
-0.12051975 -0.30049592 1.8330001
-0.11328856 -0.30129939 1.8330001
-0.10686085 -0.30451325 1.8330001
-0.12051975 -0.29406819 1.8330001
-0.11409203 -0.29406819 1.8329999
-0.1218053 -0.28378385 1.8329999
-0.11409203 -0.28442663 1.8329999
-0.12180529 -0.27542782 1.8329999
-0.11449376 -0.27518678 1.8330001
-0.12266233 -0.26407215 1.8330001
-0.11650242 -0.26594689 1.8330001
-0.13016133 -0.25389493 1.8330001
-0.12373361 -0.25550187 1.8329999
-0.11730589 -0.25871572 1.8330001
-0.13016133 -0.24586028 1.8330001
-0.12413535 -0.24626204 1.8330001
-0.1309648 -0.23541525 1.8330001
-0.12566192 -0.23686147 1.8329999
-0.14301677 -0.22014941 1.8330001
-0.13498212 -0.22497022 1.8329999
-0.14430231 -0.2130789 1.8329999
-0.13899943 -0.21452516 1.8330001
-0.15426528 -0.20086625 1.8330001
-0.14582889 -0.20367837 1.8330001
-0.1398029 -0.20729397 1.8330001
-0.1719415 -0.19122466 1.8330001
-0.16471031 -0.19202814 1.8330001
-0.15547048 -0.19403681 1.8330001
-0.14864102 -0.19524199 1.8330001
-0.1719415 -0.18479694 1.8330001
-0.16551378 -0.18479694 1.8329999
-0.15694349 -0.18586822 1.8330001
-0.19283161 -0.17515537 1.8330001
-0.18479694 -0.17408408 1.8330001
-0.17475364 -0.17475364 1.8330001
-0.16643202 -0.17561449 1.8330001
-0.16712072 -0.16872765 1.8330001
-0.2619296 -0.15265834 1.8330001
-0.2619296 -0.14944449 1.8330001
-0.19122466 -0.091595009 1.8330001
-0.19443853 -0.088381149 1.8330001
-0.16551378 -0.085167289 1.8330001
-0.14623062 -0.075525708 1.8330001
-0.13658905 -0.074454419 1.8330001
-0.12373361 -0.069097988 1.8330001
-0.11409203 -0.064812846 1.8330001
-0.10605738 -0.062670268 1.8330001
-0.095451638 -0.05752809 1.8329999
-0.085970752 -0.053832155 1.8330001
-0.08452452 -0.04852929 1.8329999
-0.076329172 -0.047404435 1.8330001
-0.065884136 -0.0444584 1.8330001
-0.056242544 -0.043387111 1.8330001
-0.0444584 -0.041244537 1.8330001
-0.033745531 -0.040173251 1.8330001
-0.021961376 -0.035888106 1.8330001
-0.014998014 -0.034281176 1.8330001
-0.0048207901 -0.027317809 1.8330001
0.0048207901 -0.025175236 1.8330001
0.015265835 -0.021693554 1.8330001
0.020890091 -0.020890091 1.8330001
0.025710881 -0.017676231 1.8330001
0.033745531 -0.017676231 1.8330001
0.044994041 -0.0160693 1.8330001
0.056242544 -0.0160693 1.8330001
0.065241352 -0.015747914 1.8329999
0.074722245 -0.012051975 1.8330001
0.083560362 -0.01124851 1.8330001
0.086774215 -0.0080346502 1.8330001
0.093201935 -0.0080346502 1.8330001
0.10445044 -0.0048207901 1.8330001
0.11409202 -0.0032138601 1.8330001
0.12373361 -0.00160693 1.8330001
0.13498211 -0.00160693 1.8330001
0.1446237 -0.00160693 1.8330001
0.13819598 0.00160693 1.8330001
0.1446237 0.00160693 1.8330001
0.15587221 0.0040173251 1.8330001
0.16229993 0.0064277202 1.8330001
0.17515536 0.01124851 1.8330001
0.18479694 0.013658905 1.8330001
0.19604546 0.017676231 1.8330001
0.2040801 0.017676231 1.8330001
0.21372169 0.017676231 1.8330001
0.22014941 0.017676231 1.8330001
0.19765238 0.020890091 1.8330001
0.2040801 0.020890092 1.8330001
0.21211475 0.020890091 1.8330001
0.22497019 0.022497021 1.8330001
0.23621871 0.026246523 1.8330001
0.24425337 0.027317809 1.8330001
0.23943257 0.030531669 1.8330001
0.24586029 0.032138601 1.8330001
0.25550187 0.034548998 1.8330001
0.25871572 0.040173251 1.8330001
0.2619296 0.040173251 1.8330001
-0.075937741 -0.49278748 1.8430001
-0.073514193 -0.48713252 1.8430001
-0.066705197 -0.48540145 1.8430002
-0.051702291 -0.4863247 1.8430001
-0.046855204 -0.48794037 1.8430001
-0.06552548 -0.47627148 1.8430002
-0.057011012 -0.47247583 1.8430002
-0.04577807 -0.47124484 1.8430001
-0.053317986 -0.46370491 1.8430002
-0.045239508 -0.46370491 1.8430001
-0.053317983 -0.45401075 1.8430002
-0.045562647 -0.45336452 1.8430001
-0.054493036 -0.44402277 1.8430003
-0.044547062 -0.44385499 1.8430002
-0.037161022 -0.44108519 1.8430001
-0.054493044 -0.43491614 1.8430003
-0.044027735 -0.4342185 1.8430002
-0.037161022 -0.431391 1.8430001
-0.063012168 -0.42331254 1.8430001
-0.054933686 -0.42492822 1.8430003
-0.044431657 -0.42735177 1.8430001
-0.037161022 -0.42815962 1.8430001
-0.063820019 -0.41442621 1.8430001
-0.056549381 -0.41604188 1.8430002
-0.072706349 -0.40553987 1.8430001
-0.066243559 -0.40553987 1.8430002
-0.059780777 -0.40553987 1.8430001
-0.066243559 -0.39584571 1.8430002
-0.058972929 -0.39665353 1.8430001
-0.073514193 -0.38534364 1.8430001
-0.066243567 -0.38615149 1.8430002
-0.059780777 -0.3893829 1.8430001
-0.082400531 -0.37322593 1.8430001
-0.074322045 -0.37645733 1.8430001
-0.067536123 -0.37774989 1.8430001
-0.085308783 -0.36417803 1.8430002
-0.077014878 -0.365686 1.8430002
-0.085227996 -0.35424152 1.8430002
-0.077876583 -0.35448384 1.8430001
-0.092094712 -0.34252769 1.8430001
-0.085227989 -0.34373945 1.8430002
-0.079169139 -0.34575909 1.8430001
-0.092094712 -0.3344492 1.8430001
-0.086035833 -0.33485314 1.8430002
-0.079169139 -0.33121783 1.8430001
-0.10178889 -0.32152364 1.8430001
-0.094922177 -0.32435113 1.8430002
-0.088055462 -0.32556286 1.8430001
-0.10178889 -0.31344515 1.8430001
-0.095326103 -0.31506085 1.8430002
-0.088863313 -0.31506085 1.8430001
-0.10308144 -0.30472037 1.8430001
-0.095326103 -0.30536664 1.8430002
-0.10502028 -0.29567251 1.8430002
-0.095730029 -0.29607639 1.8430002
-0.10502028 -0.28597832 1.8430002
-0.098557495 -0.28597832 1.8430001
-0.11148307 -0.27305272 1.8430001
-0.10542421 -0.27668804 1.8430002
-0.098557495 -0.27951553 1.8430001
-0.11286797 -0.26428181 1.8430002
-0.10825168 -0.26658994 1.8430001
-0.11563771 -0.25412601 1.8430002
-0.12117725 -0.24235451 1.8430001
-0.11563771 -0.24443181 1.8430002
-0.12333151 -0.23319888 1.8430001
-0.11794586 -0.23427601 1.8430001
-0.13194855 -0.22242756 1.8430001
-0.12487026 -0.22550508 1.8430002
-0.1336989 -0.21448372 1.8430002
-0.12764004 -0.21811906 1.8430001
-0.1405656 -0.20357779 1.8430001
-0.13410282 -0.20519349 1.8430002
-0.12764004 -0.20196208 1.8430001
-0.14339307 -0.19509538 1.8430002
-0.13571852 -0.197115 1.8430001
-0.15241405 -0.18472797 1.8430001
-0.14573583 -0.18645141 1.8430001
-0.16318536 -0.17449525 1.8430001
-0.15631865 -0.17732269 1.8430002
-0.16318536 -0.16803245 1.8430001
-0.15995397 -0.16803245 1.8430001
-0.16318536 -0.082400531 1.8430001
-0.1405656 -0.082400531 1.8430001
-0.15349118 -0.079169139 1.8430001
-0.143797 -0.079169139 1.8430001
-0.13345654 -0.076584026 1.8430001
-0.12602434 -0.072706349 1.8430001
-0.11471446 -0.067859262 1.8430001
-0.10502028 -0.065166436 1.8430001
-0.096941799 -0.063012168 1.8430001
-0.092094712 -0.059780777 1.8430001
-0.084985651 -0.05848822 1.8430001
-0.075937748 -0.052779421 1.8430001
-0.066243567 -0.050086599 1.8430001
-0.064627871 -0.046855204 1.8430001
-0.054933686 -0.046855204 1.8430001
-0.043623809 -0.043623809 1.8430001
-0.035545327 -0.043623809 1.8430001
-0.023589171 -0.041684974 1.8430001
-0.015349119 -0.041200265 1.8430001
-0.011309877 -0.037161022 1.8430001
-0.0048470898 -0.032313935 1.8430001
0.004200811 -0.031990796 1.8430001
0.016156968 -0.030698236 1.8430001
0.0048470898 -0.027466843 1.8430001
0.013894992 -0.026174283 1.8430001
0.024235452 -0.024235448 1.8430002
0.034391258 -0.023312194 1.8430002
0.043162186 -0.023312194 1.8430002
0.053856552 -0.022081187 1.8430001
0.064627871 -0.021004057 1.8430001
0.069474958 -0.017772663 1.8430001
0.075937741 -0.016156968 1.8430001
0.085631914 -0.015079836 1.8430001
0.094518252 -0.012117725 1.8430001
0.10566656 -0.012602434 1.8430001
0.11471447 -0.012117725 1.8430001
0.12117725 -0.011309877 1.8430001
0.098557495 -0.0080784829 1.8430001
0.10502028 -0.0080784829 1.8430001
0.11552231 -0.0072706342 1.8430001
0.12440864 -0.0064627863 1.8430001
0.13410282 -0.0064627863 1.8430001
0.14271986 -0.0059242211 1.8430001
0.15510689 -0.0016156967 1.8430001
0.16480106 -0.0016156967 1.8430001
0.17611094 -0.0016156967 1.8430001
0.15456831 0.0016156967 1.8430001
0.16734001 0.0043854625 1.8430002
0.17611094 0.0048470898 1.8430002
0.18534349 0.0057703452 1.8430002
0.1938836 0.0064627863 1.8430001
0.20680916 0.0064627863 1.8430001
0.18580511 0.011309877 1.8430001
0.19485302 0.012602434 1.8430001
0.20519347 0.012925574 1.8430001
0.2140798 0.013733422 1.8430001
0.22458184 0.016156968 1.8430001
0.23266032 0.017772663 1.8430001
0.22619754 0.021004057 1.8430001
0.23508386 0.021811906 1.8430001
0.2439702 0.02423545 1.8430001
0.25204867 0.025851147 1.8430001
0.26982135 0.043623809 1.8430001
-0.064746469 -0.49453303 1.8529999
-0.043048277 -0.49383685 1.853
-0.037362657 -0.49221238 1.853
-0.060105141 -0.48571452 1.853
-0.056043983 -0.48571452 1.853
-0.043454394 -0.48530838 1.8529999
-0.035196707 -0.48679748 1.853
-0.052307718 -0.47726735 1.853
-0.042777535 -0.47705078 1.853
-0.037362657 -0.47596776 1.853
-0.040611584 -0.46622097 1.853
-0.037362657 -0.46622097 1.853
-0.041423813 -0.45728642 1.853
-0.037362657 -0.45322526 1.853
-0.040611584 -0.44564447 1.853
-0.034113731 -0.44477811 1.853
-0.033185467 -0.43419585 1.8529999
-0.04345439 -0.42357883 1.8529999
-0.035041995 -0.42444912 1.8529999
-0.052679025 -0.41377404 1.8529999
-0.047109436 -0.41423813 1.853
-0.037362657 -0.41748708 1.853
-0.053201169 -0.40489751 1.8529999
-0.04386051 -0.40286693 1.853
-0.053607289 -0.3947446 1.853
-0.044266626 -0.39515072 1.8529999
-0.060105141 -0.38499781 1.853
-0.056856215 -0.38499781 1.853
-0.047109436 -0.38499781 1.853
-0.064978532 -0.37484491 1.8529999
-0.07310085 -0.36550426 1.853
-0.068227455 -0.36550426 1.853
-0.073913082 -0.35494524 1.853
-0.068227455 -0.35656971 1.853
-0.07542152 -0.34554654 1.8529999
-0.06985192 -0.34601068 1.853
-0.082847632 -0.33301499 1.853
-0.075943664 -0.33667001 1.8529999
-0.084240027 -0.32419649 1.8529999
-0.076645143 -0.32533571 1.8530002
-0.066602997 -0.32651713 1.853
-0.085168295 -0.31305727 1.8529999
-0.079598702 -0.31514588 1.853
-0.086502671 -0.30418074 1.8529999
-0.093677379 -0.29186192 1.853
-0.088533252 -0.2948401 1.853
-0.094218872 -0.28428105 1.853
-0.10342417 -0.27236834 1.853
-0.096493125 -0.27648363 1.853
-0.105184 -0.26478752 1.8529999
-0.11208797 -0.25341627 1.853
-0.10802681 -0.25585297 1.853
-0.11208797 -0.24366949 1.853
-0.10753947 -0.24594374 1.853
-0.11371243 -0.23554718 1.853
-0.12345921 -0.22255148 1.853
-0.11696136 -0.22742486 1.853
-0.12467756 -0.2156475 1.8529999
-0.12508367 -0.20677097 1.8529999
-0.14132831 -0.19006221 1.853
-0.13401823 -0.19331113 1.8529999
-0.12724963 -0.19601856 1.853
-0.14349426 -0.18248139 1.853
-0.13591343 -0.18410586 1.853
-0.15385988 -0.17288931 1.8529999
-0.14782616 -0.1770665 1.853
-0.15432401 -0.16731972 1.853
-0.14782616 -0.16731972 1.853
-0.16298783 -0.086096555 1.853
-0.15513624 -0.084472097 1.853
-0.14522703 -0.08479698 1.853
-0.13645491 -0.08447209 1.853
-0.13158153 -0.079598702 1.853
-0.1258959 -0.076349773 1.853
-0.11858582 -0.07310085 1.853
-0.11371243 -0.06985192 1.853
-0.10559012 -0.068227455 1.853
-0.095843337 -0.065520018 1.853
-0.086096555 -0.063354068 1.853
-0.077162005 -0.06091737 1.853
-0.074725315 -0.056856215 1.853
-0.064978532 -0.054419518 1.8529999
-0.053607289 -0.050358366 1.853
-0.04386051 -0.047109436 1.853
-0.033301499 -0.046297204 1.853
-0.024366951 -0.046026457 1.853
-0.01462017 -0.045484975 1.853
-0.0048733898 -0.040611584 1.853
-0.0048733898 -0.037362657 1.853
0.0048733898 -0.036279682 1.853
0.013807938 -0.033301499 1.853
0.023554718 -0.031677034 1.853
0.034113731 -0.030864803 1.853
0.04386051 -0.030864803 1.853
0.027615877 -0.027615877 1.853
0.032489266 -0.027615877 1.853
0.045484975 -0.027615877 1.853
0.054419518 -0.026803644 1.853
0.064978532 -0.024366951 1.853
0.07553754 -0.021930255 1.853
0.086096555 -0.021118023 1.853
0.092594407 -0.021118023 1.853
0.10883904 -0.021118023 1.853
0.079598702 -0.017869096 1.853
0.089345485 -0.017869096 1.853
0.096493125 -0.016569525 1.853
0.10477788 -0.017056864 1.853
0.11533689 -0.016569525 1.853
0.12508367 -0.014078681 1.853
0.13483046 -0.011371243 1.853
0.14457723 -0.011371243 1.853
0.14566021 -0.0070393407 1.853
0.15432401 -0.006497853 1.853
0.16407079 -0.0064978539 1.853
0.17381756 -0.0048733898 1.8529999
0.18356435 -0.0032489265 1.853
0.19331114 -0.0032489265 1.853
0.18681328 0.0016244634 1.853
0.19656007 0.0032489265 1.853
0.20549461 0.0040611583 1.853
0.21605362 0.0064978539 1.853
0.19980898 0.01462017 1.853
0.21767808 0.011371243 1.853
0.22661263 0.012183474 1.853
0.23635942 0.015432402 1.853
0.24366949 0.017869096 1.853
0.24529396 0.021118023 1.853
0.25504074 0.023283973 1.853
0.25828966 0.030864803 1.853
0.26532903 0.034655221 1.853
0.27290985 0.034113731 1.853
0.26803645 0.040611584 1.853
0.27290985 0.040611584 1.853
-0.06042951 -0.49813515 1.863
-0.057163049 -0.4948687 1.863
-0.044097211 -0.49813515 1.863
-0.034297831 -0.49650192 1.863
-0.025587268 -0.49377987 1.863
-0.05171895 -0.48615813 1.863
-0.032337956 -0.48441601 1.8630002
-0.027764909 -0.4850693 1.863
-0.032664601 -0.47526994 1.863
-0.027764909 -0.47526991 1.863
-0.033364557 -0.46500397 1.863
-0.027764909 -0.46873701 1.863
-0.033209011 -0.45675996 1.863
-0.027764909 -0.45240471 1.863
-0.02613168 -0.44587174 1.863
-0.025431724 -0.43560579 1.863
-0.017965529 -0.43280596 1.863
-0.03103137 -0.42463979 1.863
-0.026948294 -0.42708963 1.863
-0.042463977 -0.41647366 1.863
-0.033889525 -0.41606534 1.863
-0.027764909 -0.41647363 1.863
-0.044097211 -0.40994072 1.863
-0.034297828 -0.40504101 1.8630003
-0.026676089 -0.40395224 1.863
-0.05226336 -0.39034197 1.863
-0.04191957 -0.39143077 1.863
-0.034297831 -0.39360842 1.863
-0.026676089 -0.39578605 1.863
-0.06042951 -0.38054258 1.863
-0.05296332 -0.38334236 1.863
-0.044097211 -0.3842757 1.863
-0.036475468 -0.38489786 1.863
-0.062879354 -0.3715598 1.863
-0.054363228 -0.37494296 1.863
-0.047363669 -0.3756429 1.863
-0.063695967 -0.36421028 1.863
-0.057163049 -0.36747676 1.863
-0.064629242 -0.35487753 1.863
-0.07022889 -0.34134507 1.863
-0.065329194 -0.34461153 1.863
-0.07022889 -0.33481216 1.863
-0.065329194 -0.33481216 1.863
-0.071045503 -0.32419616 1.863
-0.064240374 -0.32501277 1.863
-0.080028273 -0.31194693 1.863
-0.075128585 -0.31521341 1.863
-0.065329194 -0.31847984 1.863
-0.080844887 -0.30459738 1.863
-0.075672992 -0.30759165 1.863
-0.083294734 -0.29561463 1.863
-0.088194422 -0.28581524 1.863
-0.095543951 -0.27356601 1.863
-0.088521063 -0.27666917 1.8630002
-0.096360564 -0.26621649 1.863
-0.089827649 -0.26621649 1.863
-0.10420008 -0.25576383 1.8630002
-0.10476004 -0.24335125 1.863
-0.099627033 -0.24825096 1.863
-0.11269287 -0.23028544 1.863
-0.10615994 -0.23355187 1.863
-0.099627033 -0.23681834 1.863
-0.11549269 -0.22281922 1.863
-0.10615995 -0.22505908 1.8630002
-0.11636765 -0.21436143 1.863
-0.10724878 -0.21613078 1.863
-0.12249225 -0.20415375 1.863
-0.11791921 -0.20480704 1.8630002
-0.12379883 -0.19370107 1.8630002
-0.11840918 -0.19517098 1.863
-0.13338046 -0.18346615 1.863
-0.12575871 -0.18455499 1.863
-0.11922579 -0.18782145 1.863
-0.14494917 -0.17434728 1.863
-0.1363747 -0.17720546 1.863
-0.15189038 -0.16495623 1.863
-0.1469907 -0.16658947 1.863
-0.16168977 -0.088194415 1.863
-0.15450355 -0.087867774 1.8630002
-0.14862393 -0.089827649 1.863
-0.13229163 -0.083294727 1.863
-0.12739193 -0.0816615 1.863
-0.12249225 -0.076761812 1.863
-0.11595932 -0.074584179 1.863
-0.10452671 -0.07022889 1.863
-0.096360572 -0.07022889 1.863
-0.09309411 -0.066962428 1.863
-0.084927954 -0.066962428 1.863
-0.073495351 -0.062607147 1.863
-0.065329194 -0.06042951 1.863
-0.06042951 -0.057163049 1.863
-0.053896591 -0.054713205 1.863
-0.044097211 -0.050630134 1.863
-0.034297828 -0.050630134 1.863
-0.02449845 -0.050630134 1.863
-0.016332299 -0.05063013 1.863
-0.027764909 -0.047363669 1.863
-0.01143261 -0.047363669 1.863
-0.0048996899 -0.044097211 1.863
0.0048996899 -0.04083075 1.863
0.01143261 -0.04083075 1.863
0.0081661502 -0.037564289 1.863
0.014699069 -0.037564289 1.863
0.024498448 -0.035386652 1.863
0.034297828 -0.034297831 1.863
0.044097211 -0.034297831 1.863
0.053896591 -0.031847984 1.863
0.06042951 -0.03103137 1.863
0.065329194 -0.027764909 1.863
0.074311972 -0.026948294 1.863
0.084228002 -0.025898358 1.863
0.096360572 -0.022320813 1.863
0.10452671 -0.02123199 1.863
0.12739193 -0.017965529 1.863
0.13555808 -0.014699069 1.863
0.14535746 -0.01143261 1.863
0.15597346 -0.012249225 1.863
0.16495623 -0.01306584 1.863
0.17475562 -0.01143261 1.863
0.1959876 -0.01143261 1.863
0.17148915 -0.0081661502 1.863
0.18455499 -0.0081661502 1.863
0.19435437 -0.0081661502 1.863
0.20284717 -0.0035931058 1.8630002
0.21395314 -0.002449845 1.863
0.22211927 -0.00163323 1.863
0.23028544 -0.00163323 1.863
0.24661773 -0.00163323 1.863
0.25315064 -0.00163323 1.863
0.20415375 0.00163323 1.863
0.21558636 0.00163323 1.863
0.22468579 0.0044330531 1.863
0.2326186 0.0053663277 1.863
0.24335125 0.0040830751 1.863
0.23518512 0.01143261 1.863
0.24465784 0.014045778 1.8630002
0.25641713 0.017965529 1.863
0.25968358 0.022865221 1.863
0.26621649 0.026131677 1.863
0.27383825 0.026676089 1.863
0.26621649 0.03103137 1.863
0.27601588 0.034297831 1.863
-0.21558636 0.44260532 1.863
-0.18455499 0.45403793 1.863
-0.052543893 -0.49752498 1.8730001
-0.023973152 -0.494241 1.8730001
-0.022987954 -0.48438904 1.8730001
-0.016419966 -0.48274702 1.8730001
-0.022987954 -0.47453704 1.8730001
-0.01477797 -0.47453704 1.8730003
-0.024629951 -0.46468502 1.8730003
-0.01477797 -0.46468502 1.8730003
-0.023535287 -0.45592773 1.8730001
-0.014777969 -0.45483309 1.8730003
-0.021345956 -0.4449811 1.8730001
-0.01477797 -0.4449811 1.8730003
-0.021345956 -0.43512911 1.8730001
-0.014367471 -0.43512914 1.8730001
-0.022987954 -0.42527714 1.8730001
-0.01477797 -0.42527717 1.8730003
-0.022987954 -0.41542515 1.8730001
-0.014777969 -0.41542515 1.8730003
-0.022166956 -0.40639418 1.8730001
-0.014777969 -0.40557316 1.8730003
-0.023535287 -0.39462653 1.8730001
-0.01477797 -0.3957212 1.8730003
-0.041049916 -0.38258523 1.8730001
-0.033387266 -0.38532189 1.8730001
-0.024629951 -0.38586923 1.8730003
-0.017240966 -0.3866902 1.8730001
-0.052543893 -0.37273324 1.8730001
-0.043395627 -0.37554809 1.8730001
-0.036452327 -0.37667403 1.8730001
-0.053775389 -0.36575478 1.8730001
-0.044333912 -0.36616525 1.8730003
-0.036944926 -0.36616525 1.8730001
-0.027913943 -0.36616525 1.8730001
-0.060753874 -0.3546713 1.8730001
-0.054185886 -0.35631326 1.8730003
-0.044803053 -0.35725155 1.8730001
-0.060753871 -0.3464613 1.8730001
-0.05418589 -0.3464613 1.8730003
-0.047617901 -0.3464613 1.8730001
-0.060753871 -0.33660927 1.8730001
-0.054185886 -0.33496734 1.8730005
-0.047617901 -0.33660927 1.8730001
-0.070605859 -0.32018936 1.8730001
-0.060753871 -0.32347333 1.8730001
-0.054185886 -0.32347333 1.8730003
-0.070605859 -0.31362137 1.8730001
-0.064448364 -0.31403184 1.8730001
-0.057469882 -0.31526336 1.8730001
-0.073479354 -0.30335888 1.8730001
-0.065679863 -0.30376938 1.8730001
-0.081552498 -0.29172805 1.8730001
-0.073889852 -0.29391742 1.8730003
-0.067321859 -0.29391739 1.8730001
-0.082099833 -0.2840654 1.8730001
-0.074828133 -0.28453457 1.8730001
-0.090309814 -0.27092946 1.8730001
-0.083331332 -0.27380294 1.8730001
-0.07635285 -0.27503443 1.8730001
-0.1001618 -0.26107746 1.8730001
-0.092772812 -0.26189846 1.8730001
-0.083741821 -0.26436144 1.8730003
-0.07635285 -0.26518244 1.8730001
-0.1001618 -0.2561515 1.8730001
-0.093593806 -0.25450948 1.8730003
-0.083741821 -0.25450948 1.8730003
-0.077173844 -0.2512255 1.8730001
-0.1001618 -0.2430155 1.8730001
-0.093593806 -0.24465752 1.8730003
-0.083741821 -0.24465752 1.8730003
-0.077173844 -0.24629951 1.8730001
-0.1001618 -0.23316354 1.8730001
-0.093593813 -0.23480552 1.8730003
-0.084680118 -0.23527466 1.8730001
-0.11001378 -0.22331154 1.8730001
-0.1014754 -0.22429673 1.8730001
-0.094004303 -0.22536403 1.8730001
-0.08483649 -0.22714287 1.8730001
-0.11110844 -0.21291222 1.8730001
-0.10250751 -0.21463242 1.8730001
-0.096877806 -0.21674356 1.8730001
-0.11235948 -0.20478043 1.8730001
-0.10590878 -0.20607057 1.8730001
-0.11288726 -0.19498712 1.8730001
-0.11449195 -0.18524708 1.8730004
-0.13562892 -0.17372325 1.8730001
-0.12643375 -0.17569365 1.8730003
-0.11658176 -0.17766404 1.8730001
-0.15763167 -0.16584167 1.8730001
-0.14285371 -0.16748366 1.8730001
-0.13587523 -0.16625217 1.8730001
-0.12971774 -0.16912566 1.8730001
-0.13464373 -0.15927367 1.8730001
-0.12807575 -0.15927367 1.8730001
-0.12424441 -0.082647167 1.8730001
-0.11740275 -0.081278831 1.8730001
-0.11247677 -0.07635285 1.8730001
-0.10410259 -0.075203449 1.8730001
-0.093593806 -0.07279519 1.8730001
-0.082920834 -0.071426854 1.8730001
-0.075531848 -0.070605859 1.8730001
-0.073068857 -0.066500865 1.8730001
-0.064037867 -0.062943198 1.8730001
-0.054185886 -0.060753871 1.8730001
-0.05418589 -0.057469882 1.8730001
-0.044333909 -0.05582789 1.8730001
-0.03530293 -0.055006891 1.8730001
-0.024629951 -0.054185886 1.8730001
-0.01477797 -0.052543893 1.8730001
-0.00492599 -0.047617901 1.8730001
0.0032839933 -0.044333909 1.8730001
0.016419966 -0.041049916 1.8730001
0.024629951 -0.041049916 1.8730001
0.031197937 -0.041049916 1.8730001
0.026271947 -0.037765924 1.8730001
0.034481931 -0.037765924 1.8730001
0.044333909 -0.037765924 1.8730001
0.054185886 -0.035576597 1.8730001
0.064694665 -0.033168335 1.8730001
0.073889852 -0.031197937 1.8730001
0.083741821 -0.031197937 1.8730001
0.093593806 -0.031197937 1.8730001
0.1001618 -0.031197937 1.8730001
0.094414815 -0.027092945 1.8730001
0.10344579 -0.026271947 1.8730001
0.11395457 -0.023316354 1.8730001
0.12479175 -0.021345956 1.8730001
0.13628572 -0.018061964 1.8730001
0.1461377 -0.01477797 1.8730001
0.15533288 -0.016748365 1.8730001
0.16419967 -0.018061964 1.8730001
0.18636663 -0.012314975 1.8730001
0.1953976 -0.014777971 1.8730001
0.20196559 -0.011493976 1.8730001
0.20634425 -0.0060206545 1.8730001
0.21510157 -0.00492599 1.8730001
0.22495353 -0.0038313258 1.8730001
0.23808952 0.0032839933 1.8730001
0.24794149 0.0065679867 1.8730001
0.25450951 0.0065679867 1.8730001
0.26107746 0.0082099829 1.8730001
0.2553305 0.013956971 1.8730001
0.26436147 0.016967298 1.8730001
0.26600346 0.021345956 1.8730001
0.27092946 0.021345956 1.8730001
-0.21291222 0.44717041 1.8730001
-0.20853357 0.4449811 1.8730001
-0.01485687 -0.49357823 1.8830003
0.0082538165 -0.49357823 1.8830001
0.011555343 -0.49357823 1.8830001
-0.011555343 -0.48532444 1.8830001
-0.0044020354 -0.48312342 1.8830003
0.0036316793 -0.48499426 1.8830001
0.013206107 -0.48697519 1.8830001
-0.0058955834 -0.47329745 1.8830003
-0.0049522896 -0.46386448 1.8830003
0.0016507633 -0.46551526 1.8830001
-0.0049522906 -0.45395988 1.8830003
0.0033015267 -0.45395991 1.8830003
0.01485687 -0.45230913 1.8830001
-0.0049522896 -0.44405535 1.8830003
0.0049522901 -0.44405535 1.8830003
0.01485687 -0.44735685 1.8830001
-0.0049522901 -0.43415079 1.8830003
0.0045395992 -0.43456346 1.8830003
0.011555343 -0.43745229 1.8830001
-0.0049522896 -0.42424616 1.8830003
0.0029713742 -0.42490649 1.8830001
-0.0049522896 -0.41434157 1.8830003
0.0016507633 -0.41599238 1.8830001
-0.0062728999 -0.40575761 1.8830001
-0.011555343 -0.39123091 1.8830001
-0.0082538165 -0.39618319 1.8830001
-0.031364504 -0.38132632 1.8830001
-0.024761451 -0.38132632 1.883
-0.013913576 -0.38415623 1.8830003
-0.032685112 -0.37406299 1.8830001
-0.02476145 -0.37472329 1.8830003
-0.01485687 -0.37472332 1.8830003
-0.033565521 -0.36371818 1.8830003
-0.024348758 -0.36440599 1.8830003
-0.01485687 -0.36481869 1.8830003
-0.042919844 -0.35326338 1.8830001
-0.034666032 -0.3549141 1.8830003
-0.025174143 -0.35532683 1.8830003
-0.042919844 -0.34500954 1.8830003
-0.034666032 -0.34500951 1.8830003
-0.025233099 -0.34595284 1.8830003
-0.043627314 -0.33463332 1.8830003
-0.035078723 -0.33510497 1.8830003
-0.04457061 -0.32520038 1.8830003
-0.035078719 -0.32561308 1.8830003
-0.028062977 -0.32520038 1.883
-0.061078243 -0.31199425 1.8830001
-0.053531893 -0.31482413 1.8830003
-0.04457061 -0.31529582 1.8830003
-0.036316793 -0.31529579 1.8830003
-0.061078239 -0.30539122 1.883
-0.054475188 -0.30539122 1.8830003
-0.04457061 -0.30539119 1.8830003
-0.036646944 -0.30605152 1.8830001
-0.062729008 -0.29548666 1.8830003
-0.054475188 -0.29548663 1.8830003
-0.04457061 -0.2954866 1.8830003
-0.070982821 -0.28393131 1.8830001
-0.064379774 -0.28558207 1.8830003
-0.055418484 -0.28605369 1.8830003
-0.047872137 -0.28723282 1.8830001
-0.072303429 -0.27501717 1.8830001
-0.064379774 -0.2756775 1.8830003
-0.056456108 -0.27633777 1.8830001
-0.072303429 -0.26511258 1.8830001
-0.064379774 -0.26577294 1.8830003
-0.057776716 -0.26907441 1.8830001
-0.073871657 -0.25628099 1.8830003
-0.065323062 -0.25633997 1.8830003
-0.056125954 -0.25916985 1.8830001
-0.073341057 -0.24549209 1.8830003
-0.067681298 -0.2476145 1.8830001
-0.0808874 -0.23440839 1.8830001
-0.07469704 -0.23647183 1.8830003
-0.067681298 -0.23936068 1.8830001
-0.090791985 -0.22285305 1.8830001
-0.083638676 -0.22505407 1.8830003
-0.07593511 -0.22780533 1.8830001
-0.093150213 -0.21577837 1.8830003
-0.085839689 -0.21624999 1.8830003
-0.10201718 -0.20568511 1.8830001
-0.095194019 -0.20744593 1.8830003
-0.087490454 -0.20964694 1.8830001
-0.10399809 -0.19644083 1.8830003
-0.097395033 -0.1980916 1.8830001
-0.10399809 -0.18653625 1.8830003
-0.12298187 -0.170854 1.8830001
-0.11353584 -0.17369699 1.8830003
-0.10446974 -0.17757498 1.8830003
-0.16507633 -0.1667271 1.8830001
-0.15187022 -0.16342556 1.8830001
-0.14408806 -0.16248228 1.8830003
-0.1304103 -0.16507633 1.8830001
-0.12380725 -0.16436885 1.8830003
-0.1122519 -0.16260019 1.8830001
-0.10729962 -0.16012405 1.8830001
-0.14196564 -0.15682252 1.8830001
-0.13701336 -0.15682252 1.8830001
-0.12380725 -0.15682252 1.883
-0.090791985 -0.090791985 1.8830001
-0.11390267 -0.084188931 1.8830001
-0.10344783 -0.083638676 1.8830003
-0.093268126 -0.082538158 1.8830001
-0.085839689 -0.0808874 1.8830001
-0.10069656 -0.077585876 1.8830001
-0.093268126 -0.076760493 1.8830001
-0.084849223 -0.076265261 1.8830001
-0.07345897 -0.07345897 1.8830001
-0.064379767 -0.070982821 1.8830001
-0.063554391 -0.066855915 1.8830001
-0.054475188 -0.065205149 1.8830001
-0.045395989 -0.061903626 1.8830001
-0.037967555 -0.061078243 1.8830001
-0.033015266 -0.057776716 1.8830001
-0.024761451 -0.057776716 1.883
-0.01485687 -0.055575699 1.883
-0.0049522896 -0.051173668 1.883
0.0049522896 -0.046771627 1.883
0.01485687 -0.04457061 1.883
0.024761451 -0.04457061 1.883
0.034666032 -0.042369593 1.883
0.04457061 -0.041269083 1.883
0.052824426 -0.041269083 1.8830001
0.054475188 -0.037967555 1.8830001
0.064379774 -0.037967555 1.883
0.073458962 -0.035491414 1.8830001
0.084188931 -0.034666032 1.883
0.094093509 -0.034666032 1.883
0.1046584 -0.03334542 1.8830001
0.11390267 -0.031364504 1.883
0.12380725 -0.031364504 1.883
0.1304103 -0.031364504 1.8830001
0.11555343 -0.026412215 1.8830001
0.12380725 -0.026412213 1.8830003
0.13371184 -0.024761448 1.8830003
0.14279103 -0.022285305 1.8830001
0.15434636 -0.022285305 1.8830001
0.16342556 -0.021459924 1.883
0.17002863 -0.023110688 1.8830001
0.18818702 -0.021459924 1.8830001
0.19644083 -0.021459924 1.883
0.14526717 -0.018158397 1.8830001
0.15021946 -0.018158397 1.8830001
0.17553116 -0.016507633 1.8830003
0.18587594 -0.016837787 1.8830001
0.19479007 -0.018158397 1.8830001
0.20552003 -0.014031488 1.8830001
0.21955152 -0.011555343 1.8830001
0.20964694 -0.0082538165 1.8830001
0.21625 -0.0082538165 1.883
0.25476781 0.0071533076 1.883
0.24926527 0.011555343 1.8830001
0.25421757 0.011555343 1.8830001
-0.18983778 0.45726144 1.8830001
-0.0045661181 -0.49604648 1.8940001
0.0040324158 -0.49598718 1.8940001
0.013283253 -0.49314079 1.8940001
-0.0060881577 -0.48760608 1.8940001
0.0066416264 -0.48483875 1.8940001
0.015418061 -0.48555034 1.8940001
-0.0016604067 -0.47819713 1.8940001
0.0049812198 -0.47653669 1.8940002
0.014943659 -0.47653669 1.8940002
0.021585286 -0.47321591 1.8940001
0.0059300237 -0.46609989 1.8940001
0.014943659 -0.46657425 1.8940002
0.024352631 -0.46546733 1.8940001
0.0083020329 -0.45661184 1.8940001
0.014943659 -0.45708624 1.8940001
0.024906099 -0.45661178 1.8940002
0.034868538 -0.455663 1.8940001
0.015275741 -0.44498897 1.8940003
0.024906099 -0.44498897 1.8940004
0.035237517 -0.44554245 1.8940002
0.0083020329 -0.43170574 1.8940001
0.014943659 -0.43336618 1.8940002
0.023577774 -0.43469447 1.8940001
0.033208132 -0.43668696 1.8940001
0.0069737076 -0.42273957 1.8940001
0.014528558 -0.42381883 1.8940001
0.0053963214 -0.41302615 1.8940001
0.012453049 -0.41427147 1.8940001
-0.0033208132 -0.40347883 1.8940001
0.0049812198 -0.4034788 1.8940002
0.011622846 -0.40679964 1.8940001
-0.0045661181 -0.39310127 1.8940001
0.0016604067 -0.39351639 1.8940001
-0.0049812198 -0.38355395 1.8940002
0.0024906099 -0.38438416 1.8940001
-0.0059300237 -0.37406591 1.8940001
0.0049812198 -0.37691233 1.8940001
-0.014943659 -0.36030826 1.8940001
-0.0083020329 -0.36694986 1.8940001
-0.021585286 -0.3536666 1.8940001
-0.014943659 -0.3536666 1.8940002
-0.024241935 -0.3417117 1.8940001
-0.014943659 -0.34370416 1.8940002
-0.031547725 -0.33706254 1.8940001
-0.024490997 -0.33415681 1.8940001
-0.018264472 -0.33374175 1.8940001
-0.031547725 -0.32211888 1.8940001
-0.024352631 -0.32377926 1.8940001
-0.018264472 -0.3271001 1.8940001
-0.031547725 -0.31381685 1.8940001
-0.0253212 -0.31423196 1.8940001
-0.034204375 -0.30319023 1.8940001
-0.026566507 -0.30551481 1.8940001
-0.043170571 -0.29057115 1.8940001
-0.035817344 -0.29389194 1.8940001
-0.051472608 -0.28392953 1.8940001
-0.044415876 -0.28351441 1.8940001
-0.037359148 -0.28475973 1.8940001
-0.052800935 -0.27330294 1.8940001
-0.044830978 -0.27396712 1.8940002
-0.038189352 -0.27396709 1.8940001
-0.05431902 -0.26495343 1.8940001
-0.044830978 -0.26400465 1.8940001
-0.038189352 -0.26732546 1.8940001
-0.062265251 -0.253212 1.8940001
-0.055742227 -0.25451663 1.8940001
-0.048151795 -0.25736302 1.8940001
-0.063807055 -0.2440798 1.8940001
-0.056453828 -0.2474006 1.8940001
