# .PCD v0.7 - Point Cloud Data file format
VERSION 0.7
FIELDS x y z
SIZE 4 4 4
TYPE F F F
COUNT 1 1 1
WIDTH 1421
HEIGHT 1
VIEWPOINT 0 0 0 1 0 0 0
POINTS 1421
DATA ascii
-0.16601297 -0.1276381 1.5860001
-0.15631995 -0.12573127 1.5860002
-0.14376667 -0.12430117 1.5860001
-0.13486814 -0.12652579 1.5860001
-0.12513541 -0.12583059 1.5860001
-0.11540265 -0.12281808 1.5860001
-0.10984107 -0.12096422 1.5860001
-0.1042795 -0.11679304 1.5860001
-0.09454675 -0.11540265 1.5860001
-0.08620438 -0.11262186 1.5860001
-0.08203321 -0.10984107 1.5860001
-0.076471634 -0.10798722 1.5860001
-0.065348484 -0.1042795 1.5860001
-0.057006128 -0.10149872 1.5860001
-0.051444553 -0.098717928 1.5860001
-0.044492587 -0.095937133 1.5860001
-0.033369441 -0.090375565 1.5860001
-0.029198259 -0.090375565 1.5860001
-0.024563616 -0.085277461 1.5860001
-0.018075114 -0.08203321 1.5860001
-0.013903933 -0.079252422 1.5860001
-0.0055615734 -0.076471634 1.5860001
0.0064885025 -0.073227376 1.5860001
0.013903933 -0.070910059 1.5860001
0.018075114 -0.068129271 1.5860001
0.025027078 -0.067434072 1.5860001
0.033369441 -0.062567696 1.5860001
0.037540618 -0.059786912 1.5860001
0.044492587 -0.057701327 1.5860001
0.055615734 -0.05422534 1.5860001
0.066043682 -0.052139752 1.5860001
0.070910059 -0.051444553 1.5860001
0.075081237 -0.045882981 1.5860001
0.085509188 -0.042406999 1.5860001
0.094546743 -0.040321406 1.5860001
0.10288911 -0.040321406 1.5860001
0.11540265 -0.040321406 1.5860001
0.087594777 -0.037540618 1.5860001
0.094546743 -0.037540618 1.5860001
0.10659683 -0.036613688 1.5860001
0.11540265 -0.036150228 1.5860001
0.12513541 -0.033369441 1.5860002
0.13208736 -0.031979047 1.5860001
0.13579507 -0.0273444 1.5860001
0.14321052 -0.022709757 1.5860001
0.15294327 -0.0208559 1.5860001
0.1640664 -0.0208559 1.5860001
0.15572405 -0.018075114 1.5860001
0.166152 -0.015989523 1.5860001
0.17426264 -0.013440468 1.5860001
0.20716861 -0.01251354 1.5860001
0.17797035 -0.0083423601 1.5860001
0.18492232 -0.0055615734 1.5860002
0.19500266 -0.0055615739 1.5860002
0.20562372 -0.0078788958 1.5860002
0.21576376 -0.0059407721 1.5860003
0.22176772 -0.0034759836 1.5860001
0.21829174 0.0013903934 1.5860001
0.22570719 0.0047891331 1.5860002
0.23497647 0.0050981096 1.5860002
0.24455473 0.0072609428 1.5860002
0.25166118 0.0083423601 1.5860001
0.24749002 0.01251354 1.5860001
0.25397852 0.015294327 1.5860001
0.2566666 0.024749001 1.5860001
0.26222819 0.026417473 1.5860001
0.25722277 0.034759834 1.5860001
0.26340228 0.035377786 1.5860002
0.27112669 0.037540618 1.5860001
0.25722277 0.0417118 1.5860001
0.26389664 0.044770662 1.5860003
0.27321231 0.045882978 1.5860002
0.26278433 0.052834947 1.5860001
-0.19465506 0.19882624 1.5860001
-0.19465506 0.2043878 1.5860001
-0.19437698 0.21551096 1.5860001
-0.18353191 0.22663411 1.5860001
-0.18353191 0.23219569 1.5860001
-0.17936073 0.23219569 1.5860001
-0.18353193 0.24609961 1.5860001
-0.18399538 0.25351503 1.5860001
-0.19525096 0.26516789 1.5860002
-0.1877031 0.26695552 1.5860001
-0.19187428 0.27112669 1.5860001
-0.1877031 0.27112669 1.5860001
-0.20531476 0.28595757 1.5860001
-0.19048388 0.29615378 1.5860001
-0.1877031 0.29754418 1.5860001
-0.19048388 0.30171534 1.5860001
-0.1877031 0.30171534 1.5860001
-0.17327842 -0.13554844 1.5940001
-0.16442817 -0.13275363 1.5940002
-0.15231733 -0.13275363 1.5940001
-0.14393288 -0.13275363 1.5940002
-0.13554846 -0.13275363 1.5940002
-0.12716401 -0.13275363 1.5940001
-0.16349658 -0.12995882 1.5940001
-0.15441345 -0.12926011 1.5940001
-0.14592919 -0.12876104 1.594
-0.13554844 -0.12995882 1.5940002
-0.12492815 -0.12939987 1.5940001
-0.11430786 -0.12604609 1.5940001
-0.1062029 -0.12157438 1.5940001
-0.10201069 -0.11877956 1.5940001
-0.095023654 -0.11877956 1.5940001
-0.085241802 -0.11505315 1.5940002
-0.075739443 -0.11151304 1.5940001
-0.071267739 -0.10760031 1.5940001
-0.06344226 -0.10704134 1.5940001
-0.054498855 -0.10294229 1.5940002
-0.043319602 -0.098284267 1.5940002
-0.035633869 -0.094324946 1.5940001
-0.025432801 -0.091949359 1.5940001
-0.018166287 -0.090831436 1.5940001
-0.022358507 -0.088036619 1.5940001
-0.015371474 -0.085241802 1.594
-0.0055896267 -0.079652183 1.5940001
0.0055896267 -0.077556074 1.5940001
0.016070178 -0.073363855 1.5940001
0.023755914 -0.071267739 1.5940002
0.02934554 -0.068472929 1.5940001
0.034935165 -0.06567812 1.5940001
0.044437531 -0.061206412 1.5940001
0.051704045 -0.060088485 1.5940001
0.055896267 -0.057293672 1.5940001
0.062883303 -0.054498862 1.5940002
0.074062556 -0.052635651 1.5940002
0.078720577 -0.047977626 1.5940002
0.085241802 -0.047511827 1.594
0.095023654 -0.04471701 1.594
0.1048055 -0.042388003 1.5940002
0.11412155 -0.040524792 1.5940002
0.12157438 -0.040524792 1.5940001
0.1243692 -0.037729979 1.5940002
0.13554844 -0.033537757 1.5940001
0.13834326 -0.02934554 1.5940001
0.14579611 -0.026861262 1.594
0.15551139 -0.024554431 1.594
0.16429509 -0.023356652 1.594
0.17188102 -0.0209611 1.5940001
0.1690862 -0.018166287 1.5940001
0.17537452 -0.017467583 1.5940001
0.18430242 -0.015060938 1.594
0.19535746 -0.013135624 1.5940001
0.20541878 -0.014905672 1.594
0.21464165 -0.014812511 1.594
0.22218765 -0.01257666 1.5940001
0.18725249 -0.0097818468 1.5940001
0.19354083 -0.0090831434 1.5940001
0.22578098 -0.0061885151 1.594
0.23476432 -0.0027948134 1.594
0.2439872 -0.0025153321 1.5940001
0.25013578 -0.0013974067 1.5940001
0.22777729 0.0013974067 1.5940001
0.23196951 0.0013974067 1.5940001
0.24524488 0.00209611 1.5940001
0.25525963 0.0046580224 1.594
0.26131505 0.0083844401 1.5940001
0.25852025 0.013974067 1.5940001
0.26364407 0.016303079 1.594
0.26639652 0.024518138 1.594
0.27249429 0.027948134 1.5940001
0.26783624 0.033071954 1.5940002
0.27482334 0.034935165 1.594
0.26969948 0.040524792 1.5940001
0.27668652 0.041922197 1.5940001
0.28087875 0.041922197 1.5940001
-0.18585509 0.25572541 1.5940001
-0.19423951 0.26830208 1.5940001
-0.18585509 0.26410985 1.5940001
-0.19982915 0.27808392 1.5940001
-0.20332266 0.28646836 1.5940001
-0.19773304 0.28611901 1.594
-0.2110084 0.29625022 1.5940001
-0.20541878 0.29485279 1.594
-0.19601804 0.29459873 1.594
-0.18864989 0.29345539 1.5940001
-0.21240582 0.30463466 1.594
-0.20541878 0.30463466 1.594
-0.19591641 0.30472785 1.594
-0.21240582 0.3144165 1.5940001
-0.20472008 0.31232038 1.5940001
-0.19563693 0.31385756 1.594
-0.2124058 0.32280093 1.594
-0.17376892 -0.14281732 1.605
-0.16503513 -0.14246622 1.6090001
-0.15516123 -0.14246622 1.6090001
-0.14528733 -0.14246622 1.6090001
-0.13569555 -0.14303043 1.609
-0.12553954 -0.14246622 1.6090001
-0.17291869 -0.13918222 1.6036668
-0.16547237 -0.13701905 1.603
-0.1546602 -0.13652514 1.6024547
-0.14456494 -0.13754724 1.601
-0.13474016 -0.13754724 1.601
-0.12499163 -0.13658138 1.602
-0.11598112 -0.13468131 1.6049999
-0.10767249 -0.13212214 1.6090001
-0.11087992 -0.12772244 1.6010001
-0.10433933 -0.12612757 1.603
-0.095753521 -0.12418929 1.6036667
-0.08557377 -0.12365881 1.6090001
-0.083412491 -0.11856421 1.6036667
-0.073972262 -0.11560412 1.6042
-0.06490276 -0.11232641 1.6044286
-0.056422263 -0.11143398 1.6090001
-0.05417677 -0.10695001 1.6010001
-0.046130493 -0.10493574 1.6054444
-0.035263915 -0.10297064 1.6090001
-0.026800578 -0.10014952 1.6090001
-0.040702756 -0.099651575 1.6010001
-0.034527164 -0.098528743 1.6010001
-0.02434562 -0.095989443 1.6023334
-0.015463023 -0.094175674 1.6032857
-0.0064885602 -0.092250407 1.609
0.0014105566 -0.091686182 1.6090001
-0.01263189 -0.08842323 1.6010001
-0.0056258626 -0.085834719 1.605
0.0055234721 -0.084151976 1.6059232
0.014923846 -0.081370272 1.6058
0.021158351 -0.080401726 1.6090001
0.015438977 -0.077194884 1.6010002
0.025776045 -0.075452067 1.6036668
0.03426744 -0.073699906 1.6063334
0.044533283 -0.073147438 1.6090001
0.053601153 -0.071938388 1.6090001
0.036492124 -0.06877362 1.6010001
0.045474797 -0.066527955 1.6010001
0.055094112 -0.065069467 1.6039093
0.064346336 -0.064149842 1.6055715
0.074054226 -0.061359212 1.6090001
0.080401726 -0.060653936 1.6090001
0.064562991 -0.057545274 1.6010001
0.07494922 -0.056422442 1.6010001
0.084389687 -0.054856826 1.6043333
0.094973333 -0.054677702 1.6074002
0.10476589 -0.055268172 1.609
0.11369087 -0.053319044 1.609
0.095440947 -0.049124017 1.6010001
0.10566676 -0.047118954 1.601
0.11523842 -0.046377126 1.603
0.12562577 -0.045465764 1.6068181
0.13524862 -0.042265847 1.6070001
0.14558516 -0.042892165 1.6078573
0.1543403 -0.042057078 1.6067144
0.16503513 -0.040906142 1.6090001
0.13558228 -0.037334248 1.6010001
0.14456494 -0.035088584 1.601
0.15445583 -0.03510436 1.6016666
0.16458082 -0.035171185 1.6045556
0.17067735 -0.032442804 1.6090001
0.14737205 -0.029474409 1.6010001
0.15579331 -0.029474409 1.6010002
0.164776 -0.028351575 1.6010001
0.17505462 -0.025488285 1.6068181
0.18507013 -0.02366579 1.6066
0.19519962 -0.024667209 1.6076666
0.20468536 -0.023655271 1.6058
0.21413022 -0.023654317 1.6081111
0.22568907 -0.021158351 1.6090001
0.23274185 -0.021158351 1.6090001
0.1880748 -0.018246064 1.6010001
0.19509251 -0.017123228 1.6010001
0.20281202 -0.017544292 1.6010001
0.21754922 -0.018246064 1.6010001
0.2257856 -0.016072905 1.6018889
0.23530422 -0.015502095 1.6072222
0.24543686 -0.015516125 1.6089998
0.25474653 -0.013823455 1.609
0.26236355 -0.01269501 1.6090001
0.22877756 -0.0098248031 1.6010001
0.23439173 -0.0084212599 1.601
0.2449587 -0.0079643214 1.6027777
0.25551158 -0.0055202348 1.6034615
0.26540929 -0.0057501919 1.6083845
0.27294269 -0.0035263917 1.6090001
0.26596507 0.0050534573 1.6018
0.27455595 0.0060218233 1.6075455
0.28070077 0.0098738968 1.6090001
0.2662054 0.013567585 1.6010002
0.27430344 0.015473263 1.6045556
0.28352192 0.016725171 1.6090001
0.27609703 0.025063273 1.601
0.28521454 0.025107907 1.6089997
0.29339576 0.028211132 1.6090001
0.27930513 0.03368504 1.6010001
0.28602818 0.035224956 1.6072223
0.29198521 0.03667447 1.6090001
-0.18386418 0.25825197 1.6010001
-0.18386418 0.2652697 1.6010001
-0.19456302 0.27809581 1.6032857
-0.19332448 0.28534764 1.6050001
-0.18760404 0.28775358 1.6090001
-0.19509253 0.29053348 1.6010001
-0.18737303 0.29263878 1.6010001
-0.21333858 0.31579724 1.6010001
-0.20632088 0.31720078 1.6010001
-0.19649607 0.31860432 1.6010001
-0.21017294 0.32301748 1.6090001
-0.20408186 0.3251217 1.6054444
-0.19593082 0.32467768 1.605
-0.21221802 0.33847767 1.6074002
-0.2054711 0.33524227 1.6090001
-0.21203674 0.34493989 1.6078573
-0.2062234 0.34502217 1.609
-0.2120537 0.35499012 1.6090001
-0.21722573 0.36533418 1.6090001
-0.15158619 -0.49300927 1.6160001
-0.15158619 -0.48592579 1.6160001
-0.1447051 -0.4863306 1.6160001
-0.17283659 -0.14591941 1.6160001
-0.16433643 -0.14591941 1.6160001
-0.15441957 -0.14591941 1.6160001
-0.14450271 -0.14591941 1.6160001
-0.13316917 -0.14591941 1.6160001
-0.12041894 -0.14308603 1.6160001
-0.11475215 -0.14214157 1.6160001
-0.10908539 -0.14025263 1.6160001
-0.11191877 -0.13741925 1.6160001
-0.10455197 -0.1340192 1.6159999
-0.096807383 -0.13269694 1.6160001
-0.093501762 -0.12891909 1.6160001
-0.085001595 -0.1275024 1.6160001
-0.075793095 -0.12112728 1.6160001
-0.065167889 -0.1168772 1.6160001
-0.054542691 -0.11404382 1.6160001
-0.048167571 -0.11191877 1.6160001
-0.042028572 -0.10814092 1.6160001
-0.035417333 -0.10625199 1.6160001
-0.02550048 -0.10271027 1.6160001
-0.017000321 -0.10058523 1.6160001
-0.01275024 -0.097751841 1.6160001
-0.0049584266 -0.095626801 1.6160001
0.0053834347 -0.093218423 1.6159999
0.0085001597 -0.089251682 1.6160001
0.015583627 -0.086890526 1.6160001
0.02550048 -0.081459865 1.6160001
0.036834024 -0.076501444 1.6160001
0.046184205 -0.077351458 1.6159999
0.055959389 -0.074376397 1.6160001
0.062334508 -0.072251357 1.6160001
0.068001285 -0.069417976 1.6160001
0.075084746 -0.065167889 1.6160001
0.083584905 -0.061862275 1.6160001
0.097751841 -0.060917813 1.6160001
0.10483531 -0.060917813 1.6160001
0.11333546 -0.060917813 1.6160001
0.11475217 -0.057139963 1.6160001
0.12466901 -0.052417655 1.6160001
0.14166933 -0.052417655 1.6160001
0.13458587 -0.048167571 1.6160001
0.14389558 -0.048369963 1.6160001
0.15371123 -0.04745923 1.6160001
0.16433643 -0.043917492 1.6160001
0.17566998 -0.034708988 1.6160001
0.18502015 -0.033717301 1.6159999
0.19597591 -0.034472872 1.6160001
0.20485385 -0.033717304 1.6159999
0.21203177 -0.033528414 1.6160001
0.17850336 -0.029750559 1.6160001
0.18558683 -0.029750561 1.6160001
0.19408698 -0.029750561 1.6160001
0.20542054 -0.029750561 1.6160001
0.21562073 -0.028617203 1.6159999
0.22454588 -0.024792133 1.6160001
0.23577823 -0.023679016 1.6160001
0.24414349 -0.023139326 1.6160001
0.25287974 -0.021958746 1.6160001
0.25712985 -0.017708667 1.6160001
0.26532644 -0.016393166 1.6160001
0.27285513 -0.013883593 1.6159999
0.27625519 -0.0067292931 1.6160001
0.28286645 -0.0023611556 1.6160001
0.27908859 0.0014166933 1.6160001
0.28475532 0.0056667733 1.6159999
0.29366031 0.0078930054 1.6160001
0.30175567 0.0085001597 1.6160001
0.28664425 0.013694703 1.6160001
0.29505861 0.015326047 1.6159999
0.30175567 0.01275024 1.6160001
0.29649371 0.023274247 1.6160001
0.29325551 0.032583948 1.6160001
-0.21427487 0.33469379 1.6160001
-0.20258714 0.33717301 1.6160001
-0.19904542 0.33504796 1.6160001
-0.21769853 0.34614539 1.6160001
-0.20329548 0.34567317 1.6160001
-0.19975376 0.34142309 1.6160001
-0.21533738 0.35559002 1.6160001
-0.20683722 0.35559008 1.6160001
-0.22242086 0.36834025 1.6160001
-0.2153374 0.36437353 1.6159999
-0.20754558 0.36338186 1.6160001
-0.16087885 -0.4954499 1.6240001
-0.15613317 -0.49592447 1.6240003
-0.14521809 -0.49606007 1.6240004
-0.13525213 -0.4954499 1.6240004
-0.12457433 -0.49687362 1.6240003
-0.11603209 -0.49758548 1.6240001
-0.10582886 -0.49592447 1.6240001
-0.1632517 -0.48500943 1.6240002
-0.15599756 -0.48507717 1.6240003
-0.14501469 -0.48385689 1.6240003
-0.13525213 -0.48548397 1.6240003
-0.12528619 -0.48477212 1.6240001
-0.16346742 -0.47590634 1.6240004
-0.15518403 -0.47551802 1.6240004
-0.14521806 -0.47551796 1.6240004
-0.13620126 -0.47599262 1.6240003
-0.12386248 -0.47978914 1.6240001
-0.16230255 -0.46697581 1.6240001
-0.15518402 -0.46697581 1.6240002
-0.14542148 -0.46717921 1.6240003
-0.13667583 -0.46697581 1.6240001
-0.12101506 -0.46697581 1.6240001
-0.18935299 -0.45131502 1.6240001
-0.18935299 -0.44846758 1.6240001
-0.16301441 -0.43209496 1.6240001
-0.15233661 -0.4313831 1.6240001
-0.14948919 -0.4313831 1.6240001
-0.16301441 -0.42782384 1.6240001
-0.15447217 -0.42782384 1.6240001
-0.14877734 -0.42640013 1.6240001
-0.16372627 -0.15233661 1.6240001
-0.15518403 -0.15233661 1.6240001
-0.14521807 -0.15233661 1.6240001
-0.13667583 -0.15233661 1.6240001
-0.17511593 -0.14948919 1.6240001
-0.16514997 -0.14948919 1.6240001
-0.15518402 -0.14948919 1.6240001
-0.14521807 -0.14948919 1.6240001
-0.13525213 -0.14948919 1.6240001
-0.12614042 -0.14721127 1.6240002
-0.11532024 -0.14521807 1.6240001
-0.106778 -0.1418961 1.6240001
-0.098235756 -0.14094695 1.6240001
-0.10321873 -0.13738769 1.6240001
-0.094676495 -0.13525213 1.6240001
-0.087415591 -0.13354369 1.6240002
-0.082574986 -0.12955731 1.6240001
-0.075456455 -0.12481162 1.6240001
-0.065965079 -0.12101506 1.6240001
-0.064066797 -0.11816765 1.6240001
-0.055524558 -0.11816766 1.6240001
-0.045273874 -0.11418128 1.6240002
-0.038440078 -0.11247282 1.6240001
-0.035592668 -0.10962542 1.6240001
-0.025830105 -0.10718477 1.6240003
-0.015660772 -0.10298145 1.6240001
-0.0061693955 -0.10108318 1.6240001
-0.0052202581 -0.098235756 1.6240001
0.0059795682 -0.097096793 1.6240002
0.015660772 -0.092540942 1.6240001
0.018508187 -0.089693516 1.6240001
0.025016559 -0.086032562 1.6240003
0.035023183 -0.082290247 1.6240002
0.045558613 -0.081151277 1.6240001
0.038440078 -0.078303866 1.6240001
0.055524558 -0.078303866 1.6240001
0.065490507 -0.074032746 1.6240001
0.075456448 -0.06881249 1.6240001
0.086276628 -0.064066797 1.6240002
0.094818868 -0.062927835 1.6240002
0.10630343 -0.065015934 1.6240002
0.11460838 -0.064066797 1.6240001
0.11816765 -0.058371972 1.6240001
0.12443197 -0.056094039 1.6240002
0.13525212 -0.054100852 1.6240002
0.14616722 -0.054575425 1.6240002
0.15233661 -0.052677147 1.6240001
0.15660773 -0.049829733 1.6240001
0.16429575 -0.047551803 1.6240002
0.1751159 -0.041287493 1.6240001
0.18365817 -0.041287493 1.6240001
0.19647151 -0.041287493 1.6240001
0.20359005 -0.041287493 1.6240001
0.17653963 -0.038440078 1.6240001
0.18593609 -0.037870597 1.6240002
0.19504781 -0.038440078 1.6240001
0.20714933 -0.037728228 1.6240001
0.21569155 -0.035592668 1.6240001
0.22067453 -0.032745253 1.6240001
0.22589479 -0.028948702 1.6240002
0.23491159 -0.028758874 1.6240002
0.24558942 -0.028118206 1.6240003
0.25427398 -0.026480943 1.6240002
0.26480943 -0.021355599 1.6240001
0.27192798 -0.021355599 1.6240001
0.27548724 -0.017796334 1.6240001
0.28141937 -0.013762497 1.6240001
0.28535149 -0.0063049868 1.6240003
0.28901246 0.0014237066 1.6240001
0.29565644 0.0047456888 1.6240002
0.30182582 0.0028474131 1.6240001
-0.22162366 0.33457103 1.6240001
-0.21782711 0.33457106 1.6240001
-0.22138637 0.34382516 1.6240001
-0.20074263 0.34596071 1.6240001
-0.22067453 0.35450295 1.6240001
-0.20359005 0.35450295 1.6240001
-0.22352195 0.3644689 1.6240001
-0.20548832 0.36494347 1.6240001
-0.17311712 -0.49502912 1.6320001
-0.16596352 -0.49502912 1.6320001
-0.13019551 -0.49502915 1.6320001
-0.12304192 -0.49359843 1.6320001
-0.11412743 -0.49403864 1.6320001
-0.10380667 -0.49391636 1.6320001
-0.09479098 -0.49516642 1.6334001
-0.086211406 -0.49571553 1.6390001
-0.079027116 -0.49858925 1.6390001
-0.18170144 -0.48215264 1.6320001
-0.17454785 -0.48501408 1.6320001
-0.1645328 -0.48501408 1.6320001
-0.13019551 -0.48501408 1.6320001
-0.12375728 -0.48572943 1.6320001
-0.1144576 -0.48501405 1.6320001
-0.10444255 -0.48501408 1.6320001
-0.095360234 -0.48561963 1.6375
-0.086498775 -0.48766914 1.6390002
-0.184522 -0.4751628 1.6339092
-0.17454785 -0.47499907 1.6320001
-0.16739424 -0.4721376 1.6320001
-0.13162623 -0.47499907 1.6320001
-0.12473276 -0.47538921 1.6320001
-0.1144576 -0.47499907 1.6320001
-0.10455149 -0.47550687 1.6337501
-0.096628614 -0.47595873 1.6390001
-0.19110195 -0.4669784 1.6390001
-0.18491881 -0.46587038 1.6351112
-0.17454784 -0.46498397 1.6320001
-0.16494156 -0.46416643 1.6320001
-0.15451775 -0.46355325 1.6320001
-0.14450271 -0.46416643 1.6320001
-0.13391539 -0.46441168 1.6320002
-0.12483031 -0.46462631 1.6320001
-0.1144576 -0.46498397 1.6320001
-0.1043307 -0.46520701 1.6348002
-0.098185204 -0.46649945 1.6390001
-0.19028576 -0.4578304 1.6320001
-0.18456288 -0.45496896 1.6320001
-0.17454785 -0.45496908 1.6320001
-0.16453281 -0.45496902 1.6320001
-0.15451777 -0.45496899 1.6320001
-0.14450271 -0.45496893 1.6320001
-0.13448767 -0.45496905 1.6320001
-0.12447264 -0.45496893 1.6320001
-0.11454849 -0.45533141 1.6333126
-0.10490408 -0.45546076 1.6351819
-0.09914311 -0.45692042 1.6390001
-0.18374531 -0.44536272 1.6320001
-0.17454784 -0.44495392 1.6320001
-0.1645328 -0.44495392 1.6320001
-0.15451775 -0.44495392 1.6320001
-0.14450271 -0.44495392 1.6320001
-0.13452613 -0.44495079 1.6350001
-0.12464598 -0.44547045 1.6377274
-0.11494853 -0.44542557 1.6390001
-0.10489053 -0.44542554 1.6390001
-0.1842293 -0.43549794 1.6341002
-0.17454784 -0.43493891 1.6320001
-0.16510507 -0.43808645 1.6320002
-0.15509005 -0.4369418 1.6320002
-0.14424258 -0.43532905 1.6320001
-0.13469207 -0.43432564 1.6320001
-0.12502204 -0.43501139 1.6355002
-0.11581065 -0.43565494 1.6390002
-0.10632739 -0.43824127 1.6390001
-0.18470183 -0.42455134 1.6383002
-0.17522882 -0.42475194 1.6345001
-0.16489048 -0.42456615 1.6320001
-0.15563053 -0.42428797 1.6320001
-0.14450271 -0.4249239 1.6320001
-0.13448767 -0.4249239 1.6320001
-0.12487101 -0.42485186 1.6372501
-0.11761699 -0.42674643 1.6390001
-0.18453345 -0.41525155 1.6390001
-0.17467646 -0.41556153 1.6370001
-0.16453281 -0.4149088 1.6320001
-0.15460138 -0.41512892 1.6328751
-0.144605 -0.41520229 1.6331668
-0.1347017 -0.41557151 1.6346251
-0.12500653 -0.41697583 1.6390002
-0.1953925 -0.40474832 1.6377274
-0.18535452 -0.40519357 1.6390001
-0.17510884 -0.40619829 1.6372501
-0.16480754 -0.40570959 1.6376002
-0.15518051 -0.40519354 1.6390001
-0.1454099 -0.40605569 1.6390002
-0.13707612 -0.40720516 1.6390002
-0.19403113 -0.39441058 1.636
-0.18489788 -0.39456695 1.6381251
-0.17473501 -0.39530212 1.6337501
-0.1650462 -0.39510214 1.6345456
-0.15575527 -0.39571032 1.6390002
-0.19305012 -0.38609868 1.6372501
-0.18412292 -0.38651446 1.6390001
-0.17501347 -0.38445622 1.6363751
-0.16549978 -0.38546944 1.6390001
-0.1554679 -0.38881341 1.6390002
-0.19397564 -0.37501958 1.6390001
-0.1824808 -0.37645644 1.6390001
-0.17721231 -0.37597749 1.6390001
-0.16811223 -0.3778933 1.6390001
-0.20259678 -0.36496159 1.6390001
-0.20834422 -0.31179789 1.6390001
-0.17098594 -0.1623648 1.6390001
-0.16523851 -0.1623648 1.6390001
-0.15518053 -0.1623648 1.6390001
-0.17427501 -0.15564619 1.6348002
-0.1645328 -0.1573792 1.6320001
-0.15451775 -0.1573792 1.6320001
-0.14481261 -0.15771978 1.6355001
-0.13381921 -0.15532911 1.6355001
-0.12464855 -0.1518752 1.6343335
-0.11697648 -0.1514273 1.6372501
-0.11302688 -0.14736415 1.6320001
-0.10453461 -0.14462912 1.6334002
-0.093985297 -0.14354202 1.6350001
-0.087273918 -0.14164127 1.6320001
-0.092996798 -0.13877983 1.6320001
-0.083912604 -0.13660973 1.6334002
-0.075192943 -0.1317462 1.636
-0.072251357 -0.12661871 1.6320001
-0.064500749 -0.12552427 1.6350001
-0.055610377 -0.12413474 1.6358889
-0.04597941 -0.12213282 1.6390001
-0.050075199 -0.11874976 1.6320001
-0.04368145 -0.11816174 1.6337501
-0.034391742 -0.11536089 1.6346251
-0.024060896 -0.11425684 1.6358889
-0.01673878 -0.11239627 1.6366668
-0.013360546 -0.10642689 1.6331668
-0.0047813402 -0.1052222 1.6366668
0.004301365 -0.10323582 1.6355001
0.012202542 -0.10262632 1.6372501
0.014941406 -0.097614326 1.6340001
0.024380198 -0.094179027 1.6358889
0.033958562 -0.092308909 1.6366668
0.043967813 -0.091671452 1.6390002
0.050289985 -0.090521969 1.6390001
0.035195712 -0.086701632 1.6320002
0.044386074 -0.085905589 1.6331668
0.054484569 -0.084597185 1.6355002
0.064031035 -0.082980357 1.6376002
0.070405975 -0.081900828 1.6390001
0.065097757 -0.077974238 1.6320001
0.075274393 -0.075756408 1.6355001
0.084624708 -0.074589208 1.6360835
0.094627976 -0.073127285 1.6355001
0.10466654 -0.071692482 1.6355001
0.11476674 -0.07173007 1.6363751
0.12500653 -0.070405975 1.6390001
0.13506451 -0.070405975 1.6390001
0.14368567 -0.070405975 1.6390001
0.15518051 -0.070405975 1.6390001
0.085843198 -0.067243837 1.6320001
0.094427519 -0.067243837 1.6320001
0.10301184 -0.067243837 1.6320001
0.11779594 -0.066290021 1.6320001
0.12447263 -0.064382397 1.6320001
0.13472854 -0.064501546 1.6349168
0.14477955 -0.06450922 1.6351112
0.15473008 -0.064373307 1.6383637
0.16452008 -0.062503263 1.6390001
0.17098594 -0.061784837 1.6390001
0.12590335 -0.05865952 1.6320001
0.13448767 -0.05865952 1.6320001
0.14450271 -0.05865952 1.6320001
0.15570623 -0.056461912 1.6327778
0.16511483 -0.054869689 1.6351819
0.17324047 -0.052690048 1.6370001
0.18535452 -0.050289985 1.6390001
0.1954125 -0.050289985 1.6390001
0.2054705 -0.050289985 1.6390001
0.17623222 -0.045850541 1.6343335
0.1848288 -0.045850545 1.6343335
0.19433947 -0.045005612 1.6348002
0.20503175 -0.045884293 1.6355001
0.21458557 -0.043896627 1.6362002
0.22558649 -0.043105703 1.6390001
0.23564449 -0.043105695 1.6390001
0.24498406 -0.042387273 1.6390001
0.25432363 -0.041668843 1.6390001
0.21746944 -0.038629439 1.6320001
0.22522312 -0.0361671 1.6337501
0.23497355 -0.03582323 1.6343335
0.24500291 -0.035823233 1.6343334
0.25461257 -0.034813389 1.6358184
0.264222 -0.032728404 1.6390001
0.2744396 -0.030173989 1.6390001
0.28018704 -0.030173989 1.6390001
0.25896031 -0.02718368 1.6320001
0.26468319 -0.02575296 1.6320001
0.27492967 -0.024735151 1.6355001
0.28258181 -0.024426563 1.6390001
0.29527405 -0.022271276 1.6390001
0.30030304 -0.027300276 1.6390001
0.28611585 -0.015749317 1.6330001
0.29335311 -0.01376989 1.6355002
0.30234304 -0.011773634 1.6376002
0.29520524 -0.0042921598 1.6320001
0.30148721 -0.0050151907 1.6337501
0.29902047 0.00143072 1.6320001
-0.22622325 0.34674332 1.6366668
-0.22539048 0.35541028 1.6334002
-0.20230836 0.35440245 1.6366668
-0.082300588 -0.49524739 1.647
-0.077968977 -0.49524739 1.6470002
-0.090963811 -0.48369646 1.647
-0.084546611 -0.48401731 1.6470002
-0.07845027 -0.48610291 1.6470002
-0.092118904 -0.47445568 1.6470001
-0.086150907 -0.47599581 1.6470002
-0.079412848 -0.47792098 1.6470001
-0.093589038 -0.46453241 1.6470001
-0.095295429 -0.45481905 1.6470001
-0.10251477 -0.44038033 1.6470001
-0.096072882 -0.44548947 1.647
-0.08807607 -0.44759971 1.6470001
-0.11117799 -0.43460488 1.647
-0.10540251 -0.43460485 1.6470002
-0.19203471 -0.42016616 1.6470001
-0.18914697 -0.42016616 1.6470001
-0.11459077 -0.42410401 1.6470001
-0.10540251 -0.4288294 1.647
-0.19299729 -0.41439068 1.647
-0.18914697 -0.41439068 1.6470001
-0.13139217 -0.41150296 1.6470001
-0.12561668 -0.41356558 1.6470002
-0.11637592 -0.4141019 1.6470001
-0.20069793 -0.40283972 1.6470001
-0.19203471 -0.4086152 1.6470001
-0.14222118 -0.40428358 1.6470001
-0.13391894 -0.40572742 1.6470002
-0.12561668 -0.40608841 1.6470002
-0.11550961 -0.40572742 1.647
-0.20069793 -0.39995199 1.6470001
-0.19492245 -0.39706424 1.6470001
-0.18914697 -0.39995199 1.6470001
-0.15305021 -0.39417651 1.6470001
-0.14448327 -0.39571664 1.6469998
-0.13716765 -0.39562038 1.6470001
-0.11695347 -0.39923006 1.6470001
-0.20069793 -0.38262555 1.6470001
-0.19564438 -0.38623524 1.6470001
-0.18799186 -0.38493574 1.6470001
-0.16099152 -0.38479137 1.6470001
-0.15413311 -0.38515234 1.6470002
-0.14438699 -0.38551331 1.647
-0.13716765 -0.38551331 1.647
-0.20069793 -0.37540618 1.6470001
-0.19723263 -0.37453988 1.6470001
-0.18577796 -0.37444365 1.647
-0.17362536 -0.37432331 1.6470002
-0.16431241 -0.37511745 1.6469998
-0.15449406 -0.37540624 1.647
-0.14467578 -0.37569502 1.6469998
-0.13716765 -0.37973779 1.6470001
-0.20243058 -0.36472157 1.6470001
-0.19636631 -0.36529911 1.6470002
-0.18419656 -0.36694926 1.6470002
-0.17470826 -0.36529917 1.6470002
-0.16460119 -0.36529914 1.647
-0.15377216 -0.36602104 1.6470001
-0.19636631 -0.35952362 1.6470001
-0.17182054 -0.35952362 1.6470001
-0.1689328 -0.35086042 1.6470001
-0.17182054 -0.34797266 1.6470001
-0.1689328 -0.3465288 1.6470001
-0.19492245 -0.33497784 1.6470001
-0.20936115 -0.31620753 1.6470001
-0.18048374 -0.16026957 1.6470001
-0.17543019 -0.16315731 1.6470001
-0.16460118 -0.16604505 1.6470001
-0.15449409 -0.16604505 1.647
-0.14438699 -0.16243538 1.6470001
-0.13716765 -0.16026957 1.6470001
-0.18337148 -0.15738183 1.6470001
-0.12706056 -0.15738183 1.6470001
-0.11406573 -0.15305021 1.6470001
-0.10829025 -0.15160635 1.6470001
-0.10395864 -0.14871861 1.6470001
-0.099627033 -0.14871861 1.6470001
-0.083744459 -0.14149925 1.6470001
-0.074599952 -0.13620506 1.647
-0.064974152 -0.13139217 1.647
-0.05919867 -0.13139217 1.6470001
-0.051979318 -0.12706056 1.6470001
-0.04475997 -0.12465411 1.647
-0.038984489 -0.12272895 1.6470001
-0.033209011 -0.11984121 1.647
-0.024545789 -0.11984121 1.6470001
-0.014438701 -0.11647218 1.6470002
-0.0057754801 -0.11117799 1.6470001
-0.00144387 -0.10829025 1.6470001
0.00288774 -0.10829025 1.6470001
0.01588257 -0.10395864 1.6470001
0.02310192 -0.10251477 1.6470001
0.025989659 -0.099627033 1.6470001
0.035271682 -0.098389432 1.6470002
0.04475997 -0.095776714 1.647
0.053423189 -0.092407681 1.6470001
0.05919867 -0.08807607 1.6470001
0.065696083 -0.087354138 1.6470001
0.075562529 -0.083744459 1.6470002
0.085188329 -0.082300588 1.647
0.090963811 -0.082300588 1.6470001
0.095295422 -0.079412848 1.6470001
0.10540251 -0.076525107 1.647
0.11262186 -0.076525107 1.6470001
0.12561668 -0.073637366 1.647
0.13427991 -0.071712218 1.647
0.14438699 -0.074359298 1.6470002
0.15449409 -0.072674789 1.647
0.16026957 -0.070749633 1.6470001
0.16546752 -0.066706799 1.6470001
0.17182054 -0.066418022 1.6470001
0.17615213 -0.056310933 1.6470002
0.18517631 -0.055228032 1.6470002
0.19492245 -0.054867059 1.6470002
0.20441072 -0.054660797 1.6470002
0.2144147 -0.051257379 1.6470001
0.22524372 -0.050535448 1.6470001
0.2353508 -0.050535452 1.647
0.24329209 -0.051257387 1.6470001
0.21802437 -0.047647711 1.6470001
0.22524372 -0.047647711 1.6470001
0.2353508 -0.047647711 1.647
0.24574666 -0.046492614 1.6470001
0.25556499 -0.04475997 1.647
0.26278433 -0.041872229 1.6470001
0.26495016 -0.038262554 1.6470001
0.27404651 -0.034364108 1.6470001
0.2829985 -0.031765141 1.6470001
0.28733012 -0.025989659 1.6470001
0.29346657 -0.025628692 1.6470002
0.3032127 -0.02165805 1.6470001
0.29888108 -0.017326441 1.6470001
0.30407903 -0.017037665 1.6470001
-0.072544165 -0.49475121 1.6550001
-0.065652467 -0.49438849 1.655
-0.073731251 -0.48419932 1.655
-0.068191513 -0.48604593 1.6550001
-0.084634863 -0.47347161 1.6550001
-0.077864073 -0.47540608 1.6550001
-0.085602127 -0.46573353 1.655
-0.079798579 -0.46573353 1.6550001
-0.091405652 -0.45412648 1.6550001
-0.085338324 -0.45597306 1.655
-0.078554973 -0.45619917 1.655
-0.092372902 -0.44348669 1.6550001
-0.086762823 -0.44484085 1.6550001
-0.10011095 -0.43526497 1.6550001
-0.094307423 -0.43526503 1.6550001
-0.088503882 -0.435265 1.6550001
-0.11171801 -0.42220706 1.6550001
-0.1044636 -0.42510882 1.6550001
-0.095032863 -0.42728513 1.6550001
-0.19296749 -0.4164035 1.6550001
-0.11171801 -0.4178544 1.6550001
-0.1044636 -0.41495261 1.6550002
-0.13348126 -0.40189469 1.6550001
-0.12622684 -0.40262014 1.6550001
-0.11461978 -0.40189469 1.6550001
-0.10533413 -0.40479642 1.655
-0.14363745 -0.39609113 1.6550001
-0.13348126 -0.39464027 1.655
-0.12506613 -0.39435008 1.6550002
-0.11461978 -0.39464024 1.6550001
-0.10627721 -0.39645389 1.655
-0.19441837 -0.38520953 1.6550001
-0.13348126 -0.38448405 1.6550001
-0.12517166 -0.38474786 1.655
-0.11520012 -0.38622513 1.6550001
-0.19296749 -0.37577879 1.6550001
-0.14073569 -0.372877 1.6550001
-0.13493216 -0.37577879 1.655
-0.12622684 -0.37577879 1.655
-0.20457454 -0.36126995 1.6550001
-0.19172387 -0.36500078 1.655
-0.18426217 -0.36272085 1.6550001
-0.17700776 -0.36126995 1.6550001
-0.1654007 -0.36126995 1.6550001
-0.15560724 -0.36453444 1.655
-0.14508832 -0.36562258 1.6550002
-0.13493215 -0.36562261 1.6550001
-0.12719411 -0.36610621 1.655
-0.21037808 -0.35401553 1.6550001
-0.20457456 -0.3554664 1.655
-0.19470854 -0.35575658 1.655
-0.18426217 -0.3554664 1.655
-0.17555688 -0.3554664 1.655
-0.16500501 -0.35573018 1.655
-0.15524453 -0.3554664 1.655
-0.14508833 -0.3554664 1.6550001
-0.13529488 -0.35582912 1.655
-0.12816137 -0.35740092 1.6550001
-0.20360729 -0.34579387 1.655
-0.19481406 -0.34570596 1.655
-0.18426217 -0.34531021 1.6550001
-0.17582069 -0.34491459 1.655
-0.16477887 -0.34489569 1.6550001
-0.15524451 -0.34531024 1.6550001
-0.14627542 -0.34649727 1.655
-0.21037808 -0.33515406 1.6550001
-0.20457456 -0.33515406 1.655
-0.19659469 -0.33515406 1.6550001
-0.18426217 -0.33598313 1.655
-0.17597142 -0.33598313 1.655
-0.1654007 -0.33660495 1.655
-0.15596996 -0.3373304 1.6550001
-0.21037808 -0.32209611 1.6550001
-0.20457457 -0.32460216 1.655
-0.19732013 -0.32499784 1.655
-0.20457456 -0.31484169 1.655
-0.19732012 -0.31484166 1.6550001
-0.2053 -0.30686182 1.6550001
-0.16685158 -0.17265512 1.6550001
-0.18281129 -0.16249894 1.6550001
-0.17555688 -0.16830246 1.6550001
-0.1654007 -0.16975334 1.6550001
-0.1566954 -0.16975334 1.6550001
-0.14421782 -0.16627122 1.6550001
-0.13493215 -0.16249894 1.6550001
-0.12912862 -0.16104805 1.6550001
-0.1218742 -0.15814628 1.6550001
-0.1131689 -0.15524451 1.6550001
-0.1044636 -0.15306818 1.6550001
-0.094307423 -0.14944099 1.6550001
-0.08560212 -0.14508833 1.6550001
-0.075445935 -0.14073569 1.6550001
-0.073995054 -0.13783392 1.6550001
-0.065289758 -0.13638304 1.6550001
-0.057164799 -0.1343518 1.6550001
-0.050780915 -0.12912862 1.6550001
-0.044977382 -0.12816137 1.6550001
-0.034821197 -0.12405052 1.6550001
-0.024665019 -0.12332508 1.6550001
-0.015959717 -0.1218742 1.6550001
-0.010156184 -0.11607067 1.6550001
-0.0043526501 -0.11365253 1.6550001
0.0029017667 -0.11171801 1.6550001
0.0072544166 -0.10881625 1.6550001
0.014992462 -0.10688174 1.6550001
0.024665017 -0.1044636 1.6550001
0.033370316 -0.10301272 1.6550001
0.042075615 -0.10011095 1.6550001
0.047879148 -0.097209185 1.6550001
0.056584455 -0.094307415 1.6550001
0.065289758 -0.092856534 1.6550001
0.071093284 -0.091405652 1.6550001
0.075736113 -0.087923527 1.6550001
0.085602127 -0.085602127 1.6550001
0.094887778 -0.084441409 1.6550001
0.10359307 -0.083280705 1.6550001
0.10591448 -0.079798579 1.6550001
0.11534522 -0.079073139 1.6550001
0.12477597 -0.076896816 1.6550001
0.1355125 -0.075736113 1.6550001
0.14508833 -0.079073139 1.6550001
0.15451907 -0.076171376 1.6550001
0.1654007 -0.072544165 1.6550001
0.17265512 -0.072544165 1.6550001
0.16685158 -0.068191513 1.6550001
0.17652415 -0.063355245 1.6550001
0.18426217 -0.062387984 1.6550001
0.19151661 -0.062387984 1.6550001
0.18329494 -0.058518965 1.6550001
0.19441837 -0.059486218 1.6550001
0.20457454 -0.059486222 1.6550001
0.21502092 -0.055423744 1.6550001
0.22488691 -0.053682681 1.6550001
0.23504311 -0.053682681 1.6550001
0.24665016 -0.053682681 1.6550001
0.25245368 -0.050780915 1.6550001
0.25535545 -0.047879148 1.6550001
0.26551163 -0.044977382 1.6550001
0.27131519 -0.042075615 1.6550001
0.27421698 -0.038206596 1.6550001
0.28437313 -0.034095757 1.6550001
-0.064147457 -0.49131116 1.6630001
-0.05540007 -0.49422693 1.6630001
-0.048110589 -0.49422696 1.6630001
-0.064772263 -0.48506305 1.6630001
-0.055400074 -0.48547959 1.6630001
-0.047381643 -0.48475063 1.6630001
-0.073704779 -0.47414038 1.6630001
-0.06560535 -0.47527429 1.6630001
-0.055983227 -0.47731537 1.6630001
-0.046652693 -0.47819012 1.6630001
-0.073988259 -0.46543354 1.6630001
-0.06560535 -0.46506903 1.6630001
-0.08164221 -0.45049006 1.6630001
-0.073769577 -0.45428061 1.6630001
-0.066577278 -0.4572936 1.6630001
-0.082267031 -0.44424194 1.6630001
-0.074352734 -0.44465849 1.6630001
-0.083548695 -0.43411681 1.6630001
-0.075810634 -0.43445319 1.6630001
-0.094398804 -0.42388347 1.6630001
-0.084558003 -0.42424789 1.6630001
-0.075810634 -0.42424795 1.6630001
-0.094763279 -0.41550055 1.6630001
-0.08455801 -0.41550055 1.6630001
-0.077268526 -0.41695845 1.6630001
-0.10059487 -0.40480933 1.6630001
-0.094763279 -0.40529525 1.6630001
-0.087473795 -0.40821105 1.6630001
-0.10351067 -0.39384037 1.6630001
-0.095127754 -0.39545447 1.6630001
-0.12100542 -0.38196892 1.6630001
-0.11475729 -0.38259372 1.6630001
-0.10538511 -0.38509297 1.6630001
-0.097679079 -0.38488472 1.6630001
-0.12100542 -0.37467945 1.6630001
-0.11517383 -0.37467945 1.6630001
-0.10536616 -0.37494457 1.6630001
-0.12246332 -0.36447415 1.6630001
-0.11517382 -0.36447415 1.6630001
-0.10759278 -0.36709839 1.6630001
-0.21139501 -0.35135311 1.6630001
-0.19390027 -0.35426888 1.6630001
-0.13485545 -0.35208204 1.6630001
-0.1249815 -0.35400385 1.6630001
-0.11808963 -0.35572678 1.6630001
-0.21139501 -0.34843731 1.6630001
-0.20847923 -0.34552154 1.6630001
-0.19390027 -0.34552154 1.6630001
-0.14316544 -0.34435517 1.6630001
-0.1355844 -0.34552151 1.6630001
-0.12725356 -0.34635463 1.6630001
-0.21139501 -0.33240044 1.6630001
-0.20556343 -0.33094254 1.6630001
-0.19265063 -0.33510798 1.6630001
-0.18515289 -0.33210886 1.6630001
-0.1743228 -0.33219218 1.6630001
-0.16474231 -0.33240047 1.6630001
-0.15424547 -0.33473307 1.6630001
-0.14506072 -0.33677414 1.6630001
-0.13631333 -0.33896095 1.6630001
-0.21139501 -0.32802674 1.6630001
-0.19244236 -0.32511094 1.6630001
-0.18515289 -0.32511091 1.6630001
-0.17494757 -0.32511091 1.6630001
-0.16532548 -0.32686043 1.6630001
-0.20264764 -0.31053197 1.6630001
-0.19390026 -0.31511396 1.6630001
-0.18515289 -0.3178215 1.6630001
-0.17932129 -0.31782147 1.6630001
-0.20264764 -0.3047004 1.6630001
-0.19900289 -0.30542937 1.6630001
-0.20264764 -0.29886881 1.6630001
-0.18223709 -0.1720318 1.6630001
-0.17543358 -0.17446163 1.6630001
-0.16474234 -0.17446162 1.6630001
-0.15453705 -0.1720318 1.6630001
-0.14433177 -0.17057391 1.6630001
-0.18515287 -0.16547127 1.6630001
-0.1355844 -0.16668618 1.6630001
-0.1256707 -0.16299286 1.6630001
-0.11517384 -0.15891074 1.6630001
-0.10496856 -0.15672389 1.6630001
-0.095492229 -0.1538081 1.6630001
-0.088931695 -0.15016335 1.6630001
-0.08310011 -0.14627564 1.6630001
-0.074352734 -0.14433177 1.6630001
-0.066188499 -0.14258228 1.6630001
-0.058315866 -0.14141597 1.6630001
-0.053359021 -0.13616756 1.6630001
-0.045194793 -0.1326686 1.6630001
-0.042279001 -0.1297528 1.6630001
-0.035281099 -0.12800333 1.6630001
-0.026242141 -0.12683702 1.6630001
-0.013121069 -0.12294928 1.6630001
-0.0072894832 -0.12100542 1.6630001
-0.0043736901 -0.1171177 1.6630001
0.0043736901 -0.1142019 1.6630001
0.010205276 -0.11225804 1.6630001
0.016036863 -0.10934225 1.6630001
0.024784245 -0.10739839 1.6630001
0.034503553 -0.10545453 1.6630001
0.046652693 -0.10059487 1.6630001
0.05685797 -0.097679079 1.6630001
0.06560535 -0.097679079 1.6630001
0.074352734 -0.094277315 1.6630001
0.083683267 -0.092430644 1.6630001
0.094763279 -0.091847487 1.6630001
0.086015902 -0.088931702 1.6630001
0.094763279 -0.088931702 1.6630001
0.10496856 -0.087473802 1.6630001
0.11517384 -0.08455801 1.6630001
0.12537912 -0.081642218 1.6630001
0.1355844 -0.08164221 1.6630001
0.14433177 -0.08310011 1.6630001
0.15453705 -0.08164221 1.6630001
0.16474234 -0.080184318 1.6630001
0.17057391 -0.080184318 1.6630001
0.16474234 -0.077268526 1.6630001
0.17154585 -0.07629659 1.6630001
0.17786339 -0.067063242 1.6630001
0.18588184 -0.0663343 1.6630001
0.19633007 -0.064633422 1.6630001
0.20498028 -0.063855872 1.6630001
0.21285291 -0.062689558 1.6630001
0.21431081 -0.059773762 1.6630001
0.22451609 -0.058315866 1.6630001
0.23399241 -0.05758692 1.6630001
0.24492663 -0.05685797 1.6630001
0.25513193 -0.054428142 1.6630001
0.26485121 -0.052970242 1.6630001
0.27262667 -0.051026382 1.6630001
0.26825297 -0.048110589 1.6630001
0.27554247 -0.044708833 1.6630001
0.28137407 -0.043736897 1.6630001
0.27845827 -0.039363209 1.6630001
0.2850188 -0.038634263 1.6630001
0.29128775 -0.035281099 1.6630001
-0.043947302 -0.4951396 1.6710002
-0.038966604 -0.49543256 1.6710001
-0.043214846 -0.48561767 1.6710001
-0.039552569 -0.48488522 1.6710001
-0.060061309 -0.47170103 1.6710001
-0.05383544 -0.47279969 1.6710002
-0.045412209 -0.47381699 1.6710002
-0.039552569 -0.47902557 1.6710001
-0.062502824 -0.46388817 1.6710001
-0.0545679 -0.46474272 1.6710002
-0.047170103 -0.46496242 1.6710001
-0.064163052 -0.45500103 1.6710002
-0.055178273 -0.45656362 1.6710001
-0.04834203 -0.455587 1.6710001
-0.071780592 -0.44093791 1.6710001
-0.065432645 -0.44606504 1.6710001
-0.071780592 -0.43507826 1.6710001
-0.065920949 -0.4380081 1.6710001
-0.072366551 -0.42394495 1.6710001
-0.065920949 -0.42482388 1.6710001
-0.08203496 -0.41163972 1.6710001
-0.075296372 -0.4151555 1.6710001
-0.084378816 -0.4051941 1.6710002
-0.077640228 -0.40724498 1.6710001
-0.093265928 -0.39210758 1.6710001
-0.085592613 -0.39552566 1.6710001
-0.1025437 -0.38527134 1.6710001
-0.093754239 -0.38527131 1.6710001
-0.086848244 -0.3861084 1.6710002
-0.10107879 -0.37208712 1.6710001
-0.095219143 -0.37501693 1.6710001
-0.089359507 -0.37794679 1.6710001
-0.10498521 -0.36476263 1.6710002
-0.095707454 -0.36573923 1.6710001
-0.12158753 -0.35011348 1.6710001
-0.11536167 -0.35487443 1.6710002
-0.10986825 -0.35743803 1.6710001
-0.21241195 -0.34425387 1.6710001
-0.13037699 -0.34132403 1.6710001
-0.1240988 -0.34341675 1.6710002
-0.11865771 -0.34718367 1.6710001
-0.15235063 -0.33253458 1.6710001
-0.14356118 -0.33399948 1.6710001
-0.13550417 -0.33583063 1.6710002
-0.17432427 -0.32081529 1.6710001
-0.1651163 -0.32290801 1.6710002
-0.15518281 -0.32550299 1.671
-0.14736995 -0.32608896 1.6710001
-0.13818984 -0.32862815 1.6710001
-0.19385642 -0.31300244 1.6710001
-0.18478791 -0.31370002 1.6710002
-0.17432429 -0.31788546 1.6710001
-0.16358161 -0.31690887 1.6710001
-0.20069267 -0.30030656 1.6710001
-0.19532134 -0.30567786 1.6710001
-0.18897338 -0.30763111 1.6710001
-0.18164885 -0.18018393 1.6710001
-0.17505676 -0.1809164 1.6710001
-0.16846465 -0.18018393 1.6710001
-0.18653186 -0.17432427 1.6710001
-0.16406992 -0.17725411 1.6710001
-0.15528047 -0.17578919 1.6710001
-0.14649099 -0.17432429 1.6710001
-0.13770154 -0.17139447 1.6710001
-0.1919032 -0.16553482 1.6710001
-0.18897338 -0.16699973 1.6710001
-0.1318419 -0.16846465 1.6710001
-0.12451734 -0.16651143 1.6710001
-0.11572789 -0.162605 1.6710001
-0.10840334 -0.162605 1.6710001
-0.10400861 -0.1596752 1.6710001
-0.09521915 -0.15821028 1.6710001
-0.084964782 -0.15161818 1.6710001
-0.08057005 -0.14795591 1.6710001
-0.076175317 -0.14795591 1.6710001
-0.063967735 -0.14600269 1.6710001
-0.051271848 -0.13916644 1.6710001
-0.046144668 -0.13696909 1.6710001
-0.035157841 -0.1318419 1.6710001
-0.02783329 -0.13037699 1.6710001
-0.021973649 -0.12744717 1.6710001
-0.0146491 -0.12598225 1.6710001
-0.00292982 -0.12158753 1.6710001
-0.00146491 -0.11865771 1.6710001
0.0043947301 -0.11768111 1.6710001
0.014649101 -0.11353052 1.6710001
0.02343856 -0.11279807 1.6710001
0.03076311 -0.11279807 1.6710001
0.02636838 -0.10986825 1.6710001
0.035450824 -0.10869632 1.6710001
0.043947302 -0.10400861 1.6710001
0.054201666 -0.10107879 1.6710001
0.064456038 -0.10107879 1.6710001
0.074710414 -0.10107879 1.6710001
0.076175317 -0.098148972 1.6710001
0.085592605 -0.096893325 1.6710002
0.094633184 -0.096391082 1.6710001
0.1048457 -0.093544967 1.6710002
0.11426298 -0.092289329 1.6710001
0.10986825 -0.089359507 1.6710001
0.11572789 -0.0893595 1.6710001
0.12451735 -0.087894611 1.6710001
0.13477172 -0.087894604 1.6710002
0.14429364 -0.087162152 1.6710001
0.15528047 -0.086429693 1.6710001
0.16553484 -0.083499871 1.6710001
0.17334767 -0.082523264 1.6710001
0.17725413 -0.074710406 1.6710001
0.18409036 -0.072757192 1.6710001
0.19483303 -0.071780592 1.6710001
0.20508741 -0.071780592 1.6710001
0.21241195 -0.071780592 1.6710001
0.18311375 -0.068850771 1.6710001
0.19483303 -0.068850771 1.6710001
0.20596635 -0.068264805 1.6710001
0.21576032 -0.066758044 1.6710002
0.22559614 -0.065920956 1.6710001
0.23543195 -0.063409671 1.6710002
0.24463998 -0.06152622 1.6710001
0.25489432 -0.061526217 1.6710002
0.2651487 -0.060061309 1.6710001
0.25928906 -0.057131488 1.6710001
0.2666136 -0.057131488 1.6710001
0.27613553 -0.0545679 1.6710002
0.28492498 -0.052004308 1.6710001
0.29737672 -0.052736759 1.6710001
0.27833289 -0.04834203 1.6710001
0.28649455 -0.045830756 1.6710002
0.29444692 -0.043947298 1.6710001
0.30323637 -0.042482391 1.6710001
0.29640013 -0.035646141 1.6710001
0.30177146 -0.036622748 1.6710001
-0.22803766 0.3374176 1.6710001
-0.032212242 -0.49456722 1.681143
-0.025156826 -0.49573743 1.688
-0.019237572 -0.49573746 1.6880001
-0.032212239 -0.48403522 1.6811429
-0.025156826 -0.48537874 1.6879998
-0.019237572 -0.48981822 1.6880001
-0.034702554 -0.47530818 1.6846666
-0.025579629 -0.47586566 1.688
-0.042711198 -0.46245921 1.6800001
-0.035468176 -0.46484724 1.686
-0.027129911 -0.46367487 1.6880001
-0.052529868 -0.45313147 1.6799999
-0.044251796 -0.45384684 1.6826667
-0.035842445 -0.45459026 1.6873845
-0.026932603 -0.45371073 1.6880001
-0.054493602 -0.44478559 1.6800002
-0.046001092 -0.44515029 1.6829091
-0.035515521 -0.44542384 1.6879998
-0.027376547 -0.44542384 1.6880001
-0.062909603 -0.43531755 1.6800002
-0.054375071 -0.4353323 1.6856
-0.045874212 -0.43506518 1.6879998
-0.03650206 -0.43506515 1.6879998
-0.060456686 -0.42466611 1.6820002
-0.054948829 -0.42522734 1.6858182
-0.046466138 -0.4264822 1.6880001
-0.072167203 -0.412384 1.6800001
-0.064887367 -0.41526052 1.6822859
-0.054753095 -0.4158276 1.688
-0.07413093 -0.4040381 1.6800002
-0.064749904 -0.40537909 1.6863998
-0.055345017 -0.40546879 1.688
-0.074592412 -0.39449435 1.6816
-0.065402575 -0.39527416 1.686769
-0.055123046 -0.39548013 1.688
-0.082476802 -0.38292801 1.6800001
-0.075101323 -0.38465327 1.6858182
-0.066961557 -0.38660124 1.688
-0.083581403 -0.37519577 1.6800002
-0.075729266 -0.37480444 1.6872
-0.06807141 -0.37143314 1.6880001
-0.103096 -0.360836 1.6800001
-0.096468396 -0.36157238 1.6800001
-0.085285887 -0.36565083 1.6832001
-0.075470477 -0.36551389 1.688
-0.1119328 -0.35199919 1.6800001
-0.10396799 -0.35414764 1.6808891
-0.095453069 -0.35377249 1.683077
-0.085447647 -0.35511315 1.6863999
-0.076062404 -0.3557471 1.688
-0.12371519 -0.34021679 1.6800001
-0.11378374 -0.34430495 1.682
-0.10524401 -0.34557053 1.6865455
-0.094708055 -0.34479651 1.6879998
-0.08519496 -0.34521928 1.688
-0.1310792 -0.33285281 1.6800001
-0.12531735 -0.33467782 1.681778
-0.11533076 -0.33565342 1.6866666
-0.10506675 -0.33591762 1.688
-0.095201321 -0.33690417 1.688
-0.14229177 -0.32439649 1.682
-0.13485183 -0.32402736 1.6818461
-0.12563275 -0.32516912 1.6859999
-0.11538992 -0.32546118 1.6874999
-0.10506675 -0.32555893 1.6879998
-0.099147491 -0.32555893 1.6880001
-0.1826272 -0.3107608 1.6800001
-0.17442159 -0.31328562 1.6800002
-0.16562197 -0.31326526 1.6808001
-0.15482809 -0.31554917 1.6820002
-0.14499272 -0.31567857 1.6842668
-0.13466302 -0.31520021 1.688
-0.12578413 -0.31520027 1.688
-0.11542544 -0.31520024 1.6879998
-0.10506675 -0.31815988 1.6880001
-0.099147491 -0.31815988 1.6880001
-0.19307986 -0.30247945 1.6864001
-0.18470956 -0.30374691 1.6833334
-0.1748289 -0.30564162 1.6867692
-0.16392075 -0.30511189 1.6872727
-0.15564944 -0.30524513 1.6879998
-0.14502171 -0.30547577 1.6879998
-0.134663 -0.30632132 1.688
-0.12578413 -0.30780119 1.6880001
-0.11838506 -0.30928099 1.6880001
-0.2017736 -0.29897839 1.6800001
-0.19930139 -0.29821044 1.684
-0.19503941 -0.18379281 1.6880001
-0.18505907 -0.18358278 1.6820002
-0.17385118 -0.18665753 1.6853334
-0.16465604 -0.18405692 1.6834286
-0.15513261 -0.1832093 1.6853334
-0.14600825 -0.18300359 1.6880001
-0.13762264 -0.18201704 1.6880001
-0.19417214 -0.17604767 1.6834285
-0.1516984 -0.1782088 1.6800001
-0.14450097 -0.17842095 1.682
-0.13471036 -0.17642212 1.684
-0.1260346 -0.17501773 1.6857144
-0.11453755 -0.17254622 1.6880001
-0.10654656 -0.17017853 1.6880001
-0.19293679 -0.16937199 1.6800001
-0.1222424 -0.16937199 1.6800001
-0.11487839 -0.16789919 1.6800002
-0.10407786 -0.16608626 1.6840001
-0.095410787 -0.16453983 1.6847999
-0.087166376 -0.16104484 1.6853334
-0.083437622 -0.15656145 1.6816
-0.075291641 -0.15452361 1.6840001
-0.067331508 -0.15316068 1.6880001
-0.06200137 -0.14910698 1.684
-0.053886946 -0.14615788 1.6840001
-0.046376366 -0.14445363 1.6848001
-0.035811484 -0.1417661 1.6880001
-0.028116453 -0.14058226 1.6880001
-0.042711198 -0.139916 1.6800001
-0.034492977 -0.13710085 1.6816002
-0.024682926 -0.13523711 1.6845715
-0.01576948 -0.1325859 1.6866666
-0.0117824 -0.12813359 1.6800001
-0.0044324268 -0.12696588 1.684
0.0050187418 -0.12424821 1.6832001
0.01331832 -0.12282451 1.6880001
0.015737919 -0.11850429 1.6826668
0.024493365 -0.11775668 1.6832001
0.036414396 -0.11564636 1.684
0.045029104 -0.11146291 1.6840001
0.051793467 -0.110986 1.6880001
0.047129601 -0.1075144 1.6800001
0.054668933 -0.10638058 1.6853334
0.064027064 -0.1058873 1.6853334
0.075470477 -0.10506675 1.6880001
0.084962524 -0.10394262 1.6834285
0.095146887 -0.10359093 1.6845715
0.10420586 -0.10272605 1.6860001
0.11246581 -0.10210712 1.6880001
0.1045688 -0.098677598 1.6799999
0.1158757 -0.09700422 1.6816
0.12504335 -0.095538259 1.6830001
0.13513993 -0.094244175 1.6834288
0.14545955 -0.094793215 1.6857145
0.15478846 -0.093228236 1.6880001
0.16351938 -0.091008514 1.6880001
0.17461798 -0.090268612 1.6880001
0.14875279 -0.0898408 1.6800001
0.154644 -0.0898408 1.6800001
0.16789919 -0.086895198 1.6800001
0.17526321 -0.086895198 1.6799999
0.18453835 -0.082676679 1.6840001
0.19444747 -0.081981651 1.6880001
0.20569406 -0.081389733 1.6880001
0.21457292 -0.081389733 1.6880001
0.22049218 -0.081389733 1.6880001
0.18704562 -0.078058399 1.6799999
0.19588239 -0.076585598 1.6800002
0.2047192 -0.076585598 1.6800002
0.21528478 -0.075942121 1.682
0.2254976 -0.075663351 1.6855999
0.23466924 -0.075276449 1.6835556
0.24439873 -0.074946404 1.682182
0.25461671 -0.075355925 1.6853335
0.26192695 -0.073990665 1.6880001
0.24448478 -0.067748807 1.6800002
0.25479439 -0.067748807 1.6800002
0.26505139 -0.06672661 1.682
0.27500838 -0.064454094 1.6835557
0.28460106 -0.06266313 1.6845714
0.29387659 -0.062779464 1.6826668
0.28572321 -0.057439201 1.6800001
0.29419178 -0.055598203 1.6800002
