# .PCD v0.7 - Point Cloud Data file format
VERSION 0.7
FIELDS x y z
SIZE 4 4 4
TYPE F F F
COUNT 1 1 1
WIDTH 1431
HEIGHT 1
VIEWPOINT 0 0 0 1 0 0 0
POINTS 1431
DATA ascii
-0.084902629 -0.034427319 1.4763001
-0.075069331 -0.034947809 1.4764167
-0.065296762 -0.033480782 1.4770001
-0.056972813 -0.032370917 1.4770001
-0.10405102 -0.024561239 1.4743751
-0.095837265 -0.02671952 1.4726924
-0.086056523 -0.027635455 1.4700001
-0.074315034 -0.028780965 1.4700001
-0.063504532 -0.028046867 1.4708751
-0.054418206 -0.025830982 1.4729999
-0.044456471 -0.024041003 1.4742001
-0.036687039 -0.022875449 1.4770001
-0.11006112 -0.01942255 1.4770001
-0.0502593 -0.0193305 1.47
-0.045104496 -0.018299541 1.47
-0.035878636 -0.015749549 1.4723333
-0.026451662 -0.012763389 1.4770001
-0.018127713 -0.011653529 1.4770001
-0.025371708 -0.0073121795 1.4715557
-0.015719581 -0.0047410862 1.4740834
-0.0071216016 -0.0019422548 1.4770001
-0.0966525 0.0038661 1.47
-0.012124826 0.0043828073 1.4714
-0.0054293131 0.0054276767 1.4751333
0.0047477344 0.0090638567 1.4770001
-0.0115983 0.015464401 1.47
-0.0048974692 0.015382169 1.4704666
0.0051682238 0.015491631 1.4730624
0.014626035 0.015815604 1.4753846
0.023307059 0.01942255 1.4770001
0.025821557 0.025814658 1.4726249
0.034046229 0.028009789 1.4746667
-0.0115983 0.036083598 1.47
0.0047865999 0.035531301 1.47
0.015832599 0.035531301 1.47
0.034624193 0.035791274 1.4725456
0.04169374 0.035478525 1.4770001
-0.01161671 0.045180187 1.4723334
-0.0051619597 0.045179162 1.4723334
0.0055492995 0.044579379 1.477
0.015316606 0.044223379 1.4764167
0.025768422 0.04506322 1.4763638
0.034636885 0.044348158 1.4770001
0.041866381 0.04100316 1.4770001
-0.0038783734 0.050418854 1.4746667
0.0051793465 0.050498631 1.4770001
0.024601897 0.053088304 1.4770001
0.037550263 0.063446999 1.4770001
0.040139936 0.063446999 1.4770001
-0.15272672 -0.073099971 1.4890001
-0.11385611 -0.05293946 1.4890002
-0.10442853 -0.053519633 1.4890002
-0.09434168 -0.053282287 1.4890002
-0.085370325 -0.051953197 1.4890001
-0.077016041 -0.050908908 1.489
-0.12139817 -0.040466055 1.4890001
-0.11481484 -0.04436174 1.4882501
-0.1041389 -0.044263441 1.484875
-0.094623551 -0.044563189 1.4848461
-0.085879639 -0.044244986 1.4842857
-0.075481869 -0.044251937 1.4844999
-0.065526575 -0.043751296 1.4864286
-0.057174623 -0.042032484 1.4890001
-0.048298195 -0.040466055 1.4890001
-0.1361922 -0.032633916 1.489
-0.12313864 -0.035679746 1.4890002
-0.1149515 -0.034143534 1.4866002
-0.1043623 -0.03533899 1.4829999
-0.095427088 -0.036662724 1.483
-0.08840657 -0.037702803 1.483
-0.064224772 -0.037182763 1.483
-0.05414661 -0.035667352 1.4848
-0.044336099 -0.035211757 1.4875002
-0.03459195 -0.032307576 1.4890002
-0.027412489 -0.030023202 1.4890001
-0.11338719 -0.025542909 1.4866
-0.10660793 -0.028602127 1.483
-0.050703771 -0.029902223 1.483
-0.043336555 -0.029035492 1.4829999
-0.034142658 -0.026340764 1.4837499
-0.026061896 -0.024242813 1.4866002
-0.017622314 -0.022843741 1.4890001
-0.025568567 -0.017767988 1.4829999
-0.016213151 -0.015980596 1.4851819
-0.0039160699 -0.01174821 1.4890001
-0.013450112 -0.0082462179 1.485
-0.0045604198 -0.006298265 1.4855002
0.0049165487 -0.0043165041 1.4876155
0.013488685 -0.003045832 1.4890002
-0.0013000966 0.0013000966 1.483
0.0053032264 0.0043007242 1.4834615
0.015646856 0.005211235 1.4871252
0.024428817 0.0072727012 1.4890002
0.031328559 0.0091374964 1.4890001
0.01950145 0.014301064 1.4830002
0.026110437 0.015304778 1.4834614
0.034535404 0.015634911 1.4865001
0.043076772 0.016969636 1.4890002
0.050908908 0.019580349 1.4890001
0.035969339 0.023835106 1.4829999
0.043912228 0.025486078 1.4855715
0.053519625 0.025920654 1.4890002
0.04614491 0.033699553 1.4850001
0.054824978 0.033939276 1.4890002
0.064484619 0.035505701 1.4890002
0.074405327 0.037855342 1.4890001
0.014301063 0.046803478 1.483
0.02730203 0.048103575 1.483
0.037702803 0.046803478 1.483
0.044717483 0.044917498 1.4834615
0.054799333 0.044361085 1.4882503
0.065006763 0.044469152 1.4890002
0.073535085 0.044382125 1.4890002
0.006500483 0.053303968 1.4830002
0.015639951 0.052137338 1.4867501
0.027102945 0.054090571 1.4851818
0.035113566 0.054622028 1.4835
0.044338729 0.054769751 1.4875002
0.053954739 0.05438986 1.4890002
0.064484619 0.052475333 1.4890001
0.073099971 0.050908908 1.4890001
0.029902223 0.061104544 1.483
0.03510261 0.061754592 1.483
0.044983342 0.061624579 1.483
0.054799333 0.062624894 1.4882501
0.062657118 0.063962474 1.4890001
-0.15082173 -0.073443621 1.4960001
-0.14819874 -0.073443621 1.4960001
-0.14032979 -0.061640188 1.4960001
-0.1377068 -0.061640188 1.4960001
-0.10360797 -0.061640188 1.4959999
-0.097050503 -0.061640188 1.4960001
-0.13508381 -0.05114824 1.4959999
-0.12602259 -0.053532775 1.4960002
-0.11619832 -0.056918811 1.4960001
-0.10491946 -0.0590172 1.4960001
-0.094427519 -0.058361452 1.4960001
-0.083935574 -0.05508272 1.4960001
-0.074755117 -0.052459732 1.4960001
-0.066886157 -0.05114824 1.4959999
-0.15082173 -0.044590771 1.4960001
-0.14382711 -0.043935027 1.4960002
-0.13508381 -0.044590771 1.4960002
-0.12590337 -0.04496548 1.4960002
-0.062951684 -0.048525251 1.4960001
-0.054520655 -0.044403415 1.4960002
-0.044590771 -0.041312043 1.4960001
-0.15169607 -0.031038677 1.4959999
-0.14396164 -0.033997942 1.4960002
-0.13508381 -0.034098826 1.4960002
-0.12688698 -0.033770952 1.4960002
-0.033224497 -0.036284648 1.4960002
-0.024918372 -0.031038677 1.4959999
-0.018360905 -0.030164346 1.4960001
-0.15082173 -0.02754136 1.4960001
-0.14190358 -0.025967568 1.4960001
-0.13665761 -0.024918374 1.4960001
-0.12196888 -0.02754136 1.4960001
-0.1193459 -0.02754136 1.4960001
-0.022295386 -0.02754136 1.4960001
-0.017049413 -0.026229866 1.4960001
-0.15082173 -0.014426427 1.4960001
-0.14295277 -0.015082173 1.4960001
-0.13658266 -0.015175851 1.4960002
-0.01180344 -0.017049411 1.4959999
-0.0059745805 -0.014134984 1.4960002
0.0044590775 -0.012328038 1.4960001
0.01180344 -0.013114933 1.4960001
-0.14164129 -0.0026229867 1.4960001
-0.13639532 -0.0065574665 1.4960002
0.0065574669 -0.0091804536 1.4959999
0.016721539 -0.0059017194 1.4960002
0.024918372 -0.0026229869 1.4960002
-0.14164129 0.0013114933 1.4960001
0.025442969 0.0023606881 1.4960001
0.034199707 0.0049433205 1.4960002
0.043716442 0.0083061242 1.4960002
0.05114824 0.0091804536 1.4960001
0.038033307 0.01180344 1.4960001
0.046776593 0.013552099 1.4960002
0.055082716 0.015737921 1.4960002
0.063888453 0.017798839 1.4960002
0.056918811 0.02334458 1.4960001
0.065574668 0.024918372 1.4960002
0.074230522 0.026492167 1.4960001
0.082624078 0.02754136 1.4959999
0.066886157 0.031475838 1.4960002
0.074755117 0.03374115 1.4960002
0.083935574 0.034098826 1.4960002
0.092460275 0.037377559 1.4960001
0.069509149 0.043279279 1.4960001
0.075629443 0.044590771 1.4960002
0.083935566 0.044590771 1.4960002
0.091804534 0.043279279 1.4960002
0.019672399 0.056394212 1.4960001
0.022295386 0.056394212 1.4960001
0.057705704 0.056394212 1.4960001
0.065932348 0.056155756 1.4960002
0.075017415 0.055869617 1.4960002
0.082886383 0.053771228 1.4960002
0.095739014 0.05114824 1.4960001
0.067541905 0.06459105 1.4960002
0.074099377 0.062295936 1.4960001
0.080001093 0.062951684 1.4960001
-0.14575197 -0.082648277 1.506
-0.13890345 -0.080696292 1.5090001
-0.14362167 -0.075763725 1.5030001
-0.13723376 -0.072674796 1.5072857
-0.11244565 -0.070113167 1.5090001
-0.10583119 -0.070113167 1.5090001
-0.095248088 -0.070113167 1.5090001
-0.15152745 -0.065881498 1.503
-0.14520282 -0.066145025 1.5030001
-0.13403058 -0.065171398 1.5048001
-0.12380819 -0.064490229 1.5068183
-0.11499091 -0.064766675 1.5076666
-0.10608514 -0.065590158 1.5063334
-0.094598465 -0.065561511 1.5056666
-0.084993713 -0.064558603 1.5084544
-0.074081838 -0.062175829 1.5090001
-0.067467391 -0.062175829 1.5090001
-0.15152745 -0.05402283 1.503
-0.14504944 -0.05538024 1.5041251
-0.13518883 -0.056921612 1.5030001
-0.12517484 -0.059293348 1.5029999
-0.1185867 -0.059293348 1.503
-0.083537742 -0.058766294 1.503
-0.07426396 -0.057764661 1.506
-0.065662734 -0.056544766 1.5062728
-0.055780474 -0.054565828 1.5066924
-0.045860186 -0.052474637 1.5089999
-0.15152745 -0.044799417 1.503
-0.14801377 -0.046117049 1.5029999
-0.052705199 -0.048752308 1.503
-0.044289723 -0.04666356 1.5036001
-0.034776051 -0.044465844 1.5065001
-0.025796354 -0.041671034 1.5090001
-0.019843349 -0.04100959 1.5090001
-0.15382607 -0.035160471 1.5040002
-0.14889219 -0.03689364 1.503
-0.12781011 -0.03030549 1.503
-0.024188109 -0.036505278 1.505
-0.015849695 -0.035002667 1.5065001
-0.0092602298 -0.030426471 1.5090001
-0.16006969 -0.02381202 1.5090001
-0.15495762 -0.024780516 1.5075001
-0.14625692 -0.023717342 1.5030001
-0.13123438 -0.025057325 1.5044999
-0.12621632 -0.025089072 1.5064286
-0.01185867 -0.027670231 1.503
-0.0066098473 -0.024462286 1.50825
0.0013228899 -0.02248913 1.5090001
-0.16073114 -0.015213234 1.5090001
-0.15474178 -0.015967686 1.5062728
-0.14529866 -0.016170915 1.5030001
-0.13097243 -0.016602138 1.503
-0.12711354 -0.015678931 1.5081427
-0.0032953899 -0.019125361 1.5045002
0.0054262741 -0.017455893 1.5056667
0.01650588 -0.015513712 1.506
0.025134912 -0.01190601 1.5090002
-0.16006969 -0.0092602298 1.5090001
-0.15420286 -0.0056437408 1.5057274
-0.14586724 -0.0061520077 1.5035001
0.019764449 -0.0092234099 1.503
0.025562022 -0.0081693055 1.503
0.034534529 -0.0050636274 1.5055
0.043093599 -0.0023801499 1.5078001
-0.16006969 0.0066144499 1.5090001
-0.15480566 0.0051808977 1.5053077
-0.14539993 0.0058389753 1.5038574
-0.13751586 0.00712993 1.5054001
0.045859307 0.0029679551 1.5052501
0.055449169 0.0052766562 1.5060002
0.064191461 0.0081871897 1.5066
0.070113167 0.0092602298 1.5090001
-0.15468203 0.01476458 1.5057273
-0.14526312 0.015850682 1.5063752
-0.13667849 0.015861003 1.5078
0.066759914 0.012737091 1.5030001
0.074926727 0.017491473 1.5059999
0.083724298 0.018948272 1.5079999
0.09483622 0.019282635 1.5066
0.10318542 0.019843349 1.5090001
-0.15742391 0.02248913 1.5090001
-0.14551792 0.023371056 1.5089999
-0.13730967 0.023764681 1.506
0.076422542 0.02239971 1.503
0.084328324 0.023717338 1.5030001
0.094869368 0.025034973 1.5030001
0.10528249 0.02532714 1.5062728
0.11244565 0.027780689 1.5090001
-0.13678682 0.032013938 1.5090001
0.096516401 0.03261134 1.5030001
0.10541039 0.034258384 1.5030001
0.1149424 0.03434955 1.507
0.12236732 0.037702367 1.5090001
0.13493478 0.038363811 1.5090001
0.14154923 0.038363811 1.5090001
0.097504616 0.046117052 1.5030001
0.10554419 0.044858918 1.5048753
0.11505417 0.044964667 1.5085001
0.12346972 0.044537302 1.5089999
0.086963579 0.059293348 1.503
0.094973139 0.056377683 1.5062308
0.10591464 0.053979311 1.5084546
0.11509143 0.054238491 1.5089999
0.12302877 0.051592711 1.5090001
0.07696519 0.066410132 1.5050001
0.086963579 0.063246243 1.503
0.095437445 0.065018855 1.5085
0.11509143 0.067467391 1.5090001
0.097893864 0.070113167 1.5090001
-0.1448639 -0.08771576 1.516
-0.13742134 -0.083197065 1.516
-0.133641 -0.075459182 1.5159999
-0.1239792 -0.072337024 1.5159999
-0.11429629 -0.073096462 1.5159999
-0.10552472 -0.074159697 1.516
-0.095120333 -0.074235633 1.5159999
-0.084910035 -0.072210446 1.5159999
-0.07841257 -0.070438415 1.516
-0.12891559 -0.067780361 1.516
-0.081070624 -0.067780361 1.516
-0.074995078 -0.066261478 1.5159999
-0.064590693 -0.064059079 1.516
-0.057148144 -0.062464252 1.5160002
-0.054490093 -0.059806198 1.5160002
-0.045186907 -0.057148147 1.5159999
-0.037655752 -0.052718058 1.5160002
-0.031453628 -0.048287969 1.5160002
-0.025251508 -0.046072919 1.5159999
-0.016214125 -0.04226305 1.516
-0.01196124 -0.038541771 1.516
-0.0053161066 -0.032561153 1.5159999
0.0026580533 -0.030567612 1.516
-0.0026580533 -0.026580533 1.516
0.005168437 -0.024956169 1.5159999
0.014087683 -0.023656676 1.516
-0.16347028 -0.019935399 1.516
0.009303187 -0.019935399 1.516
0.017277345 -0.019270886 1.516
0.024586994 -0.015283807 1.516
0.03189664 -0.01196124 1.516
-0.16347028 -0.009303187 1.516
0.037212744 -0.009303187 1.516
0.04537677 -0.0055059679 1.5159999
0.054822352 -0.0029903101 1.5159999
0.062464252 -0.0013290267 1.516
0.058477171 0.0013290267 1.516
0.064457789 0.00398708 1.516
0.075090013 0.0073096463 1.5159999
0.081070624 0.0079741599 1.516
-0.15682516 0.019935399 1.516
0.076419033 0.012625754 1.516
0.08417169 0.014619294 1.5159999
0.095879786 0.015758459 1.5159999
0.10537283 0.016517902 1.5159999
0.11119523 0.019049382 1.5160002
-0.15317033 0.025583763 1.5159999
-0.14419939 0.027245047 1.516
-0.13821876 0.02790956 1.516
0.11532998 0.024660828 1.5159999
0.1244855 0.02790956 1.5160002
0.13423169 0.02790956 1.516
0.14220585 0.02790956 1.516
-0.15195204 0.033668671 1.5159999
-0.1448639 0.034554694 1.5159999
-0.13866179 0.036769737 1.5160002
0.12559302 0.033447169 1.5159999
0.13556072 0.033985108 1.516
0.1448639 0.034997702 1.5159999
0.15018001 0.037212744 1.516
-0.16081223 0.047844961 1.516
-0.15378737 0.045756489 1.516
-0.14752196 0.045186907 1.516
0.12758657 0.04651593 1.516
0.13556071 0.0451869 1.5160002
0.1448639 0.045186903 1.5159999
0.15018001 0.043857884 1.5160002
-0.16081223 0.054490093 1.5160002
-0.1541671 0.054490093 1.5159999
-0.14752196 0.053161066 1.516
0.1049931 0.059141684 1.516
0.1142963 0.059806198 1.516
0.12501711 0.056084927 1.5160002
0.13423169 0.054490097 1.5159999
0.14220585 0.053161066 1.516
0.091702841 0.067780361 1.516
0.1049931 0.065122306 1.5159999
0.11376469 0.064590693 1.5159999
0.1244855 0.063793279 1.5159999
0.099676996 0.073096469 1.516
0.10233505 0.070438415 1.516
0.11030921 0.070438415 1.516
-0.1440955 -0.093159422 1.529
-0.14152731 -0.08945594 1.5230001
-0.13365847 -0.085193001 1.5263333
-0.12449806 -0.082999289 1.5270001
-0.11505023 -0.082945824 1.526
-0.10449976 -0.083066143 1.5282501
-0.095706224 -0.082838163 1.529
-0.12624711 -0.07640101 1.523
-0.11571416 -0.077884525 1.5230001
-0.10325263 -0.077884525 1.5230001
-0.094796598 -0.078774638 1.5230001
-0.085833557 -0.077807546 1.5264286
-0.075013928 -0.073234886 1.5250001
-0.064340323 -0.071042433 1.529
-0.057638202 -0.071042433 1.529
-0.070763655 -0.06809333 1.5230001
-0.063334085 -0.067612916 1.5242002
-0.054849524 -0.066000432 1.5260001
-0.046046667 -0.062861629 1.5255716
-0.038872276 -0.060319051 1.529
-0.034112416 -0.055185948 1.526
-0.02611064 -0.052895434 1.5275
-0.022049919 -0.048782118 1.5245001
-0.014711593 -0.046812624 1.5255715
-0.0073565482 -0.042141803 1.5260001
-0.00476844 -0.037575312 1.523
0.0054682479 -0.034389798 1.5246365
0.014727123 -0.032129832 1.5270001
0.020999966 -0.031723354 1.5289999
0.0080109797 -0.028038429 1.5230001
0.015354378 -0.027370848 1.5230001
0.024333987 -0.02433539 1.525
0.034259256 -0.021244014 1.5281429
0.026703266 -0.017357124 1.5230001
0.035290919 -0.015241374 1.5247999
0.044494435 -0.014138392 1.5276667
0.053616934 -0.01206381 1.529
0.047398299 -0.008678562 1.5230001
0.055275761 -0.0082780123 1.5230001
0.064194351 -0.0053524892 1.5255002
0.07392706 -0.0034226039 1.5270001
0.084446669 -0.0013404234 1.5289999
0.067203224 0.0022252724 1.5230001
0.074578404 0.0024795888 1.523
0.086097427 0.0049610571 1.5242859
0.094649538 0.007020127 1.5260001
0.10440113 0.0080287326 1.52675
0.11447217 0.0088467943 1.529
0.088120773 0.013351632 1.5230001
0.094796598 0.012016471 1.5230001
0.10414274 0.01201647 1.5230001
0.11527234 0.014452648 1.5240909
0.12414345 0.01505675 1.5267502
0.13091467 0.016531888 1.5289999
0.1434253 0.017425504 1.529
0.11749437 0.020027449 1.5230001
0.12560807 0.023108594 1.5230001
0.13494904 0.023683153 1.524091
0.14440063 0.023781687 1.5242001
0.15537503 0.024106907 1.5278749
-0.16155477 0.038719736 1.5230001
-0.15577862 0.036101352 1.5252501
0.14686796 0.030708756 1.5230001
0.15553983 0.034350056 1.5238572
0.16308485 0.03797866 1.5289999
-0.16155477 0.042725228 1.5230001
-0.15754926 0.041390061 1.5230001
-0.14318728 0.045501191 1.5265001
0.15580329 0.045703668 1.5230001
0.16433591 0.046110563 1.5290002
-0.14527535 0.055258635 1.5250001
0.13752182 0.057412025 1.5230001
0.14493941 0.055335097 1.523
0.15487893 0.054741696 1.5230001
0.16453697 0.054622255 1.5290002
-0.17023376 0.065680742 1.529
-0.16287269 0.065153278 1.5270001
-0.15518469 0.064218678 1.5260004
-0.14620224 0.063462958 1.5272
0.12684052 0.064087838 1.5230001
0.13543972 0.064114667 1.5236
0.14423215 0.064104609 1.5233753
0.15487893 0.064087838 1.5230002
0.16219123 0.064340323 1.529
-0.16353165 0.071042433 1.529
-0.15638272 0.071936049 1.5290002
-0.14878699 0.071042433 1.529
0.10601196 0.07236585 1.5230001
-0.16487207 0.10053175 1.529
-0.1548544 -0.11176448 1.536
-0.1548544 -0.10233856 1.536
-0.14542848 -0.096952319 1.536
-0.134656 -0.090892799 1.536
-0.12523007 -0.09021952 1.5359999
-0.11580416 -0.09021952 1.536
-0.10503168 -0.09021952 1.536
-0.13061632 -0.087526396 1.536
-0.12523007 -0.087526403 1.5359999
-0.11580417 -0.087526396 1.536
-0.10503168 -0.087526396 1.536
-0.092912637 -0.085987464 1.5360001
-0.085371897 -0.083217405 1.536
-0.079447038 -0.082140163 1.536
-0.074599423 -0.078369789 1.536
-0.065532587 -0.074958503 1.5360001
-0.055208959 -0.071367681 1.536
-0.052515838 -0.068674557 1.536
-0.045783043 -0.066654719 1.536
-0.035010558 -0.061268479 1.536
-0.02827776 -0.060595199 1.536
-0.030970879 -0.057902079 1.536
-0.023430143 -0.055208959 1.536
-0.01481216 -0.052515838 1.5359999
-0.01211904 -0.049822718 1.536
-0.0053862398 -0.044436481 1.536
0.00134656 -0.04174336 1.536
0.0067327996 -0.03905024 1.5359999
0.0134656 -0.03635712 1.536
0.02558464 -0.032317437 1.536
0.034112852 -0.026033493 1.5360001
0.043897856 -0.021275647 1.536
0.048925012 -0.016607573 1.5359999
0.055208955 -0.015261014 1.5360001
0.061941758 -0.0134656 1.536
0.067327999 -0.0094259195 1.536
0.07621529 -0.007271423 1.536
0.084833287 -0.0040396801 1.5359999
0.092912644 -0.0013465598 1.5359999
0.09627904 0.0020198401 1.536
0.10445458 0.0028854858 1.5360001
0.11522706 0.0048091435 1.5360001
0.12455679 0.0087526394 1.536
0.13061632 0.0094259195 1.536
0.12792321 0.01211904 1.536
0.13570331 0.01421369 1.5360001
0.14542848 0.015485439 1.5360001
0.15539303 0.016428033 1.536
0.16024064 0.017505281 1.536
0.16360703 0.026257921 1.536
0.17101312 0.02827776 1.536
-0.16024064 0.033663999 1.536
0.16622536 0.033963233 1.5360001
0.17235968 0.035010561 1.5360001
0.16832 0.043089919 1.536
0.17370623 0.045783043 1.5360001
-0.14408192 0.055208959 1.536
0.16832 0.057902079 1.536
0.17336959 0.054872319 1.5360001
-0.17235968 0.063288316 1.536
-0.16832 0.06598144 1.5359999
0.16670413 0.062749699 1.536
0.17235968 0.061941758 1.536
-0.1632704 0.077090561 1.5360001
-0.15451775 0.077090561 1.5360001
-0.1621643 0.085218005 1.5360001
-0.15575211 0.085282125 1.5360001
-0.17101312 0.098298877 1.536
-0.16401102 0.094528504 1.5359999
-0.15539302 0.094797827 1.5360001
-0.17155173 0.10583963 1.536
-0.16419056 0.10530099 1.5359999
-0.15620096 0.10503169 1.5360001
-0.17235968 0.11580416 1.5360001
-0.16459106 0.11507908 1.536
-0.15620096 0.11311103 1.536
-0.15240383 -0.10415763 1.5430001
-0.14744394 -0.10145225 1.5430001
-0.14338584 -0.098746859 1.5430001
-0.13526967 -0.094012417 1.5430001
-0.12354629 -0.094237864 1.5430001
-0.11497921 -0.094688766 1.5430001
-0.10551033 -0.094688758 1.5430001
-0.095703281 -0.092321537 1.5430001
-0.087925285 -0.090630673 1.5430001
-0.08521989 -0.087023489 1.5430001
-0.075751014 -0.083190843 1.5430001
-0.074398316 -0.079809099 1.5430001
-0.064027645 -0.078907304 1.5430001
-0.053296249 -0.073316157 1.5430001
-0.045991689 -0.071692921 1.5430001
-0.042835396 -0.06808573 1.5430001
-0.035170112 -0.065605797 1.5430001
-0.023768812 -0.062417295 1.5430001
-0.015556011 -0.061547697 1.5430001
-0.022995843 -0.058165956 1.5430001
-0.014879663 -0.056813259 1.5430001
-0.0074398313 -0.050726123 1.5430001
-0.0033817417 -0.046668038 1.5430001
0.0054107867 -0.042609945 1.5430001
0.014879663 -0.038326409 1.5430001
0.025160158 -0.03598173 1.5430001
0.034590386 -0.032271475 1.5430001
0.038326409 -0.027504832 1.5430001
0.044638991 -0.025701236 1.5430001
0.053296246 -0.020831529 1.5430001
0.058165956 -0.017585056 1.5430001
0.065895654 -0.015266148 1.5430001
0.075751014 -0.013526967 1.5430001
0.082514495 -0.01217427 1.5430001
0.078456402 -0.0094688768 1.5430001
0.084678814 -0.0078456411 1.5430001
0.095139652 -0.0049598874 1.5430001
0.10505943 -0.0031562923 1.5430001
0.11430287 -0.002029045 1.5430001
0.12039001 -0.0013526967 1.5430001
0.10956843 0.0013526967 1.5430001
0.11633191 0.0013526967 1.5430001
0.1245984 0.0037574908 1.5430001
0.13468994 0.0075364527 1.5430001
0.14473854 0.0094688768 1.5430001
0.15420742 0.0094688768 1.5430001
0.14473854 0.01217427 1.5430001
0.15393689 0.012715349 1.5430001
0.1609709 0.013526967 1.5430001
0.16773438 0.025701236 1.5430001
0.17359607 0.026603034 1.5430001
0.17855597 0.035170112 1.5430001
0.18396674 0.037875507 1.5430001
0.19567202 0.035329666 1.5499998
0.17990865 0.044638991 1.5430001
0.18531945 0.044638991 1.5430001
0.19073023 0.044638991 1.5430001
0.17936757 0.054919489 1.5430001
0.18507351 0.053738952 1.5430001
0.19333699 0.052337438 1.5465
0.17855597 0.062224045 1.5430001
0.18531944 0.060871348 1.5430001
-0.15420742 0.082514495 1.5430001
-0.1609709 0.11768461 1.5430001
-0.15691282 0.11768461 1.5430001
-0.17341571 0.12525971 1.5430001
-0.16570534 0.12489901 1.5430001
-0.15826552 0.12309539 1.5430001
-0.17990865 0.13121158 1.5430001
-0.16502899 0.13504422 1.5430001
-0.17720327 0.14203314 1.5430001
-0.1645781 0.14564033 1.5430001
-0.16367629 0.15014933 1.5430001
-0.18802483 0.17720327 1.5430001
-0.18802483 0.18261404 1.5430001
-0.14452265 -0.10294017 1.55525
-0.13513203 -0.10237274 1.557
-0.12557724 -0.10237275 1.557
-0.11465748 -0.10237275 1.557
-0.10783263 -0.10237275 1.557
-0.13556135 -0.098222099 1.5530001
-0.12591855 -0.098288946 1.5500001
-0.114142 -0.099194832 1.5500001
-0.10463016 -0.099194832 1.5500001
-0.094655208 -0.097379878 1.552
-0.085407197 -0.093133844 1.5546666
-0.081530005 -0.088324167 1.5500001
-0.074904598 -0.087164782 1.5535001
-0.065915428 -0.08525873 1.5535001
-0.055422861 -0.081322521 1.5546666
-0.04777395 -0.080533229 1.557
-0.054174848 -0.077049881 1.5528001
-0.044942755 -0.075361632 1.5535001
-0.036316358 -0.073090769 1.5535001
-0.033970833 -0.069300503 1.5500001
-0.024514228 -0.06809815 1.5535001
-0.014428181 -0.065616049 1.5528001
-0.0081898198 -0.061423648 1.557
-0.0047579617 -0.055529673 1.5511667
0.0040924558 -0.053188421 1.5556
0.01228473 -0.050503891 1.557
0.006023827 -0.046425138 1.551
0.014587859 -0.044153564 1.5530001
0.024062306 -0.043128934 1.5535001
0.03548922 -0.042314071 1.557
0.017664833 -0.039406165 1.5500001
0.024459001 -0.039406165 1.5500001
0.035840567 -0.037652344 1.5523334
0.044236489 -0.034032967 1.5526251
0.053734403 -0.03191207 1.5556
0.061423648 -0.03139431 1.557
0.046200335 -0.0285355 1.5500001
0.054792538 -0.026100041 1.5519092
0.065090925 -0.024243278 1.5532665
0.074605532 -0.022828726 1.5543751
0.083736748 -0.021002127 1.5556
0.091452986 -0.020474549 1.557
0.069300503 -0.017664833 1.5500001
0.074735828 -0.017664833 1.5500001
0.085348867 -0.015559956 1.5507779
0.095261514 -0.01497376 1.5523334
0.10486642 -0.013622086 1.5535001
0.11130685 -0.0131763 1.5546666
0.088324167 -0.0095118331 1.5500001
0.095118336 -0.0095118331 1.5500001
0.10517369 -0.0084247664 1.5500001
0.11435094 -0.0071009025 1.5507779
0.12484737 -0.0045817788 1.5525455
0.13430072 -0.0020459208 1.55525
0.14386784 -0.0019109579 1.557
0.15606157 -0.00136497 1.557
0.12908916 0.0013588333 1.5500001
0.13690245 0.0030573749 1.5500001
0.14561401 0.0040785451 1.5523334
0.15525781 0.0040816134 1.5535001
0.16355298 0.0068125762 1.5546666
0.1733512 0.0095547903 1.557
0.16689114 0.01529378 1.5508751
0.17537804 0.01472572 1.5556
0.18609092 0.015924651 1.557
0.19519071 0.01637964 1.557
0.20416053 0.016184645 1.557
0.21293533 0.01774461 1.557
0.16781591 0.021061916 1.5500001
0.17596892 0.023100168 1.5500001
0.18496127 0.02447856 1.5513123
0.19546573 0.02488932 1.5529999
0.20493336 0.024126871 1.5539999
0.21544744 0.024826093 1.5560665
0.22358207 0.026480416 1.557
0.23067993 0.028664369 1.557
0.18683958 0.033970833 1.5500001
0.20518382 0.035329666 1.5500001
0.21554637 0.035470039 1.5561248
0.22385508 0.03548922 1.557
0.23067993 0.034124251 1.557
0.19703084 0.044841502 1.5500001
0.20518382 0.044841498 1.5500001
0.21542747 0.044993382 1.55525
0.22385508 0.045044009 1.557
0.18887784 0.058429834 1.5500001
0.20518385 0.05435333 1.5500001
0.21542749 0.054537427 1.5552498
0.22358207 0.054325808 1.557
0.18616016 0.064204879 1.5500001
0.1953823 0.063645452 1.5506364
0.20500851 0.064257212 1.5528001
0.21520652 0.063880317 1.5563637
0.2224901 0.061423648 1.557
-0.1761954 0.12818328 1.5500001
-0.16170117 0.1263715 1.5500001
-0.1589835 0.12908916 1.5500001
-0.18072483 0.13724217 1.5500001
-0.17509814 0.13512878 1.5507001
-0.16713651 0.13543038 1.5500001
-0.1589835 0.13180684 1.5500001
-0.17469521 0.14493969 1.5557274
-0.16769955 0.14520514 1.55525
-0.17381679 0.15635498 1.5563
-0.16751391 0.15525985 1.5535001
-0.18427095 0.16789131 1.557
-0.17380618 0.16561636 1.557
-0.16813292 0.16703849 1.5542001
-0.19246078 0.17335118 1.557
-0.18637167 0.17398407 1.5538182
-0.17539865 0.17403369 1.557
-0.16789131 0.17471616 1.557
-0.1855318 0.18462726 1.5523334
-0.18462455 0.19279391 1.5523334
-0.19246078 0.21430029 1.557
-0.15402098 -0.1119737 1.5640001
-0.13436845 -0.11105964 1.5640001
-0.12614182 -0.11105964 1.5640001
-0.15219285 -0.10831743 1.5640001
-0.14474969 -0.1071422 1.5640001
-0.13436845 -0.10694632 1.5640001
-0.1247707 -0.10694632 1.5640001
-0.11576057 -0.10675044 1.5640001
-0.10420411 -0.10420412 1.5640001
-0.094606362 -0.10191894 1.5640001
-0.087750822 -0.10009079 1.5640001
-0.083089069 -0.096251689 1.5640001
-0.076096423 -0.092549697 1.5640001
-0.068555333 -0.091864146 1.5640001
-0.063070908 -0.08912193 1.5640001
-0.055431884 -0.086379714 1.5640001
-0.045246515 -0.082266398 1.5640001
-0.039762095 -0.08089529 1.5640001
-0.042504307 -0.078153081 1.5640001
-0.0347347 -0.077239007 1.5640001
-0.025502583 -0.073217094 1.5640001
-0.015082174 -0.069926441 1.5640001
-0.0052102054 -0.063345134 1.5640001
0.0013711067 -0.0616998 1.5640001
0.0075410865 -0.056215376 1.5640001
0.013254032 -0.05347316 1.5640001
0.016453281 -0.047988731 1.5640001
0.024405697 -0.046891846 1.5640001
0.035648774 -0.045246519 1.5640001
0.043875411 -0.042504307 1.5640001
0.046617623 -0.038390987 1.5640001
0.055218205 -0.037269171 1.5640002
0.063527949 -0.0347347 1.5640001
0.069926441 -0.02879324 1.5640001
0.076096416 -0.028107688 1.5640001
0.085008606 -0.025365474 1.5640001
0.094606362 -0.022851778 1.5640001
0.10009079 -0.020566599 1.5640001
0.10557521 -0.017824387 1.5640001
0.11517295 -0.01439662 1.5640001
0.12202849 -0.01233996 1.5640001
0.11928628 -0.0095977467 1.5640001
0.12614182 -0.0095977467 1.5640001
0.13528252 -0.0059414618 1.5640001
0.14474969 -0.0060720434 1.5640001
0.15438661 -0.0041133203 1.5640001
0.16179058 -0.0027422132 1.5640001
0.16658947 0.0047988733 1.5640001
0.17595869 0.0077696047 1.5640001
0.18509941 0.0082266396 1.5640001
0.19264048 0.0089121936 1.5640001
0.20703711 0.0095977467 1.5640001
0.18509941 0.01233996 1.5640001
0.19606824 0.01233996 1.5640001
0.20648865 0.013436845 1.5640001
0.21526374 0.014625137 1.5640001
0.22184506 0.015630616 1.5640001
0.21800596 0.020566599 1.5640001
0.22678104 0.023857255 1.5640001
0.23308814 0.026051026 1.5640001
0.22897482 0.035648771 1.5640001
0.23415454 0.036410499 1.5640001
0.22897482 0.045246523 1.5640001
0.23171702 0.043875411 1.5640001
0.22349039 0.05347316 1.5640001
0.22257631 0.066270158 1.5640001
-0.17504461 0.15402098 1.5640001
-0.18235719 0.16590391 1.5640001
-0.17648101 0.16472867 1.5640001
-0.18235719 0.17550166 1.5640001
-0.17413054 0.17961498 1.5640001
-0.16864611 0.17961498 1.5640001
-0.18235719 0.18509941 1.5640001
-0.17550166 0.18509941 1.5640001
-0.16864611 0.18509941 1.5640001
-0.18290563 0.1955198 1.5640001
-0.17550166 0.19469717 1.5639999
-0.18400249 0.20484333 1.5640001
-0.17778683 0.20520896 1.5640001
-0.19222915 0.21636061 1.5640001
-0.18647051 0.21526374 1.5640001
-0.17824388 0.21252154 1.5640001
-0.20264956 0.22678104 1.5640001
-0.19675381 0.22143373 1.5640001
-0.20155267 0.23308814 1.5640001
-0.19881046 0.23445924 1.5640001
-0.15642101 -0.12043033 1.5790001
-0.13565716 -0.12043033 1.5790001
-0.12596735 -0.12043033 1.5790001
-0.15227759 -0.11547658 1.5743333
-0.14491738 -0.11455783 1.5743334
-0.13505575 -0.1149352 1.5720001
-0.12444206 -0.11548274 1.572875
-0.11601552 -0.11408861 1.5755002
-0.10695001 -0.11303337 1.5762001
-0.11162772 -0.10887148 1.572
-0.10391025 -0.10832022 1.572
-0.094936736 -0.10717801 1.5760001
-0.085463978 -0.10323 1.5760001
-0.076017521 -0.1009014 1.5766667
-0.073872566 -0.096727513 1.573
-0.064915858 -0.094844669 1.5755
-0.056207191 -0.093530983 1.5766668
-0.047064729 -0.092745192 1.5790001
-0.05190919 -0.088659048 1.572
-0.044051036 -0.08795917 1.575889
-0.035306245 -0.083044514 1.5749999
-0.028940519 -0.08130908 1.572
-0.024823546 -0.077233016 1.5731667
-0.015882131 -0.073895112 1.5755001
-0.0069212834 -0.07059709 1.5790001
-0.0046868357 -0.06703677 1.5734
0.0049358839 -0.064148955 1.5760001
0.013842566 -0.062291551 1.5790001
0.0082687205 -0.059259161 1.572
0.016221292 -0.05625581 1.5746251
0.024556108 -0.054323666 1.5763079
0.034933303 -0.053611565 1.5781252
0.043465663 -0.051771201 1.5790001
0.051217496 -0.051217496 1.5790001
0.028940519 -0.048234198 1.572
0.03583112 -0.048234198 1.572
0.04590239 -0.046296142 1.573
0.055206623 -0.045549553 1.5743335
0.064540952 -0.044807933 1.5760001
0.073365599 -0.041066278 1.5790001
0.066425383 -0.037760489 1.572
0.07418023 -0.03491433 1.5736156
0.08474046 -0.033550583 1.5781252
0.095513709 -0.031837903 1.5790001
0.10381925 -0.031837903 1.5790001
0.086821556 -0.028940519 1.572
0.095641531 -0.027838025 1.572
0.10520092 -0.025131697 1.5748003
0.11416762 -0.023818156 1.5774446
0.12264514 -0.021871256 1.5790001
0.13980992 -0.02076385 1.5790001
0.14257844 -0.02076385 1.5790001
0.1172706 -0.016557384 1.57375
0.12547359 -0.015822276 1.576667
0.13545465 -0.015207392 1.5766668
0.1449174 -0.015185912 1.5743334
0.15427744 -0.014656551 1.5769001
0.16334228 -0.013842566 1.5790001
0.13505575 -0.0096468404 1.572
0.14608072 -0.0096468404 1.572
0.15454631 -0.0084655946 1.5719999
0.16532154 -0.0060729333 1.5741001
0.17389821 -0.0049067037 1.5777276
0.18410614 -0.0027685133 1.5790001
0.19573389 -0.002491662 1.5790001
0.20471618 -0.0032299326 1.5790002
0.21317552 -0.0013842566 1.5790001
0.16950876 0.0027562398 1.572
0.17515112 0.0027572624 1.5731667
0.18518431 0.0027616094 1.5763751
0.19638357 0.0046388423 1.5745456
0.20491844 0.0043871594 1.5745456
0.21485353 0.0055211731 1.5760837
0.22343396 0.007261978 1.5781252
0.23117086 0.0096897967 1.5790001
0.21912108 0.01240308 1.572
0.22695386 0.014484067 1.57375
0.23494612 0.015478507 1.5790004
0.2440906 0.017072499 1.5790001
0.25470322 0.017995337 1.5790001
0.23547024 0.023132017 1.5727779
0.24474497 0.024887471 1.5772504
0.2527653 0.025470322 1.5790002
0.23841476 0.033074878 1.572
0.244075 0.035509944 1.5745456
0.25432575 0.0348581 1.5790004
0.23674759 0.045933072 1.574
0.2451829 0.045107741 1.5783002
0.25411001 0.044691712 1.5790004
0.26162452 0.047064729 1.5790001
0.27581313 0.046026532 1.5790002
0.2273898 0.05650292 1.572
0.23480815 0.055247538 1.5755004
0.24501346 0.055370267 1.5790004
0.25147331 0.054447427 1.5790001
0.27408281 0.051217496 1.5790001
0.2273898 0.063393518 1.572
0.23371349 0.063026197 1.5743333
0.24501343 0.062291551 1.5790001
-0.18328996 0.20533988 1.572
-0.18328996 0.21498671 1.572
-0.17777748 0.21636485 1.572
-0.19476609 0.22579372 1.572875
-0.18562618 0.22458121 1.5755001
-0.19581795 0.23467579 1.575267
-0.1882589 0.23532365 1.5790002
-0.19530533 0.24405284 1.5772502
-0.1882589 0.24501343 1.5790001
-0.20187595 0.2571879 1.5772501
-0.19553767 0.2545104 1.5784619
-0.18779749 0.25424182 1.5790002
-0.20417786 0.26473913 1.5790002
-0.19241168 0.26300877 1.5790001
-0.1882589 0.26162452 1.5790001
-0.2113218 0.27761272 1.5755
-0.2076385 0.27546707 1.5790001
-0.19241168 0.27269855 1.5790001
-0.21271409 0.28838682 1.5790001
-0.20809992 0.28192696 1.5790001
-0.18687464 0.29761517 1.5790001
-0.16267602 -0.12374501 1.5860001
-0.15488981 -0.12318885 1.5860001
-0.1451968 -0.12255324 1.5860002
-0.13486814 -0.123745 1.5860001
-0.12513539 -0.12304981 1.5860001
-0.11818343 -0.12096422 1.5860001
-0.11262186 -0.11818343 1.5860001
-0.10288911 -0.11401226 1.5860001
-0.09593714 -0.11262187 1.5860001
-0.090375565 -0.10984107 1.5860001
-0.085370146 -0.1081726 1.5860001
-0.075544707 -0.10335257 1.5860001
-0.068129271 -0.10149872 1.5860001
-0.063958094 -0.098717928 1.5860001
-0.055615731 -0.09732753 1.5860001
-0.045882978 -0.09454675 1.5860001
-0.034759831 -0.087594777 1.5860001
-0.02595401 -0.083887063 1.5860001
-0.0208559 -0.079252422 1.5860001
-0.015294326 -0.077398561 1.5860001
-0.0055615734 -0.072995648 1.5860001
0.0013903934 -0.070910059 1.5860001
0.0076471632 -0.067434072 1.5860001
0.015294326 -0.064421557 1.5860001
0.025490545 -0.062567696 1.5860001
0.033369441 -0.062567696 1.5860001
0.026417473 -0.059786912 1.5860001
0.034064636 -0.059091717 1.5860001
0.044214509 -0.055337656 1.5860001
0.05422534 -0.05283495 1.5860001
0.066738874 -0.048663765 1.5860001
0.074617781 -0.043102194 1.5860001
0.08203321 -0.040321406 1.5860001
0.08620438 -0.037540618 1.5860001
0.094546743 -0.035686761 1.5860001
0.10650413 -0.034203675 1.5860001
0.11447572 -0.032905977 1.5860001
0.1172565 -0.028271331 1.5860001
0.12652579 -0.026139393 1.5860002
0.13452055 -0.02328909 1.5860002
0.14182012 -0.023636686 1.5860001
0.15989523 -0.0208559 1.5860001
0.15850484 -0.018075114 1.5860001
0.166152 -0.015989523 1.5860001
0.17310397 -0.013208737 1.5860001
0.20438783 -0.01251354 1.5860001
0.17727515 -0.0083423592 1.5860001
0.18492232 -0.0061177304 1.5860002
0.19409892 -0.0066738874 1.5860002
0.20597683 -0.008540987 1.5860002
0.21551096 -0.0055615734 1.5860002
0.22315812 -0.00208559 1.5860001
0.23358607 -0.0013903934 1.5860001
0.22663411 0.0029794145 1.5860002
0.23522925 0.0051823747 1.5860003
0.24331883 0.0081437323 1.5860002
0.25583237 0.009732753 1.5860001
0.24570236 0.014102561 1.5860002
0.25404471 0.014499816 1.5860002
0.26069874 0.015294326 1.5860001
0.25722277 0.022246294 1.5860001
0.26321214 0.025347941 1.5860003
0.26500899 0.034481756 1.5860002
0.27437094 0.036613688 1.5860001
0.28364024 0.037540618 1.5860001
0.26510164 0.043565661 1.5860003
0.2735599 0.042754594 1.5860002
0.28224984 0.040321406 1.5860001
0.25652757 0.054920539 1.5860001
0.26324782 0.052371487 1.5860001
0.27112669 0.051444553 1.5860001
-0.18353191 0.2294149 1.5860001
-0.18422711 0.23428127 1.5860001
-0.20299742 0.24609962 1.5860001
-0.19743586 0.24749002 1.5860001
-0.18492229 0.24331884 1.5860001
-0.20160703 0.26834592 1.5860001
-0.19542751 0.26618308 1.5860002
-0.1877031 0.26695552 1.5860001
-0.20346087 0.27483439 1.5860002
-0.19474775 0.2753906 1.5860003
-0.1877031 0.27529788 1.5860001
-0.20469677 0.28564858 1.5860002
-0.19503427 0.28528345 1.5860003
-0.21384248 0.29615378 1.5860001
-0.20577821 0.29476342 1.5860003
-0.19485368 0.29436615 1.5860003
-0.1877031 0.29476339 1.5860001
-0.21412057 0.30449614 1.5860001
-0.20577823 0.30171534 1.5860001
-0.19465506 0.30310574 1.5860001
-0.16209918 -0.12716401 1.5940001
-0.15455317 -0.12828192 1.5940001
-0.14616874 -0.12772296 1.5940001
-0.13554843 -0.12716401 1.5940002
-0.12576661 -0.12646531 1.5940001
-0.11598475 -0.12297179 1.5940001
-0.11039513 -0.11877956 1.5940001
-0.1048055 -0.11784796 1.5940002
-0.095023654 -0.11528605 1.5940001
-0.085241817 -0.11225834 1.5940002
-0.079652183 -0.11039513 1.5940001
-0.075459957 -0.1062029 1.5940001
-0.062883295 -0.10201069 1.5940002
-0.057293672 -0.10201069 1.5940001
-0.05310145 -0.099215873 1.5940001
-0.044717014 -0.096421063 1.5940001
-0.035633869 -0.091530137 1.5940001
-0.02515332 -0.090831436 1.5940001
-0.023196951 -0.086918689 1.5940001
-0.015930437 -0.083564915 1.5940001
-0.013974067 -0.079652183 1.5940001
-0.0055896267 -0.076158658 1.5940001
0.0053101452 -0.072385661 1.5940001
0.016070178 -0.067774221 1.5940001
0.024554433 -0.066077374 1.594
0.034935165 -0.064746507 1.5940002
0.043785408 -0.061020091 1.594
0.047511823 -0.057293672 1.5940001
0.054498855 -0.056362066 1.5940002
0.06344226 -0.05226301 1.5940001
0.075739443 -0.045555454 1.5940001
0.085800767 -0.042201679 1.5940001
0.094185211 -0.041083757 1.5940001
0.1048055 -0.040524792 1.5940002
0.095023654 -0.037729979 1.5940001
0.1048055 -0.037729979 1.5940002
0.11558549 -0.036132939 1.594
0.12483501 -0.033071954 1.594
0.13275363 -0.032140352 1.5940001
0.12157438 -0.02934554 1.5940001
0.13624714 -0.028646838 1.5940001
0.14610663 -0.024998054 1.594
0.15511215 -0.022358507 1.594
0.16405554 -0.022637989 1.5940001
0.1690862 -0.018166287 1.5940001
0.17467582 -0.01676888 1.5940001
0.18445767 -0.013974067 1.594
0.19535747 -0.013135624 1.5940001
0.20541878 -0.01676888 1.5940001
0.21492115 -0.013135622 1.5940001
0.19144471 -0.0097818468 1.5940001
0.21799543 -0.0097818468 1.5940001
0.2244235 -0.0064280704 1.5940001
0.23560277 -0.0030742947 1.5940001
0.24361455 -0.0023290112 1.5940002
0.25013578 -0.0027948134 1.5940001
0.24510512 0.0036332575 1.5940001
0.25293061 0.0059389789 1.594
0.26131505 0.0097818468 1.5940001
0.26643887 0.015837276 1.594
0.26969948 0.023755914 1.5940002
0.27369207 0.025752207 1.594
0.28087875 0.02934554 1.5940001
0.2759878 0.032839056 1.5940001
0.28087875 0.03353776 1.5940001
0.26410985 0.055896267 1.5940001
-0.18585509 0.25013578 1.5940001
-0.19144471 0.28367355 1.5940001
-0.18864989 0.28646836 1.5940002
-0.19423953 0.29764763 1.5940001
-0.2110084 0.30742946 1.5940001
-0.20541878 0.30742946 1.594
-0.1955099 0.305778 1.594
-0.21212633 0.3144165 1.5940001
-0.20472008 0.31232041 1.5940001
-0.19703434 0.31232038 1.5940001
-0.19889754 0.32466415 1.5940002
-0.2110084 0.33956981 1.5940001
-0.20462026 0.33637571 1.594
-0.19982915 0.33677498 1.5940002
-0.21310452 0.34655684 1.5940001
-0.20541877 0.34515944 1.594
-0.21345386 0.35459191 1.594
-0.21240582 0.36332572 1.5940001
-0.21492115 0.37646136 1.5940001
-0.21659803 0.38149202 1.5940001
-0.15516123 -0.14246622 1.6090001
-0.17067735 -0.136824 1.6090001
-0.1632178 -0.13508381 1.605
-0.15506972 -0.13603014 1.6046923
-0.14508283 -0.1346073 1.6039093
-0.13536778 -0.13332754 1.603909
-0.12522744 -0.13226621 1.605
-0.11875823 -0.13190472 1.6063334
-0.12210827 -0.12772244 1.6010001
-0.11434188 -0.12606145 1.6036668
-0.10511953 -0.12316062 1.6074002
-0.095917851 -0.12271843 1.6090001
-0.10245866 -0.11930119 1.6010001
-0.094689995 -0.11885899 1.6025999
-0.084422991 -0.11678866 1.605
-0.075172238 -0.11234079 1.6058
-0.072984248 -0.10807284 1.6010001
-0.064724296 -0.10693932 1.6050001
-0.05434088 -0.10445851 1.6058
-0.045137815 -0.10226536 1.6090001
-0.035263918 -0.10014952 1.6090001
-0.043509841 -0.098715879 1.6010002
-0.034527164 -0.095721655 1.6010001
-0.02530849 -0.09562242 1.6040001
-0.015862031 -0.093371645 1.6032857
-0.0098738968 -0.091686182 1.6090001
-0.014737206 -0.087721452 1.6010001
-0.0063898885 -0.083749779 1.6065385
0.0050377022 -0.081610776 1.6090001
0.01269501 -0.080401726 1.6090001
-0.0014035433 -0.077194884 1.6010001
0.0065498687 -0.076259188 1.601
0.015464693 -0.074516378 1.6036667
0.024876976 -0.073699914 1.6063334
0.034558639 -0.072643667 1.6090001
0.04372726 -0.071938388 1.6090001
0.026667323 -0.06877362 1.6010001
0.035790354 -0.06807185 1.6010001
0.045522496 -0.066596687 1.6025999
0.054632198 -0.064361282 1.6053637
0.064415418 -0.062534675 1.6090001
0.071938388 -0.060653936 1.6090001
0.057545274 -0.057545274 1.6010001
0.065213606 -0.056383319 1.6021429
0.074638717 -0.054923654 1.6063334
0.084248699 -0.054755244 1.609
0.094507299 -0.053601157 1.6090001
0.10409908 -0.052754819 1.609
0.11143398 -0.052190598 1.6090001
0.075791344 -0.049124017 1.6010001
0.084212601 -0.04772047 1.601
0.095823735 -0.046572115 1.601
0.1053842 -0.046371475 1.6027778
0.11503987 -0.044728059 1.6042
0.12496018 -0.042863112 1.6067144
0.13635381 -0.041846514 1.6090001
0.14528733 -0.042316694 1.6090001
0.15506743 -0.042291272 1.6080002
0.16503513 -0.040906142 1.6090001
0.12561712 -0.037193894 1.6010001
0.13543904 -0.035687871 1.6025999
0.14472394 -0.035130661 1.6027777
0.15445583 -0.035104364 1.6016666
0.16458082 -0.035171185 1.6045556
0.17067735 -0.032442804 1.6090001
0.1459685 -0.029474409 1.6010001
0.15499128 -0.028271373 1.601
0.16561812 -0.026667323 1.601
0.17485307 -0.025118688 1.6063333
0.18420236 -0.023600524 1.6070001
0.19437471 -0.023415241 1.609
0.20453072 -0.023979463 1.6090001
0.21339707 -0.022770416 1.6090001
0.22145739 -0.021158351 1.6090001
0.17825 -0.018246064 1.6010001
0.18526772 -0.018246064 1.6010001
0.19509251 -0.017123228 1.6010001
0.20351377 -0.01684252 1.6010001
0.21538596 -0.017177932 1.6058
0.22546425 -0.015733059 1.6046364
0.23556294 -0.015516122 1.6090001
0.24543685 -0.015516122 1.6089998
0.25531074 -0.014105567 1.6090001
0.26236355 -0.01269501 1.6090001
0.22784185 -0.008889108 1.6010002
0.23399071 -0.007819741 1.601
0.24518925 -0.0070311055 1.6031818
0.25596514 -0.0057296911 1.6022307
0.26588991 -0.0056422264 1.6089998
0.27223742 -0.0028211132 1.6090001
0.24842717 0.0014035433 1.6010001
0.25740984 0.0025263778 1.6010001
0.2658864 0.0052333013 1.6031818
0.27413082 0.0067299753 1.6072223
0.27438724 0.015105624 1.603
0.28182924 0.016080346 1.609
0.27874371 0.024421655 1.6010001
0.28591868 0.025350044 1.6066
0.29292557 0.027740948 1.6090001
0.28703818 0.033765696 1.605
0.29198521 0.032442804 1.6090001
-0.20585303 0.31766865 1.601
-0.19649607 0.31579724 1.6010001
-0.21327528 0.32622957 1.6026001
-0.20551883 0.32562202 1.601
-0.19789961 0.32281497 1.6010001
-0.2154889 0.33518162 1.6046364
-0.20575948 0.33376259 1.6010001
-0.21495953 0.34533739 1.6026001
-0.20702265 0.34527165 1.6010001
-0.2203563 0.35369292 1.6010001
-0.21544389 0.35720176 1.6010001
-0.20800515 0.35453504 1.6010001
-0.22133684 0.3646771 1.6029999
-0.21586497 0.36744764 1.6010001
-0.20912796 0.36772835 1.6010001
-0.22235183 0.37407055 1.6067144
-0.21445078 0.37412477 1.6023332
-0.17141989 -0.14025263 1.6160001
-0.16433643 -0.14237767 1.6160001
-0.15158619 -0.14308603 1.6160001
-0.14355826 -0.14214157 1.6160001
-0.13515255 -0.141386 1.6159999
-0.1260857 -0.14025263 1.6160001
-0.16858651 -0.13741925 1.6160001
-0.13175248 -0.13741925 1.6160001
-0.12466901 -0.13741925 1.6160001
-0.11475216 -0.13316917 1.6160001
-0.11191877 -0.12891909 1.6160001
-0.10511865 -0.12721905 1.6159999
-0.094918452 -0.12514125 1.6160001
-0.084718265 -0.12211897 1.6159999
-0.075084746 -0.11664108 1.6160001
-0.065167896 -0.11191877 1.6160001
-0.055251043 -0.10908539 1.6160001
-0.046184205 -0.106252 1.6159999
-0.035417333 -0.10247415 1.6160001
-0.026917173 -0.10058523 1.6160001
-0.014166933 -0.097751841 1.6160001
-0.0070834667 -0.093501762 1.6160001
-0.0023611556 -0.088307224 1.6160001
0.0056667738 -0.086418293 1.6160001
0.015583627 -0.082168207 1.6160001
0.021250401 -0.080751516 1.6160001
0.026917173 -0.077918135 1.6160001
0.036834024 -0.075084746 1.6160001
0.04533419 -0.074376397 1.6160001
0.052417655 -0.072251357 1.6160001
0.058084425 -0.069417976 1.6160001
0.065167896 -0.067292936 1.6160001
0.075084746 -0.062334504 1.6160001
0.085001595 -0.060917813 1.6160001
0.089251682 -0.058084425 1.6160001
0.094918452 -0.058084425 1.6160001
0.10530754 -0.055251043 1.6160001
0.11475216 -0.053834345 1.6160001
0.12041894 -0.052417655 1.6160001
0.12561347 -0.048639804 1.6160001
0.13458586 -0.046184205 1.6159999
0.1445027 -0.048167571 1.6160001
0.15441959 -0.048167571 1.6160001
0.16433643 -0.044625837 1.6160001
0.17141989 -0.041084107 1.6160001
0.17551257 -0.035102513 1.6160001
0.18558681 -0.032583948 1.6160001
0.19550368 -0.032583948 1.6160001
0.20542054 -0.032583948 1.6160001
0.2110873 -0.032583948 1.6160001
0.17850336 -0.029750559 1.6160001
0.18629517 -0.02904221 1.6160001
0.1959759 -0.028806098 1.6160001
0.20542054 -0.029750561 1.6160001
0.21553977 -0.026917173 1.6160001
0.22582093 -0.022950431 1.6159999
0.23456393 -0.022464707 1.6160001
0.24549273 -0.023274247 1.6160001
0.25358811 -0.021250403 1.6160001
0.25642151 -0.018417014 1.6160001
0.26492167 -0.016055858 1.6160001
0.27200514 -0.014166933 1.6160001
0.27554682 -0.0056667733 1.6160001
0.28192198 -0.0014166933 1.6160001
0.27814412 0.0023611553 1.6160001
0.28369284 0.0067292931 1.6160001
0.2989223 0.0085001597 1.6160001
0.28688037 0.01487528 1.6160001
0.29454345 0.015841208 1.6159999
0.29527935 0.022464707 1.6160001
-0.22242086 0.3385897 1.6160001
-0.22242086 0.34142309 1.6160001
-0.21958746 0.34567317 1.6160001
-0.15355693 -0.49483973 1.6240003
-0.1448113 -0.49483976 1.6240004
-0.13556851 -0.49529171 1.6240003
-0.12449523 -0.49655724 1.6240003
-0.11532024 -0.49687362 1.6240001
-0.10582886 -0.49592447 1.6240001
-0.1548281 -0.48583987 1.6240003
-0.14521807 -0.48548397 1.6240004
-0.13525213 -0.48548391 1.6240003
-0.12670989 -0.48548397 1.6240001
-0.16087885 -0.4740943 1.6240001
-0.15518403 -0.47551799 1.6240004
-0.14521807 -0.47551799 1.6240004
-0.13620126 -0.47504345 1.6240003
-0.16087885 -0.46839949 1.6240001
-0.15447217 -0.46768767 1.6240001
-0.14521807 -0.46697581 1.6240003
-0.13582161 -0.46726054 1.6240002
-0.19220039 -0.43280682 1.6240001
-0.16144833 -0.43650848 1.6240002
-0.15550041 -0.4348633 1.6240003
-0.16087885 -0.42711198 1.6240001
-0.15518403 -0.42711198 1.6240002
-0.19433595 -0.40077344 1.6240001
-0.19220038 -0.39436674 1.6240001
-0.19220039 -0.3886719 1.6240001
-0.17440405 -0.14592993 1.6240001
-0.16514997 -0.14592993 1.6240001
-0.15518403 -0.14664179 1.6240001
-0.14521807 -0.14664179 1.6240001
-0.13454029 -0.14592993 1.6240001
-0.12443197 -0.14322488 1.6240002
-0.11721852 -0.1418961 1.6240001
-0.11532024 -0.13715041 1.6240001
-0.10630343 -0.13335384 1.6240002
-0.10250688 -0.12955731 1.6240001
-0.094676495 -0.12884545 1.6240001
-0.085625783 -0.12711667 1.6240003
-0.077354729 -0.12196421 1.6240001
-0.072609037 -0.11816765 1.6240001
-0.066344731 -0.11588973 1.6240002
-0.056236416 -0.11318468 1.6240001
-0.049829733 -0.11247282 1.6240001
-0.043423053 -0.10891356 1.6240001
-0.035592668 -0.10606615 1.6240001
-0.02591146 -0.10393059 1.6240002
-0.018508187 -0.10108317 1.6240001
-0.0048406026 -0.095957831 1.6240002
0.0035592667 -0.093252778 1.6240001
0.0071185329 -0.089693516 1.6240001
0.015660774 -0.085896969 1.6240001
0.025626719 -0.081863135 1.6240001
0.035592668 -0.078303866 1.6240001
0.045084044 -0.077354729 1.6240001
0.055524558 -0.073558174 1.6240001
0.061219387 -0.072609037 1.6240001
0.066914208 -0.069761626 1.6240001
0.075456448 -0.065965079 1.6240001
0.085422397 -0.064066797 1.6240001
0.095388345 -0.061219383 1.6240001
0.10393059 -0.061219383 1.6240001
0.10535429 -0.058371972 1.6240001
0.11532024 -0.057422835 1.6240001
0.12528619 -0.054100852 1.6240002
0.13525213 -0.052677143 1.6240001
0.14521807 -0.052677147 1.6240001
0.15518402 -0.052677143 1.6240001
0.16087885 -0.052677147 1.6240001
0.13430299 -0.048880596 1.6240001
0.16576011 -0.048609413 1.6240003
0.17511593 -0.04223663 1.6240001
0.18081075 -0.041287493 1.6240001
0.17796333 -0.038440078 1.6240001
0.18479712 -0.036731631 1.6240002
0.19433597 -0.036304519 1.6240001
0.20440359 -0.036812987 1.6240003
0.21497971 -0.03369439 1.6240001
0.21782711 -0.029897841 1.6240001
0.2246609 -0.028189391 1.6240002
0.23491161 -0.027050426 1.6240001
0.24440299 -0.027524995 1.6240002
0.2548435 -0.025626719 1.6240002
0.26281625 -0.022494566 1.6240002
0.26908055 -0.018508187 1.6240001
0.27548724 -0.016372627 1.6240001
0.28047022 -0.014237067 1.6240001
0.27762279 -0.0099659469 1.6240001
0.28426674 -0.0047456888 1.6240002
0.2883006 0.0035592664 1.6240001
0.29444841 0.0060831103 1.6240004
0.2975547 0.012813359 1.6240001
-0.22494565 0.34453702 1.6240001
-0.22352195 0.35165554 1.6240001
-0.17305878 -0.49556303 1.6374445
-0.16453281 -0.49502912 1.6320001
-0.15880992 -0.49645984 1.6320001
-0.13162623 -0.49550605 1.6320001
-0.12275578 -0.49302611 1.6320002
-0.11425322 -0.494416 1.6320001
-0.10380667 -0.49391636 1.6320001
-0.094790988 -0.49516642 1.6334001
-0.086929828 -0.49499714 1.6390001
-0.079027116 -0.49858925 1.6390001
-0.1741731 -0.48524693 1.6345456
-0.1645328 -0.48501408 1.6320001
-0.15880992 -0.48501408 1.6320001
-0.13091087 -0.48429871 1.6320001
