# .PCD v0.7 - Point Cloud Data file format
VERSION 0.7
FIELDS x y z normal_x normal_y normal_z
SIZE 4 4 4 4 4 4
TYPE F F F F F F
COUNT 1 1 1 1 1 1
WIDTH 206
HEIGHT 1
VIEWPOINT 0 0 0 1 0 0 0
POINTS 206
DATA ascii
0.27514312 -0.30511492 1.2568403 0.6559361219 -0.2831986547 0.699675858
0.24004447 -0.44877881 2.381 -0.1491533518 0.9458125234 0.2884302139
-0.01191916 0.49410337 1.2360001 0.4143414497 -0.4833878577 0.7711402774
-0.33938044 -0.12325758 1.9260001 0.9799990654 0.1885472983 0.06365308166
0.4964616 -0.046491385 1.8940001 0.1311064959 0.7460770011 0.6528248191
-0.19624183 -0.037126832 1.21 0.2820150852 0.5957128406 0.7520596385
0.22568414 0.11329465 1.0338668 -0.2201663852 0.4769975543 0.8508819342
0.40900883 0.25138417 1.5500001 -0.9285495281 -0.0475788191 0.3681467772
-0.26597714 0.1998274 1.572 0.7654931545 -0.2750374079 0.5816997886
-0.16571455 -0.30637923 2.1980002 -0.06275025755 0.8327649832 0.5500589609
0.46041307 -0.18948098 0.97800004 0.3179319501 -0.1903636456 0.9288061857
0.27268893 -0.20219791 2.1160002 -0.01822075807 0.7724841237 0.6347726583
0.016284959 -0.18275344 1.376 -0.5748996735 0.1968185306 0.7941995263
0.31686413 0.28135037 1.266 -0.6883197427 0.6109344959 -0.3911201954
-0.052720442 0.12255545 1.0355386 0.2475034595 0.6331453323 0.7333955169
0.21484689 -0.047584008 1.2525001 0.01742399856 0.7286790013 0.6846337318
0.053491224 0.31670424 1.1014 0.6817006469 -0.3191329241 0.6583604217
-0.20473936 0.034810305 1.4252857 0.7972576022 -0.1891412586 0.5732415915
0.41457918 -0.3729769 1.0951999 0.7131782174 0.08870438486 0.6953476667
0.02404872 -0.37676328 2.286 -0.1486418843 0.9438947439 0.2949038148
0.37176844 -0.035074934 1.104739 0.9029994011 -0.09791906923 0.4183347225
0.013596223 -0.0094127702 1.1930001 -0.1040193588 0.8127349615 0.5732729435
-0.21174394 0.079591691 1.7130001 0.9445535541 0.3277712166 0.01961021498
0.2459721 -0.48406738 1.2445555 0.7496734262 -0.02013050765 0.6615017056
0.49751797 0.072394259 1.7570001 0.1182570457 0.753164947 0.6471150517
0.35325107 0.39140713 1.404 -0.1774673909 0.7782007456 -0.6024192572
0.4373506 -0.19437805 2.0530002 0.04956279695 0.7603901625 0.6475726366
0.37440556 -0.20537268 1.1450002 0.8975775242 0.1380987912 0.4186685383
0.14596149 -0.29795444 1.376 0.8197855949 -0.1934108734 0.5390211344
-0.13227147 -0.15642539 1.312 -0.04457969964 0.4044682086 0.9134649038
0.13574307 -0.30057395 2.2120001 -0.1486418843 0.9438947439 0.2949038148
0.09421844 0.19480047 1.0163753 0.5626158714 -0.2335052639 0.7930565476
0.29536182 0.1739345 1.1561998 -0.7720882893 0.5550432205 -0.3095264435
0.3065528 -0.39357424 2.256 -0.2771736979 0.870066762 0.4076255858
0.14521319 0.046504341 1.1450002 -0.01142579876 0.7839921713 0.6206655502
0.15154381 -0.13501514 1.3470001 0.05679477751 0.7107700109 0.7011278868
0.29669103 -0.16486095 1.2587334 0.7855353951 -0.05378042907 0.6164752841
0.36639583 -0.092865296 1.9260001 0.1078323498 0.752055347 0.6502191424
-0.11488705 0.036365069 1.1252002 0.1829741597 0.6196372509 0.7632628083
0.2760354 0.038688425 1.1570002 -0.007646077313 0.7480336428 0.6636167765
-0.017926078 -0.10195458 1.2780001 -0.2494172454 0.6574152112 0.7110528946
0.35701549 -0.45091262 1.177 0.4879038632 0.1132691726 0.8655171394
0.19392148 -0.39359388 1.312 0.7921839356 0.02852499112 0.6096153855
0.094847143 -0.064633317 1.2662221 -0.1311206073 0.7176762819 0.6839211583
0.054031868 0.087245531 1.0754615 -0.06821243465 0.8397572637 0.5386602283
-0.22556676 0.13651015 1.4829999 0.4564185739 -0.4789716005 0.7498455048
0.39381531 -0.27063137 2.1290002 0.0177455321 0.7633247972 0.6457711458
0.032377932 0.41274488 1.1663333 0.6362886429 -0.3604108393 0.6820856333
0.22235356 -0.22380356 1.3227501 0.6201536655 -0.2130993903 0.7549821734
0.35495776 -0.31532833 1.175889 0.7790441513 0.01307677664 0.626832664
0.40216595 -0.13495016 1.0600001 0.889387846 0.09071258456 0.4480630755
0.42332849 -0.26545975 1.0632633 0.9242193699 0.1018900126 0.3680176735
0.33696854 -0.085093319 1.1965003 0.813806057 0.1522403806 0.5608409643
0.42583644 0.0048207901 1.8330001 -0.7841835618 0.5565955639 0.274331063
-0.084549241 -0.046100389 1.2116001 -0.146449402 0.7006300688 0.6983337402
0.44562018 0.19789523 1.6240001 0.1345929205 0.7600893378 0.6357271075
0.28681698 -0.39549023 1.2168124 0.5696053505 -0.2165739983 0.792871654
0.13451232 -0.20651102 1.4105555 0.4946945012 0.2758637369 0.824121654
-0.01765782 0.038258608 1.1190001 -0.2133462876 0.7288872004 0.6505435109
0.13480683 0.11578964 1.0436089 -0.07435748726 0.8119536042 0.578966558
0.014776863 0.1623265 0.98573697 0.1411298662 0.6623888612 0.7357468009
0.064903527 -0.12735803 1.3246667 -0.172666803 0.6870225072 0.7058230639
0.3619599 0.051425856 1.1353334 0.5480872989 0.005622482393 0.8364022374
0.32459831 0.33689487 1.3355001 -0.5404195189 0.6780838966 -0.4981455207
0.32599184 -0.23491742 1.2133332 0.7440105081 -0.05287390947 0.666072607
-0.18837813 -0.10527013 1.2640001 0.09208062291 0.6132805943 0.7844794989
0.13562658 -0.008940747 1.21 -0.04965351149 0.7606933117 0.6472095847
0.2064338 -0.3049762 1.3052353 0.6497504711 -0.2486127168 0.7183425426
-0.054414365 -0.19328928 1.3337693 -0.267377764 0.2260943651 0.9366912246
0.2710928 0.11448327 1.1027143 -0.802051723 0.1043597981 0.5880663991
0.065245919 0.034123369 1.1450002 -0.1540101618 0.778709352 0.6081879735
0.21358055 -0.24004185 2.1560001 -0.02257975005 0.7734853029 0.6334119439
0.36745572 -0.12454674 1.1346318 0.9191534519 0.1120521724 0.3776257634
0.21358731 0.0051097805 1.1946472 -0.07174941152 0.7461168766 0.6619377732
0.080388576 0.26149389 1.054 0.7316282988 -0.2295959294 0.6418767571
-0.09462665 -0.10456567 1.2667367 -0.08573073149 0.7145549059 0.6943064928
0.19522576 0.079821378 1.097 -0.07496761531 0.8221004009 0.5643852949
0.46062636 -0.26408473 0.99200004 0.76466012 0.2121925652 0.6084975004
0.29452878 0.225041 1.2120001 -0.7125357985 0.5632304549 -0.4184066951
0.16541025 -0.084810399 1.2950002 0.02338830754 0.7068294287 0.7069972754
0.412384 -0.0616735 1.0500001 0.7339366078 -0.1076630577 0.6706308126
0.33684778 -0.1647511 1.197 0.7805839777 0.0907528922 0.618427515
0.36821029 -0.38505954 1.149 0.7987585068 -0.02045892738 0.6013038754
0.39527127 -0.30523652 1.1156129 0.8320363164 0.02474155463 0.5541691184
-0.064122029 0.00101781 1.161 -0.08688289672 0.7818793654 0.6173459888
0.28075287 -0.23579416 1.2729999 0.7213021517 -0.1553990692 0.674962461
0.23950796 -0.36533242 1.2590001 0.5244448781 -0.212575838 0.8244811296
-0.13520049 -0.016014546 1.1748184 0.04045937955 0.63313061 0.7729868293
-0.075044177 0.075037591 1.0835599 0.1716866195 0.617167592 0.7678722739
0.026573956 -0.056983329 1.25 -0.1431283355 0.7089567184 0.6905755997
0.084608503 -0.17379706 1.3748001 -0.1850131005 0.6891157627 0.7006351948
0.42071322 -0.19803637 1.041 0.9139240384 0.1439299136 0.379509002
0.06493564 0.12757473 1.0166428 -0.02390539087 0.7971801162 0.6032680869
0.28857675 -0.4648709 1.197 0.620701313 -0.04160957411 0.7829422355
0.4428969 -0.32733718 1.0512 0.8415008783 0.2111662477 0.4972777069
0.13727869 0.15230709 0.98900002 0.1972460747 0.3491384387 0.9160766006
-0.14467761 -0.073683403 1.2270001 -0.05674696714 0.6875671744 0.7238999605
-0.0044905371 -0.14186771 1.3280001 -0.1792942286 0.7488504648 0.6380255222
0.43964919 -0.13250904 1.001 0.8098755479 -0.007942266762 0.5865479708
0.1144427 0.079821378 1.097 -0.0230350066 0.8448743224 0.5344686508
0.075027481 -0.022224108 1.2159231 -0.1035215855 0.7815858126 0.6151478291
-0.014339745 0.083704688 1.0728749 -0.1316364557 0.774140358 0.6191756725
0.2227084 -0.42473125 1.2661818 0.7328987122 -0.1526594907 0.66298908
0.25666556 -0.17472528 1.304647 0.6241250634 -0.1209217981 0.7719104886
0.21604018 0.047803897 1.1480001 -0.0207599178 0.7905526757 0.6120420694
0.2632927 -0.017001448 1.2230002 0.03472773731 0.7093213797 0.7040292621
-0.20901924 0.092475183 1.4450001 0.5764276385 -0.2388135791 0.7814725041
0.30725968 -0.10654277 1.2443334 0.8458571434 0.008392900229 0.5333434939
-0.066456594 -0.14093381 1.307 -0.1966944784 0.6922664046 0.6943187118
0.16836296 -0.34261274 1.3430001 0.8224822283 0.03215671331 0.5678810477
0.1752398 -0.25547045 1.3457694 0.7563981414 -0.3168095648 0.5722705722
0.31297371 -0.33467713 1.2134998 0.7123087645 -0.1491631567 0.6858327389
0.044461031 0.36480284 1.1342857 0.6566030383 -0.2579473257 0.7087563872
0.005399609 0.11881442 1.02675 0.0501890704 0.7636573911 0.6436679959
0.39341509 -0.18519416 1.0915334 0.9045014381 0.1510412991 0.3988279104
-0.027967419 -0.050556488 1.2270001 -0.1784233451 0.7172698975 0.6735644341
-0.0010537533 0.44784516 1.202 0.484985888 -0.3441087902 0.8039762378
0.31094489 0.079957262 1.126 -0.5068397522 0.2490392327 0.8252835274
0.15492024 -0.044924319 1.2547921 -0.02558211051 0.7136608958 0.7000240088
0.36780813 -0.26344427 1.1557999 0.8337032795 0.02672220021 0.5515657663
-0.24967554 0.17624156 1.5230001 0.3303046525 -0.5184544325 0.7887356281
0.11214554 -0.10413807 1.3053334 -0.1142860949 0.7083878517 0.6965093613
0.35755301 -0.06572859 1.1484287 0.9392854571 0.09384204447 0.3300552964
0.044413105 -0.092213638 1.2880001 -0.1641883552 0.6623644829 0.730968833
0.39716038 -0.24418712 1.1053123 0.8751417994 0.08448721468 0.4764333367
0.38130388 -0.09513101 1.092091 0.9103432298 0.1015616655 0.4011988044
0.09628693 0.011388776 1.1810001 -0.1801781952 0.7223427296 0.6676502228
0.17532006 0.12411173 1.0115653 -0.1804811954 0.5247327089 0.8319147229
0.32768184 -0.40787029 1.177 0.5681072474 -0.1520372033 0.808788538
0.24617691 -0.27616426 1.2872858 0.4329607487 -0.2789149284 0.8571764231
0.31342909 -0.28483808 1.223 0.734788239 -0.1673276126 0.6573337913
0.26484099 0.088280335 1.0600001 -0.5028338432 0.7459018826 0.4367934465
0.25571141 0.069323294 1.1190001 0.02809327841 0.7950670719 0.6058705449
0.38140228 0.014160558 1.1034545 0.8185089827 -0.1185774654 0.5621231198
-0.14340478 -0.12506299 1.2759999 -0.215412274 0.6972397566 0.6837062836
0.26268899 -0.43452448 1.2337502 0.6307343245 -0.1921665519 0.7518286109
-0.065348558 0.032180611 1.1237501 0.02728961781 0.7384572625 0.6737478375
0.034316484 0.056067139 1.1158798 -0.11485897 0.7574226856 0.642742753
-0.016825512 0.0083109755 1.1562001 -0.2117665857 0.7948908806 0.568597734
0.16818938 0.019604897 1.177 0.01611874253 0.7455010414 0.6663095355
0.18381613 0.10872401 1.0560001 0.1105984151 0.9481778741 0.2978702784
0.18537378 -0.02043773 1.2270001 -0.009130890481 0.748273015 0.6633280516
0.14649187 -0.24334602 1.381 0.7688854933 -0.09419749677 0.6324096322
0.32668108 0.36871722 1.3700001 -0.3884580731 0.7088205218 -0.5887901187
-0.064630494 -0.076556206 1.2439334 -0.1834561527 0.7148213983 0.6748142242
-0.032770384 -0.019174159 1.193 -0.1269355863 0.7726655602 0.6219929457
0.21184142 -0.082424372 1.2950001 0.03112221882 0.7307399511 0.6819461584
-0.09051846 -0.18218273 1.307 -0.4309073687 0.03795706108 0.9015974998
0.42685071 0.17936073 1.5860001 0.0007628413732 0.7535214424 0.6574228406
0.034940425 -0.34347096 2.256 -0.1486418843 0.9438947439 0.2949038148
0.34901875 -0.12511019 1.177 0.8864991665 0.0841563642 0.4550130665
0.10546332 -0.14327569 1.3478752 -0.1340956837 0.6925204396 0.7088256478
0.42089194 -0.10397847 1.0313751 0.756731391 0.01415387634 0.6535727382
0.2780323 -0.3547909 1.2351112 0.6027014852 -0.1955890208 0.7736251354
0.43914172 -0.2258565 1.0035714 0.849619925 0.03381103277 0.5263105631
0.3417789 -0.36513332 1.1817273 0.641882956 -0.1533448398 0.7513132691
0.38323101 -0.34497523 1.1335715 0.7955719233 -0.03094261698 0.6050685048
0.044782523 -0.15571369 1.3540001 -0.07587184012 0.7363242507 0.6723615527
0.094632849 0.10245885 1.0635002 -0.1108089015 0.8152825832 0.568362236
0.31590286 0.30705032 1.3032501 -0.5893832445 0.6508132219 -0.4786121249
0.21180618 -0.35338783 1.2920001 0.7346909046 -0.155894205 0.6602471471
0.35381415 -0.20492192 1.184478 0.8567498326 -0.00918666739 0.5156504512
0.44120142 -0.28664806 1.0250001 0.866894424 0.2694979906 0.4193624556
0.30632886 -0.20551784 1.2441429 0.8508012295 -0.0549419187 0.5226075053
-0.20779717 -0.066364542 1.2410001 0.350856781 0.5668948889 0.7453386188
0.42128918 0.2294149 1.5860001 -0.9395470023 -0.08821897209 0.330860734
0.29233503 0.15107246 1.1190001 -0.5983452797 0.7313981056 -0.3271692097
-0.020872848 0.1469866 1.0060002 0.1306525171 0.6672690511 0.7332679629
0.10450305 0.052683286 1.1312499 -0.1520731002 0.7908862829 0.5927669406
0.02531375 0.018224148 1.155 -0.1052790508 0.7693727612 0.6300649643
0.34313813 -0.27531263 1.1933333 0.7217203379 -0.1029852778 0.6844806671
0.36507079 -0.16451319 1.1545384 0.8961886168 0.0763284564 0.4370582104
0.1546142 0.091059372 1.082 -0.03079260141 0.8229978681 0.5672093034
0.11532199 -0.035902131 1.2410001 -0.136765331 0.7425598502 0.6556676626
-0.012950997 -0.1895555 1.3430001 -0.4058020711 -0.006479823962 0.9139379859
0.255606 0.01580034 1.1861999 0.05289012939 0.7664527297 0.6401194334
0.055265941 0.0023533718 1.1813636 -0.07531433553 0.7585740685 0.6472195387
0.39824796 -0.025957443 1.067 0.6966275573 -0.1306468397 0.7054370642
0.10271669 0.15392528 1.0130001 0.7138727307 0.1247925758 0.6890664101
0.21393475 -0.26454294 1.3120002 0.6364777088 -0.333922863 0.6952636838
0.41685912 -0.32471865 1.0857999 0.8060170412 0.08264172822 0.5860946178
0.06884025 0.22212455 1.0470001 0.6097334623 -0.3778494 0.6967459917
0.16773614 -0.29559097 1.3380001 0.702065289 -0.1092543304 0.7036816478
0.3121354 0.25813276 1.2320001 -0.7587999701 0.5675266981 -0.3195873201
0.27706671 -0.13759604 1.2830001 0.7664960623 0.05591619387 0.6398102641
0.23502611 -0.31480247 1.2769474 0.4693362117 -0.26486215 0.8423606753
0.23299302 0.09338779 1.087 -0.04389545694 0.77212286 0.6339554191
0.073846146 0.068303846 1.1062858 -0.1137587801 0.8182062507 0.5635578632
0.391415 -0.40122491 1.1190001 0.7480955124 -0.05880149081 0.6609807014
-0.12494152 -0.046422504 1.2034285 -0.1313314587 0.7089802027 0.6928918362
-0.14323664 0.018735593 1.149 0.2217651755 0.6573719382 0.7201960087
-0.10454069 0.0043452242 1.1551176 0.07254464179 0.7247893214 0.6851406097
0.055417337 0.15495673 0.98824155 -0.03052885458 0.6864649057 0.7265218496
0.41298842 -0.22489379 1.0733684 0.8990154266 0.1314515024 0.4177220762
0.25583324 -0.21472502 1.2970001 0.6295371056 -0.1289946735 0.7661876082
0.38404307 -0.14504287 1.1039563 0.9035437703 0.2070751637 0.375137955
0.015486955 -0.11611123 1.3042728 -0.114712365 0.7079849243 0.6968489289
0.3183983 -0.14521547 1.2270001 0.8629108667 -0.05146338791 0.5027289391
0.035265669 -0.030991044 1.2190001 -0.05979092047 0.7818692327 0.6205686927
0.42149824 -0.15591399 1.0320001 0.8172853589 0.06880339235 0.5721107721
0.059252437 0.27631071 1.0843333 0.6656998992 -0.2128410041 0.7152218819
-0.10536433 -0.074112289 1.2332729 -0.1188208535 0.689796865 0.7141861916
0.31795311 -0.44590086 1.177 0.5436985493 -0.2559572458 0.799298346
-0.1056679 -0.13252817 1.296091 -0.139078781 0.6163620949 0.7750837803
0.3578063 -0.42493787 1.1478573 0.7122958302 -0.158912763 0.6836529374
0.028830061 0.32906035 1.1340001 0.6466436982 -0.2622903883 0.7162790298
