# .PCD v0.7 - Point Cloud Data file format
VERSION 0.7
FIELDS x y z normal_x normal_y normal_z
SIZE 4 4 4 4 4 4
TYPE F F F F F F
COUNT 1 1 1 1 1 1
WIDTH 206
HEIGHT 1
VIEWPOINT 0 0 0 1 0 0 0
POINTS 206
DATA ascii
0.01469907 -0.15352362 1.863 -0.2524250448 0.8050923347 0.5367569327
-0.2354376 -0.34530848 2.9840002 0.7152667642 0.6433833838 0.2728576958
-0.43155056 0.024543159 2.3330002 -0.2341989726 0.8431996107 0.4839062691
0.0014728 0.47865999 1.6800001 0.04384762049 0.3358370662 0.9408989549
0.49198884 -0.49198884 1.572 0.3269098103 -0.05008369312 0.9437274933
0.35262513 0.14644541 2.1980002 0.1400556713 0.9133021832 0.3824442327
0.22209577 -0.026709229 1.3724 0.04574002326 -0.2168218791 0.9751390219
-0.16597179 0.095700689 1.5500001 0.6199718118 -0.3159062266 0.7182187438
-0.30561125 0.29548049 1.9260001 0.3359532654 0.8948979974 0.2937567234
-0.46173593 -0.16811924 2.7010002 -0.1573432833 0.8320525289 0.5319132805
0.3281416 0.33301499 1.853 0.6377424598 0.5771285892 -0.5101050735
-0.26395524 -0.28160918 1.6240002 0.4809770882 0.4585838914 0.7472361326
0.13510923 -0.4948982 1.7316669 0.369502008 0.1254113317 0.9207280874
0.4138568 -0.1340248 1.6800001 0.4278317392 0.3905704319 0.8151164055
0.036691129 0.33196735 1.9930001 -0.4078986347 -0.4603976309 0.7884495854
0.14508834 0.010156184 1.6550001 -0.1482557803 0.8326026201 0.5336601138
0.073669456 0.1712109 1.4640001 0.08603332937 -0.724545002 0.6838368177
-0.098585546 -0.38964763 1.7850001 -0.2223328203 0.8193492293 0.5284268856
-0.22583722 0.16984452 2.1290002 0.2338388115 0.9554379582 0.180160284
0.22377355 -0.26445964 1.7850001 0.4337888062 0.01543249097 0.9008824229
-0.16068511 -0.082595147 1.7130001 -0.6566008329 0.5076060891 0.5578632951
-0.49877161 -0.33334985 2.8590002 0.7099613547 0.6359950304 0.3024321795
-0.10672978 0.20196559 1.8730001 -0.1075509861 -0.2285870612 0.9675643444
0.33433962 -0.34567311 1.6159997 0.552180469 0.1441275924 0.8211723566
0.13594627 0.22786269 1.8329999 0.05913002044 0.7847366333 -0.6170024276
0.23552151 0.27403772 2.0780001 0.0414034389 0.9320065379 0.3600688279
0.33443078 -0.14426427 1.4960001 -0.0121344123 0.8531414866 0.521538496
0.37608054 -0.49584913 1.7382002 -0.005158136133 0.4182835817 0.9083018303
-0.060446166 -0.29186863 1.9700001 0.8722129464 -0.08025958389 0.4824965894
0.20821096 -0.077880435 1.8130001 -0.01823292673 0.7767426372 0.6295541525
0.076349773 -0.36225533 1.853 0.2792728543 -0.4139669836 0.8663936853
-0.012385546 0.31428322 1.7659999 0.2579238117 0.5239676237 0.8117470145
-0.034337278 0.01001504 1.6320001 -0.07618324459 0.7613150477 0.6438909173
-0.1518755 -0.20196208 1.8430001 -0.1955765188 0.817525804 0.5416653752
-0.39393017 0.18872003 2.0900002 -0.25372082 0.8772087693 0.4075911343
0.3137064 0.0191464 1.6800001 -0.1643356532 0.7333934903 0.6596421599
-0.28047022 -0.0028474133 1.6240001 0.4808007777 0.3871773183 0.7867174745
0.22454502 0.11023119 1.5523334 -0.5394210219 0.5480030179 0.6393103004
-0.33362079 -0.27548987 2.8830001 0.6560682058 0.6627822518 0.3609628975
0.044439986 -0.056699295 1.748 0.03040380962 0.8753018379 0.4826202393
0.48024237 -0.35256463 1.6550001 -0.5921503901 -0.5071709752 0.6262072325
-0.47037551 -0.055843666 2.45 -0.1614143103 0.829344511 0.5349141359
0.20766713 -0.37537932 1.6880001 0.5328789949 -0.3700240254 0.7610008121
0.024761448 -0.49357823 1.883 0.5958358049 0.5528176427 0.5825567842
0.021004057 0.431391 1.8430001 -0.9826716781 0.1409781277 0.1203391105
-0.034286182 0.08674591 1.4960002 -0.01943904534 0.6686211824 0.7433490753
-0.13876933 -0.30707529 1.684 -0.3626931608 0.5228129029 0.7714404464
0.32111949 -0.23233069 1.6880001 0.3745484054 -0.8980444074 0.2307157815
0.083857119 0.067083843 1.5511667 0.1004501656 0.929184258 0.3557054698
0.14214054 -0.18275213 1.853 0.5164424181 -0.4726244807 0.7140821815
0.15197894 0.28150642 1.9700001 -0.3183698356 0.9250836372 -0.2070288211
-0.28399616 -0.1076196 1.705 0.1297887117 0.774736464 0.6188200712
-0.15798235 -0.01269501 1.6090001 -0.2746296823 0.8120681047 0.5149018168
0.2548421 -0.48797649 1.6960001 -0.1325586587 0.7519162893 0.6457941532
-0.21767808 0.24854289 1.853 -0.1419757307 0.6954696178 0.704389751
0.16675252 0.043279279 1.452 0.4748288393 -0.6272337437 0.6173454523
-0.06383536 -0.11054417 1.7760001 -0.09055598825 0.8492564559 0.5201568007
-0.4633157 -0.26925677 2.7670002 -0.1573432833 0.8320525289 0.5319132805
0.0048733898 0.23229825 1.853 0.5177518725 0.6458079815 0.5611284375
-0.31475842 0.27720201 2.0400002 -0.303058207 0.9056933522 0.2964375615
-0.034666032 -0.37472329 1.8830001 0.7773227692 -0.2198659629 0.5894304514
0.28043163 -0.13944961 1.748 0.7444440722 -0.2493182421 0.619389534
0.014856869 -0.26671621 1.8830003 0.1964511424 -0.4683907628 0.8614041209
0.23421729 -0.1081982 1.452 -0.1088229865 0.7848213911 0.6100925207
0.40950415 -0.44111499 1.6390001 0.909476161 0.009768936783 0.4156413376
0.4171674 -0.26342371 1.6390001 0.3673452139 -0.05805238709 0.9282711744
0.12168396 -0.38507584 1.7570001 0.6992419958 -0.3589640856 0.6182276607
0.23719881 0.0098248031 1.6010001 -0.4529088438 0.6101636291 0.6500568986
0.24558589 0.26658994 1.8430001 -0.2131844014 0.6452583671 -0.7336171269
0.378187 -0.17936073 1.5860001 0.006073463708 0.9520406127 0.3059113622
-0.023859361 0.37615314 1.6800001 0.3112727404 0.6470838189 0.695982635
-0.4842689 -0.10787033 2.618 -0.1573432833 0.8320525289 0.5319132805
0.05630409 -0.45389277 1.794 0.904881537 0.06008689851 0.4214011729
0.3219234 -0.047749404 1.7570001 0.6166598797 0.705082953 0.3501264751
0.14526531 -0.052487161 1.7390002 -0.1293491274 0.7771764994 0.6158453822
-0.20281333 -0.15481934 1.766 -0.08995833993 0.8024631143 0.5898817182
0.13493066 -0.28561464 1.8230001 0.537776351 -0.1068661883 0.8362871408
-0.26032528 -0.34120303 2.8830001 0.7152667642 0.6433833838 0.2728576958
-0.075112797 -0.22200005 1.9039999 -0.1803380549 0.9034388661 0.3889427185
-0.15211219 0.23187833 2.1160002 0.294793427 0.9468377829 0.1288216859
0.10384058 -0.10437039 1.8130001 -0.1661708504 0.8400217891 0.516479075
-0.077103704 0.15826552 1.5430001 0.5350347161 -0.6929529309 0.4832743406
-0.066907197 -0.052038934 1.6960001 -0.1810544133 0.7715017796 0.6099215746
0.24651584 -0.288147 1.6960001 0.6801236272 -0.3775261045 0.6284154058
-0.094717443 0.035589539 1.5530001 0.07652170956 0.8069112301 0.5856950283
0.054201674 -0.00585964 1.6710001 -0.1475781053 0.8235298395 0.5477401614
0.35548481 -0.063479431 1.6710001 -0.1704174578 -0.3638712168 0.9157268405
0.32219517 -0.42716372 1.6630001 -0.1585318595 0.7632271051 0.6263800859
0.072189115 -0.20313682 1.9150001 0.7164754868 -0.2794466019 0.6391967535
0.025182249 0.37605494 1.9150001 -0.9987304807 0.03225497156 0.03869171068
0.21508491 -0.1660582 1.804 0.705932498 -0.427048713 0.5650563836
-0.22488689 -0.065289758 1.655 -0.1600697488 0.58531636 0.7948474288
-0.2418548 0.2473515 2.0900002 0.1598534435 0.9369319677 0.3108140826
0.16142911 0.12313864 1.489 -0.3117333949 0.5475712419 0.776522994
-0.0051521701 -0.22497809 1.9590001 0.1019160375 -0.2446058691 0.9642515779
0.22816828 0.19663283 2.1160002 0.7739899755 0.5763937831 -0.2621253431
0.30653176 0.30367032 2.0400002 -0.2082215697 0.8975884318 0.3885599375
0.16516137 0.04777395 1.557 0.1452067345 0.8864019513 0.4395526946
-0.0013711067 0.050730947 1.5640001 -0.2710594535 0.8837044835 0.3815667331
0.47511828 -0.40944016 1.5940001 0.3247498572 -0.373231709 0.869042933
-0.22397272 0.044019364 1.5790001 0.6091169119 -0.0396781452 0.7920872569
-0.00780058 0.16381218 1.483 0.3239163756 -0.4441959858 0.8353251219
0.17929237 -0.32793647 1.748 0.6597884893 -0.6194101572 0.4254529476
-0.064627871 -0.16964816 1.8430001 -0.2641012669 0.5153826475 0.8152492046
-0.16454858 -0.37287614 1.7220001 -0.1474649608 0.7805774808 0.6074149013
-0.23417521 -0.32843441 1.6800001 0.1829138547 0.8422244787 0.5071492791
-0.18822822 -0.2686922 1.6390001 -0.6594516039 -0.2372197956 0.713337481
-0.1283177 -0.1533553 1.7850001 -0.4459010959 0.6073150635 0.6575261354
0.27430201 -0.21607028 1.748 0.3991634548 -0.04813974351 0.9156151414
0.044304211 0.10423951 1.4863751 0.05694169179 0.7575888038 0.6502436399
0.024117976 -0.10635632 1.804 -0.2351551801 0.6794093847 0.6950575113
0.01462017 -0.42398494 1.853 0.3590936661 0.06123612821 0.9312904477
0.40695709 -0.35406169 1.6370001 -0.320427686 -0.3468565047 0.8814854622
-0.2776491 0.32501277 1.863 -0.3388227522 0.09219254553 0.9363224506
0.27131519 -0.35546643 1.6550001 0.6683481336 -0.04158302397 0.7426854372
0.18743746 -0.44482765 1.7050002 0.4164166749 0.04689610377 0.9079636335
0.083584905 0.032583948 1.6160001 0.02687063068 0.8057431579 0.5916552544
0.30150318 -0.086682171 1.4330001 -0.2736725211 0.6416839361 0.71648103
0.25358811 0.089251682 1.6160001 -0.7605056167 0.2523758709 0.5982789397
0.17210807 -0.02638153 1.4330001 0.5460255146 -0.1846889406 0.8171573281
0.34542534 -0.27261564 1.6330001 -0.2861914635 -0.7472882867 0.5997121334
0.19272113 -0.12739193 1.863 0.4095256925 -0.02310566232 0.9120059609
-0.10426779 0.095608875 1.5089999 0.3688885868 0.1162606999 0.9221738577
0.08236146 -0.25595048 1.863 0.711969018 -0.3053620756 0.6323401928
0.083741829 -0.13956971 1.8730001 -0.06993040442 0.8274532557 0.5571631789
0.37481153 -0.19538562 1.6550001 0.3434194028 0.3356204331 0.8771670461
0.11124725 0.2523818 1.8940001 -0.3861127496 0.8818219304 -0.2707527578
-0.30909601 -0.045412213 1.6710001 0.7283626795 0.3078544736 0.6121383905
0.2580477 -0.018952657 1.6630001 -0.1784273982 0.8210844398 0.5422028899
-0.13037699 -0.02783329 1.6710001 -0.252633363 0.8003852963 0.5436540246
0.25396213 -0.42442438 1.6710002 0.4384715855 0.1713174582 0.8822658658
-0.038390987 -0.30378956 1.904 0.793182373 -0.3435297608 0.5028409958
0.033027541 0.27208403 1.794 0.04138544947 0.8665850163 0.4973104298
0.33631125 -0.16890298 1.705 0.7920123935 -0.1115991324 0.6002182961
-0.0044604801 -0.026762879 1.6960001 -0.2220698893 0.8517223001 0.4746094644
0.014699068 -0.3348121 1.863 0.3996556997 -0.3851958215 0.8318049312
0.17642303 -0.22331025 1.813 0.4198178947 0.04904355481 0.9062823057
0.43532726 -0.49505192 1.6055714 0.6002134085 -0.02819767222 0.7993426919
0.13297951 -0.35231626 1.8130001 0.4347227216 -0.5700219274 0.6972023249
0.31588796 -0.47590768 1.7220001 -0.00463013025 0.374588728 0.9271795154
0.20994063 -0.052102052 1.748 -0.1371565312 0.8639060855 0.4846177101
-0.044830978 0.2241549 1.8940001 0.03979711607 -0.2787708938 0.9595326781
0.39406079 -0.4951396 1.6710001 0.9892709851 -0.002954741241 0.1460624486
-0.21474738 -0.11713494 1.7130002 -0.1410221308 0.7457819581 0.6510929465
-0.15708435 0.24356283 1.8730001 -0.1821163446 0.4140672982 0.8918418884
-0.01494366 -0.20090921 1.8940001 -0.4199741483 0.7360450029 0.5309043527
0.016519031 0.33488578 1.7130001 0.1038502157 0.7889112234 0.6056684256
-0.016769757 -0.071652599 1.739 -0.3361280859 0.7106781602 0.6180246472
0.18287967 -0.019328747 1.6960001 0.1628314555 0.8809127808 0.444385618
-0.094918452 0.0042500799 1.6160001 -0.1851775646 0.910964489 0.3685823977
0.18356435 0.26478752 1.853 -0.2751596868 0.005668140016 -0.9613818526
0.28552529 -0.29491043 1.6470002 0.329002738 -0.1608452052 0.930529952
0.10491947 0.087870054 1.4960001 0.0519477874 0.8007377982 0.5967582464
0.10463016 -0.019431317 1.705 -0.02688522823 0.8232895136 0.5669845939
0.096542038 -0.44593227 1.748 0.7150094509 -0.05359494314 0.697057426
0.29185987 0.032745253 1.6240001 -0.721193552 0.1889849007 0.6664566994
-0.16590391 0.031535454 1.5640001 0.003602254204 0.6718708873 0.7406595349
-0.43685088 -0.23632917 2.723 -0.1573432833 0.8320525289 0.5319132805
0.02566354 0.44231865 1.7220001 0.1325051636 -0.4792930782 0.8675946593
0.082238346 -0.40012118 1.8040001 0.6733208299 -0.7157983184 0.1851266026
0.20488356 -0.076020151 1.41 0.1561811864 0.721799016 0.6742503643
-0.29365474 0.26686978 1.8630002 0.1589093059 -0.570454061 0.8058101535
0.27688178 0.32402763 1.8230001 -0.4547890723 0.1621119529 -0.8757206202
0.25145957 -0.118613 1.8040001 0.513024807 -0.6044427752 0.6094706655
-0.1048695 -0.086635992 1.7336669 -0.2347179502 0.7737860084 0.5883559585
0.025341978 0.022494566 1.6240002 0.03628082573 0.8416188359 0.5388519168
0.28228053 0.3549141 1.883 -0.001121768495 0.9754070044 -0.2204085439
-0.066191837 -0.34453702 1.9360001 0.8989632726 0.1423931122 0.4142332971
0.36340287 -0.39917088 1.6320001 -0.276861012 0.6703010798 0.6885088682
0.2731218 -0.1333012 1.4878002 -0.07570959628 0.832154572 0.5493513346
0.18566889 -0.30712861 1.8040001 0.6177246571 -0.5987336636 0.5098374486
0.35723728 -0.010463017 1.705 0.8735846281 -0.4376423657 0.2128828317
-0.21580961 -0.023139322 1.6160001 -0.001382867107 0.657438755 0.7535067201
0.29445919 -0.035374962 1.705 -0.3471970558 0.7588950396 0.5509378314
0.060105141 0.24854289 1.853 -0.09337536991 0.9617571831 0.2574959695
-0.06200444 0.14554726 1.4890001 0.523278594 -0.4203970432 0.7412461638
0.30628103 0.1655059 2.1700001 0.4391016066 0.8894224167 0.1269550771
0.36246881 -0.44766763 1.705 -0.03783364221 0.6521835327 0.757116437
0.095987983 -0.07276509 1.766 0.02744401991 0.7614708543 0.6476179361
0.011177207 0.41744444 1.6630001 -0.363337189 -0.06837859005 0.9291450381
0.26216891 -0.057849478 1.404 -0.3576512933 0.5449495316 0.7583637238
0.054635618 -0.49493447 1.8330001 0.9138843417 0.2139781862 0.3450054526
-0.091021672 -0.24558677 1.9590001 -0.3507521749 0.6839460731 0.6396800876
0.20062692 0.014770079 1.404 0.3351803124 -0.1891431957 0.9229729176
0.15570126 -0.084403716 1.794 -0.2126692384 0.8510208726 0.4801408947
0.11375802 0.127818 1.4580001 -0.2535361946 0.1984874457 0.9467428923
0.16492599 -0.38533047 1.7220001 0.6211773753 -0.2802873552 0.7318317294
-0.25284821 -0.13944961 1.748 0.08628530055 0.8224992156 0.5621832013
-0.024611715 -0.13712242 1.8230002 -0.1687825471 0.8036296964 0.5706940889
0.13442434 -0.12548979 1.8529999 0.06583783776 0.6087812185 0.7906015515
0.43961763 -0.31484172 1.6550001 -0.03181161731 0.03595222533 0.9988470674
0.14580852 0.034514803 1.6070001 0.2539367974 0.9394154549 0.2302491665
0.082828343 -0.49464777 1.766 0.8142309785 -0.03061261587 0.5797334313
-0.16212931 -0.12473844 1.7479999 -0.4228373766 0.6005983949 0.6785942316
0.087570749 -0.30536667 1.8430001 0.4392083287 -0.04235139862 0.8973864317
-0.046680748 0.054311249 1.5360001 -0.06192518026 0.8359431624 0.5453112125
0.35846463 -0.15556012 1.5430001 -0.06496263295 0.8742130399 0.4811771214
-0.10671663 -0.36588562 1.7390001 -0.3601920009 0.7744629979 0.5200661421
0.1782351 0.076572448 1.506 0.2647458911 0.7267856002 0.6337919831
0.023791157 0.075111225 1.5246003 -0.173693493 0.8351376653 0.5218961835
-0.17725411 -0.051271848 1.6710001 -0.5238453746 0.6959477663 0.4911646843
-0.23658778 -0.23800446 1.6160001 0.04357174039 -0.308657378 0.9501748085
0.38647589 -0.30465657 1.647 -0.5944488645 -0.4909371734 0.6368761659
-0.055615734 0.026417473 1.5860001 -0.2131791264 0.9071475863 0.362819463
0.34268373 -0.080009863 1.7220001 0.8335422277 -0.1630313694 0.527852416
0.12694746 -0.22818406 1.8330001 0.6973494887 -0.25397861 0.6702227592
