# .PCD v0.7 - Point Cloud Data file format
VERSION 0.7
FIELDS x y z normal_x normal_y normal_z
SIZE 4 4 4 4 4 4
TYPE F F F F F F
COUNT 1 1 1 1 1 1
WIDTH 206
HEIGHT 1
VIEWPOINT 0 0 0 1 0 0 0
POINTS 206
DATA ascii
0.14626481 -0.05190042 1.794 -0.1154048815 0.8870070577 0.4471019804
0.42486072 -0.49176791 3.8160002 -0.2548258007 0.8540685773 0.4534652233
-0.3715322 -0.25274301 2.8830001 -0.2523990571 0.8625484109 0.4385258555
0.48408273 0.12665407 2.6590002 -0.2194161266 0.8706520796 0.4402516186
-0.12767598 0.14415029 2.3490002 -0.05884695053 -0.9852950573 0.1604080051
0.31508979 -0.22425309 3.2380002 -0.2218047678 0.8603883982 0.4588402808
-0.16418815 0.41524941 1.6960001 -0.5049368739 -0.3437441587 0.7917567492
-0.15170892 -0.49803433 1.748 0.3420984447 0.5096859336 0.7894231677
-0.42660177 -0.49672809 3.3330002 -0.2595168352 0.8536483049 0.4515922368
0.27771923 0.39548624 2.0050001 -0.753682375 -0.5746510029 0.3189657331
0.23042744 -0.47621673 1.9470001 -0.8388044238 0.2040257156 0.5047580004
-0.33220845 0.20565285 2.0050001 -0.7938659787 0.5587384105 -0.2399754077
-0.0026624366 -0.22630711 3.0370002 -0.31004408 0.8331717849 0.4579273462
-0.19452532 -0.14708012 1.8040003 0.9842766523 -0.03259843215 0.1735997349
0.23239382 0.159904 2.4320002 -0.2142804563 0.8770363331 0.4299897254
-0.1046633 0.1040991 1.6089997 -0.6684356928 -0.329774797 0.6666650772
0.00292193 -0.36524126 3.3330002 -0.3219899833 0.7863084078 0.5272964239
0.49532366 -0.34171063 3.5760002 -0.2599212527 0.8550205231 0.4487547576
0.22418033 -0.38387042 3.5030003 -0.2617315352 0.863263905 0.4315924346
0.021345956 -0.30705339 1.8730001 -0.4940639436 -0.25951159 0.8297918439
-0.22780007 -0.37404209 3.2080002 -0.2433991581 0.8504745364 0.4663152993
0.31237298 0.28093922 2.2410002 -0.2423100621 0.8688414097 0.431741178
0.13484958 0.094125226 1.6068181 -0.3654344678 -0.4171038866 0.8321550488
0.49854717 -0.23304868 3.3650002 -0.3311592638 0.859043479 0.3903560638
0.20666452 -0.25876483 1.9810001 -0.6446322203 -0.5191025138 0.5612324476
0.32305866 0.055855941 1.7220001 -0.4537512064 0.4818576276 0.749615252
0.49526671 0.22708735 2.467 -0.2434330136 0.8693474531 0.4300876558
-0.14589049 0.31287357 2.0050001 -0.6966151595 0.7164808512 -0.03718236834
-0.041631147 -0.066907197 1.6960001 -0.3304785192 0.8842360973 0.3300158381
0.066243559 -0.49601883 1.8430002 -0.2749017775 -0.01027717907 0.961417377
-0.12412548 -0.31376165 1.748 -0.4199625254 -0.4764118493 0.7724397779
-0.00492599 -0.12533908 1.8730001 -0.335732013 0.851441741 0.4029031992
-0.27955586 -0.25293148 3.0370002 -0.2523990571 0.8625484109 0.4385258555
0.047809891 -0.23904946 3.2080002 -0.3335831463 0.8336606026 0.4401502311
-0.4512291 -0.3404009 3.0100002 -0.2553402781 0.8595952988 0.442602843
0.34565562 -0.29499921 3.3990002 -0.252491802 0.8704111576 0.4226491451
-0.14711957 0.25796705 1.6550001 0.185459137 -0.3134199977 0.9313285351
0.2045351 -0.30388072 3.3330002 -0.2459809482 0.8429314494 0.4784975648
0.24203013 -0.10181957 1.904 0.00841553323 0.7850010991 0.6194372177
-0.15510687 0.39261428 1.8430001 -0.966396451 -0.2555501759 0.02778500691
0.014119418 0.016334228 1.5790001 -0.2411167324 0.6714286208 0.7007469535
0.15400273 -0.3640441 1.8940001 -0.3847712576 -0.2911584973 0.8758868575
0.37868842 -0.43371153 3.6920002 -0.2550481558 0.8536760807 0.4540787935
0.11506513 -0.14941293 1.9590001 -0.06145078689 0.8598945141 0.5067595243
-0.02880376 -0.4157083 1.7760001 -0.7042707205 -0.2365351617 0.6693682671
-0.12435736 0.085428104 2.467 -0.250764519 0.8665333986 0.4315519035
-0.085167289 -0.22175634 1.8330001 -0.1671466082 -0.8408628702 0.5147928596
0.08339154 -0.012881489 1.6857144 -0.356146872 0.7788193226 0.5163331032
0.36679032 -0.37619519 3.5760002 -0.252098918 0.8554816842 0.4523242116
-0.10502993 -0.35483083 3.2380002 -0.3030395806 0.8458260894 0.4390276372
-0.11039513 -0.034935165 1.5940001 -0.4287967682 0.6676684022 0.6085657477
0.27518216 -0.032420889 1.8040001 -0.09929822385 0.8203226328 0.5632145405
0.20428996 0.027654979 1.6960001 -0.09516863525 0.7875424623 0.6088676453
0.45604199 -0.29490715 3.4680002 -0.2652436495 0.8531960845 0.4491127729
0.43273932 -0.20920511 3.2690001 -0.250842303 0.8324552178 0.494061172
-0.022960776 0.10227982 2.381 -0.0668027997 -0.8770530224 0.4757261574
-0.15167473 -0.094608992 1.7130001 0.2725309134 0.8405936956 0.4681123197
0.035810083 -0.071101166 1.7760001 -0.1772196889 0.9139115214 0.3651834428
0.10637298 -0.25495747 1.9260004 -0.1308512241 -0.3199673891 0.9383490086
0.48549801 -0.40458167 3.6920002 -0.2745375633 0.8536838293 0.4425529242
-0.030366857 -0.2843442 3.1490002 -0.3643469214 0.8364229798 0.4094482958
0.11176711 -0.30091146 3.2690001 -0.2901409566 0.8176187277 0.4973106682
-0.084927961 -0.12188735 1.794 -0.3815210164 0.8652059436 0.3253619671
0.44329438 0.17375359 2.5410001 -0.2142804563 0.8770363331 0.4299897254
0.23322156 -0.3548128 1.959 -0.781535387 -0.2068578303 0.5885679722
-0.19253792 -0.38815644 1.7570001 0.6536703706 0.05117692426 0.7550470233
0.09523581 -0.1001618 1.8730001 -0.02919595502 0.8900443912 0.4549379647
0.064535499 -0.39503995 1.8530002 -0.3373829722 -0.2726012468 0.9010334611
0.008394083 -0.21824616 1.9150001 -0.4556485713 -0.6253370643 0.6335123777
0.15572201 -0.46166348 1.883 -0.4800293446 -0.1374090314 0.8664240241
-0.19263949 -0.24660508 1.7659999 0.161698088 -0.7271763086 0.6671344638
0.094399467 -0.35399801 3.3650002 -0.2811352015 0.7908080816 0.5436778069
-0.047445197 -0.32420886 1.804 -0.6287540197 -0.3233010769 0.7072091699
-0.11808261 -0.41702595 1.705 -0.3999990523 -0.2095033824 0.892249465
-0.057312258 -0.49374357 1.7479999 -0.57453233 0.06780474633 0.8156685233
0.25607783 0.093485981 1.686 -0.5624713898 -0.04158831015 0.8257701993
-0.14246184 0.33586502 1.6840001 -0.5687818527 -0.3431602418 0.7474812865
0.056754522 0.092745192 1.5790001 -0.2551468015 -0.3165337145 0.9136227369
0.37400705 -0.25420791 3.3330002 -0.184204936 0.8965454698 0.402833432
-0.11756962 0.18496279 1.6355001 -0.8960909247 -0.2913191915 0.3348942399
-0.065678112 0.032140352 1.5940001 0.3183625042 -0.6472379565 0.6926242113
0.22944383 -0.34267583 3.3990002 -0.2619952261 0.8617646098 0.4344194233
-0.029897841 -0.032745253 1.6240001 -0.3403961658 0.8643086553 0.3702715337
0.20842487 -0.059780777 1.8430001 -0.1909792721 0.855279386 0.4816887379
0.42610997 -0.2711609 3.3990002 -0.2482513636 0.8775991201 0.4101110399
-0.0026358443 -0.4929029 1.8040003 -0.6410326362 -0.1657021642 0.7494130731
0.036490373 -0.14171843 1.9360001 -0.200418368 0.8594852686 0.4702314138
0.16608274 -0.11433838 1.904 -0.02161037736 0.8700679541 0.4924578667
0.080751516 0.029750559 1.6160001 -0.3348424435 0.7838639617 0.5229128003
0.2074579 -0.017030127 1.766 -0.09404201061 0.8656788468 0.4916871786
0.17053445 -0.29548049 1.9260001 -0.2934587896 -0.1150637567 0.9490217566
0.20649445 -0.4129889 1.9150001 -0.8035194278 -0.1377434134 0.5791228414
-0.017869096 -0.24691842 1.853 -0.6904572845 -0.402276665 0.6012006402
-0.2952964 -0.34591863 3.2080002 -0.2567482889 0.8549801111 0.4506543577
0.14412108 0.032886688 1.6550001 -0.310620755 0.790458262 0.5279114246
0.19492245 0.085188329 1.6470002 -0.5479308963 0.04045430571 0.8355448246
0.088001549 -0.33374175 1.8940001 -0.3416953385 -0.1734400094 0.9236681461
0.14643314 -0.0075480998 1.7220001 -0.2423277497 0.8263810873 0.5083025694
-0.084331609 -0.37390867 1.7570001 -0.5252787471 -0.3121561706 0.7916064262
0.26534313 0.014082553 1.7370002 -0.3033924401 0.7770339847 0.5515171885
-0.0043616672 -0.37349644 1.8330001 -0.6757764816 -0.3370873034 0.6555137634
-0.10736537 -0.071093284 1.6550001 -0.2083714604 0.7964712381 0.5676397085
0.49470299 -0.196724 3.3000002 -0.2946617901 0.8637713194 0.4087462723
0.0028123467 -0.30092108 3.2080002 -0.3632099032 0.8278964162 0.4273945391
0.20920511 -0.27798486 3.2690001 -0.202682063 0.8330119848 0.5147921443
-0.19308409 -0.31414473 1.748 0.4713405371 -0.08125279844 0.8782004714
0.025410181 -0.043944668 1.7050002 -0.2785765529 0.8896872401 0.3617342412
-0.032512061 -0.088247016 1.766 -0.3948451281 0.8637878895 0.3129980266
-0.10743024 -0.25378448 1.7760001 -0.5479101539 -0.5228204131 0.6530339122
0.44121143 -0.24836405 3.3330002 -0.2891299725 0.8716834188 0.3956916928
0.095009625 -0.042141367 1.748 -0.2061697841 0.8799163103 0.4280669391
0.32229072 0.0062278397 1.7760001 -0.3952887952 0.6998940706 0.5948907733
0.15666531 -0.21606998 1.9930001 -0.4424501359 -0.7427762151 0.5025150776
0.32477081 0.25618568 2.3010001 -0.2423100621 0.8688414097 0.431741178
-0.013526967 0.063576743 1.5430001 -0.2781069875 -0.1808152944 0.9433781505
-0.1433627 -0.13345425 1.766 -0.07149446011 0.8925304413 0.4452841878
0.020776123 -0.43629858 1.8230001 -0.675845325 -0.2614527941 0.6891121268
0.033209011 -0.01010709 1.647 -0.3652063012 0.8396391869 0.4020328522
-0.063354068 -0.13807938 1.853 -0.3298970461 0.8101449013 0.4845958948
-0.083968885 -0.09762647 1.7310001 -0.3190935254 0.8410604 0.4368028939
0.044994041 -0.094808869 1.8330001 -0.1687940359 0.8774027228 0.449080199
0.321123 -0.25169098 3.3000002 -0.2194891423 0.8727318645 0.436077565
0.068436109 -0.20864667 1.904 -0.1833646297 -0.3571277559 0.9158805609
0.20256962 -0.49978241 1.8940001 -0.6914117336 0.1034249365 0.7150196433
-0.14522544 -0.36502612 1.7220001 -0.160090521 -0.2400380075 0.957472086
0.10526522 -0.44607767 1.853 -0.3355222046 -0.341824919 0.8778271675
0.36682537 -0.22353421 3.2690001 -0.1970504373 0.8607968092 0.4692547023
-0.10637254 -0.47529754 1.7129999 -0.2403035015 -0.03702580929 0.9699913859
-0.077783123 0.086192116 2.398 -0.08559553325 -0.9798401594 0.1805176437
0.42205188 -0.44168219 3.7320001 -0.2565925717 0.8541013598 0.4524059594
0.17345639 -0.13567381 1.9590001 -0.1155238375 0.9143626094 0.3880660236
0.15432401 -0.086638041 1.853 -0.004767306615 0.8703384995 0.4924308658
-0.17188101 -0.4349862 1.7220001 0.5391024351 -0.02083281241 0.8419824839
0.090145878 -0.071167797 1.8040001 -0.2525033951 0.8900309205 0.3795879483
0.045510836 -0.21209766 1.9590001 0.02033117414 -0.884224534 0.4666193724
-0.068603553 -0.43448916 1.7390001 -0.6369169354 -0.141962111 0.7577490211
0.052302811 -0.26483485 1.8940001 -0.3704534769 -0.410648644 0.8331457973
-0.058012977 -0.26622394 1.8130001 -0.6992456317 -0.2977803051 0.6499095559
-0.0055628885 -0.10092669 1.8130001 -0.3912522495 0.8201416731 0.4174797833
0.26153859 -0.066602997 1.853 -0.02017362602 0.8545758724 0.5189345479
0.16385952 -0.24578927 1.9470001 -0.4642731547 -0.6258685589 0.6266889572
-0.17995775 -0.19560625 1.7850002 0.8877651691 -0.08277119696 0.452793479
-0.11877956 0.02515332 1.5940001 0.2092655301 -0.3535138369 0.9117214084
0.11367766 -0.24741608 3.2690001 -0.2904061079 0.8202500939 0.4928022325
-0.041269083 -0.20964694 1.8830001 -0.5302429199 -0.6332662702 0.5637519956
0.11840917 -0.49568528 1.863 -0.3945963383 0.138346687 0.9083798528
0.18703437 -0.34385812 1.9360001 -0.4519842565 -0.07698948681 0.8886972666
0.11390267 -0.40443695 1.8830003 -0.05032566935 -0.3159714639 0.9474330544
0.21708459 -0.31086513 1.9810001 -0.8034816384 -0.2238351107 0.5516476035
0.27034208 0.15787977 2.467 -0.2142804563 0.8770363331 0.4299897254
0.085619643 -0.12792583 1.9150002 -0.110234797 0.8523694873 0.5111893415
0.04457061 -0.1172042 1.883 -0.20944269 0.8949679732 0.3939112425
0.48474583 -0.37385625 3.6140001 -0.2703244388 0.851955533 0.4484377801
0.033889525 -0.35481918 1.863 -0.4444602132 -0.3860096335 0.8083635569
-0.035294224 0.016574634 1.557 0.02225860767 0.5905842185 0.8066689968
0.12518799 -0.29544368 1.9040002 -0.5432835817 -0.2029766887 0.8146431446
-0.15738183 0.30754432 1.6470001 -0.4609669745 -0.2046877593 0.8634884953
0.42349312 -0.46650413 3.7740002 -0.2548258007 0.8540685773 0.4534652233
-0.042463981 -0.37273937 1.794 -0.6106145382 -0.3009128571 0.7325308323
0.24066867 -0.42501062 1.9470001 -0.5858838558 -0.2004877031 0.7852036953
-0.021004057 -0.29405677 1.8430001 -0.6493659019 -0.2144285738 0.7296193242
-0.064280704 -0.017234683 1.594 0.1225397661 0.7317965031 0.6704161763
0.25387564 0.046463337 1.6960001 -0.4268805385 0.5078671575 0.7482271791
-0.15557064 -0.27571431 1.7570001 -0.2319899499 -0.33789289 0.9121453166
-0.085172549 -0.29530954 1.785 -0.7092725635 -0.2902307808 0.6424161792
-0.0045572058 -0.066875644 1.7336668 -0.4468995333 0.8200184107 0.3575620353
0.065913938 -0.31237474 3.2690001 -0.3014176786 0.8165282011 0.4923709035
-0.14469208 -0.23119278 1.794 -0.1260343045 -0.7849193811 0.6066439748
0.054489374 0.045680467 1.5790004 -0.3157913089 0.540338397 0.7799424529
-0.0043736896 -0.036447413 1.6630001 -0.3892235458 0.7790051103 0.4915852547
0.16485466 -0.41249248 1.8940001 -0.3848339617 -0.2405023128 0.8911012411
-0.072966717 -0.047213759 1.6320001 -0.04469476268 0.8363289237 0.54640311
0.12183563 0.049584266 1.6160001 -0.3640243411 0.680256784 0.6361894011
0.22552285 -0.043965884 1.8040001 -0.1536705047 0.8516226411 0.5011229515
-0.01712656 -0.4593032 1.7760001 -0.7709130645 -0.1974997967 0.6055467129
-0.19443853 -0.18158309 1.8330001 0.943162322 -0.06434230506 0.3260442913
-0.12325232 0.14485689 1.6160001 -0.7152428627 -0.2726905346 0.6434807777
0.12510584 0.0052700187 1.6845714 -0.3251151145 0.7804767489 0.5340001583
0.097291589 -0.21677248 1.9470001 -0.2088154405 -0.647954464 0.7324965
0.16558261 -0.028495612 1.7570001 -0.2685266137 0.8003181815 0.5360823274
0.19779705 -0.45484972 1.904 -0.668833375 -0.07716906816 0.7393962741
-0.096770413 0.063232653 1.594 0.1190397143 -0.251925081 0.9603974819
0.28833216 0.082595147 1.7130001 -0.50832057 0.04487835243 0.8599977493
0.18968874 0.00151751 1.7310001 -0.2737191021 0.7817956805 0.5602440238
0.054933682 -0.45401081 1.8430003 -0.2842468619 -0.1260124743 0.9504339099
0.013206107 -0.24926527 1.8830001 -0.2925156653 -0.4993338883 0.815536797
0.016537439 0.078552842 1.572 -0.2408017814 -0.2919472158 0.9256248474
0.091302492 0.067202337 1.5860001 -0.6069450378 0.06978756189 0.7916738391
0.053968124 -0.050919078 1.7390001 -0.2845602036 0.8632957935 0.4168283641
0.19211361 -0.090309814 1.8730001 -0.3048355877 0.8307964206 0.4656743407
0.3701804 -0.30396926 3.4330001 -0.2621115148 0.8607217669 0.4364121556
-0.1624835 0.37380081 1.6880001 -0.5049368739 -0.3437441587 0.7917567492
-0.047681898 -0.11602595 1.8130001 -0.2652031779 0.9063389301 0.3289635777
0.18515289 0.047381639 1.6630001 -0.3921415508 0.7303369045 0.5593147874
0.419485 -0.23433299 3.3000002 -0.2331255674 0.8819788694 0.409592241
0.16514997 0.066914208 1.6240004 -0.5625733137 0.3460506499 0.7508397102
0.093727067 0.01305795 1.6550001 -0.3352588117 0.8064883947 0.4870092273
-0.10556469 -0.092183255 1.6960001 -0.3037575781 0.8388591409 0.4517152607
-0.14356118 -0.083499871 1.6710001 -0.06456957012 0.8885124922 0.4542865753
0.12705398 -0.074314594 1.8230001 -0.1497527212 0.8704183102 0.4689840674
0.48357195 -0.38749805 3.6530001 -0.2740207314 0.8534044027 0.4434112608
0.084188916 -0.37472329 1.8830003 -0.240713954 -0.3527296484 0.9042336941
0.0061390041 -0.0080279289 1.6160001 -0.3859419227 0.8103055358 0.4409691095
-0.09195181 -0.21510155 1.8730001 -0.07138185203 -0.9556219578 0.2858168185
-0.0016244634 -0.33463943 1.853 -0.6444277763 -0.2072632611 0.7360399365
0.12518799 -0.11684213 1.904 -0.1050159186 0.8982278705 0.4268001318
