# .PCD v0.7 - Point Cloud Data file format
VERSION 0.7
FIELDS x y z normal_x normal_y normal_z
SIZE 4 4 4 4 4 4
TYPE F F F F F F
COUNT 1 1 1 1 1 1
WIDTH 206
HEIGHT 1
VIEWPOINT 0 0 0 1 0 0 0
POINTS 206
DATA ascii
0.17263977 -0.32360616 1.705 0.1742330939 -0.04683655873 0.9835899472
-0.17717783 -0.47528657 3.2080002 -0.1595121622 0.7613636851 0.6283957362
0.28736168 0.086876787 2.5410001 -0.2688794434 0.8110193014 0.5195686221
-0.47504812 0.25744545 1.748 0.9649704099 0.1875670552 0.1834412366
0.49691218 -0.25121671 3.1490002 -0.2462239712 0.8387164474 0.4857246876
0.13370481 0.31804678 1.9470001 -0.8466385007 -0.5138719082 0.1383435875
-0.38822743 -0.01393637 2.2710001 -0.6756598353 -0.5749460459 0.4614334404
-0.081036612 0.064164631 1.4580001 0.152714923 -0.3128527105 0.9374440312
-0.22307396 -0.21093388 1.7310001 -0.3644741476 0.7228561044 0.5870584846
-0.041084107 0.44059163 1.6160001 0.7912182212 -0.1741465628 0.5862138867
0.2782093 -0.15288979 2.8590002 -0.2328870744 0.8337711692 0.5005888939
-0.45517933 -0.37931612 2.9840002 -0.1555564851 0.7628690004 0.6275612116
-0.22355001 0.21639639 2.0400002 -0.3332183659 0.8091964722 0.48390764
0.14437647 0.19777599 2.256 0.003713990096 0.9999883175 0.003090549028
-0.089196451 -0.49918714 1.7850001 0.5046272874 0.2861189544 0.8145472407
0.16182798 -0.025152152 1.6240001 -0.3381657898 0.8398954868 0.4245226383
-0.060691632 -0.27707049 3.0100002 -0.12313281 0.7397788763 0.6614873409
-0.37648186 0.01171928 1.6710001 0.9631419182 0.2677960396 0.02535505779
0.1925043 -0.29457638 3.0640001 -0.2102652788 0.849740386 0.4834560454
0.0079908166 -0.14862919 1.8230001 -0.3076350093 0.8506441116 0.4263393879
0.051413868 0.23158991 1.557 -0.4010424316 -0.3585558534 0.842972517
-0.49499229 0.13825648 1.9470001 0.143462494 0.9358929992 0.3217495084
-0.075456448 -0.081151277 1.6240001 -0.2450079024 0.8580152988 0.4514209032
0.48623967 -0.09273643 2.8590002 -0.2739621103 0.8280749321 0.489118278
-0.12524937 0.10598023 2.1980002 0.3198566735 -0.6329836845 0.7049987912
-0.25118604 -0.033225667 1.5160002 0.4090742469 0.2109660506 0.8877789974
0.23821488 -0.12922768 1.7760001 -0.702116847 -0.3149900138 0.6386025548
0.096076041 -0.4953292 1.7346364 0.1688545048 -0.01141978987 0.9855748415
-0.0031296995 -0.33331305 1.785 -0.08485262096 -0.3401573598 0.9365324378
-0.21757464 -0.35725218 3.0640001 -0.1572488397 0.7627801895 0.6272473335
-0.15598968 -0.3004854 1.8730001 0.8939780593 0.297693789 0.3349353373
-0.33000976 0.10139965 2.1030002 -0.3440135717 0.8441458941 0.4111841023
0.30533481 -0.42569295 1.6880001 -0.2955191433 0.6139977574 0.7318983674
0.082237467 0.037855342 1.4890001 -0.5977656841 0.2941898406 0.7457402349
0.33334109 -0.023310568 2.6590002 -0.2150615752 0.8181511164 0.533270359
0.41956389 -0.19790749 3.0100002 -0.2571179271 0.8381396532 0.4810533524
-0.31308922 -0.14308603 1.6160001 0.1510892063 0.8798864484 0.4505239725
0.051502414 -0.34967428 3.0920002 -0.1295324415 0.7355627418 0.6649577022
0.29190895 -0.23535344 1.6800001 -0.1165698096 -0.1833742112 0.9761072397
0.055012587 -0.084749125 1.6960001 -0.1100232452 0.9193509221 0.3777416348
-0.4302417 0.1283177 1.7220001 0.5106922388 0.09846784174 0.854106307
0.1051921 -0.20581065 1.7390002 0.5620862842 -0.2999426425 0.7707745433
-0.099094018 -0.15092781 1.7390001 -0.2940651476 0.8368396163 0.4617630243
-0.2773037 0.048479665 2.2120001 -0.3618711233 -0.5756679177 0.7332501411
0.31172514 -0.27377599 3.0920002 -0.228252098 0.8624802828 0.4516954422
-0.19440018 -0.10652092 1.604 -0.3969043195 0.7187661529 0.5708259344
0.034145165 -0.033754922 1.5760002 -0.1554877907 0.8766132593 0.4553819597
-0.15255578 -0.39475775 1.794 0.5203194022 -0.121567525 0.845274508
-0.12499776 -0.025164193 1.5266001 -0.1374198794 0.8102524281 0.5697427392
0.0055896267 0.33258277 1.594 -0.01408493146 -0.3338558674 0.9425188899
0.1852586 -0.43742442 1.6960001 0.2582864761 0.02015568316 0.9658581018
0.085373312 -0.38570443 1.7390002 0.2175117731 0.02870515175 0.9756355286
0.36238244 -0.10107265 2.812 -0.2155208141 0.8235592246 0.5246913433
-0.053028688 -0.25228801 1.8330001 0.3874065578 -0.8211984038 0.4189861119
-0.0061612134 -0.436676 1.7570001 -0.001708654454 -0.05748004466 0.9983451962
0.075510517 0.13329765 1.5290002 -0.05872095749 -0.5259153247 0.8485074639
-0.14781389 -0.21774735 1.8130001 -0.2984424233 0.8303812146 0.4705307484
0.20328146 -0.19281845 1.705 0.3571749926 -0.3782461882 0.8540233374
0.26478249 -0.33509815 1.6710002 0.2138046324 -0.217067942 0.9524542689
0.15515158 -0.078024209 1.7050002 -0.1612554491 0.8941618204 0.4176976681
-0.025084941 -0.00264315 1.5059999 -0.1024448872 0.8215153813 0.5609077811
0.0281673 -0.23785719 1.7850001 0.4677073956 -0.519521594 0.7150853872
-0.097511634 -0.43462327 3.1780002 -0.1595121622 0.7613636851 0.6283957362
-0.17487466 -0.14563607 1.6848001 -0.4574856162 0.7583010197 0.4644205868
-0.18343519 0.025465121 1.4770001 0.1537462771 0.0377483815 0.9873890281
0.094870321 -0.29547715 1.7479999 0.6349759698 -0.03224644065 0.771858573
-0.14110914 -0.31682995 3.0370002 -0.1555564851 0.7628690004 0.6275612116
0.0064172 0.078289837 1.4640001 -0.06743042171 -0.3622396588 0.9296427369
-0.32349789 -0.077803291 1.557 0.228608951 0.1467874348 0.9623883963
-0.095034175 -0.32449636 1.8040001 0.227069661 -0.2253026962 0.947458744
0.14428765 0.0076652807 1.5430001 -0.1588088423 0.8460225463 0.5089456439
-0.35597312 -0.073245496 1.6710001 -0.3675447106 -0.1924305707 0.9098798633
-0.018294279 -0.12043734 1.7390001 -0.3272400796 0.8508580923 0.4110406935
-0.25635925 -0.16846465 1.6710001 -0.213715151 0.8265320659 0.5207404494
-0.074215084 -0.40221465 1.7760001 0.1494311988 -0.3542758524 0.9231245518
0.062278397 -0.11988592 1.7760001 -0.09104920179 0.8845351934 0.4575014412
0.0035921417 -0.065376982 1.6390001 -0.2273060381 0.9121838808 0.340958178
-0.066423282 -0.17554724 1.8040001 -0.1771958023 0.8250731826 0.5365220308
0.093693994 -0.052691799 1.6370001 -0.07733974606 0.9157866836 0.3941488564
-0.053930193 -0.038848024 1.5640001 -0.1275611669 0.7959272861 0.5918005705
0.21457292 -0.26488659 1.688 0.5106438398 0.02308224887 0.8594824672
0.49778536 -0.2952964 3.2080002 -0.2387070954 0.8489865661 0.4714241326
0.20177974 -0.056991223 1.7570001 0.5983685255 0.5364989638 0.5950831175
-0.18531944 -0.060871348 1.5430001 -0.2267781049 0.7521771789 0.6187092662
-0.24978951 -0.091452986 1.557 -0.1248213872 0.7446259856 0.6557070613
-0.069551229 -0.110986 1.6880001 -0.2961187661 0.8802871108 0.3706861734
0.24201085 -0.40092158 1.6630001 0.1450064182 0.1122272164 0.9830453396
-0.43929943 0.2037987 1.7220001 0.4847382009 -0.2879638076 0.8258969188
0.14767011 -0.25429296 1.7130002 0.6596852541 0.04980311543 0.7498900294
0.24862121 -0.46386039 1.705 -0.251822114 0.6439610124 0.7224263549
-0.16396822 -0.17929237 1.748 -0.376423806 0.8184658885 0.4340722561
-0.13208736 -0.068129271 1.5860001 -0.1990690231 0.8363185525 0.5108255744
-0.3871316 0.070251681 1.705 0.9198544025 0.2033880502 0.3354119956
0.27689344 -0.25293148 3.0370002 -0.2165508121 0.8400806785 0.4973632097
-0.13355798 -0.10756832 1.6470001 -0.230045855 0.8271201253 0.5127876997
-0.18226163 -0.23808952 1.8730001 0.8150631785 0.3990793228 0.4200091958
0.02744142 -0.49242103 1.7390001 0.3435176611 -0.1428405941 0.9282199144
0.16068511 -0.49707264 1.7130001 0.3357502818 0.3957813084 0.8547683358
0.14618328 -0.38414216 1.7050002 0.6119301915 -0.1306145936 0.7800520658
0.32656884 -0.35426888 1.6630001 -0.3939934671 -0.1974685788 0.8976498842
-0.085419394 0.0055782297 1.4860001 -0.1134788468 0.7377480865 0.6654700041
0.12291831 -0.43704289 1.7310001 0.4265331924 -0.02300651185 0.904179275
0.15444079 -0.16632225 1.7374003 0.4966647625 -0.4425801039 0.7466236949
0.2615754 -0.16890298 1.705 0.05129870772 -0.4932512343 0.8683729768
0.075407356 -0.0033664 1.5360001 -0.1864714772 0.816564858 0.5463059545
0.3225432 -0.29014161 1.6800001 -0.5988449454 -0.4125311077 0.6864421368
-0.12810203 -0.45389241 1.8040001 0.6211966276 0.002430340974 0.7836509347
-0.16141449 -0.33721247 1.8230001 0.578215301 -0.02330129221 0.8155514002
0.065723702 -0.18934685 1.7850001 0.2988833487 -0.4816785455 0.823804915
-0.024554433 0.38608351 1.594 -0.4327313006 -0.3221978843 0.841981113
-0.035426978 -0.49443737 1.7570001 0.1410844475 0.005479587242 0.9899824262
0.10167317 -0.10167317 1.7310001 -0.141865328 0.8600829244 0.4900322855
-0.24966852 -0.13118178 1.6090001 -0.334613055 0.7679733038 0.5461236835
0.024771089 -0.38550019 1.7660002 0.1710467488 -0.07762786001 0.9822000265
0.47162914 -0.12491798 2.9080002 -0.2699266076 0.8275215626 0.492288202
0.11540265 -0.022246294 1.5860001 -0.2774742246 0.8375260234 0.4706997573
0.21285641 -0.13284656 1.7220001 -0.1033859625 -0.5641224384 0.8191930056
0.0096897967 0.27546707 1.5790001 0.2244918197 -0.2046916634 0.952735424
0.054105978 -0.4348518 1.7479998 0.4141511619 -0.183234036 0.8915739655
0.025750855 0.024190739 1.4835999 -0.1116944999 0.7312588096 0.6728928685
-0.0073990668 -0.094708055 1.6880001 -0.2509403527 0.8535443544 0.4566081166
-0.045609459 -0.29410237 1.794 0.2167727649 -0.2384079099 0.9466632009
0.054186769 -0.33595797 1.7659999 0.2260358483 -0.1509097964 0.9623585939
0.10299957 0.084393196 1.516 0.1775592566 0.01860374212 0.9839342237
-0.37785998 0.019727631 1.7310001 0.8792660832 0.3390011787 0.3346182108
-0.13304323 0.052437235 1.4830002 0.3725911975 -0.3198662102 0.8711265326
0.29827356 -0.17335558 2.9080002 -0.2392320037 0.8356007934 0.4945091605
-0.30416563 0.095389225 2.0530002 -0.01312035881 0.9886248708 0.1498288065
-0.19560625 -0.21751414 1.7850002 -0.5272052288 0.7164933681 0.4568280578
0.21523219 -0.35539961 1.6843078 0.4346766174 -0.1266011894 0.8916436434
-0.025118755 0.033186089 1.464 -0.1694491059 0.5783860087 0.797970295
0.071042433 0.18899968 1.529 0.3416061401 -0.1108977273 0.9332775474
-0.12049345 -0.17995775 1.7850001 -0.3723018169 0.7675296068 0.5218138099
-0.20065849 -0.022295386 1.4960001 0.2911410928 0.4674548507 0.8346992135
0.12595333 -0.33536971 1.7310001 0.5868526697 -0.1413279921 0.7972642779
-0.054493602 -0.3440882 1.7760001 0.3272615373 -0.2729436159 0.9046555758
-0.48906779 0.16858651 1.904 0.9596526027 0.159284845 0.2317223549
0.084763579 -0.24616274 1.7659999 0.5771906376 -0.08416184038 0.8122608662
-0.12043296 -0.12935393 1.6960001 -0.300709337 0.8564866185 0.419528991
0.1811544 -0.0397656 1.6800001 -0.5436528921 0.6645448208 0.5126613975
-0.21554916 -0.14294313 1.6470002 -0.2870243192 0.8063464761 0.517129004
-0.11988592 -0.2880376 1.7760001 -0.39092049 0.2418185771 0.8880906105
-0.091343403 -0.45052427 1.766 0.5180937052 -0.08145794272 0.8514361382
0.024604876 -0.0072246105 1.5254002 -0.133923158 0.8649802208 0.4836049676
0.10417606 -0.073488519 1.6832001 -0.07283208519 0.926802516 0.368419081
0.2444848 -0.21502879 1.6800002 0.2515902519 -0.14321509 0.9571790695
0.02958224 -0.2880376 1.7760001 0.4883977771 -0.1962367743 0.8502697945
-0.29485971 -0.11416761 1.5774447 0.04225209355 0.6754364967 0.7362067103
-0.053744428 -0.14486666 1.7659999 -0.2478890121 0.79383564 0.5553161502
-0.011125777 -0.22410493 1.8130001 -0.05791703239 -0.4912829399 0.8690723181
-0.014812511 -0.053380929 1.5940001 -0.2448205948 0.8609589934 0.4458839297
-0.02405243 -0.38590527 1.7570001 0.1551664919 -0.1339437515 0.9787657857
0.26514873 -0.28565747 1.6710002 0.2039582282 -0.1187342852 0.9717526436
0.013389856 -0.12798211 1.7760003 -0.1087084636 0.8540778756 0.5086585283
0.28872579 -0.38738585 1.6550001 -0.129973039 0.04551303014 0.9904723763
-0.21484645 -0.17618896 1.6960001 -0.3902478516 0.7934362292 0.467081964
-0.1358601 0.0041169724 1.4829999 0.09952002764 0.480056107 0.8715744019
0.15694524 -0.20477617 1.705 0.6047523022 -0.1070639864 0.7891843915
-0.091655202 -0.2770848 1.8130001 0.2081521302 -0.301551342 0.9304512143
-0.29220352 -0.047129601 1.5359999 0.4421834052 0.0931532234 0.8920741677
0.17303208 -0.0041527702 1.5790001 0.0001655687083 0.9087336659 0.4173764288
0.034583844 -0.10451379 1.7340001 -0.1959407032 0.912681222 0.3586367071
0.12491862 0.037229903 1.5089999 -0.03798988834 0.136747241 0.989877224
0.050909787 0.063316375 1.4640001 -0.5017880797 -0.009603618644 0.8649373055
-0.06809333 -0.017357124 1.5230001 -0.04623978585 0.845734179 0.5315971971
-0.12587617 -0.30478105 1.8330001 0.5955865383 -0.5857228041 0.5497321486
-0.11441684 -0.36566204 1.7939999 0.3877528608 -0.1494408697 0.9095686674
0.045558613 -0.052677147 1.6240001 -0.1720914394 0.9089394212 0.3797547221
-0.47219896 0.21519887 1.766 0.9573433399 0.2548052967 0.1362645775
-0.038931012 0.082567975 1.4640001 0.2152632773 -0.493965596 0.8424130082
0.13551252 -0.052521974 1.6550001 -0.2162034661 0.8594267964 0.4632943273
0.20358041 -0.48458713 1.7050002 0.2263204902 0.1554899514 0.9615622163
0.22395125 -0.096542045 1.748 -0.3741156757 -0.2725638747 0.886423409
-0.32437605 -0.16229168 1.655 0.225843817 0.8677133322 0.4427957833
-0.37438649 -0.034549784 1.6840003 -0.4244196415 -0.2085423023 0.8811231852
0.26835468 -0.28461859 3.0920002 -0.2253882438 0.8447887301 0.485316515
-0.15510687 -0.25689578 1.8430001 0.842974782 0.3738189936 0.3868498802
-0.0050747842 -0.023901599 1.5538182 -0.2269134372 0.8316308856 0.5068533421
0.18882698 -0.39103541 1.6960001 0.4202016294 0.2364116609 0.8760936856
-0.044977382 -0.088503875 1.6550001 -0.264282614 0.8724941611 0.410984993
-0.17470826 -0.12272895 1.647 -0.3762251139 0.8141531944 0.4422772825
-0.0078242496 -0.26758936 1.7850001 0.08951979131 -0.1538544297 0.9840300083
-0.09816584 -0.043631479 1.55525 -0.1747886688 0.8105419278 0.5589908361
0.12333939 -0.17391372 1.7660002 0.6497734189 -0.5579342246 0.5162401795
0.13586581 -0.2943759 1.7220001 0.5860960484 -0.01469570491 0.810108304
0.075459965 -0.03353776 1.5940001 -0.1782936454 0.884162724 0.4318190515
-0.25559655 -0.19356582 1.705 -0.1930876821 0.8025330305 0.5644978881
-0.27492812 -0.15521142 1.6355001 -0.2264714092 0.8226796389 0.5214488506
0.265104 -0.43447602 1.6800002 -0.1551557034 0.6252869964 0.7648156285
0.2253384 -0.3151792 1.6800002 0.4305968285 -0.1089416593 0.8959453702
0.18170933 -0.28382695 1.7129999 0.1583577693 -0.0219209604 0.9871384501
-0.044897605 -0.45516884 1.7660002 0.2934019268 -0.1598602086 0.9425285459
-0.16453351 -0.031099224 1.516 -0.2242803425 0.7582380176 0.6121874452
0.11489365 -0.25508529 1.7382002 0.3920505345 -0.1172771826 0.9124376178
-0.41553122 0.16292411 1.705 0.2882208526 -0.03409188241 0.9569568634
0.18534487 -0.23467052 1.705 -0.001472651144 -0.004219237249 0.9999899864
-0.11660744 -0.4158774 1.7939999 0.5638869405 0.1248210669 0.816364646
-0.1446216 -0.15428317 1.7220001 -0.3245460689 0.7971767783 0.5090962648
0.22445726 -0.43512127 1.6814545 0.2846461833 0.3999269605 0.8712261319
-0.21223047 -0.089577802 1.572 -0.3615170717 0.7654195428 0.5323892832
-0.22487549 -0.064634882 1.5360001 -0.1260063946 0.6459036469 0.7529481053
-0.026107484 -0.15318486 1.794 -0.3612830639 0.8045358062 0.4713774621
-0.065252922 -0.12898836 1.7310001 -0.3082190454 0.8337435722 0.4581186771
-0.42484143 -0.38262117 3.0100002 -0.1555564851 0.7628690004 0.6275612116
0.091178596 -0.34555921 1.748 0.6259228587 -0.2742684186 0.7300667167
-0.15592721 -0.093278438 1.6060001 -0.2757464051 0.8025536537 0.5290288925
