# .PCD v0.7 - Point Cloud Data file format
VERSION 0.7
FIELDS x y z normal_x normal_y normal_z
SIZE 4 4 4 4 4 4
TYPE F F F F F F
COUNT 1 1 1 1 1 1
WIDTH 206
HEIGHT 1
VIEWPOINT 0 0 0 1 0 0 0
POINTS 206
DATA ascii
0.17592253 -0.48489287 1.2149093 0.7012220621 -0.1613770723 0.6944386959
-0.43487662 -0.44234234 2.1290002 -0.07801685482 0.7555887699 0.6503837109
-0.092463791 0.46448603 1.2360001 0.2546074688 -0.5556471944 0.7914740443
0.47905275 -0.14187974 1.904 -0.6124729514 0.7604584694 0.2158235013
-0.26358777 -0.095244139 1.1745002 0.05677235126 0.602139473 0.7963698506
0.1087768 -0.46279585 2.256 -0.06224266812 0.7490716577 0.6595585942
0.25736129 0.041918691 1.1120001 0.01971109025 0.7060164213 0.7079211473
-0.38768303 -0.091860637 1.7760001 0.9518577456 0.06997571886 0.2984463871
0.27495074 0.28895283 1.452 -0.9894707203 0.07393304259 0.1244251654
0.40322486 -0.28706598 0.95228577 0.7039776444 0.2555037737 0.6626713276
-0.063894972 0.12190488 0.95900005 0.0846260339 0.6629597545 0.7438567281
-0.32721409 0.15216129 1.536 0.1014209539 -0.638497591 0.7629119158
0.052303687 -0.17169254 1.2970001 -0.1334460527 0.6608557105 0.7385539412
0.20924281 -0.23785719 2.0400002 -0.05578983203 0.7552387118 0.6530711651
-0.16237883 -0.35648686 2.1290002 -0.07688590139 0.750074029 0.6568694711
0.28150535 -0.21414973 1.1730002 0.8423976302 0.006908809766 0.5388121009
0.028728366 -0.0089157 1.13 -0.1259357035 0.7394685149 0.6613066792
-0.027533032 0.29586646 1.102 0.569192946 -0.4131086469 0.7108871937
-0.26782605 -0.01222687 1.3950001 0.2386862636 -0.6337774992 0.7357682586
0.33588138 -0.4342092 1.0853808 0.7383687496 -0.04044463113 0.6731833816
-0.14599428 -0.23507552 1.2830001 -0.5805382729 -0.04008676112 0.8132455945
0.3531734 -0.10466687 1.0128239 0.72293365 -0.08685910702 0.6854358912
0.26230568 -0.37718406 2.184 -0.0618269816 0.7438306808 0.6655023694
0.081217468 -0.35466906 1.3330001 0.6620696187 -0.1006529853 0.7426525354
0.11501743 0.085388005 0.99391693 0.09696333855 0.8113725781 0.5764309168
-0.16978404 0.021574767 1.0700001 0.2354759276 0.5803668499 0.7795674205
0.17512293 -0.077332959 1.2125001 0.07013547421 0.6845670938 0.7255679965
-0.093784057 -0.097999059 1.202 -0.1664540172 0.6870424747 0.7072946429
0.20250556 -0.33395228 1.2344 0.6415012479 -0.2911404371 0.7097277045
-0.085864246 -0.43517557 2.2260001 -0.0539371334 0.7498999834 0.6593487859
0.33919045 -0.29440811 1.0755 0.8654574752 0.09262769669 0.4923449159
0.19709887 -0.20784223 1.276 0.7292507291 -0.1438745707 0.6689494848
0.28805628 -0.089012645 1.1240001 0.9083080292 0.2011187822 0.3667802513
0.034463517 -0.38484263 2.184 -0.06224266812 0.7490716577 0.6595585942
-0.2874406 -0.38325411 2.1430001 -0.07801685482 0.7555887699 0.6503837109
0.47205082 -0.055628885 1.8130001 -0.9572006464 0.2658216953 0.1144804209
-0.037071254 -0.24295256 1.3466001 -0.329206109 0.619086206 0.7129906416
0.0064888094 0.20385279 1.0267367 0.7032209039 -0.1913425028 0.6847396493
0.21832025 0.14758244 1.161 0.2568696737 -0.737554431 0.6245250106
-0.044517133 0.041755635 1.0506668 -0.09996753186 0.7706810236 0.6293307543
0.13533954 0.026871935 1.0949 0.008270839229 0.7893145084 0.6139333844
0.054333828 -0.085232817 1.2152503 -0.03640902042 0.7428244352 0.6684955359
0.25827077 -0.41535115 1.1685556 0.5900041461 -0.2041175514 0.7811729312
-0.061241649 0.38158759 1.1682 0.4647931457 -0.4301887155 0.7738895416
0.14359801 -0.3886719 2.184 -0.06782670319 0.7230715156 0.6874351501
0.081670269 -0.25341803 1.3700001 0.4100892246 0.05850729719 0.9101668596
-0.18553789 -0.15415218 1.2262001 -0.07528461516 0.7058674097 0.7043319345
-0.054683842 -0.16851549 1.273 -0.1539621204 0.6764019132 0.7202611566
-0.075806245 -0.028550403 1.123 -0.1188008189 0.7502930164 0.6503435969
0.32713485 -0.18517333 1.0738499 0.9187731743 0.1635518521 0.3593142033
-0.1869106 -0.42970166 2.1980002 -0.07664372772 0.749325335 0.657751739
0.018036541 -0.49901095 2.286 -0.05427723378 0.7508218884 0.6582708359
0.39230755 -0.18641485 0.96592861 0.648947835 -0.1315357983 0.7493764162
0.26571152 -0.17714101 1.9810001 -0.05578983203 0.7552387118 0.6530711651
0.28251496 -0.3150849 1.1610001 0.7435362935 -0.03401444107 0.6678298712
0.38270593 -0.36388803 1.0155714 0.839287281 0.1477713138 0.5232212543
0.13215968 -0.42403579 1.2830001 0.753064692 0.04337156937 0.6565153599
-0.17530307 -0.054408606 1.1336523 0.0182296373 0.6951628327 0.7186211348
0.20279111 0.065782137 1.0350001 -0.7501252294 0.5620627999 0.348421514
-0.30295497 0.05600848 1.452 0.08963253349 -0.6585925221 0.7471424937
0.137419 -0.28637078 1.2970001 0.5866374969 -0.1809495687 0.789375484
0.015142371 0.088377506 0.99650002 -0.03025999106 0.7586882114 0.6507506967
0.24477902 -0.14637384 1.2242309 0.7650114894 0.09223908931 0.6373769045
0.21807171 -0.43417883 2.2410002 -0.07026237249 0.7248524427 0.6853117347
0.11524887 -0.028559696 1.1634001 -0.06577565521 0.7247388363 0.6858769059
-0.082963347 -0.38900593 2.1030002 -0.0539371334 0.7498999834 0.6593487859
0.20548716 -0.021153091 1.149 -0.06656364352 0.7351030707 0.6746797562
0.13376415 -0.13394941 1.2679999 -0.02564035356 0.6773011684 0.7352589369
-0.12456618 0.073166676 1.0152177 0.08350852132 0.6741017699 0.7339026332
0.055351596 0.043386854 1.0637647 -0.05395651236 0.8140141964 0.578333497
0.26629013 0.3416782 1.3870001 -0.9894707203 0.07393304259 0.1244251654
-0.016586931 -0.062510401 1.1759092 -0.1802758276 0.7506824732 0.6355914474
0.3595463 -0.24493174 1.0135001 0.9140356779 0.162841633 0.3715123534
0.32192963 -0.046354957 1.062875 0.8625398874 -0.219176054 0.4560557604
-0.26677316 -0.15876783 1.2320001 -0.02471944503 0.5952018499 0.8031959534
0.23831044 -0.26502687 1.2190001 0.6337541938 -0.1848197579 0.7511307001
0.32072675 -0.36167058 1.1120001 0.7335269451 -0.08152488619 0.6747532487
-0.015048061 -0.11478851 1.2341819 -0.1984965354 0.7216329575 0.663208127
0.18915223 -0.40822685 1.2190001 0.5712999105 -0.2875218093 0.7687311769
0.14336111 -0.35398266 1.2737691 0.6782642603 -0.2361495495 0.6958383322
-0.20727029 -0.19830726 1.2780001 0.02549958043 0.6126906276 0.7899113297
0.23339088 -0.48145804 1.1676668 0.5469288826 -0.2210929692 0.8074569106
-0.0342426 -0.38998517 2.1700001 -0.0539371334 0.7498999834 0.6593487859
0.28725386 -0.463456 1.126 0.6652296782 -0.1100616232 0.7384821773
0.2237335 0.10263896 1.108 -0.312268585 -0.7389253974 0.5970574617
0.02825672 -0.21781221 1.3430001 -0.2973950207 0.6909304261 0.658916831
-0.12692818 -0.17107712 1.2590001 -0.1857154518 0.6721071005 0.7167857289
0.30741498 -0.25505915 1.1249092 0.8471170068 -0.01424204092 0.5312155485
0.28193337 -0.14554684 1.161 0.8752317429 0.06317782402 0.4795601964
0.030345816 0.15346313 0.98900002 0.547185123 -0.1788360327 0.8176833987
-0.19501713 -0.10008816 1.177 -0.00529857073 0.6709266305 0.741504848
-0.10561215 0.0079580033 1.077 -0.1010403931 0.7152515054 0.6915245056
-0.086063065 -0.25316697 1.302 -0.3430292904 -0.03720138222 0.9385877252
0.31870577 -0.1144249 1.065154 0.9060460925 0.125313133 0.4041992724
0.28829336 -0.016258221 1.10725 0.5065441132 -0.2077582628 0.8368091583
0.18873669 -0.27813828 1.2590001 0.626516521 -0.2756244242 0.7290461063
-0.022700408 0.23769765 1.0700001 0.4768697321 -0.4574491978 0.750556767
0.3486703 -0.17371431 1.0171999 0.8405002952 0.1230611354 0.5276506543
0.11455885 -0.091431953 1.2270001 -0.07914237678 0.7006440163 0.7091082335
0.49871024 -0.094218872 1.853 -0.746129334 0.6476382017 0.1544532031
0.24395199 -0.35471547 1.1938698 0.6871318817 -0.1347150356 0.7139338851
-0.11461627 -0.061872505 1.1570001 -0.1446294636 0.7819751501 0.6062979102
-0.024130253 0.0023016548 1.101 -0.2270668 0.7179005146 0.6580725908
-0.064634345 0.078026101 1.0038333 0.01856450923 0.7363906503 0.676301837
0.19523719 0.022227885 1.1025 -0.08663424104 0.7709505558 0.6309751868
0.074690066 -0.12536736 1.2566001 -0.07936882973 0.6878286004 0.7215209007
0.37002873 -0.30552009 1.0220001 0.8922789097 0.1800429821 0.4140324295
-0.20764376 -0.0087736798 1.1120001 0.2920318842 0.5799844861 0.7604836226
0.11159265 0.060866967 1.052 -0.09594365209 0.7846662998 0.6124488711
0.23756666 -0.20532042 1.2262001 0.7275951505 -0.05352680758 0.6839153171
-0.0045737163 -0.18641162 1.3045001 -0.1805952936 0.6780484915 0.7124854922
0.067818932 0.10851029 0.96700007 0.2831292152 0.5492556691 0.7862290144
0.085136391 0.0058659958 1.1162502 -0.0956877172 0.7481794953 0.6565601826
0.054292262 -0.044048231 1.1684667 -0.1282962114 0.7539351583 0.6442995667
0.35565025 -0.38470083 1.0631934 0.8503195047 0.07208549231 0.5213064551
-0.052656461 0.3336958 1.1376002 0.4848555624 -0.371604085 0.7917231321
0.30303952 -0.18521634 1.1250001 0.8729900718 0.1482407153 0.4646644592
-0.2324727 -0.048097439 1.1430001 0.1215330958 0.589402318 0.7986454964
-0.067791462 0.42536509 1.202 0.2546074688 -0.5556471944 0.7914740443
0.093877263 -0.30110839 1.3330001 0.6197370291 -0.4033283591 0.6732401252
0.06474106 0.077108771 1.0165293 -0.06198991835 0.7911301851 0.6084983349
0.15522923 -0.0043762438 1.1353915 0.03955619037 0.7799416184 0.6246009469
-0.14535271 -0.11407011 1.1952858 -0.2312632948 0.6174932122 0.7518107295
-0.14671192 -0.018338989 1.1010001 -0.01055750437 0.7043833733 0.7097412348
-0.065663502 -0.13169169 1.2346667 -0.1985820681 0.6483027935 0.7350296974
-0.094916359 -0.19776127 1.2920001 -0.1078729555 0.7106109262 0.6952664852
0.33817434 -0.24246199 1.0662 0.9059814215 0.1543877274 0.3941599429
0.01393792 -0.14305611 1.2679999 -0.1323224902 0.659478128 0.739986062
0.29844132 -0.40735427 1.126 0.6981216669 -0.1597202569 0.6979366541
0.40500477 -0.23545793 0.94430941 0.7423800826 -0.06224815175 0.6670809388
0.16501796 -0.041411452 1.1750001 0.04625260085 0.7447006702 0.6657939553
0.0045499001 0.059148699 1.0380001 -0.06949467957 0.8124804497 0.5788316131
-0.13574307 -0.436317 2.2120001 -0.07664372772 0.749325335 0.657751739
0.27485222 -0.26535356 1.1752223 0.7517585158 -0.1257574111 0.6473362446
0.14594893 -0.46385601 1.2533334 0.7846881747 -0.1138828099 0.6093398929
0.16728789 -0.24595779 1.2942222 0.569619298 -0.2947330475 0.7672458887
-0.23545533 -0.12656748 1.202 0.01726643555 0.6285572648 0.7775716186
0.30901185 -0.30803084 1.1190001 0.7155460715 -0.04424633086 0.6971628666
0.15802979 0.057343531 1.0141251 -0.2791164219 0.2881656289 0.9159992337
-0.095045723 0.042820115 1.0418824 -0.01610471308 0.7105939984 0.7034179568
0.16448727 0.054303452 1.0651053 -0.08326744288 0.7284470797 0.6800230742
-0.024916388 -0.032892883 1.1369336 -0.2079486102 0.7267647982 0.6546527743
0.27803183 -0.3643603 1.1570001 0.7306055427 -0.1064177081 0.6744559407
0.21678199 -0.4357163 1.1884667 0.5345027447 -0.1973857582 0.8217941523
0.10274784 -0.1635875 1.2919999 -0.06542940438 0.6245214343 0.7782621384
-0.064682007 -0.062638931 1.1665001 -0.12074022 0.7778622508 0.6167269349
0.11471271 -0.38123429 1.302 0.5556019545 -0.1822228581 0.8112344742
0.37713966 -0.14117372 0.99200004 0.6375217438 -0.1079448983 0.7628328204
0.39328852 -0.32561406 0.98495239 0.855183363 0.2289014906 0.4650435448
0.014669635 0.025830476 1.0822692 -0.04435390607 0.7870118618 0.6153414249
-0.046322316 -0.092498608 1.2048572 -0.134614259 0.710049808 0.691164434
0.30122969 -0.13940403 1.1120001 0.9036359787 0.1582437158 0.3979960978
-0.017457226 0.11585923 0.96556252 -0.1291388273 0.6490768194 0.7496815324
-0.11629188 -0.1335026 1.2270001 -0.2373662442 0.6548749208 0.7174928784
0.24926408 -0.30608934 1.193 0.7335231304 -0.1269463003 0.667703867
0.098311156 -0.059614211 1.1930001 -0.1126893014 0.7135487795 0.6914833784
-0.055335201 -0.21511841 1.3150002 -0.1388359219 0.6869745851 0.7132955194
0.35248601 -0.33574235 1.0612668 0.8800100684 0.051911816 0.472109586
-0.28699666 0.023232894 1.4246 0.1236654744 -0.6731704473 0.7290736437
0.26332685 -0.17537731 1.1943333 0.8728814125 0.01621406153 0.4876628816
0.15544328 -0.39560428 1.2561927 0.7205736041 -0.1306483448 0.6809586287
-0.22240672 -0.17671309 1.2410001 -0.1639629453 0.64326334 0.7478826046
-0.28345963 -0.12539664 1.202 0.01792786457 0.5897359252 0.8073971272
0.11300058 -0.33570427 1.302 0.6193689108 -0.1020710766 0.7784367204
-0.16224733 -0.19922206 1.2590001 -0.1844107807 0.02352960967 0.9825675488
0.03995233 -0.24213533 1.381 0.1863976717 0.5157098174 0.8362411857
0.1998011 0.092865296 1.0700001 -0.936524868 0.3497334123 -0.02465091646
-0.15166 0.051771551 1.0434 0.2130396366 0.6217418313 0.7536916733
0.37774658 -0.27451476 0.98638469 0.9002815485 0.1729836315 0.399461925
0.16293553 -0.31471103 1.2729999 0.6304221153 -0.2655786276 0.7294079065
0.15511376 -0.10613234 1.2416668 0.03860139474 0.7221217752 0.6906881332
-0.052026659 -0.4181402 2.1980002 -0.0539371334 0.7498999834 0.6593487859
-0.15505658 -0.083991677 1.1657275 -0.1444628835 0.6955963969 0.7037585974
0.32103008 -0.21756677 1.103 0.8710538149 0.1157701239 0.4773494303
0.34245071 -0.068488561 1.0325001 0.7095677257 -0.07183732837 0.7009658217
0.21357127 0.050796349 1.077 -0.4160383344 0.2609804571 0.8710920215
0.095475256 0.034791779 1.0829564 -0.07979267836 0.8128476739 0.5769851208
-0.063697428 0.011896172 1.0808889 -0.1517490447 0.6987897158 0.6990458965
-0.093786031 0.10300378 0.98626685 0.1121924594 0.6587887406 0.7439154983
-0.2201836 -0.40781832 2.184 -0.07664372772 0.749325335 0.657751739
0.014752546 -0.079031497 1.202 -0.09587846696 0.7572234869 0.6460804343
0.37794691 -0.22478123 0.9760502 0.8217799664 -0.002515092725 0.5697994232
0.034568798 -0.1163846 1.2428182 -0.08145805448 0.7057739496 0.7037383914
0.2125867 -0.2442221 1.2530001 0.7682302594 -0.2260649055 0.5989298224
0.26445109 -0.12581898 1.1934999 0.8633320928 0.08173216134 0.4979734123
0.22769803 -0.39611191 1.1960771 0.587813139 -0.2797966599 0.7590715289
0.014339635 -0.042145494 1.1564286 -0.1198670641 0.7651295662 0.6326204538
0.29772335 -0.073717847 1.0864 0.8735590577 0.01975328289 0.4863171577
-0.024609117 0.072305724 1.0111431 -0.1221109405 0.7937794924 0.595821321
0.32951534 -0.1532843 1.0470001 0.9186913371 0.1123811454 0.3786511421
-0.17577867 -0.38368896 2.1560001 -0.07688590139 0.750074029 0.6568694711
0.26027706 -0.23287947 1.202 0.8197780848 -0.03724078834 0.5714691877
0.17765199 -0.36510652 1.2421428 0.6422874331 -0.2400356531 0.7279077768
-0.11520109 -0.036648978 1.1247501 -0.148932755 0.7528012991 0.6411780119
0.061703306 -0.20140891 1.3280001 -0.1234091222 0.7289197445 0.67338413
0.17397234 -0.44491458 1.2231903 0.7262974977 -0.1340768486 0.6741775274
0.34293059 -0.20564617 1.0439999 0.9243852496 0.2005621642 0.3244791329
0.20083645 -0.052031919 1.187 0.01331439521 0.7144165039 0.6995940208
-0.025931802 -0.14451535 1.2570668 -0.2463404387 0.6117025614 0.7517555356
0.35409343 -0.27496636 1.0455 0.9243765473 0.1404718161 0.3546767831
-0.12997109 -0.21508491 1.312 -0.4351849556 -0.101663582 0.8945829272
0.21189559 -0.29513967 1.2332003 0.6947011352 -0.1844138354 0.6952567101
-0.011685966 -0.21735898 1.3330001 -0.2455517948 0.6857170463 0.6851980686
0.045478173 0.013541211 1.10375 -0.1052618101 0.7727074027 0.6259738803
0.13488042 -0.066807963 1.2019999 -0.001715790597 0.7369667888 0.6759267449
0.21718889 -0.40916839 2.2120001 -0.06782670319 0.7230715156 0.6874351501
