# .PCD v0.7 - Point Cloud Data file format
VERSION 0.7
FIELDS x y z normal_x normal_y normal_z
SIZE 4 4 4 4 4 4
TYPE F F F F F F
COUNT 1 1 1 1 1 1
WIDTH 206
HEIGHT 1
VIEWPOINT 0 0 0 1 0 0 0
POINTS 206
DATA ascii
-0.014951861 0.012871889 1.0622941 -0.2429544628 0.7645673156 0.5970007777
-0.1984598 -0.47819361 2.1560001 0.01270680223 0.9745393395 0.2238562256
-0.49700132 0.022379838 1.4450001 -0.01792106032 -0.4578170776 0.8888657689
0.079252422 0.2266341 1.5860001 0.9668593407 -0.1979193538 -0.161278978
0.016456494 -0.4919517 1.2516667 0.7391732335 -0.0399184525 0.6723313332
-0.29503572 0.41412672 1.2237999 0.6024263501 -0.3040352762 0.7380007505
0.28190744 -0.29641625 0.96220005 0.7369571924 0.2278756797 0.6363700032
-0.33130479 -0.28228506 1.2262001 0.08196755499 0.3484798372 0.9337254167
-0.48047909 -0.44553515 1.9930001 -0.1054213792 0.8163642883 0.5678341985
-0.3230429 -0.039129138 1.0380001 0.04187892377 0.5598813295 0.8275137544
-0.044639871 -0.19808942 1.2729999 -0.1106976792 0.6577228308 0.7450816631
0.054264791 0.25285083 1.317 0.219343245 -0.7366413474 0.6397249699
-0.20036128 0.20976792 1.0730001 0.6406154633 -0.1972713768 0.7420888543
0.15448889 -0.15449078 1.1245002 0.8634853363 0.2394653261 0.4439025521
0.1964063 -0.45478454 1.1079999 0.6680882573 -0.06684564054 0.74107337
0.0055992701 -0.47967079 2.1290002 -0.2227934599 0.9538506866 0.2013254166
-0.16264498 -0.098227166 1.141 -0.2246347815 0.6947260499 0.6832970977
-0.17474158 0.056987043 0.95600003 -0.1837168932 0.6581418514 0.7301352024
0.094760925 -0.31517589 1.214591 0.6153684855 -0.08858185261 0.783246398
0.060361132 0.14118192 1.1670001 0.3712192774 -0.6972065568 0.6132692695
-0.39486647 -0.15770884 1.13 0.1749724448 0.5751639009 0.7991064787
-0.1739666 -0.29904065 1.2970001 -0.4962683022 0.09807863086 0.8626113534
0.02492276 -0.085155457 1.1845001 -0.07405703515 0.674141705 0.7348799109
0.19907258 -0.30101314 1.097 0.7672672868 0.1579972059 0.6215607524
0.23671328 -0.15566337 0.99704546 0.7314378023 0.01547138393 0.681732595
0.13241479 0.0014767449 1.123 0.4333488047 0.2510844767 0.8655434251
-0.034761067 -0.35532585 1.3037647 0.7338724136 -0.2875072956 0.6154435873
-0.24527024 0.31578186 1.1440771 0.6165816784 -0.290691644 0.7316593528
-0.22409834 -0.19595695 1.2115 -0.3492807746 0.5727829337 0.7415677309
-0.2852042 0.31787172 1.3153334 0.9126294851 0.33231619 0.2380616069
0.083164103 -0.18900934 1.2320001 0.7347627878 0.09266462922 0.671965003
-0.44994742 -0.071171306 1.376 0.2681434155 -0.5839824677 0.7662007213
-0.13559784 -0.011016681 1.057 -0.2273159772 0.7313133478 0.6430460811
0.10505893 -0.43515381 1.1874998 0.4274539948 -0.1379149109 0.8934553862
-0.27836972 -0.13128784 1.126 -0.3011651039 0.6849287152 0.663454771
0.26068428 -0.39283872 1.0325 0.8074451089 0.1472244412 0.5712769628
0.048909232 0.11598475 1.5940001 0.9828984737 -0.1384664774 -0.1213985756
0.18632761 -0.06884025 1.0470001 0.753688395 -0.02171708271 0.6568730474
-0.065196082 0.062636562 0.97345001 -0.08126877993 0.5801452398 0.8104485869
0.046823643 0.30349237 1.4130001 0.6064451337 -0.6382738948 0.4741632044
-0.064221784 -0.055578388 1.1340002 -0.1868774295 0.7067571282 0.6823278069
-0.14818458 0.14415793 1.0052859 0.5858476162 -0.2884770632 0.7573398352
-0.12503283 -0.16136716 1.2190001 -0.2599107325 0.6782714128 0.6873095036
0.028119083 -0.27781653 1.2830001 0.6123147011 -0.2067177296 0.7631110549
-0.086732425 -0.27746528 1.3430001 -0.05785740167 0.5852544308 0.8087828755
-0.22917381 -0.060801215 1.067 -0.3944669366 0.6463415027 0.6531757116
0.060200699 0.0774009 1.09 -0.170788005 -0.7477139831 0.6416816115
-0.26470825 0.024219295 0.98171455 0.06101834774 0.6316327453 0.7728627324
0.034325 -0.39473996 1.2430001 0.5410303473 -0.254021287 0.801722765
0.14332847 -0.24428453 1.1632223 0.7863218188 -0.00782145001 0.617767632
-0.31641716 -0.20370479 1.1744739 -0.2158222198 0.5948310494 0.774336338
0.22806682 -0.24486315 1.02625 0.8836369514 0.1778381914 0.4330811501
0.16071667 -0.36489758 1.153 0.7642816901 -0.05389771238 0.6426262856
-0.40067786 -0.24123499 1.1810001 -0.07792993635 0.6200911999 0.780649662
0.043408804 -0.021336533 1.1190001 -0.06734652817 0.7161411047 0.694698751
-0.25264832 -0.26926991 1.2640001 -0.3875727355 0.5760034919 0.7197272778
-0.12585659 -0.22580971 1.2769285 -0.3919176161 0.5751072168 0.7180893421
-0.055808384 -0.11450253 1.1955001 -0.1671417803 0.6845862269 0.7095106244
-0.34562162 -0.10383721 1.0852143 0.04459721223 0.583190918 0.8111100197
0.27475521 -0.21762572 0.95662498 0.6890555024 -0.04849050939 0.7230845094
0.0044064773 -0.1445469 1.2360001 -0.09004008025 0.6477795243 0.7564882636
0.18847211 -0.21417511 1.0857999 0.8695283532 0.2140125185 0.4451057315
-0.021370504 -0.43078434 1.2830001 0.6463782191 -0.01975939795 0.7627612948
0.18774047 -0.14496841 1.0542144 0.8194659352 0.1667536497 0.5483327508
0.21404658 -0.3751491 1.0949167 0.7404974103 0.07625835389 0.6677186489
-0.1949293 0.0057413206 1.0141003 -0.1865160465 0.7726510763 0.6068130732
0.24399488 -0.31552792 1.0346787 0.8472411633 0.2224632204 0.4823820889
0.11973659 -0.1468098 1.1876668 0.814881146 0.1145697609 0.5681922436
-0.12479788 0.031637583 1.0025002 -0.2237589061 0.7843537331 0.5785509348
-0.21505184 -0.14307751 1.1681427 -0.2865532339 0.6742560267 0.6806365252
0.068209052 -0.49215451 1.197 0.6190699935 -0.2051427364 0.7580691576
-0.0052733249 0.044842724 1.0029998 -0.2580661476 0.5806583166 0.7721643448
-0.22243838 0.26420629 1.108 0.5944705606 -0.2446098179 0.7660096884
0.076210387 -0.25499782 1.2360001 0.7291582823 -0.1628016531 0.6646983027
-0.27349493 0.36396885 1.1862 0.5406213403 -0.3160678744 0.7796342969
-0.18763298 -0.2417154 1.2590001 -0.3685973585 0.6293134093 0.6841787696
-0.12744553 -0.053163804 1.1076249 -0.3287434578 0.7142724991 0.6178532243
0.14695984 -0.47249231 1.1482002 0.6586945653 -0.1502395123 0.7372581363
0.14906402 -0.09520863 1.097 0.8542413712 0.2103888392 0.4754031599
0.046908151 0.035226744 1.041 -0.86715132 0.4084482789 0.2849887013
-0.07544557 -0.014585177 1.0847501 -0.1629720628 0.7919015884 0.5884997845
-0.12300105 0.094647706 0.9662106 0.07600922137 -0.4158953428 0.9062304497
-0.46839949 -0.028652096 1.4210001 0.01451909821 -0.4279782176 0.9036723971
-0.27507129 -0.23456599 1.2161819 -0.2769328356 0.6132227182 0.739774406
-0.28416306 -0.08777152 1.0812 -0.1876214296 0.6639221907 0.7238822579
-0.06453646 0.028274957 1.0272 -0.1906597167 0.791298449 0.5809437633
0.14088121 -0.30849901 1.1730001 0.7414630651 0.00788147375 0.6709474325
0.018008137 -0.33726349 1.268 0.5959888697 -0.2852734029 0.7506106496
0.10326784 -0.3751362 1.2019999 0.5683802962 -0.1235578358 0.8134354949
-0.10475291 -0.095394164 1.163182 -0.2415039986 0.7190282345 0.6516703367
-0.26456603 -0.023952205 1.0255452 -0.1274640411 0.6832101941 0.7190109491
-0.0050013834 -0.049013555 1.141 -0.1566009074 0.7221593261 0.6737670898
0.052213825 0.1747635 1.2155001 0.3701599538 -0.7133571506 0.5950657129
0.24270195 -0.43373522 1.0716667 0.6445981264 0.05981642008 0.7621780038
-0.2249759 -0.096376494 1.1141667 -0.3330579102 0.7325596809 0.5936570764
-0.33397785 -0.15135941 1.126 -0.1327635795 0.6462627649 0.7514774203
-0.26382378 -0.1761872 1.1730002 -0.3411377072 0.5848557353 0.7359136343
-0.22385354 -0.32123455 1.2767501 -0.401871711 0.4354012609 0.8055587411
-0.23519564 0.060668841 0.94800007 0.0516295433 0.6091142893 0.7914001346
0.162709 -0.037117057 1.0942308 0.7666232586 -0.06623921543 0.6386713386
0.061952278 0.29427332 1.3590001 0.1861519665 -0.7456607819 0.6397948265
-0.067180723 -0.16145045 1.2360001 -0.1734510511 0.6516512632 0.7384208441
0.074596889 0.024003869 1.1026665 -0.5456925035 0.3883351088 0.7425736189
0.048089549 -0.44562984 1.2190001 0.598493576 -0.08656001836 0.7964375615
-0.37251845 -0.19847295 1.161 -0.1208637804 0.5273333788 0.8410180807
0.27417496 -0.34238136 0.99745464 0.7533441186 0.3163198233 0.5765538812
-0.18265456 0.1676625 1.0428001 0.6987123489 -0.2115283459 0.6834155917
-0.16549525 -0.19462 1.2338462 -0.216424346 0.5694323182 0.7930367589
0.11346614 -0.22501279 1.2043529 0.7528939843 -0.04401816428 0.6566681862
-0.077171654 -0.24172199 1.2945001 -0.1586225927 0.5671568513 0.8081905842
-0.17724621 -0.050505642 1.087 -0.2292434573 0.7175273895 0.6577247977
-0.34944022 -0.24030572 1.197 -0.2117296308 0.605635047 0.7670571804
-0.046743866 -0.3120153 1.3330001 0.4266553223 -0.3708129823 0.8249017596
0.17327228 -0.41465053 1.1340001 0.6787269115 -0.03767054901 0.7334239483
0.20838542 -0.1910958 1.0380001 0.8288727403 0.1908491105 0.5258769393
-0.16568932 -0.14345494 1.1871052 -0.2315317988 0.7385500073 0.6331958175
-0.12947577 -0.2727012 1.307 -0.3991083801 0.5244203806 0.7521274686
0.16111906 -0.20673203 1.131 0.8556865454 0.1232682317 0.5025987625
-0.28365862 -0.3009851 1.2350001 -0.2660360336 0.3260922432 0.9071320891
0.17729299 -0.25369856 1.1173334 0.8091923594 0.1126490906 0.5766436458
0.05742868 -0.34596521 1.2360001 0.6511874795 -0.1565325707 0.7425984144
0.21257122 -0.10763567 1.026 0.6471993327 -0.0220701322 0.762001276
-0.013771337 -0.017640067 1.1025001 -0.225061208 0.7546079159 0.6163719296
0.048712857 0.10538235 1.1340001 0.4261216521 -0.7484350204 0.5081981421
-0.0030096641 -0.38519543 1.2741538 0.6844994426 -0.09929467738 0.7222195268
0.24251209 -0.20460626 0.99315381 0.8222535849 0.08615870029 0.5625617504
0.25247812 -0.25492665 0.98462492 0.8476219773 0.1458392143 0.5101646185
0.054052498 -0.054054655 1.1533077 -0.08231653273 0.6946883798 0.7145852447
0.13794771 -0.40603063 1.1671818 0.6871035099 -0.1151390001 0.7173784375
-0.20941375 0.029916249 0.97500002 -0.1901188791 0.7387552261 0.6466031075
0.2110575 -0.25420702 1.0700001 0.8587775826 0.2116173208 0.4666038752
0.13406858 -0.19420721 1.1746001 0.8297765255 0.09333781898 0.5502353907
0.11682056 -0.27516955 1.1962 0.7028638124 -0.01130221412 0.7112346292
-0.026044501 -0.081779644 1.1676667 -0.1868847162 0.7123196721 0.6765166521
-0.095111564 -0.19273029 1.2575455 -0.1590541601 0.6309824586 0.7593173981
0.18762614 -0.34427819 1.1182001 0.7502362728 0.06792359054 0.6576715708
0.22474669 -0.33451888 1.0726817 0.823091507 0.1299753934 0.5528352261
0.015117873 -0.4449884 1.2519447 0.6605568528 -0.02864418179 0.7502294183
0.035776764 0.011134544 1.0810001 -0.2534459531 0.6808329821 0.6871910691
0.16826975 -0.2936407 1.138 0.7765398622 0.06920497864 0.6262559295
-0.1813385 -0.0193305 1.0500001 -0.2798082829 0.7359421849 0.61651963
-0.0060792444 -0.11180524 1.2060002 -0.1835419536 0.7082605362 0.681673944
0.06136667 -0.29477915 1.25 0.7004995942 -0.09187982976 0.7077134848
-0.21322298 -0.27685246 1.2830001 -0.3202752769 0.5097430944 0.7984896302
0.11105964 -0.48023009 1.1730001 0.4819067419 -0.2692276239 0.8338359594
-0.10514935 -0.12626368 1.1948463 -0.230820626 0.7172650695 0.657459259
0.13751832 -0.11945022 1.1450001 0.8899773955 0.2419087738 0.3865493834
-0.23502161 -0.23286149 1.2340002 -0.3041664958 0.5783959031 0.7569286227
-0.28490967 -0.055159777 1.0521001 -0.09873266518 0.6465008259 0.7564975619
-0.30121741 -0.16880304 1.153 -0.289168328 0.6239569187 0.7259886265
0.047988731 0.14670841 1.5640001 0.9751495719 -0.169654265 -0.1424808055
-0.095004834 0.0046081105 1.0521334 -0.1463917792 0.811632514 0.5655281544
0.066739179 -0.40515831 1.2175294 0.5821594596 -0.1842820346 0.7919157147
0.17791662 -0.17166649 1.0852858 0.8700134754 0.2383526713 0.431583792
-0.1377743 0.076346271 1.001 0.7927543521 0.1359024495 0.5941978097
0.25667959 -0.29509765 0.99589998 0.8572458029 0.2591395974 0.4449453354
-0.22162485 -0.027874056 1.0425 -0.3344073594 0.7004063129 0.6305574775
-0.41210666 -0.18631329 1.1550001 0.2288544178 0.5470608473 0.8052018881
-0.047517087 -0.39056727 1.322 0.8090235591 -0.04470426962 0.5860736966
-0.23492236 0.0035550918 1.0025713 -0.1648411304 0.7302721143 0.6629706621
-0.38119003 -0.12738624 1.105 0.006261851173 0.6167151928 0.7871614695
0.02804081 0.051884137 1.0817143 0.2326986194 -0.1104897782 0.9662522078
-0.15476665 0.0066641429 1.024842 -0.2212330699 0.791274786 0.5700352192
0.20496903 -0.41489097 1.1022649 0.6665316224 -0.04935187101 0.7438414097
-0.18881646 -0.16866189 1.21 -0.2734004557 0.6207199693 0.734818995
-0.035381392 -0.13723692 1.2229999 -0.1846473515 0.6705960035 0.7184749842
0.17561911 -0.10452764 1.0641053 0.8475296497 0.1384024918 0.5123848915
-0.32509932 -0.075815767 1.0637037 -0.009520860389 0.618255794 0.7859193087
0.12556575 -0.34484842 1.1864543 0.6951966286 -0.02028816566 0.7185332775
0.24624196 -0.35486755 1.044778 0.8519309163 0.179166019 0.4920501113
0.058729652 -0.23159429 1.2640001 0.7140768766 -0.1506909877 0.6836566925
0.28506044 -0.25573519 0.94800001 0.6617754102 0.07048925012 0.7463809848
0.22280359 -0.29510915 1.0619167 0.874915719 0.1944660842 0.4435148239
-0.16508123 -0.26128453 1.2880001 -0.204403773 0.6516000628 0.7305042148
-0.10451284 0.057743844 0.97583348 0.06542665511 0.6847546697 0.7258307934
0.23809054 -0.39463982 1.0650555 0.8023428321 0.09460859001 0.5893175602
-0.30104995 -0.0098265568 1.0190001 0.1401126385 0.5842729211 0.7993707657
-0.24206695 -0.1290357 1.141 -0.3288258314 0.6710546613 0.6644992232
-0.02440859 -0.16577549 1.25125 -0.1665839702 0.6701372862 0.7233020067
-0.06431219 -0.085292093 1.1644547 -0.1864120215 0.7305743694 0.6568954587
-0.12833171 -0.081777923 1.1348 -0.3380036056 0.6658712626 0.6651082635
-0.29485458 -0.26353306 1.2320002 -0.3433671594 0.2088288814 0.9156907201
-0.31579131 -0.12338095 1.107 -0.1700184494 0.6729565859 0.7198771834
-0.16510306 0.033597071 0.98462099 -0.186521247 0.769333601 0.6110119224
-0.33945674 -0.1813122 1.149 -0.2069491446 0.6008452177 0.7721120715
0.042954911 -0.48290336 1.2250001 0.7157475948 -0.1028313562 0.6907467842
-0.18313317 -0.078127518 1.1120001 -0.27064538 0.6509873271 0.7092013955
-0.11526396 -0.025531122 1.085125 -0.2440031022 0.7440697551 0.621950686
0.16468251 -0.13501033 1.0940589 0.8749345541 0.2081473023 0.4372232854
-0.040997319 0.036633268 0.995 -0.08626075089 0.7729033232 0.6286330819
0.10889778 -0.18079145 1.2060001 0.7431638837 0.1119800508 0.6596725583
-0.13186528 -0.19688471 1.25 -0.3858383894 0.5867621899 0.7119261622
-0.0011326533 -0.31601027 1.2920001 0.4931310415 -0.1567326337 0.8557199836
-0.31186539 -0.23867249 1.21 -0.2372769415 0.6674243212 0.7058643103
-0.013230653 -0.49709454 2.1560001 -0.2227934599 0.9538506866 0.2013254166
-0.054671563 0.0083397301 1.057 -0.1539920717 0.7661604881 0.6239266992
0.19066419 -0.38395372 1.123 0.7138277292 -0.03933013603 0.6992160678
0.21291223 -0.14505619 1.0232354 0.7413586974 0.01343708858 0.6709744334
-0.25716755 -0.31014624 1.2590001 -0.455537647 0.3559652567 0.8159498572
-0.19796829 -0.21203469 1.2340002 -0.2963380814 0.4976809919 0.8151670694
-0.19536525 -0.11403465 1.1454446 -0.2190625668 0.7520422935 0.6216461658
-0.13582996 -0.12334716 1.1753531 -0.3151892126 0.7191463113 0.6192611456
-0.15684776 -0.2221489 1.2582 -0.3238262832 0.6243078709 0.7108982205
0.015638603 0.024167253 1.0243748 -0.2592970133 0.833945334 0.4871347249
0.09632697 -0.0019733764 1.1250001 -0.1723219156 0.3822365403 0.9078548551
-0.258145 -0.2025284 1.197 -0.4141230881 0.5623858571 0.715698421
