# .PCD v0.7 - Point Cloud Data file format
VERSION 0.7
FIELDS x y z normal_x normal_y normal_z
SIZE 4 4 4 4 4 4
TYPE F F F F F F
COUNT 1 1 1 1 1 1
WIDTH 206
HEIGHT 1
VIEWPOINT 0 0 0 1 0 0 0
POINTS 206
DATA ascii
-0.1345403 0.094676495 1.4210001 0.3230662346 -0.1851984262 0.9280785322
-0.2489032 -0.38019279 3.1200001 -0.1898269653 0.7422184348 0.642711103
0.33235574 0.065566778 2.5790002 0.06471087039 0.8755986094 0.47868523
-0.35803768 0.14551264 2.184 0.844337225 0.4824502468 0.2331016958
0.10911432 -0.47681463 1.705 0.004730151035 0.3744307458 0.9272428155
0.24760661 -0.19435787 3.0370002 -0.2405153662 0.8572710156 0.4552348852
0.20355323 0.31008577 2.1700001 -0.9661868811 -0.1890561581 0.1753303409
0.043509845 0.49825788 1.6010002 0.6903981566 -0.02673491836 0.7229354382
0.20278937 -0.017878156 1.748 -0.4389051497 0.1201647222 0.8904621005
-0.44832295 0.348212 1.6550001 -0.8596019745 -0.3493066132 0.3729199767
-0.22647455 -0.16671044 1.794 0.8306640983 0.4186028242 0.3671087027
-0.49550253 -0.22926235 2.812 -0.2344426066 0.7028952241 0.6715466976
0.14713535 0.17524479 1.5029999 -0.003764131339 -0.1644973159 0.9863703251
-0.02354376 -0.24328552 2.9840002 -0.1962616295 0.6801642179 0.7062988281
0.29897839 -0.272468 1.6800001 -0.5427178741 -0.2407161742 0.8046819568
-0.32349789 -0.057328738 1.557 0.7031521797 0.5039342046 0.5016246438
-0.48645794 0.17922135 1.9470001 0.9964365363 -0.01069871522 0.08366463333
-0.1545537 -0.41463438 1.7050002 0.6068449616 -0.1604469717 0.7784574032
0.02566354 -0.2167383 1.7220001 0.210574314 -0.355386585 0.9106913805
-0.48817182 -0.38789868 3.0100002 -0.265730083 0.6938720345 0.6692750454
0.0053101452 -0.0047511826 1.5940001 -0.1843668818 0.8971425891 0.4014274776
0.26344711 -0.08201655 2.835 -0.004771379754 0.882807374 0.4697109461
-0.36706385 0.15572406 1.5860002 0.006323798094 -0.1103443801 0.9938732982
-0.30599523 -0.25413162 2.9580002 -0.1328300238 0.7872759104 0.6021236181
-0.15449409 -0.077968977 1.6470001 -0.3753059804 0.8176956773 0.4364850223
0.083975896 0.33454475 1.5499998 -0.06540032476 -0.3206968009 0.9449213743
0.17518955 0.029198259 1.5860001 -0.3092576861 0.7857656479 0.5356603265
-0.49653524 0.0934439 2.0900002 0.8520593643 0.4709118009 0.2285539508
0.11811972 -0.10792234 2.9080002 -0.2517297566 0.8644850254 0.4350836277
0.17139447 -0.16553482 1.6710001 -0.1550135165 -0.03173480928 0.9874024987
0.025335668 0.086774662 1.4450001 -0.09298053384 0.8220959902 0.5617052317
0.14502609 -0.32521001 1.6710001 0.1732445061 -0.1311862022 0.9761027098
-0.43629858 0.26529509 1.8230001 0.9882547259 0.0702676326 0.1357021779
-0.0073990668 -0.36551389 1.6880001 -0.2944169044 -0.1862465143 0.9373531342
-0.12529846 -0.26456091 1.7220001 0.1877147257 -0.199345842 0.961781919
0.031941347 -0.063886203 1.7350001 -0.1853914261 0.9088529944 0.3736525476
-0.18520461 -0.01587468 1.5090002 -0.3833206296 0.7036625147 0.5982677937
0.10818943 -0.21901762 3.0100002 -0.1830872446 0.7529215217 0.6321299672
-0.043613583 -0.49610448 1.6960001 0.007621230092 0.516325593 0.8563584685
-0.090877898 -0.10628093 1.7570001 -0.3554995656 0.8073474765 0.4709672332
0.2489032 -0.4020744 1.6800001 -0.3357709646 0.5156956315 0.7882359028
-0.38605332 -0.31682995 3.0370002 -0.2660332918 0.6954917908 0.667470932
-0.26068559 -0.12666079 1.6800001 -0.04891358688 0.8949491978 0.4434787929
-0.29219651 0.014545653 1.4640001 0.4498036802 0.3211431503 0.8333929181
-0.06456387 0.03030549 1.5029999 -0.1749886721 0.8284941912 0.5319551826
-0.4979037 -0.32098362 2.8830001 -0.265730083 0.6938720345 0.6692750454
-0.27707049 -0.35095596 3.0100002 -0.2016525865 0.7394132018 0.6423428655
-0.12666079 -0.28234804 3.0100002 -0.1829803735 0.7224062085 0.6668189168
0.11572789 -0.02343856 1.6710001 -0.1005482972 0.9014436007 0.4210575819
-0.41777021 0.24465312 1.6320001 0.581794858 0.2013225108 0.7880253792
0.12400887 0.069183901 1.489 -0.3009880781 0.7996684909 0.5195540786
-0.33646956 0.054295819 1.5640001 -0.2201856226 -0.1869278103 0.9573798776
-0.054201674 -0.056154881 1.6710001 -0.2581511438 0.8558276296 0.4482376873
0.25779697 -0.13265282 1.7129999 -0.4658620656 -0.6653702855 0.5833137631
-0.094268665 -0.025305158 1.5860001 -0.2392818481 0.8690419793 0.4330244958
-0.23569594 -0.085707605 1.594 -0.2716238201 0.8619517684 0.4280883968
0.088602066 -0.13966089 1.7130001 0.6412134171 -0.3357666135 0.6900044084
0.10090521 0.14076899 1.4210001 -0.4356701672 0.2488387525 0.865026474
-0.2090061 -0.25854829 1.766 0.4743430018 -0.4694837928 0.7447037697
-0.224602 0.080856718 1.4640001 0.5573684573 -0.4466634691 0.6998801231
0.11448563 -0.23491859 1.6960001 0.3223158419 -0.05840516463 0.9448287487
-0.064411111 -0.19628237 1.7390002 0.2014589906 -0.5855659842 0.7851921916
0.20508741 -0.25489435 1.671 0.1321533322 0.03347714618 0.9906638265
-0.17863835 -0.13234335 1.7220001 -0.3508336842 0.8084216714 0.4726204872
-0.044809129 0.1351901 1.4107692 0.1143176034 -0.1196568385 0.9862117767
-0.4372454 -0.22999613 2.8830001 -0.2674387097 0.6940108538 0.6684500575
-0.19372317 -0.33188233 1.7130001 -0.0434672609 -0.3016726971 0.9524201751
0.055678196 -0.3030538 1.705 0.1352640092 -0.1207186133 0.9834280014
0.095172286 0.24565502 1.5251819 0.2360037863 -0.1788621992 0.9551494718
0.15696687 -0.41355669 1.6630001 0.0585555397 0.1719381809 0.9833658934
0.085008606 0.02262326 1.5640001 -0.08614268154 0.9031800628 0.4205296636
0.046617623 0.41407418 1.5640001 -0.03782703727 -0.0860439837 0.9955729842
-0.093372717 -0.34583586 1.6960001 0.1423451602 -0.140748933 0.9797589183
0.20139839 -0.079029746 2.9080002 -0.2237959057 0.8794287443 0.4201434553
0.028249707 -0.44604802 1.6960001 -0.1501622498 0.07252266258 0.9859978557
-0.034539793 -0.28532869 1.7129999 0.05852554739 -0.2379521132 0.9695120454
0.0030963868 -0.14707837 1.766 0.3731617332 -0.6767134666 0.6346725225
0.24401402 -0.32602584 1.6470001 -0.04706295207 -0.2165467441 0.9751372337
0.038240198 -0.13001668 2.9080002 -0.1518692821 0.7182623744 0.6789954901
0.015062302 0.037212744 1.5159999 -0.1677621156 0.8447943926 0.5081125498
0.085447647 -0.38468134 1.6863999 0.3623696566 -0.257717222 0.8956952691
-0.44000778 0.22747572 1.8940001 0.9781799912 0.07284761965 0.1945691854
0.27577916 -0.20358567 1.6470001 -0.2034621239 -0.1053944379 0.9733936191
0.033531625 -0.030615829 1.6630001 -0.1080284268 0.9051256776 0.411190182
-0.075470477 -0.4247064 1.688 0.05597601086 0.01215283014 0.9983581305
-0.26465043 -0.043851424 1.5073636 -0.01533025131 0.8152961135 0.5788413286
-0.13485324 0.033756051 1.4730002 -0.2466245145 0.7910941243 0.5597735643
-0.16561987 -0.045547504 1.5743333 -0.3813944459 0.8652403951 0.3254186511
-0.11808261 -0.48279348 1.705 0.3924358487 0.218772456 0.8933827281
0.19879381 -0.092568107 1.7310001 -0.2915636599 -0.5059981346 0.8117613792
0.26428229 -0.11642017 2.9080002 -0.2002560645 0.8831996918 0.4240941703
-0.046026457 0.069673084 1.4450001 -0.1136637107 0.7722749114 0.6250376105
0.02584764 0.1477008 1.404 0.04110072553 0.0187149141 0.9989797473
0.18136041 -0.0029017667 1.6550001 -0.3208761513 0.8571394682 0.4029273093
0.18193989 0.072238207 1.526 -0.5990207791 0.6859523058 0.4130902886
-0.11988592 -0.20707569 1.7760001 0.4709117711 -0.7888050675 0.3950046897
-0.40942436 0.31025583 1.6160001 -0.334205538 -0.5559251904 0.7610872984
-0.22623785 0.0076690796 1.4580001 -0.167077139 0.5884432793 0.791087687
-0.11661682 -0.0013404234 1.5289999 -0.2588980496 0.8026977181 0.5372598767
-0.034541763 -0.083892405 1.732 -0.1008905917 0.7719381452 0.6276404858
0.3137064 -0.33579838 1.6800001 -0.625412643 -0.02707341686 0.7798243761
-0.1063081 -0.085492522 1.6960001 -0.291311264 0.8618506789 0.4151520431
0.34934202 0.048583988 2.6390002 0.005774927326 0.88638556 0.462911725
0.076168306 -0.0064066797 1.6240001 -0.1192521527 0.9006242752 0.417917192
-0.18113862 -0.19971694 1.766 0.8743864298 0.2938311696 0.3861497641
0.14570902 -0.11448565 1.6960001 0.4232059121 -0.3610081077 0.8310053349
-0.20747632 -0.11171801 1.6550001 -0.3394303322 0.8150324225 0.4695841074
0.064673074 0.057588365 1.488143 -0.179009214 0.8098275065 0.5586904883
0.19363712 -0.36640388 1.6550001 0.3487640023 0.08669580519 0.9331921339
-0.044540051 0.0033026538 1.5530001 -0.1436521113 0.8843299747 0.4442123175
0.01056734 -0.49968421 1.7220001 -0.1401773244 0.6523090005 0.7448779941
-0.38260993 0.21324424 1.5940001 0.3770673573 -0.2858171165 0.8809816837
-0.3178837 0.0013526967 1.5430001 0.7582580447 -0.1006288007 0.6441417336
-0.18581681 0.045548264 1.4354001 -0.08641692251 0.5595955849 0.8242480755
0.084597461 -0.048555937 1.7129999 -0.1357583106 0.87868613 0.4576902986
0.2358505 -0.16553484 1.6710002 0.01936414838 -0.2546521425 0.9668388367
-0.045334186 -0.02762552 1.6160001 -0.249843657 0.8890775442 0.383561343
-0.10466654 -0.052575305 1.6355001 -0.2951639593 0.8500850797 0.436157763
0.15606771 0.1157691 1.4960002 -0.2910842299 -0.04021196067 0.9558519721
-0.22048956 -0.047344383 1.5430001 -0.2935431302 0.8298123479 0.4745987058
0.13468266 0.0025626719 1.6240002 -0.1739641875 0.8974448442 0.4053753316
0.13797507 0.041933596 1.5430001 -0.2221769392 0.8646371961 0.4505995512
-0.36224636 0.10338144 1.5640001 0.7332318425 0.06725296378 0.6766447425
0.075856864 -0.19618157 1.705 0.3370304704 -0.02894454449 0.9410487413
-0.096732274 0.13190764 1.4330001 0.2920510471 -0.5038639903 0.8129128218
-0.28204119 -0.35187998 3.0640001 -0.1981246769 0.7406337261 0.642034471
-0.025142021 -0.44518921 1.687111 -0.1983349919 -0.03865681589 0.9793716669
0.16890298 -0.019431317 1.705 -0.5424633026 0.7762057781 0.3213070035
-0.17451365 -0.28529188 1.7310003 0.4030801952 -0.2137338519 0.8898562789
0.085634567 0.095515452 1.4449999 -0.2662937939 0.7307982445 0.6285073757
0.12459609 -0.1751482 1.6959999 0.45848912 -0.2076637894 0.8640969396
-0.0074341334 -0.053525761 1.6960001 -0.2547056973 0.8743152618 0.4131559134
-0.14498752 -0.35424787 1.705 0.3562924564 -0.2773178518 0.8922726512
-0.02566354 -0.23399112 1.7220001 -0.01879901066 -0.1796629727 0.9835485816
0.10654656 -0.29448283 1.6880001 0.3312032521 -0.07520772517 0.9405573606
0.2063984 -0.12569897 1.6868571 0.269726783 -0.5580065846 0.7847777605
0.25535548 -0.25970811 1.6550001 -0.07250845432 -0.2433981895 0.9672124386
0.15528046 -0.21534179 1.6710001 0.1672446728 -0.02405508794 0.9856219292
-0.27040607 -0.11016544 1.6320001 -0.09174200892 0.9088447094 0.4069209695
0.20069267 -0.31202582 1.6710001 0.3299970627 -0.03835123777 0.9432026148
0.044074416 -0.15501863 1.7336669 0.2773942053 -0.4025951922 0.872335732
0.044604804 -0.35535157 1.6960001 0.07960744202 -0.1325174123 0.9879786372
0.15528046 -0.27540308 1.671 0.1959021389 -0.0938616097 0.976121068
-0.085974045 -0.29546538 1.7130002 -0.07021467388 -0.2814382613 0.9570069909
-0.0151751 -0.1851362 1.7310004 -0.008230018429 -0.4038122594 0.9148048759
0.064001054 -0.24554119 1.705 0.1213992015 -0.1205719709 0.9852535725
0.17990603 -0.44456118 1.6960001 -0.2105104029 0.5994651318 0.7722221017
-0.044841502 -0.33481652 1.705 -0.0234549921 -0.1798175722 0.9834203124
0.18742432 0.09233404 1.572 -0.81274575 0.431435734 0.3915451169
0.01952249 -0.26880968 1.7130001 0.04708299413 -0.198121652 0.9790459871
0.27421695 -0.36634803 1.6550001 -0.07383780181 0.461930424 0.8838372231
-0.09587577 0.068122268 1.439 -0.03611364588 0.7530236244 0.6570017338
-0.28296486 -0.082706138 1.5776001 -0.0008715830045 0.9044342041 0.4266123176
0.094366156 -0.43499324 1.682 0.1874607503 0.3531500697 0.9165934324
0.20508739 -0.20508739 1.671 0.2029739171 -0.04072828218 0.9783367515
-0.073971383 -0.24455845 1.7220001 0.006980988197 -0.08022628725 0.9967522025
0.05455716 -0.48653027 1.705 0.01196119003 0.4015871286 0.9157426953
0.10455301 0.2935527 1.529 0.2130999267 -0.2015495598 0.9560157657
0.0040761242 -0.32501727 1.7130002 -0.06666210294 -0.2507415414 0.9657561183
-0.060691632 -0.26123789 3.0100002 -0.1902388781 0.707277596 0.6808579564
-0.015816163 0.09644758 1.4150001 -0.17932944 0.6207982898 0.7631844282
-0.18381158 0.092532039 1.4235715 -0.02393263951 -0.004546203185 0.9997032285
0.034862153 0.016551841 1.5550001 -0.162506029 0.8982884884 0.4082517922
0.12891909 0.11359847 1.456 -0.5967742801 0.4508247077 0.6637902856
-0.15735348 -0.10309366 1.6880001 -0.434869498 0.7889201045 0.4341585338
-0.15783857 -0.24058889 1.748 0.5283898711 -0.6007390022 0.5999305844
0.08271718 0.38191861 1.557 0.1794951856 -0.4160921276 0.8914307952
-0.18260704 -0.37482497 1.7310001 0.3949352801 0.005725938827 0.9186910987
-0.21607028 -0.14557926 1.748 -0.1491625607 0.9192228317 0.3643897772
-0.2548503 0.045874435 1.4534999 0.3576900959 -0.08560810983 0.9299080968
-0.044052675 -0.157419 1.7570002 0.06578861177 -0.5791312456 0.8125754595
-0.13467902 -0.11722766 1.7310001 -0.334076643 0.7767986655 0.5338320136
0.12923031 0.2166892 1.4890001 0.3597505689 -0.2027357519 0.9107567072
-0.0051601697 0.061893653 1.4708751 -0.2024610043 0.8264173865 0.5253987312
-0.49854368 0.12238617 2.0530002 0.9952281117 -0.003534259042 0.09751187265
0.20468788 -0.41430318 1.6710002 0.004753486719 0.4517389238 0.8921375275
-0.18546095 -0.074549101 1.6044286 -0.423398912 0.7838820219 0.4541611373
0.111512 -0.34494376 1.6960001 0.4737401009 -0.274920702 0.8366534114
0.0417118 0.45465863 1.5860001 0.678918004 -0.1339920461 0.7218840122
-0.0048853131 -0.022702336 1.6390002 -0.2524676621 0.8715516925 0.4203066826
0.14209627 -0.37062222 1.6710001 0.2254591584 0.05391716957 0.9727595448
-0.11448564 -0.39549592 1.6960001 0.1426750124 -0.1916679889 0.9710341096
-0.21558987 -0.13431001 1.6960001 -0.3038927019 0.8705329895 0.3870678842
-0.17544952 0.013961475 1.4725456 -0.3648129702 0.7592543364 0.5389288664
0.13263352 -0.11738829 1.7390001 0.1951415539 -0.9495547414 0.2454905808
-0.054753091 -0.38475147 1.6879998 -0.0368819721 -0.06809780747 0.9969967008
0.095338129 0.043367326 1.5255715 -0.180666849 0.8741551638 0.4507906735
0.025276056 -0.39549592 1.6960001 -0.03815832734 -0.1572330594 0.9868240356
-0.13737541 -0.31400096 1.7220001 0.3151028454 -0.3361204267 0.8875433803
0.12596735 0.017995337 1.5790001 -0.127595976 0.8572931886 0.4987661839
-0.47370771 -0.23309427 2.8590002 -0.2674387097 0.6940108538 0.6684500575
0.28002048 -0.30323461 1.6550001 -0.05026310682 0.03000949323 0.9982850552
-0.30558759 -0.02248913 1.5090001 0.7393932939 0.5453378558 0.3948470652
0.054827496 0.11463765 1.421375 -0.1873664856 0.5343956351 0.8242057562
0.21285641 -0.052836701 1.7220001 0.6212791204 -0.02787017636 0.7830935717
-0.06450513 0.094276734 1.4150003 -0.08382935822 0.5515109301 0.8299447894
-0.23213431 -0.018360905 1.4960001 -0.3312034309 0.6988226175 0.6339962482
0.28719601 -0.228284 1.6800001 -0.08563351631 -0.1467673928 0.9854573607
-0.15656915 0.11328988 1.452 0.2960108519 -0.5329939127 0.79265064
0.0077409665 -0.078957863 1.766 -0.3391822278 0.8724693656 0.3517849147
-0.13423181 -0.047956042 1.6021429 -0.2836083174 0.8442723751 0.4547202289
-0.11471897 -0.22509769 1.7315718 0.1423854828 -0.3981375694 0.9062079787
-0.025251508 0.023922481 1.516 -0.1476452351 0.8494176269 0.5066463947
-0.14410479 0.056380391 1.4389999 -0.1636072248 0.586332798 0.7933766246
-0.081389733 -0.47206044 1.6880001 0.1045569927 0.2160543054 0.970766902
0.14058226 -0.4557825 1.6880001 0.06181969866 0.552752912 0.8310490847
