# .PCD v0.7 - Point Cloud Data file format
VERSION 0.7
FIELDS x y z normal_x normal_y normal_z
SIZE 4 4 4 4 4 4
TYPE F F F F F F
COUNT 1 1 1 1 1 1
WIDTH 206
HEIGHT 1
VIEWPOINT 0 0 0 1 0 0 0
POINTS 206
DATA ascii
0.21274033 0.11485248 1.557 -0.345805794 -0.2845636904 0.89411515
-0.35583898 -0.49470299 3.3000002 -0.2133384198 0.773489058 0.5968261361
0.49424362 -0.1208748 3.0640001 -0.0385587588 0.8215216398 0.5688720942
-0.2338659 0.16250384 2.2120001 -0.7107248306 -0.4509639144 0.5399090052
-0.11398245 -0.49597767 1.7570001 0.4835776687 0.2850679159 0.8275801539
-0.27583438 0.37640563 1.6800002 -0.9790434241 -0.1073717326 -0.1730470657
0.27747551 0.41886431 2.016 -0.7826821804 -0.5971286297 0.1756304801
-0.35299769 -0.22662622 2.8830001 -0.2440647185 0.7670837641 0.5933084488
0.33121783 -0.29890388 1.8430001 -0.6874739528 0.04271414876 0.7249517441
0.087998047 -0.33212167 3.2380002 -0.2734197974 0.6702807546 0.6899024248
-0.17992005 -0.072251357 1.6160001 -0.04823081568 0.8176836371 0.5736438036
-0.0083020329 -0.20090921 1.8940001 0.1321807951 -0.936416328 0.3250425458
0.2164959 0.3547436 1.733 -0.5292977691 -0.4583331048 0.7139850855
-0.15721789 -0.27648667 3.0920002 -0.2844090462 0.7162271142 0.637283504
0.20499535 -0.057899449 1.7850002 -0.1310476661 0.8783916235 0.4596244991
0.15570126 -0.49384037 1.794 0.03179875016 0.5016390085 0.8644924164
0.30646515 -0.23681396 3.1780002 -0.0119101787 0.8296609521 0.5581405759
-0.30160284 0.18813998 1.9810001 -0.5756437182 0.7880478501 0.2182083577
-0.023479471 0.081956647 1.5160002 0.06533527374 -0.5334306955 0.8433166742
-0.22992073 0.15939291 1.6090001 -0.08283785731 -0.09092336893 0.9924066067
-0.17056865 -0.28636754 1.7850002 0.4570734799 -0.3805588186 0.8039022684
0.00150962 -0.07095214 1.7220001 -0.392826885 0.8358800411 0.3833948672
-0.052105561 0.12625578 2.286 -0.4464069605 -0.7682381272 0.4588365555
-0.11070722 -0.39457187 3.2380002 -0.1733870208 0.6889111996 0.7038027644
0.062345028 -0.20872031 3.0920002 -0.1790330857 0.6140611768 0.768684566
0.022578551 -0.35566807 1.785 -0.1916947365 -0.3635900617 0.9116224051
-0.26764545 0.33004132 1.8730001 -0.9916674495 0.10155572 -0.0792594105
0.15587221 -0.24586028 1.8329999 0.1224719509 -0.376187712 0.9184135199
0.31193906 0.037409119 1.6800001 -0.650580287 0.5961019993 0.4705398083
-0.15940429 0.25468042 2.0900002 -0.4949841201 0.770909071 0.4008614719
0.096335143 0.01275024 1.6160001 -0.1897525191 0.8320897818 0.5211722851
0.26539853 -0.14688726 1.9040002 -0.1098815948 -0.2642097473 0.9581853747
0.30205286 -0.45228022 1.8230001 -0.2433159947 0.2547026575 0.9359080791
-0.13454589 -0.13822368 1.7479999 -0.3144280314 0.8308302164 0.4591907263
0.26904899 -0.309551 3.3000002 -0.1458801031 0.8088338375 0.5696549416
0.084824078 -0.10259674 1.8430001 -0.1542511433 0.8303156495 0.5355207324
-0.3322286 -0.32176471 2.9840002 -0.2334196419 0.772834897 0.5901198983
-0.044071265 -0.028912991 1.6010001 -0.3528679609 0.7958909869 0.4919773936
0.024771089 -0.49387363 1.7660002 -0.2722287774 -0.1689760983 0.9472795725
0.20548628 -0.36488006 1.813 0.08153406531 -0.3447867334 0.9351332784
-0.13618666 0.014686796 1.5230001 0.4504754543 0.2813668549 0.8472924829
0.22728372 0.45297804 1.8130001 -0.5095237494 -0.5841978788 0.6317423582
0.2160808 -0.177788 3.1200001 -0.1010427028 0.7853637338 0.6107324958
-0.095427558 -0.37544128 1.7479999 0.09752798826 -0.3803472817 0.9196870327
0.095078446 0.10445262 1.5275 -0.0967233777 -0.1761067361 0.9796075821
-0.055045903 -0.2547839 1.7940001 -0.0496988073 -0.4270343781 0.9028685689
-0.23359221 0.26841342 1.6550001 -0.634491384 -0.2829774618 0.7192665935
-0.42466435 -0.46684957 3.2080002 -0.220453158 0.7743291855 0.593139708
0.19588239 -0.0073639997 1.6799999 -0.09495688975 0.8915193677 0.4429180026
-0.17934233 -0.18580511 1.8430001 0.114873454 -0.03642387316 0.9927121401
-0.031258132 -0.12768154 1.8130001 -0.4596835971 0.7931286693 0.3995471597
-0.033432558 -0.34825584 3.1780002 -0.2017204016 0.6671217084 0.7171174884
-0.20541878 0.054498862 1.594 -0.3592123985 -0.2446946949 0.9006058574
0.10470819 -0.047042809 1.7310001 -0.1263386011 0.882412672 0.4531957507
0.047145821 -0.25650522 1.8230001 -0.1507154703 -0.5601138473 0.8145902753
0.25579402 -0.22540842 1.8330001 -0.01904937625 -0.1874595433 0.9820876122
-0.19774181 -0.43273932 3.2690001 -0.2112630308 0.7700832486 0.6019465923
-0.095219158 -0.0883829 1.6710001 -0.3498039544 0.834132731 0.4264502525
0.11481 -0.40419415 1.794 0.004067957401 -0.3186298311 0.9478704929
0.24468318 0.04553657 1.6160001 -0.2596482038 0.7314306498 0.630548954
0.2739934 -0.025881832 1.7363334 -0.004813187756 0.8845061064 0.4665037692
0.10213219 -0.18423203 1.8730001 0.1476871073 -0.7835632563 0.6035040617
0.17300534 -0.10477789 1.853 -0.04666177556 0.8963323832 0.4409205019
0.02467992 0.026736582 1.5640001 -0.3159798682 0.7790942788 0.5414506793
-0.044439986 -0.44593227 1.748 -0.07748226821 -0.1082673222 0.9910976887
0.027433529 -0.027433529 1.6470001 -0.2947518528 0.8281425238 0.4767612815
0.10490018 -0.31628993 1.8129998 0.1025596261 -0.1992926747 0.9745583534
0.22445247 -0.44418675 1.7939999 0.09290696681 0.2202179134 0.9710161686
0.16195802 0.047064729 1.5790001 -0.2344251722 0.7134501338 0.6603285074
0.28660399 -0.3659794 1.8230001 -0.2547692358 -0.1558339596 0.9543628097
0.34189999 -0.1941992 3.1200001 -0.04603698477 0.8204830289 0.5698142052
0.19762082 -0.18128853 1.863 -0.2589747012 -0.3105113804 0.9146118164
-0.11566554 -0.04642057 1.5727779 -0.2339043468 0.7990158796 0.5539515615
0.42440486 -0.15310808 3.0640001 -0.04603698477 0.8204830289 0.5698142052
-0.053189117 0.01413888 1.536 -0.2630811632 0.7054819465 0.6580907702
-0.31896114 -0.25153846 2.9580002 -0.2334196419 0.772834897 0.5901198983
0.19768132 0.42754331 1.748 -0.4361161888 -0.5654767156 0.7000276446
0.054493602 -0.079404958 1.7760001 -0.1770050377 0.9066066742 0.3830582201
0.24264643 -0.30370978 1.8330001 0.03598194197 -0.03068377078 0.9988812804
-0.044897605 -0.3251206 1.7660002 -0.3028814197 -0.3139705658 0.8998251557
-0.19308101 -0.015168525 1.5731667 -0.7324458361 0.00767052779 0.6807820797
0.045151837 -0.42505008 1.7760001 -0.1881953329 -0.09553200006 0.9774743915
-0.16373563 -0.10768505 1.6826668 0.1052412391 0.8746910691 0.4731170833
-0.06742619 -0.11186618 1.748 -0.3459720612 0.8710238338 0.34874174
0.1355702 -0.074547879 1.794 -0.03018633835 0.9126403332 0.4076473713
-0.13653673 -0.22510111 1.8040003 0.1153394654 -0.1164063066 0.9864818454
-0.095417567 -0.15340614 1.8040003 -0.3880821168 0.8108630776 0.43805632
0.12581921 -0.20513999 3.1200001 -0.1402933002 0.6053645015 0.7834868431
-0.032802679 -0.059044812 1.6630001 -0.3947289586 0.8461081982 0.3581759036
-0.14088559 -0.42420498 1.766 0.7110378146 -0.001438086852 0.7031522989
0.12451734 -0.01611401 1.6710001 -0.2457797974 0.8829927444 0.3998951614
-0.10620606 -0.29601461 1.766 -0.03253132477 -0.4376938045 0.8985353708
0.091860637 -0.48110065 1.7760001 -0.08133739978 0.1016011164 0.9914945364
0.27112669 0.10149872 1.5860001 -0.4604314268 0.2901943922 0.8389220238
-0.032138601 -0.20729397 1.8330001 -0.3737601638 -0.6281602383 0.6824353933
0.17483363 -0.30516413 1.8129998 -0.02919610962 -0.102369979 0.9943178296
0.096434504 0.051645014 1.5640001 -0.2747338712 0.7694580555 0.576589644
-0.1543971 -0.34524706 1.766 0.5801610947 -0.1354849488 0.8031543493
0.36279273 -0.23342477 3.2080002 -0.0385587588 0.8215216398 0.5688720942
0.17451364 -0.037937749 1.7310001 -0.2765454054 0.8148480058 0.5094559789
0.23411734 -0.092982769 1.8940001 -0.7831901908 0.05467498302 0.6193737388
0.31514588 -0.23879611 1.853 -0.1601732522 -0.3052574396 0.9387025237
0.15754752 0.092912637 1.536 -0.2925836444 0.002733013593 0.9562360048
0.04386051 -0.19656006 1.853 0.2244410664 -0.3551712036 0.9074577689
-0.23437157 0.19089943 2.1560001 -0.7107248306 -0.4509639144 0.5399090052
-0.21802437 0.20791727 1.6470001 -0.631413579 -0.4685302079 0.6178967357
-0.0047445199 -0.29574174 1.804 -0.5253567696 -0.2061541826 0.8255305886
0.25635925 0.01025437 1.6710001 -0.1935631931 0.8242532611 0.5321088433
-0.024644854 -0.38507584 1.7570001 -0.2867433429 -0.2498683631 0.9248481393
-0.25707015 0.32460213 1.655 -0.09257264435 -0.4269837141 0.8995082974
0.034751065 0.10157367 1.5245 -0.03689654544 -0.5181814432 0.8544744849
0.027466843 -0.12117725 1.8430001 -0.1983680427 0.89730829 0.3943195939
0.055607319 -0.047875818 1.6960001 -0.1975256056 0.8812096119 0.429480195
0.29318041 0.073650233 1.6366668 -0.7082762122 0.4341007769 0.5566877723
0.17369835 -0.41468525 1.7850001 -0.1560320258 -0.0136484718 0.9876577258
0.16739424 0.0214608 1.6320001 -0.2826364636 0.8076528907 0.5175069571
-0.092602298 0.051592711 1.5090001 0.02093601041 0.08058561385 0.996527791
0.22336327 -0.085167289 1.8330001 0.02268017828 0.8827288151 0.469335109
0.22614011 -0.49383247 1.8230001 -0.2900879979 0.4471358061 0.8461197019
0.095730036 -0.23427603 1.8430002 0.1096539423 -0.1827661693 0.9770222902
-0.093407668 -0.22397196 1.7659999 -0.7788419127 0.3206053674 0.5390895009
0.26132995 -0.051640049 1.7850001 -0.05766788498 0.8666421771 0.4955863059
-0.19659288 0.11409678 1.6067142 0.07061357051 -0.333271265 0.9401829243
0.14391711 -0.35583898 1.804 0.025330998 -0.2202196866 0.9751213193
-0.013314461 -0.1024904 1.766 -0.3741468489 0.8185005784 0.4359712601
0.074330807 -0.3653281 1.804 -0.179550603 -0.3458827734 0.9209379554
0.32620677 -0.40333942 1.8330001 -0.4714954197 -0.06988409162 0.8790951371
-0.12528618 -0.075456455 1.6240001 -0.1422768384 0.8731027842 0.4663140476
0.28254879 -0.18782145 1.863 -0.1978280991 -0.5319777727 0.8233247995
0.24431913 0.30805454 1.7310001 -0.8779324293 -0.3086807132 0.3659929335
-0.07593336 -0.36560506 3.2080002 -0.2017204016 0.6671217084 0.7171174884
0.046092503 -0.3162899 1.813 -0.1504027992 -0.1548131108 0.9764281511
-0.32535204 0.17778799 2.0280001 -0.4572307765 0.8278214931 0.3250409067
-0.025613194 -0.49584523 1.748 -0.4718666375 0.1957181096 0.8596721888
0.26542923 -0.41483253 1.8130001 -0.1639053971 -0.0782886669 0.9833645821
0.20616306 -0.26050061 1.8230001 0.03917792812 -0.02601915598 0.9988934398
-0.16289519 -0.15340614 1.8040001 0.6138611436 0.6138651967 0.4963305593
-0.095663838 -0.4348703 1.7390002 0.3753750622 -0.02239491977 0.9266024232
-0.25358811 0.23942117 1.6160001 -0.8172603846 -0.2508712411 0.5187958479
0.21400607 0.066721179 1.5790001 -0.2596232891 0.6701273322 0.6953597069
0.22637987 0.14952251 1.5940001 -0.4055398107 -0.3910907805 0.8261873126
0.14333537 -0.19642255 1.8430002 0.03516015038 -0.3978559375 0.9167739153
-0.052315082 -0.088188283 1.705 -0.4089746773 0.795463562 0.4471883774
0.22493339 -0.02566354 1.7220001 -0.04093055427 0.9151465893 0.401037991
0.0056281998 -0.0084458068 1.605 -0.3565271795 0.7993503809 0.4836603701
0.2844266 -0.27478504 1.8329999 -0.1134566665 -0.350192368 0.9297810793
0.076896816 -0.018861484 1.6550001 -0.1751152277 0.8602167368 0.4789173305
-0.10612225 -0.11613379 1.7130002 -0.3475688696 0.8361462355 0.4243292511
0.055208955 0.056555521 1.5360001 -0.2208446711 0.6991987824 0.6799622774
0.30091146 -0.28658232 3.2690001 -0.1458801031 0.8088338375 0.5696549416
0.32900512 -0.34172028 1.8130001 -0.1644852608 -0.1103932038 0.9801825881
-0.00476819 -0.24794589 1.8130001 -0.4375019073 -0.5199128389 0.7336775064
-0.070105277 -0.05865952 1.6320001 -0.2794020176 0.8175894618 0.503469944
-0.0067021167 0.038202062 1.529 -0.4117740691 0.5989770889 0.6867812872
-0.098298877 -0.01211904 1.536 -0.2233178914 0.6787565947 0.6995846033
0.1345771 -0.44598222 1.785 0.03446656093 -0.210482806 0.9769898057
-0.0046445802 -0.42575315 1.7659999 -0.3497487903 -0.04448768124 0.9357866049
0.2155285 0.018679136 1.6390001 -0.07956953347 0.7504718304 0.6560950875
-0.16982874 0.01263189 1.6010001 -0.4196779728 -0.209228158 0.8832293153
0.20488358 -0.21613209 1.8330001 0.1225150675 -0.5708640814 0.8118523955
-0.15151167 -0.023204491 1.557 0.6856206656 0.2862305641 0.6693253517
0.046316933 0.01263189 1.6010002 -0.2437365949 0.8138028979 0.5275579095
0.092714809 -0.27284643 1.8130001 0.2302877307 -0.1795630902 0.956412375
-0.014739397 0.0047988729 1.5640001 -0.4505292773 0.7238975167 0.522489965
0.23936068 -0.17663167 1.8830001 -0.08702694625 -0.8081614971 0.5824958086
-0.074701637 -0.48438263 1.7390002 0.1719415039 0.2606925368 0.9499871135
0.025304107 -0.099634923 1.8040001 -0.3267616034 0.8198910952 0.4701122046
0.17483363 -0.083443321 1.813 -0.2106485516 0.8640453815 0.4572228491
0.13584389 -0.28607124 1.8230002 0.1463243812 -0.3441924453 0.9274269342
0.26320788 -0.46338147 1.804 -0.3055846095 0.3626224697 0.8804106712
-0.099082619 -0.26264757 1.794 0.1392936856 -0.5563201904 0.8192100525
0.073515512 -0.18378878 1.8230001 -0.02169946767 -0.306810081 0.9515233636
-0.058165956 0.079809099 1.5430001 0.2841174901 -0.7421471477 0.6070377827
0.044094954 -0.065386184 1.7344285 -0.1996437162 0.8992063403 0.3893204033
-0.065813124 -0.016910316 1.5640001 -0.4034897089 0.763217032 0.5046739578
0.086066753 -0.43502831 1.785 -0.01615958102 -0.1437729299 0.9894787669
0.18621714 -0.46163076 1.7850001 -0.3929967284 0.1023705304 0.9138237238
0.13498211 -0.09239848 1.8330001 -0.04183449224 0.923217535 0.3819938302
-0.012473839 -0.036200445 1.6330001 -0.3906453848 0.7575039268 0.5230525136
0.094574101 -0.081922039 1.8040001 -0.1408625692 0.9164818525 0.3744578958
0.22562945 0.39637607 1.7390001 -0.3856186569 -0.323505193 0.8640848398
0.29566023 -0.31483817 1.8230002 -0.2120692432 -0.05458687991 0.975728929
0.24423729 -0.34701827 1.8130001 -0.07263861597 -0.2899139225 0.9542921782
0.16565669 -0.060379539 1.7660002 -0.1272025257 0.8781853914 0.4610964954
-0.0655545 -0.4039987 1.7390002 -0.2599463761 -0.377949059 0.8885844946
0.0044184001 -0.048602398 1.6799999 -0.2798195183 0.8865441084 0.3684298396
-0.064158849 -0.13301225 1.7850001 -0.4035558999 0.8091136813 0.4271741211
-0.044978257 0.044978254 1.5090002 0.07308945805 0.06504878402 0.9952017665
0.01454127 -0.22458182 1.8430002 -0.1009846106 -0.5295519233 0.8422451615
-0.085150629 -0.33595797 1.7659999 -0.007810016628 -0.1223292798 0.9924588203
0.19685812 0.44660816 1.7850001 -0.4260062575 -0.5849220157 0.6902064085
0.13516185 0.025336543 1.6059998 -0.1126401648 0.7977684736 0.5923492312
-0.065643393 -0.28703505 1.766 -0.1986837685 -0.4171242714 0.8868664503
0.22385333 -0.39685473 1.794 -0.1311808079 -0.2404609919 0.9617536664
-0.1660582 -0.13133694 1.7220001 -0.001699102228 0.8812560439 0.4726361334
-0.17553671 -0.052524019 1.5766667 0.05408622697 0.7426785827 0.6674602628
0.19464388 0.042586055 1.6060002 -0.1268710345 0.8385045528 0.5299186707
0.14349279 -0.03138905 1.705 -0.1895985901 0.8608131409 0.4722849429
-0.13462251 -0.38507587 1.7570002 0.4275155962 0.08275014907 0.9002126455
0.094439782 -0.067604445 1.7660002 -0.1448872834 0.9157309532 0.374759227
0.054493599 -0.46553102 1.7760001 -0.1781122535 -0.1779306382 0.9677895904
0.13995983 0.1263715 1.5500001 -0.2877396345 -0.3125790656 0.9052625299
-0.16026957 -0.08807607 1.6470001 0.03552679345 0.8950763941 0.4444952905
0.20829396 -0.32229629 1.8230001 -0.1842004955 -0.05932191014 0.9810968637
-0.16052906 -0.25430346 1.8130001 -0.1402679086 -0.4448111653 0.8845721483
0.02101896 -0.39468938 1.7760001 -0.4562521279 -0.2926169038 0.8403626084
