# .PCD v0.7 - Point Cloud Data file format
VERSION 0.7
FIELDS x y z normal_x normal_y normal_z
SIZE 4 4 4 4 4 4
TYPE F F F F F F
COUNT 1 1 1 1 1 1
WIDTH 206
HEIGHT 1
VIEWPOINT 0 0 0 1 0 0 0
POINTS 206
DATA ascii
0.11473111 -0.033211637 1.7220001 -0.08945424855 0.8826547861 0.4614309072
-0.36162499 -0.49470299 3.3000002 -0.2463255376 0.7928465605 0.5574208498
0.49962199 0.14444047 2.7010002 -0.3828793466 0.7974396944 0.4663618207
-0.36492303 -0.13082147 2.618 -0.2955911756 0.8460664749 0.443618536
0.29521924 -0.25263956 3.2380002 -0.1598380655 0.8438466787 0.5122251511
-0.40358666 0.25245634 1.9590001 0.9805659652 0.06310680509 0.1857629716
0.24066867 0.46426862 1.9470001 -0.8506017923 -0.4634034932 0.248462826
-0.10214306 -0.49242103 1.7390001 0.1813033819 0.3486915231 0.919534266
-0.087600037 0.13737279 2.2710001 -0.2789532244 -0.8163455129 0.5057321787
-0.13223435 -0.22453214 3.0369999 -0.2399968207 0.7998153567 0.5501790047
0.31628993 -0.40529615 1.813 -0.4251347482 0.352563113 0.8336424232
-0.22554143 0.16517347 1.5940001 0.02767494507 -0.1504019201 0.9882375002
0.38771021 0.28404438 2.365 -0.1527499706 -0.8644667864 0.4789203107
-0.18158309 -0.1655138 1.8330001 0.6106262207 0.03953011334 0.7909317017
0.24463996 0.27393818 1.6710001 -0.9207493663 -0.175501436 -0.3484534919
0.46469644 -0.10475816 3.0640001 -0.1333554983 0.8494215608 0.5105872154
0.15593182 0.27992579 2.1430001 -0.3788125515 0.8691518307 0.3179247677
0.033072248 0.12038299 1.5090001 0.04627060145 -0.234018594 0.9711304307
0.065562613 -0.284502 1.813 -0.2260751426 -0.1427544206 0.9635928869
-0.11286324 -0.057139963 1.6160001 -0.3439317346 0.8419284821 0.4157732427
0.10571548 -0.17619246 3.0920002 -0.2040274143 0.7746376991 0.5985893607
0.26068383 -0.13449293 1.8940001 -0.6935995221 0.01766815968 -0.7201441526
-0.29549658 0.39415666 1.655 -0.68541044 -0.3576731682 0.6342573762
-0.33883166 -0.3713595 3.0920002 -0.2674527466 0.8295208216 0.4902695715
0.11521503 -0.49511325 1.7760005 -0.1630101204 0.3292310834 0.9300723672
0.17532018 0.48327389 1.7390001 -0.9410277605 -0.3379387558 0.01625403762
0.29398087 0.064083807 1.6390002 -0.7976073027 0.1134523451 0.5924113393
-0.087182745 -0.35154334 3.2080002 -0.2463255376 0.7928465605 0.5574208498
-0.0048733898 -0.11858582 1.853 -0.3118135333 0.8787660003 0.3613069057
0.20373821 0.20777263 2.3010001 0.1793616265 -0.8975268602 0.402833581
-0.11613888 -0.31391382 1.7570002 0.1314940155 -0.4812848866 0.8666453958
0.32256773 -0.17619246 3.0920002 -0.1333554983 0.8494215608 0.5105872154
-0.12170587 0.062175829 1.5090001 0.2282373458 -0.2963616252 0.9274036288
-0.24649937 0.13026389 2.286 -0.6639922857 -0.5259272456 0.5315212011
0.26468319 -0.02646832 1.7760001 -0.2112930566 0.8888810873 0.4065042436
0.22410494 -0.27496564 1.813 -0.008465113118 -0.02609881014 0.9996235371
0.18517958 0.13499029 1.5505384 -0.3063508272 -0.3304530084 0.8927205205
-0.28941572 0.37323558 1.8040001 0.9724137187 -0.2285805792 -0.04650304839
0.024594883 0.0063877306 1.6065383 -0.3141416013 0.8101024628 0.4950242639
0.13498211 -0.15747914 1.8330001 0.4757423401 -0.4323525429 0.7659898996
0.0040253024 -0.40345922 1.766 -0.4465946555 -0.2043716758 0.871082902
-0.026418351 -0.074726187 1.7220001 -0.3581103086 0.8437846899 0.3997303545
0.45691165 -0.16994885 3.1780002 -0.1333554983 0.8494215608 0.5105872154
0.15158619 0.029750559 1.6160001 -0.1734801084 0.8275082707 0.5339800715
0.01656374 -0.30642918 3.1490002 -0.2060825825 0.7677990198 0.6066420674
-0.16519029 -0.11863667 1.7130001 -0.118440479 0.9097695947 0.3978581727
0.17780483 -0.38519189 1.7760003 -0.09346891195 -0.2625202537 0.9603888392
-0.33484459 -0.31130081 2.9840002 -0.2640740871 0.8329936862 0.4861958027
-0.26558378 0.27458739 1.6350001 0.1560163051 -0.5658014417 0.8096466064
-0.20994939 0.01251354 1.5860001 0.5779131651 0.07764070481 0.8123966455
-0.28828746 0.27430987 1.9930001 0.9980426431 -0.02487515658 0.05737646669
-0.055045903 -0.2163641 1.7939999 -0.006686063949 -0.6304574609 0.7761949897
-0.24276653 -0.2454053 3.0100002 -0.2640740871 0.8329936862 0.4861958027
0.2079896 0.37468165 1.7130001 -0.4593622386 -0.4075775146 0.7892192006
0.33188525 -0.28394035 1.8230001 -0.2219232768 -0.0165636912 0.9749234319
0.25635925 0.16637193 1.6710002 -0.02538867109 -0.2317826003 0.9724362493
-0.29057115 0.32377928 1.8940001 0.7306188345 -0.6635304093 -0.1610077173
0.22299244 -0.4728705 1.8040001 -0.1694771945 0.5381637216 0.82562536
0.20815572 0.0014868267 1.6960001 -0.1154625043 0.9160011411 0.3842008412
0.074330807 -0.076439492 1.8040003 -0.2483522892 0.8822212219 0.4000085294
0.17801243 -0.068344057 1.8130001 -0.3131567538 0.7826272249 0.5379846692
-0.024882955 0.036384299 1.5260001 -0.3877690434 0.6991629601 0.6006715298
-0.087631598 -0.12597042 1.7850001 -0.4353950024 0.7962318659 0.4200547338
-0.014965869 -0.30602622 1.7659999 -0.5195762515 -0.227944389 0.8234572411
0.29406208 -0.19657409 1.8230001 -0.3373177946 -0.4396468699 0.8324225545
-0.14016761 -0.40509978 1.7570001 0.6309289932 0.151321575 0.7609404922
0.0027583439 -0.49558249 1.7479999 -0.4290143847 0.2668970823 0.8629673123
0.10609006 0.072852373 1.5430001 -0.1707339734 0.8288003206 0.5328601599
0.044994038 -0.19443853 1.8330001 0.04780347645 -0.3843166232 0.9219628572
-0.33371457 0.19743322 1.9930001 0.8037802577 0.5878787637 0.09130108356
0.086066753 -0.37399915 1.7850001 -0.2026245296 -0.5359097719 0.8195999265
-0.16199222 -0.24692018 1.794 0.2685270011 -0.650228858 0.7107008696
-0.1413888 -0.020198399 1.536 0.02530837432 0.7175824046 0.6960136294
0.22292639 0.06627541 1.5860001 -0.2972042859 0.7290081382 0.6166172028
0.14423776 -0.24635647 1.813 0.07454814017 -0.1430987865 0.9868968129
0.035515517 -0.031076079 1.6880001 -0.204080224 0.8826447725 0.4234258235
-0.26971087 0.19681604 1.6630001 0.804948926 0.1023385525 0.5844519734
-0.037540618 -0.041872229 1.6470001 -0.3691815734 0.8367680311 0.4043812752
-0.065056711 -0.37418738 1.7331818 -0.1585021466 -0.277841121 0.9474604726
0.24829654 -0.35267597 1.8040001 -0.265394479 -0.536028862 0.8013980389
0.20616306 -0.19497593 1.8230001 -0.196629107 -0.2374278158 0.9512965083
-0.056207191 -0.013362738 1.5766667 -0.3516272604 0.7928328514 0.4977694154
-0.099147491 -0.090268612 1.6880001 -0.3615132272 0.842466116 0.399448365
0.1439171 -0.32420886 1.804 0.0521534197 -0.1537932605 0.9867257476
0.090963811 -0.00144387 1.6470001 -0.203641817 0.8154726624 0.5417881012
-0.21179126 0.085823908 1.5790001 0.6271051168 0.0403367877 0.7778894901
-0.1732644 -0.083744459 1.6470001 0.06210996956 0.8393239379 0.5400719047
0.23028544 -0.073495351 1.863 -0.8211140633 -0.5707601309 0.002128301421
0.065024123 -0.44433144 1.7660002 -0.1172209233 -0.07297562808 0.9904210567
-0.17142867 -0.34128457 1.794 0.8548125625 0.01376966387 0.5187541842
0.0046945498 -0.085023522 1.7850002 -0.3457208276 0.8531204462 0.3907206655
-0.044052988 -0.44508553 1.7327778 -0.03019538149 -0.01383997127 0.9994481802
-0.034348458 0.10303223 1.50675 0.2325937301 -0.3759143651 0.8969886303
0.18945731 -0.029265763 1.7570001 -0.2126502842 0.8823820353 0.4197401106
-0.18599899 -0.05432776 1.5755 -0.3448755741 0.5938845873 0.7268850803
0.11858582 -0.094218872 1.853 -0.03306891769 0.8908326626 0.4531264901
0.0047445199 -0.24671502 1.804 -0.2317509204 -0.3872895241 0.8923555017
0.036144964 0.050820369 1.5500001 -0.271320194 0.7602885365 0.5902090669
0.12227045 0.13157363 1.516 -0.1125276908 -0.08760868758 0.9897788763
0.24002957 0.31702018 1.7220001 -0.6400546432 -0.3012673259 0.7068012953
0.27181312 0.0045051901 1.7130001 -0.242025122 0.882766664 0.402674675
0.08594051 0.037031274 1.5940001 -0.1509236842 0.8158234358 0.558259964
-0.19840194 0.086174577 2.286 -0.294326961 -0.7992451787 0.5240026116
0.25507057 -0.41468525 1.7850001 -0.2509157956 0.09118844569 0.963704288
0.30366856 -0.20152551 3.1490002 -0.1333554983 0.8494215608 0.5105872154
0.25219595 0.12265268 1.572 -0.5802954435 0.3270087242 0.7458702922
0.12611376 -0.42505008 1.7760001 -0.1090250015 -0.06469731033 0.9919313788
0.44583759 -0.1449656 3.1200001 -0.1333554983 0.8494215608 0.5105872154
0.053634465 -0.055166878 1.748 -0.2676976323 0.8961635232 0.3538770676
0.2353508 0.03032127 1.647 -0.2108941674 0.8415080309 0.4973810315
-0.27553853 0.33521846 1.647 0.3215652108 -0.2522929013 0.9126577377
0.20227855 0.42754331 1.748 -0.2323266268 -0.4049938023 0.8843101263
0.15088573 -0.00146491 1.6710001 -0.1665657759 0.849140048 0.5012155175
-0.085450448 0.013351632 1.523 -0.2892546058 0.6778612137 0.6758964062
0.41800255 -0.13578427 3.0370002 -0.1333554983 0.8494215608 0.5105872154
0.03617302 -0.3349936 1.794 -0.1684120446 -0.3378524184 0.9260092378
0.16361873 0.07632494 1.5640001 -0.2782756686 0.7209501863 0.6346601844
-0.091343403 -0.25854829 1.766 0.02706827596 -0.4461324811 0.894557476
0.33241796 -0.34520325 1.8230001 -0.2983718812 0.02531183884 0.9541140199
0.12611376 -0.054493595 1.7760001 -0.1628403515 0.9137673378 0.3721723258
-0.01438347 -0.18538694 1.8230001 -0.1971140206 -0.8121757507 0.5491053462
-0.30641693 0.36620557 1.705 0.9939864278 0.01907491311 -0.1078293473
-0.23942117 0.22667092 1.6160001 0.3801721036 0.0900118053 0.9205254316
0.17593649 -0.45618927 1.7760001 -0.2795677483 0.157869488 0.9470581412
0.2748841 -0.25410795 1.8230001 -0.07934428751 -0.09004545212 0.9927720428
0.10445045 -0.2040801 1.8329999 0.1626753658 -0.5481696129 0.8203942776
0.23248148 -0.06167876 1.8040001 -0.07643386722 0.8868880868 0.4556176364
-0.095603131 -0.42490277 1.7310003 0.255303055 -0.08853472024 0.9627990127
-0.075374484 -0.10278785 1.7370002 -0.3864337802 0.8200570345 0.4221082628
0.23712079 0.21650159 1.6799999 -0.09629777819 -0.1597869545 0.9824433327
0.25366437 -0.16641676 1.8430002 -0.07534699142 -0.6527625322 0.7538062334
0.19549581 -0.34489912 1.813 -0.2416785359 -0.1153307408 0.9634782076
-0.034115359 -0.11635369 1.804 -0.3606815934 0.8442968726 0.3963225484
-0.12565789 -0.13025513 1.748 -0.3836113811 0.8241804242 0.4166159928
0.284502 -0.30516419 1.8129998 -0.1341708601 0.002742785728 0.9909543991
-0.064692743 -0.32500404 1.7570001 -0.1497571766 -0.2226019651 0.9633385539
0.31453484 -0.25194085 1.7850001 0.1297874451 -0.09342000633 0.9871311784
0.050086595 -0.10178889 1.8430001 -0.2854049802 0.8681687713 0.4059889019
-0.023222899 -0.35763267 1.766 -0.410412699 -0.2711191177 0.8706640601
-0.16462456 -0.29673705 1.7659999 0.5339987278 0.004825877957 0.8454715014
0.089827649 -0.16495623 1.863 0.003195924917 -0.6452530622 0.7639622092
-0.01240308 0.01240308 1.572 -0.4387301803 0.7667871118 0.468565166
0.054186769 -0.49387372 1.7659999 -0.2256386131 0.1064884737 0.9683735967
-0.11494239 -0.36547205 1.7350003 0.2178836018 -0.3121617734 0.9247062802
-0.15610102 0.019843349 1.5090001 0.3349936903 0.3181224465 0.8868919611
-0.043033373 -0.26445964 1.7850001 -0.3524509072 -0.4156851172 0.8384415507
0.087416813 -0.3321839 1.8130001 -0.1088910699 -0.08133369684 0.9907207489
-0.10414649 -0.027759273 1.5719999 -0.3545316458 0.7923697829 0.4964448512
0.28070077 0.10438119 1.6090001 -0.8080064654 0.340462774 0.4808437228
0.0079741599 0.074425496 1.5159999 -0.1518463343 0.409399271 0.8996304274
-0.078774638 0.086785614 1.5230001 0.2680953443 -0.5412048101 0.797008276
0.011891282 -0.44729513 1.7390001 -0.3945080042 -0.2540329397 0.8830802441
0.28766942 -0.44428939 1.8230001 -0.5545352101 0.6111429334 0.5647964478
0.065165259 -0.23523073 1.8130001 -0.02469652705 -0.2640632689 0.9641891122
-0.044007789 -0.49429443 1.7310002 0.04125819355 0.2137237042 0.9760224819
-0.17515537 -0.22014941 1.8330001 0.5412358642 -0.3128123879 0.7805204391
0.17515187 -0.28664809 1.804 -0.163174361 -0.05399488285 0.9851186275
0.11418477 -0.28562012 1.8040001 -0.03401965648 -0.00356263225 0.9994148016
0.19818452 -0.15757294 1.853 -0.06880841404 -0.7548946738 0.6522265077
0.011550959 -0.02165805 1.6470001 -0.1870766878 0.8702409267 0.4557225108
0.16519029 -0.01952249 1.7130001 -0.1668759286 0.8943583369 0.415060997
-0.11481002 -0.2280473 1.794 0.1206943318 -0.6570088267 0.7441587448
0.064087845 0.082780123 1.523 -0.2295753956 0.5670256019 0.7910607457
0.15417148 -0.19589314 1.813 0.1262758374 -0.3378803134 0.9326796532
0.18625923 0.018770309 1.647 -0.1357154548 0.865991056 0.4812907279
-0.054060172 -0.067060091 1.6848001 -0.3813842237 0.8511362076 0.3607120812
0.17682804 0.47414955 1.7850001 -0.9392662048 -0.3378032744 -0.06056398153
0.23586695 -0.017094782 1.733 -0.2245281637 0.8622385859 0.4540172815
0.084349357 -0.0221972 1.6880001 -0.1780580431 0.8966543078 0.4053472281
0.31506085 -0.23266032 1.8430001 -0.1909183264 -0.429684788 0.8825650811
0.2101896 -0.42505008 1.7760001 0.02947008051 0.05944010615 0.9977967739
0.1954958 -0.23872738 1.8130001 -0.182407409 -0.2204749286 0.9581848979
0.27435672 0.032855835 1.6710002 -0.380119592 0.7468655109 0.5456197858
0.29574171 -0.36532807 1.804 -0.220141679 -0.4514567256 0.864710629
0.23028544 -0.11922579 1.863 -0.5158174038 -0.08089072257 0.85287112
0.077706501 0.12630646 1.5230001 -0.04897785559 -0.3686102331 0.9282928705
0.13053742 -0.3743121 1.794 0.1153196171 -0.5787931085 0.8072793484
-0.17491405 -0.0060720439 1.5640001 0.6484146118 0.1362552494 0.7489946485
-0.0162214 -0.013400288 1.6090001 -0.4491502643 0.7782916427 0.438778013
0.015096201 -0.052836701 1.7220001 -0.217530638 0.8880594969 0.4050071537
-0.15403034 -0.36197129 1.7570001 0.486526221 -0.3313983083 0.808373332
-0.072251357 -0.038250718 1.6160001 -0.3053632081 0.8376306295 0.4529108703
0.20468682 0.095519893 1.5565623 -0.2198020518 0.5730398893 0.7895013094
0.045774624 -0.3926653 1.7760003 -0.1047690213 -0.2279972732 0.9680086374
0.25406036 0.057139963 1.6160001 -0.327988565 0.6842980981 0.6512753963
-0.086182475 -0.063548684 1.6550001 -0.2761175334 0.845480442 0.4570797682
-0.025797671 -0.40517521 1.7310001 -0.3468183875 -0.2214574814 0.9114129543
0.15521441 0.10563454 1.5285001 -0.3444071412 0.4048636258 0.8470355272
0.21756236 -0.38322428 1.794 -0.1464479417 -0.1428024918 0.9788566828
0.244519 -0.21575205 1.8230002 -0.04510942101 -0.1642781049 0.9853820801
-0.043349411 -0.097536176 1.766 -0.3682301939 0.8231270909 0.4322826266
-0.12622686 -0.082700349 1.6550001 -0.306740731 0.8650004864 0.3970947564
-0.13380812 -0.26518339 1.7659999 0.07622029632 -0.4388010502 0.8953458071
0.0237226 -0.28625271 1.804 -0.2283131331 -0.02465891652 0.973275423
0.11602595 -0.074701644 1.8130001 -0.0702952221 0.8770207167 0.4752822816
-0.1451968 -0.047472004 1.5860002 0.007240810432 0.8631336093 0.5049237013
-0.23158465 0.12351181 1.6010001 0.1536320895 -0.1573234797 0.9755237103
-0.25541297 0.18707505 1.6240002 0.6337453723 -0.1951007396 0.7485336065
0.12497778 0.054882281 1.5765003 -0.1911590248 0.7767875195 0.6000494361
-0.0117824 -0.048602398 1.6800001 -0.3856547177 0.8453266025 0.3697207272
0.20542054 0.042500798 1.6160001 -0.1472988427 0.8298560381 0.5381839871
-0.043279279 0.0590172 1.4960001 0.00427858578 0.3705710471 0.9287942648
0.22510111 -0.31577417 1.8040003 -0.1237368211 -0.2440704107 0.9618309736
0.15492016 -0.49605745 1.7850001 -0.1737365276 0.4393683374 0.8813461661
-0.11422791 -0.34825584 3.1780002 -0.2463255376 0.7928465605 0.5574208498
-0.086820863 0.046426859 1.4960001 -0.06952685118 0.04709173366 0.996467948
