# .PCD v0.7 - Point Cloud Data file format
VERSION 0.7
FIELDS x y z normal_x normal_y normal_z
SIZE 4 4 4 4 4 4
TYPE F F F F F F
COUNT 1 1 1 1 1 1
WIDTH 206
HEIGHT 1
VIEWPOINT 0 0 0 1 0 0 0
POINTS 206
DATA ascii
0.034803446 0.027064674 1.6040001 -0.1067084 0.8972859979 0.4283587337
0.49402973 -0.33044371 3.7320001 -0.3283549249 0.880386889 0.3422016501
0.41259703 0.18415348 2.6590002 -0.2521249652 0.8571012616 0.4492331445
-0.35059917 -0.33403543 3.1490002 -0.2195956707 0.8681913018 0.4449961782
-0.47594759 0.15607998 2.1980002 0.722622931 0.576099515 -0.3820018768
-0.47978914 0.36019778 1.6240001 0.6776942611 -0.05971011147 0.7329155207
0.48384345 -0.10494109 3.1780002 -0.3105937541 0.8911159635 0.3308230042
-0.15326852 -0.49015573 1.7310001 -0.1504393667 0.2155700177 0.964830339
0.076106943 0.2536898 2.2260001 0.7244899869 0.5609831214 -0.4005149305
-0.0214608 0.49932128 1.6320001 -0.09970096499 -0.4282648861 0.8981363773
0.23168108 -0.33033237 1.705 0.4930427969 -0.02255667932 0.8697125912
-0.37305656 -0.043967318 1.5511667 0.1576997191 0.3897186518 0.9073313475
-0.081095174 -0.11510283 2.9840002 -0.2264610231 0.8627262712 0.45212695
-0.15255578 -0.16828318 1.794 0.2699362934 -0.6207675338 0.7360584736
0.23309427 0.035089459 2.8590002 -0.1523840874 0.8730190396 0.4632675946
0.17944051 -0.1297493 3.1490002 -0.1468218714 0.8637925386 0.4819810688
-0.49707979 0.24470082 1.904 0.9840914011 0.1748833209 -0.03130381927
0.43476003 -0.21585988 3.4680002 -0.3276119828 0.8819687366 0.3388238251
-0.17101575 0.12287799 1.4450001 0.1954246759 -0.2537307739 0.9473277926
-0.19529328 0.24315928 2.184 0.1473426074 -0.6448503733 0.749972105
0.021345956 0.40885717 1.8730001 0.9649825692 0.2619728446 -0.01337417029
0.072351299 0.27424589 1.572 0.1524963975 -0.2079963237 0.9661689401
0.49626523 0.057646971 2.8590002 -0.131697312 0.8735228181 0.4686295986
0.13301225 -0.095455848 1.7850001 0.1729101092 -0.3877162635 0.9054160118
0.0060980935 -0.32167441 1.7390001 0.07771642506 -0.0472977832 0.9958529472
-0.43179867 0.15511213 1.5940001 0.5090893507 0.1179026514 0.8526001573
-0.17568541 -0.028189391 1.6240002 -0.3610167801 0.8302916288 0.4245971441
0.32956967 -0.20347345 3.2690001 -0.08980336785 0.8942501545 0.4384655058
-0.258145 -0.32154906 1.7220001 0.4215552211 -0.005673363339 0.9067850113
-0.19429505 -0.24801719 3.0640001 -0.2264610231 0.8627262712 0.45212695
0.01900175 0.14821365 1.4450001 -0.2079433799 0.08040676266 0.974830389
-0.33602196 -0.34770966 3.3330002 -0.2209676504 0.8641967773 0.4520367384
-0.30385002 -0.12264129 1.7129999 -0.1719267964 0.9124195576 0.3713915944
-0.035245508 -0.042907577 1.748 -0.05532530695 0.8805688024 0.470677942
0.49525356 0.22772819 2.5220001 -0.2521249652 0.8571012616 0.4492331445
0.11372944 -0.44180685 1.7390001 0.008825729601 0.5708908439 0.8209785223
-0.015360367 -0.20691322 3.0920002 -0.2773193121 0.7642941475 0.5821928382
-0.30289185 0.056471359 1.4640001 0.299829632 0.1605152339 0.9403919578
0.12378883 -0.22795261 1.7220001 0.3143041432 0.07381363958 0.9464483261
0.11550083 0.13860101 1.5500001 -0.3963525295 -0.3838336766 0.8340122104
-0.0030963868 -0.18423502 1.7659999 -0.1622080952 0.06217588112 0.9847957492
-0.094259195 0.04389786 1.5360001 -0.1500096917 0.791685164 0.592226088
-0.014632883 -0.49366722 1.7570001 -0.1472630799 0.6726024151 0.7252031565
0.3450779 -0.13527054 3.1490002 -0.1023225337 0.8126627803 0.5736805201
-0.12595333 -0.35509732 1.7310003 -0.1561060846 -0.1989682466 0.967492938
0.12221716 0.0050552106 1.6960001 -0.2543153465 0.8500813842 0.4611782134
-0.24328552 -0.16480632 2.9840002 -0.2264610231 0.8627262712 0.45212695
0.024862766 0.38517237 1.601 0.3027706146 -0.3083686829 0.9017974734
-0.26539987 -0.2150722 1.7939999 0.1116267294 -0.3270629942 0.9383864999
-0.44382346 0.20741057 2.0050001 0.9643471241 -0.2119999677 -0.1584003419
-0.15175101 -0.068287946 1.7310001 -0.3384289443 0.8545672894 0.3939296901
-0.20688516 0.018163364 1.5160002 -0.3188752234 0.7589931488 0.5676689744
-0.28475535 -0.068001285 1.6160001 -0.3092643619 0.8679287434 0.3886583149
-0.091944799 -0.24978337 1.748 0.02169854008 -0.2108481228 0.9772779942
-0.063530281 -0.00721935 1.6470001 -0.1802965701 0.9137114286 0.3641765118
-0.37979653 0.064442016 1.5640001 -0.1614161879 -0.5780258179 0.7998943329
0.11503252 -0.33668786 1.7130001 0.4620552361 -0.07363189757 0.8837891817
-0.47246721 0.25287974 1.6160001 0.3642404377 -0.1480396837 0.9194635153
0.0053161066 0.073096462 1.5159999 -0.1975525767 0.8027880192 0.5625872016
-0.2252595 -0.41898265 1.7130001 0.3367791772 -0.05260205269 0.9401131868
-0.073983647 0.10331604 1.455 -0.1156303138 0.7551986575 0.6452167034
0.20182882 -0.16844361 1.7310001 -0.4986228049 -0.3578146696 0.7895213366
0.20343633 -0.16369529 3.2380002 -0.1472808868 0.8639801145 0.4815046787
-0.18676178 -0.26300681 1.7570001 -0.1412676275 -0.3155812919 0.9383239746
-0.0452886 -0.40457818 1.7220001 0.0567233339 -0.1655637771 0.9845664501
0.13212214 0.041846514 1.6090001 0.2568203211 0.8139229417 0.5211263895
0.025156826 -0.010358693 1.6880001 -0.08868222684 0.9133016467 0.3975117207
-0.2834509 -0.027604481 1.536 -0.3635719419 0.8232883811 0.435903281
0.074701644 -0.14482972 1.7390002 0.284937501 -0.3063228428 0.9082823992
-0.2238656 -0.078058399 1.6800001 -0.3485588729 0.8425781727 0.4105712175
0.048265759 -0.042037919 1.7760001 -0.1074757725 0.923006773 0.3694691062
-0.052450091 -0.12874113 1.8130001 0.3679406643 -0.8046763539 0.4659566879
-0.22026338 -0.11552275 1.7570001 -0.4276363552 0.7390331626 0.5205354095
0.22155645 -0.25038916 1.7310001 -0.243415311 -0.1298398077 0.9611923099
0.17521399 -0.39377481 1.705 -0.09927099198 0.1398933679 0.9851776958
0.13158591 -0.013106166 1.794 0.95833987 0.08636885136 0.2722593248
-0.29252964 -0.13682838 1.794 0.745305717 0.2587410212 0.6144692302
0.45590788 -0.17580761 3.3990002 -0.3521760702 0.8975501657 0.265284121
0.048609763 -0.39461464 1.7220001 0.5938535929 0.03162082657 0.8039515018
0.044211179 -0.24544828 1.7390002 0.132881552 -0.02762098424 0.9907469749
0.44566754 -0.14477098 3.2380002 -0.3105937541 0.8911159635 0.3308230042
0.023591099 -0.11481002 1.794 0.3615804613 -0.7431447506 0.5630235076
0.42333794 0.043907851 2.835 -0.1284384578 0.8739148378 0.4688031673
0.073099971 0.11487138 1.4890002 -0.5616539121 0.4176365137 0.7142301202
-0.22472557 0.06384062 1.4565001 -0.1462648809 0.4459656477 0.8830182552
0.084436588 0.065949701 1.5534999 -0.3256826401 0.8049300313 0.4960025251
-0.35180721 0.01185867 1.503 0.5916314721 0.5837544799 0.556060195
-0.17892942 -0.13484536 2.9580002 -0.2264610231 0.8627262712 0.45212695
-0.095455848 -0.073547952 1.7850002 -0.2998320162 0.8857319355 0.3543723226
0.069300503 0.19703084 1.5500001 0.4089557528 -0.05211566016 0.9110648632
-0.14507085 0.065462656 1.4866924 -0.173080042 0.7750008106 0.6077968478
-0.085150629 -0.17494585 1.7659999 0.07615943253 -0.3425009251 0.9364255667
-0.031696759 0.034453001 1.572 -0.1241624281 0.8725379109 0.4725052714
-0.11713494 -0.42498958 1.7130002 -0.1115263551 -0.08277751505 0.9903079271
-0.11458734 0.0055896267 1.594 -0.1937746704 0.8785272241 0.4366248846
0.16505943 -0.28591794 1.705 -0.07206027955 -0.1127336174 0.9910088181
-0.0655545 -0.31557629 1.7390002 0.000590953452 -0.2743861079 0.9616194367
-0.082425252 -0.48639956 1.7220001 -0.2258365899 0.2709298432 0.9357322454
0.14355242 -0.190483 3.1490002 -0.1504142135 0.8737179637 0.4625932276
-0.19625062 -0.35476068 1.7220001 -0.1434124857 -0.2637862563 0.9538604021
-0.35417333 -0.072251357 1.6160001 0.01067470107 0.9075030088 0.4199099541
-0.22840235 -0.031837903 1.5790001 -0.3017596006 0.7970643044 0.5230961442
-0.28336671 -0.28648064 1.7760001 0.8012364507 -0.06289171427 0.5950334072
-0.094167151 -0.040357351 1.705 -0.2388290167 0.8995047212 0.36585778
0.044439986 -0.45819157 1.748 -0.07627531886 0.3519708514 0.932897985
0.007946983 0.43708408 1.8130001 0.9466277361 0.3223285377 -0.0004634103389
0.14423592 -0.13512617 1.731889 0.07187695801 -0.3557988107 0.9317944646
-0.026051028 -0.25591302 1.748 0.1011480615 -0.08603644371 0.9911441803
0.082300588 0.018770309 1.6470001 -0.2441626787 0.8802611232 0.4068475664
0.0053535691 0.44572255 1.6079332 -0.1601235271 -0.1082829535 0.9811397791
0.029069388 0.32530031 1.5790001 -0.1869778633 -0.2811119556 0.9412838817
-0.20396177 -0.20499973 1.7760001 0.1008892506 -0.8228546381 0.5592240691
-0.0445522 0.159115 1.452 0.1050705761 -0.4115362763 0.9053165317
-0.026185157 -0.12579145 1.7570001 0.228373155 -0.3927809894 0.8908247948
-0.26759812 0.0091374964 1.4890001 -0.2889115512 0.7340580821 0.614563942
0.06525293 -0.3050195 1.7310001 0.1756587923 -0.0607415773 0.9825754166
0.073971376 -0.024153918 1.7220001 -0.1073494107 0.8621587753 0.4951346815
-0.13638477 -0.29498959 1.748 0.04305075109 -0.4682963192 0.8825220466
-0.17226499 0.00137812 1.572 -0.374081701 0.8148202896 0.442866534
-0.12477597 -0.024665017 1.6550001 -0.2555166185 0.9006330371 0.3515272737
-0.32656884 -0.096221179 1.6630001 -0.1068780646 0.8680400848 0.4848541319
-0.14478852 -0.21410219 1.7570001 0.02230878733 -0.2627210617 0.9646139145
-0.016256906 0.10224739 1.4640001 -0.2354528755 0.731683135 0.6396887898
0.11509319 -0.39460519 1.705 0.03009915352 0.3135731816 0.9490868449
-0.19254404 -0.46612015 1.6960001 -0.4419511855 -0.5609691143 0.6999948621
-0.11532655 0.14282162 1.452 0.09977436811 -0.3633571267 0.926291883
-0.4415805 0.2110084 1.5940001 0.1139086634 -0.4170326591 0.9017253518
-0.16659471 -0.098088481 1.7760001 -0.276774019 0.8078221679 0.5204032063
-0.056394212 0.069509149 1.4960001 -0.09475258738 0.8238105178 0.5588901639
-0.3880232 0.0082266405 1.5640001 0.4800747931 -0.1207540855 0.868876636
-0.01287648 0.01001504 1.6320001 -0.2156072557 0.8990013003 0.3811957538
-0.034197014 -0.023789227 1.6960001 -0.193715468 0.8951188326 0.4015427828
-0.45759195 0.30600578 1.6160001 0.05021618679 -0.295393765 0.9540549517
-0.41389275 0.10520351 1.5790004 0.04675319791 -0.01964116283 0.9987133741
-0.24671854 -0.25744545 1.748 0.2865766883 -0.2629633844 0.9212622046
-0.0075480998 -0.44382828 1.7220001 -0.2299581319 0.107076481 0.9672920108
0.17570242 -0.21474737 1.7130002 -0.3011575341 -0.008929602802 0.9535325766
-0.17285997 -0.048756689 1.6853334 -0.3120684326 0.8503534198 0.4236890376
-0.31582573 -0.057465643 1.5731667 -0.03615321219 0.8855310678 0.4631712735
-0.17511593 -0.40457821 1.7220001 -0.1155018732 0.01011996344 0.9932557344
-0.0042868201 -0.37497607 1.7368183 -0.2857910693 -0.1799553484 0.9412435889
0.45577988 0.034541544 2.8830001 -0.1424894184 0.8706536293 0.4708067775
0.06525293 -0.19575876 1.7310001 0.196804136 -0.004271136131 0.9804335237
-0.15456598 0.031905029 1.5255716 -0.2650423944 0.8469260931 0.4609433115
-0.23452069 -0.056126822 1.6339092 -0.3078272343 0.8245767355 0.4746741652
-0.27540308 -0.09521915 1.6710001 -0.2740842998 0.8534436226 0.4432965219
-0.24336618 -0.37112457 1.7350001 0.6470023394 -0.05018256977 0.7608348727
-0.20507269 -0.30533278 1.7327778 -0.01162315533 -0.1447084993 0.9894060493
0.10662283 -0.27524567 1.7130002 0.3878696859 -0.03750244528 0.9209509492
-0.053910617 -0.21410216 1.7570001 0.07678524405 -0.1018030196 0.9918367863
0.014591864 -0.033321727 1.7390002 -0.1548137963 0.8673407435 0.4730251133
0.020474549 0.04777395 1.557 -0.1491325647 0.8705300093 0.4689744115
0.16801141 -0.34494376 1.6960001 -0.1842107922 0.02059052326 0.982671082
0.11624074 -0.17552763 1.7220001 0.2861329019 -0.1285871863 0.9495226741
0.46931472 -0.31395537 3.6920002 -0.3283549249 0.880386889 0.3422016501
-0.48440391 0.10913448 2.184 0.722622931 0.576099515 -0.3820018768
-0.075984202 -0.36633444 1.7220001 -0.09248995036 -0.153713569 0.9837772846
-0.25437096 -0.11246669 1.7220001 -0.3191096783 0.8621083498 0.3936219215
0.114931 -0.012259306 1.748 -0.3028672934 0.903401196 0.3035419583
0.084212601 0.042106304 1.601 -0.297110945 0.8444419503 0.4456936717
0.40843812 -0.23646417 3.5030003 -0.3283549249 0.880386889 0.3422016501
0.025304984 -0.14522861 1.7570001 0.3885600567 -0.4156163037 0.8223649859
0.12501267 0.091041833 1.5500001 -0.3148249984 0.5560345054 0.7692274451
-0.13047868 0.097542316 1.4450001 -0.1511526257 0.6095347404 0.778216064
0.096044973 -0.10214306 1.7390001 0.09659229219 -0.5760231614 0.8117063642
-0.33524591 -0.025708253 1.5272002 0.2297455221 0.7591780424 0.6089874506
0.44822565 -0.3435306 3.7320001 -0.3283549249 0.880386889 0.3422016501
0.07095214 -0.35174146 1.7220001 0.4219411612 -0.6434508562 0.6386991739
-0.20228907 -0.089067578 1.7220001 -0.4276796579 0.8500987887 0.3072819412
-0.063159451 0.014235939 1.601 -0.1496181786 0.8853153586 0.4402625263
-0.47902557 0.36476257 1.6710001 0.9520237446 0.2614559233 -0.1590333432
0.22105588 -0.36131203 1.7390001 -0.5729762316 0.3160279691 0.7561908364
0.026261952 0.10062748 1.483 -0.1641115546 0.7395179868 0.6528250575
0.1297493 -0.14631304 3.1490002 -0.2023710757 0.8519067168 0.4830123484
-0.25950211 -0.16828318 1.794 0.2232226282 -0.3245572448 0.9191486835
0.036096752 0.01299483 1.647 -0.1009301543 0.9269713163 0.3612993658
-0.18530679 0.044833358 1.4855715 -0.2712768912 0.7562564015 0.5953865051
0.056768421 0.082969233 1.5159999 -0.2485079169 0.7830730677 0.570123136
-0.06491366 -0.44533789 1.7220001 -0.004502799828 0.08622071147 0.9962658882
-0.24213271 -0.0094688768 1.5430001 -0.3310858309 0.8390583992 0.4316979647
0.055414099 0.15142226 1.47 -0.5367056727 0.1182250232 0.8354459405
-0.2647475 0.08247681 1.4573334 0.1578791291 0.07165493071 0.984855175
-0.1654086 -0.32474712 1.7310003 -0.007754536346 -0.2533487082 0.9673439264
-0.21257764 0.11074404 1.452 0.06316837668 -0.1706148237 0.9833108783
0.23217903 -0.29287943 1.7310001 -0.4377653301 -0.1787832826 0.88113451
0.12767072 -0.052936643 1.7760001 0.7257197499 0.09861147404 0.6808866262
0.0064361366 -0.22526476 1.7479999 0.3507218063 -0.3843044937 0.8539931178
-0.10694632 -0.14941029 1.794 0.2592818439 -0.6070889235 0.7511430979
-0.31594014 0.016832875 1.4770001 0.06851028651 0.419718951 0.9050648212
-0.17575805 0.074676223 1.4552307 -0.242871061 0.6402422786 0.7287684679
-0.10488177 0.078337617 1.4770001 -0.1201365516 0.8105424047 0.5732260942
0.063475929 -0.10992172 1.7660002 0.4216911495 -0.503633678 0.754009068
-0.034902733 -0.34447476 1.7310001 0.05456214026 -0.2536767423 0.9657489657
-0.044668797 -0.16481246 1.7570001 0.2297455072 -0.1934776306 0.9538256526
0.02400781 -0.28400728 1.748 0.1471292824 0.07409547269 0.986338079
0.075355925 0.0014774756 1.6853334 -0.164292872 0.8810575008 0.443560034
-0.084282734 -0.055677682 1.748 -0.265447855 0.878931284 0.3962539434
-0.15467818 -0.44451204 1.7129999 0.09347017854 0.1123817861 0.9892591238
-0.274174 -0.12784518 1.7570001 -0.145942077 0.959913373 0.2393057048
0.074357986 -0.4286966 1.7310001 -0.00638511451 0.4376953542 0.8991006613
-0.044436481 0.052515838 1.536 -0.04833440483 0.8610667586 0.5061895251
-0.27554554 -0.045582283 1.5755002 -0.3508909941 0.8122227192 0.4660147429
-0.23271732 0.032502417 1.4830002 -0.3617691696 0.7489331365 0.5551776886
-0.023472751 -0.057899449 1.7850001 -0.1342519224 0.8832641244 0.4492447674
0.078907304 0.15646191 1.5430001 0.3000705838 -0.05949916318 0.9520596266
0.084566697 -0.2440432 1.7310002 0.2754291296 -0.145724237 0.9502121806
