# .PCD v0.7 - Point Cloud Data file format
VERSION 0.7
FIELDS x y z normal_x normal_y normal_z
SIZE 4 4 4 4 4 4
TYPE F F F F F F
COUNT 1 1 1 1 1 1
WIDTH 206
HEIGHT 1
VIEWPOINT 0 0 0 1 0 0 0
POINTS 206
DATA ascii
-0.0039397399 -0.057970461 1.9260001 -0.2561989129 0.8616040945 0.4381786287
0.49448645 -0.47589672 4.2410002 -0.4313017726 0.8665888309 0.2510032356
-0.32670385 -0.23786333 3.2690001 -0.200244233 0.8854899406 0.4192968011
0.43420687 0.19648467 2.7670002 -0.2855867743 0.8362936378 0.4680311084
-0.48419878 0.072961457 2.5220001 -0.1525934041 0.8924267888 0.4246053398
0.42259893 -0.1368126 3.4680002 -0.1701607853 0.9208692312 0.3507779539
-0.12798543 0.48451698 1.7380002 0.9470796585 0.008553587832 0.3208845854
0.25468042 0.42324591 2.0900002 -0.6548520923 -0.6704541445 0.3487979174
-0.11248948 0.27611056 2.3330002 -0.1870028079 0.8894310594 0.4170639217
-0.15258208 -0.46241713 1.7760001 0.08584760129 -0.62900877 -0.7726436257
0.25759271 -0.34457207 3.8160002 -0.2492370158 0.8757327199 0.4134888947
0.15729503 -0.41532961 2.016 0.8138841391 0.1871026158 -0.550077498
0.039922524 -0.25488997 3.5030003 -0.2012030929 0.9206043482 0.3346714675
-0.015037963 0.10446372 1.601 -0.1471538842 0.1835605055 0.9719316959
0.29095688 0.09593714 1.794 -0.6545250416 0.2998197973 0.694049716
0.35654032 0.32647067 2.45 -0.267634213 0.8963463306 0.3534617424
-0.047809891 -0.18561488 3.2080002 -0.193242386 0.8918723464 0.4089268148
-0.22450861 -0.18440376 1.7939999 -0.03394163772 0.5423226357 -0.8394844532
0.4656871 -0.36064488 3.9940002 -0.2902815342 0.8726115823 0.3927921355
-0.12352321 0.36319512 2.1030002 -0.1697280407 0.9338056445 0.3149594069
-0.02754136 -0.29627827 1.904 0.5915086865 0.1880316585 -0.7840673327
0.22055793 -0.04689027 1.9810001 -0.3676825166 0.8237766623 0.4315108359
0.45326999 -0.27460882 3.7740002 -0.2530008256 0.9068739414 0.3370018303
-0.15768164 -0.0030034599 1.7130001 -0.2207101136 0.8138370514 0.5375465751
0.094439782 0.034060255 1.7659999 -0.1795141548 0.8092509508 0.5593636036
0.25074857 -0.18584895 3.3650002 -0.1622003019 0.9042413235 0.3950173855
-0.0033576332 -0.49860856 1.9150001 0.5839437842 -0.4101433456 -0.7005655766
0.1155622 -0.21512347 2.0280001 0.3367701471 0.4060761929 -0.849522233
-0.07624808 0.14596061 2.4850001 -0.2401521504 0.8575292826 0.4549401104
-0.3252784 -0.13824332 3.0920002 -0.2020065784 0.8759034276 0.4381626844
0.33745268 -0.46807951 4.1390004 -0.3768094778 0.8746471405 0.3049705625
0.34934202 0.23597938 2.6390002 -0.2468853891 0.8852417469 0.3942013085
0.49672809 -0.10226755 3.3330002 -0.1471063495 0.9191923738 0.3653014004
-0.032449815 -0.26254851 3.3650002 -0.2006946504 0.9263824821 0.3186489344
-0.17647299 -0.216975 3.3000002 -0.09065952152 0.8723855019 0.480337739
0.12477597 0.13783392 1.6550001 -0.4505721033 0.05808661506 0.8908483386
-0.13087143 -0.075937741 1.8430001 -0.439129442 0.8328861594 0.3368471265
0.40440983 -0.24139191 3.5760002 -0.1870992482 0.9196879268 0.3452072442
-0.14547846 -0.31376162 1.794 0.5662336349 0.3198507726 -0.7596544623
-0.34267583 -0.30095878 3.3990002 -0.1417674124 0.8980903029 0.416336149
0.04477312 0.20467712 2.4320002 -0.2514106929 0.8708884716 0.4223102331
0.199809 0.0048733898 1.853 -0.2684357762 0.7271467447 0.6318226457
-0.025410183 0.014448929 1.705 -0.3523649871 0.8760579228 0.3291830122
-0.0046054223 -0.18479256 1.9700001 0.5607101917 0.279145211 -0.7795396447
0.093670078 -0.086600639 2.016 -0.07422041148 0.8624413013 0.500685811
-0.19784613 -0.13767172 3.1200001 -0.08934592456 0.9004196525 0.4257484972
-0.058165085 -0.40553987 1.8430001 0.6612960696 0.1354191452 -0.7378001809
-0.10615994 -0.20333713 1.863 0.7978773713 0.2314423025 -0.5566202998
0.06279739 -0.38527045 1.9360002 0.472866267 0.1941779554 -0.8594721556
0.26538453 0.34209725 2.365 -0.2032218426 0.9183531404 0.3396003544
0.41448537 -0.46408191 4.0410004 -0.4866871536 0.6168732047 0.6185491681
-0.10011095 0.17555688 1.6550001 -0.8975117207 -0.1643606573 0.409216702
0.032141231 -0.16655001 3.3330002 -0.1837238669 0.918900907 0.349094063
0.304028 -0.16113484 3.4680002 -0.1664245874 0.9175747037 0.361053437
0.4825936 -0.42453724 4.1390004 -0.6596110463 0.6437571049 0.387930423
-0.027019743 -0.023840949 1.8130001 -0.3235309124 0.9127160311 0.2495539337
0.090309814 -0.021345956 1.8730001 -0.07762288302 0.9112080932 0.4045670629
0.19606502 0.095750421 1.7336668 -0.5408300161 0.5601727962 0.6274625659
0.17245436 -0.30757323 2.0280001 -0.2222473472 0.03180966899 -0.974471271
0.30322203 0.024629951 1.8730001 -0.3699826002 0.6284573078 0.684218049
0.34576872 -0.49448645 4.2410002 -0.3650858402 0.8820689321 0.2977696061
0.0880787 -0.48184231 1.9700001 0.6384067535 -0.4081342816 -0.6525819898
0.062173203 -0.28496048 1.9700001 0.4501631856 0.02304314263 -0.8926489353
-0.094037317 0.04409219 1.6320001 -0.6747618318 0.413623184 0.6112383604
0.48587146 -0.31821159 3.9030001 -0.1290056258 0.9050865769 0.4051862359
-0.22715397 -0.26984063 1.7390001 0.6297158599 0.1956364065 -0.7517874241
0.054787636 0.067092881 1.6710001 -0.3423278332 0.7652953863 0.5451005101
-0.20564988 -0.3766672 1.7479999 -0.1927047819 -0.005194829311 -0.9812430143
-0.20288345 0.01100918 1.794 0.9315410852 0.2373334616 0.2755067945
-0.1253721 -0.14208838 3.1780002 -0.1653587818 0.9033305049 0.3957909346
0.00176736 -0.097204797 2.016 -0.0004936374025 0.9650512934 0.262060672
-0.086774215 -0.49172056 1.8330001 0.5638949871 -0.5901112556 -0.5777466297
-0.26589563 -0.25420791 3.3330002 -0.122558549 0.9147828817 0.3849047422
0.37545353 -0.16388845 3.3990002 -0.1664245874 0.9175747037 0.361053437
0.14426427 -0.049219575 1.9360002 -0.1192093194 0.9163870215 0.3821308017
-0.074292243 -0.15364985 1.9260001 0.4691019654 0.6856903434 -0.556571722
-0.094439782 -0.032512061 1.7660002 -0.2338602096 0.8972710967 0.3744515181
-0.092594407 -0.29077893 1.853 0.7405449748 0.2108159512 -0.6380829215
-0.11736375 -0.38964763 1.7850001 0.7102097869 0.1700374484 -0.6831466556
-0.15340614 -0.23406298 1.804 0.4375630915 0.2142459303 -0.8732910156
0.11635734 -0.34559864 1.9810001 0.4590827823 0.1549335718 -0.8747791648
-0.21050783 -0.057849478 1.8330001 0.3779726923 0.767383039 0.5179381371
-0.018360907 -0.37556401 1.904 0.6139967442 0.2798382342 -0.7380369306
0.25266188 -0.017627575 1.9150001 -0.3169465363 0.8476791978 0.4254231751
0.12346359 0.078024209 1.7050002 -0.3059800267 0.8545750976 0.419615984
0.22427273 0.05630409 1.794 -0.1744531095 0.8012961149 0.5722679496
-0.062395871 -0.057469882 1.8730001 -0.2975580394 0.8787005544 0.3732887506
0.046728261 -0.0034966725 1.8130001 -0.2936374247 0.8690177202 0.3982276022
0.044503011 0.1335022 1.6374445 -0.2657005489 -0.04458351061 0.9630241394
-0.33955666 -0.18496177 3.1490002 -0.1818962097 0.8792369366 0.4402909577
0.066567928 -0.05974045 1.9470001 -0.1856017858 0.8859072328 0.4251121283
0.053020798 -0.17850336 2.016 0.4319723845 0.7748128176 -0.4615896046
0.49464512 -0.13409054 3.3990002 -0.1679846197 0.9240436554 0.3434014022
-0.16487101 -0.16744211 1.8329999 0.5568881631 0.4115361869 -0.7214662433
-0.055400949 -0.22328262 1.9150001 0.5975624323 0.2650794089 -0.7567377687
0.31817302 0.29623005 2.503 -0.2468853891 0.8852417469 0.3942013085
-0.16597195 -0.047642972 1.7760003 0.1583627462 0.897916317 0.4106915593
0.13584389 0.012785306 1.8230001 -0.1934418082 0.8492134213 0.4913418591
-0.051810998 -0.091532767 1.9700001 -0.1039322838 0.9681033492 0.227978155
-0.00721935 0.047647711 1.6470001 -0.4890147448 0.7432159781 0.4566120207
-0.094214782 0.0054259822 1.688 0.00703041628 0.7938055396 0.6081310511
0.0046938923 -0.25475034 1.9470003 0.5067153573 0.5170934796 -0.6898216009
0.015499466 -0.4347004 1.9040002 0.628502965 0.3755785227 -0.6811202765
0.034983385 0.027374791 1.735 -0.3360915482 0.8570547104 0.3905121088
0.37639245 -0.49110252 4.0890002 -0.4242340922 0.8000792265 0.4241446853
-0.085095838 0.11403565 1.6341002 -0.8614700437 -0.2780548334 0.4249174595
0.44518802 -0.40267667 4.0410004 -0.3889134228 0.7609704733 0.5192978978
0.15550049 -0.082118243 1.9930001 -0.03338934854 0.7667359114 0.6410937309
0.022912558 -0.32501891 1.9360001 0.4760548472 0.3522879183 -0.8057698011
0.025286749 -0.033168335 1.8730001 -0.1746753156 0.895580411 0.4091750979
-0.33017808 -0.26589563 3.3330002 -0.200244233 0.8854899406 0.4192968011
-0.10576544 -0.082262017 1.9150001 -0.1933791041 0.9008625746 0.3886529207
0.1088031 -0.41621503 1.9700001 0.6316188574 0.127302587 -0.7647559643
-0.048718996 -0.16335192 3.2690001 -0.1906019002 0.8946277499 0.4041189849
-0.041049916 -0.46796906 1.8730001 0.6046447754 -0.431836307 -0.6692698598
0.16382678 0.045843825 1.7760001 -0.2942793965 0.7808738351 0.5510315299
0.11776701 -0.2847501 2.0050001 0.6116285324 0.302972883 -0.7308337688
0.40616316 -0.38515472 3.9940002 -0.364941597 0.8424822688 0.3962842524
-0.094808862 -0.35513154 1.8329999 0.7740566134 0.2235587239 -0.5923325419
0.24798883 0.12322427 1.7570001 -0.5612951517 0.1513877809 0.813651979
0.16378149 -0.24657214 2.0530002 0.6253105998 0.4172974527 -0.6594312191
0.3496322 -0.20369875 3.4680002 -0.1664245874 0.9175747037 0.361053437
0.44656348 -0.3044751 3.8590002 -0.1370584816 0.9080611467 0.3957776725
0.12724993 -0.47895455 2.016 0.6088119745 -0.5698594451 -0.5519132614
0.41940874 -0.4265781 4.0890002 -0.5944042802 0.6207796931 0.5111908913
0.15352099 -0.016507635 1.8830003 -0.1486974061 0.8749064803 0.4608988166
-0.041588191 -0.0077015166 1.7570001 -0.2726406157 0.9037049413 0.3301279247
0.06165202 -0.22489962 1.9810001 0.4900940061 0.1652164012 -0.8558688164
0.28591168 -0.20465258 3.4330001 -0.1671360284 0.9165734053 0.3632612228
0.16890298 0.13900866 1.705 -0.6494680047 -0.1588124335 0.7436195016
-0.19561853 -0.31576219 1.7570001 0.374034822 0.1940246969 -0.9068915844
-0.23119278 -0.25163841 1.794 -0.4897880554 0.3048259616 -0.8168162704
0.25366437 0.027466843 1.8430001 -0.1929724067 0.8079833388 0.5567086935
-0.054915663 -0.33624446 1.8730003 0.6478710771 0.1966819614 -0.7359206676
-0.10596094 -0.44440338 1.804 0.5749833584 -0.2944866717 -0.7633293867
0.076007001 -0.228021 3.4680002 -0.1915507019 0.8992397785 0.393288821
0.083768129 -0.25750944 3.5390003 -0.1839589328 0.9039478898 0.3860535324
0.49950799 -0.38614449 4.0410004 -0.2645787001 0.8705639243 0.4148693681
0.4958865 -0.45180771 4.1900001 -0.4665249884 0.8357508779 0.2896116674
-0.084702648 -0.044215854 1.8230001 -0.3732332587 0.8938637376 0.248404026
0.059402931 -0.4463706 1.9360002 0.3461729586 -0.1313358843 -0.9289322495
-0.12050572 -0.15352099 1.8830001 0.4604369998 0.7088225484 -0.5343859792
0.20092674 -0.03208074 1.9260001 -0.2450171709 0.847114563 0.4715543687
0.37083614 0.30720153 2.503 -0.267634213 0.8963463306 0.3534617424
0.029359566 -0.093259797 1.9700001 -0.03891707584 0.8080061078 0.5878874063
0.49493444 -0.34610802 3.9480002 -0.2324217856 0.8809289336 0.4122430086
0.39322969 -0.41448537 4.0410004 -0.4648827314 0.6351456642 0.6168257594
-0.08232075 -0.21289849 3.2380002 -0.1906019002 0.8946277499 0.4041189849
-0.21330088 -0.23667634 3.3330002 -0.1080593839 0.8919125795 0.4391071498
0.0067468267 0.0036329066 1.7760001 -0.3320094347 0.8309760094 0.4463726878
-0.16481246 -0.41434163 1.7570001 0.09034767002 -0.1449556649 -0.985304594
-0.15711094 -0.35735038 1.7570001 0.3344963789 0.2199490517 -0.9163703322
0.3416107 -0.48119357 4.1900001 -0.3650858402 0.8820689321 0.2977696061
0.17231761 -0.36495981 2.016 0.2018536478 0.06965595484 -0.9769355655
0.49110252 -0.40506998 4.0890002 -0.5036231875 0.7277829051 0.4655059278
0.4337475 -0.47676376 4.0890002 -0.4976792634 0.721979022 0.4806886911
-0.077173844 -0.24465752 1.8730001 0.7575190663 0.170991376 -0.6300212741
-0.18572307 -0.26712984 1.7760001 0.4820414186 0.4112792015 -0.7736184597
-0.22690324 -0.34896156 1.7850001 -0.7039769888 -0.1286308467 -0.6984772682
0.29621074 0.063741557 1.8330001 -0.5247027874 0.6541648507 0.5447525978
0.076990619 0.052836701 1.7220001 -0.3811555207 0.8594830632 0.340601474
0.02432224 0.08441247 1.6320001 -0.3317466378 0.5147356391 0.790563941
0.071557917 -0.33718088 1.9590001 0.5689371824 0.2915079594 -0.768982172
0.11225717 -0.070808366 1.9700001 -0.05269231647 0.8714601994 0.4876275957
0.2539528 0.42742759 2.0400002 0.142782256 -0.6976793408 0.7020375729
-0.43555781 0.084016226 2.5220001 -0.1525934041 0.8924267888 0.4246053398
0.086762816 0.10185201 1.6550001 -0.5072128773 0.5560484529 0.658441484
-0.11501028 -0.24631943 1.8330001 0.6289886236 0.2510295808 -0.7357699871
-0.018061964 -0.41542518 1.8730001 0.6280444264 0.1234210059 -0.768327713
-0.21666528 -0.14497624 1.8230001 0.4021015763 0.7963210344 -0.4518706799
-0.043175831 -0.15370597 1.9700001 0.4069662094 0.7224484086 -0.5589693785
-0.056024883 0.024367701 1.6630001 0.002652599709 0.809366107 0.5872984529
-0.055641439 0.075223252 1.6343335 0.5587800145 -0.1671064794 0.8123055696
-0.053695831 0.16967884 2.45 -0.2380146533 0.8546159863 0.4614981711
0.37540531 -0.23268925 3.5390003 -0.1756550968 0.9223693013 0.3440641463
-0.033769198 -0.096242219 1.9260001 -0.1531778276 0.7757607102 0.6121535301
-0.036611605 -0.18548261 1.936 0.6003060937 0.2994795442 -0.7415825129
0.46500504 -0.29104632 3.8160002 -0.1370584816 0.9080611467 0.3957776725
-0.08232075 -0.15612556 3.2380002 -0.1906019002 0.8946277499 0.4041189849
0.095692553 -0.038612783 1.9150001 -0.03858177364 0.8997220397 0.4347547293
-0.12493902 -0.053244054 1.8040003 -0.2693093717 0.8956728578 0.3538962305
-0.016507633 -0.051173665 1.8830001 -0.2707094848 0.8851040602 0.3785592616
0.010358693 0.03995496 1.6880001 -0.3594128191 0.8485593796 0.3882903755
0.016546909 -0.39408654 1.9260002 0.4413873851 0.08729448169 -0.8930603862
0.1855053 0.032469105 1.813 -0.3516222835 0.7469161153 0.5643386841
0.086774215 -0.00160693 1.8330001 -0.1771122217 0.9029260874 0.3916066885
-0.065884128 -0.44833347 1.8330001 0.5485011339 -0.06545039266 -0.8335843086
-0.16370785 -0.073112242 1.8130001 -0.02140275389 0.7895662785 0.6132919192
-0.07803911 -0.18430513 1.8940001 0.6976411939 0.3283061683 -0.6367981434
-0.11447952 -0.014844597 1.7220001 -0.09899179637 0.8723458648 0.4787622392
0.21419246 -0.0041510165 1.8940001 -0.08781450987 0.9096190333 0.4060564041
0.14240748 -0.44285256 1.9810001 0.5874596238 -0.1912197322 -0.7863372564
0.051379681 0.02024048 1.7760001 -0.17999129 0.8872403502 0.4247442484
0.18032596 -0.06010865 1.9590001 -0.09146951884 0.8724498153 0.4800673127
-0.29605034 -0.24397634 3.3000002 -0.200244233 0.8854899406 0.4192968011
0.1570259 0.068603553 1.7390001 -0.2894780636 0.7459696531 0.5997763872
0.038612783 -0.048685685 1.9150001 -0.2311321646 0.8714799285 0.4325512946
-0.2074579 -0.22758442 1.766 0.1141771302 0.3618013859 -0.9252368808
-0.18141827 -0.028965943 1.7390001 0.1296866089 0.9304028749 0.3428292572
0.093158983 -0.24432261 2.0050001 0.4680749476 0.3961337507 -0.7899265289
-0.18313846 -0.19389272 1.8040001 0.5640843511 0.4092316031 -0.7171738744
-0.11835789 0.34755889 2.1430001 -0.1690506786 0.9055980444 0.3889911175
-0.12042332 0.018861484 1.6550001 -0.1813531816 0.9748763442 0.129333511
-0.1179555 -0.34757555 1.794 0.7159717083 0.18103154 -0.6742492914
0.13663077 -0.38543159 1.9930003 0.6247512698 0.2574579418 -0.7371575832
0.45340148 -0.35649124 3.9480002 -0.2629165947 0.8767799735 0.4026558697
