# .PCD v0.7 - Point Cloud Data file format
VERSION 0.7
FIELDS x y z normal_x normal_y normal_z
SIZE 4 4 4 4 4 4
TYPE F F F F F F
COUNT 1 1 1 1 1 1
WIDTH 206
HEIGHT 1
VIEWPOINT 0 0 0 1 0 0 0
POINTS 206
DATA ascii
0.065008946 -0.043003533 1.149 -0.05508032069 0.7629068494 0.6441578269
-0.19585785 -0.49837098 2.2120001 -0.1448118538 0.7141698003 0.6848291755
0.45395991 -0.11390267 1.8830001 -0.002444164129 0.7240808606 0.6897107363
-0.45481905 -0.03032127 1.6470001 0.9576114416 0.1167294681 0.2633525431
0.22897482 0.23994367 1.5640001 -0.9442479014 0.1745544076 0.2791534662
-0.13588552 0.43412426 1.245 0.333820045 -0.5278051496 0.7810159326
0.30864802 -0.4500719 1.09 0.6911433935 0.1162357628 0.7133092284
-0.33055153 -0.19203471 1.197 0.01894350722 0.5639529228 0.8255896568
-0.0035478701 -0.4009093 1.3490001 0.7520925403 -0.1494904459 0.6418796182
0.17357737 -0.41621241 2.1290002 -0.07187861949 0.6996709108 0.710840404
-0.46677241 -0.43100441 2.0400002 -0.1533586234 0.7022352219 0.6952314973
-0.19308557 0.014131367 1.0354288 0.1447384357 0.5524926186 0.8208548427
0.30857 -0.16355136 1.057 0.653791666 -0.1111628637 0.7484645844
0.1840509 0.18179262 1.2880001 -0.7016863823 0.5475788713 -0.4558438361
-0.048599768 0.23251656 1.087 0.6957170367 -0.2335068583 0.6793028712
-0.36782041 -0.015512616 1.3970002 0.6156654954 -0.2884066701 0.73333323
0.26307011 0.019431317 1.705 -0.2512591183 0.640083313 0.7260593772
0.17190702 -0.24323116 1.2516667 0.7619917393 -0.2063448131 0.6138325334
-0.093635015 -0.18893218 1.2640001 -0.2260294259 0.6459705234 0.7291315198
0.13534336 -0.49471682 1.2156801 0.4932543337 -0.2682525218 0.8274906278
0.033428565 0.07311897 0.98900002 0.0840453431 0.2015621662 0.9758632183
0.0019023666 -0.48129877 2.1700001 -0.1319384724 0.7137261629 0.6878859997
-0.43990782 0.10765116 1.516 0.7226620913 -0.2469781786 0.6455705166
0.361305 -0.31538257 0.9883334 0.6602166891 0.06144630536 0.7485574484
0.2415804 -0.03638868 1.153 0.5005870461 0.05519647896 0.8639247417
-0.18353179 -0.10728884 1.153 -0.1884120703 0.730517149 0.6563882828
-0.2238279 -0.28681466 1.2830001 -0.3879404068 -0.3641208112 0.8467102647
0.18855345 0.28283018 1.4150001 -0.7982153893 0.5184704661 -0.3066602945
0.26435941 -0.3052026 1.1340001 0.8514701724 0.06067022681 0.5208816528
0.31643635 -0.076711841 1.8230001 -0.00768504804 0.7246998549 0.6890218258
0.055186167 -0.1512101 1.2590001 -0.06920789182 0.6621989608 0.7461252213
0.15993468 0.083578765 1.177 -0.5521848798 0.6507339478 -0.5211881995
-0.055063661 -0.004795366 1.0740869 -0.1443877667 0.7867025137 0.6002093554
0.10019423 -0.30786955 2.0780001 -0.0808320716 0.7110088468 0.6985216737
0.10782649 -0.367944 1.268 0.3477576971 -0.2828424275 0.8939042091
-0.32936278 -0.41935262 2.0530002 -0.1533586234 0.7022352219 0.6952314973
0.15104178 0.019459371 1.057 -0.5689376593 0.2740123272 0.77538836
-0.10089557 -0.29081663 1.3540001 -0.1583618969 0.697981894 0.6983858347
-0.098925345 0.32639194 1.1730001 0.6244663 -0.3305459917 0.7076589465
-0.054625392 -0.093793117 1.1756667 -0.1711473167 0.7443436384 0.6454929709
-0.095342495 0.083696701 0.97291273 0.04067916051 0.5583353639 0.828617394
0.23548822 -0.16496657 1.1650002 0.8673910499 0.06435339153 0.4934484959
0.22528535 -0.41488659 1.1743336 0.5684028268 -0.09140036255 0.8176577091
0.046438787 -0.49723482 1.2920001 0.6802682877 -0.02419244498 0.7325637937
-0.0044822716 -0.23222776 1.3254286 -0.1737693697 0.6764698029 0.7156764269
-0.29646263 -0.094525419 1.131 0.2121302187 0.5186431408 0.8282572031
0.46021843 -0.030048626 1.8040001 -0.01032191236 0.7248079181 0.6888737082
0.023019219 -0.37515107 2.1290002 -0.1263199002 0.7175639868 0.684941709
-0.21702453 -0.19143157 1.2165 -0.2694525123 0.6394152641 0.720099628
0.14214273 -0.08804363 1.21 -0.009137793444 0.7121429443 0.7019750476
-0.032853961 0.1368915 1.041 0.6688178182 -0.2492287457 0.7004054189
0.24146497 0.14413744 1.5860001 -0.9014972448 0.2132911682 0.3765760958
0.18560524 -0.33515 1.2176957 0.6448689103 -0.141238898 0.7511296272
0.30654806 -0.26457059 1.0515386 0.8308725953 0.03453383222 0.5553901196
0.18661077 0.062689558 1.6630001 -0.289226234 0.6427331567 0.7093957067
0.045123406 0.012217389 1.0723125 -0.1163619757 0.8155404329 0.566880703
0.094737858 -0.27964789 1.302 0.432906121 0.02820491232 0.9009976387
-0.39650318 0.062072381 1.4450001 0.5130295157 -0.4268715978 0.74470222
0.31048903 -0.35739073 1.0700001 0.8426654935 0.09944055229 0.5291752815
-0.14455533 -0.047867749 1.0920001 -0.1824969798 0.7011235952 0.6892898679
-0.0048971772 -0.31298378 1.3728001 0.6233797669 0.2435454577 0.7430230379
0.1547229 -0.023587598 1.1350001 0.02534270659 0.752178967 0.6584714055
-0.23482545 -0.052215274 1.0857142 0.04914158583 0.5529434681 0.8317683339
0.26408687 -0.10509731 1.1043702 0.8308326602 -0.09392800927 0.5485386252
0.17829296 0.24984474 1.3380001 -0.9905548096 0.003963220865 0.1370602548
0.025407163 -0.096828207 1.202 -0.1490676403 0.7150990367 0.6829437613
0.22755012 -0.24517779 1.1874001 0.7092502117 -0.0406505093 0.7037838101
0.27003437 -0.21934199 1.1120001 0.8819888234 0.1097116768 0.4583219886
-0.15139799 -0.24729598 1.2920001 -0.2261510789 0.64179492 0.7327721119
-0.12507667 -0.13545844 1.2040001 -0.2894919217 0.7162156701 0.6350035667
-0.45496896 -0.096643731 1.6960001 0.9627286792 0.1040904 0.2496370226
0.38224068 -0.14855643 1.904 0.02053661272 0.7052989602 0.708612442
-0.27847493 -0.24163388 1.2360001 -0.1747130901 0.4810839593 0.8590887785
-0.024639832 -0.14775091 1.2417274 -0.191166386 0.6793839335 0.7084439993
0.044998411 -0.34500501 1.3161998 0.5206421614 -0.2757651508 0.8080132008
0.15603285 -0.41536286 1.2245651 0.526786685 -0.2488068491 0.812767446
-0.11485533 0.025357828 1.0243791 -0.1175506487 0.7428433895 0.6590641141
-0.012891091 -0.038680285 1.1313334 -0.2212653607 0.7536703944 0.6188881993
-0.035541996 0.045311566 1.0136003 -0.1302880645 0.7720412612 0.6220750213
-0.26538312 -0.15369771 1.1688001 -0.1098429635 0.6143619418 0.7813411355
-0.48554182 -0.48407602 2.0900002 -0.1533586234 0.7022352219 0.6952314973
0.16612177 0.13284525 1.2345001 -0.4007326961 0.7579662204 -0.5146849155
0.062826067 -0.4246785 1.2830001 0.6502755284 -0.1160385907 0.7507840991
0.19662221 -0.48370206 1.177 0.5290079117 -0.2624797821 0.8070037365
0.27395555 -0.3953945 1.1247369 0.7661530972 0.01844166405 0.6423934102
-0.35248122 -0.074376769 1.3590001 0.373139739 -0.3287482262 0.8675778508
0.19682345 -0.17679805 1.2238889 0.8399273753 0.00419981638 0.5426825881
0.087058909 0.043080937 1.0237502 -0.3483219147 0.4190326035 0.8385007381
0.25707045 -0.46482906 1.135895 0.7026791573 -0.05571291223 0.7093222737
0.34559077 -0.242351 0.99800003 0.6689926386 -0.090901196 0.7376895547
-0.084789447 -0.2417645 1.307 -0.1886701733 0.6522071362 0.7341862321
-0.11594772 -0.084117636 1.1467779 -0.2408897877 0.7617094517 0.6014738679
-0.077620938 0.27551532 1.1315 0.3714385629 -0.5190524459 0.7698168159
-0.10925896 0.38293678 1.21 0.3315830827 -0.557914257 0.7607787848
0.17157418 0.051667225 1.1120001 -0.3098749816 0.8141648769 -0.4910326004
-0.15716881 -0.20191824 1.245 -0.2866747677 0.6022606492 0.7450501323
0.14304961 -0.30375639 1.2649231 0.6212646961 -0.1952274144 0.7588915825
0.23355393 -0.3447603 1.1745002 0.7150895596 -0.05361922458 0.6969733834
0.04223254 -0.19746566 1.302 -0.06132613868 0.6671240926 0.7424180508
-0.034740657 -0.19512421 1.285292 -0.2215768993 0.6053858399 0.7644682527
0.10097885 -0.00096170331 1.097 -0.1850512028 0.7673215866 0.6139817834
0.35114443 -0.10942641 1.863 -0.01979964599 0.7503393888 0.6607562304
-0.42810264 -0.46453691 2.0780001 -0.1533586234 0.7022352219 0.6952314973
-0.07535585 -0.045023184 1.1163501 -0.1871495396 0.7169804573 0.6715013981
0.10481468 -0.44505551 1.2428665 0.4261741936 -0.3026739657 0.8525045514
0.084403604 -0.10417607 1.2166667 -0.07188847661 0.7136279941 0.696826458
-0.3235715 -0.1380934 1.1625 0.2070594579 0.5096675158 0.8350840807
-0.044081431 -0.27123979 1.3590001 -0.3153631985 0.6857492924 0.6559679508
0.34346431 -0.36392319 1.0163602 0.765684247 0.2255891114 0.6023596525
-0.20541517 -0.23214981 1.2589999 -0.3016274571 0.6209913492 0.723457396
-0.2369381 -0.09450081 1.1252002 -0.1995921582 0.6703875065 0.7146632671
-0.18449029 -0.14830342 1.193 -0.1961478144 0.6887406707 0.6979701519
0.32273874 -0.31503636 1.0341252 0.8535119891 0.07531251758 0.515601933
0.1130228 -0.056932088 1.1730002 -0.03684989735 0.7491222024 0.6614060402
-0.27524066 -0.19558631 1.2034999 -0.162460655 0.6716341376 0.7228513956
0.26232919 -0.16481052 1.1124002 0.844024539 0.120333612 0.5226303339
0.016269181 0.04067295 1.031 -0.1421927512 0.7732077837 0.6180056334
-0.10868183 -0.010900181 1.0656667 -0.2103636116 0.7127096057 0.6691727638
0.019553173 -0.44052148 1.312 0.6377034187 0.02343032137 0.7699255347
0.33045951 -0.40409949 1.0500001 0.8502117395 0.159994632 0.5015393496
-0.049715765 0.17916436 1.0700001 0.6792546511 -0.2298377305 0.6969847083
-0.0097397668 0.09739767 1.01 0.6470888257 0.07571067661 0.7586461306
0.29372853 -0.30555779 1.0838147 0.8609409332 0.1353222579 0.4903759658
0.13403064 -0.24503069 1.2919999 0.6271885633 -0.2088253945 0.7503508925
0.082361817 -0.49528188 1.2526923 0.6835361123 -0.1438521743 0.7156010866
0.31849301 -0.21475528 1.0380001 0.7652147412 -0.09124680609 0.637275815
-0.074768439 -0.14330921 1.2254002 -0.150716871 0.6935462952 0.7044699788
-0.16650003 -0.29788783 1.2920001 -0.4306330085 -0.5037035346 0.7488911152
-0.1881467 -0.06921459 1.1120001 -0.1403504163 0.7235663533 0.675835371
-0.40157208 0.01125903 1.427 0.6069252491 -0.2190202326 0.7639842033
0.21171586 -0.29610482 1.1947144 0.7247284055 -0.01914276555 0.6887686849
0.19570103 -0.38497353 1.204909 0.6596491933 -0.107527256 0.7438419461
-0.0047604754 -0.0019053475 1.0863999 -0.1679173261 0.7856904268 0.5953942537
0.25431505 -0.25569701 1.1455002 0.883479178 0.03602860868 0.4670829475
-0.044763949 0.08224576 0.97492319 -0.1092915609 0.6265570521 0.7716745734
-0.0054116636 -0.072564207 1.1681427 -0.2234960049 0.7244443893 0.6520965099
0.1031612 -0.13718793 1.251875 -0.04465601221 0.6595520973 0.7503311634
0.034802202 -0.017238626 1.113 -0.07142227888 0.7669650316 0.6377017498
0.28184044 -0.34676415 1.1124287 0.8085785508 0.05146443844 0.586133182
0.19881046 0.15767726 1.5640001 -0.9116337299 0.269778043 0.3100705445
-0.18484437 -0.028149148 1.0703 0.04347835854 0.6624335051 0.7478579283
0.151225 -0.3517625 1.25 0.6319851875 -0.1889662147 0.7515892982
-0.13454796 0.060840175 0.99300003 0.1374966502 0.6107797027 0.7797710299
0.24714667 -0.084392898 1.1460001 0.7144297957 -0.2174621671 0.6650565863
0.20398156 -0.0064681731 1.1470002 -0.2034093142 0.41199404 0.888192296
0.012275964 -0.16851549 1.273 -0.07296404988 0.687810719 0.7222137451
0.098235756 -0.32519424 1.2880001 0.5586066246 -0.2291233689 0.7971581221
0.065414771 -0.074765109 1.1843998 -0.07636521012 0.7607556581 0.6445302367
-0.41564259 0.095386304 1.4770001 0.5981279612 -0.3786559701 0.7063020468
-0.14203402 -0.28057542 1.3280001 -0.4649338126 0.5329174399 0.7069904804
0.18729052 -0.43519652 1.1962 0.620620966 -0.1717594713 0.7650675178
-0.22406361 -0.12868026 1.1610001 -0.2595824599 0.6628618836 0.7023041248
0.036216855 -0.39468402 1.3063749 0.5300859213 -0.1704963446 0.8306261897
0.0043545491 -0.35473487 1.3548334 0.6852090955 -0.3692262769 0.6278219819
0.1796369 -0.28720388 1.2270001 0.6940667033 -0.1739028245 0.6985909343
0.27774939 -0.26456979 1.1054666 0.8762428761 0.05849892274 0.4783056378
0.1998388 -0.22602089 1.2190001 0.8133947253 -0.06108146161 0.5784963965
0.17581715 0.2358129 1.381 -0.7693293691 0.4901607931 -0.4097251892
-0.024276655 -0.11188547 1.2040002 -0.1921360493 0.7506191134 0.6321824789
-0.084711663 0.050858621 1.0018183 -0.01861386001 0.739826858 0.6725397706
-0.071183577 0.020990029 1.041 -0.1215196624 0.7898039818 0.6012009978
0.30100349 -0.4042047 1.09 0.7787997127 -0.003549644258 0.6272626519
0.22276889 -0.19766818 1.1930001 0.798588872 0.08092719316 0.5964114666
0.2915011 -0.12552629 1.0730001 0.6810738444 -0.01329988614 0.7320939302
0.015137111 -0.12650535 1.2333335 -0.08392351866 0.720179677 0.6886930466
0.16833314 -0.19913922 1.2550001 0.749555409 0.002047083341 0.6619384289
0.10469101 -0.025666842 1.1335295 -0.1103984565 0.7699884772 0.6284345388
0.15679798 -0.060464576 1.169 0.007928221487 0.6990967393 0.7149831057
0.28822038 -0.20466004 1.0749999 0.767352283 0.02137914672 0.6408692598
0.2461639 -0.2061967 1.1555454 0.9013375044 0.06833398342 0.4276928008
-0.11988066 -0.22071485 1.2780001 -0.2566576302 0.6522340775 0.7132443786
-0.27217856 -0.067317337 1.1075 0.208980158 0.506867528 0.8363088965
-0.026618229 0.01927527 1.0470001 -0.1465798318 0.7986270189 0.5837031007
-0.13322352 -0.16646411 1.2330002 -0.3634079397 0.6049855351 0.7084681988
0.12440752 -0.40486702 1.2529335 0.5533715487 -0.1190781966 0.8243787289
0.18510991 0.20839418 1.3280001 -0.9935736656 -0.01446064189 0.1122595966
-0.25818884 -0.26926991 1.2640001 -0.1407484114 0.4685847759 0.8721342683
-0.14594133 -0.0015297834 1.0470001 -0.1305278391 0.719019413 0.6826225519
-0.094342485 -0.10782298 1.1826001 -0.1527601182 0.7404896617 0.6544764638
-0.045368474 -0.22786477 1.3120002 -0.1900173128 0.6771470308 0.7108904719
0.073622465 -0.37264293 1.2920001 0.464864552 -0.2938214242 0.8352065086
0.24152195 -0.12595244 1.1463333 0.8838869929 0.09656547755 0.4576230645
-0.045633964 -0.06469845 1.1470954 -0.2095231265 0.6983792782 0.6843730211
-0.24043548 -0.21867661 1.2410001 -0.269452244 0.5880178213 0.7626470923
-0.15507023 -0.084044032 1.1328571 -0.1539157331 0.7597995996 0.631675899
-0.13732633 -0.11170574 1.169 -0.2667016983 0.7148060799 0.6464692354
0.087186255 -0.31720957 2.1160002 -0.1012748107 0.7122676969 0.6945632696
-0.19141841 -0.25711229 1.2920001 -0.4356402755 0.08000597358 0.8965582252
-0.22414757 -0.016969491 1.0653334 0.10023541 0.5820271969 0.8069679141
0.25511315 -0.36474353 1.1457145 0.8081071973 -0.05599785224 0.5863676667
-0.16418879 0.035323933 1.0153078 0.1669638157 0.5583284497 0.8126453161
0.14418828 -0.45596215 1.2258234 0.4910992682 -0.1795420647 0.8524002433
0.34148213 -0.28127265 1.01 0.7486045361 -0.07647891343 0.6585910916
-0.055554073 -0.17181294 1.2589999 -0.1855119318 0.6836283207 0.7058595419
0.14432573 0.0019366443 1.1049 -0.1979572773 0.4570844769 0.8671140075
-0.22529794 -0.16245875 1.189 -0.2386380881 0.6679443121 0.7049129605
0.23841123 -0.29332089 1.1642001 0.7676520348 -0.04175731167 0.6395049691
0.22527684 -0.45443198 1.1654289 0.5561884046 -0.2071312517 0.8048298359
0.27694154 -0.43557096 1.1162857 0.7368389964 -0.04542561993 0.6745404005
0.083135605 0.023350457 1.0655 0.08277267963 0.9367473125 0.3400782347
0.025116498 -0.045416772 1.1460001 -0.1275979578 0.7713927627 0.6234356165
0.062782265 -0.46519855 1.2750832 0.6906718612 -0.08878850937 0.7176970243
-0.26598266 -0.11757798 1.1409999 -0.01611887477 0.6629115939 0.7485241294
0.17524479 0.11333196 1.197 -0.4486922622 0.6873634458 -0.5711451173
0.11570548 0.024075653 1.0418401 -0.3274018168 0.3514418602 0.8770955801
-0.16849153 -0.17276616 1.2190001 -0.281188935 0.6198331714 0.7326251864
