# .PCD v0.7 - Point Cloud Data file format
VERSION 0.7
FIELDS x y z normal_x normal_y normal_z
SIZE 4 4 4 4 4 4
TYPE F F F F F F
COUNT 1 1 1 1 1 1
WIDTH 206
HEIGHT 1
VIEWPOINT 0 0 0 1 0 0 0
POINTS 206
DATA ascii
-0.076372571 -0.06131319 1.2270001 -0.03588278219 0.6966431141 0.7165198922
-0.48515609 -0.49137604 2.365 0.1709875017 0.969658494 0.1747160405
0.39609113 -0.4326534 2.3170002 0.1917825788 0.961243391 0.1980671883
0.45617527 0.19408698 1.6160001 -0.3320969641 -0.7431476116 0.5808986425
0.4734149 -0.46272835 1.2190001 0.2789430618 -0.09536541253 0.9555606842
-0.24297285 -0.064755857 1.8940001 0.9882200956 0.04051672295 0.1475784332
0.046092503 -0.47711968 1.4210001 0.6322718263 -0.1727954894 0.755231142
-0.20200679 0.26489097 1.526 0.7938712835 -0.2611803114 0.5491386056
0.29592234 0.18311507 1.197 0.4913454056 -0.3543787897 0.7956100702
0.28416589 -0.16399315 1.3827143 0.09272311628 0.7204719186 0.6872573495
0.08270561 -0.36713222 2.3010001 0.1650166214 0.9699890614 0.1785799116
0.24333636 0.42494839 1.3540001 0.3418563902 -0.4541868567 0.8227080107
0.02425158 -0.21174219 1.4258001 0.04266969115 0.7506030202 0.6593742371
0.27881944 -0.41284424 1.365 0.4892635047 -0.2512248456 0.8351690173
0.16458121 -0.027608339 1.2112 -0.03692066669 0.8123284578 0.5820304155
-0.1648047 0.076146998 1.3956923 0.3048492968 -0.2603074908 0.9161369801
0.38378537 -0.06026382 1.2060001 0.2682301998 0.7195370793 0.6405614018
0.4600282 -0.25082222 1.2830001 0.3773028553 -0.3846957088 0.8424082994
0.41677171 0.079807349 1.4450001 -0.3827055395 -0.7381594777 0.5555691123
0.30645224 0.30120632 1.4959999 -0.8616428971 -0.4009284675 0.3111718297
0.17629941 -0.29722682 1.452 0.1239341199 -0.2131791413 0.9691207409
0.21516204 0.0809251 1.0860001 0.08798613399 0.5677050948 0.8185165524
0.026061624 0.042708572 1.1475457 0.3102974296 0.3592033088 0.880163908
0.12373838 -0.12218026 1.3357779 -0.07385832816 0.7922185063 0.6057514548
-0.10361499 -0.18103516 1.3280001 -0.4445099831 0.5266963243 0.7245700955
0.11220895 -0.46789014 2.4150002 0.1658323556 0.970143497 0.1769780964
0.2593776 0.29222459 1.2920001 0.7943889499 -0.2705349028 0.5438355207
0.42031869 -0.12597787 1.3430001 0.4595682025 0.3625400066 0.8107785583
0.35061845 -0.29317924 1.365 0.7380176783 -0.2505102456 0.6265577078
0.35611001 -0.49457955 1.2847649 0.566021502 -0.260537535 0.78213799
0.046280112 -0.34307384 1.4530001 0.4434639513 -0.5469649434 0.7100486755
0.17521481 -0.49454603 1.3740908 0.23209095 -0.4119012356 0.8811759949
0.26544413 -0.079858199 1.2830001 0.08834420145 0.7886424661 0.6084721684
0.32582396 0.034610264 1.1308694 0.1018207297 0.2310951352 0.9675885439
0.40793037 -0.36590689 1.2758571 0.701982379 -0.2114918232 0.6800676584
0.045059439 -0.064849935 1.2536403 -0.05488398299 0.7869426012 0.6145804524
-0.1531869 -0.025438238 1.3357275 -0.04620753229 -0.3499024808 0.9356458187
-0.18510658 0.17561372 1.4525453 0.1472685039 -0.5254716873 0.8379686475
0.0054268059 -0.13691467 1.3348184 -0.213946864 0.7556787133 0.6190124154
0.17552796 -0.18691848 1.4119999 0.003192406148 0.7226903439 0.6911645532
0.13617426 -0.3944332 1.4137502 0.09741535783 -0.3532366157 0.9304483533
0.43311062 0.14418022 1.5268573 -0.4726826549 -0.6166425347 0.6295419335
0.13497157 0.034626149 1.1341666 0.1100757644 0.6786251664 0.7261895537
0.26504701 -0.016765369 1.1950002 0.1177810431 0.7976640463 0.5914894342
0.27473375 -0.26599777 1.4245001 0.3075836897 -0.1068892926 0.9454982281
-0.13211016 -0.10049405 1.2880001 0.3664941788 0.7389237881 0.5653969049
-0.054182965 0.014149692 1.1810001 0.2574045956 0.2622494698 0.9300366044
0.35524768 -0.093888357 1.2858572 0.08656292409 0.7582680583 0.6461706161
0.23385964 -0.34463516 1.4039999 0.3448705375 -0.2344681323 0.9088943601
0.21467257 -0.1283326 1.3430001 0.06850279123 0.7554374933 0.6516299844
0.28520006 -0.49551851 1.3373476 0.3953535557 -0.3229809105 0.8598714471
0.28761217 0.10303135 1.1665 0.4540148079 -0.4019141793 0.7951952815
0.17546308 -0.079858199 1.2830001 -0.0183028914 0.8078606129 0.5890892744
0.084878922 -0.01473218 1.1850001 -0.03854394332 0.788095057 0.6143456101
-0.054840975 -0.2239171 1.3824999 -0.7869214416 0.1178491935 0.6056947708
0.34701806 -0.41622087 1.3156668 0.6670617461 -0.2602632046 0.6980628371
0.47270247 -0.37866068 1.2190001 0.3662006855 -0.2414292544 0.8986706734
0.019580349 -0.27281955 1.489 0.09355452657 0.1571415365 0.9831348062
0.095184959 -0.17572607 1.3920001 -0.05187270418 0.7491940856 0.6603161693
0.39507994 -0.22775583 1.3255 0.7020979524 -0.04150580987 0.7108696699
0.21565129 0.023631066 1.1428825 0.007413474377 0.8135288358 0.581477344
-0.024609786 -0.096204527 1.2759999 -0.1742610484 0.7428324819 0.6464000344
0.20420022 -0.42182395 1.3920001 0.325989902 -0.4315369427 0.8411340117
0.40556318 -0.4455452 1.2540456 0.7544603944 -0.1502217203 0.6389232874
0.0049676942 -0.027849196 1.202 -0.05806382 0.7444966435 0.6650964618
0.26155242 0.36644945 1.312 0.6026777029 -0.320266813 0.7308958769
0.31624475 -0.051546492 1.2360001 0.06646279991 0.8122493029 0.5795116425
0.26643506 0.23526809 1.2450002 0.3814292848 -0.3018234968 0.8737358451
0.064422719 -0.40557852 1.4210002 0.3710477352 -0.2424541265 0.8964036703
0.10623423 -0.47584254 1.376 0.1915480942 -0.4694093764 0.8619536757
0.30502388 -0.1222424 1.3280001 0.1681849509 0.7751166224 0.6090222001
0.40598208 -0.29516011 1.2946472 0.6575278044 -0.1637639254 0.7354172468
0.30377865 -0.34523171 1.3726668 0.6475065351 -0.3126580715 0.6949677467
0.46178418 -0.31275082 1.25 0.5724970698 -0.3217632174 0.7541323304
-0.1404534 -0.033237062 1.223 0.09999905527 0.4723252058 0.8757334352
0.11570295 -0.057182532 1.2516667 -0.01491522323 0.8251715302 0.5646852851
0.11310565 -0.32483944 1.4449999 -0.01010100078 -0.4974395931 0.8674398065
0.35654762 -0.021925142 1.1543334 0.1502073556 0.6935753822 0.7045501471
0.36188319 -0.3444989 1.322 0.681768775 -0.1542061567 0.7151306272
0.11227558 -0.22076659 1.439 -0.07687970996 0.706774652 0.7032489181
0.06499128 -0.10325668 1.3047273 -0.08148337901 0.7929093242 0.6038669348
0.22438832 -0.048141491 1.2410001 -0.05882710963 0.8084614873 0.585601747
-0.075443305 -0.12574084 1.3038751 -0.04411526397 0.7730947733 0.6327545047
0.26517764 0.049538679 1.108 0.007698813453 0.7260414958 0.6876077652
-0.045688234 -0.16661538 1.3561429 -0.03630211577 0.7770880461 0.6283441186
0.232549 -0.47187898 1.3649999 0.4016366899 -0.2916629314 0.8681132793
-0.16002235 0.13521267 1.4150001 0.5787040591 -0.3022286594 0.7574691176
0.033948537 -0.17077665 1.3760002 -0.1259915829 0.7065040469 0.6964037418
-0.14399688 0.029118484 1.3650001 0.3298916221 -0.4116799235 0.8495240808
0.43321097 -0.19215919 1.2970001 0.5138790607 -0.3462867141 0.7848654389
-0.17673036 0.2328548 1.483857 0.4093196094 -0.4131191075 0.8135048151
0.16574261 -0.1477271 1.3700001 0.0172867272 0.7548458576 0.6556743979
0.23262876 -0.18585683 1.4039999 0.005763707217 0.7005489469 0.7135810852
0.3523069 -0.23850331 1.381 0.6999528408 -0.1886357069 0.6888269782
0.42248082 -0.49520445 1.2320002 0.7070912123 -0.1114322245 0.6982870698
0.41189131 -0.18161201 1.3540001 0.5757267475 -0.3351858854 0.7457808852
0.16161048 0.073838882 1.102 0.277353406 0.4627147317 0.8420036435
0.17444912 -0.35388345 1.421375 0.295207113 -0.3251679242 0.8983978033
-0.23554718 -0.027615877 1.853 0.9864153862 0.04844557494 0.1569638699
-0.03224409 -0.22570865 1.4330001 -0.1511198431 0.7250212431 0.6719427109
0.1548349 -0.44550312 1.3958826 0.1574436873 -0.3945849836 0.9052702188
0.084569797 0.05400778 1.1312728 0.1911510974 0.4600728452 0.8670606613
0.27644718 0.28505254 1.2270001 0.4019684494 -0.430065006 0.8083720803
-0.10178889 -0.0052468502 1.197 0.3371161819 0.2030092478 0.9193149209
0.032086 -0.40428358 1.4640001 0.8049854636 -0.04831153527 0.5913242698
0.22683442 -0.28564504 1.4375001 0.446500212 -0.4501674771 0.7732960582
0.20951369 -0.011465923 1.189 -0.02732972056 0.8182983398 0.5741436481
0.32606414 -0.46583501 1.317 0.5175536275 -0.2987050116 0.8018189073
0.13494092 -0.0020619198 1.1750001 -0.06256505102 0.7946751714 0.6038020849
-0.016253401 -0.061762918 1.2360001 -0.1882017702 0.7465640903 0.6381396055
0.064891398 -0.1356826 1.3458002 -0.1327473372 0.7526652217 0.6448823214
0.12459187 -0.088346958 1.2919999 -0.0746223703 0.7903892994 0.608043015
0.30417341 -0.29526171 1.3941178 0.600425601 -0.2904512882 0.7450685501
0.31521097 -0.016179884 1.1848093 0.1520538032 0.8095217943 0.5670574307
0.43833554 -0.41735995 1.2270001 0.5887573957 -0.2458795905 0.7700051665
0.28607035 0.0090656104 1.149 0.08900069445 0.7893711925 0.6074306369
-0.01479112 -0.19604783 1.3952727 -0.1528680176 0.7829520702 0.6030070186
0.42496678 0.18133762 1.5790001 -0.1392411143 -0.8007181287 0.5826340318
0.032787334 -0.32262737 1.4960001 0.7094851732 -0.1336387545 0.6919331551
0.31645328 -0.3872399 1.3457694 0.568698287 -0.3212472796 0.7572202086
-0.0847978 -0.095637932 1.2658823 -0.03308481723 0.7582111359 0.6511691809
0.095037073 -0.36538717 1.4235264 0.2881239653 -0.3438235521 0.8937392831
0.22434202 -0.097366907 1.3038182 0.04563468322 0.785469234 0.617215991
0.032794345 -0.0010248233 1.169 0.05477459729 0.678866744 0.7322155833
0.4251214 0.1055226 1.4860001 -0.3827055395 -0.7381594777 0.5555691123
0.35331011 -0.12642117 1.3250002 0.1107698157 0.7428994775 0.6601745486
-0.045122907 -0.030431729 1.197 0.08750647306 0.6510549188 0.7539695501
0.054639317 -0.037442368 1.2152141 -0.001669767313 0.830006361 0.5577514172
-0.13227147 -0.1460737 1.312 0.2879278958 0.4551615119 0.8425707817
-0.12516959 -0.073357277 1.2442502 0.0810931921 0.6860628128 0.7230088115
0.38486654 -0.41552335 1.2864093 0.655647099 -0.2328709811 0.7182604074
0.29110944 0.057615411 1.153 0.5430831909 -0.1958405674 0.8165213466
0.17475046 -0.1133647 1.324 -0.02395810746 0.8099778891 0.585970819
0.38446829 -0.27228302 1.3330001 0.6394554973 -0.2745752931 0.7181261182
0.24647836 -0.38630855 1.3850002 0.3832509816 -0.3463332653 0.8562545776
0.10539988 -0.43508086 1.3980002 0.1851118207 -0.2668770254 0.9457855225
0.25888669 -0.30565861 1.4039999 0.1372054815 -0.3874160349 0.9116377831
0.024332257 -0.092327282 1.2865715 -0.1380186677 0.776432395 0.6149013042
0.26501289 -0.13277906 1.3468184 -0.009030236863 0.7361568809 0.6767507195
0.066019729 -0.22328962 1.439 -0.1147657111 0.7553303242 0.6452169418
0.17608114 0.01119591 1.161 -0.006045661401 0.8297129869 0.5581575036
0.31412044 -0.078731433 1.2751428 0.07844363153 0.7885239124 0.6099808812
0.27830923 0.14071815 1.189 0.5456968546 -0.4419873655 0.7119424939
0.27198583 -0.048957448 1.2410001 0.1354349703 0.8087124825 0.5723997951
0.44349939 -0.35332799 1.25 0.5755056143 -0.3316379189 0.747535646
0.026952241 -0.23679468 1.4640001 -0.01537583955 0.8446849585 0.535042882
-0.015122355 0.025319159 1.1630002 0.1349260509 0.35867396 0.9236600995
0.39415634 -0.096820377 1.307 -0.4198266864 0.7321910262 0.5363225341
0.36516643 -0.065749072 1.2535295 -0.05973165482 0.7591213584 0.6482028365
0.27472591 -0.45550576 1.3566315 0.4127804041 -0.2369522452 0.8794691563
0.095419206 0.012736036 1.153 -0.0384651795 0.6756895781 0.736182034
-0.034637097 -0.13200583 1.317 -0.08866547048 0.7592383027 0.6447446346
0.084859028 -0.078158677 1.2736249 -0.03096990846 0.7996365428 0.5996851325
0.27528596 0.33219495 1.2880001 0.6047144532 -0.3553890586 0.7127545476
0.20581503 -0.15859865 1.381 0.04026402161 0.7207841873 0.6919891238
0.20678112 -0.37786788 1.404 0.1743314266 -0.4253721833 0.888069272
-0.078234613 -0.19618221 1.3590001 -0.6086107492 0.2758665085 0.7439695001
0.19621202 0.049538679 1.108 0.01559151523 0.7387502789 0.6737989187
0.174632 -0.051298149 1.245 0.002139423974 0.7800129056 0.6257597208
0.39190039 -0.48498133 1.2640001 0.633369863 -0.1454417855 0.7600587606
0.31663358 -0.25632241 1.4040002 0.5865632296 -0.1097216904 0.802436769
0.34757423 -0.041415922 1.1960001 0.4734706581 0.7980123758 0.3728294373
0.11562357 -0.028640699 1.21 -0.09720248729 0.8051916957 0.5849940181
0.12086165 -0.15197454 1.365 -0.1122881249 0.741961658 0.6609722376
0.42360088 -0.25442639 1.3024167 0.625506103 -0.2851431966 0.7262475491
0.1353924 -0.18093348 1.404 -0.09186071157 0.72272259 0.6850063205
0.3627468 -0.45473057 1.2930714 0.5248301625 -0.1403990537 0.8395483494
0.30583498 -0.43595758 1.3379999 0.520755589 -0.2450744063 0.8177726865
0.2050018 -0.32500148 1.4258752 0.3021360338 -0.4729234874 0.8276818395
0.31452698 -0.15130652 1.3590001 0.1963055879 0.7099351287 0.6763551235
0.19541952 -0.45959777 1.376 0.1991171837 -0.3404557407 0.9189353585
-0.0047865999 -0.167531 1.365 -0.2350332439 0.740583539 0.629519999
0.24498641 0.0061189574 1.1644002 0.09480280429 0.8436194658 0.5285061002
0.075240999 -0.4952566 1.3927501 0.4983921349 -0.3340270817 0.8000195026
0.24463063 -0.43447435 1.3735 0.2831533551 -0.3914245963 0.8755632043
0.067080781 -0.44741035 1.404 0.4466328919 -0.2988198698 0.8433420062
0.24494861 -0.15509333 1.3728001 0.004581086803 0.7375023961 0.67532897
0.2632148 0.40376583 1.3250002 0.2273423821 -0.4402779043 0.8686027527
0.26542875 -0.10296463 1.3150769 0.08518966287 0.7791717052 0.6209945083
0.4235121 -0.32431126 1.2746667 0.6743863225 -0.2426548004 0.6973677278
0.13496935 -0.35736996 1.427 -0.100558944 -0.5458064079 0.8318553567
0.33704767 -0.32640406 1.3490001 0.6613374949 -0.3290431499 0.674064815
0.14949533 -0.20728345 1.4330001 -0.03225018829 0.6959977746 0.7173193693
0.44182557 -0.28417972 1.2740715 0.6002357006 -0.2588063478 0.756793499
0.054156959 -0.18831852 1.404 -0.1460244805 0.742125392 0.6541611552
0.25827128 0.27041221 1.2590001 0.5068312287 -0.5016058087 0.7010803819
0.21542792 -0.072984502 1.2751428 -0.01466576755 0.8066936731 0.590787828
-0.075117432 -0.15207748 1.3358573 -0.3690080941 0.6719301343 0.6421393156
0.4159095 -0.40506265 1.2558216 0.6482275724 -0.1926978976 0.7366604209
0.36733806 -0.30583113 1.3256924 0.6398763061 -0.2479101419 0.727391839
0.27201563 -0.34340435 1.404 0.3269211054 -0.4638603926 0.8233808875
0.43524918 -0.45538685 1.2256665 0.5702095032 -0.1640736759 0.8049477935
0.28531614 -0.37732756 1.381 0.4004885852 -0.3629468083 0.841355145
0.05300444 -0.29863474 1.4746667 0.5532060862 -0.3466182351 0.7575083375
0.38356382 -0.37401569 1.3037647 0.6876632571 -0.2480391711 0.6823458672
0.47285619 -0.42446861 1.2130001 0.2073119432 -0.1822237968 0.9611536264
0.29281193 0.21373133 1.2190001 0.4596026242 -0.409326911 0.7881731391
0.098467201 -0.39756131 1.404 0.1448903382 -0.3893816173 0.909609139
0.039107222 -0.37719548 1.439 0.5441632867 -0.1500380486 0.8254543543
0.32472697 -0.0036883312 1.1467779 0.2125835419 0.7225788236 0.6577903032
0.12570272 0.06472338 1.1144582 0.1976415068 0.4222576916 0.8846673369
-0.19278952 0.28459406 1.4960001 0.7938712835 -0.2611803114 0.5491386056
-0.0045744465 -0.11436335 1.3045001 -0.2264191359 0.7452667952 0.6271457076
0.25463885 0.025415238 1.1340001 0.06951420754 0.8080592752 0.584985435
0.39150706 -0.33595797 1.302 0.663104713 -0.2119459957 0.7178934813
0.31323293 0.084263511 1.1415333 0.4340829849 -0.3644137681 0.8238777518
