# .PCD v0.7 - Point Cloud Data file format
VERSION 0.7
FIELDS x y z normal_x normal_y normal_z
SIZE 4 4 4 4 4 4
TYPE F F F F F F
COUNT 1 1 1 1 1 1
WIDTH 206
HEIGHT 1
VIEWPOINT 0 0 0 1 0 0 0
POINTS 206
DATA ascii
0.016299987 0.11260108 1.4960002 0.00456553651 0.7948497534 0.6067891717
-0.26421329 -0.3139168 2.9840002 -0.06505027413 0.8561810255 0.5125646591
-0.40274504 0.16306263 2.2410002 0.0003244187974 0.7912502885 0.6114923358
0.40274504 0.14538114 2.2410002 -0.5424310565 0.7635621428 0.3503446877
0.47551453 -0.49567518 1.5860003 0.4683896303 -0.02880049497 0.8830524683
-0.049219575 -0.34793147 1.9360001 0.8830230832 0.2404906303 0.4030315876
0.029016789 0.37721828 1.9470001 0.706068337 -0.5312341452 0.4682497084
0.40094963 -0.041162129 1.7390001 -0.3178547919 -0.4585450292 0.8298823833
-0.47576699 -0.11512387 2.6800001 -0.06505027413 0.8561810255 0.5125646591
-0.27181312 -0.088602066 1.7130001 0.1370455176 0.87324512 0.4676125348
-0.31197938 0.35631326 1.8730001 0.456546098 0.1760519892 0.8721074462
0.064158849 -0.061029151 1.7850002 -0.003789302194 0.8131056428 0.5821038485
0.16656141 -0.49163291 1.7220001 0.3678700626 0.2579558492 0.8933814168
0.28466856 -0.073527224 1.4259092 -0.1117747203 0.7149729133 0.6901594996
0.33121783 0.34737477 1.8430001 -0.7392977476 -0.3482736349 0.5763196349
0.0043947301 0.49074486 1.6710001 -0.1505729407 0.3743495941 -0.914980948
-0.16509737 0.25413868 2.1160002 -0.2565748096 0.9650273323 -0.05377377942
0.32745254 -0.27477539 1.6240002 0.5763708949 -0.1813787669 0.7968050838
-0.46265557 -0.017056428 2.4320002 -0.1635005474 0.8533142209 0.4950983524
-0.16503777 -0.33572546 1.6960001 -0.1808412969 0.753338635 0.6322794557
0.26597017 0.3151564 2.0780001 -0.4221197665 0.819943428 0.3866622448
0.23719881 0.091230318 1.6010001 -0.6591673493 0.04182743281 0.7508321404
0.17419982 -0.27488407 1.8230001 0.218862921 0.03960961103 0.9749513268
-0.20497397 0.093518764 1.5734 0.6656886339 -0.2759369612 0.6933378577
-0.12314975 0.22659555 1.8730001 -0.06172965094 0.08874380589 0.9941398501
-0.12117725 -0.16964816 1.8430001 -0.2136031687 0.6557548642 0.7241265178
0.026185157 0.30960098 1.7570001 -0.2786284089 -0.6198855639 -0.733558476
0.37429371 -0.47903433 1.7570001 -0.2934208512 -0.4049865603 0.8659619689
-0.095750116 -0.015514077 1.6846666 0.06627590209 0.8140493631 0.5770018697
0.046553254 -0.18355973 1.9260004 0.309656769 -0.03420741111 0.9502328634
0.24264643 -0.091595009 1.8330001 0.5834549069 -0.1221659854 0.8029046059
0.044097211 -0.49650192 1.863 0.790006578 0.2094412446 0.576215148
0.163323 0.24988419 1.863 -0.1903796196 -0.04102659225 0.9808529019
0.076153398 0.038076699 1.6390001 -0.03995255381 0.8492596149 0.5264616609
0.1863995 0.064635165 1.427 0.7095963359 -0.3253635466 0.6249892712
0.38416585 -0.13662237 1.5430001 -0.1817906797 0.7852122784 0.5919407606
0.48134699 -0.34340873 1.6390001 -0.3754589558 -0.5234131813 0.764898181
0.21586019 -0.34480861 1.6960002 0.6211820841 -0.1860780865 0.7612540722
0.30425048 -0.15527888 1.7130001 0.7306758761 0.2431217432 0.6379690766
0.19747749 -0.017269894 1.7130001 0.431499511 0.7834883928 0.4471623302
-0.25535548 -0.22778869 1.6550001 0.682090342 -0.4064627886 0.6078987122
-0.0738241 0.27947694 2.0050001 -0.08562353998 -0.9731045961 0.2138600051
0.084893107 -0.38377947 1.785 0.7062577605 -0.5317761302 0.4673479795
-0.083819844 -0.38114309 1.8040003 -0.4103724062 0.6941910386 0.5913487673
0.27515587 0.20100038 2.2260001 0.1491366923 0.9688435793 0.1977381706
-0.43765917 -0.1882668 2.789 -0.06505027413 0.8561810255 0.5125646591
-0.073959112 0.052827928 1.572 -0.1610515863 0.8480893373 0.5047839284
-0.45666003 -0.091332011 2.5410001 -0.06505027413 0.8561810255 0.5125646591
0.1563009 0.30565509 1.9810001 0.08509670943 -0.8711698055 0.4835511744
-0.073847771 -0.22154331 1.9590001 -0.4075849354 0.6206538081 0.6698234081
0.3239615 -0.4035528 1.655 -0.1093496308 0.5174542069 0.8486953974
0.0016419967 0.25779349 1.8730001 0.1229811385 -0.8774304986 0.4636715949
-0.28605947 0.014947542 1.6350001 0.6865366101 0.2199823707 0.6930189729
0.32333922 0.054013185 1.6880001 -0.7885324955 -0.2197235823 0.5744023919
0.12376028 0.16556375 1.464 -0.3074435592 -0.07818789035 0.9483486414
0.42133212 -0.20556343 1.6630001 0.09082071483 -0.08904340863 0.9918784499
0.054185886 -0.30376938 1.8730003 0.2108827382 -0.2156586051 0.9534253478
-0.055116385 -0.085010014 1.7760003 -0.1547610611 0.828923285 0.5375269055
-0.24137351 0.25779349 1.8730001 -0.2042825967 0.005550035276 0.9788962007
0.14214054 -0.16325857 1.853 0.633259356 -0.4401775897 0.6365738511
-0.11429629 0.15018001 1.516 0.6141221523 -0.2692512274 0.7418610454
0.13662237 0.079809099 1.5430001 -0.001542723505 0.9081442356 0.4186545908
-0.16703305 -0.11339859 1.748 -0.3677909672 0.6909099817 0.6223930717
0.1784718 -0.043079399 1.404 0.5529355407 0.4918452799 0.6725700498
0.24849731 -0.24849731 1.7390001 0.6701196432 -0.7337957025 0.1117295548
0.23782827 0.21201745 2.1030002 -0.9233238697 0.02946264669 0.3828903139
0.38592583 -0.49565992 1.6470002 0.8162276745 -0.4400504231 0.3743367195
0.27475083 -0.46949181 1.7220001 -0.3058336973 0.7175022364 0.6258244514
0.0074735833 -0.0074735833 1.705 -0.05677685514 0.9289445281 0.3658394217
-0.014868267 0.38508812 1.6960001 -0.3891460001 -0.5170487165 -0.7623817921
-0.18223445 0.0014237066 1.6240001 -0.1168210506 0.8280849457 0.5482956767
0.24440065 0.3360509 1.9360001 0.6242122054 -0.7417405248 0.2453164309
-0.0048733898 -0.13158153 1.853 -0.3417235017 0.7737076879 0.533480525
-0.16858651 -0.26492167 1.6160001 0.1189682037 0.7338654399 0.6687960029
0.0081661502 -0.39360842 1.863 0.6642745733 0.105650939 0.7399845719
0.25204867 0.28920969 1.8430001 0.1724259406 -0.5733888745 0.8009334803
0.28630969 -0.13061894 1.5050001 0.1112866402 0.8661105037 0.4873068035
0.21546538 -0.1740499 1.794 0.6708489656 -0.2825408578 0.6856619716
0.083602436 -0.48458454 1.7659999 0.7938604355 0.07390821725 0.6035919189
0.42642468 -0.41650784 1.6160001 0.6670774221 -0.06672155112 0.7419945598
-0.1913588 0.3022396 2.0400002 0.01206243224 0.9769562483 0.2130986452
0.15727401 -0.058191381 1.794 -0.2727119625 0.8396254182 0.4697417617
-0.39079168 0.082166463 2.286 0.08451911062 0.7572098374 0.6476803422
0.38568991 -0.10317152 1.6710002 -0.02027381025 0.04327084869 0.998857677
0.30947822 -0.028965943 1.7390001 0.1967431605 0.8105267882 0.5516687632
0.10542145 -0.011112802 1.7130001 -0.07437285036 0.8095973134 0.5822550058
0.015226823 0.067828573 1.5790001 -0.148384586 0.9323602319 0.3296761513
0.16562454 0.04223663 1.6240001 0.1755034477 0.9283673763 0.3276164234
-0.32053649 0.14931825 2.2710001 0.141388908 0.7214666605 0.6778606772
0.15511332 -0.40457839 1.7331818 0.4114225507 0.06833343953 0.9088795185
-0.013019552 -0.25605118 1.904 0.4211158454 -0.6094633341 0.671726048
-0.23315844 0.30416423 1.9470001 0.6831715107 0.7148069143 -0.1494247317
0.40479639 -0.30468547 1.6550001 -0.06513360143 -0.259895891 0.963437438
0.0399497 0.1920163 1.47 0.2607093751 -0.5626468062 0.784512043
-0.17905742 -0.054753095 1.6880001 -0.4814346731 0.5612059832 0.6732521653
0.26438162 0.018679136 1.6390001 -0.5765705705 0.5320025682 0.6201125979
0.35037911 0.17806152 2.184 -0.574133575 0.7371609807 0.3563205004
0.076349773 -0.10883904 1.853 -0.1359304786 0.8730133772 0.46837008
0.33805582 -0.02176325 1.6550001 -0.8344609737 -0.4040378332 0.3747377098
-0.16140485 -0.36692357 1.7760001 0.02905133367 0.8495412469 0.5267216563
0.089345485 -0.22742486 1.853 0.7146593332 -0.2726035714 0.6441655755
0.14707837 -0.32976517 1.766 0.4395277202 -0.8121426702 0.3837182224
-0.024367241 0.024364514 1.6351112 -0.09510532767 0.7521576881 0.6520841718
-0.095994316 -0.33471632 1.7381113 -0.3640115857 0.5937216878 0.7176281214
-0.034361124 0.1754778 1.4960001 0.4190579951 -0.6406380534 0.6434075832
0.4956561 -0.40390122 1.5778335 0.7110092044 -0.2522301078 0.6563885212
0.27742931 -0.33559662 1.6470002 0.2281181365 -0.1137865037 0.9669616222
-0.054475188 -0.18488549 1.8830003 -0.2564225197 0.7441607118 0.6168243885
-0.22546725 -0.3020739 1.6550001 -0.075157471 0.741812408 0.6663825512
0.34542826 -0.21423578 1.6800002 0.083922185 -0.4252375364 0.9011825919
0.24561657 -0.41261634 1.6710001 0.3118595779 0.2924232781 0.9040089846
-0.031867709 0.45677051 1.7310001 -0.9196986556 0.04336527362 -0.3902228475
0.39400905 -0.43712705 1.6960001 0.8491743207 0.4451820254 0.2841055989
-0.056090541 0.097100124 1.5089999 0.009448584169 0.679492414 0.7336217165
0.11409203 -0.3262068 1.8329999 0.5311809778 -0.180191502 0.827875495
0.35584763 -0.34528676 1.6159999 0.1960206479 0.2788678408 0.9401109815
-0.134656 0.076753914 1.5360001 0.1075932533 0.4465328157 0.8882747889
-0.24519928 -0.0435265 1.6550001 -0.05882932246 0.6669959426 0.7427351475
0.27650177 -0.24573866 1.6710002 0.7439541817 -0.3184714913 0.5874590278
-0.17449525 0.26982135 1.8430001 -0.06410829723 0.9967755079 -0.04825650528
-0.20838134 0.19725116 2.1160002 -0.2758677602 0.9538055062 0.1189625263
0.17312238 -0.099627033 1.863 -0.002579336986 0.5989230275 0.8008024096
-0.11472374 -0.065859936 1.7310002 -0.2414911687 0.7283136845 0.6412808895
0.27403021 -0.11921088 1.766 0.7076215148 -0.3518814147 0.6127407551
0.052739389 -0.43310225 1.8230001 0.9558034539 0.01295490842 0.293720752
-0.012807573 -0.32413012 1.8730001 0.2411737591 -0.2436702996 0.9393934011
0.093116023 0.11147694 1.4959999 0.1143719256 0.8314858675 0.5436453819
-0.10535429 0.017796334 1.6240001 -0.2160670757 0.8980730772 0.3831185102
-0.064755857 0.25736302 1.8940001 -0.01714089885 -0.388523221 0.92127949
-0.11323728 -0.1179555 1.794 -0.4520446956 0.5536689162 0.6993613839
0.24318734 -0.025534669 1.3870001 -0.2703770101 0.1435521394 0.9519921541
0.34183687 -0.1022921 1.4770001 -0.3199086189 0.5879183412 0.7429741025
-0.23514543 0.034681097 1.594 0.4595004022 0.3508800268 0.8159304857
0.0015403033 -0.05083001 1.7570001 -0.3719187081 0.6691308022 0.6433820128
-0.17614688 -0.16199222 1.794 -0.2216299027 0.7541903257 0.618123889
-0.072189115 -0.28539884 1.9150001 0.8290377855 -0.4141642153 0.3757184446
0.10181957 -0.14855643 1.904 0.4400743842 0.1806058288 0.8796113133
-0.005403948 0.29213113 1.8130001 -0.2468703389 -0.5821082592 -0.7747290134
0.19657165 -0.29531443 1.7382002 0.6790246964 -0.4828932583 0.5529372096
0.28228053 0.36646944 1.8830001 0.5045736432 -0.8090221286 0.3014773726
0.16393666 0.1167229 1.4960002 -0.307780534 0.6211022139 0.7207657099
0.43399996 -0.11713494 1.7130001 -0.6735486388 -0.2503394186 0.6954584122
0.15289995 -0.2139328 1.8130001 0.211061269 -0.01214588806 0.9773973823
0.011622846 -0.44997022 1.8940001 0.780911088 0.3880435526 0.4894895852
0.064978532 -0.36550426 1.8530002 0.1899755001 -0.2853688002 0.9394008517
0.41059998 -0.36852437 1.6550001 0.1601753384 -0.008285973221 0.9870538116
-0.44599569 0.017394528 2.381 -0.1635005474 0.8533142209 0.4950983524
0.074725308 0.084323056 1.5640001 0.09184804559 0.9078154564 0.409188211
-0.2945258 0.29615903 1.863 0.5447556973 0.03290791065 0.8379488587
0.36642212 0.0052560549 1.7130001 -0.7156708241 -0.4749164283 0.5121226907
-0.013086003 -0.2088071 1.9470001 0.1096023917 -0.01538382657 0.9938564301
-0.066526897 -0.13433936 1.8329999 -0.2563475072 0.5514932275 0.7938143611
0.21523921 -0.45588854 1.705 0.2499991804 0.209670946 0.9452716708
0.34826899 -0.064272813 1.705 0.8413822651 0.115125224 0.5280360579
0.33413494 -0.44075775 1.7130001 -0.05229601637 0.6713321209 0.7393093109
-0.16470124 0.035698242 1.5750002 -0.07115004212 0.8687653542 0.4900861681
0.23901966 -0.10097622 1.4580001 0.008651075885 0.7139857411 0.70010674
0.012652053 -0.090145878 1.8040001 -0.1579137892 0.6262175441 0.7634885907
-0.30192399 -0.0397656 1.6800001 0.4495176375 0.5198379159 0.7264312506
0.25897786 -0.18848684 1.748 0.4736022949 -0.1758921444 0.8629963994
-0.056233346 -0.043401577 1.7220001 -0.1849034578 0.7568857074 0.6268450618
0.1553804 0.013265018 1.6816 -0.1012601927 0.8550339341 0.5085895061
0.21389264 -0.23433825 1.794 0.4465681612 0.2067675442 0.8705309033
0.43207744 -0.25609887 1.6320001 0.2386335731 0.1568302959 0.9583622813
0.019237572 0.43506512 1.6880001 0.8222275972 -0.05527573824 -0.5664682984
0.044830978 -0.2440798 1.8940002 0.2714691758 -0.4627003968 0.8439270258
0.20360759 0.30705339 1.8730001 0.4704352319 -0.542746067 0.6957854629
0.24712883 -0.29448286 1.6880001 0.7358233929 -0.1406775564 0.6624000072
0.28856361 -0.0044394401 1.6880001 -0.3170692921 0.7829170227 0.5352644324
-0.1589835 0.13180684 1.5500001 0.4845784307 -0.4966417551 0.7200907469
0.37829393 -0.1689328 1.6470001 0.4380855858 0.2569622695 0.8614240289
0.11468426 0.062257271 1.6018888 0.1331239641 0.8943226933 0.4271591008
0.20590971 -0.041801218 1.766 0.1157154813 0.9475922585 0.2977898419
-0.22363874 -0.1132588 1.7327778 -0.08110706508 0.7666091323 0.6369709969
0.20498219 0.015243482 1.404 0.4128667116 -0.32631284 0.8503299356
0.054779384 -0.025871897 1.7356668 -0.08780185878 0.8167726398 0.5702396631
0.097155005 -0.43183407 1.7479999 0.6895508766 0.0526962541 0.7223175764
0.32456827 -0.49752763 1.7220001 0.2406279892 -0.1073040813 0.9646677971
0.30343363 -0.21285641 1.7220001 0.6701439619 -0.6526076794 0.3535679281
0.42457756 -0.47817871 1.6090001 0.5330421925 -0.1216964573 0.8372908831
0.045495141 -0.13648543 1.8940001 -0.1981969774 0.7336031199 0.6500341892
0.28155464 0.072193503 1.6470001 -0.6589818597 -0.1142179072 0.7434360385
0.11826409 -0.26689327 1.8230001 0.5264672041 -0.1017311662 0.8440871239
0.11506776 -0.081506327 1.8230001 -0.1201738566 0.8968424201 0.4257134795
0.3823415 -0.25635925 1.6710001 0.3829277456 0.08369252086 0.9199792743
-0.032073725 0.42570582 1.6630001 0.05006610975 -0.1270944327 -0.9906262755
-0.0016691734 -0.16858651 1.904 -0.4364785552 0.7295025587 0.5266046524
-0.23280995 -0.2639772 1.6160001 0.1886430085 0.4015048444 0.8962185383
0.15477376 -0.029115854 1.748 -0.1185063869 0.7744523883 0.6214336157
0.27799889 0.34548995 1.8330001 0.53596735 -0.5325056911 0.6551157832
0.054493602 0.0103096 1.6799999 -0.1721545905 0.8305771947 0.5296266079
0.22824892 -0.070707552 1.4150001 0.03619354218 0.784017086 0.6196831465
-0.14433177 -0.011177207 1.6630001 -0.3189426959 0.8466499448 0.4259805083
0.064172 0.14502871 1.4640001 0.1593010873 0.4050915539 0.9002910852
-0.023536921 0.072233997 1.5430001 -0.2050624043 0.8695492744 0.4492587745
0.46533635 -0.44437531 1.594 0.4550500214 -0.1281758994 0.8811926246
0.33411607 -0.15285473 1.5430001 -0.1911083758 0.793174088 0.5782322288
-0.11390267 -0.20304389 1.8830001 -0.3436492383 0.8120606542 0.4716595411
0.025626719 0.042711202 1.6240002 -0.00956488587 0.8250502348 0.5649784207
-0.26732546 0.34038335 1.8940001 -0.01479639485 0.2125076652 0.9770473838
0.29485458 0.17806152 2.184 -0.9362267256 0.09780687094 0.3375104666
0.37191677 -0.2966871 1.6090001 -0.3985019922 -0.2970793545 0.8677211404
0.10381645 -0.037891462 1.7570002 0.1423765719 0.832762897 0.5350092053
-0.01062257 0.3475098 1.7310001 0.03554343805 -0.6993967891 -0.7138492465
0.2074416 -0.12753344 1.8230002 0.6332967281 -0.5836361647 0.5082362294
-0.0456568 -0.0058911997 1.6800002 -0.1317711025 0.7676421404 0.6271857023
