# .PCD v0.7 - Point Cloud Data file format
VERSION 0.7
FIELDS x y z normal_x normal_y normal_z
SIZE 4 4 4 4 4 4
TYPE F F F F F F
COUNT 1 1 1 1 1 1
WIDTH 206
HEIGHT 1
VIEWPOINT 0 0 0 1 0 0 0
POINTS 206
DATA ascii
-0.054511759 0.0060108029 1.655 -0.07551684976 0.7536033392 0.6529771686
-0.38978001 -0.27990913 2.9840002 0.8806239367 0.326985538 0.3429021835
0.4944016 0.026385387 2.467 0.8665228486 0.1691936255 -0.4695867598
-0.39473581 0.092036851 2.3330002 -0.5630505085 0.7977063656 0.2159600407
0.47694173 -0.49972105 1.6240001 0.4312131703 -0.3253599405 0.8415438533
0.304028 0.3380076 2.0400002 0.2604611218 -0.9349879622 -0.2407437712
0.008394083 -0.47846276 1.9150001 0.6836343408 0.2865610123 0.6712129712
-0.3520062 0.32377928 1.8940001 0.3446701467 -0.09777743369 0.9336177111
0.37527409 -0.073382847 1.6853334 0.3968073428 0.5092069507 0.7637094855
-0.0073990668 0.46170175 1.6880001 -0.6421203613 0.01414596476 0.7664732933
-0.26221889 -0.31495565 1.6710001 0.006016568746 0.8198196888 0.5725901723
0.18996491 -0.0183837 1.3980001 0.2722743154 -0.4226841331 0.8644101024
0.092865296 -0.14689602 1.9260001 0.1970026195 0.519549489 0.8314194679
-0.48541471 -0.15627986 2.7010002 0.8814383149 0.3257137835 0.3420190811
0.21474738 -0.34539786 1.7129999 0.5943576694 -0.1545863152 0.789203465
-0.054946836 0.22709787 1.8830003 0.5710499883 -0.5649869442 0.5955600142
-0.21837153 0.24076861 2.1290002 -0.06706193835 -0.9975198507 0.02137439325
-0.32081529 -0.04834203 1.6710001 0.303154856 0.6668103337 0.6807798147
0.056102771 0.18462911 1.4960002 0.1427714378 -0.6322911978 0.761461854
-0.15517175 -0.21294847 1.8830001 -0.2074556798 0.8237535357 0.5276288986
0.37075108 0.13427202 2.286 0.802447021 -0.09415888041 -0.5892477036
0.18291457 0.26673689 1.853 0.4580527544 -0.5697200298 0.6823537946
0.22383755 0.086418293 1.6160001 0.738437295 -0.3343622983 -0.5855870247
0.43214846 -0.28858727 1.6710001 0.8867375255 0.2225064337 0.4052005708
0.18527824 -0.038924001 1.7760001 0.0581494309 0.8616261482 0.5042013526
-0.12634344 -0.39370927 1.794 -0.2260897458 0.7357258201 0.6384285092
0.36773974 -0.48353866 1.7850001 -0.3193983436 -0.5127130151 0.7969379425
0.32413697 -0.10804565 1.503 -0.2609931231 0.7482777834 0.6098876595
-0.20258364 0.09233404 1.572 0.6362621784 -0.3408353031 0.6920995116
-0.00177788 0.33779719 2.0280001 0.8319091201 -0.5476938486 -0.08921147883
0.089345485 -0.32001927 1.853 0.53749156 -0.01093385741 0.8431982398
0.10859139 -0.49520752 1.7570001 0.3391668499 0.04314367101 0.9397363663
-0.035056733 -0.095681161 1.8040003 -0.2360928655 0.7763225436 0.584451437
0.15848906 0.24410959 2.0780001 -0.1576639712 -0.9082138538 0.3876720667
0.272468 -0.19617696 1.7760001 0.5216951966 0.1315635592 0.8429265022
-0.49710068 -0.25648725 2.8590002 0.8806239367 0.326985538 0.3429021835
-0.1953827 -0.12182686 1.748 -0.2080860883 0.6959066391 0.6873238683
-0.21838556 0.22823754 1.8730001 0.149584502 0.6088389754 0.7790632844
-0.069981672 -0.33625337 1.9470001 0.694283843 0.1787970364 0.6971381307
-0.032346372 0.32346371 1.7570001 -0.1560662985 0.8963441849 0.4149824977
0.074062556 0.062883303 1.5940001 0.1102358699 0.9246746898 0.364451319
0.28725034 0.37525192 1.8940001 0.206956327 -0.8402887583 0.5010827184
-0.062464252 0.091702841 1.516 0.05716302991 0.587046206 0.8075327277
0.34463519 -0.39471039 1.6800002 -0.07941736281 0.7325165868 0.6761008501
-0.025073895 -0.20643027 1.959 -0.3612982929 0.451985836 0.8155809641
0.054664548 -0.018221518 1.732 -0.1247381568 0.8330637217 0.5389297009
-0.18465495 -0.02422493 1.6470002 -0.2034291327 0.7867821455 0.5827439427
0.23824906 -0.47649813 1.7310001 -0.2977951169 0.6926119924 0.6569677591
0.3076162 -0.2565898 1.6630001 0.495999217 -0.380849719 0.7803449631
-0.011751717 0.39787954 1.9150001 0.9699088931 0.1220107153 -0.2106896192
-0.46547756 -0.0020873433 2.381 -0.7234182954 0.6631014347 0.1922563463
0.15587221 -0.21372169 1.8329999 0.5374973416 0.02634244785 0.8428539038
0.27080584 -0.0014798134 1.6880001 0.30374825 -0.7831304073 -0.5426266789
0.17540434 0.31433848 1.9810001 0.6981757283 -0.7085217834 -0.1027012691
-0.22750464 0.27960494 1.9810001 -0.1207832024 -0.8974854946 0.4241830409
-0.095437437 0.26687136 2.016 0.1272992641 -0.8963093758 0.4247639179
-0.14498751 -0.31837463 1.705 -0.4369789362 0.6970580816 0.5684711337
0.15018001 0.11828338 1.516 -0.2511819005 0.6380215883 0.7278984189
0.084063388 -0.082784854 1.8230002 -0.07168995589 0.8591185808 0.5067305565
0.47668287 -0.38478908 1.6240004 0.5521765947 -0.3148745894 0.7719812393
0.43625474 0.075144365 2.381 0.802447021 -0.09415888041 -0.5892477036
0.20088729 -0.1143261 1.863 0.4854476154 -0.2744171619 0.8300818205
0.049543064 -0.42564416 1.8230001 0.9085428119 -0.2265525758 0.3510325849
0.21553278 -0.10372885 1.4743751 -0.03980324417 0.6802406907 0.7319073081
0.14502609 0.022950256 1.6710001 0.06595297903 0.9016627669 0.4273809195
0.36332572 -0.15790695 1.5940001 -0.08051228523 0.8900572658 0.448682338
0.077585876 0.25256678 1.8830001 -0.1945266575 -0.2605135739 -0.9456701875
0.12602293 -0.37466279 1.766 0.583255291 -0.1964239627 0.7881820202
-0.10470819 -0.059182893 1.7310001 -0.1813542694 0.7636101246 0.6196855903
0.39400905 -0.19180064 1.6960001 0.06372540444 0.06438238174 0.9958885312
-0.27287713 0.03369439 1.6240001 0.5624651909 -0.0891148299 0.8220044971
0.32540464 -0.01712656 1.7760001 0.9303367138 -0.1736509502 0.3229843676
0.39566231 -0.48490468 1.6853334 0.8777584434 -0.3354370594 0.3420848846
-0.063260265 0.40961021 1.8040001 0.9776515961 0.1999723166 0.06487232447
-0.064037867 -0.16584165 1.8730003 -0.4137124419 0.5908585787 0.6926241517
0.0036528944 -0.28260121 1.8940001 0.06203419343 -0.2773306668 0.9587697387
-0.12453951 0.028006494 1.5860002 -0.1545453817 0.8183692098 0.5535228252
-0.032839935 -0.39736319 1.8730001 0.3455408812 -0.100232996 0.9330353141
-0.14014217 0.25158054 1.9260001 -0.05258336291 -0.802478075 0.5943601131
0.15609138 0.027154747 1.4750001 0.7242401242 -0.4300655425 0.5389989614
0.2159493 -0.27228391 1.7850001 0.6434648037 -0.7594272494 0.09603825212
-0.45721936 -0.20782699 2.789 0.8806239367 0.326985538 0.3429021835
0.22756338 0.30525005 2.0900002 0.6629671454 -0.7374177575 -0.129188478
-0.13319144 -0.14527085 1.8130001 -0.5684556365 0.5241901875 0.6341000199
0.077585876 -0.22780535 1.8830001 0.6236981153 -0.269869566 0.7336014509
0.0015981633 0.2700896 1.8230001 -0.1809185743 0.8494615555 0.4956647456
-0.28471431 -0.11442919 1.7220001 0.1505395174 0.752897203 0.6406899691
-0.015989523 0.053530142 1.5860001 -0.2974157631 0.8770319223 0.3773047924
0.033225667 0.099676996 1.5160002 -0.02437446825 0.8396134973 0.5426371694
-0.31033736 0.24794149 1.8730001 0.4056410193 0.3096370101 0.8599885702
0.024629951 -0.12643375 1.8730001 -0.2445771694 0.8423082829 0.4803110659
-0.096095815 -0.24286033 1.9930001 0.5273522735 0.5060507059 0.6825044155
0.26283818 0.30312485 1.853 0.1127120033 0.1853563786 0.9761859775
0.03046855 0.018861484 1.6550001 -0.164439708 0.8695454001 0.4656719565
-0.052560549 0.39345324 1.7130001 0.8587357402 0.3288140297 0.3930066228
-0.22067453 -0.25769091 1.6240001 -0.5244417191 -0.2619305849 0.8101562858
0.31986848 -0.1546782 1.7130001 0.5486975908 -0.3078663349 0.7772703767
-0.12229499 0.13860101 1.5500001 0.5005224347 -0.5750179887 0.6471720338
-0.025251508 0.16612832 1.5159999 0.3867269754 -0.7767422199 0.4971054196
-0.35690853 -0.27278009 2.9080002 0.8806761503 0.3296768367 0.3401804566
-0.29682443 0.24704641 2.1030002 -0.03057130426 -0.9995115399 -0.006484423298
0.36496159 -0.32472959 1.6390001 -0.2907212377 -0.1290747374 0.948061645
0.28565744 -0.33546439 1.6710002 0.2558965683 -0.1008191556 0.9614325166
-0.025837414 -0.034961175 1.7336667 -0.1601541787 0.7936753631 0.5868816376
0.15371473 0.051704045 1.5940001 0.03340438008 0.8540819883 0.5190646648
0.31485045 -0.44515434 1.7350001 -0.3721176088 0.71878016 0.5872678757
-0.29870224 0.29699537 1.9470001 -0.7527979612 0.2060945481 0.6251561642
0.17287955 -0.30536667 1.8430001 0.713760972 -0.3789683282 0.5890061259
0.16678286 -0.44455099 1.7390001 0.2514509559 0.09260582924 0.9634295702
0.27066207 -0.062947296 1.4360001 -0.3371268511 0.6423445344 0.6882869601
0.24658406 -0.26640689 1.7130001 0.6725926399 -0.3622540534 0.6452838182
0.24829654 -0.12652053 1.8040001 0.5137471557 -0.5395430326 0.6670510769
-0.20559587 -0.17238423 1.8040001 -0.1172346175 0.7731675506 0.6232720017
-0.22513756 -0.075137667 1.6865455 -0.3807659149 0.5817388892 0.7187469602
0.41422716 -0.41519439 1.6550001 0.7704220414 -0.07845955342 0.6326879263
0.050358366 -0.49546131 1.853 0.8965724111 0.2637179494 0.3558240235
0.035078719 -0.36481869 1.8830003 -0.05572798848 -0.2197001278 0.9739744663
0.25424734 -0.4059037 1.6960001 0.4580652118 0.2643342316 0.8487070799
-0.20160703 0.01251354 1.5860001 0.1385371983 0.6230428219 0.769821465
-0.096242219 -0.21612287 1.9260002 -0.3193854392 0.7875678539 0.5270007849
0.12971774 -0.10672978 1.8730001 -0.006767572369 0.7678572536 0.6405852437
0.12325758 0.21781133 1.9260001 -0.01958093606 -0.8659542203 -0.4997398257
0.025037602 -0.0563346 1.7850001 -0.008965612389 0.8607802391 0.508897841
0.12542669 -0.025639711 1.7390002 0.06616807729 0.7762416005 0.6269536018
-0.13710672 0.20607057 1.8730001 -0.09953632206 -0.6624571681 0.7424573898
0.042671751 -0.19629006 1.9470001 0.5551971197 0.007273287978 0.8316869736
-0.25623944 -0.032089796 1.6390001 0.0405863747 0.6246078014 0.7798832059
0.38241252 -0.42945534 1.7310001 0.5848335028 0.5936281681 0.5527887344
0.19195493 0.3121354 1.904 0.5427696705 -0.5855469704 0.6021094918
0.30779284 -0.15117109 1.5535001 -0.1145507619 0.840446651 0.5296484828
-0.12445159 -0.018409999 1.6800001 -0.1565810442 0.8522268534 0.4991911352
0.17671521 -0.32578412 1.7659999 0.7868193984 -0.3255262673 0.5243547559
-0.14542848 0.07621529 1.5360001 0.2727974653 0.1855541915 0.9440080523
-0.052912969 -0.26797858 1.9470001 0.7570790648 -0.4296480715 0.492172569
0.32517213 0.023851996 1.7220001 0.6121515036 -0.2542365491 -0.748755157
0.08804889 0.12818883 1.4770001 -0.1279469728 0.4594556689 0.8789368868
0.25928906 0.071780592 1.6710001 0.5156544447 -0.3513239026 -0.78145504
-0.16703305 -0.36471438 1.748 -0.4785523415 0.6426692605 0.5983008146
0.33588693 -0.22275661 1.7130002 0.07781919837 -0.3882079124 0.9182803631
0.21297915 -0.1859594 1.8130001 0.5595830083 -0.2162301987 0.8000695705
0.22271279 0.024426563 1.6390001 0.5528762341 -0.447018981 -0.7032082677
-0.2066689 -0.34048331 1.6960001 -0.4635463953 0.5759354234 0.6733670235
0.15342368 -0.071917348 1.8230001 -0.2760567665 0.8493478298 0.4498899281
0.32929966 -0.07132297 1.7310001 0.7486906052 -0.009444017895 0.6628523469
0.094259202 0.083486713 1.5360001 0.1252139956 0.8629539609 0.4895221293
-0.16669203 -0.055564005 1.7130002 -0.2964389026 0.6944985986 0.6555880308
0.092639118 -0.43361336 1.7760001 0.5102750659 -0.1171918064 0.85198915
0.40305626 -0.35592666 1.6799999 0.06603363156 0.04574891552 0.9967680573
0.36524108 -0.27458814 1.684 -0.5760930181 -0.4281427264 0.6962834597
-0.033919733 -0.33421615 1.8940001 0.7146682143 -0.2829478085 0.6396794915
-0.0033576332 -0.16620284 1.9150001 -0.5667384863 0.6566926837 0.4975562394
-0.095455848 -0.093891002 1.785 -0.1550457776 0.812248826 0.5623278618
0.40396535 -0.12164013 1.7130001 -0.2094432414 -0.2542389929 0.944190681
0.16851418 -0.064141758 1.4345001 0.3618035316 0.6661625504 0.6521700025
0.02476145 -0.42622709 1.8830001 0.4140347242 0.0007509003626 0.9102607965
-0.058875181 0.45590526 1.7220001 0.6954407096 -0.2002913356 0.6901054978
0.12709054 -0.17635044 1.8730001 0.6599618793 -0.4553319216 0.5975977778
0.084873781 -0.37605125 1.8130001 0.53237921 -0.7551625967 0.3824941814
0.12473178 -0.26594368 1.8430002 0.2912238836 -0.2052757591 0.9343717098
-0.073918775 -0.37602162 1.8330001 -0.5271656513 0.6554726958 0.5407881737
0.085422397 0.0103096 1.6800001 -0.007061083801 0.902692318 0.4302287102
-0.1919032 -0.28712237 1.6710001 -0.7124829292 0.1919642687 0.6749205589
0.26579568 -0.12432063 1.5053999 -0.2503195405 0.8210350275 0.5130708218
0.11429629 0.16701436 1.5159999 -0.5818036795 -0.5742828846 0.5759371519
0.33295798 -0.025156826 1.6880001 0.7333011627 0.6745204926 -0.08539011329
0.28420407 -0.49254662 1.7659999 0.1731552184 0.2968114913 0.9391060472
0.46215323 -0.33968991 1.6630001 -0.2623470426 -0.5870773196 0.7658421993
-0.075019121 0.052689672 1.5640001 -0.2610142529 0.7614344954 0.5933709145
0.0032839933 0.23808952 1.8730001 -0.3612052798 0.8276069164 0.4296481907
0.36522806 -0.1217427 1.5430001 -0.3700540364 0.5951564312 0.7133364081
0.28187552 -0.137087 1.7570001 0.8040962815 -0.02887358703 0.5937974453
0.4285357 -0.46697581 1.6240001 0.5364952087 -0.04182226211 0.8428664207
-0.014578966 0.40966895 1.6630001 0.9981403351 0.008528390899 -0.06035874039
-0.015403208 0.11513244 1.4890002 -0.0545457527 0.4898197651 0.8701156974
-0.14581539 -0.091904767 1.7570001 -0.3507457376 0.6709543467 0.6532975435
0.49402621 -0.44467103 1.6240001 -0.1804177612 0.1070560142 0.9777466059
0.086022042 -0.045541078 1.7760001 -0.005581015721 0.7031782866 0.7109916806
0.011880587 -0.24440064 1.9360001 0.2744582891 -0.5669509172 0.7766848207
0.17532018 -0.38570443 1.7390002 0.5131931901 -0.07775206119 0.8547440171
-0.075525716 -0.12373361 1.8329999 -0.1419769973 0.7684773803 0.6239271164
0.13446295 -0.33472693 1.8130001 0.6312083602 -0.7581597567 0.1636149287
0.06309545 -0.29057115 1.8940001 0.288683027 0.009288785979 0.9573796988
0.13300173 0.2446575 1.8730001 -0.24787274 -0.2967828512 -0.92221421
-0.08273454 0.25158054 1.9260001 0.1135899946 -0.7207165956 0.6838602424
0.067627817 -0.48597667 1.794 0.8151354194 0.0913516134 0.5720219612
-0.10992172 -0.34834349 1.766 -0.4356338978 0.6471041441 0.6256830692
-0.30417988 0.30335888 1.8730001 -0.3249396682 0.03447859734 0.9451060295
0.1833788 -0.49701273 1.748 0.2729414999 0.1036848277 0.9564268589
-0.075291462 0.19420674 1.8430001 0.4162786007 -0.763358891 0.4939588308
-0.11858582 -0.18031543 1.853 -0.3030681014 0.7594277859 0.5756902099
-0.0073990668 -0.010358693 1.6880001 -0.1788583696 0.8831729889 0.433607161
-0.26680529 -0.14191772 1.7660002 -0.05170435458 0.8855428696 0.4616713822
-0.075754516 0.1448639 1.5159999 0.532027185 -0.3284669518 0.7804207802
0.10464302 0.044432778 1.6351112 0.01386927348 0.8742440343 0.4852885604
-0.014812159 0.075407356 1.5360001 -0.2446101904 0.820276618 0.5170224309
0.16857101 -0.15887684 1.8430001 0.3635078073 -0.4602953196 0.8099322915
0.36707348 -0.16975334 1.6550001 0.4086125493 0.4954068959 0.7665557861
-0.024366951 -0.13374747 1.853 -0.2301466614 0.8211259842 0.5222879052
-0.10444256 0.01001504 1.6320001 -0.2350330204 0.9073146582 0.3486253321
0.28138807 -0.024339773 1.7350001 0.3321381807 -0.8471980095 -0.4146562517
0.028054794 0.14372687 1.4770001 0.1681409478 0.2092072517 0.9633073211
0.28380856 -0.22493339 1.7220001 0.4929036796 -0.8622544408 0.1164615154
-0.3258754 -0.079591691 1.7130001 0.4127980471 0.6700257659 0.6169791222
0.013926852 -0.093378402 1.8230001 -0.2467527688 0.7398819923 0.625849545
-0.2564171 0.26295003 1.863 0.1577568054 0.4804837108 0.8626981974
-0.071746394 -0.028399616 1.705 -0.2170514911 0.7843852043 0.581058085
