# .PCD v0.7 - Point Cloud Data file format
VERSION 0.7
FIELDS x y z normal_x normal_y normal_z
SIZE 4 4 4 4 4 4
TYPE F F F F F F
COUNT 1 1 1 1 1 1
WIDTH 206
HEIGHT 1
VIEWPOINT 0 0 0 1 0 0 0
POINTS 206
DATA ascii
0.42519274 -0.45593575 1.594 0.3706763387 -0.03434794769 0.9281267524
-0.42640364 -0.34792444 2.9840002 0.9202971458 0.2029590756 0.3344559669
-0.3516126 0.32354963 1.8830001 -0.5664167404 -0.09447920322 -0.8186854124
0.48059306 0.01905435 2.4150002 -0.8644102812 -0.2265281081 0.4488651454
-0.24784243 -0.31927937 1.6630001 0.1070346832 0.7060701847 0.7000060081
0.3004854 0.36616525 1.8730001 -0.03176644072 -0.8122608066 0.582428813
0.16796143 0.032500666 1.4150001 0.4353426695 -0.4767507315 0.7636658549
0.13338046 -0.12684752 1.863 0.2443570644 0.3541855216 0.9026861191
-0.21800596 0.086379722 1.5640001 0.6294108033 -0.1878263205 0.7540313601
-0.037419349 0.47187257 1.6630001 -0.308874011 0.08885938674 -0.9469429255
0.041780181 -0.49975523 1.8330001 0.8447188735 0.1806280911 0.5038089752
0.23437157 0.17766877 2.1560001 0.1979464889 0.907676816 0.3700539768
-0.48304683 -0.17759074 2.7010002 0.930382967 0.1442144066 0.3370307982
-0.037967555 0.2294561 1.8830001 -0.3150509596 -0.8113233447 -0.4924401045
0.39217421 -0.12246332 1.6630001 -0.1342870146 -0.4618723989 0.8767216802
-0.1241018 -0.23385172 1.9260001 -0.7444643378 0.4982059896 0.4444813728
-0.20095567 0.24151553 2.1030002 0.2065541595 0.9782270789 -0.02017701976
0.034821197 0.015234276 1.6550001 -0.1882896423 0.8051868677 0.562335372
0.2066689 -0.32561505 1.6960001 0.7513615489 -0.2765116692 0.5991637111
-0.17398369 -0.09623827 1.7220001 -0.4213275015 0.472201407 0.774279654
-0.011653529 0.17350811 1.4770001 0.253565222 -0.4972425103 0.8297316432
0.25769091 0.056948267 1.6240001 -0.6710555553 0.001472187229 0.7414056063
0.26404732 -0.13420947 1.4960002 -0.08200731874 0.7903224826 0.6071780324
0.13025075 0.28655165 1.9810001 0.3283445537 0.9444230795 0.01596707664
0.044266623 -0.30418074 1.8529999 0.3460026383 -0.2142532319 0.9134427905
-0.10527714 -0.39324111 1.766 -0.353445828 0.7608057857 0.5442891121
0.2853182 -0.49515533 1.7220001 -0.008918005973 0.1579873115 0.9874008894
0.16289519 0.24197052 1.8040001 0.2051015347 -0.8672673106 0.4536305964
-0.32041904 -0.038795128 1.6390001 0.3701035082 0.596722424 0.7120012045
0.37203717 -0.29791853 1.647 -0.4523862004 -0.5144161582 0.7285071611
-0.034626875 -0.12732035 1.8230002 -0.1986682713 0.7477528453 0.6335586905
-0.025463004 0.31504485 1.7340001 -0.02141781524 -0.8456948996 -0.5332366824
-0.20325466 0.24461648 1.8430001 0.04308424145 -0.7178760171 -0.6948364973
-0.061078243 0.39783397 1.8830001 -0.9812614322 0.1088693887 0.1589762121
-0.25898135 -0.34792444 2.9840002 -0.382225126 0.9184652567 -0.1016144753
0.25416169 -0.17403838 1.748 0.5825764537 -0.1407157332 0.8005021811
0.1717428 -0.034961175 1.7336668 -0.15409486 0.8125349879 0.5621758103
0.27124068 0.31416228 2.0400002 -0.2310147285 0.8464909196 0.4796721339
-0.3734521 -0.27319652 2.8590002 0.9305598736 0.1436777264 0.3367714286
0.13865973 -0.46403456 1.7129999 0.6061859131 0.2301975638 0.7612802982
0.32027438 -0.019921374 1.748 -0.2432370037 0.5149264932 0.8220014572
-0.075073346 0.03958413 1.557 -0.2406369299 0.7849410176 0.5709303021
0.41352805 0.084722817 2.3010001 -0.04242291674 0.8636383414 0.5023237467
0.085701615 0.077666968 1.5275002 0.127047807 0.8898646832 0.4381776452
-0.069226861 -0.3630189 1.9260001 0.8912256956 0.2190392315 0.3971630931
0.013577813 -0.19857551 1.9360001 0.08523261547 0.1805250794 0.9798704386
0.0017471967 0.33196735 1.9930001 0.09598807245 0.6951217651 -0.712454915
0.15446049 -0.24513353 1.804 0.1126524806 -0.08584794402 0.9899189472
-0.17324424 -0.18489981 1.8130001 -0.3163847923 0.8010566235 0.5081427097
-0.1030846 0.26033232 1.9930001 -0.08479183167 0.956099391 -0.2805073261
-0.17511593 -0.015660774 1.6240003 -0.2214397043 0.8222171664 0.5243313909
-0.047553029 -0.053591512 1.7220001 -0.2969027162 0.6938778758 0.6560353041
0.30777469 -0.40375671 1.6390002 0.007307384163 0.4189785123 0.907966733
0.10992172 -0.35763267 1.766 0.7160419822 -0.5990577936 0.3583485782
-0.26791283 0.27993456 1.9590001 -0.8594837785 -0.4951259792 0.1270350516
0.06383536 -0.074734084 1.7760001 -0.05517702922 0.7761023045 0.6281884313
-0.12359948 0.14220585 1.516 0.4640158117 -0.458809346 0.7577488422
0.22524373 -0.070157878 1.4039999 -0.1019188911 0.7455325723 0.6586301923
0.36308202 -0.16516137 1.557 -0.2866140902 0.8174234033 0.4996712208
-0.28720564 -0.20847923 1.6630001 0.6669375896 0.1997262985 0.7178465128
0.27866691 -0.22957532 1.6470001 0.4473452568 -0.617264688 0.6471990347
0.14166933 0.029750559 1.6160001 0.1903746873 0.9283367991 0.3192932904
0.16835944 0.22266895 2.0650001 0.3299241364 0.9368476868 0.1160452515
-0.28833741 -0.1132215 1.7220001 0.1502055079 0.8229303956 0.5479268432
-0.01454127 -0.40553987 1.8430002 0.2732666731 0.2395738363 0.9316274524
0.46212256 -0.35481855 1.6320001 -0.0371860601 -0.5472193956 0.836162746
0.091124237 0.16299687 1.4640001 -0.4010594487 -0.569694519 0.717355907
0.25250983 0.28926757 1.8230001 0.1976450831 -0.09686657786 0.9754759073
0.37735239 -0.46022195 1.6880001 0.976863265 0.1923422366 0.09350217134
-0.1524611 -0.32734296 1.705 -0.6275556684 0.4593964517 0.62859267
0.082478121 -0.21150328 1.863 0.676284492 -0.5219625235 0.5198022127
0.22214471 -0.11027327 1.8230001 0.5185893178 -0.4977851212 0.6951798797
0.22625363 0.32924971 1.9260001 0.8311182261 -0.5320155621 0.1618700475
-0.038189352 -0.27064627 1.8940001 0.6108511686 -0.5429546833 0.5762473345
-0.076043822 0.0024064502 1.6470002 0.02599300817 0.8411667347 0.5401507616
0.21599287 -0.42368451 1.6710002 0.3183933794 0.1975965351 0.9271360636
-0.27390748 -0.26834592 1.5860001 -0.6162074208 0.1373406053 0.7755166292
0.1998274 0.11162772 1.572 -0.8480917215 0.1065580323 0.5190238953
-0.29260382 0.24531431 1.8730001 -0.2364312261 -0.4819616377 -0.8436902761
0.056509055 -0.43581644 1.766 0.6748947501 -0.215835914 0.7056429386
0.31266537 -0.013783392 1.6550001 -0.7362541556 -0.5538983941 0.3887497783
-0.045412213 0.3794117 1.6710001 -0.2657418847 -0.7280282974 -0.6319462657
-0.0053161066 0.08705125 1.5159999 -0.243860051 0.8050359488 0.5407859087
0.011125777 0.26225045 1.8130001 0.6792433858 -0.6323048472 -0.3725841939
-0.1261909 0.2474006 1.8940001 -0.1000692397 0.3481608927 -0.9320784211
-0.058191381 0.39633048 1.794 -0.9754009843 -0.2118327618 -0.06098979339
-0.27528909 0.025153318 1.594 0.4788634479 0.04086302221 0.8769378662
-0.11423405 -0.11736375 1.7850001 -0.3252201676 0.7400003076 0.5887541175
0.36529914 -0.20502953 1.647 0.356507808 0.2836345136 0.890198648
-0.23472136 -0.072165884 1.6630001 -0.2334997654 0.6613208652 0.7128341794
0.044097211 -0.13229163 1.863 -0.2000847459 0.8420892358 0.5008510947
-0.09519355 -0.18551371 1.853 -0.3542815447 0.7452632785 0.5648603439
0.22832958 -0.25897786 1.748 0.7508327961 -0.6429259777 0.1513151526
0.088602066 -0.01952249 1.7130001 -0.0570890978 0.8129435778 0.5795373917
0.10289349 0.25968358 1.863 0.1558668911 -0.09399894625 0.9832953215
0.2744396 -0.31467161 1.6390001 0.3903136551 -0.08579017967 0.9166762233
0.39000008 -0.06525293 1.7310001 -0.7502020001 -0.5210311413 0.407091558
0.065080658 -0.38485971 1.8330001 0.6390180588 -0.5915179253 0.4916934669
-0.22488429 -0.15249003 1.7570001 0.0913753286 0.8056976199 0.5852366686
-0.15414868 0.049595661 1.529 0.03515890241 0.5479854345 0.8357486725
0.30780119 -0.16277947 1.6880001 0.7329035997 -0.1818535328 0.655577302
-0.17817023 -0.28593448 1.6390001 -0.2703539729 0.4977101982 0.8241318464
0.025861314 0.055893816 1.5860001 -0.1614663303 0.8306190968 0.5329169631
0.38548318 -0.38405249 1.6366668 0.3102756739 0.4691815078 0.8267996907
-0.12637606 -0.044098437 1.6880001 -0.07416789234 0.648892045 0.7572570443
0.14708012 -0.077493824 1.8040001 -0.1782811135 0.8599242568 0.4782741368
-0.084624633 -0.28323346 1.9700001 0.8774678111 -0.1049633697 0.4680095613
0.18440378 -0.17496732 1.7939999 0.6622493863 -0.3214357495 0.6768344045
0.16248718 -0.3859446 1.7130001 0.3469170034 -0.1552541107 0.9249566197
0.20723873 -0.49707264 1.7130001 0.09637155384 0.6147922277 0.782779038
0.1668662 -0.30652037 1.7570001 0.7256339788 -0.6402270198 0.252120316
0.47545141 -0.39827669 1.572 0.4448466599 -0.4976810813 0.7445971966
-0.06525293 0.43552536 1.7310001 -0.9220294952 0.329664886 -0.2029351741
0.15459779 0.094949387 1.5072858 -0.3630303741 0.5761774778 0.7322762012
0.15666023 -0.044062037 1.3961251 0.7311094999 0.1744827181 0.659571588
0.33384496 -0.11454504 1.4890002 -0.2744717598 0.5623247027 0.7800360322
-0.065004833 0.1144085 1.4829999 0.1512708962 0.3553303182 0.9224193692
-0.02449845 -0.3348121 1.863 0.3477550745 -0.3952532411 0.8502007127
0.32858869 -0.074341327 1.6960001 0.8598231673 0.09454745054 0.5017617941
0.30182582 0.043117974 1.6960001 -0.6676029563 -0.1608621627 0.7269316912
0.28249267 -0.088674828 1.4450001 -0.535240829 0.5901556015 0.6043456197
0.11602596 -0.30516419 1.8129998 0.371445179 0.06329250336 0.926295042
-0.0062278397 -0.082518883 1.7760001 -0.5225007534 0.644323647 0.5584264398
-0.028062977 -0.18323472 1.8830001 -0.3548853695 0.6911687851 0.6295570135
0.14727999 0.0044184001 1.6800002 -0.3068293929 0.792078793 0.5276996493
-0.056008477 -0.21894224 1.9360002 -0.1301250309 0.7447314858 0.6545552015
0.34585813 -0.33328149 1.5940001 0.1614365727 0.2082592398 0.9646586776
-0.0082538165 -0.46056297 1.8830001 0.8154314756 0.2584917545 0.5179319382
0.18742082 0.2924411 1.8430001 0.0113628367 0.5393173695 0.8420259356
-0.00503645 0.37605494 1.9150001 -0.9650290012 -0.1205654964 0.2327722907
0.23708346 -0.0037540621 1.6470001 -0.4436172247 0.6042999625 0.661834836
0.076988429 -0.49470782 1.7390001 0.6166690588 -0.02733212896 0.7867478728
0.015545053 -0.02600807 1.7050002 -0.1318973601 0.8370124698 0.531049192
0.41550055 -0.24930033 1.6630001 0.02164740115 0.0516192168 0.998432219
0.036175378 0.12454608 1.467 0.1293147206 0.5991961956 0.7900896072
0.024761448 -0.2476145 1.8830003 0.2774218321 -0.5255313516 0.804272294
0.36011714 -0.48424262 1.748 0.7474018335 -0.6466955543 0.1522346735
-0.19707116 0.022049919 1.572 0.1260818392 0.7358041406 0.665353775
0.20431629 0.045680471 1.5790002 -0.7777622342 -0.1211558506 0.6167715192
0.28322628 -0.22435847 1.7130001 0.7050853372 -0.6492289901 0.2852303684
0.31570283 -0.43564022 1.6960001 -0.2365989089 0.7209616899 0.6513333917
-0.15270568 -0.20853357 1.8730001 -0.09289544076 0.8919739127 0.4424398243
-0.21075505 -0.35574257 1.705 -0.2240219116 0.7630771399 0.6062403917
-0.024792131 0.026917174 1.6160001 -0.1432088763 0.8176985383 0.5575485229
-0.1262324 0.013974067 1.594 -0.1832704097 0.8755331039 0.447050035
0.38772276 -0.49877191 1.6240001 0.835049808 -0.1135819629 0.5383223891
0.0015017299 0.46103111 1.7130001 0.8634155989 -0.01035816688 -0.5043869615
0.24921195 -0.37453988 1.6470001 0.5413415432 0.02293696813 0.8404898643
-0.083104491 -0.41072798 1.8230001 0.2506575882 0.5123243928 0.8213979006
-0.16345741 -0.37493047 1.748 -0.1063607857 0.777911067 0.619307518
0.31818932 -0.27512184 1.6159999 0.2011820376 -0.2517243624 0.946657598
-0.25510234 -0.026015002 1.6240004 -0.009761654772 0.6495729089 0.7602366805
0.21457864 -0.1042098 1.4555 0.1422970295 0.8275002241 0.5431343913
0.24006639 -0.2754136 1.6799999 0.7133940458 -0.1917264313 0.6740251184
0.13016133 -0.18479694 1.8330001 0.7455233335 -0.4132276773 0.5229128599
0.10486833 -0.41339278 1.7336669 0.5401766896 -0.2288602144 0.8098346591
0.14264452 0.057548959 1.5556 0.02843533643 0.8668034673 0.4978384972
0.27592471 -0.02600807 1.7050002 -0.4211759865 0.755461216 0.5018856525
0.081789494 -0.16524816 1.904 0.4687111974 0.1615623534 0.8684511781
-0.044668797 -0.38969675 1.7570001 0.5234645605 0.8520229459 0.006464710459
-0.11521614 -0.082519531 1.735 -0.2166119069 0.7996386886 0.5600511432
0.076501444 0.041084107 1.6160001 -0.03274606168 0.8611146212 0.5073552728
0.46206295 -0.4935984 1.5640001 0.6193489432 -0.06773238629 0.7821887732
0.41705456 -0.28352189 1.6090001 0.9093403816 0.2464521825 0.3352034688
0.091095306 -0.10068429 1.8230001 -0.1858678013 0.86548388 0.4651782811
0.2924639 0.33401617 1.8230001 -0.2838996649 -0.4058549106 0.8687247634
-0.30377465 0.30377465 1.853 0.04193390161 0.1853448749 -0.9817783833
0.20749559 -0.012635396 1.3950001 -0.4364463389 -0.7005953789 0.5645180941
-0.1045083 0.078050509 1.5090002 0.1391697973 0.5534127355 0.8211979866
0.30963778 -0.15146783 1.529 -0.1284354478 0.8929384947 0.4314685762
0.035352461 -0.43547806 1.8330001 0.8411336541 -0.1525355875 0.5188709497
0.10488177 0.10747144 1.4770001 -0.156212315 0.7363675237 0.6583012938
-0.039318498 0.28466594 1.794 -0.3151459396 -0.6926879883 -0.6487421989
-0.11339859 -0.33866334 1.748 -0.7652353644 0.1116263866 0.6339987516
-0.24471934 -0.23586075 1.6240003 0.2079113871 -0.622005105 0.7549056411
0.11552275 -0.056991223 1.7570001 -0.08111137152 0.8650479913 0.4950887561
-0.064601891 -0.094721287 1.766 -0.1655230671 0.7315219641 0.661421001
-0.16875307 -0.14243379 1.766 -0.4953959286 0.6439026594 0.5830714107
0.23028544 0.32501277 1.863 0.7828415632 -0.5476036668 0.2954476476
-0.17291461 0.10370001 1.5290002 0.6032549143 -0.227773279 0.7643316388
0.26354703 -0.45478383 1.6832001 -0.2311869562 0.6627648473 0.712246716
-0.18311375 -0.04687712 1.6710001 -0.2877882719 0.7892669439 0.5424348712
-0.3225432 -0.078058399 1.6800001 0.3354469836 0.647151947 0.6845945716
0.088381149 -0.25871572 1.8330001 0.5875294209 -0.263640523 0.7650508881
-0.035347201 -0.0191464 1.6800001 -0.1034759954 0.8794802427 0.4645505846
0.094763279 0.010205276 1.6630001 0.0202451162 0.8832477927 0.4684692919
-0.23392317 -0.10836696 1.705 -0.2098722309 0.7919350266 0.5734043717
0.03496673 -0.10331079 1.8129998 -0.1316810697 0.7330269217 0.6673317552
0.32622522 -0.2231292 1.6800001 0.3819223642 -0.3970414996 0.8345617652
-0.073308326 -0.30610421 1.9150001 0.7614054084 -0.402557373 0.5081430078
0.024831083 -0.35482922 1.8529999 0.168071568 -0.2619302273 0.9503391385
-0.014508834 0.42365795 1.6550001 0.2682953775 0.1853553355 -0.9453364611
0.042353518 0.1860988 1.4640001 0.1165881753 -0.4194877148 0.9002428651
0.24444272 -0.12922768 1.7760001 0.4017508626 -0.5911818147 0.6993570328
0.39671764 -0.44554776 1.6381251 0.8709874749 0.02287483402 0.4907724261
-0.024553351 0.057295747 1.556125 -0.2656452656 0.8784611821 0.3971630931
-0.16584167 0.21838556 1.8730001 0.4062350392 0.08385229856 -0.9099131227
0.43453261 -0.39424363 1.6052103 0.4630506039 -0.4083102345 0.7866809368
-0.016171344 0.11833316 1.4640001 0.006756026763 0.5289934278 0.8485990167
-0.087898985 -0.14223653 1.8230001 -0.4254811108 0.5825284123 0.6925507188
-0.040392417 0.26335856 1.8430001 -0.8039327264 -0.4436055124 -0.3961140215
0.35304332 -0.40870988 1.6710001 -0.01909673773 0.8460345864 0.5327858925
-0.12850443 -0.01010709 1.6470001 -0.2209376693 0.8392201066 0.4968864918
-0.28185183 -0.29472831 1.6320001 -0.2572885454 0.6225972176 0.7390367389
0.35125843 -0.028399616 1.705 0.8396487832 -0.5430970192 -0.005960157141
0.21519887 -0.20590973 1.7659999 0.5573644638 -0.08942709118 0.8254378438
