# .PCD v0.7 - Point Cloud Data file format
VERSION 0.7
FIELDS x y z normal_x normal_y normal_z
SIZE 4 4 4 4 4 4
TYPE F F F F F F
COUNT 1 1 1 1 1 1
WIDTH 206
HEIGHT 1
VIEWPOINT 0 0 0 1 0 0 0
POINTS 206
DATA ascii
0.40517426 -0.48450905 1.6159997 0.6553342938 -0.2682986557 0.7060827017
-0.38978001 -0.35315639 2.9840002 0.6900525093 0.6853244305 0.232718572
-0.33621919 0.30581641 2.0400002 0.90243572 0.4259736836 -0.06446835399
0.49613023 0.056760661 2.398 0.01872255467 0.8539874554 0.5199566483
0.10299869 0.17443475 1.455 -0.265748471 -0.1375481337 0.9541793466
-0.21607028 -0.34785783 1.748 -0.2763287425 0.7373158336 0.6164477468
-0.48580921 -0.045748848 2.4850001 -0.3689338863 0.7872580886 0.4940774441
0.32882714 0.3622106 1.904 -0.7241950035 -0.6502479315 0.229606688
0.19226789 -0.10178889 1.8430001 0.5104824901 -0.3935350478 0.7645506859
-0.27649805 0.051931102 1.6010001 0.6561555266 0.2080296576 0.7253851295
-0.037543248 0.47905186 1.7130001 0.6532744169 -0.445176363 0.6124137044
0.31623119 -0.11463381 1.503 -0.08487838507 0.9017993808 0.4237376153
0.091944799 -0.49496949 1.748 0.5431416631 0.1750949919 0.8211813569
0.22656572 0.23805356 2.184 -0.0507572256 0.8849508762 0.4629099369
-0.067354299 -0.2176062 1.9700001 0.300026089 0.3192493021 0.8989239335
-0.10385629 0.23521602 1.8730001 0.02707342431 0.2026318312 0.9788806438
-0.0036622749 0.013916645 1.6710001 -0.1846771091 0.8844823837 0.4284685254
0.24448478 -0.29455999 1.6800002 0.6732978225 -0.1557527632 0.7227801085
0.29303578 0.073382847 1.6853334 -0.6320174336 -0.5537133217 0.5421766639
-0.19561853 -0.10936154 1.7570001 -0.05136806145 0.6079958677 0.7922766805
0.12279295 0.27628413 1.8430001 -0.1576188356 -0.02971657738 0.9870527983
-0.48541471 -0.11602595 2.7010002 -0.346024543 0.7912400365 0.5041886568
-0.1038362 0.16622446 1.5250001 0.5800341964 -0.3797684014 0.7206498981
-0.011880587 -0.45655397 1.9360001 0.8742633462 0.4130136967 0.2551142275
0.10178889 -0.29890388 1.8430001 0.6088432074 -0.02653389983 0.7928466797
-0.43400756 0.075155757 2.3170002 -0.2365809679 0.8405140042 0.4874070585
-0.27843842 0.36245462 1.8430001 -0.06886072457 0.8046593666 0.5897300243
0.033779718 0.33246356 2.0280001 -0.3823193312 0.702680409 0.6000601053
0.19421323 0.0012062934 1.376 0.3221989572 -0.08955097198 0.9424269199
0.40534377 -0.11202279 1.6813334 0.5039896965 0.3490559161 0.7900344133
-0.0041780183 -0.096737191 1.8329999 -0.1899623126 0.755030036 0.6275698543
0.42663741 -0.29565641 1.6240001 0.6360040307 0.09217195213 0.7661613822
-0.24697687 -0.21864299 1.6160001 0.09739304334 0.2224771678 0.9700610638
0.27593872 -0.47412676 1.7390002 0.2977845669 0.196021542 0.9342911243
0.0082538165 0.43084922 1.8830001 -0.9943296313 0.04362305626 0.09698247164
0.1446009 0.066043675 1.5860001 0.1230463088 0.9352677464 0.3318642378
-0.3361482 -0.22999613 2.8830001 0.7231011987 0.5917200446 0.3563594222
0.28059909 0.33490857 2.0650001 -0.2503594458 0.9372071028 0.24282296
-0.012322427 0.32500401 1.7570001 0.3352082074 0.7403375506 0.5826969743
0.16454856 -0.0045288601 1.7220001 0.1090812013 0.8081447482 0.5787947774
-0.06042951 -0.33154568 1.863 0.5190166831 -0.3502664864 0.7797019482
-0.12856141 0.037729979 1.5940001 -0.1777572185 0.8688811064 0.4620043635
-0.32435352 -0.040357351 1.705 0.6761569977 0.5942639112 0.4355021119
0.27573025 -0.15430053 1.7358001 0.8315474987 -0.03454494104 0.5543783903
-0.26421329 -0.29298902 2.9840002 0.1208727434 0.9609879851 0.2487806678
0.015556011 0.094012417 1.5430001 -0.1429191083 0.9004038572 0.4109099507
-0.094916701 0.28650782 2.0050001 0.288020879 -0.9224258661 0.2572440505
0.1606141 0.3160471 1.9700001 -0.8609111309 0.500462532 -0.09148352593
-0.14862393 -0.18128853 1.863 -0.2928534746 0.7526244521 0.5897400379
0.1350584 -0.36571985 1.7310001 0.3688768148 -0.1509149522 0.9171447754
0.052342255 -0.17391138 1.9260001 0.5172978044 -0.4388329685 0.7347303033
0.24635649 0.31628996 1.813 -0.09478836507 0.3727281392 0.9230866432
0.31576219 -0.033116523 1.7570001 0.7400143147 0.5971217752 0.3095550835
0.33497787 -0.38262555 1.6470001 0.04444846883 0.6474180818 0.7608377934
0.20288345 -0.24220195 1.794 0.7748173475 -0.01736374386 0.6319466829
0.036757756 -0.40353626 1.8230001 0.905929029 -0.2718507051 0.3246379495
-0.11509319 -0.03138905 1.705 -0.1737780273 0.777012229 0.6050233245
0.48331043 -0.39300731 1.5766667 0.8866099119 -0.1979620159 0.418011874
0.16495359 0.065723702 1.47 0.6847214699 -0.566413343 0.458620131
0.35157838 -0.21534176 1.6710001 0.4922131002 -0.03629558906 0.8697177172
-0.21908338 -0.03046855 1.6550001 -0.2354876846 0.7080665231 0.6657232046
0.064601891 -0.035889938 1.766 -0.05295752361 0.7134684324 0.6986832619
0.17772663 0.29498956 2.0900002 -0.1968672872 0.961707592 0.1906876564
-0.23480552 0.26271945 1.8730001 -0.2159291357 0.9055297971 0.3652264476
0.38329619 -0.44718242 1.7350001 0.8678465486 0.3654522002 0.3365814388
-0.0051670731 0.18457866 1.4723334 0.1683933139 -0.4919338822 0.8541924357
0.22548743 -0.078540571 1.4450001 0.2107131183 0.874605298 0.4366526604
-0.19565623 0.11363722 1.5542001 0.600605011 -0.1693257987 0.7814105153
0.22999087 -0.40285024 1.6710001 0.3103451431 0.2635545135 0.9133591056
0.12225438 -0.18365085 1.8430001 0.6654492021 -0.4022250473 0.6288023591
-0.4814145 0.016817974 2.398 -0.276768446 0.8209028244 0.49951756
-0.18515287 -0.29157934 1.6630001 0.1757310778 0.7522261143 0.6350389719
0.34385934 -0.02176325 1.6550001 0.09126382321 -0.05919000879 0.9940661192
0.0032313932 0.26982135 1.8430001 0.08229348809 0.8137528896 0.5753555894
-0.01485687 -0.23936068 1.883 0.03227121755 -0.5688451529 0.8218112588
0.005566658 0.39523268 1.6710001 0.05391037837 0.6069270968 0.7929269671
-0.10437944 -0.099634923 1.8040001 -0.4720899165 0.6026591063 0.6433763504
0.23697352 0.10014952 1.6090001 -0.8411988616 0.06261455268 0.5370883346
0.094763279 0.030615829 1.6630001 0.08632916957 0.8809432387 0.4652809203
0.095843337 -0.089345485 1.853 -0.09247590601 0.7965217829 0.5974957943
0.034113731 -0.49546131 1.853 0.7406378388 0.1894823015 0.6446332335
-0.035426978 -0.047749404 1.7570001 -0.1673953533 0.80665797 0.5668171644
0.18471277 -0.47454664 1.7129999 0.1169073358 0.3027887642 0.9458602667
0.023472751 0.48353863 1.7850002 -0.03911104798 0.9727483988 0.2285407484
-0.26732635 0.29313716 2.1030002 0.261105895 0.9634972215 0.05913379043
0.32468039 -0.29505861 1.6159999 0.4321095645 -0.01048387587 0.9017601609
-0.062943205 -0.15708433 1.8730001 -0.3519926071 0.6182545424 0.7027535439
-0.076215297 0.078908414 1.536 -0.05794296041 0.7813069224 0.6214516163
0.098347977 0.099676996 1.516 0.1354239881 0.8694592118 0.4750800729
0.14626481 -0.048754942 1.794 -0.1966727674 0.8627226353 0.4658642113
0.45200318 0.087946326 2.3330002 -0.09547067434 0.8130375147 0.5743303299
0.024498448 -0.32337955 1.863 0.1709176749 -0.4330526888 0.8850155473
0.41429865 -0.39436674 1.6240003 0.6003749967 -0.239480108 0.7630197406
-0.034785755 0.054086454 1.6055715 -0.2220464796 0.870896399 0.4384459555
0.20812505 -0.15804985 1.7850001 0.6177116036 -0.2657392919 0.7401452661
-0.25619444 -0.085198849 1.7050002 -0.1086589992 0.7487484813 0.6538875699
0.1832635 -0.29480019 1.7334001 0.6850397587 -0.4455124736 0.5764018893
0.39388126 -0.04295088 1.7374001 -0.1675219834 -0.9039317966 0.393501848
0.48562598 -0.47018701 1.6010001 -0.325076282 0.1124691516 0.938976109
0.34590811 -0.1447026 1.572 -0.1699752361 0.7828499079 0.598543644
-0.084500439 -0.27476633 1.9150001 0.211323306 -0.1691496372 0.9626685977
0.2956751 0.38084242 1.8330001 -0.3393088579 0.6758334041 -0.6543078423
-0.31033736 0.29555941 1.8730001 0.5388888717 0.1765892506 0.8236595392
0.2460649 0.026127473 1.6376002 -0.5161089897 0.449893713 0.7288533449
0.065966539 0.071580708 1.6010002 0.000532793405 0.7544156313 0.6563968062
0.077323228 -0.4143416 1.7570002 0.7301471829 -0.1239630133 0.6719511151
-0.02476145 -0.40113547 1.8830001 0.6931350827 0.2940006256 0.6581241488
0.27237681 -0.22217889 1.684 0.7017709613 -0.6437594891 0.3051084876
0.063151561 -0.2346407 1.863 0.7312617302 -0.2272641212 0.6431230903
-0.034666032 0.36646944 1.8830001 0.7678456306 -0.2865238488 0.5729896426
-0.20551886 0.023058211 1.601 0.0261803437 0.7336115241 0.6790646315
-0.08463487 0.023697762 1.6550001 -0.197739929 0.7583168149 0.6211719513
0.31495565 -0.14502609 1.6710001 0.5825785995 0.1335069537 0.8017343879
-0.30892417 -0.0071842833 1.6390001 0.3337335885 0.5592916012 0.7588245869
0.18618822 0.31194693 1.863 0.2037907243 -0.581248045 0.7877944112
0.16956574 0.12149987 1.5230001 -0.3742474616 0.5034886599 0.7787413001
0.28547072 -0.0014868267 1.6960001 -0.4049976766 0.7824342251 0.4730471075
0.46687761 -0.3225432 1.6800001 -0.6241169572 -0.592653811 0.5091556907
-0.035244629 0.11774316 1.4890001 0.06927058101 0.5873773098 0.8063432574
0.041434772 0.12818883 1.4770001 0.07848866284 0.7842023373 0.6155210733
-0.15451907 0.0021763251 1.6550001 -0.3347305954 0.8332077861 0.4401365817
-0.17515537 0.26353651 1.8330001 -0.2454453856 -0.8771294951 0.4127958119
0.24568145 -0.097020701 1.7850001 0.5477052331 -0.5448263288 0.6349671483
-0.018573061 -0.17728829 1.9260001 -0.2486652583 0.7080482841 0.6609336138
0.08414159 -0.35465288 1.794 0.663100183 -0.7085487247 0.2413644642
0.16474232 0.032802675 1.6630001 0.07797712088 0.8600441813 0.5042256713
-0.18170933 -0.05706574 1.7130001 -0.5071267486 0.5041923523 0.6990082264
0.36476257 -0.49733692 1.6710001 0.8145310879 -0.4690598845 0.341353029
0.27731332 -0.34484559 1.6390001 0.2026808262 0.03344774246 0.9786734581
0.022092 0.4919152 1.6800001 -0.7216872573 0.1626510173 0.6728388667
0.13600694 -0.24681059 1.813 0.2823593616 -0.01129943226 0.9592421651
0.29378501 -0.42517981 1.684 -0.2067830414 0.7508522272 0.6272652149
0.25124389 -0.035541821 1.3980001 -0.4789668322 0.380179882 0.791235745
-0.17554724 -0.15513144 1.8040001 -0.3586398363 0.7232910991 0.590108037
0.037967555 -0.1172042 1.8830001 -0.1558663845 0.8406397104 0.5186815262
0.24774015 -0.21504867 1.748 0.7297008038 -0.1412635148 0.6690152287
0.14240135 -0.31140515 1.7850001 0.5284124613 -0.8361663222 0.1469903737
0.14855643 0.01498574 1.424 0.5074698329 -0.4001784325 0.7631065249
-0.044830978 0.26068383 1.8940001 0.2168877423 0.7166198492 0.6628843546
-0.10240781 -0.19977918 1.9150001 -0.3573896289 0.8522033095 0.3821284175
0.3823415 -0.27540308 1.6710001 0.1513275206 -0.1679199189 0.9741164446
0.05190042 -0.46395829 1.794 0.9623477459 0.04736571386 0.2676625848
-0.33180344 0.35821563 1.8830001 0.6178146601 0.3257727027 0.7156655788
0.19543421 -0.35387421 1.705 0.6114974618 -0.3304097056 0.7189577818
0.04955709 0.0015017299 1.7130001 -0.1366625577 0.8277572989 0.5441886187
0.34627631 -0.082869545 1.6880001 0.5040313601 0.579134047 0.6407465339
0.37759528 -0.43299532 1.6630001 0.9153596759 0.02327648178 0.4019637108
0.1326309 -0.4354175 1.7220001 0.7040180564 0.1572555155 0.6925527453
-0.13599591 0.10280757 1.523 0.2111233473 0.4143122435 0.8853091598
0.1733411 -0.046766661 1.4225 0.2262091041 0.7896091342 0.5703918338
-0.042279001 0.43882689 1.6630001 0.5598907471 0.1943513453 0.8054501414
0.37614328 -0.33514056 1.6240002 -0.6291123033 0.2228321731 0.7446901798
0.29312927 -0.076690793 1.4580001 -0.391957581 0.6070069671 0.6913116574
0.46270466 -0.35450295 1.6240001 0.4608949423 -0.3311487734 0.8233567476
0.051282078 0.21158409 1.4746667 0.09785050899 -0.509424746 0.8549337387
0.33456251 -0.49526033 1.7382729 -0.5335778594 -0.007992864586 0.8457131982
0.097395033 -0.14361641 1.883 0.6334334612 -0.07603337616 0.7700525522
-0.055304516 -0.016441884 1.7050002 -0.3228965998 0.7708519101 0.5491130948
-0.17448866 0.055053782 1.557 0.1180959716 0.5117708445 0.8509664536
-0.02717316 0.37287614 1.7220001 -0.1691333652 0.8021695018 0.5726411939
-0.14427508 -0.076501735 1.7570001 -0.3907021284 0.630112946 0.671051085
0.19018143 0.26689327 1.8230001 0.4396983385 -0.4193832576 0.7942185402
-0.24112628 -0.27866691 1.6470001 -0.07726462185 0.5719806552 0.8166200519
0.20185338 -0.042913709 1.8130001 -0.3361216784 0.7461004257 0.5747663975
0.014941029 -0.05740501 1.794 -0.1340020746 0.7711883783 0.6223438978
0.4109112 -0.2253384 1.6800001 0.0005418384681 -0.1194002777 0.9928460717
0.43599087 -0.4401831 1.5940001 0.3696221113 -0.1194293052 0.9214749932
-0.26835731 0.30049592 1.8330001 0.5204803944 0.7578772902 -0.3933474123
0.1073737 -0.0022525948 1.7130001 0.1008045822 0.7559730411 0.646794498
0.17388 -0.19581367 1.813 0.3976868987 -0.09899979085 0.9121645689
0.18347648 -0.41403651 1.705 0.4243540764 0.08358082175 0.9016306996
0.0065329201 -0.4458718 1.863 0.7859664559 0.1760453135 0.5926759243
0.37251845 -0.16748893 1.6470001 0.3910759389 0.1876671314 0.901022017
0.28444239 -0.26422822 1.6470002 0.4443828166 -0.05566729605 0.8941057324
-0.27408457 -0.051026382 1.6630001 0.007053950801 0.7725344896 0.6349335909
-0.25484347 0.0028474133 1.6240002 0.06024064496 0.6773635149 0.7331778407
0.036639843 0.038076699 1.6390001 -0.1624889374 0.8593952656 0.484806329
0.34602693 -0.41179445 1.705 0.02039593272 0.7537994981 0.6567878723
-0.056394216 0.18229757 1.4959999 0.3593643308 -0.3653975725 0.8586861491
0.34183687 0.023677014 1.6880001 -0.3882654309 0.9064053297 0.1663710773
0.3108581 -0.19372316 1.7129999 0.5919746757 -0.2582980096 0.7634449005
0.22951134 -0.10098498 1.4960001 0.3990291357 0.8274707794 0.395054251
0.14285371 -0.11165577 1.8730001 0.4855876267 0.1830107868 0.8548167348
0.23135759 0.30422613 2.0780001 -0.1764316857 0.9485068321 0.2630715072
0.29437995 0.3260476 1.8430001 -0.647593677 0.5313749909 0.5461346507
-0.090493038 0.1193459 1.4960001 0.3954736292 0.4105376005 0.8216200471
0.27567747 0.36812022 1.8830001 -0.5213201642 -0.8533597589 -0.001533795847
0.22484994 -0.25488454 1.7130001 0.7466823459 -0.4667721093 0.473908484
0.22219993 -0.49496952 1.748 -0.2831116021 0.7554533482 0.5908790231
-0.11455114 -0.14531238 1.8330001 -0.4184922576 0.6264854074 0.6575562954
0.18731298 0.052927289 1.4150001 0.4868328571 -0.2352380604 0.8412234187
-0.056242552 -0.11409203 1.8329999 -0.193713665 0.7581647038 0.6226245165
-0.45922166 0.01029645 2.3490002 -0.2365809679 0.8405140042 0.4874070585
-0.21075505 -0.31538522 1.705 -0.2717994452 0.7537892461 0.5982698798
0.022141093 0.30206776 1.8040001 -0.1877085119 0.8781070709 0.4401062727
-0.094498821 -0.056699295 1.748 -0.06567860395 0.815043807 0.5756647587
0.23343179 -0.45050848 1.6960001 0.05442482233 0.5860657692 0.8084335923
-0.22555231 0.063852899 1.572 0.5295482874 0.3280864656 0.7822645903
-0.0045288601 -0.01056734 1.7220001 -0.1788011491 0.8362669945 0.5183508992
0.095839307 -0.067372188 1.8040001 -0.04507060722 0.8899767995 0.4537729919
0.060105141 -0.36225533 1.853 0.4601576626 -0.3775780797 0.8035482168
0.13561578 0.13372186 1.4835454 -0.5053836703 0.4547171891 0.7333618402
0.031714294 -0.22200005 1.904 0.4372447729 -0.6143173575 0.6568341851
-0.024629951 -0.29391739 1.8730003 0.1439708173 -0.2087396085 0.9673159719
0.1558722 -0.14430231 1.8329999 0.3552182615 -0.6997956634 0.6197628975
-0.012875954 -0.14427671 1.8830001 -0.5179293156 0.5933488011 0.6161869764
