# .PCD v0.7 - Point Cloud Data file format
VERSION 0.7
FIELDS x y z normal_x normal_y normal_z
SIZE 4 4 4 4 4 4
TYPE F F F F F F
COUNT 1 1 1 1 1 1
WIDTH 206
HEIGHT 1
VIEWPOINT 0 0 0 1 0 0 0
POINTS 206
DATA ascii
0.11368963 0.21427487 1.6160001 -0.4627081454 -0.3122758567 0.8296896815
0.44514239 -0.32344881 3.6530001 -0.07539244741 0.9493585229 0.305015415
-0.45779532 -0.32699665 2.9840002 -0.2466717958 0.8419787288 0.4798174798
0.4827216 0.055791944 2.7670002 -0.138916716 0.8676338196 0.4774030745
-0.44104049 0.055377278 2.256 -0.9844294786 -0.1552655995 -0.08240882307
-0.17339766 -0.49387369 1.7659999 0.3935577571 0.3604283929 0.8456971645
-0.45887801 0.33930069 1.705 0.8371653557 -0.2294645607 0.4964878261
0.11198277 0.2161071 2.2410002 0.9728882909 0.2096866369 -0.09756983817
0.087860413 -0.14643401 3.0370002 -0.2285083532 0.8390024304 0.4938206375
0.24210727 -0.23432249 1.7760001 0.06800846756 -0.09712986648 0.9929454327
-0.26417473 -0.070910059 1.5860001 -0.1648834944 0.8303056955 0.5323587656
-0.37692896 -0.42660177 3.3330002 -0.2637557387 0.8535263538 0.4493613541
0.35822791 -0.24359499 3.2690001 -0.07403428108 0.9013288617 0.4267612994
0.070982821 0.45561069 1.8830001 0.9629113078 0.1867348105 -0.1947613358
-0.35219556 0.061759412 1.904 -0.4741199315 -0.6753752232 0.5648704171
-0.072311848 -0.18801081 1.8330001 -0.3003261387 0.473452419 0.8280380368
0.26954082 0.10692528 2.5410001 -0.1965668499 0.8833459616 0.4255131185
0.11301811 -0.48303634 1.766 -0.08964958787 0.3066806793 0.9475811124
0.41445264 -0.10560999 3.0369999 -0.1219169796 0.8705163002 0.4767993391
-0.090069607 0.10051246 1.4890001 0.1498068869 -0.3247167468 0.9338719845
0.094167151 -0.03138905 1.705 -0.09416850656 0.9061409831 0.4123600125
-0.20709614 -0.35568526 3.1780002 -0.2466717958 0.8419787288 0.4798174798
-0.37728226 0.13240471 1.6240001 0.6284665465 0.07655736059 0.7740599513
0.051026382 0.42716372 1.6630001 0.08747082949 -0.2759276032 0.9571900368
-0.38962486 0.26033232 1.9930001 -0.6500226259 -0.7515562177 0.1124003604
0.49658343 -0.28591168 3.4330001 -0.07539244741 0.9493585229 0.305015415
0.076901197 0.3093932 2.0400002 0.9867579937 0.1488676965 -0.06439740211
-0.25163841 -0.29410237 1.794 0.3444333076 -0.1491039544 0.9268946648
-0.030087199 -0.28172559 3.1200001 -0.2565560043 0.8034554124 0.5372508168
-0.096187867 -0.060672347 1.6880001 -0.2429619581 0.8830812573 0.4014186561
-0.03619932 -0.36627483 1.7760001 0.04448841885 -0.5442091227 0.8377691507
0.30310225 0.074572772 2.7440002 -0.1906801909 0.8651404381 0.4638674855
0.075751007 0.058165956 1.5430001 -0.2187680304 0.7281390429 0.6495799422
0.29569528 -0.035997689 2.9330001 -0.1361337304 0.8670145273 0.4793260098
-0.37268415 -0.33955666 3.1490002 -0.2466717958 0.8419787288 0.4798174798
0.092185006 -0.16052906 1.8130001 0.05088218302 -0.1619458497 0.9854869843
-0.23468177 -0.14290105 1.7367144 -0.3066506386 0.8414203525 0.4449462593
0.24616276 -0.39324111 1.766 0.1832436174 -0.4955454767 0.8490326405
-0.27992141 0.0191727 1.4580001 -0.5420700312 0.7609083652 0.3566209972
0.11158214 -0.31813881 1.7760001 0.2900029421 -0.05400199071 0.9555009604
-0.49240613 0.2253384 1.904 -0.4744821787 -0.7529995441 0.4559148848
-0.14533731 -0.006855533 1.5640001 -0.2677449584 0.7933917642 0.546664536
0.24252018 -0.26005176 3.3330002 -0.07791058719 0.9314929247 0.3553180397
-0.46269941 -0.46269941 3.2380002 -0.2466717958 0.8419787288 0.4798174798
-0.0046945494 -0.07667765 1.7850001 -0.3070901334 0.8624364138 0.402366817
-0.016173186 -0.49366722 1.7570001 -0.2581304908 0.1403502375 0.9558610916
-0.01548807 -0.0028187754 1.6063334 -0.2317728102 0.8120350242 0.5356122255
-0.35676652 -0.27423099 3.0370002 -0.2466717958 0.8419787288 0.4798174798
0.16052906 -0.055628885 1.8130001 -0.02128169127 0.8663796186 0.4989323318
-0.40119073 0.13785407 2.016 0.7248960733 -0.507517457 0.4657807946
0.16310208 0.041490879 1.6320001 -0.6822624803 0.5871822238 0.435585767
-0.35502338 0.006233451 1.6159999 0.3081447482 -0.1314626932 0.9422124624
-0.26153859 -0.18681328 1.853 0.7409459352 0.2540208101 0.6216691732
0.47445199 -0.22276101 3.3000002 -0.08443011343 0.9213315845 0.3794992268
-0.15636753 -0.37466276 1.7660002 0.137055397 -0.1257334352 0.9825512171
-0.40769821 0.24229752 1.6550001 -0.6911506653 -0.4668643475 0.5516778231
-0.30941248 -0.42295834 3.2380002 -0.2466717958 0.8419787288 0.4798174798
0.43125075 -0.3071498 3.5390003 -0.07539244741 0.9493585229 0.305015415
0.01730014 -0.25321114 1.794 0.2437592596 0.03149880096 0.9693241119
0.081900828 0.32041904 1.6390001 -0.06996865571 -0.2154124975 0.9740132689
0.46677238 -0.046677239 2.9580002 -0.1168880984 0.8569651842 0.5019440055
-0.14391711 -0.27043763 1.8040001 -0.08723628521 -0.2980101109 0.9505681396
0.38823795 -0.26785409 3.4330001 -0.07172973454 0.9495714307 0.3052358925
-0.13389856 -0.11365808 1.7760001 -0.2943168879 0.8748770952 0.3846656382
-0.19408348 0.071291409 1.506 0.2301916331 -0.5598225594 0.7959965467
-0.19487219 -0.086015902 1.6630001 -0.3596390188 0.8628977537 0.3550594449
-0.49678624 0.17763166 1.9930001 -0.3956885636 -0.9183441997 0.008628188632
0.1939064 -0.15099268 1.8130001 -0.2174387574 -0.7159564495 0.6634204984
0.0058359695 0.12373887 1.5038573 -0.0616055876 -0.1828049272 0.9812171459
0.054186769 -0.40407848 1.7659999 0.1698259562 -0.06086124107 0.9835929275
0.13533162 0.12281808 1.5860001 0.2408355623 -0.3341087699 0.9112461805
0.15484799 -0.39528713 1.7390002 0.2969511747 -0.03111326508 0.9543856382
0.14212415 -0.22510731 1.766 0.2240862548 -0.09350961447 0.9700728059
-0.29498109 -0.1142019 1.6630001 -0.1322305351 0.8963568807 0.4231542051
-0.0052038934 -0.040887736 1.6960001 -0.2163953781 0.9013096094 0.3752520084
-0.094398595 -0.44426751 1.7570001 -0.03618041053 -0.1883923411 0.9814271927
0.42395601 -0.1449656 3.1200001 -0.1205864102 0.8715181947 0.4753051698
0.076405592 0.0090168091 1.6240001 -0.09467996657 0.8863460422 0.453239888
0.20629677 -0.31467026 1.7659999 -0.1660186201 -0.2024392337 0.9651197791
-0.064929433 0.032013819 1.5430001 -0.1929117441 0.8214581013 0.5366485119
-0.31105536 -0.017505281 1.536 0.5315777659 0.4996851385 0.6839150786
-0.40700737 0.075674742 2.3330002 -0.9844294786 -0.1552655995 -0.08240882307
-0.22424044 -0.0059252651 1.525143 -0.2054970115 0.7476765513 0.631467104
0.0062123523 -0.16595854 3.0369999 -0.2445797175 0.8211607337 0.5156314373
-0.064482346 -0.28466594 1.794 -0.008336683735 -0.234136939 0.9721679091
0.086066753 -0.067288548 1.7850002 0.0608966127 0.907335043 0.4159743786
0.0063926531 -0.17499888 1.8230001 0.3358868062 -0.5931468606 0.7316808701
-0.36185643 0.13142899 1.9470001 0.3796921968 -0.4425197244 0.8124100566
-0.1891382 -0.15417148 1.8130001 -0.4290855229 0.7995408177 0.4202619493
-0.22690324 -0.39903674 1.7850001 0.6075512767 -0.06321392953 0.7917609811
-0.36274379 0.066496395 2.2710001 -0.9844294786 -0.1552655995 -0.08240882307
-0.066754662 -0.11284716 1.8130001 -0.2480517626 0.8451125026 0.4735558927
0.0344267 -0.33331305 1.785 0.4616385698 -0.2358118743 0.85515064
0.16159947 -0.025916897 1.7390001 -0.5004619956 0.7885376811 0.3574159145
-0.21811906 -0.24720159 1.8430001 0.3520308733 -0.4201443195 0.8363928199
-0.093501762 -0.018417014 1.6160001 -0.2103317678 0.8228021264 0.5279746056
-0.33500615 -0.065069027 1.6018889 0.4923245907 0.4769166112 0.7281256914
0.0053570913 0.056269508 1.5282501 -0.1540777087 0.7735432982 0.614728272
-0.19563693 -0.051704045 1.5940001 -0.3476416171 0.7776736021 0.5238025188
0.08201918 0.12038299 1.5090001 -0.2853629291 0.04847055674 0.9571930766
-0.12699744 0.038363811 1.5090001 -0.2029717863 0.665142715 0.7186011672
-0.065893777 -0.076109864 1.748 -0.2493993044 0.9048322439 0.3450776935
0.15442133 -0.1304594 3.0370002 -0.1990578026 0.8365443349 0.5104601383
0.028116453 0.48537877 1.6880001 0.8406967521 0.07327244431 0.5365259647
0.083980285 -0.25402734 1.7850002 0.4355869293 -0.2119189352 0.8748453259
-0.19228455 -0.31684136 1.7760001 0.08728913218 -0.3875423968 0.9177099466
-0.37966681 -0.36841741 3.2080002 -0.2466717958 0.8419787288 0.4798174798
-0.10470556 -0.33513564 1.7760001 -0.4472584724 -0.2997282445 0.8426878452
-0.26501983 -0.36716291 3.1490002 -0.2466717958 0.8419787288 0.4798174798
-0.014742903 -0.42534378 1.7570001 -0.3571490943 -0.112543948 0.9272423387
-0.14501922 -0.05264895 1.6378335 -0.2506795526 0.8450371623 0.4723049402
-0.17511591 -0.10416377 1.7220001 -0.3458474874 0.8650217652 0.3634926081
0.047219895 -0.4838104 1.766 -0.08765119314 0.2512544692 0.9639441967
-0.35559002 0.072251357 1.6160001 -0.29242149 -0.09170641005 0.9518821239
0.1531712 -0.0014728 1.6800001 -0.3768029809 0.8379746675 0.3947378397
0.42952371 -0.25420791 3.3330002 -0.07791058719 0.9314929247 0.3553180397
0.17184946 -0.45052427 1.766 -0.01458020974 0.4058247507 0.9138346314
-0.13016133 -0.21372169 1.8330001 -0.09163726866 -0.7039060593 0.7043570876
-0.40769821 0.17845865 1.6550001 0.3143888712 -0.07080194354 0.9466502666
0.13530259 0.055243619 1.5780671 -0.5617294312 0.4598954618 0.687718153
-0.25006565 -0.17142867 1.794 -0.2183231264 0.882386446 0.4168082774
-0.1832961 -0.43282524 1.7570001 0.1800438166 0.02858815715 0.9832430482
0.034786135 0.025991732 1.5758183 -0.06571017951 0.8391188979 0.5399644971
0.14479728 -0.14791121 1.7760001 0.02758611552 -0.285795182 0.95789361
-0.43507826 0.29444692 1.6710002 -0.086792171 -0.06760876626 0.9939296842
0.080751516 0.26492167 1.6160001 -0.6131442785 -0.3861751556 0.6891464591
0.044820901 -0.050897948 1.733 -0.07731606066 0.9213752151 0.3809067011
0.15672258 -0.11471447 1.8430001 -0.5979763269 -0.4379388988 0.6712926626
0.26125789 -0.33536917 1.7760003 -0.427877754 -0.1495799571 0.8913733363
-0.03479315 -0.22615542 1.8040003 -0.001137454994 -0.2070590407 0.9783278108
0.045412213 -0.021973649 1.6710001 -0.1151877642 0.899805069 0.4208118021
-0.27377951 0.022593454 1.516 0.1017867327 0.2262353599 0.9687399268
0.047879148 0.36997524 1.6550001 -0.4165290892 -0.352039665 0.8381954432
-0.044977382 -0.031919435 1.6550001 -0.1953963786 0.9068361521 0.37345469
0.055352729 -0.20401436 1.804 0.1933069527 -0.1882494539 0.9629094005
-0.20499535 -0.26132995 1.7850001 0.110026069 -0.5706304312 0.8138028979
-0.033939272 0.084848188 1.4890002 -0.05300850794 0.3099993169 0.9492578506
0.41231561 -0.064829499 2.9580002 -0.1228686646 0.856189549 0.5018393397
-0.086565048 -0.38600001 1.7570002 -0.1498165578 -0.1319289505 0.9798722863
-0.24510285 -0.093171254 1.6350001 -0.2715066075 0.8473584652 0.4563636482
0.10450304 -0.3738887 1.7660002 0.1934271455 -0.1459967196 0.9701911807
0.19560625 -0.20460415 1.785 -0.2354031056 -0.2926881015 0.9267788529
0.15481934 -0.28486758 1.7660003 0.2258901298 -0.004976536147 0.974140048
-0.114931 -0.49496952 1.748 0.02205036767 -0.05108531564 0.9984508157
-0.41094187 0.16111818 2.0650001 0.7596516013 -0.4839681387 0.4344010353
-0.17726725 0.01719757 1.5089999 -0.3409039676 0.6328975558 0.6951439977
-0.014154661 -0.30511156 1.7940001 -0.2930569947 -0.1340292692 0.9466539621
0.20293531 -0.36580893 1.748 -0.1837206185 -0.275015533 0.9437230229
0.15400754 -0.33713093 1.748 0.1238439381 -0.3566507101 0.9259929657
0.01446237 -0.093201935 1.8330001 -0.1338662654 0.9215203524 0.3645271957
-0.1448639 0.091702841 1.5160002 0.3659295142 -0.5969690084 0.7139492631
0.25569037 -0.28495613 1.7570001 0.07363423705 -0.008386828005 0.9972500205
-0.24712883 -0.1228245 1.6880001 -0.2027999163 0.8704040051 0.4486302435
0.11521469 -0.42604795 1.7570002 0.3513824642 0.232713744 0.9068487287
-0.11613341 -0.087917022 1.7332858 -0.3136745393 0.8687868714 0.3831679821
-0.23665792 -0.34564513 1.7760001 0.4020583928 -0.2351039052 0.8849153519
-0.26377586 -0.039228205 1.5430001 -0.1322991997 0.7104278803 0.6912229657
0.12106635 0.096717812 1.5430001 -0.7974766493 0.1418312341 0.5864425302
-0.18733139 -0.13159643 1.766 -0.4650054872 0.7970679402 0.3852954507
0.044240851 0.085121982 1.508077 -0.2142844498 0.5482781529 0.8083769083
0.13175248 0.16433643 1.6160001 -0.1834044456 -0.2013172805 0.9622027874
-0.14528354 -0.074860319 1.6853334 -0.3275747299 0.8525190949 0.4073156118
-0.094459079 -0.23593205 1.8040001 0.1557369828 -0.3098527491 0.9379431009
0.12500653 0.0071842833 1.6390001 -0.2293203175 0.8548825979 0.4653900266
0.11493101 -0.047504812 1.748 -0.115862973 0.912528038 0.3922604918
-0.016179059 0.024405697 1.5640001 -0.2788874805 0.8124439716 0.5120122433
0.45663813 -0.10475816 3.0640001 -0.1205864102 0.8715181947 0.4753051698
0.19461998 -0.25378445 1.7760001 -0.2481099814 -0.03649145365 0.9680443406
0.01095395 -0.38025856 1.7850001 -0.001108043478 -0.2362845093 0.9716832638
-0.065893769 -0.48883986 1.748 -0.07203377038 -0.08363288641 0.9938896894
-0.015753409 -0.062505454 1.739 -0.2656416297 0.8691897988 0.417065531
-0.36405095 0.082661279 1.9470003 -0.3540505469 -0.5557354689 0.7522009611
-0.29495555 -0.093218423 1.6159999 -0.09272266924 0.8488163948 0.520493269
0.10171525 -0.19873595 1.7850001 0.2142544091 -0.4501451552 0.8668704629
-0.1719415 -0.23782563 1.8330001 0.4626508057 -0.7337776423 0.4975184798
-0.094850071 0.0037913639 1.57375 -0.1816671789 0.8178395629 0.5460178256
0.094546743 0.031979047 1.5860001 -0.1218391731 0.7897641659 0.6011886597
0.26706773 0.15036586 2.5600002 -0.1965668499 0.8833459616 0.4255131185
0.20513561 -0.416464 1.7659999 -0.2710114717 0.2201513201 0.9370625019
0.0043316097 -0.01588257 1.647 -0.2238416821 0.9077728391 0.3547440171
0.064158849 -0.29732147 1.785 0.1566174924 -0.5076302886 0.8472204208
-0.30267179 -0.054158717 1.5640001 0.4674464464 0.6050020456 0.644566834
-0.14553104 -0.31297001 1.785 0.1650547832 -0.427194953 0.8889664412
-0.1340064 -0.41434163 1.7570001 0.003610876156 -0.1150004119 0.9933589101
-0.19558071 -0.022424508 1.557 -0.3627834022 0.7532762289 0.5486010313
-0.1446351 -0.13827752 1.8130001 -0.2658534348 0.8580070138 0.4394836426
-0.20177974 -0.3681325 1.7570001 0.06599286199 -0.2562600076 0.9643524885
-0.22411019 0.034276791 1.5037502 0.1327890605 -0.03816530108 0.990409255
0.045863692 -0.077493824 1.8040003 -0.1100367755 0.8786341548 0.464643836
-0.085135721 0.055871725 1.5072858 -0.1490227729 0.7050157189 0.6933578253
0.014791121 -0.45463234 1.7760001 0.02163383923 0.02456424385 0.9994641542
-0.051592711 0.12038299 1.5090001 0.1619450301 -0.6019136906 0.7819678783
-0.055304516 -0.05829395 1.705 -0.2371390611 0.875038445 0.4219866693
0.075861476 -0.44433147 1.7659999 0.06968864053 0.1767526418 0.9817851186
-0.27782005 -0.14266434 1.7130001 -0.2567086816 0.8395057917 0.4788848162
0.088931695 -0.0072894832 1.6630001 -0.1222237796 0.8890893459 0.441113919
-0.15158269 -0.029474409 1.6010001 -0.3170028329 0.7864232659 0.5301392674
-0.044897605 -0.45516884 1.766 0.03503216803 -0.1106784418 0.9932386279
-0.094196081 -0.097310007 1.7760001 -0.2879935503 0.8571839929 0.4269605577
-0.32615471 -0.0164894 1.5940001 0.6823131442 -0.1432167292 0.7168945074
-0.03496673 -0.17960182 1.8130001 -0.05516575649 -0.4649218321 0.8836314082
0.074734069 -0.34408817 1.7760004 0.1534838378 -0.2048896253 0.9666762352
-0.14530195 -0.45541635 1.7570001 0.05465996265 0.102912426 0.9931874275
-0.063264653 -0.33331305 1.785 0.03213968873 -0.1872098595 0.9817939997
-0.045380652 -0.089196451 1.7850002 -0.2023047805 0.8754826188 0.4388655722
0.024650464 0.004816757 1.6159999 -0.2463839948 0.8502188921 0.4652126133
