# .PCD v0.7 - Point Cloud Data file format
VERSION 0.7
FIELDS x y z normal_x normal_y normal_z
SIZE 4 4 4 4 4 4
TYPE F F F F F F
COUNT 1 1 1 1 1 1
WIDTH 206
HEIGHT 1
VIEWPOINT 0 0 0 1 0 0 0
POINTS 206
DATA ascii
0.035883717 0.014619295 1.516 -0.159916833 0.9105145335 0.3813003302
0.49676317 -0.27534872 3.2380002 -0.252807647 0.7853071094 0.565138042
-0.49646482 -0.26599145 2.7010002 -0.2207379043 0.8546301126 0.4699809849
0.47252333 0.15679184 2.45 0.3261096776 0.9350717068 0.1389006674
-0.4729161 0.1155622 2.0280001 -0.356308192 0.8872634172 0.2929302454
-0.13284656 -0.49364573 1.7220001 -0.6094982624 -0.1957484037 -0.7682411671
-0.044859033 -0.30345815 3.0100002 -0.1928243339 0.8042041063 0.5622050762
-0.0048383232 0.48534086 1.6036668 0.5302567482 -0.301481396 0.7924246192
0.29311877 -0.34484556 1.6390001 0.3077828288 0.03606092185 -0.9507730007
-0.39695728 0.10497469 1.5860001 0.7921658754 0.3907505274 -0.4688147306
0.24356429 -0.12178215 2.835 -0.2244023234 0.8054175973 0.5485855937
-0.19580787 -0.15545052 1.705 -0.4107690454 0.7954375148 0.4455871582
-0.496999 0.0020452633 2.3330002 -0.9516082406 -0.0819260329 -0.2961922884
0.20227855 -0.062828943 1.748 -0.8149590492 -0.04400131479 -0.5778456926
-0.21547064 0.17199849 2.1560001 -0.6307486296 0.3440767229 -0.6955338717
0.041833907 -0.28468508 1.7130002 -0.3893057406 0.1891802996 -0.9014720321
-0.20450617 0.035050709 1.4382 0.2176368237 0.2263411134 0.9494229555
0.080696292 0.26060933 1.5090001 0.4148703218 -0.1194100529 0.9020110369
-0.3980698 0.32851857 1.6880001 0.2922508121 0.4906449318 -0.8208879232
0.2902056 -0.23695686 3.0370002 -0.252807647 0.7853071094 0.565138042
0.11295909 -0.49475089 1.6880001 -0.2147645354 -0.5006855726 -0.8385643363
0.26040944 0.11220895 2.4150002 0.4244681001 0.90503335 0.02722955495
-0.25153846 -0.27747026 2.9580002 -0.2135094404 0.8461201191 0.4883589447
-0.0029894332 -0.079219982 1.705 -0.2767349184 0.8760309815 0.3949525058
-0.33357069 -0.093431123 1.5640001 0.4628242552 0.5873665214 0.6639233828
-0.19459166 -0.32705775 1.7570001 -0.4862353206 0.05819733441 -0.8718877435
-0.12541188 -0.053208735 1.5763752 -0.2508746386 0.8453634381 0.4716170132
0.089227132 -0.15296081 2.9080002 -0.1690251231 0.7701346278 0.6150798202
-0.051686805 0.12115387 1.4150001 0.1595969945 -0.3438063562 0.925378859
0.36563838 -0.10632038 2.9580002 -0.252807647 0.7853071094 0.565138042
0.19470856 -0.2039942 1.655 -0.2253565043 0.04543533176 -0.9732163548
0.16497399 -0.0031702458 1.6050001 -0.3256485164 0.8385589123 0.4367744625
-0.069668703 -0.19971694 1.766 -0.2224591076 0.7196290493 -0.6577582955
-0.3471337 0.1606141 1.9700001 -0.4640229642 0.8249248862 0.3227718174
0.12340789 0.12400553 1.477 0.5345574021 -0.1055438519 0.8385158777
-0.014798134 -0.4158276 1.6879998 0.1323679686 0.0823116079 -0.9877770543
-0.21867923 0.24001379 2.0280001 -0.4074887931 0.8143624067 0.4132393599
-0.13511537 -0.21669446 2.9080002 -0.2135094404 0.8461201191 0.4883589447
0.15550831 -0.3654907 1.655 -0.3621317446 -0.02183662169 -0.9318711162
0.4348968 -0.232492 3.1200001 -0.252807647 0.7853071094 0.565138042
0.31409299 0.10915289 2.5410001 -0.2108862996 0.8500734568 0.4825993478
-0.44973615 0.21983907 1.6390001 0.7479178309 0.03513264656 0.66286093
0.01683463 0.36626694 1.557 0.1994504482 -0.3227921128 0.9252160788
0.091605529 -0.16068511 1.7130001 -0.4192917049 0.2778800428 -0.8642783761
-0.08804889 0.01942255 1.4770001 -0.1074999869 0.8238028884 0.5565900803
-0.31137314 -0.0045503383 1.483 0.6189885139 -0.2070613056 0.7576138973
-0.073971376 -0.3155106 1.7220001 -0.1971447468 0.2918864787 -0.9359146357
-0.1881993 -0.21982943 1.8040001 -0.7734005451 0.02775580622 0.6333097219
0.17572081 -0.25293148 3.0370002 -0.2491841316 0.7800291181 0.5739876628
-0.22338359 -0.10705801 1.6026001 -0.3049898744 0.8374965191 0.4534101784
0.26741138 -0.17227465 2.9330001 -0.2487410903 0.7831770182 0.5698786378
-0.015438977 -0.037895668 1.6010002 -0.2415249646 0.8654305935 0.4389710128
0.1016232 -0.0559664 1.6800001 0.005649010185 0.8805818558 0.4738604426
0.24171014 -0.43214846 1.6710001 0.3478684127 -0.6649227142 -0.6609579325
-0.10397968 -0.097499356 1.6800001 -0.3061000109 0.8135647774 0.4943835437
-0.21609974 -0.047047544 1.516 -0.2759111524 0.7798466682 0.5618827343
-0.36485049 0.0059325285 1.5790004 0.4442693889 -0.09658966213 0.8906711936
0.044689164 0.085819408 1.425154 -0.2228293121 0.558075726 0.7993113399
-0.47677955 -0.30562791 2.789 -0.195741117 0.8544614315 0.4812287688
-0.13322492 -0.39581314 1.7130002 -0.4752642214 0.1647364199 -0.8642834425
0.28155464 -0.24834564 1.6470001 -0.1756251305 0.1363301426 -0.9749717712
0.14353487 0.038541771 1.516 -0.2953749299 0.7713834047 0.563667655
0.12488358 -0.26551494 1.6710002 -0.3157986999 0.08097662032 -0.9453644753
0.075459957 -0.01676888 1.5940001 -0.1546050906 0.8886279464 0.431784302
0.075429179 -0.39490208 1.687111 -0.4189108312 0.2353070527 -0.8770087361
0.23566699 -0.13402627 1.705 -0.07209928334 0.7156310081 -0.6947473884
-0.1369327 0.091707222 1.4330001 0.3643607795 -0.1483038962 0.9193732738
0.025276056 -0.49511325 1.6960001 0.01067868993 -0.04342117161 -0.9989997745
0.01524523 -0.19513901 1.7390002 -0.3094637692 0.3921227157 -0.8662978411
-0.28002048 -0.14653921 1.6550001 -0.1522160918 0.8864527941 0.4370717704
-0.13331996 -0.25629613 1.748 -0.3233003914 0.6109163761 -0.7226742506
0.20743598 -0.29695591 1.6470002 -0.1977909356 0.06989374012 -0.9777492881
-0.47443885 0.31774345 1.6550001 0.7936531305 0.5312501788 -0.2964589894
-0.12208226 -0.138428 1.748 -0.4107669294 0.7764412165 0.4779221117
-0.056499414 -0.4958567 1.6960001 -0.1627694517 -0.1503224969 -0.9751457572
-0.014950798 0.045395676 1.4558572 -0.2357708961 0.7970171571 0.5560357571
-0.064929441 -0.017585056 1.5430001 -0.1244090423 0.8716620207 0.4740545154
0.073006459 0.18579489 1.4959999 -0.06008848548 -0.3033345938 0.950987637
0.16474232 -0.44465849 1.6630001 0.1122148484 -0.1922547668 -0.9749081731
-0.11346696 -0.33512336 3.0100002 -0.2135094404 0.8461201191 0.4883589447
0.026387667 -0.28234804 3.0100002 -0.1690251231 0.7701346278 0.6150798202
-0.14587869 -0.014311265 1.5089999 -0.1023605391 0.7747868896 0.6238811016
-0.28971291 -0.070113167 1.5090001 -0.04796088859 0.7729833722 0.6326108575
0.1568602 -0.13762264 1.6880001 -0.3712907732 0.6062461734 -0.7032842636
-0.0039044979 -0.34209409 1.7130001 0.1002945453 0.5268953443 -0.8439918756
0.17017853 -0.031076079 1.6880001 -0.4037283361 0.8534205556 0.3296616971
-0.034902729 -0.25433466 1.7310002 -0.1095095351 0.2647384703 -0.9580820203
0.4745566 -0.24424343 3.1780002 -0.252807647 0.7853071094 0.565138042
0.085693024 0.052393027 1.4721001 -0.3523590565 0.7298292518 0.5858262181
0.22616124 -0.3655363 1.6390002 -0.09040139616 0.0190299172 -0.9957236052
-0.15803143 -0.092540935 1.6240001 -0.2670211494 0.8509564996 0.4522972107
-0.41999346 0.15803143 1.6240001 0.3410506845 -0.2648924589 0.9019514322
0.034821201 -0.050780915 1.6550001 -0.0677145645 0.9234784245 0.3776272833
0.095732532 -0.32521743 1.6879998 -0.3562911153 0.07658051699 -0.9312314987
-0.075456448 -0.061219383 1.6240001 -0.1990966648 0.867387116 0.4560702741
-0.054697573 -0.11394709 1.7330003 -0.1152115911 0.847007513 0.518945694
0.075143479 -0.22597399 1.705 -0.4688982368 0.1280151308 -0.8739259839
-0.081389733 -0.43358532 1.6880001 -0.1946088225 0.1111952811 -0.9745578766
-0.24428141 -0.0128344 1.4640001 -0.2005061507 0.6632134914 0.721072197
0.037254825 0.30611798 1.5360001 -0.05252567306 -0.4870435596 0.8717967868
0.41276503 -0.20503949 3.0640001 -0.252807647 0.7853071094 0.565138042
0.12744717 -0.19629794 1.6710001 -0.5119909644 0.1491767168 -0.8459382653
-0.0013811884 0.42540908 1.5755 0.2462183386 -0.08499616385 0.965480268
-0.075894199 0.057963151 1.427 -0.09281215072 0.7428721786 0.6629682183
0.26068559 -0.1870456 1.6800001 0.4961628914 0.4963594079 -0.7123550177
0.054630361 -0.080428027 1.7310001 -0.1232321635 0.8742153645 0.4696395993
-0.18509941 -0.072668649 1.5640001 -0.3628851771 0.8221609592 0.4385952055
-0.13809341 -0.32171214 1.7310001 -0.2501678765 0.197451964 -0.9478548169
-0.28224984 -0.12096422 1.5860001 -0.2529395521 0.8257457018 0.5041484237
-0.21410216 -0.1832961 1.7570001 -0.4588500261 0.7798790932 0.4257291257
-0.065420367 -0.37468034 1.6959999 0.1471677125 0.1019160822 -0.9838469028
-0.35898709 0.066883527 1.557 0.7798447609 0.1000751555 0.6179216504
-0.14511287 0.031822998 1.452 -0.1322358549 0.7971294522 0.589150548
0.19155167 -0.12259307 1.748 -0.9310500026 -0.005213566124 -0.3648543358
0.095590562 0.013526968 1.5430001 -0.159111172 0.8926878572 0.4216538668
-0.25858599 -0.17189242 1.705 -0.1321102232 0.8907499313 0.4348694682
-0.33644626 -0.038872276 1.529 0.8576301932 0.3251617253 0.398422271
-0.034258381 0.01185867 1.503 -0.1110009402 0.8294183016 0.5474888682
-0.21037808 -0.12912862 1.6550001 -0.3283591568 0.8130309582 0.4807919562
-0.24389656 -0.086342029 1.5523334 -0.2697659433 0.826713264 0.493732214
-0.0033986173 -0.0088431556 1.5517501 -0.263230294 0.8767431378 0.4025310576
-0.17929237 -0.39383021 1.748 -0.547652185 -0.02373309806 -0.8363693953
0.065111786 -0.45430267 1.6879998 -0.1581639051 -0.00156589807 -0.9874116182
-0.18527824 -0.27402493 1.7760001 -0.6017102003 0.6002575159 -0.5269115567
-0.024665017 -0.063548692 1.6550001 -0.2816650271 0.8476932645 0.449534148
0.0041524777 0.12498957 1.4210001 -0.1546051949 -0.2291262746 0.9610402584
0.1144576 -0.02718368 1.6320001 -0.141495198 0.8723799586 0.4679020941
-0.162008 -0.1192968 1.6800001 -0.2811270356 0.8230153918 0.4935719967
0.18238129 -0.25416186 1.6710002 -0.2125250846 0.03486015275 -0.9765335917
0.043349411 -0.15946391 1.766 -0.4857928157 0.7154686451 -0.5021055341
0.11572789 -0.42482385 1.6710001 -0.2770588696 0.009691414423 -0.9608040452
0.14433177 -0.31490567 1.6630001 -0.2200217694 0.1244313344 -0.9675263762
-0.15549086 -0.44231865 1.7220001 -0.6661401987 -0.2426735312 -0.7052423954
-0.024809666 0.076909967 1.4150001 -0.1467467397 0.5514338613 0.821210146
0.044604797 -0.34643057 1.6960001 -0.1602458209 0.2429589033 -0.9567090869
-0.18484531 -0.00553081 1.4763638 -0.3570465147 0.7608957291 0.5418075919
0.19492245 -0.40572742 1.6470002 -0.2376976311 -0.2484878004 -0.939017415
-0.08498057 -0.26556423 1.7310003 -0.1088747308 0.2452085167 -0.963337481
0.20552398 -0.097749211 2.8590002 -0.2328245044 0.8005622625 0.5521709919
0.14670841 0.020566599 1.5640001 -0.2185932994 0.844476223 0.4889548421
0.035936318 0.047487281 1.4640001 -0.06025722623 0.8106994033 0.5823534131
-0.44759968 0.27577916 1.6470002 0.5983620286 0.4384762943 -0.6705977917
0.25719735 -0.29742932 1.6390001 0.05481837317 0.1061528847 -0.9928376079
-0.16703305 -0.16090339 1.748 -0.3205369115 0.8627698421 0.3910042644
0.22514749 -0.24536163 1.6469998 -0.1223933622 0.06685670465 -0.990227282
0.20684528 -0.15615939 1.6710002 -0.1439503133 0.336705476 -0.9305416346
-0.0030350201 -0.29591444 1.7310001 0.1601151377 0.2447398156 -0.9562769532
0.088674836 0.095008753 1.4450001 -0.7728062868 0.0530625619 0.6324198246
-0.014798132 -0.46466142 1.6879998 0.1297606379 -0.0001405779767 -0.9915453196
0.012443582 -0.2431051 1.7310002 -0.17320171 0.09751460701 -0.9800469875
0.26639387 -0.39266133 1.6366668 0.08134166151 -0.3682251573 -0.9261715412
0.14307213 0.076089777 1.4855715 0.005065604579 0.6254178882 0.7802735567
0.023616523 -0.39251262 1.7050002 -0.03566422313 0.1353696734 -0.9901530743
-0.25161386 0.032671612 1.452 0.2849082053 0.2033161223 0.9367442727
0.085740335 -0.27605414 1.6960001 -0.4004498124 0.02554688044 -0.9159625173
0.3017846 -0.3047004 1.6630001 0.3089073896 0.01980591007 -0.9508858919
-0.38708165 0.057293672 1.5940001 0.7999674678 0.1244022474 0.5870060921
-0.4145748 0.22349127 1.6074002 0.8110495806 0.07523113489 0.580119729
-0.054666594 -0.084220774 1.6853334 -0.2031546682 0.8617117405 0.4649527371
0.20874047 -0.096110716 1.7130001 -0.7349603176 -0.04409354553 -0.6766750216
-0.1051211 -0.35590997 1.7129999 -0.2757568657 0.4777455032 -0.8340967298
-0.18229377 0.072668359 1.4210001 0.06414876878 0.007179314736 0.9979144931
-0.36011186 -0.062567696 1.5860001 0.9520109892 0.2120249122 0.2207272649
0.026417471 -0.017148184 1.5860001 -0.1260582954 0.8936135769 0.4307714403
-0.065348484 -0.037540618 1.5860001 -0.2211354375 0.8692408204 0.4421759248
-0.11638539 -0.081900828 1.6390001 -0.3018763363 0.8655437827 0.3996305764
-0.034662746 -0.20607167 1.7380002 -0.2708366513 0.5108315945 -0.8159035444
-0.095257893 0.10473081 1.4222002 0.2366831303 -0.2380596101 0.9419706464
-0.1997073 0.13998175 2.1290002 -0.6307486296 0.3440767229 -0.6955338717
-0.013933741 -0.17494585 1.7660002 -0.1957150996 0.7875377536 -0.5843628049
-0.17101312 -0.03905024 1.536 -0.4075168669 0.756213665 0.5119285583
0.10547351 -0.36476254 1.6710001 -0.419280529 0.2037905455 -0.8846882582
-0.095322102 -0.47495854 1.6960001 -0.1400285363 -0.1260598302 -0.9820900559
0.17182054 -0.0144387 1.6470001 -0.3709803224 0.8572317362 0.3571097553
0.18515289 -0.33094254 1.6630001 -0.2793284655 0.464373827 -0.8404359221
-0.11497921 -0.027053932 1.5430001 -0.2533075213 0.8256943822 0.5040476918
0.2039828 -0.45288602 1.6800001 0.151767537 -0.6406171322 -0.752712667
-0.10258421 -0.22704072 1.7570002 -0.3551050723 0.3189330101 -0.8787389398
-0.25413164 -0.12884545 1.6240001 -0.2520608306 0.846707046 0.4685643017
-0.2544297 -0.047213756 1.4960002 -0.1805040389 0.7518485188 0.6341466904
-0.16540857 -0.35509738 1.7310003 -0.381424278 0.1599684656 -0.9104534984
0.023465613 -0.43569931 1.688 0.06603428721 0.1083432287 -0.9919179678
-0.095709912 -0.11684458 1.7220001 -0.345200479 0.8504264355 0.3970031738
0.11477876 -0.0041514062 1.5774446 -0.1660267264 0.8714318275 0.4615643919
-0.20185338 -0.25907165 1.8130001 -0.8234170675 0.01621763594 -0.567204833
0.05368882 -0.0022749498 1.557 -0.1468745619 0.8688194156 0.4728431404
0.07451842 0.027036399 1.5044999 -0.15461272 0.8354142308 0.5274258256
0.0039160699 0.027412489 1.489 -0.09427009523 0.812964201 0.5746323466
0.10185931 0.1547562 1.4960002 0.3269830644 -0.1828002781 0.9271818399
-0.28515318 -0.093439221 1.5546668 -0.1202556416 0.8246703148 0.5526821017
-0.1229818 -0.44371155 1.6960001 -0.236777097 -0.03272980824 -0.9710125327
0.063229583 -0.18513624 1.7310001 -0.4694461524 0.1341014653 -0.872718215
0.092602298 0.22092263 1.5090001 0.3283905983 -0.1990715861 0.9233255982
0.16553482 -0.17432427 1.6710002 -0.1228390485 0.2244724482 -0.9667071104
-0.1058312 -0.0039686705 1.5089999 -0.2571437359 0.7733573318 0.5794786811
0.015027444 -0.094302654 1.7390002 -0.1697522104 0.8345826268 0.5240763426
0.06428159 0.12197927 1.4218572 -0.3313880563 0.1092135608 0.9371522665
0.074416429 -0.036175258 1.6358889 -0.1633099467 0.8967049122 0.4114002883
-0.013688273 -0.37476274 1.688 -0.006756093819 0.1039151847 -0.9945632219
0.15453704 -0.40529525 1.6630001 -0.1852149069 -0.05902577937 -0.9809237719
-0.054961741 0.039623581 1.4580001 -0.04387797788 0.8204987645 0.5699617863
-0.034539789 -0.31536332 1.7130002 -0.2115569562 0.2985681891 -0.930645287
0.065014884 -0.063663214 1.6960002 -0.09504709393 0.8990494013 0.4274064004
-0.14416608 -0.13365397 1.7130001 -0.3749541342 0.8413354754 0.3893122673
0.065420367 -0.49511325 1.6960001 -0.02192933299 -0.3199954033 -0.9471652508
0.23504311 -0.20457457 1.6550001 -0.09879855812 0.2549901903 -0.9618829489
