# .PCD v0.7 - Point Cloud Data file format
VERSION 0.7
FIELDS x y z normal_x normal_y normal_z
SIZE 4 4 4 4 4 4
TYPE F F F F F F
COUNT 1 1 1 1 1 1
WIDTH 206
HEIGHT 1
VIEWPOINT 0 0 0 1 0 0 0
POINTS 206
DATA ascii
-0.15400752 -0.04334766 1.2060002 0.1513647884 0.626973331 0.7641944289
0.23169512 -0.44877881 2.381 -0.04966919124 0.7673636079 0.639285624
0.49275827 0.12406149 1.705 -0.2448055148 0.6986178756 0.672311902
-0.48140308 -0.48140308 2.3170002 -0.06061645225 0.7676346898 0.638014555
0.47743967 -0.24872085 0.99200004 0.6384006143 0.06140817329 0.7672507763
0.052228294 0.48192471 1.3540001 0.9621818066 0.2272937 -0.1501457691
-0.49667343 0.13841718 1.6390001 -0.266325742 0.9449114203 -0.1902972162
0.17734617 -0.36445254 1.3357779 0.7227814198 -0.119909808 0.6805943251
0.30128002 0.15512869 1.1374286 -0.5036278367 0.7361047864 -0.4522263706
0.47511828 -0.18182068 2.0400002 0.05069028959 0.7503774762 0.6590631008
-0.2201836 -0.28336674 2.184 -0.03894400224 0.756762445 0.652528882
0.36063612 0.38771459 1.404 -0.6104080677 0.6718412042 -0.4195609987
0.0045154286 0.15409525 1.0019641 0.2549654841 0.579402864 0.7741349339
-0.21494931 0.11744206 1.4829999 -0.6657691002 0.2499983311 -0.7030308247
0.14516374 -0.065798342 1.2751428 -0.04367597774 0.744849503 0.6658015251
0.36362711 -0.43311572 1.1553999 0.7057299614 -0.02717232145 0.7079596519
0.01393637 -0.35637289 2.2710001 -0.2225642502 0.9215086699 0.3182560503
0.36528671 -0.094703674 1.1548181 0.934807241 0.09591107816 0.3419598639
0.054521654 0.3633768 1.136 0.6973141432 -0.2620490789 0.6671456099
-0.043284014 -0.20364773 1.3490001 -0.09102733433 0.7232089043 0.6846041679
-0.23765995 0.15096638 1.705 -0.9379681945 -0.3385742903 -0.0747204721
0.47453704 -0.031197937 1.8730001 -0.8213831782 0.3572328389 0.4446508586
0.37614027 0.24725623 1.5640001 -0.2495731264 0.7147717476 0.6533104777
0.12516573 0.061102964 1.1242001 -0.009047006257 0.8007829785 0.5988862514
0.28203067 -0.20161229 1.2920001 0.7313773036 -0.1667385846 0.6612756252
0.13308676 -0.19736396 1.4100002 0.4026579857 0.2341332734 0.8849000931
0.31677142 0.27250955 1.275 -0.4621404111 0.7438111901 -0.4828779697
0.079305895 0.36792734 1.483 0.2598254085 0.9506927729 0.1693341732
0.38411078 -0.26445562 1.1470001 0.894656837 0.01915310323 0.4463433027
0.39640498 -0.2874406 2.1430001 -0.1745499074 0.819671154 0.5455927849
-0.045177978 0.043583676 1.114037 -0.002350958763 0.7033578753 0.7108320594
0.24217917 -0.48107082 1.25 0.7726666331 0.008646074682 0.634753108
0.25623652 0.011504496 1.1930001 0.07752982527 0.7660713792 0.6380625367
-0.0051734298 -0.056642741 1.2425001 -0.1997180134 0.7142630816 0.6707763672
0.15265556 0.14275897 1.0012728 0.1834356487 0.5279570222 0.8292241693
0.29048088 -0.34270215 1.2410001 0.6821593642 -0.2172958553 0.6981698275
0.43588686 -0.11697748 1.028 0.6703605652 -0.1219120175 0.7319523096
0.017098505 0.49051341 1.2190001 0.6005169749 -0.2891670465 0.7454943061
0.090138867 0.24997273 1.0600001 0.5799049139 -0.3616872132 0.7299950123
-0.25770843 0.21085235 1.572 -0.8256959319 0.1764339954 -0.5358145833
0.37129462 0.041366395 1.1370001 0.6238386035 0.07044364512 0.7783721089
0.44181371 -0.34801036 1.0700001 0.8643462658 0.1216183379 0.4879697561
-0.13401428 -0.13288307 1.2936666 -0.1840873808 0.6823033094 0.7075125575
0.054718025 -0.13272032 1.3280001 -0.1104407758 0.7214276195 0.6836264133
-0.19560888 0.022561893 1.414 -0.4829095006 0.3944085836 -0.7818185687
0.25371507 0.096332654 1.0465385 -0.2674055099 0.6057981253 0.749334991
0.45700985 0.19647151 1.6240001 -0.2426419705 0.7081773877 0.663030684
0.08605653 -0.0094837798 1.202 -0.1572018564 0.7745653391 0.6126468182
0.19635685 -0.25782099 1.3380001 0.5829337239 -0.3265155852 0.7440267801
0.347482 -0.18483275 1.2047693 0.7726314664 0.07694292814 0.6301749349
0.39789939 -0.035506859 1.0764999 0.7446228862 -0.1198704988 0.6566336751
0.045047954 0.091031753 1.0705001 -0.05199006572 0.8330853581 0.5506957769
0.41868937 -0.21542259 1.0662729 0.9096153975 0.1781641096 0.3753097057
0.24119788 -0.057990912 1.2640001 0.0222298 0.7176420093 0.6960573196
0.46338144 0.033211641 1.8040001 -0.159037292 0.7221382856 0.6732186675
-0.13319619 0.024960307 1.1466669 0.2072001547 0.6115493178 0.7635938525
0.3209433 -0.099002846 1.2410001 0.8448579907 0.02815064229 0.5342494249
0.16257504 -0.13113916 1.3380001 0.06781134754 0.6976644993 0.7132081389
0.32140702 0.21250926 1.2060001 -0.4281285405 0.7070884705 -0.5627893209
-0.034838241 -0.12607712 1.3029376 -0.08998630196 0.7154293656 0.6928660274
0.22419657 0.063654229 1.125077 -0.02661222778 0.818518877 0.5738629103
0.35770336 -0.34635317 1.177 0.7753885984 -0.1111810654 0.6216199398
-0.067753181 -0.021889489 1.189 -0.07145263255 0.7615439296 0.6441625357
0.3308391 0.32848436 1.3430001 -0.5975540876 0.6331505775 -0.4919852316
-0.052317079 0.10689244 1.0536364 0.2618969083 0.6495879889 0.7137544751
0.2310113 -0.3984108 1.273 0.6462660432 -0.1516667604 0.7478886247
0.33129847 -0.269113 1.223 0.7315903306 -0.1652380228 0.6614166498
0.035009686 0.032008853 1.1409999 -0.09595448524 0.7256042957 0.681389153
0.17474203 -0.013997925 1.2143571 -0.0005973258521 0.7555226088 0.6551222801
0.29374471 -0.42490062 1.2122084 0.6329681277 -0.1941522956 0.7494372725
0.37443486 0.17796333 1.6240001 -0.2426419705 0.7081773877 0.663030684
-0.086224549 -0.081858747 1.245 -0.1243020147 0.7076537013 0.6955395341
0.041341849 -0.19090205 1.3870001 -0.1716762483 0.6066929102 0.7761771679
0.072204016 -0.31613651 2.2260001 -0.1862379014 0.8920043111 0.411878258
-0.20198137 -0.082779251 1.2590001 0.2503921986 0.6472991705 0.7199357748
0.38336566 -0.18519689 1.1326206 0.9213092327 0.1164659932 0.370978415
0.25229853 -0.29307407 1.2919999 0.4918432534 -0.2727262676 0.826867938
0.17591822 0.098863699 1.0648184 -0.02285042033 0.842977047 0.537463963
0.019804776 0.41173089 1.189 0.6029651761 -0.40556705 0.6869849563
0.30116394 0.074555233 1.1190001 -0.4171197414 0.583712697 0.6966280341
0.064765029 -0.076968223 1.2757272 -0.06072758511 0.7225387096 0.6886581182
0.074804984 0.13212289 1.0122943 -0.05877581984 0.7551335692 0.6529307961
0.42092973 0.30575678 1.5640001 -0.4886307716 0.6271620393 0.6065540314
0.39199936 -0.12567002 1.0915 0.9167093635 0.1097495928 0.3841860592
0.057781018 0.29550546 1.1059 0.7396329045 -0.2653208971 0.6185046434
0.46166262 -0.17877395 0.99799997 0.5838157535 -0.1396674514 0.7997825742
0.39852718 -0.37571913 1.1190001 0.7827828526 -0.07370619476 0.6179145575
0.43892696 -0.28449959 1.0375557 0.904936254 0.180988878 0.385140717
0.0062751798 -0.0094127702 1.1930001 -0.1129252836 0.822586894 0.5573138595
0.15601687 -0.26355931 1.3940001 0.5732777715 -0.3460681736 0.7426906824
0.17522754 0.03353364 1.1646924 -0.01495224424 0.756685257 0.6536083221
0.10669865 0.19241692 1.0185 0.6030877829 -0.2066173702 0.7704507709
-0.23765907 0.16956574 1.5230001 -0.7970137 0.2759130299 -0.5372533202
0.10410855 -0.15915444 1.365 -0.04804369435 0.654298842 0.7547084689
-0.084696524 -0.16824724 1.3145001 -0.5311570764 0.3217908442 0.7837874889
0.20323014 -0.09582267 1.3034286 -0.02495912276 0.6985474229 0.7151283622
0.29356322 -0.13834588 1.2830001 0.7938228846 -0.06186353788 0.604994297
0.40784377 -0.30488634 1.1053749 0.8400328159 0.03565299883 0.5413628817
0.11470639 0.1062331 1.0537915 -0.01563338935 0.838767767 0.5442647934
0.22935003 -0.20606576 1.3280001 0.5975861549 -0.1662495136 0.7843798995
0.44631979 -0.22164178 2.0780001 0.04127613083 0.7514138222 0.6585389376
-0.092222996 0.076902367 1.0920001 0.250148803 0.6010512114 0.7590540648
-0.0047169048 -0.15688431 1.3455001 -0.1709313542 0.6950517893 0.6983448267
0.040444139 0.44243437 1.3980001 0.971006155 0.170821473 -0.167233482
-0.21410513 0.065428093 1.452 -0.4911147058 0.3608113825 -0.7928565145
0.15845487 -0.31333557 1.3590001 0.7985796332 -0.07772129029 0.5968500376
0.31539753 -0.21486998 1.244167 0.8216341138 -0.08814173192 0.5631593466
0.30025396 0.033587731 1.161 0.10645625 0.7271573544 0.6781660914
0.21643095 -0.34615162 1.295125 0.6901950836 -0.1306383014 0.7117333412
0.11218243 -0.10302477 1.30575 -0.1108485013 0.7123738527 0.6929906607
0.26929358 0.12258167 1.1010001 -0.6364856958 0.4721135199 -0.6099137068
-0.14334376 -0.091317981 1.245 -0.08016882837 0.6854168773 0.7237241268
0.36852756 -0.042738665 1.125 0.9045422077 -0.006633180194 0.4263324738
0.28863198 -0.48105329 1.2060001 0.6220135689 0.03716648743 0.7821238637
0.014678908 -0.10049405 1.2880001 -0.1873550117 0.6741005182 0.7144834399
0.29254016 -0.2648375 1.2640001 0.68194592 -0.1779153198 0.709433496
0.10430316 -0.043250348 1.2436666 -0.144805342 0.7563067079 0.6379902363
0.11525851 0.027140927 1.1671176 -0.1211595684 0.7431969643 0.6580111384
-0.0038222666 0.0716675 1.09 -0.152421236 0.7456896901 0.648625195
-0.035248615 0.0070848214 1.1548181 -0.1304184049 0.793866396 0.5939421058
0.33537763 -0.39563513 1.1876247 0.5687634349 -0.1739423126 0.8038981557
0.20248544 0.1209537 1.0220001 -0.1038260013 0.6306251884 0.7691111565
0.045362238 -0.038881917 1.2320002 -0.04992233589 0.7745036483 0.6305964589
0.0045630499 0.11133842 1.0410001 0.06191756204 0.7533707619 0.65467453
0.34695226 -0.12473593 1.1956668 0.87275666 0.01656421088 0.4878744483
0.41946658 -0.16521659 1.0470001 0.8585386276 0.06277228147 0.5088919401
0.3584497 -0.23444994 1.1886001 0.8149216771 -0.002814213745 0.5795642138
0.22516896 -0.023024272 1.2255715 -0.0275091771 0.6997584701 0.7138496637
-0.085149214 -0.11616527 1.2845385 -0.05996134877 0.7337400913 0.6767792106
0.074273147 0.068019196 1.1066667 -0.08928182721 0.8112174273 0.5778884292
0.41021425 -0.25288501 1.1010001 0.8775740266 0.0864399001 0.4715845287
0.41189685 -0.085418306 1.0610001 0.7559002638 -0.06242204085 0.6517041326
0.35591096 -0.29537204 1.1841999 0.7497968674 -0.1097395271 0.6525043249
0.31888321 -0.15580522 1.2354287 0.8665261865 -0.03752534091 0.4977190495
-0.08302296 0.021005809 1.141 0.1034776792 0.6992745399 0.7073242068
0.49743381 -0.15292135 2.0050001 0.05069028959 0.7503774762 0.6590631008
0.3244122 -0.45544714 1.1812667 0.4488644898 -0.1058300957 0.8873109221
0.17485243 0.066869885 1.1163334 0.03144934773 0.8161871433 0.5769310594
0.18514737 -0.044770177 1.2537274 0.08188135922 0.7154830098 0.6938151717
0.20951106 -0.45599467 1.2780001 0.6943035126 -0.09066647291 0.7139483094
0.39046603 0.0019536517 1.1135001 0.8002923131 -0.139843449 0.5830746293
0.19743147 -0.30596104 1.3170002 0.6730313897 -0.2859469056 0.682101965
0.43959135 -0.22468002 1.013 0.8403189182 0.009429947473 0.5420103669
0.25446919 -0.24532782 1.3039047 0.607002914 -0.2025111765 0.76846385
-0.10513162 -0.045665558 1.2113332 -0.04735225439 0.6953486204 0.7171109319
-0.12439363 -0.012267391 1.177 0.05774776265 0.6666277647 0.7431504726
-0.044601295 -0.093969159 1.2674284 -0.1286404729 0.6796332598 0.72218436
0.4933275 0.0080346502 1.8330001 -0.8081306815 0.3542999029 0.4705277681
0.38487282 -0.31450063 1.1468184 0.8504009843 -0.01935964637 0.5257787704
0.22521336 0.092965707 1.086647 -0.1058597937 0.7628561258 0.63784343
0.0047483006 -0.204212 1.3543125 -0.419067204 -0.1817421019 0.8895799518
0.22507481 0.034204993 1.1639476 -0.02555419505 0.8001699448 0.5992287397
0.37059152 -0.14479466 1.155 0.8999915123 0.1133741513 0.4209057391
0.32329157 -0.32503054 1.2109089 0.7338702083 -0.1213012114 0.6683715582
0.19730732 -0.39805207 1.307 0.7584607601 -0.01962314546 0.6514232159
0.25505197 -0.43542305 1.2441581 0.6775311232 -0.1615485996 0.717533052
0.34635109 -0.07723017 1.1945 0.8833786845 0.0836879611 0.4611274004
0.40109915 -0.17558537 1.09 0.8914142251 0.1325863451 0.433360815
0.29868209 0.17837888 1.1830001 -0.6887341142 0.6344769001 -0.3508338332
0.26605028 -0.38606954 1.2445791 0.607585609 -0.2431414723 0.7561229467
0.13171917 0.0010537533 1.202 -0.05394043028 0.7726503015 0.6325361133
0.37979653 -0.08450716 1.108 0.9231263995 0.06973511726 0.3781198561
-0.045674156 -0.047818486 1.223 -0.1100614071 0.7334941626 0.670725584
0.3518151 0.36258495 1.365 -0.5164582133 0.7099232078 -0.4788318574
0.054098353 0.0075225416 1.1745386 -0.1124292612 0.7712830305 0.6264839172
0.37261665 -0.38476723 1.155 0.7791317105 -0.05508970842 0.6244348884
-0.2188274 0.16185458 1.4770001 -0.8778128624 0.1013853401 -0.4681512117
0.33500579 0.065388151 1.1475602 -0.147696048 0.3856498897 0.9107469916
0.16258046 -0.21839257 1.3840001 0.786598742 0.09853266925 0.6095520854
0.32243568 0.29636475 1.3120002 -0.7031152844 0.5738586187 -0.4198990166
0.078021578 0.041011345 1.141 -0.1482465565 0.75478971 0.6389956474
-0.19239126 -0.054551832 1.2270001 0.2537700832 0.5673780441 0.7833791375
0.2529915 -0.33424094 1.2743635 0.5434824228 -0.2442657948 0.8030946851
0.30654854 -0.37490034 1.2163811 0.6402961016 -0.1505870521 0.7532227039
0.09947449 0.15605631 1.041 0.7239287496 -0.007270089351 0.6898364425
0.26513767 0.054328375 1.134762 0.03209566325 0.8148207068 0.5788239241
-0.10904827 0.053536568 1.1240001 0.3212469816 0.5401861072 0.7778170109
0.0095469002 0.44764352 1.21 0.476444751 -0.3197627664 0.8189946413
-0.17341168 -0.11338455 1.268 0.05045434833 0.6300117373 0.7749448419
0.15757558 -0.097765863 1.312 0.02063447796 0.6810304523 0.7319642901
-0.032188743 0.13180859 1.0256001 0.1599328667 0.6623516083 0.7319234014
0.21410643 0.0044493023 1.1950002 -0.08055401593 0.747076571 0.6598391533
0.061952278 -0.16083765 1.3590001 -0.1238545179 0.731282711 0.6707351208
0.08274623 0.20886816 1.0526667 0.6687644124 -0.2866177559 0.6860061288
0.044618353 0.15539724 0.9890002 0.07924195379 0.6637108326 0.7437799573
0.38991502 -0.226052 1.126 0.9062939882 0.05437812582 0.4191350341
0.31733051 0.24340884 1.2340002 -0.4461621046 0.6559365392 -0.6088404059
0.14463602 0.083329916 1.0926 -0.006247101817 0.8378117085 0.5459235311
0.091766283 0.15638801 0.98287505 -0.4235156178 0.4878233075 0.7633236051
-0.044733234 0.073322423 1.08275 0.129372701 0.6933422685 0.7089000344
0.14485192 -0.034636103 1.2423332 -0.0811002329 0.7654892206 0.6383173466
0.30351853 -0.30336362 1.2415715 0.720761776 -0.2468805462 0.6477286816
-0.0059227599 0.03849794 1.126 -0.1968437135 0.7121509314 0.6738646626
0.029719876 0.37713498 1.169 0.6607201695 -0.2881475985 0.6931232214
0.045123782 0.11560144 1.0358462 0.001867835526 0.7775495052 0.6288189292
0.25944951 -0.17642857 1.3153334 0.6315684319 -0.1397360265 0.7626238465
0.43055731 -0.30861297 1.0700001 0.894217968 0.1266088188 0.4293534458
0.015394267 -0.13085125 1.317 -0.1076911017 0.7104305029 0.6954790354
0.095123768 -0.1292468 1.3330001 -0.09938967973 0.726164341 0.6802992225
-0.044573244 -0.16069826 1.3380001 -0.2220603228 0.1174536347 0.9679327607
0.26462272 0.081546076 1.103 -0.03217437118 0.7313532233 0.6812395453
0.10523148 -0.072494678 1.2757272 -0.1186258346 0.7127313018 0.6913334727
0.39174503 -0.41363016 1.1345714 0.6755594015 0.08187494427 0.7327455282
0.42504469 -0.25558698 1.0640415 0.9311112761 0.1316381246 0.3401517868
0.2225565 -0.27403706 1.3129092 0.5852760673 -0.3031947017 0.7520138621
0.2639893 -0.02653027 1.2324446 0.1057684422 0.7079922557 0.6982549429
