# .PCD v0.7 - Point Cloud Data file format
VERSION 0.7
FIELDS x y z normal_x normal_y normal_z
SIZE 4 4 4 4 4 4
TYPE F F F F F F
COUNT 1 1 1 1 1 1
WIDTH 206
HEIGHT 1
VIEWPOINT 0 0 0 1 0 0 0
POINTS 206
DATA ascii
-0.075445712 0.14568314 1.48375 0.3467665613 0.02489993162 0.9376208782
-0.26421329 -0.30606887 2.9840002 -0.02079200745 0.9908330441 0.1334825754
0.49542949 0.045548677 2.398 0.8605084419 0.1343895197 -0.4913905859
0.4767369 -0.49451509 1.6010002 -0.466168642 0.1192726493 0.8766189814
-0.40148526 0.16019855 2.256 -0.257616967 0.8956372142 0.3625844419
-0.066975579 -0.32699844 1.9260001 0.8265494108 0.2974662483 0.4778387845
0.30052572 0.38337335 1.853 0.5370798111 -0.7488754392 0.388240695
0.32999837 -0.056232907 1.6880001 0.8728888035 -0.09030655771 0.4794892073
-0.29565233 0.36225533 1.853 -0.215422824 0.134402588 0.967227459
-0.2958408 -0.082595147 1.7130001 0.2898057401 0.8112863898 0.5077667236
-0.0043947301 0.49513963 1.6710001 -0.1167622209 -0.4115398526 0.903881371
-0.45117387 -0.14561696 2.723 0.8818353415 0.356755048 0.3083703518
0.15700048 -0.49213612 1.7220001 0.3213611245 0.3194549084 0.8914458156
0.20496006 -0.014468946 1.3752501 0.03851306811 0.1642772108 0.9856621027
0.024515985 -0.055812985 1.785 0.009597030468 0.79610461 0.6050829291
-0.16138732 0.2652688 2.1160002 0.2293947488 0.9699057341 0.08161444217
-0.022296615 0.26723623 1.8430001 0.3031181693 0.8192836046 0.4867173731
0.1923845 0.29315734 2.0900002 -0.2332734466 0.9723755717 -0.008322768845
0.30780536 -0.30268002 1.6240002 0.6533013582 0.1744191796 0.7367328405
0.15735027 -0.26542923 1.8130001 -0.08883627504 0.04843127355 0.9948680997
0.13554844 0.064280704 1.5940001 0.2232914865 0.9244747162 0.3090103269
-0.49810535 -0.054857418 2.503 0.8835485578 0.3539348543 0.3067117333
-0.2260748 -0.31149721 1.6800001 -0.3409051895 0.7102242708 0.6159262657
0.35293198 0.16677004 2.2120001 0.8398585916 0.4938551784 -0.2252657413
-0.24749002 0.08203321 1.5860001 0.6216189265 -0.1200538501 0.7740652561
-0.14703409 -0.1631034 1.8330001 -0.05814824253 0.7709831595 0.6341953278
0.023808952 -0.49506199 1.8730001 0.7417025566 0.2362381518 0.6277490258
0.21165626 -0.079169139 1.8430001 0.6148883104 0.2838286757 0.7357674241
0.3560307 -0.45716998 1.748 0.1851061881 -0.113635987 0.9761263132
0.29482982 -0.12432063 1.5054001 -0.2356555313 0.8510712981 0.4691952169
-0.075081237 0.03032127 1.6470001 -0.007818267681 0.8740460873 0.4857800603
0.1140105 0.17101575 1.4450001 -0.3288501501 -0.03165550902 0.9438514113
0.03545766 -0.17391139 1.9260004 0.3301453292 -0.07948021591 0.9405779839
0.16082187 0.26641199 1.853 -0.3761441708 -0.09089253843 0.9220922589
-0.36593294 -0.22808149 2.8590002 0.8798655868 0.3650339842 0.3042807281
0.01143261 0.43607241 1.863 0.982647717 0.07731249928 -0.1686007679
0.46059453 -0.33353397 1.6470001 -0.2781567574 -0.633636415 0.7218959332
0.32517758 0.35330105 2.0050001 -0.3328919113 0.9148797989 0.2284248024
0.27525157 -0.19578508 1.7366002 0.6087608337 0.1511754841 0.7788171768
0.01201384 0.34840137 1.7130001 0.2591727674 0.6654853225 0.6999705434
-0.17515537 0.2619296 1.8330001 0.09773413092 0.971357882 0.2165915072
0.064224601 -0.38495836 1.7760001 0.6924718618 -0.3357043266 0.6385807395
0.16454858 -0.00603848 1.7220001 0.03594878316 0.8322893381 0.5531745553
0.081170566 0.30223083 1.9700001 -0.1658383161 0.9498741627 -0.2650220692
-0.15326852 -0.059182893 1.7310001 -0.3759354055 0.6574962735 0.6529710889
0.39226186 -0.18535452 1.6390001 0.3285482526 0.3894686699 0.8604476452
0.27000368 0.075081237 1.6470001 -0.6960478425 -0.5790799856 0.4244806767
0.19477428 -0.35535157 1.6960001 0.5054501891 -0.3498042226 0.7887693644
-0.42917654 0.089152619 2.365 -0.27570948 0.8720208406 0.4044304192
0.0095977467 0.083637506 1.5640001 -0.2643189728 0.8707514405 0.4146413207
0.044097207 -0.2956146 1.863 0.4133411646 -0.1246319711 0.9020066261
-0.10070533 -0.20823814 1.9470001 0.03878679499 0.8277160525 0.5598050952
0.045998175 0.023145577 1.6710001 -0.1030271798 0.8291463852 0.5494558215
-0.13489395 0.063593894 1.5507779 -0.05039265379 0.740004003 0.6707119942
-0.2255865 -0.023277078 1.6390002 -0.1015586704 0.695554316 0.7112594247
-0.2082136 -0.23616172 1.5940001 0.2508579195 0.5824400187 0.7731972337
0.29157934 -0.41258475 1.6630001 -0.08932550997 0.7214305997 0.686701417
0.12264698 -0.15513624 1.853 0.6431781054 -0.3821684718 0.6635278463
-0.035545327 -0.13087143 1.8430001 -0.2828222513 0.7366492152 0.6142959595
-0.26414844 0.28600898 2.0780001 0.6061469913 0.7951740026 -0.01685547642
0.3749249 -0.49476612 1.6470002 0.7544471622 -0.4004098475 0.5200783014
-0.01462017 -0.39474458 1.853 0.3028009236 0.1850720197 0.9349117279
0.17246136 0.095739007 1.4960001 0.5961965322 0.5454534292 0.5890927315
0.28576264 0.34475881 2.1030002 -0.1698119491 0.9139890075 0.3684941828
0.061411668 -0.49387369 1.7660002 0.8551127911 0.089844428 0.5105977654
0.014175701 0.19588241 1.4700001 0.2942352593 -0.4180058837 0.859474659
-0.22264528 -0.12611376 1.7760001 0.07770544291 0.8358402252 0.5434454679
0.25438061 -0.49803433 1.748 -0.08372186124 0.532274127 0.8424220681
0.47637454 -0.4040311 1.557 0.9059507251 -0.1334316283 0.4018075764
0.43155056 0.087946326 2.3330002 0.8398585916 0.4938551784 -0.2252657413
-0.056459785 -0.032909714 1.7220001 -0.2411161363 0.7471218705 0.6194125414
0.27466053 -0.064732537 1.4254001 -0.130060941 0.6190624237 0.7744971514
0.17689116 0.32286933 1.9590001 -0.2084965408 0.9478775859 -0.2409506738
0.20288345 -0.16513769 1.794 0.4714165926 -0.2213823199 0.8536722064
0.12430642 -0.062943965 1.8040001 -0.125259757 0.8546019197 0.5039499402
0.38634264 -0.39508998 1.6630001 0.7197923064 0.1437201798 0.6791491508
0.23812634 0.31643635 1.8230001 0.05273513123 0.6018536687 0.7968633175
-0.27274939 0.26948294 1.863 0.1900126189 0.2688622475 0.9442501068
-0.031547725 -0.24407978 1.8940001 0.4369496107 -0.6099648476 0.6610733271
-0.042279001 0.40675315 1.6630001 0.1203338802 0.6314644814 0.7660107017
0.37299973 -0.15150991 1.5500001 -0.07660997659 0.8986403942 0.4319448471
0.20883077 -0.26619634 1.7220001 0.7069213986 -0.5265747309 0.4722088575
-0.094643183 0.23743816 1.8940001 -0.05785520375 0.03967383131 0.9975363612
0.14949533 0.032662846 1.4330001 0.5483441949 -0.380148977 0.7448526025
0.075753994 0.1084796 1.5053999 0.1392884254 0.9034519792 0.4054296911
0.38310331 -0.013791719 1.748 -0.1524886638 0.9723188281 -0.1770403981
-0.30458906 0.018417014 1.6160001 0.5255028605 0.1715611815 0.8333147764
0.28588626 -0.21802437 1.6470001 0.3039301932 -0.6327673197 0.7122021914
0.26663992 -0.10726893 1.748 0.3698662817 -0.6350544691 0.6781627536
0.38342685 -0.27627143 1.6630001 0.1375823021 -0.2363323122 0.9618825912
-0.1631617 0.14670841 1.5640001 0.4778518677 -0.7556875944 0.4478769898
-0.09593714 -0.089646183 1.794 -0.1925927997 0.7861683965 0.5872369409
0.32352507 -0.14678906 1.6799999 0.4695453942 -0.1521414071 0.8697011471
0.2173283 0.089976683 1.5790001 -0.7983952165 0.169883877 0.5776716471
0.39754203 -0.10011095 1.6550001 0.5574800372 0.02261936292 0.8298821449
0.13092579 -0.33270553 1.7570001 0.6427012086 -0.5717368126 0.5099530816
0.053607285 -0.10396565 1.853 -0.173893258 0.8252963424 0.5372588634
0.1261611 -0.41471419 1.7220001 0.5425391197 -0.1156818345 0.8320270777
-0.15512793 0.016291974 1.6160001 -0.3088974357 0.8390669227 0.4478270411
0.085373305 -0.024392374 1.7390002 0.0889365077 0.7713822126 0.6301267743
0.21457292 -0.43466151 1.6879998 0.2751886845 0.208607167 0.938485086
0.2695224 -0.0014728 1.6800001 -0.1667869091 0.8153243065 0.5544623137
0.066962428 -0.21395314 1.863 0.7338077426 -0.2230844349 0.6416848898
-0.0233544 0.3145059 1.7760001 0.04844528809 0.7133294344 0.6991524696
0.19612952 -0.073253192 1.427 0.1557116508 0.8130049109 0.561049819
-0.2738398 -0.25667113 1.6320002 0.5791910291 0.3840988576 0.7190311551
0.12537912 0.027700037 1.6630001 -0.142865628 0.8425807953 0.5192754269
0.4178246 -0.4401831 1.5940001 0.5409327745 -0.2159526348 0.8128691316
0.0013053566 0.1174821 1.4890001 -0.157381326 0.6847752929 0.7115573883
0.29882059 -0.019921374 1.748 -0.3478230536 0.6370016336 0.6879302263
0.10230788 -0.33370581 1.8330001 0.7116371393 -0.4004790783 0.5772253275
-0.064393446 0.05831008 1.5762001 -0.1952575296 0.9031208754 0.382422775
-0.21872687 -0.083205886 1.705 -0.181038186 0.7837548852 0.594098866
0.25654256 -0.34596971 1.655 0.6532486081 -0.1759901643 0.7364059091
0.37380463 -0.33373246 1.6160001 -0.5313273072 0.3014182448 0.7917312384
0.19247656 -0.039121252 1.7850001 -0.1877050549 0.8768895268 0.4425286651
-0.084188931 -0.17828244 1.8830003 -0.2317498922 0.7758973241 0.5867498517
-0.0056948266 0.046033185 1.6240002 -0.1795339286 0.7892118692 0.5872923136
0.039734915 -0.44344166 1.8130001 0.9627169371 0.1728927791 0.2080483884
-0.024031814 -0.32407951 1.863 0.4311200678 -0.1674976647 0.8866115212
-0.49727601 -0.17707877 2.7670002 0.8818353415 0.356755048 0.3083703518
-0.29307842 -0.042075615 1.6550001 0.2144952118 0.6522994041 0.7269781828
-0.11542683 -0.014471313 1.6837333 -0.1450961232 0.7940229177 0.5903174877
0.064662494 0.064658113 1.6035 -0.03785393387 0.7980183959 0.6014430523
-0.043778978 0.46949181 1.7220001 0.7818406224 -0.4419808984 0.4397477806
0.015096202 -0.011573753 1.7220001 -0.006258535665 0.8870880604 0.4615578651
-0.18806867 -0.2565898 1.6630001 -0.6054581404 0.6049176455 0.5171992183
0.2542665 -0.27498454 1.6710001 0.6549264789 -0.1583486944 0.7389160991
0.22575919 -0.22575919 1.7760001 0.5622678995 0.1448099762 0.8141774535
-0.19390464 0.094259202 1.5360001 0.4343686998 0.01484174561 0.9006128907
0.34343016 -0.21462713 1.6800002 0.2655525208 -0.2304906696 0.9361388087
0.23868155 -0.10315532 1.4770001 0.1159093082 0.8307291865 0.544475913
-0.15413904 -0.11521503 1.7760001 -0.4664112628 0.6715918183 0.5756952167
-0.075311504 0.088158764 1.5159999 -0.00482047582 0.7843946218 0.6202433705
0.04426663 -0.36509815 1.8529999 0.1394043863 -0.407513231 0.9024962187
0.28781143 0.35701197 1.794 0.1208583117 -0.2929192185 0.9484680295
0.094808869 -0.26514345 1.8329999 0.4867116511 -0.2808775604 0.8271756768
0.14708012 -0.19768833 1.8040001 0.1179350615 -0.1653477252 0.9791585207
-0.21520062 0.025852021 1.594 -0.002878098749 0.7070371509 0.7071705461
0.29475331 -0.45477304 1.7220001 -0.1276420951 0.4541958272 0.8817106485
-0.028539883 -0.18299101 1.9150001 -0.2814048231 0.6302416921 0.7236067653
-0.038924001 -0.066949278 1.7760001 -0.1365725845 0.8016002178 0.5820524096
-0.2033779 0.2253647 2.0900002 0.3159136474 0.9459687471 0.07308727503
0.33628932 0.0063821333 1.6799999 0.5179321766 0.8548747301 0.03058470227
0.42399612 -0.3754237 1.6160001 0.4165271223 -0.4484734833 0.7908076048
-0.12891559 0.1249285 1.516 0.3449126482 -0.1776425987 0.9216715097
0.14457725 -0.095843323 1.853 0.02963028289 0.5531830192 0.8325326443
0.12590335 0.085506558 1.536 0.04180280864 0.852776587 0.5206002593
-0.015381554 0.00585964 1.6710001 -0.150366351 0.8680235744 0.4732072055
0.007946983 0.47205082 1.8130001 0.9885157347 0.07267865539 -0.1324934065
-0.072980747 -0.26646459 1.9360001 0.7673217654 -0.3336776793 0.5476098657
0.3249937 -0.36390609 1.6383637 0.3094930053 0.5102927685 0.8023810387
-0.32018936 0.30705339 1.8730001 0.7459216118 0.2139909416 0.6307209134
0.23633531 0.029897841 1.6240001 -0.2232760042 0.6115991473 0.7590087652
0.33780599 -0.41553122 1.705 -0.1926197261 0.7883527279 0.5842924714
0.07803911 -0.14113456 1.8940001 0.3606438339 0.2169172168 0.9071289301
-0.17432429 -0.018067222 1.6710001 -0.360321641 0.7337641716 0.575984776
0.020662157 0.29721716 1.8130001 -0.3305309713 0.8032704592 0.4954854846
-0.14361641 0.27237594 1.883 -0.004005596973 -0.2218006998 0.9750837684
0.3352654 -0.25037599 1.6320001 -0.3423284888 -0.6490249038 0.6793951988
0.076237559 -0.43597159 1.748 0.677097559 0.0460074693 0.7344536781
0.053904485 0.14502871 1.4640001 0.1946759969 0.5081893802 0.8389546275
0.40944016 -0.49887419 1.5940001 0.5288317204 -0.1720465273 0.8311058879
-0.09373758 -0.13551778 1.8329999 -0.4912169874 0.4649785161 0.736546576
0.0082538165 -0.12710878 1.8830001 -0.2585734129 0.8102343678 0.5259848833
-0.39473581 0.12476106 2.3330002 -0.2696221769 0.8778899908 0.3957436681
0.31057671 -0.078610696 1.47 -0.4348238707 0.6198356748 0.6532472372
0.19500765 0.31325349 1.8630002 0.1400982141 -0.7121929526 0.687861681
0.38211444 -0.4638899 1.6960001 0.9961752892 -0.06030386314 0.063231498
0.23119278 -0.11166454 1.794 0.6173968911 -0.5179852247 0.5920408964
0.10766431 0.26514345 1.8330001 0.2408853471 -0.1926772892 0.9512358904
0.17097367 -0.29265764 1.7570001 0.6769504547 -0.6854057908 0.268248111
0.0047944896 -0.09269347 1.8230001 -0.1263625622 0.7911099195 0.5984793901
0.12582709 0.12462214 1.4843845 -0.2480216771 0.6696045995 0.7000820637
0.2879324 0.330854 2.0400002 -0.5083387494 0.8586236835 0.06600788236
0.31788546 0.060061309 1.6710001 -0.6782741547 -0.2963074744 0.6724180579
0.025311703 -0.24486323 1.8830003 0.3206906915 -0.5896567106 0.7412573099
-0.0082538165 -0.44075382 1.8830001 0.7664795518 0.3650336564 0.5284501314
0.38360128 -0.049065281 1.6960001 -0.1571802944 -0.2178626806 0.9632394314
0.24336793 -0.15557064 1.7570001 0.670856297 -0.2649416625 0.6926454902
0.093985677 0.19580349 1.4890001 -0.3168414235 -0.7262234688 0.610090971
0.23775901 0.11247282 1.6240001 -0.7816661596 0.1366526037 0.6085426211
0.21474738 -0.48656049 1.7130002 -0.2109413296 0.6983465552 0.6839706302
0.25260711 -0.2331758 1.705 0.5725380778 -0.7848428488 0.2371115834
0.075668387 0.087940842 1.55525 0.224153176 0.9209297299 0.3188163042
0.00585964 0.44240281 1.6710001 -0.1237599328 0.01504603494 0.9921981096
0.10473513 -0.48439935 1.7360911 0.2262378931 -0.1191310361 0.9667596221
-0.095520429 -0.058231708 1.748 -0.1478772908 0.7931856513 0.5907527804
0.33563662 -0.49181658 1.7130001 0.03512098268 -0.448115766 0.8932853937
0.39391395 -0.44510576 1.6470001 0.8782331347 -0.03852231428 0.4766786695
-0.11365574 0.041456398 1.594 -0.1688922942 0.9014713168 0.3985283673
0.1661634 -0.035694361 1.404 0.6689798832 0.5198051333 0.5312894583
-0.032727718 0.17262268 1.4640001 0.3076347709 -0.3371550441 0.8897681236
0.074065886 -0.075973161 1.8130001 -0.05866714939 0.8692281842 0.4909180701
-0.049499229 -0.22018623 1.9470001 0.7863408923 -0.2468985915 0.5663118958
0.42449802 -0.29517421 1.6363078 0.4730787277 0.169559136 0.8645496964
0.13323624 -0.03619713 1.7570001 -0.1194036976 0.841999054 0.5260991454
0.16780715 -0.1390402 1.8230001 0.3825999796 -0.7369548082 0.5572385788
0.48350269 -0.44297791 1.5940001 -0.4741597176 0.2650689483 0.8395897746
-0.22458184 0.27628413 1.8430001 0.3845663369 0.2437152565 0.8903435469
0.47092605 -0.36751795 1.5940001 0.430159539 -0.3466946185 0.8335260153
0.21605273 -0.30632138 1.6880001 0.6424181461 -0.2449237406 0.7261620164
0.1928902 0.032529347 1.4040002 0.5836536288 -0.1278218627 0.8018790483
-0.057776716 0.27237594 1.8830001 0.4307599068 -0.2249011695 0.8739939332
-0.0041631148 0.39460379 1.6960001 -0.31231305 0.6628537178 0.6805039048
-0.33730593 0.3549141 1.883 0.7235808372 0.1637232155 0.6705411673
