# .PCD v0.7 - Point Cloud Data file format
VERSION 0.7
FIELDS x y z normal_x normal_y normal_z
SIZE 4 4 4 4 4 4
TYPE F F F F F F
COUNT 1 1 1 1 1 1
WIDTH 206
HEIGHT 1
VIEWPOINT 0 0 0 1 0 0 0
POINTS 206
DATA ascii
-0.084282734 -0.20227857 1.748 0.09391001612 -0.4483408034 0.8889158964
0.45795226 -0.33625865 3.6530001 -0.1499441415 0.9179439545 0.3672814667
-0.39157018 -0.18670896 2.9580002 -0.1907660663 0.7525469661 0.630302608
0.35009682 0.28136617 2.45 0.1293694377 0.9899577498 0.05698464066
-0.49462396 0.38520157 1.6345456 0.914744556 0.3905108571 -0.1036518663
0.33280459 -0.061236043 3.0370002 -0.1959373057 0.8804023266 0.431856811
-0.28893882 0.21524972 2.2120001 0.005231951829 -0.7180097699 0.696013391
0.056813262 0.30165136 1.5430001 0.743588984 0.06001265347 0.6659383178
-0.31698865 0.02939814 1.4580001 0.09880638868 0.5728106499 0.8137108088
0.0077137901 -0.056567796 2.9330001 -0.2398516834 0.8407132626 0.4854610264
0.22271279 -0.33780599 1.705 -0.09818360209 0.06475325674 0.9930593967
0.43364754 -0.19764888 3.3650002 -0.1499441415 0.9179439545 0.3672814667
0.1148784 0.023564801 1.6800001 -0.2552563548 0.8978331685 0.3588033319
-0.1830117 -0.47376662 1.7310002 0.3960705698 0.4831823707 0.780809164
0.15127496 0.2730808 2.2410002 0.2471599281 0.9267216325 -0.2830176353
0.2352082 0.10719325 2.6390002 -0.230032891 0.8636882305 0.44847247
-0.44821775 0.21795687 2.0050001 0.9364632964 0.2279645354 -0.2665871084
-0.31623721 -0.10302586 1.6822859 -0.2072983086 0.7412878275 0.6383727193
-0.065387309 0.076253965 1.4960002 -0.07195872813 0.8244917989 0.5612799525
0.16030376 -0.14905438 3.2080002 -0.2032761276 0.8692892194 0.4505718648
-0.41133288 -0.3450779 3.1490002 -0.2800121009 0.7974424958 0.5344891548
-0.14110914 -0.20500763 3.0370002 -0.2800121009 0.7974424958 0.5344891548
-0.44237652 0.17639937 1.572 0.8671305776 0.3619084954 -0.3422086537
-0.026667323 0.49825788 1.6010001 -0.3714128435 -0.3132996857 0.8740113378
0.034922212 -0.44486031 1.731889 -0.1235053837 0.4558944106 0.8814231157
0.48198608 -0.097511634 3.1780002 -0.1769213229 0.9019152522 0.3940149248
-0.12537912 -0.021868451 1.6630001 -0.2365939021 0.9112118483 0.337218523
-0.27123716 -0.29269093 1.748 0.5843350887 -0.1869224608 0.7896913886
0.10463016 -0.17488183 1.705 0.17987746 -0.07651469857 0.9807087183
0.12094142 0.12094142 1.516 -0.3050788045 0.3315709829 0.8927416205
0.24405348 0.071490414 2.812 -0.2116865069 0.8589990735 0.4661646187
0.40643054 -0.2388943 3.5390003 -0.1499441415 0.9179439545 0.3672814667
0.15670066 -0.04296631 2.8830001 -0.2286759913 0.853395462 0.468426615
-0.28461859 -0.27377599 3.0920002 -0.2800121009 0.7974424958 0.5344891548
-0.19390552 0.13135535 1.427 0.1759536564 -0.07350771129 0.9816501141
-0.084096879 -0.35290655 1.7130001 0.009727425873 -0.1799847782 0.9836212993
-0.020126512 -0.038704835 1.766 -0.1989133805 0.9150753617 0.3508140743
-0.24595709 -0.023491859 1.5762001 -0.4175692499 0.792527616 0.4444500804
-0.26701862 -0.15099268 1.8130001 0.1522037834 -0.361908257 0.9197045565
0.085198842 -0.31538522 1.705 0.2666553557 2.482506534e-05 0.9637919664
-0.0061390046 0.024083786 1.6160001 -0.2508417964 0.8978044987 0.3619743884
0.018157229 0.17186028 1.4450001 -0.2725437582 -0.2059440315 0.9398441315
-0.40266615 0.046408981 1.557 0.05710800737 -0.2355633229 0.970179677
0.46469644 -0.034919385 3.0640001 -0.2208501399 0.8717034459 0.4374451637
0.12507577 -0.06487333 1.7760001 0.6839802265 0.03969988227 0.7284194827
-0.16875307 -0.085150629 1.766 -0.2881004512 0.8686050177 0.4031420052
0.22271279 -0.21673392 1.705 -0.1598325968 -0.06442645937 0.9850394726
0.28172559 -0.1285544 3.1200001 -0.1510448605 0.9122844934 0.3806867599
-0.18446819 0.042164162 1.5030001 -0.2761206031 0.7973040938 0.5367155671
-0.19767986 -0.206827 1.739 -0.0676323548 -0.5553990006 0.8288291693
-0.45783582 0.28435788 1.6010001 0.5007977486 -0.06456496567 0.8631529212
-0.19514357 -0.36587343 1.705 0.05387935787 -0.2660487294 0.9624526501
0.026417473 0.40182367 1.5860001 0.2504866421 -0.01908413135 0.9679319263
-0.35420173 -0.053087778 1.5528001 0.009966380894 0.8427627683 0.5381929278
-0.074335635 -0.47079235 1.7130001 -0.02928316966 0.3858159482 0.9221109152
0.0060980935 -0.14482974 1.7390002 0.2167504579 -0.2435534894 0.9453575611
-0.086682163 0.16331424 1.4330001 0.1881317496 -0.4183383584 0.8885940909
0.0045531141 -0.2550393 1.7316669 0.06063453853 -0.06556589901 0.9960042834
0.14199808 -0.40207878 1.705 -0.04760999978 0.2505839467 0.9669234753
-0.10467791 0.024575949 1.575267 -0.1702322811 0.871735394 0.4594544768
0.08620438 0.058396518 1.5860001 -0.4001081884 0.8370528817 0.3731701076
-0.21534178 -0.06152622 1.6710001 -0.3905608952 0.8302842379 0.3976056576
0.064929441 0.19749372 1.5430001 0.4733368456 -0.08846753836 0.8764278293
0.18611456 -0.12443582 1.7220001 -0.4108953178 -0.4568686783 0.7889461517
-0.24263504 0.21463868 2.1290002 0.07924909145 -0.7778183222 0.6234727502
0.025251508 0.083728679 1.5159999 -0.155754298 0.8173818588 0.5546417832
0.45939964 -0.25029358 3.6140001 -0.1499441415 0.9179439545 0.3672814667
-0.14416344 -0.28529188 1.7310003 -0.09395869821 -0.1943572015 0.9764205217
0.0075875497 -0.35661486 1.7310001 -0.03614460304 -0.1799595058 0.9830097556
0.025870785 -0.0032710186 1.6960001 -0.1067519486 0.9112988114 0.3976663947
-0.070063196 -0.11988592 1.7760001 0.3500286937 -0.5401608944 0.7653144002
0.48454505 -0.21368136 3.4330001 -0.1499441415 0.9179439545 0.3672814667
0.14422219 -0.25424737 1.6960001 0.1410790533 -0.02396046929 0.989708364
-0.24725857 0.069383785 1.439 -0.1408726126 0.5055389404 0.8512257338
-0.096260406 -0.043759037 1.7360001 -0.2244568467 0.880341351 0.4178735018
-0.2443191 -0.10774321 1.7310001 -0.3084917963 0.858650744 0.4093308151
-0.15884674 -0.16199222 1.794 0.5118877292 -0.7736520767 0.3734079003
-0.13506103 0.088194422 1.4580001 -0.1583261192 0.8523153663 0.4984890819
0.074357986 -0.10470819 1.7310001 0.1725757867 -0.2834401429 0.9433341026
-0.13452451 -0.41403651 1.705 0.1036760435 -0.01899641939 0.9944297075
-0.17447069 -0.0084440531 1.605 -0.3640896976 0.8444882631 0.3927826881
-0.29485407 -0.016138179 1.5159999 -0.2591181993 0.7951499224 0.5482648611
-0.35284081 -0.30634239 3.1200001 -0.2800121009 0.7974424958 0.5344891548
-0.30458906 -0.068001285 1.6160001 -0.2058753222 0.8776642084 0.432805866
-0.26312622 -0.21589845 1.7760001 0.4181251526 -0.5898476243 0.6908336878
0.11552275 0.0066746478 1.7570001 0.6102524996 0.7791859508 0.1430423707
-0.054623347 -0.01181396 1.684 -0.1646020412 0.9156854153 0.3666420579
-0.06525293 -0.27466932 1.7310001 0.01303140819 -0.07762800157 0.9968972206
0.074676938 -0.24478197 1.7130001 0.3855585158 -0.03202109784 0.9221276045
0.47689265 -0.13625504 3.2380002 -0.1546367556 0.9115706682 0.3809545934
0.15390058 -0.3255589 1.688 -0.07378636301 -0.06085626408 0.9954155087
-0.025410183 -0.41403651 1.705 0.02373700216 0.1764991134 0.9840145707
-0.01469907 0.1080062 1.4580001 -0.2150185555 0.7776608467 0.5907711983
0.072493762 -0.38488951 1.705 0.156137377 0.1383750141 0.9779946208
0.072609037 -0.046677239 2.9580002 -0.2377047241 0.8490879536 0.4717478752
-0.39825603 0.12483095 1.5550001 0.2770050466 -0.0809346959 0.9574537873
-0.035216227 0.047227968 1.557 -0.169851914 0.8701490164 0.4625915885
0.062811241 0.12458171 1.4742001 -0.5135809183 0.5063359737 0.6927182078
-0.077210665 -0.18370813 3.0370002 -0.2567407787 0.8259802461 0.5018374324
0.061784837 0.027300276 1.6390001 -0.1960622668 0.8750648499 0.4425167441
-0.29252174 0.08840657 1.483 0.5186988711 -0.5230982304 0.6762542129
-0.15617992 -0.04955709 1.7130001 -0.1990977228 0.8721629977 0.4468688667
-0.20561025 -0.30464128 1.7220001 -0.05821927264 -0.1766449958 0.9825512767
-0.23217903 -0.4112452 1.7310001 0.5979742408 0.2373930067 0.7655529976
-0.24932311 0.019580349 1.4890001 -0.3180965185 0.7828258872 0.5347880125
-0.12404248 0.052718058 1.5159999 -0.2286135703 0.8247489929 0.5172281265
-0.35803768 0.0013114933 1.4960001 0.4732887149 0.6880999804 0.5500147343
0.16466606 -0.19514598 1.6960001 -0.1329061538 -0.09171076864 0.9868764281
-0.065490507 0.0092540933 1.6240001 -0.2265791446 0.890848279 0.3937654495
0.20477617 -0.27502787 1.705 -0.08371131867 -0.06983479857 0.9940400124
0.044007789 -0.19575877 1.7310001 0.3045810461 0.05077933893 0.9511318803
0.13240471 0.049829733 1.6240001 -0.2785088122 0.7670265436 0.5780165792
-0.026174957 -0.19538902 1.7375457 0.1958951205 -0.1373370141 0.9709601402
0.025894979 0.052826613 1.5755002 -0.1065092385 0.9045559168 0.4128369689
-0.075753644 0.10666315 1.4450001 -0.1263432801 0.7766384482 0.6171467304
0.025933713 0.34490582 1.5720001 0.2065460384 -0.3966217339 0.8944439292
-0.33576334 -0.27129677 3.0640001 -0.2800121009 0.7974424958 0.5344891548
-0.20503017 0.0052175447 1.5430001 -0.2427487671 0.784612596 0.5704876184
-0.49117881 0.32602882 1.6240001 0.1633537263 -0.173399806 0.9712095857
-0.24431911 -0.35054481 1.7310001 0.6990410686 -0.03429232165 0.71425879
-0.43770194 0.23338568 1.5790001 0.6213689446 0.4536132514 -0.6388549209
0.034902725 -0.30350199 1.7310001 0.2874358892 -0.1894744337 0.9388716817
-0.14478628 -0.3454285 1.7220001 -0.1050688624 -0.348801434 0.9312884212
0.13445139 -0.10288718 1.7310002 0.0240818169 -0.645760715 0.7631599903
-0.13568257 -0.22410494 1.7390002 -0.1429523677 -0.1878046244 0.9717479348
0.0041711801 0.45465863 1.5860002 0.5067909956 0.05199160799 0.8604997396
-0.2651487 -0.085453086 1.6710001 -0.2986046672 0.8611926436 0.4113179743
-0.22535025 -0.2536771 1.7310003 0.228186056 -0.3192684352 0.9197819233
0.43591374 -0.11530621 3.2080002 -0.1546367556 0.9115706682 0.3809545934
-0.25199607 -0.049829733 1.6240001 -0.3729262054 0.8395934701 0.3949795365
-0.14381367 0.15012127 1.439 0.05095956102 -0.3979861736 0.9159749746
-0.29547349 -0.043189861 1.5640001 -0.3079334199 0.8389980793 0.4486192167
-0.18748394 0.079807349 1.4450001 -0.2392689139 0.7622306347 0.6014605761
-0.38545573 -0.004982389 1.5500001 0.7495523095 0.2669155002 0.6057453752
-0.01712656 -0.10743024 1.7760001 0.07680086046 -0.5138268471 0.8544492722
0.075407356 0.082813442 1.536 -0.3837838471 0.7798833251 0.494461298
-0.034721259 -0.3245683 1.7220001 0.09924834967 -0.1448140293 0.9844686985
-0.079591691 -0.41748095 1.7130001 -0.00283116661 -0.06966073066 0.9975667
0.43893909 -0.085579321 3.1490002 -0.1994920075 0.8882742524 0.4137291908
0.047344383 0.24754348 1.5430001 0.1098997369 -0.04913560674 0.9927273989
-0.15558667 0.021948604 1.551 -0.3159057498 0.8182410002 0.4802969694
-0.035009027 0.1550442 1.42625 0.01077767182 -0.06513466686 0.9978182912
-0.13365398 -0.47304496 1.7129999 0.02433416247 0.4821434617 0.8757542968
-0.28177118 -0.11921088 1.766 0.4031252563 0.7949468493 0.4533757269
-0.19672662 -0.08659976 1.7129999 -0.4740919173 0.7542079091 0.4543206394
-0.11405024 -0.14604624 1.7660002 0.1314762235 -0.6642526388 0.7358548641
-0.18534486 -0.42151007 1.705 0.1435218602 0.3403715193 0.9292731881
-0.016102614 -0.46144053 1.7220001 -0.1852788627 0.2958424091 0.9370960593
0.18584311 -0.37318096 1.705 -0.2195186019 -0.02807012387 0.9752044082
0.087100342 -0.0030034599 1.7130001 -0.4283355176 0.8145480156 0.3912035525
-0.17555688 -0.034821201 1.6550001 -0.3854526579 0.826870203 0.4095264971
-0.12325232 0.0014166933 1.6160001 -0.2544012368 0.8866336942 0.386213243
0.20369525 -0.16355094 1.6960001 -0.1559417993 -0.067696549 0.9854437113
0.11448565 -0.35535157 1.6960001 0.1808755696 -0.01469103619 0.9833962321
0.085717484 0.15514597 1.5230002 0.1050702557 -0.2495709807 0.9626393914
0.14498752 -0.14498749 1.705 0.01704346389 -0.107586056 0.9940496683
-0.013586581 -0.018618647 1.7220001 -0.2411264181 0.8792113662 0.4109079838
0.029115854 -0.099606864 1.748 0.4141942263 -0.3444496393 0.8424948454
0.080009863 -0.4302417 1.7220001 0.003883897793 0.5120949745 0.8589200377
-0.0072894832 0.0072894832 1.6630001 -0.1604246944 0.9133592844 0.3742174804
-0.053634465 -0.15783857 1.748 0.3000384271 -0.05149674788 0.9525361061
0.12093616 0.082888834 1.5500001 -0.1536497474 0.837244153 0.5247989893
-0.082514495 0.051402472 1.5430001 -0.1739968061 0.8164948225 0.5505100489
-0.10416379 -0.30796248 1.7220001 -0.08564441651 -0.2402350456 0.9669292569
-0.12397294 -0.13827752 1.8130001 0.4094346166 -0.878559649 0.2459599078
0.06491366 -0.15549086 1.7220001 0.3134590089 -0.2197921127 0.9238153696
0.044343255 -0.34627602 1.705 0.3152213693 -0.2671577334 0.910638392
-0.12540366 -0.069668703 1.7660002 -0.2952764332 0.8370296359 0.4606443346
0.025529409 -0.39495498 1.7130002 0.05632534996 -0.09906840324 0.9934852123
0.074071616 0.27281138 1.5743333 -0.580683887 -0.3568217158 0.7317680717
0.035005592 -0.022832783 1.7363335 -0.0376361683 0.854434967 0.5181933641
-0.015737919 0.081312582 1.4960002 -0.17335926 0.8177691698 0.5488170981
-0.23435491 0.11211032 1.4450001 0.3712341487 -0.5090771317 0.7765473127
-0.17513782 -0.24519576 1.7372223 -0.1214919463 -0.1749617308 0.9770507216
0.13873163 -0.044211175 1.7390001 0.7325074673 0.1280942261 0.6685990691
-0.24670926 -0.0018755408 1.5278 -0.3862451613 0.8231895566 0.4161413014
-0.33497787 -0.083744459 1.6470002 -0.1319221705 0.8944262266 0.4273152351
0.10513987 -0.27506292 1.6960001 0.1967498362 0.02046078071 0.9802402258
-0.14478853 -0.18483643 1.7570001 0.1706500053 -0.3744912446 0.9113917351
-0.095156908 -0.025276056 1.6960001 -0.1923941076 0.8786171079 0.4370543361
-0.045051903 -0.37543249 1.7129998 0.135935232 -0.2444074303 0.9600971937
-0.28683043 -0.11413148 1.7130001 -0.4033815861 0.8536301851 0.3295432627
-0.065333761 -0.051709659 1.766 -0.2179211825 0.8877258301 0.4055283368
-0.1048402 -0.25508529 1.7382002 0.007560973987 -0.3539450467 0.9352356791
0.12534267 -0.21587978 1.705 0.2096042633 0.02951120213 0.9773408771
-0.21450272 0.052712295 1.473182 -0.2733483315 0.7830932736 0.5586104393
-0.043742158 -0.23482025 1.7326 0.1433507949 -0.1122515872 0.9832853675
-0.21347865 -0.028971905 1.6042001 -0.3049859107 0.8438256383 0.4415222406
-0.057365559 -0.031702019 1.7220001 -0.1650596559 0.9050893784 0.3918782175
0.42635456 -0.24766184 3.5760002 -0.1499441415 0.9179439545 0.3672814667
0.23310567 0.14452551 2.6590002 -0.230032891 0.8636882305 0.44847247
0.096409224 -0.13302979 1.705 0.3667657077 -0.1903383136 0.9106339812
0.064803198 0.0103096 1.6800001 -0.1475711465 0.8824602962 0.4466391802
-0.28513408 0.056008469 1.4519998 0.2387255132 0.1702982932 0.9560379982
-0.28310776 -0.25353393 1.7570002 0.4792412519 -0.1898503304 0.8569041491
-0.33511445 -0.026957124 1.5264285 0.0230420772 0.8307167292 0.5562182665
0.02552481 0.12506375 1.45575 -0.2742744386 0.6496352553 0.7090469003
0.05582964 0.16428033 1.4640001 -0.6021840572 -0.1372026205 0.7864793539
0.18534487 -0.23467052 1.705 -0.2761748731 -0.02172549255 0.9608618021
-0.18423502 -0.17804223 1.7660002 0.05252766237 -0.7605378032 0.6471654773
-0.1546852 0.066350922 1.4885387 -0.2656369805 0.7791535854 0.5677646399
-0.025797671 -0.28529188 1.7310003 0.1072838008 -0.1311188638 0.9855445623
-0.41407421 0.085008614 1.5640001 0.343649596 -0.01877087355 0.9389103651
-0.11572648 0.11572319 1.4348752 -0.1453701407 0.4556407332 0.8782135248
-0.25534144 -0.17593648 1.7760001 0.3882390261 -0.009472166188 0.9215100408
-0.10345054 0.083020456 1.4829999 -0.1609354466 0.7946435213 0.5853558779
