# .PCD v0.7 - Point Cloud Data file format
VERSION 0.7
FIELDS x y z normal_x normal_y normal_z
SIZE 4 4 4 4 4 4
TYPE F F F F F F
COUNT 1 1 1 1 1 1
WIDTH 206
HEIGHT 1
VIEWPOINT 0 0 0 1 0 0 0
POINTS 206
DATA ascii
0.15173733 0.41508728 1.2172 0.5168979764 -0.4186178148 0.7467098236
0.010813683 -0.3957808 2.467 0.07488386333 0.8055135012 0.587826848
0.1414002 -0.4943164 1.3330001 0.4367820621 -0.229537487 0.8697896004
0.49389297 -0.011880587 1.9360001 0.008972158656 0.7659981847 0.6427801251
-0.33483616 0.024369931 1.904 0.958658576 0.2259194702 0.1730148196
-0.20208247 -0.031118453 1.2830001 0.09239506721 0.6792059541 0.7281088233
0.38280633 -0.046069779 1.2353847 0.7057182193 -0.3104842603 0.636836946
-0.2553581 0.31595811 1.5535001 0.8899857998 -0.09317709506 0.446366787
0.22358507 0.27808392 1.5940001 -0.8429880142 -0.5320350528 0.07943537086
0.053303968 -0.17811324 1.4830002 0.1238849238 -0.01468035951 0.9921879768
-0.22231829 -0.22762735 2.2710001 0.06433674693 0.8208168745 0.56755656
0.39441586 -0.22209825 2.184 0.02376865968 0.7655963898 0.6428819895
0.085619651 0.089648813 1.149 -0.0285095796 0.8229343891 0.5674206018
0.39989412 -0.36463898 1.149 0.8410377502 0.01433197688 0.5407865644
0.47604841 0.17570241 1.7130001 0.1023152769 0.8027501702 0.5874723196
0.26019728 -0.25431049 1.3430001 0.578134656 -0.1612088084 0.7998574972
0.34610721 0.1857719 1.3253334 0.5658606291 -0.6549230814 0.5008766651
0.16448075 -0.036476873 1.325 0.08874610066 0.7666387558 0.6359159946
-0.23085877 0.12362929 1.439 0.2589762509 -0.4043874741 0.8771556616
-0.25744545 0.22219993 1.748 0.9936006069 -0.04143985733 0.1050743684
0.16862507 0.49849018 1.404 -0.909021914 -0.2985276282 0.2907927036
0.39436719 0.34556356 1.5045002 -0.7058048844 -0.5642245412 0.4283575118
0.28118935 0.081782773 1.115 0.1165524274 0.7139610648 0.6904166937
-0.10488966 0.10180467 1.1730001 0.3399626911 0.3710974455 0.8641250134
-0.024863143 -0.066555656 1.3430003 -0.1512687057 0.7139388323 0.6836732626
0.1725941 0.25544158 1.1250001 0.6119806767 -0.2775011659 0.7405894995
0.058549937 -0.35005388 1.4210001 0.6230146885 -0.001268954482 0.7822090983
0.29605258 -0.4539699 1.2589999 0.7104145288 -0.1908580214 0.6774100661
0.41802534 -0.19339968 1.149 0.6962921023 -0.1896833479 0.6922409534
0.39415547 -0.11338719 2.0530002 0.02235857584 0.7660105824 0.6424390078
0.30032933 -0.11569107 1.3330001 0.7951623797 0.02844761498 0.6057289243
0.13338044 -0.34932974 2.4150002 0.07477514446 0.8058444262 0.5873869061
-0.0056030159 0.02506342 1.2334547 -0.08336865902 0.8183115721 0.5686966181
-0.090774447 -0.24811682 2.3010001 0.0624483712 0.8244949579 0.5624129176
0.35358158 -0.2708979 1.2410001 0.7763361335 -0.1300679892 0.6167532206
0.26437026 0.020670922 1.2410001 0.08210808784 0.8165264726 0.5714392066
0.17667067 -0.36495912 1.3480002 0.4167670608 -0.3198718429 0.8508743644
0.095217504 0.17395775 1.0443752 0.1075489521 0.6274132729 0.7712235451
0.16746525 -0.18979394 1.4150001 0.4557226002 -0.3630530834 0.8127172589
0.49714714 -0.17251748 2.1160002 0.02436484769 0.764846921 0.6437511444
-0.1405209 -0.1189023 1.3700001 -0.08419753611 0.6624720693 0.7443396449
0.085829169 -0.097218826 1.3920001 0.03025383316 0.7088689208 0.704691112
-0.01385763 0.14288034 1.1073636 0.3532654047 0.4502438605 0.8200512528
0.21581605 0.42643172 1.483 0.220124945 0.8681824803 0.4447518587
0.14505084 0.034636006 1.2347502 0.04083344713 0.8041490912 0.593023479
-0.044471718 -0.1459778 1.4330001 -0.1685404778 0.6735444069 0.7196749449
-0.24149098 0.22452134 1.4890001 0.3054217398 -0.4516611397 0.8382838368
-0.28636754 0.12049345 1.7850001 0.9842404127 -0.1275889277 0.1224414706
0.35291147 -0.15580319 1.2428182 0.832757473 -0.04734655842 0.551609695
0.20183799 0.15382519 1.0708573 0.2919137776 0.07051736116 0.9538415074
0.33211464 0.10674118 1.2340002 0.2704372108 -0.8359060287 0.4776242077
0.29154497 -0.34455311 1.2920001 0.6370586157 -0.09870261699 0.764469862
-0.095128298 -0.016790157 1.2766362 -0.09707260877 0.7801261544 0.6180453897
0.11758777 0.49611357 1.2774444 0.5519703031 -0.3448997736 0.7591922879
-0.18226776 0.052536003 1.223 0.3405974209 0.3678083718 0.865280509
0.06563165 -0.019404139 1.302 0.007064572535 0.8019974828 0.5972856283
0.13523623 -0.28486943 1.3976252 0.1038539857 -0.3373960853 0.9356164932
0.18552634 0.084898651 1.1551052 0.1022178307 0.8424719572 0.5289541483
0.079662703 -0.44365996 1.3980001 0.7405310273 -0.018232584 0.6717748046
0.4427712 -0.28536791 1.1177894 0.6626245379 -0.1691856682 0.7295922637
0.47634122 -0.072066382 2.0050001 0.008972158656 0.7659981847 0.6427801251
0.14686899 0.3330794 1.1756667 0.5540941954 -0.4607517421 0.6933162808
0.21884844 -0.44342589 1.307 0.5054081082 -0.2603197992 0.822676301
0.35059741 -0.38490662 1.223 0.6698545814 -0.1609852463 0.7248300314
0.039270282 -0.26475772 1.4450001 0.3302259743 -0.2302640676 0.9153847694
0.25431016 -0.037111599 1.3126252 0.06324869394 0.6902105212 0.7208391428
0.2437139 -0.17431262 1.374 0.6701552272 -0.2729581296 0.6902070642
0.40543687 -0.11558769 1.1863792 0.6495093703 -0.1805857569 0.7385975718
-0.015016823 0.073891766 1.1633638 -0.04690144956 0.7656282187 0.6415712833
-0.19615299 0.067542493 1.3840002 0.6602263451 -0.2734149396 0.6995322704
0.3075394 -0.1950696 1.3034286 0.7816231847 -0.07007138431 0.6198025346
0.34602568 0.025266295 1.2530438 -0.1525306255 0.5609468818 0.8136786819
-0.084783822 0.035690304 1.2145264 0.0131864436 0.7941817641 0.60753721
0.16432619 -0.092461154 1.3816668 0.05553437024 0.7240093946 0.687550962
0.392288 -0.26559129 1.1750002 0.8226097822 -0.0391735211 0.5672553182
0.064606585 0.044871554 1.2119048 -0.0618465282 0.7867001891 0.6142295003
0.1353178 0.12580234 1.0940834 0.04296703637 0.8488525748 0.5268805623
0.1046363 -0.22675422 1.4450001 0.4618448019 -0.5745690465 0.6756994724
0.40874672 -0.17357737 2.1290002 0.02376865968 0.7655963898 0.6428819895
-0.1385484 -0.061192211 1.317 -0.2168395519 0.788574338 0.57543993
0.025448756 -0.12724379 1.4210002 -0.01076792181 0.7700223923 0.6379259825
0.40457815 0.16454858 1.7220001 0.1023152769 0.8027501702 0.5874723196
0.30332577 0.053160191 1.189 -0.1110968292 0.7614996433 0.6385732293
0.13386798 -0.4237614 1.3540001 0.3545176089 -0.2318044305 0.9058609009
0.19984055 -0.28839266 1.365 0.4621738493 -0.367138654 0.8072202206
-0.011326534 -0.018122453 1.2920001 -0.1671432853 0.7388872504 0.652770102
0.19537525 0.0022324314 1.2734998 0.06284193695 0.7836098075 0.6180667877
0.054776419 0.12781185 1.0962001 0.09601981193 0.7757027149 0.6237511635
0.3057448 -0.27553207 1.295261 0.687761426 -0.1494456679 0.7103873491
-0.07554429 -0.10469662 1.3854004 -0.1593728513 0.7192658782 0.6762077212
0.073026329 -0.37372297 2.45 0.07488386333 0.8055135012 0.587826848
0.23547627 -0.37510157 1.3156843 0.4547559321 -0.2809827328 0.8451306224
0.33611399 -0.099713817 1.2780001 0.8015249968 -0.0602402091 0.5949191451
0.10736011 -0.36585155 1.3760002 0.4809983969 -0.2271323651 0.8467888832
0.37614861 -0.20526852 1.2042857 0.8443613052 -0.04464804009 0.5339105725
0.21541673 0.048898276 1.2060002 0.0579142794 0.8313291669 0.5527546406
0.044939686 -0.060313791 1.3490001 -0.01630271785 0.7564956546 0.6537954807
0.36849183 -0.32485068 1.2043999 0.8378263712 -0.04897122458 0.543735981
0.4877449 -0.11338719 2.0530002 0.02611585893 0.7658687234 0.6424663663
0.1253439 -0.0039144196 1.2853532 -0.05138336122 0.8119412661 0.5814732909
-0.14550425 0.004720266 1.2434763 -0.003959215712 0.6996610165 0.7144639492
0.16601612 0.19883326 1.1010001 0.5670407414 -0.2509903312 0.7845181227
0.1058028 -0.050907332 1.3380001 -0.05269709975 0.7327846289 0.678417027
0.32848117 0.14153083 1.2846667 0.6129364967 -0.6038435102 0.5095899105
0.22489393 0.10134705 1.1010001 0.3790899813 0.8459047079 0.3751479089
0.24428353 -0.31548768 1.3261249 0.3903095424 -0.3695889413 0.8432452083
0.20561831 -0.22552864 1.3846003 0.5382804871 -0.2996493876 0.7876955867
0.1256351 0.068022333 1.1876668 0.02901677042 0.8194075227 0.5724765062
0.28006607 -0.40154052 1.2830001 0.5966540575 -0.2520522773 0.7618881464
0.34477666 -0.21483435 1.2562001 0.8346700668 -0.01933859661 0.5504106879
-0.084454559 -0.071551777 1.3380001 -0.06700313836 0.7591435313 0.6474655271
-0.063049674 0.12222001 1.1375556 0.3963827193 0.399281323 0.8267134428
-0.19220114 -0.066189587 1.3380002 0.5444943905 0.5569506884 0.6271616817
0.33078122 -0.3212367 1.2563335 0.7735077739 -0.1015807316 0.6255933642
-0.015220484 -0.10430748 1.3846925 -0.1842441857 0.7184070945 0.6707796454
0.24463911 0.074206457 1.1641428 0.1089518517 0.8513453603 0.5131671429
-0.22495967 0.18022338 1.4580001 0.1466542929 -0.5467556119 0.8243487477
0.075979605 -0.29678565 1.4150001 0.4901407659 -0.2953482866 0.8200801611
0.04635638 0.0099335099 1.2590001 -0.006177046336 0.8329356313 0.5533353686
0.36792725 -0.10549494 1.226143 0.8077062964 -0.1197804138 0.5772895813
-0.23553842 0.26670393 1.5236667 0.4087095261 -0.5398778319 0.7358589768
-0.21451303 0.014747347 1.2556666 0.3708305061 0.4932105541 0.7869104743
-0.13558386 0.056473196 1.1952002 0.08565499634 0.5565280318 0.8264017105
0.44606203 -0.20223999 2.1560001 0.02376865968 0.7655963898 0.6428819895
0.18988512 -0.48778874 1.2970001 0.431802094 -0.3175399005 0.8442246914
0.2155084 -0.064300627 1.3380002 0.2770356238 0.6777920127 0.6810647845
0.024805682 0.10147576 1.1318183 0.02380742878 0.7579898834 0.6518316865
0.12648383 0.44695044 1.251875 0.5949550867 -0.2674509883 0.7579567432
0.097928055 -0.47302216 1.3540001 0.4749630392 -0.4191021323 0.7737981081
0.036078215 0.072598644 1.1758573 -0.06113466248 0.7777241468 0.6256258488
-0.064962924 0.067022391 1.1762002 0.08053542674 0.6979165673 0.7116365433
0.18470621 -0.41500607 1.3335 0.3542040288 -0.2241296917 0.9079126716
-0.055162244 -0.041085236 1.307 -0.1339040399 0.7411003113 0.657905817
0.28366557 -0.013856758 1.2770624 0.2454681844 0.6751884222 0.6956048012
0.24984474 -0.47280037 1.2780001 0.4180254936 -0.2605234385 0.8702771068
0.13518113 0.09876702 1.138 0.05274500698 0.8730694056 0.4847348034
0.14549097 -0.23764117 1.4150001 0.3770800829 -0.3673749566 0.8502036333
-0.054966472 0.0054882844 1.2540002 -0.1171202585 0.75657022 0.6433384418
0.15375593 -0.33354139 1.381 0.3881544769 -0.32328403 0.8630316257
0.27298012 -0.20502941 1.3430002 0.6465622187 -0.150364086 0.747895658
0.40517262 -0.30482185 1.1455928 0.8097644448 -0.09916497767 0.578314662
0.44040403 -0.23759945 1.1340001 0.619562149 -0.1229058728 0.7752656937
0.048458628 0.17053708 1.0630001 0.3508031964 0.4808230102 0.8035834432
0.31598023 -0.37573895 1.2589999 0.6910290122 -0.128653124 0.7112856507
0.33157638 -0.43094128 1.2320001 0.5983162522 -0.06103169918 0.7989322543
0.14711973 0.28567258 1.1559089 0.6035514474 -0.3082374632 0.7353334427
0.31837028 -0.1455407 1.2970001 0.7945583463 -0.1057161242 0.5979140401
-0.10700242 -0.15199208 1.3870001 -0.1742990315 0.4548809528 0.873328805
0.15196842 0.15474832 1.057 -0.08315288275 0.7344357371 0.6735649705
0.099720836 0.020820834 1.25 -0.1369600743 0.7725769877 0.6199731827
0.034321424 -0.092820428 1.3848183 -0.1234930977 0.7292245626 0.6730386019
0.38118795 -0.15407015 1.2025715 0.7466136217 -0.08984670788 0.659162879
0.072619557 -0.39263797 1.404 0.7015468478 -0.130104661 0.7006459832
0.37938714 0.30946597 1.4770001 0.3061513305 -0.7491881847 0.5873571634
-0.15461245 -0.030250261 1.2780001 -0.01599323004 0.7445052862 0.6674249768
0.20801194 -0.16616338 1.4039999 0.5883058906 -0.3655812144 0.7212811708
0.44247121 -0.15302129 2.1030002 0.02376865968 0.7655963898 0.6428819895
0.054422796 -0.2235399 1.47 0.366178751 -0.3402699232 0.8661001921
0.27585128 -0.1551024 1.3460003 0.7534096241 -0.1223501861 0.6460683942
0.0050671333 -0.16172601 1.4450001 -0.3110678792 0.6298676133 0.7116906643
0.49911264 -0.043175831 1.9700001 0.008972158656 0.7659981847 0.6427801251
0.15165018 0.37546495 1.1930001 0.6151724458 -0.276607275 0.7382758856
0.10627286 -0.31833223 1.3870001 0.3878242671 -0.3560632467 0.8501830697
0.17449875 0.11113329 1.1120002 0.05885801837 0.839102447 0.540779829
0.37526584 -0.38492861 1.1847999 0.8545070291 -0.02227019332 0.5189622641
0.2395746 -0.005623816 1.2830001 -0.03036860563 0.7448064089 0.6665892005
0.17436036 0.062303577 1.193 0.1120210886 0.8202487826 0.5609306693
0.30739674 0.0090191467 1.2346667 0.2381618023 0.7511420846 0.6156821847
0.16531828 -0.45520744 1.3279997 0.464735806 -0.4184890687 0.7803124785
0.12800735 -0.10708308 1.4040002 -0.02903373539 0.6286943555 0.7771102786
0.36361727 -0.014563688 1.2640001 0.4102554321 -0.02887365595 0.9115134478
-0.033865955 0.043075096 1.2038182 -0.02072465979 0.8194336891 0.5727991462
0.015066393 -0.037086509 1.3220001 -0.1036881506 0.7536763549 0.6490151882
0.39227733 -0.075919911 1.2046667 0.7120163441 -0.2677395642 0.6491134763
0.32417294 0.091727383 1.189 0.9638426304 -0.2414607108 0.1127124503
0.094171718 0.11618961 1.1154346 -0.02553074434 0.8416727781 0.5393840075
0.2945911 -0.23482044 1.3148574 0.6910219193 -0.1535117179 0.7063447237
-0.15308616 -0.098746419 1.3330001 -0.4272125363 0.4387842119 0.7905427814
0.14494851 -0.064160824 1.3552501 0.06720602512 0.746963799 0.6614592671
0.20785208 -0.33523768 1.3380002 0.5313772559 -0.1213932186 0.8383924365
0.17319666 -0.26491794 1.3950002 0.5258452296 -0.3156407773 0.7898466587
-0.21350253 0.096237838 1.411 0.7163271904 -0.2777884603 0.6400851011
0.20537874 -0.025774406 1.3043078 0.128134191 0.7455251813 0.6540442109
0.3021664 0.05882477 1.1470001 0.1386874318 0.9793848991 0.1468706876
0.10215096 -0.2616061 1.4210001 0.4084240496 -0.3818828166 0.8290689588
-0.025275139 0.10430446 1.1314399 0.129719913 0.6568638086 0.7427669168
0.073188514 -0.13025075 1.4150001 0.04231445491 0.6578712463 0.7519407868
0.014486518 0.047296487 1.2038182 -0.02004543692 0.8427606225 0.5379151702
0.41543052 -0.15494463 1.1660002 0.7093624473 -0.1059082747 0.6968417168
0.21525533 0.022438286 1.2426001 0.01608442701 0.7886174321 0.6146737933
0.26490688 0.046914693 1.2045716 0.07388379425 0.8347612619 0.5456324816
0.10458499 0.14369386 1.0719999 0.03902300075 0.7865573168 0.6162830591
0.3316665 -0.17718762 1.2738333 0.8327665925 -0.01080946717 0.5535187125
0.04940455 -0.31796262 1.4450001 0.7528660893 -0.1376970261 0.6436087489
-0.10485956 0.012336452 1.2416667 0.003891611006 0.7265034318 0.6871517897
0.31930831 -0.2408817 1.2780001 0.7983782887 -0.1216787174 0.5897341967
0.30466709 0.11048367 1.273 0.5690695643 -0.6893482804 0.4482842982
0.096753076 -0.41474554 1.3749093 0.6352121234 -0.05280454829 0.7705305219
0.01818908 0.16274616 1.092 0.3224254549 0.3875900805 0.8636062145
0.27843019 -0.30478367 1.307 0.6522443295 -0.2712624371 0.7078092694
0.39662507 -0.22525574 1.1755716 0.7762743235 -0.08322808146 0.624876976
0.3712683 -0.24503712 1.21 0.8501269221 -0.02343259938 0.5260561705
0.23719384 -0.22545271 1.3586428 0.6453633904 -0.1820942014 0.74185431
0.36813793 -0.28482586 1.2060001 0.8656789064 -0.0608930178 0.4968823791
0.16886458 0.15545018 1.0932001 0.09019146115 -0.2698175013 0.9586782455
-0.094930142 -0.044609472 1.3046666 -0.03482024372 0.7580595613 0.6512551308
