# .PCD v0.7 - Point Cloud Data file format
VERSION 0.7
FIELDS x y z normal_x normal_y normal_z
SIZE 4 4 4 4 4 4
TYPE F F F F F F
COUNT 1 1 1 1 1 1
WIDTH 206
HEIGHT 1
VIEWPOINT 0 0 0 1 0 0 0
POINTS 206
DATA ascii
-0.16703305 -0.28962612 1.748 0.1905440837 0.1545574516 -0.9694353938
0.49448645 -0.41269171 4.2410002 -0.09684960544 0.9256268144 0.3658349216
-0.3036072 -0.1285544 3.1200001 -0.2952387929 0.8117185235 0.5039316416
0.31767595 0.36031702 2.4320002 -0.5475860238 0.6538932323 -0.5220854282
0.49457705 -0.095303893 3.4329998 -0.239301607 0.8719268441 0.4271747768
-0.46739951 0.1548655 2.398 -0.2443555146 0.8825797439 0.4016756713
-0.15462998 0.49511328 1.6960001 0.6243647337 -0.3562366664 0.6951720119
0.31470054 0.10013199 1.8130001 -0.4247939587 0.7254299521 0.5415731668
0.31446385 -0.26428345 3.8160002 -0.1048346534 0.9283767343 0.3565477431
0.20213741 -0.34978563 2.0050001 0.7962651253 -0.03110308386 -0.6041476727
-0.14283705 0.3765704 2.1160002 -0.2299936861 0.9062087536 0.3548077643
0.25181812 0.49495286 1.9810001 -0.9242116809 -0.2840616107 0.2552287877
-0.054498855 0.095023662 1.594 0.4494037032 0.2870690823 0.8459478021
0.11249036 -0.21585988 3.4680002 -0.2674511969 0.8806627989 0.3910279572
-0.12288061 0.20406958 2.503 -0.2312621325 0.84490484 0.482341826
0.0073964358 -0.043809664 1.9470001 -0.4466590881 0.7647054195 0.4644580483
-0.49965003 -0.34186581 3.3330002 -0.3143038452 0.8178637028 0.4819875956
-0.35574257 0.0344267 2.618 -0.2278166562 0.8866990805 0.402323693
-0.36440402 0.32986337 1.9700001 0.8533435464 -0.4567276835 0.2514052391
-0.19717109 -0.01721335 1.7850001 0.5213952065 0.7110409737 0.4717708826
-0.083897002 -0.196724 3.3000002 -0.276870966 0.7817241549 0.5587931871
0.00326646 -0.44423854 1.863 0.7308639884 -0.1516580284 -0.6654604673
-0.37658706 -0.093514912 2.8830001 -0.4213544428 0.8466640711 0.3249928653
0.45168146 -0.36064488 3.9940002 -0.09684960544 0.9256268144 0.3658349216
0.36618543 -0.042579699 3.2380002 -0.2462471575 0.8771284223 0.4123204052
0.15635943 0.17676997 1.6630001 -0.496935755 -0.1120870337 0.8605180979
0.42459595 0.30984029 2.618 -0.3210178316 0.8832039237 0.3419040442
-0.13075395 0.29742932 1.6390001 -0.2096691132 -0.3651627004 0.9070253968
0.033016726 -0.24566685 1.9150001 0.5124824047 0.3908077478 -0.764611721
0.31016728 -0.17504491 3.5030003 -0.2703308761 0.8576809764 0.4373837709
0.044897605 0.038704835 1.7660002 -0.2188034952 0.9074171185 0.358774662
0.20366719 -0.01527504 1.9360001 -0.07654092461 0.8643635511 0.4970081747
0.31841937 0.44697374 2.256 -0.3173804581 0.8645985126 -0.389536947
0.18292175 -0.17408496 2.016 0.6646654606 0.6039055586 -0.4399067461
0.48377711 -0.24019702 3.8590002 -0.09752042592 0.920067966 0.3794267476
-0.10178889 -0.1518755 1.8430001 0.5423561335 0.3588907123 -0.7596362829
-0.0052183582 0.24421917 2.381 -0.2772276402 0.8515889049 0.4449057579
-0.2522696 0.21442917 2.398 -0.241745919 0.8754900098 0.4184210598
0.41105497 -0.23627569 3.6920002 -0.172102496 0.9343185425 0.3121370673
-0.24412361 -0.21573713 3.2380002 -0.275552541 0.7986344695 0.5350269079
-0.11549522 -0.43380374 1.766 0.3705146611 -0.3026988506 -0.8781186342
-0.17348181 -0.078608945 3.0920002 -0.2962219417 0.8057287335 0.5128877163
0.36284795 -0.10324942 3.3650002 -0.250805378 0.8760554194 0.4118538797
0.18423499 0.07740967 1.7659999 -0.3127246201 0.7927259207 0.5232484341
-0.085198849 0.014947167 1.705 -0.3414638638 0.8711279631 0.3529001176
-0.21829526 -0.15946391 1.766 0.3103647232 0.6225095987 -0.7184396982
-0.056242544 -0.3149583 1.8330001 0.6472936869 0.1214092448 -0.752509594
0.014329117 -0.10603546 3.2690001 -0.2211142778 0.8397958279 0.4958341122
0.12325758 -0.43055731 1.9260001 0.4346419573 0.06298905611 -0.8983978629
-0.43715158 -0.26967144 3.2380002 -0.3143038452 0.8178637028 0.4819875956
-0.068026699 -0.021961376 1.8330001 -0.3396632671 0.8877568841 0.3106711805
-0.4002299 -0.19071357 3.0640001 -0.439752996 0.8127613664 0.3821468651
0.056584451 0.1010782 1.6550001 -0.4564733505 0.7503558397 0.4781194031
0.12800735 -0.0622258 2.0280001 0.9612636566 0.2603102028 0.09061365575
0.10344579 0.0082099829 1.8730001 -0.04227396101 0.8930152655 0.4480363727
-0.25360212 0.056106668 2.5600002 -0.2351512313 0.886321485 0.3989211917
0.47468606 -0.14581859 3.5390003 -0.2124385685 0.8583603501 0.4669982195
0.25791022 0.16495726 1.7326 -0.6239524484 -0.1648739278 0.7638716698
0.080717333 -0.14769554 1.9590001 0.4918314815 0.377297014 -0.784696579
-0.1261348 0.25016734 2.398 -0.2523539066 0.8652049899 0.4332872927
0.13610315 -0.26662478 1.9589999 0.5990254879 0.1707491577 -0.7823126912
-0.1216112 0.18456288 1.6320001 0.000375414209 -0.6242296696 0.7812407613
0.46904734 -0.014749916 3.3650002 -0.2379707694 0.8792349696 0.4126933515
0.051472608 -0.35034579 1.8940001 0.329469353 0.09347946197 -0.9395272732
-0.021824619 -0.14605705 1.9150001 0.5677344203 0.2951841354 -0.7684685588
-0.21385056 0.16261552 2.5410001 -0.2159763873 0.8522847295 0.4764083922
0.40934986 -0.31462428 3.8590002 -0.09752042592 0.920067966 0.3794267476
-0.15210722 0.3960619 1.6630001 -0.1896922737 -0.2081815749 0.9595192671
0.23879611 0.04386051 1.853 -0.09079598635 0.8726943731 0.4797505736
0.029198259 0.16267602 1.5860001 -0.3788914382 0.04497884586 0.9243474603
-0.10596094 -0.2356445 1.804 0.6080590487 0.3018454611 -0.7342707515
-0.12590335 0.05150592 1.6320001 -0.02692605741 0.8438173532 0.5359545946
-0.043923412 -0.22495353 1.8730001 0.5754480362 0.3075936735 -0.757790029
-0.31426835 0.11982894 2.5790002 -0.2351512313 0.886321485 0.3989211917
0.01469907 -0.0048996899 1.863 -0.2139509916 0.9048324227 0.3681076467
-0.18440039 -0.37748447 1.748 -0.02133805864 -0.4990221262 -0.8663265109
-0.0103096 0.051548 1.6800001 -0.4333927929 0.8010668755 0.4128711224
-0.052450091 -0.39893857 1.8130001 0.5588348508 0.0627900511 -0.826898396
0.10416378 0.081519485 1.7220001 -0.2884282172 0.8477634192 0.4450914264
0.090464108 -0.03243053 1.9470001 -0.1191366017 0.9034020305 0.4119116366
-0.20296673 -0.10068429 1.8230001 0.9743538499 0.1161024943 -0.1927556396
-0.13909368 -0.19586661 3.2380002 -0.2941987514 0.7689798474 0.5675535798
0.15105318 -0.34453702 1.9360002 0.4929645956 0.1263585538 -0.8608248234
-0.10992172 -0.34524712 1.7660002 0.5799707174 0.09213671088 -0.8094101548
0.20213741 -0.26541522 2.0050001 0.8608415723 0.08903202415 -0.5010240674
-0.10576545 -0.11919598 1.9150001 0.01771713607 0.937933147 -0.3463631868
-0.034989171 0.012075908 1.766 -0.3006458879 0.8758799434 0.377420634
0.11703149 0.042700678 1.8040001 -0.1969086379 0.8963667154 0.397182256
0.19618157 0.1236878 1.705 -0.4213433862 0.7716687918 0.4764420688
-0.11766269 -0.020126512 1.766 -0.3027757704 0.9181562066 0.2555700541
0.10058523 0.15725295 1.6160001 -0.6313695908 0.1236477941 0.7655609846
0.40823123 -0.053636219 3.3990002 -0.2379707694 0.8792349696 0.4126933515
-0.16720489 -0.21519887 1.766 0.2527399063 0.209784463 -0.9445173144
-0.17339766 0.47684354 1.766 0.8988471627 -0.1481202096 0.4124732912
0.25700009 0.097536176 1.766 -0.3310934603 0.7339652181 0.5930195451
-0.13658905 -0.049814831 1.8330001 -0.2575533688 0.8941415548 0.366301924
-0.25209075 -0.084030256 3.0920002 -0.2962219417 0.8057287335 0.5128877163
0.34426701 -0.075218 3.3000002 -0.250805378 0.8760554194 0.4118538797
0.36787388 -0.14897372 3.4680002 -0.2349166423 0.8648407459 0.4436943233
-0.0082538165 -0.29548663 1.883 0.6978376508 0.0921285674 -0.7103062272
0.17405164 0.018061964 1.8730001 -0.2436663359 0.8698484302 0.4289411008
-0.046180461 -0.045067679 1.9039999 -0.344838202 0.8054481149 0.4820165634
0.13643563 -0.19515477 1.9700001 0.2832707167 0.1958660185 -0.9388259649
-0.0048996904 -0.37400967 1.863 0.7435390353 0.2069312483 -0.6358688474
0.064281456 -0.44237977 1.8940001 0.3371087313 -0.2072587162 -0.9183689356
0.18032596 -0.40015188 1.9590001 0.6593737602 0.1601056457 -0.7345695496
0.077223815 -0.29107437 1.9360001 -0.0132534774 0.2081765234 -0.9780014753
-0.15510932 -0.15608254 1.8040003 0.1913493574 0.6671841145 -0.7198963761
0.12451734 0.11768111 1.6710001 -0.3233370483 0.8014215231 0.5031666756
-0.45612964 -0.30569366 3.3000002 -0.3143038452 0.8178637028 0.4819875956
-0.11143398 0.12412898 1.6090001 -0.6374557614 -0.1791207492 0.7493770123
0.15197894 -0.044902869 1.9700001 -0.2448978275 0.6614723206 0.7088578343
0.13182876 -0.13534418 2.0050001 0.3457807302 0.6651164293 -0.6618578434
-0.078334548 0.20959786 2.4150002 -0.2312621325 0.84490484 0.482341826
0.33109158 0.42859092 2.3170002 -0.3849989772 0.816160202 -0.4308808446
0.083164103 -0.20875888 1.9360001 0.3666945994 0.2034644336 -0.9078200459
-0.31696057 -0.099385947 3.0640001 -0.2952387929 0.8117185235 0.5039316416
0.0047223107 0.095862925 1.6160001 -0.431085825 0.7630273104 0.481616348
-0.064974152 0.047647711 1.647 -0.1890367717 0.8301981091 0.5244389176
0.025458399 -0.18160325 1.9360001 0.2352319211 0.198500365 -0.9514533877
0.02389618 -0.11777403 1.9470001 0.3785207272 0.4886269867 -0.7861079574
0.059132043 0.020776123 1.8230001 -0.2346158773 0.9201170206 0.3135922551
0.30344588 0.14088559 1.766 -0.6289622188 0.2457250506 0.7375810146
-0.20680916 -0.043623809 1.8430001 0.9423791766 -0.225383386 0.2472322136
-0.14416608 0.0045051901 1.7130001 0.1145455092 0.8605232835 0.4963657558
0.042599425 0.066514887 1.705 -0.3637214303 0.8320845962 0.4187385142
-0.26852825 0.061968058 2.618 -0.2351512313 0.886321485 0.3989211917
0.10352703 -0.37549531 1.9150001 0.299146533 0.1973206848 -0.9335823059
-0.095937133 -0.2945517 1.7939999 0.4983942807 0.2626695037 -0.8262008429
0.05508272 -0.01502256 1.9039999 -0.02432328835 0.89689821 0.4415676296
0.32859308 -0.11976757 3.5030003 -0.2375807017 0.8526932001 0.4652630389
-0.065884128 -0.45154732 1.8330001 0.2447288483 -0.7363645434 -0.6307733655
0.4958865 -0.3856895 4.1900001 -0.09684960544 0.9256268144 0.3658349216
0.1751515 0.045456745 1.8130001 -0.2201339155 0.8601533771 0.4600839317
-0.054733217 -0.16693634 1.8730001 0.5588464141 0.1648316234 -0.8127245903
-0.22064385 -0.22220871 1.7850001 -0.5219683647 0.1103599593 -0.8457952738
0.14605705 -0.008394083 1.9150001 -0.1484070718 0.8952905536 0.4200358987
0.12934165 -0.089263953 2.0780001 0.9673109055 0.1010878682 0.2325743288
-0.12451735 0.34718367 1.6710001 0.08200066537 -0.229046151 0.9699555635
0.23411734 0.0066416264 1.8940001 0.06801819801 0.723942101 0.6864993572
0.2269462 0.067214034 1.8040001 -0.1217504889 0.8477256894 0.5162731409
-0.13545026 0.44474179 1.6840001 -0.0523651652 -0.3445705771 0.9372987747
-0.00476819 0.007946983 1.8130001 -0.3100297749 0.9108473063 0.2724677622
0.29309958 0.053607289 1.8529999 -0.0826337412 0.7920219898 0.6048741937
-0.022148106 0.1439627 1.5790001 -0.2583355904 -0.1045282632 0.9603835344
0.17344348 -0.30519146 1.9700001 0.5814878941 -0.0240606796 -0.8131992221
0.21226555 0.1718781 1.6853334 -0.5826593637 0.007579887286 0.8126811385
-0.084708668 -0.20473187 1.8430002 0.5979385972 0.2793517411 -0.7512869239
0.42571282 -0.34956908 3.9480002 -0.1075269207 0.9279061556 0.3569706976
-0.38328391 0.080328964 2.618 -0.2278166562 0.8866990805 0.402323693
0.15505955 0.095968708 1.7220001 -0.3063934147 0.7690450549 0.560974896
-0.073597386 -0.26450068 1.8329999 0.661560595 0.2693227232 -0.6998591423
-0.21190874 -0.26526707 1.7390001 0.4221955836 0.04045684636 -0.9056015611
0.003809555 0.03730699 1.737 -0.3594337702 0.8803977966 0.30936566
-0.077173844 -0.11986575 1.8730001 0.218623355 0.6663017869 -0.7129135728
0.041510165 -0.29057115 1.8940001 0.4445064962 0.1052513123 -0.8895707726
-0.088247016 -0.39169291 1.766 0.5487573147 -0.100436829 -0.8299264312
0.054626636 0.12581415 1.6080002 -0.3541581929 0.5887402892 0.7266064286
-0.20332004 -0.3219234 1.7570001 0.3365148902 0.1950205415 -0.9212625623
0.034666032 -0.40443698 1.8830003 0.2672564983 -0.04181827232 -0.9627175927
0.17193098 -0.22750464 1.9810001 0.5873644352 0.1035090312 -0.8026760817
-0.074330814 -0.35583901 1.804 0.6041511297 0.2298841178 -0.7629906535
-0.13550912 -0.38288441 1.748 0.3017176986 -0.1512720138 -0.9413199425
-0.13655064 -0.25607115 1.766 0.5389775038 0.1982409358 -0.8186597228
0.021971313 -0.15379919 3.2690001 -0.2246206105 0.8433667421 0.4881373644
0.13469283 0.066572316 1.7659999 -0.1883071512 0.8054973483 0.5618847013
-0.28688917 0.11246055 2.618 -0.2351512313 0.886321485 0.3989211917
-0.089693516 0.082574986 1.6240001 -0.4099262059 0.3091737926 0.8581212759
-0.15661263 -0.33621147 1.7479999 0.1680853069 0.2539843321 -0.9524911046
-0.0083458666 -0.21866171 1.904 0.7673891783 0.1378937066 -0.626178205
-0.1318419 0.024903471 1.6710001 -0.2079929709 0.8774008751 0.4323270023
0.41401723 -0.33189809 3.9030001 -0.1075269207 0.9279061556 0.3569706976
0.32423693 -0.24483196 3.7740002 -0.1048346534 0.9283767343 0.3565477431
0.27456829 0.075098991 1.813 -0.2947457731 0.802317977 0.5190479755
0.4892931 -0.25662225 3.9030001 -0.09684960544 0.9256268144 0.3658349216
-0.11602595 -0.18595941 1.813 0.700940609 0.2360258251 -0.6730335355
-0.46609735 -0.33334813 3.3650002 -0.2732037306 0.821079433 0.5011868477
0.10412169 -0.32812408 1.9260001 0.2931616008 0.08154958487 -0.9525785446
-0.15349118 -0.13087143 1.8430001 0.296507746 0.7234529853 -0.6234571934
-0.0038947377 -0.026150383 1.9039999 -0.3175866902 0.83842206 0.4429301322
-0.036959391 -0.35673845 1.8330001 0.5750359893 0.2468253523 -0.7800069451
0.40470529 0.32331204 2.5790002 -0.5766426325 0.7674887776 -0.2800789773
0.13491067 0.026658993 1.8430001 -0.13391985 0.8540087342 0.5027270913
0.49442509 -0.12590949 3.5030003 -0.2124385685 0.8583603501 0.4669982195
-0.023789227 0.065637439 1.6348002 -0.4456321597 0.820874095 0.3571801186
-0.034539789 0.03153633 1.7129999 -0.2864355147 0.9027436972 0.3209494054
-0.15884674 -0.042463981 1.794 -0.1168603376 0.8281053901 0.5482563972
0.21607026 0.10573651 1.748 -0.142561093 0.7601361871 0.6339316368
0.053538032 -0.044902865 1.9700001 -0.05912297592 0.848669827 0.5256082416
-0.034297831 -0.022865221 1.863 -0.3231421113 0.8831068277 0.3401492536
-0.08275032 0.0015324133 1.748 -0.3418127298 0.8821130395 0.3240997195
0.084716685 0.055964354 1.7570001 -0.3619863093 0.8294255137 0.4254635274
0.018952657 0.080184318 1.6630001 -0.3298496306 0.8363669515 0.4378235936
-0.017676231 -0.41619489 1.8330001 0.7054845691 -0.1031247973 -0.701182425
-0.16327216 -0.020023944 1.7570001 0.2038790882 0.8240294456 0.5285913944
-0.033364557 -0.26621649 1.863 0.6398448944 0.09033196419 -0.7631766796
-0.19549578 -0.142251 1.8130001 0.1541314125 0.7020952106 -0.6952020526
0.17650282 -0.35335103 1.97 0.6693364382 0.07431046665 -0.7392338514
0.41550845 -0.25192243 3.7320001 -0.1298599243 0.9286114573 0.3475876749
0.17285937 0.13770154 1.6710001 -0.4217873812 0.4568901956 0.7831645608
-0.12628834 -0.30543643 1.7659999 0.5355128646 0.3320865333 -0.7764950395
0.013206107 -0.33510494 1.8830003 0.3889730573 0.1433205903 -0.9100325108
0.4742837 -0.11249036 3.4680002 -0.2333686501 0.8660029173 0.4422420263
0.10353082 -0.24609786 1.936 0.2562583983 0.08587632328 -0.9627860188
-0.084403709 -0.42621255 1.794 0.6086892486 -0.341816932 -0.7160018086
0.30094478 -0.19545896 3.5390003 -0.265930444 0.8883867264 0.3742325008
