# .PCD v0.7 - Point Cloud Data file format
VERSION 0.7
FIELDS x y z normal_x normal_y normal_z
SIZE 4 4 4 4 4 4
TYPE F F F F F F
COUNT 1 1 1 1 1 1
WIDTH 206
HEIGHT 1
VIEWPOINT 0 0 0 1 0 0 0
POINTS 206
DATA ascii
-0.014233559 -0.091727383 1.804 -0.2503899038 0.8648065329 0.4352177978
0.42435312 -0.23775813 3.4330001 -0.07736287266 0.9221965075 0.3789044321
-0.46251968 -0.27548987 2.8830001 -0.2611223757 0.7448524833 0.6140112877
0.26904988 0.1062634 2.5790002 -0.2036755383 0.8816332817 0.4257217944
-0.45609373 0.079765268 2.3330002 0.1109491065 0.9717081189 0.2085031867
-0.4541221 0.35304332 1.6710001 -0.8194071651 -0.535831809 -0.2036079466
0.046600971 0.47565126 1.8330001 0.9389070272 0.3109576106 -0.1475092471
0.01597462 -0.15708376 3.0370002 -0.3172374368 0.8905066848 0.3261261284
-0.48891699 -0.49470299 3.3000002 -0.1733544171 0.788731873 0.5897883177
-0.19042778 -0.49232548 1.766 0.2268979847 0.1811776012 0.9569179416
-0.047150638 0.17877951 2.2410002 -0.3077645898 0.8937286735 0.326389432
-0.30029604 -0.0052915597 1.5090001 0.1433873028 0.5631582737 0.8138138056
0.21546538 -0.42621255 1.794 -0.4034350812 0.5477070808 0.7329782248
0.44320759 -0.094013736 3.0640001 -0.0534093231 0.918315053 0.3922307193
-0.37608036 0.068843752 1.9470001 -0.692329824 -0.6008135676 0.3996278644
0.070774615 0.12369022 1.5090001 -0.2402336597 -0.2001318783 0.9498605132
-0.25121671 -0.3450779 3.1490002 -0.1713020355 0.7057406902 0.6874486804
0.22425309 -0.17315744 3.2380002 -0.1444403231 0.9151607156 0.3763214946
-0.2619296 -0.22175634 1.8330001 0.1730913371 0.1272557676 0.9766500592
0.31066874 -0.01242675 2.835 -0.09590709955 0.9022535682 0.4204049408
0.19281845 0.2508713 2.365 0.7536537647 0.6418254375 -0.141655013
0.0554404 0.32012358 2.0400002 -0.6547151208 0.6820291281 0.325859338
0.067532264 0.33191389 1.6390001 0.3777581155 -0.2928952277 0.8783571124
-0.0079075331 -0.34002393 1.8040001 -0.2454248816 -0.3517779708 0.9033376575
0.20562129 -0.18809496 1.7850001 -0.1988262832 -0.2134599984 0.9565055966
-0.47653672 0.29057115 1.8940001 -0.8422189355 -0.5126321912 -0.1669594198
-0.49062824 -0.39304474 3.0920002 -0.14504008 0.7310146689 0.6667690277
-0.094037406 -0.0098248031 1.6010002 -0.2334179282 0.8170389533 0.5272223949
0.15242077 0.0073990668 1.6880001 -0.4694542885 0.8007718921 0.3719906509
-0.40203246 0.14569727 1.6390002 0.6245700121 0.04054266587 0.77991575
-0.24783541 0.13074782 2.2260001 -0.1152090579 0.9717847705 0.2058184296
-0.25196451 -0.10986825 1.6710001 -0.2588242888 0.8434402347 0.4707637727
-0.055212468 -0.28710482 3.1490002 -0.3067174852 0.7532873154 0.5817925334
-0.37007868 -0.27423099 3.0370002 -0.2735177577 0.7327708006 0.623085022
0.27707049 -0.12402203 3.0100002 -0.0531510897 0.9118869305 0.4069855213
0.44802371 -0.19392072 3.2690001 -0.07736287266 0.9221965075 0.3789044321
0.054493602 -0.49553794 1.7760003 0.0315965265 0.04655845836 0.9984157085
-0.092027634 0.10769193 1.4890001 0.1543128192 -0.1701351553 0.9732633829
-0.49206248 0.13211016 2.184 -0.5231372118 -0.8234695196 -0.2196028084
-0.1625603 -0.32976517 1.766 0.1949901134 -0.4355506003 0.8787915111
0.13410282 -0.058972929 1.8430001 0.45832479 0.6797481179 0.5726088881
0.12500653 0.1824808 1.6390001 -0.7673300505 -0.1941121966 0.611166954
-0.37404209 -0.41341496 3.2080002 -0.1701388359 0.781855166 0.5997959971
-0.42623535 0.17466708 2.0400002 0.8790958524 -0.01910666749 0.4762619436
0.096910238 0.21953136 2.256 0.8289622664 0.5509964824 -0.09604419023
0.019237572 0.47649989 1.6880001 0.9338823557 0.3202604055 0.1590502113
-0.15648763 -0.12503283 1.794 -0.262108624 0.8529100418 0.4514903724
0.064089149 -0.21585858 1.7939999 0.4867147803 0.02349149622 0.8732450008
0.044913389 0.02105315 1.6010001 -0.1035735309 0.8810599446 0.4615256488
0.32299292 -0.17391928 3.1490002 -0.06128882989 0.9139744639 0.401116401
0.1346928 -0.32512057 1.7660002 0.2407593727 -0.1422392428 0.9601056576
-0.074330814 -0.22615544 1.804 -0.004909184761 -0.3072535098 0.9516150355
-0.06777335 -0.45438948 1.7570001 -0.1546690166 -0.164779827 0.9741278887
0.1832584 -0.1449656 3.1200001 -0.2490132451 0.9299910069 0.2703870237
-0.35842341 0.028333865 1.6160001 0.2482469231 -0.2779907882 0.9279518127
-0.10383503 -0.19435787 3.0370002 -0.2190450281 0.6679390669 0.7112500668
-0.17753184 0.017726725 1.5090001 -0.3559653163 0.5955632925 0.7201340795
-0.0044604801 -0.037170667 1.6960001 -0.2377972305 0.8778736591 0.4156806171
0.25194085 -0.31453484 1.7850001 -0.4633058906 -0.1696807295 0.8698023558
-0.35637289 0.077645488 2.2710001 0.1429957002 0.9680818319 0.2058392018
-0.12489344 -0.069880851 1.6960001 -0.2696872056 0.8795470595 0.3920022845
-0.33584341 -0.083844401 1.594 0.2870352268 0.3413673937 0.8950302005
0.14113808 0.078254774 1.5940001 -0.7588646412 -0.09169278294 0.6447611451
-0.20402136 -0.048909232 1.5940001 -0.2982321084 0.8378835917 0.4571747184
-0.41930529 0.25100282 1.6550001 -0.4993600547 -0.3883892894 0.7744632363
0.084282734 -0.044439986 1.748 -0.108372882 0.890142858 0.442607075
-0.26264757 -0.31612074 1.794 0.5825368166 -0.1529610008 0.7982817888
-0.015062667 0.055237234 1.5275002 -0.2420680821 0.7635427117 0.598669827
-0.2726337 -0.15865125 1.7570001 -0.27877599 0.8849568367 0.373008579
0.14416344 -0.4537355 1.7310001 -0.1979593039 0.2483035922 0.9482391477
0.065024123 -0.39478931 1.7660002 0.09951041639 -0.04583763704 0.9939801693
-0.17006545 -0.23999889 1.8130001 0.5128537416 -0.6655102968 0.5422887206
-0.22397196 -0.40304634 1.7659999 0.6857141852 0.03364088386 0.7270930409
-0.48755816 -0.43183723 3.1780002 -0.1377963424 0.7325600982 0.6666092277
-0.0080784829 -0.17449525 1.8430001 0.2092909664 -0.8230535388 0.5279964209
-0.47658053 0.31107992 1.748 0.9338415265 -0.1324629486 0.3322553039
0.37464789 -0.26549849 3.3650002 -0.07736287266 0.9221965075 0.3789044321
0.1247707 -0.15517701 1.794 0.2306373566 -0.5822637677 0.7795994282
-0.085150629 -0.36382544 1.7659999 -0.1766704172 -0.4313933849 0.8846961856
0.14398198 -0.23996997 1.7660002 0.1617335528 -0.2394481599 0.9573436379
-0.14478852 -0.42446357 1.7570001 0.07796166837 -0.1589637995 0.9842014313
0.074710406 -0.01025437 1.6710001 -0.1848793477 0.8894799352 0.4179056287
-0.085150637 -0.085150637 1.766 -0.2516928017 0.9071002603 0.3373719156
0.093964636 0.25769091 1.6240001 0.09691047668 -0.2097814232 0.9729337692
0.050780915 0.41059998 1.6550001 0.3715752363 -0.2027284354 0.9059983492
-0.095043816 0.037481006 1.5270001 -0.05722552165 0.7802945375 0.6227886677
0.055160966 -0.29614782 1.785 0.371108681 -0.3265326321 0.8692840934
-0.19323136 -0.10718302 1.7220001 -0.487562269 0.7738098502 0.4043529928
0.12238354 -0.49430236 1.8130001 -0.1815416217 0.7633861899 0.6199066043
0.2145256 -0.22009769 3.1780002 -0.1879449636 0.9097927213 0.3700728416
0.17532018 -0.38417989 1.7390001 -0.3373962939 0.02076021023 0.9411337376
-0.007946983 -0.26225045 1.8130001 -0.2542252243 -0.2255012393 0.9404885769
-0.0078689596 0.12328037 1.4960001 -0.2987105846 -0.02010993473 0.9541318417
0.0015569599 -0.43439183 1.7760001 -0.02425735444 -0.1658324003 0.9858555794
-0.27279761 -0.38529149 3.2080002 -0.1491374373 0.6826316714 0.7153824568
-0.27330723 -0.058043513 1.5640001 -0.1657548398 0.8197094798 0.5482715964
-0.24520014 0.044822428 1.5037501 0.1631149501 0.05743744969 0.9849337339
-0.10537358 -0.29410237 1.794 -0.07124141604 -0.2320036739 0.9701025486
0.083915539 0.064681105 1.5509999 -0.3248002827 0.6898293495 0.6470241547
-0.16139257 0.088633627 1.5090001 0.217706129 -0.2626763582 0.9400027394
-0.025468532 -0.007434913 1.6240003 -0.3052783608 0.8305310011 0.4658577144
-0.40500015 0.12474984 1.9930003 0.6178781986 -0.2504244447 0.7453281879
-0.12348638 -0.49547008 1.7390001 0.1956900358 -0.2392023504 0.9510455728
0.055628885 -0.081059232 1.8130001 -0.1667696089 0.8439570665 0.509827733
0.1719415 -0.12051975 1.8330001 0.5656147599 -0.2641931772 0.7812054157
-0.14519897 -0.045537397 1.6334002 -0.2645455003 0.8622645736 0.4318743646
0.057313833 -0.15587221 1.8330001 0.2128337473 -0.9073995948 0.3623917699
-0.49392453 -0.46553802 3.2380002 -0.1460359395 0.7401562929 0.6563856602
0.24132881 -0.24755664 1.7760001 -0.3137025535 -0.1611720324 0.9357426167
-0.39304474 -0.30630383 3.0920002 -0.1994896382 0.6819597483 0.7036581635
-0.074352726 -0.039363209 1.6630001 -0.3189825714 0.8663421869 0.3843192756
-0.095889799 -0.11986225 1.8230001 -0.2960813642 0.8086445928 0.5083598495
0.45278782 -0.16592845 3.2080002 -0.08766164631 0.9277819991 0.3626789153
-0.18496177 -0.33403543 3.1490002 -0.2035720795 0.7355110645 0.6462057829
0.32341987 -0.2053013 3.2080002 -0.06128882989 0.9139744639 0.401116401
0.10962541 0.021355599 1.6240001 -0.2843954563 0.8326471448 0.4752031267
-0.15375884 -0.0084655946 1.5719999 -0.2259653956 0.7868385315 0.5743037462
-0.20296673 -0.16141449 1.8230001 -0.5066593885 0.7863710523 0.3534358144
-0.22756864 -0.020198399 1.536 -0.2665605545 0.7434516549 0.6133719087
0.01386273 -0.056991223 1.7570001 -0.1061943695 0.9137715697 0.3921024203
-0.37097639 0.09732841 1.6090001 0.0396310091 0.05693838373 0.9975907803
-0.19586925 -0.082700349 1.6550001 -0.3889252245 0.8461848497 0.3642916083
-0.20656022 -0.28480271 1.785 0.02108747326 -0.3491184711 0.9368413091
0.23935015 -0.37960631 1.7390001 -0.3197971582 -0.03487038985 0.9468441606
0.19352417 -0.2988013 1.766 -0.3283909261 -0.2706059515 0.9049485326
-0.31043205 -0.10829025 1.6470001 -0.08719872683 0.878084898 0.4704926312
-0.045477957 0.0206718 1.572 -0.1501752436 0.8379892707 0.5246155262
-0.32952321 -0.018075114 1.5860001 0.6405965686 0.04433726519 0.7665964961
-0.01393374 -0.49387372 1.7659999 -0.30857265 0.1769943088 0.9345886707
-0.25453258 -0.08452937 1.6160001 -0.243834123 0.8553741574 0.4570338428
0.11333546 0.12608571 1.6160001 0.4216626585 -0.005581434816 0.906735599
-0.21581817 -0.14460126 1.766 -0.4993862212 0.7832809091 0.3702491224
0.1377068 -0.04851035 1.7850001 -0.2320896387 0.9273436069 0.2935442328
-0.4521496 0.29308721 1.6799999 -0.1246556565 -0.2554830313 0.9587436318
-0.12373361 -0.21050783 1.8330001 0.3279469609 -0.7606235147 0.5602701902
0.094439797 -0.45516887 1.7660002 0.1073646024 0.2021564245 0.9734503627
0.12476458 -0.40509981 1.7570001 0.3820783496 -0.04230679199 0.9231610298
-0.056610748 -0.062649235 1.7220001 -0.2557587326 0.8871305585 0.3841703236
-0.064277202 -0.17836922 1.8330001 0.3070029914 -0.1907026619 0.9324063659
-0.024771092 -0.38550016 1.7660002 -0.05376649648 -0.2351070493 0.9704812169
-0.22360335 -0.34568945 1.7659999 0.4515668452 -0.03594336659 0.89151299
-0.39715937 0.203601 1.6355001 0.1756083667 -0.1318827868 0.9755862951
0.13533892 -0.025853779 1.7345557 -0.321070075 0.7538664937 0.5732358694
-0.055216849 -0.31542903 1.785 -0.1691608727 -0.2117051035 0.962582767
0.024545789 -0.00721935 1.6470001 -0.1366961747 0.8775364757 0.4596127272
0.033757277 0.077880956 1.516 -0.2393598109 0.6285938621 0.7399842143
0.2024048 -0.35187298 1.7760001 -0.004496120382 -0.331448406 0.9434626102
0.10535429 -0.27765787 1.7760001 0.05522227287 0.1034378409 0.9931017756
-0.14404684 -0.099606864 1.748 -0.3305672109 0.8500692844 0.4100092053
0.20616746 -0.16716281 3.1780002 -0.1960216761 0.9287674427 0.3145895302
0.085632801 -0.34408814 1.7760001 0.136999011 -0.241897434 0.9605815411
-0.27178684 -0.17324424 1.8130001 -0.3562366962 -0.7744963169 -0.522734046
-0.24292083 -0.2700896 1.8230001 0.3531368375 -0.5144741535 0.7814158797
0.01430457 -0.21456856 1.813 0.1366457343 -0.1264037639 0.9825223088
-0.043598913 0.085370325 1.4890001 -0.0754698813 0.2971099913 0.9518560767
0.045051899 -0.034539789 1.7130001 -0.1645739526 0.8968061209 0.4106753469
-0.24304883 -0.13435619 1.7220001 -0.2867098749 0.8926123977 0.3479087651
0.16815168 -0.44684753 1.7760001 -0.3098514378 0.3459400535 0.8856170774
-0.12110098 -0.24534744 1.794 0.01802981831 -0.2951521277 0.9552801251
0.30073786 0.0073350701 2.789 -0.09590709955 0.9022535682 0.4204049408
-0.13439147 -0.37467882 1.7570001 -0.2143374234 -0.3398943543 0.9157135487
0.024911359 -0.36588562 1.7760004 0.2765923142 -0.269628346 0.9223867059
-0.15525191 -0.28376725 1.7939999 -0.02642464451 -0.318893522 0.9474220872
0.093096741 0.21017294 1.6090001 -0.2024410069 -0.2886378467 0.9357915521
0.014533731 0.038665209 1.5640001 -0.1168694794 0.8450407982 0.5217734575
-0.32623219 -0.40216556 3.2080002 -0.1699375212 0.7050555348 0.6884896159
0.11403271 0.1031293 1.5546666 -0.8837168217 0.1386556476 0.4470113814
-0.18361571 -0.3755917 1.766 -0.1137313768 -0.01176717784 0.9934418201
0.11579891 -0.20499535 1.7850001 0.2825270891 -0.3087601662 0.9082100987
-0.44231865 0.33362603 1.7220001 -0.4757503569 -0.8189072013 -0.3210181296
-0.09434358 -0.41395655 1.7570001 -0.09316134453 -0.05929874256 0.9938836098
-0.1377068 0.048525251 1.4960001 -0.1187095121 0.511200726 0.8512237668
0.19461998 -0.23510095 1.7760001 -0.2985853553 -0.2640215456 0.9171365499
-0.33039111 -0.276669 3.0640001 -0.1669621021 0.6717168689 0.7217479348
-0.19521309 -0.44461298 1.766 -0.01288601384 0.1422600895 0.9897454381
-0.16318536 -0.143797 1.8430001 -0.3506022096 0.8841232657 0.3088755608
-0.056407068 -0.27149197 1.8040003 0.01464116573 -0.2585226297 0.9658942223
0.17300141 -0.14783755 1.794 -0.1900546998 -0.6861305237 0.7022137046
-0.28249705 -0.13678806 1.6960001 -0.2427560091 0.8265598416 0.507807374
-0.11243074 0.01233996 1.5640001 -0.2174287736 0.7859464884 0.5788028836
0.035921417 0.36927217 1.6390001 -0.1468461454 0.07778897136 0.9860959053
-0.035608448 -0.075861476 1.7660002 -0.1571940929 0.9012870193 0.4036976397
0.044897605 -0.44471854 1.7659999 0.006061461754 0.02713909745 0.9996132851
0.26001233 -0.36277169 1.7760001 -0.3024365902 -0.2355389893 0.9236089587
-0.20471725 0.064490885 1.5089999 0.2277967483 -0.3532092571 0.9073873758
-0.033211641 -0.20717736 1.8040003 0.166842103 -0.3165562153 0.9337857962
0.10164074 -0.023915466 1.705 -0.206463024 0.8806068301 0.4265027642
-0.31382564 -0.031112023 1.5430001 0.3696176708 0.6245036125 0.6880246997
0.093156345 0.037540618 1.5860001 -0.1659225971 0.8173395991 0.5517478585
0.03479315 -0.25462255 1.8040003 0.1863120198 -0.2178070098 0.9580438137
-0.043387111 -0.10766431 1.8330001 -0.2151083201 0.8506174684 0.4797690511
0.15413903 -0.18527824 1.7760001 -0.0369280614 -0.1844112277 0.9821552038
0.040144321 0.43861386 1.6960001 0.9757527709 0.2180380523 0.01912952401
0.083819844 -0.17554724 1.804 0.119029209 -0.3400046527 0.9328606129
0.11590278 0.0021868451 1.6630001 -0.2717758715 0.8468418717 0.4571616054
-0.11301811 -0.3266688 1.766 -0.2112237215 -0.36029616 0.9086095095
-0.16573909 -0.081389733 1.6880001 -0.3744749129 0.8320168257 0.4092878997
-0.14438115 0.02229305 1.5360001 -0.2333106846 0.7667062283 0.5981034636
0.017483363 -0.15735027 1.8130001 0.1903983802 -0.4516540766 0.8716404438
-0.11186618 -0.45512676 1.748 -0.08790425211 -0.1417794228 0.9859875441
-0.056262136 0.054490097 1.5159999 -0.08639330417 0.7665857077 0.6363038421
-0.084100559 -0.49382123 1.7570002 -0.171974048 -0.08810964972 0.9811531901
-0.0055896267 0.015371474 1.5940001 -0.2676492631 0.830732584 0.4881057143
-0.37519801 0.10491727 1.9700001 -0.6037274599 -0.6195629239 0.5016522408
-0.15557064 -0.4655917 1.7570001 0.06236600131 0.1654270589 0.9842481017
-0.42628881 0.1596752 1.6710001 0.6899413466 0.06458605826 0.7209782004
