# .PCD v0.7 - Point Cloud Data file format
VERSION 0.7
FIELDS x y z normal_x normal_y normal_z
SIZE 4 4 4 4 4 4
TYPE F F F F F F
COUNT 1 1 1 1 1 1
WIDTH 206
HEIGHT 1
VIEWPOINT 0 0 0 1 0 0 0
POINTS 206
DATA ascii
0.13457163 0.40509066 1.2543752 0.3314591646 -0.472428441 0.8166677356
-0.47268465 -0.47268465 2.256 -0.06945252419 0.7353796363 0.6740868688
-0.026909867 -0.49840108 1.2970001 0.2000228465 -0.2958860397 0.9340462089
0.36535871 -0.18717885 2.0530002 -0.1033144519 0.7696365118 0.6300680637
-0.33840472 0.081945539 1.7310001 0.977411747 -0.2019116431 0.06243348867
-0.22147755 -0.0029929399 1.138 0.2591825724 0.4404455125 0.8595534563
0.31270048 -0.095501877 1.245 0.3855729997 0.2640781105 0.8840792775
0.36769503 0.1931472 1.6320001 0.9373704791 0.1619815975 -0.3083804846
0.088263683 -0.48511839 2.2710001 -0.05395719409 0.7417119741 0.6685446501
0.32317477 -0.46390182 1.1336 0.7031758428 -0.09417212754 0.7047519684
0.11388163 0.1050536 1.0070001 0.05869380012 0.5811741948 0.8116598129
-0.29170907 0.21457644 1.4039999 0.6211191416 -0.2123850286 0.7543895841
-0.0046743872 -0.16944651 1.3330001 -0.1714596152 0.7367179394 0.6541011333
-0.42230085 -0.14187974 1.904 -0.1388710886 0.7364641428 0.6620690227
-0.15546632 -0.37402984 2.2260001 -0.06143066287 0.7272607088 0.6836066842
0.31287575 0.12434144 1.386 -0.3844988048 0.7112243176 -0.5884901285
0.19486058 -0.31427452 1.2941875 0.538815856 -0.2600417137 0.8012838364
0.10545202 -0.034856971 1.184238 -0.04121946171 0.777571857 0.6274415851
-0.40858802 -0.25651264 2.0900002 -0.07085642964 0.7398844957 0.6689919829
-0.20486452 -0.17304659 1.2662222 -0.4365975559 0.3983633518 0.8066530824
0.36183146 -0.26819295 1.161 0.5558288097 -0.2874555588 0.7800151706
0.058973365 -0.31769523 2.1700001 -0.04365462065 0.7326585054 0.6791949868
0.14050074 0.23450482 1.153 0.4407422245 -0.4926270247 0.7503765225
-0.2584466 0.042881269 1.322 0.1144742146 -0.6169614792 0.7786232829
-0.044685841 0.035172254 1.0845199 0.12664783 0.6264083982 0.7691377401
0.1654615 -0.4948574 1.2506523 0.3762372136 -0.4002485275 0.8356115818
0.028092491 -0.34146225 1.3540001 0.1001957804 -0.4518861771 0.8864308596
0.2439518 0.0047646831 1.087 -0.09925913066 0.6637898088 0.7413033843
-0.07531222 -0.074311174 1.2135791 -0.07274764776 0.7562173605 0.6502638459
-0.35176951 0.16267602 1.5860001 0.984916985 -0.1354459822 0.1076701507
0.16389571 -0.14277932 1.2970001 0.1079568267 0.706779182 0.6991484165
-0.33720982 -0.3487713 2.1980002 -0.06143066287 0.7272607088 0.6836066842
-0.050430249 -0.45387223 2.3010001 -0.06640380621 0.8176433444 0.5718827844
0.40694866 0.069551229 1.6880001 0.9364037514 0.1479679346 -0.3182035983
0.28378075 0.042368051 1.2765714 -0.2335502952 0.8079624772 -0.5409722328
0.32394877 0.20649146 1.5030001 -0.5524126887 0.7206172943 -0.4189880192
-0.064091347 -0.26502565 1.4113333 0.05652277172 -0.01210602652 0.9983279109
0.28145018 -0.22406213 1.2508334 0.7622833252 -0.2483001798 0.5977216363
0.28306097 -0.3649179 1.2047999 0.7632555366 -0.1632791162 0.6251247525
0.12907338 0.43547189 1.376 0.998895824 -0.003464916255 0.04685268551
0.075117737 0.03246551 1.0921819 0.01949656568 0.8081774116 0.5886163116
0.075139865 -0.43502316 1.2952354 0.2690044045 -0.3461903632 0.8987707496
-0.05471715 -0.43165752 1.3870001 0.9134810567 0.01994786784 0.4063919187
0.03521705 -0.095179036 1.2523078 -0.0158934202 0.7678950429 0.6403785348
0.21496567 -0.057956435 1.202 0.01382288989 0.8033158779 0.5953927636
0.377341 -0.36861071 1.1065 0.5791112185 -0.1714262515 0.7970215082
-0.11501481 -0.19278672 1.3360002 -0.07565736026 0.7501719594 0.6569002867
-0.25057063 -0.0898671 1.2060001 0.06964790821 0.8083150983 0.5846160054
0.11499126 -0.26603788 1.3540001 0.2640140057 -0.4435057342 0.8565040827
0.18105796 0.14198756 1.087 0.4084324241 -0.3888562918 0.8258170485
0.0055129672 -0.022169245 1.1552222 -0.08972579986 0.7966603637 0.5977303386
0.25317007 -0.485107 1.2025713 0.61010921 -0.2221921831 0.7605243921
-0.29795444 0.11942304 1.376 0.1907996982 -0.5140524507 0.8362688422
-0.11551975 -0.017179908 1.143 -0.07609795779 0.7232401371 0.6863911748
0.20516668 -0.40552053 1.2578949 0.5719382167 -0.1953352541 0.7966999412
0.12722363 0.32105461 1.2060001 0.5393271446 -0.4103884995 0.7353281975
0.014767293 0.094337985 1.0376472 0.2465614378 0.4307537675 0.8681351542
-0.32594168 0.26648474 1.4742001 0.6070625186 -0.438785851 0.6625270247
0.2914224 -0.0017442745 1.1943334 -0.6880601048 0.6645783782 -0.2913912535
0.16535909 0.047020409 1.0656667 0.0227986034 0.6618070602 0.7493274808
0.11588856 -0.35574394 1.3162858 0.2180587649 -0.3068116307 0.9264540076
0.08663395 -0.1814722 1.3355001 0.0847106427 0.6650146842 0.7420104742
0.33733082 -0.17914245 1.1950001 0.6009961367 -0.2037368268 0.7728486061
0.21475294 -0.22805861 1.3131112 0.6646439433 -0.2033228278 0.718963325
-0.31672564 0.24268588 1.5640001 0.9761621952 -0.09586837143 0.1947218031
-0.16450457 -0.10429557 1.2264668 -0.09093970805 0.709192276 0.6991253495
-0.075359136 -0.13609634 1.2830002 -0.07931847125 0.6808860898 0.7280815244
0.17523831 -0.0052184123 1.13448 0.1017613262 0.8135424256 0.5725324154
0.12551674 -0.09059035 1.245 -0.04054345191 0.7517672777 0.6581810117
-0.052951761 -0.34553269 1.3649999 0.4708179533 -0.4307966232 0.7698991895
0.2317819 -0.11147606 1.2590001 0.1166731343 0.7302519679 0.6731414795
-0.0044240109 -0.41469279 1.3279998 0.2470804006 -0.3940856755 0.8852388263
-0.12461777 0.042927895 1.0926365 0.1594586819 0.4683236182 0.8690488338
0.29785898 -0.28478739 1.2060002 0.7423924208 -0.2760256827 0.6104615927
-0.26566857 -0.37038466 2.2120001 -0.06143066287 0.7272607088 0.6836066842
-0.18518589 -0.055056125 1.1750002 -0.02970947884 0.693031311 0.7202950716
0.26307279 -0.041011345 1.141 0.4388935268 0.8591077328 0.2632609308
0.32762 -0.33573443 1.1569998 0.5164655447 -0.1350955367 0.8455841541
0.32049617 0.16341504 1.4450001 0.04272677004 0.8745301962 -0.4830852747
0.086705841 -0.49911439 1.268 0.2753146887 -0.3742950261 0.8854970932
0.3014839 0.077614807 1.3346667 -0.4088536501 0.7727223635 -0.4855294526
0.25157201 -0.31387797 1.25 0.6688115001 -0.263423115 0.695197463
-0.38193387 0.02868278 1.7220001 0.9835366607 -0.07733764499 0.1633234918
0.14337423 -0.4348864 1.2830002 0.4534448683 -0.3090367615 0.8359928131
-0.046071026 -0.21479867 1.3649999 -0.06255145371 0.7460090518 0.6629915833
0.083816342 -0.12798983 1.2920001 -0.01599815488 0.7267583013 0.6867069602
-0.14411809 -0.14615674 1.2761817 -0.1968745589 0.7748146057 0.6007518172
0.28994611 -0.42614853 1.177 0.7605754137 -0.172082141 0.6260294318
-0.0095153395 -0.06026382 1.2060001 -0.0540766418 0.7722722292 0.6329860091
-0.35911071 0.11874976 1.6320001 0.9843016863 -0.1144482493 0.1343571246
-0.26169026 -0.04868656 1.1570001 -0.1924907863 0.502876997 0.8426517844
-0.16441816 -0.21351461 1.3024167 -0.5578377247 -0.1010344625 0.8237773776
0.17275155 -0.24185216 1.3590001 0.5536825657 -0.5183362961 0.6517385244
-0.054700013 -0.007660633 1.1307273 0.03485583514 0.78695333 0.616027236
0.065186068 -0.0070227426 1.1439335 -0.03108689375 0.787181735 0.6159371138
0.01413849 0.017592169 1.1079999 -0.03762520105 0.7831557989 0.6206861734
-0.013789858 -0.12666026 1.2842501 -0.1663882136 0.7224757075 0.6710765958
0.074483007 0.071394183 1.0410001 0.04861879721 0.7317782044 0.6798064709
0.30888036 -0.15716881 1.245 0.7114816308 -0.2749531865 0.6466796994
0.058163326 -0.28844261 1.3540001 0.3617947102 -0.4634992182 0.8088715076
0.33217442 -0.39506277 1.1447335 0.6226760745 -0.1819453984 0.7610324621
0.27499294 -0.062672362 1.2053849 -0.145205602 0.7644571662 0.6281086802
-0.16490558 0.006368984 1.118 0.1200660467 0.5199118853 0.8457397819
0.15181369 0.17843191 1.1245 0.4653713405 -0.3889818788 0.7950614095
0.25195837 -0.42564884 1.223 0.6048473716 -0.1859103441 0.7743365169
0.057281397 -0.058342166 1.21 -0.06161869317 0.7674210668 0.6381756067
0.025167787 -0.46562356 1.3049998 0.281896621 -0.4078549147 0.86844033
0.17103066 -0.37151027 1.2920001 0.4437597096 -0.3072429299 0.84183079
0.065086968 -0.38458562 1.3245263 0.2242330313 -0.4887647331 0.8431065083
0.11029255 0.4377591 1.2970001 0.4792744517 -0.4694257975 0.741576314
0.36230004 -0.43107891 1.105 0.5978226662 -0.1778185815 0.7816576362
0.14785509 -0.30851653 1.3280001 0.4903312027 -0.3472134471 0.7993860841
0.40096191 0.12164013 1.7130001 0.9373704791 0.1619815975 -0.3083804846
-0.12559935 -0.056242023 1.1840587 -0.2053880841 0.762159586 0.6139450669
0.16469926 -0.037459478 1.1832223 0.1271236837 0.7884242535 0.6018527746
0.12469983 0.015311228 1.1151665 0.09696948528 0.8133067489 0.5736976862
0.32531935 -0.23577453 1.1949263 0.5316664577 -0.2400114685 0.8122347593
0.2187108 0.0577548 1.08 -0.3575319946 0.2536671162 0.8987902403
0.18422508 -0.087398112 1.2410001 0.07342818379 0.7463981509 0.6614364386
0.2459636 -0.26486656 1.2766111 0.5154135823 -0.3424924314 0.7855238914
-0.2421762 -0.1325115 1.2410001 0.1657108366 0.3370310962 0.9267955422
-0.03517938 0.085359775 1.0600001 0.2738276422 0.3503634036 0.8956918716
0.15413351 0.284466 1.1744119 0.335165292 -0.503559351 0.7962990403
0.20804352 -0.45617875 1.2360001 0.5406373739 -0.2403636873 0.8061864376
-0.064694993 -0.17468309 1.3245716 -0.1151259467 0.754812479 0.6457585692
-0.040900882 -0.45458409 1.3330001 0.6127199531 -0.3240885139 0.7207918167
-0.034631632 -0.094003007 1.2434616 -0.04793905839 0.764949739 0.6423034668
0.03086831 0.049576376 1.067 0.05590413511 0.7411509752 0.6690067053
-0.027906053 -0.29361492 1.3840001 0.4579202235 -0.3574550152 0.8139625192
-0.05537523 -0.040585574 1.177 -0.03457804024 0.7914879918 0.6102058291
0.034508448 -0.14261885 1.3049167 0.009711105376 0.7492347956 0.6622332931
0.23600505 -0.36429247 1.245 0.5331593752 -0.2668925226 0.8028134704
-0.11473402 -0.10486534 1.2439475 -0.1730932742 0.7056241632 0.6871195436
0.1848501 0.094820388 1.0554348 0.4250517786 -0.1577505618 0.8913168311
-0.27155539 -0.0057290168 1.307 0.5432570577 -0.02832395397 0.8390884995
0.3735033 -0.31628746 1.141 0.583114922 -0.2755458951 0.7642325759
-0.31140253 0.16124004 1.404 0.3194579482 -0.5557203889 0.7675424814
0.036322404 -0.19300729 1.3540001 -0.0632346198 0.6658783555 0.743375659
-0.29368481 0.076082103 1.3490001 0.1621628106 -0.3555251062 0.920491755
-0.053218048 -0.39736146 1.3490001 0.7108432651 -0.1496560127 0.6872444153
0.14311844 0.36541802 1.2237999 0.2800118029 -0.4551381171 0.8452471495
-0.095081396 -0.22466423 1.3704288 -0.1509850323 0.7424556613 0.6526585221
0.21514323 -0.027824793 1.1622308 0.004414545372 0.7865588069 0.6174995899
0.28767002 -0.47509459 1.1677692 0.7230000496 -0.2248467356 0.6532341838
0.12441916 0.07057517 1.041 0.04709163681 0.7642642856 0.6431815028
0.17895834 -0.26670566 1.317 0.4682815373 -0.4239650965 0.7752199769
0.30136031 0.014143263 1.2410001 -0.2882100344 0.824051559 -0.4877232611
-0.29772449 0.25321376 1.4370002 0.1564855874 -0.5585593581 0.8145696521
0.096582487 -0.31636333 1.3365716 0.307339251 -0.3905811608 0.8677493334
-0.081937067 0.062790371 1.0743333 0.2729769945 0.3353505731 0.9016782045
0.1148407 -0.39909986 1.2970001 0.189449504 -0.3400352895 0.9211323857
0.19883326 0.020269411 1.1010001 0.2942096889 0.8692821264 0.3972269595
-0.014154991 -0.36451373 1.3456253 -0.00394167006 -0.3147160411 0.9491776824
-0.095210671 0.011048338 1.1120001 0.09918617457 0.6819069386 0.7246826887
0.12491147 -0.15809207 1.3245715 -0.03961151466 0.6957847476 0.7171572447
0.13506706 -0.013646554 1.1553527 0.07467962056 0.8046677113 0.5890100598
-0.19724999 -0.1282125 1.25 -0.2395306826 0.6052645445 0.7591310143
0.13471738 -0.058342166 1.21 0.0339816846 0.7563592196 0.6532732844
0.055652443 0.10516825 1.0174549 0.1957747191 0.5499947667 0.8118977547
-0.20565958 -0.087177716 1.2038667 -0.07380129397 0.7070015073 0.7033507228
0.12522796 -0.4752166 1.2747647 0.0986763835 -0.2928647101 0.9510484934
-0.14362781 -0.22197025 1.3540001 -0.4955008924 0.6386031508 0.5887825489
0.27299568 -0.27458194 1.2424546 0.802102685 -0.2319895625 0.5502836704
0.044292878 -0.034200519 1.1750001 -0.06142083183 0.7801575661 0.6225605607
0.12597349 -0.11810015 1.2830001 -0.005558769219 0.7259832025 0.68768996
0.084879391 -0.1014149 1.2574 0.02068857849 0.767102778 0.6411905289
-0.004188275 -0.20402883 1.365 -0.02667293698 0.6959699988 0.7175753117
0.1249776 0.041185804 1.08 0.06883981824 0.8049254417 0.5893692374
-0.10510526 -0.16428325 1.3052143 -0.09840687364 0.7534196377 0.6501345634
-0.18516812 -0.025081538 1.1442003 0.04583910108 0.6320180893 0.773596704
-0.17169254 -0.17169254 1.2970001 -0.5980437994 0.4035453498 0.6924555898
0.30120862 -0.32526347 1.193 0.753264606 -0.1116932184 0.6481643319
0.25541988 -0.21603784 1.2835004 0.6411682963 -0.1502890438 0.7525399923
0.32408497 -0.29498196 1.174273 0.5921058655 -0.2764696479 0.7569512725
0.30556017 -0.194547 1.2254997 0.6705821753 -0.2279360294 0.7059494853
0.20486522 -0.35382485 1.2740527 0.5194411278 -0.362262249 0.7739166617
-0.013105289 -0.32485232 1.3590001 0.2834267616 -0.5436240435 0.7900267243
0.095422536 -0.069690615 1.223 -0.06720334291 0.7336816788 0.6761618853
0.034505598 -0.42556912 1.3120002 0.07200035453 -0.3818074763 0.9214330912
0.30324939 -0.38566196 1.1751055 0.7593576312 -0.16869995 0.6284236312
0.024540531 -0.38446832 1.3330001 0.1518302411 -0.314026624 0.9371951818
0.21608381 -0.49562833 1.2174999 0.4693645537 -0.2865464687 0.8352173567
0.22157164 0.0016510555 1.13 0.3364238143 0.868357718 0.3643815815
0.19484374 -0.12491146 1.2764374 0.121397458 0.7125801444 0.691008091
-0.039642867 -0.45532662 1.2920001 0.2953425646 -0.4423692822 0.8468070626
-0.27772921 0.15424021 1.381 -0.02701601759 -0.477355659 0.8782947659
-0.075088322 -0.10687991 1.2504166 -0.1092365682 0.7317630053 0.6727482677
0.24651904 -0.081252344 1.2264287 0.05912221968 0.7336751223 0.6769234538
-0.22513998 -0.05448721 1.1747144 0.01215744391 0.6343268156 0.7729694247
-0.035103247 -0.15468346 1.307 -0.1342263222 0.687128365 0.7140293121
0.17672279 -0.44561723 1.2580478 0.4713225067 -0.2673606575 0.8404602408
0.05532819 -0.48553306 1.2880001 0.1668428034 -0.321544826 0.9320796132
-0.0054440997 0.041422501 1.08 -0.07276895642 0.7069074512 0.7035527825
-0.016197918 -0.0018321081 1.1247143 -0.1720305383 0.7619920969 0.6243184805
-0.34620795 0.12374501 1.5860001 0.9841828346 -0.07658332586 0.1597471088
0.35391998 -0.21565387 1.177 0.5627411604 -0.2129918486 0.7987220287
0.066365175 -0.34737781 1.3366365 0.285220772 -0.3176807463 0.9042831659
0.16377701 -0.33433637 1.304 0.5734436512 -0.2767058909 0.7711006403
0.3081229 0.17811324 1.483 -0.5135033131 0.7272880673 -0.4553749859
0.29815522 -0.24685968 1.2190001 0.7422385812 -0.1404028684 0.6552624702
-0.13447268 -0.08554478 1.2134706 -0.2281261683 0.712529242 0.6635212898
0.16716072 -0.40624976 1.278 0.4698438942 -0.2515497506 0.8461497426
0.35406694 -0.35487422 1.1321249 0.6465685964 -0.2413379848 0.723674655
0.22446552 -0.30448627 1.2738698 0.5337930322 -0.2745538056 0.799803257
0.16386303 0.22407775 1.126 0.359821111 -0.4153210223 0.8354862332
0.023866666 -0.07195621 1.219 -0.02591058053 0.7877180576 0.6154907942
