# .PCD v0.7 - Point Cloud Data file format
VERSION 0.7
FIELDS x y z normal_x normal_y normal_z
SIZE 4 4 4 4 4 4
TYPE F F F F F F
COUNT 1 1 1 1 1 1
WIDTH 206
HEIGHT 1
VIEWPOINT 0 0 0 1 0 0 0
POINTS 206
DATA ascii
0.28283197 -0.22305818 1.6630001 0.5012263656 -0.4983430505 0.7074081898
-0.27747026 -0.27228391 2.9580002 -0.03790901974 0.8875849247 0.4590815306
0.49675703 0.051235031 2.5410001 0.8996728063 0.08131273836 -0.4289255142
-0.34016156 0.30776522 2.0530002 0.1220589355 0.9704148769 0.2083185017
0.29063341 0.3957212 1.8730001 -0.03879263252 0.9682173133 -0.2470837682
-0.16353165 0.12465937 1.5290002 0.3823572099 -0.1179891303 0.9164505005
-0.1088031 -0.2124251 1.9700001 -0.6280912757 0.3238615096 0.707541585
-0.48426366 0.027135463 2.381 -0.1396772265 0.8673427105 0.4777100682
-0.034143671 0.49502695 1.6710001 0.5153965354 0.171380505 0.8396399021
0.19324188 0.056618638 1.404 0.7200861573 -0.1349840164 0.6806285381
-0.25075471 -0.25642151 1.6160001 0.007186608389 0.4791286588 0.8777152896
0.056856215 -0.49605742 1.7850002 0.7415227294 0.1605859697 0.6514262557
0.46219239 -0.49322465 1.6090001 0.4202079177 0.2389326096 0.8754065037
0.035245508 -0.018388962 1.748 -0.1309439987 0.8203056455 0.5567335486
-0.048151795 0.26400465 1.8940001 -0.3262526989 0.908495903 -0.2611405253
0.18974836 0.26865363 2.1430001 -0.3934876025 0.9093558788 0.1350533515
0.3004021 0.060672347 1.6880001 -0.7808489799 -0.4522127509 0.4310202897
-0.32802674 -0.016036863 1.6630001 0.2939306796 0.5316569805 0.7943208218
0.10461636 -0.25326043 1.8430002 0.4239324927 -0.1009226143 0.9000532627
-0.12988254 -0.35835063 1.7850001 -0.1459261477 0.6334892511 0.7598664165
0.27629465 -0.44810382 1.7374003 -0.2913144827 0.6075475812 0.7389329076
0.040302996 0.20151499 1.483 0.2193856984 -0.7721661329 0.5963466763
-0.16659471 -0.11262011 1.7760001 -0.427592814 0.7017115951 0.5698817968
-0.26153859 0.26478752 1.853 0.02346089855 0.005514429417 -0.9997095466
0.32131585 -0.090493038 1.4960001 -0.1691749543 0.6654752493 0.7269955873
0.21165626 -0.075937741 1.8430001 0.8346554637 -0.1432179362 0.5318259597
0.14218131 0.26820564 1.8430001 0.05099822953 -0.1832644343 0.9817399383
0.12716401 0.068472929 1.5940001 0.1601676643 0.9447840452 0.2858835757
0.44590482 -0.31484169 1.6550001 0.08378068358 0.02146498486 0.9962530136
-0.03208074 -0.40016502 1.9260001 0.8547574282 0.3464186192 0.3865020871
0.0016419967 0.43184513 1.8730001 -0.9886738062 -0.06628736109 0.1346479654
0.40102941 -0.094708055 1.6880001 0.565548718 0.5651726723 0.6006118059
-0.11517384 0.014578965 1.6630001 -0.1233653203 0.8187972903 0.5606710315
0.0082538165 -0.1172042 1.8830001 -0.3086804748 0.8166580796 0.4876330495
-0.18735769 0.27268893 2.1160002 0.08346071094 0.9965100884 0.001392329694
0.45295349 0.077231705 2.381 0.910210669 0.03642265871 -0.4125408232
-0.037096735 0.33895233 1.739 -0.08860611916 0.716978848 0.6914407015
0.1354287 -0.36520809 1.7358001 0.4706833661 -0.2406534702 0.8488481045
0.28435561 0.34158438 2.0400002 -0.2372702211 0.9315931797 0.2753851116
-0.021937706 0.08089529 1.5640001 -0.2990983725 0.8733490109 0.3844498992
0.096713871 0.30568489 1.9700001 -0.3499866128 0.9086372256 -0.2277888954
0.17058706 0.0045288601 1.7220001 0.03615697473 0.7917578816 0.6097639799
0.19475675 -0.070647061 1.452 0.1918720305 0.8727319837 0.4489142597
0.315795 -0.35251051 1.6470002 0.2744068503 0.2518217266 0.928055346
0.21641745 -0.19462 1.7760001 0.4106802046 -0.02843535878 0.9113359451
-0.02476145 -0.26577294 1.8830003 0.2144735456 -0.3445623219 0.9139354229
-0.26095298 0.086043954 1.6090001 0.7020748258 -0.356005311 0.61672616
-0.33529574 0.3655085 1.8730001 -0.4002141953 -0.3313428462 -0.8544240594
0.044748574 -0.37556839 1.8230001 0.7826392651 -0.5726483464 0.2440280467
-0.094330795 0.29236686 2.0050001 -0.05384629592 0.969928205 -0.23736009
0.37001821 -0.0015481933 1.766 0.1189852804 -0.8699336052 0.4786000252
0.14032979 0.1377068 1.4960001 -0.3925743997 0.4193450809 0.8185566664
-0.15730627 -0.28398389 1.6960001 -0.4723915756 0.682326138 0.5579221845
-0.21545915 -0.045566905 1.6865455 -0.3358984888 0.5659870505 0.7528817058
0.16399252 -0.48481449 1.7367145 0.06857673079 0.3522878885 0.9333758354
0.38207588 -0.44563246 1.686 0.9943067431 0.005623142235 0.1064069569
-0.10289349 -0.1584233 1.863 -0.3797403872 0.7522660494 0.5384171009
-0.055045899 -0.074443035 1.794 -0.1755559295 0.7902479172 0.5871015787
0.4035472 -0.2106104 1.6800001 -0.4201027155 -0.3902995884 0.8192557096
0.021585286 -0.49978241 1.8940001 0.7159901261 0.4469037354 0.5363163352
0.36289266 -0.1459913 1.5860001 -0.2505958676 0.8472093344 0.4684421718
0.11922579 -0.13882455 1.863 0.6183086634 -0.6422994733 0.4529301822
-0.065057099 0.15547824 1.4841249 0.3496721983 -0.1550128907 0.9239590764
-0.3462579 -0.2274687 2.8830001 0.8192715049 0.5077651739 0.266399622
-0.15515685 0.24008481 1.863 0.1329831481 -0.247447148 -0.9597319365
0.2241804 -0.31504205 1.6960001 0.6755800247 -0.3673274219 0.6392669678
0.042075615 0.039173849 1.6550001 -0.2121122479 0.8585662246 0.466768086
0.28229895 -0.1283177 1.7220001 0.805670023 0.06995412707 0.588219583
0.22619869 0.10152969 1.6160001 -0.8017163873 0.01439502835 0.5975313187
-0.41803586 0.1029645 2.3490002 -0.1069290191 0.8907214403 0.4417935312
0.22853735 0.32442716 1.8230001 0.4170726836 0.1163406819 0.9013962746
0.11544999 -0.052980475 1.8040001 -0.08952433616 0.905144155 0.4155712128
0.01430457 0.2876808 1.8130001 -0.2759456933 0.8244609237 0.4940831065
-0.17379917 0.040321406 1.5860001 -0.02846342511 0.8695475459 0.4930283427
0.47422582 -0.39461976 1.6042 0.1193219647 -0.377084136 0.9184605479
-0.2274687 -0.3108739 2.8830001 -0.01928784698 0.9461997151 0.3230078518
0.17282256 -0.28180975 1.7760001 0.6520823836 -0.7400119305 0.1648359299
-0.015849506 -0.18507348 1.9470003 0.1290003061 -0.1143911183 0.9850246906
0.36277169 -0.45774624 1.7760001 0.3963784277 0.1072988659 0.9117955565
0.20865367 -0.40546885 1.6880001 0.4656950831 0.1848413646 0.8654257655
0.054741699 0.11081856 1.5230001 0.1013783738 0.8878285289 0.4488685429
-0.0036986568 0.40670758 1.6869999 -0.2329076678 0.6430439949 0.7295535803
0.3353838 -0.025115527 1.6853334 0.81191957 0.2559217215 0.5246815085
-0.11550375 -0.044077922 1.7336668 -0.1969030052 0.7651449442 0.6130109429
-0.29508996 -0.083346009 1.7130001 -0.02542489581 0.7721521854 0.6349288225
-0.24120957 -0.3122406 1.6880001 -0.1385377347 0.7982307673 0.5862038136
0.05437832 -0.1938525 1.8940001 0.7250702977 -0.2815279663 0.6285022497
-0.034197014 0.0039648712 1.6960001 -0.05632344633 0.8749212027 0.4809787571
0.35317063 -0.27404654 1.6470001 -0.720446527 -0.5425726771 0.4319394231
-0.24440299 0.003321982 1.6240003 0.0008877406945 0.6988331079 0.7152842283
0.28803673 -0.016943337 1.7570001 -0.5490497947 0.1264046878 0.8261756301
-0.084295593 -0.29135725 1.9360002 0.7688674927 -0.17261374 0.615668118
0.10912396 -0.32737187 1.8040001 0.6647015214 -0.7301816344 0.1581349671
0.23794487 0.018861484 1.6550001 -0.1507616788 0.6998115778 0.6982368231
0.21314046 0.31151298 2.0780001 -0.4140768647 0.8960106373 0.1603288502
0.084716685 -0.42512378 1.7570001 0.7143664956 -0.1385568678 0.6859172583
-0.2638416 0.2803317 2.0900002 0.142185539 0.9859465957 0.08770725876
0.15328078 -0.0012667833 1.4450001 0.6457750797 -0.1346616149 0.7515589595
0.41850838 -0.28224984 1.5860001 0.9491927624 0.270352751 0.1610668898
0.34483981 -0.15557346 1.6710001 0.3475257158 -0.2997734249 0.8884603381
-0.10530958 0.072697587 1.5500001 0.03424179927 0.8110083938 0.5840315819
0.076378703 0.28725034 1.8940001 -0.02858426981 0.9875816107 -0.1544847041
0.034436926 -0.066224866 1.813 0.07933097333 0.795219481 0.6011094451
0.043395627 -0.31315222 1.8730001 0.3361565769 -0.2294194698 0.9134360552
0.22341008 -0.016883548 1.3956001 -0.1601143777 0.3295938373 0.9304468036
0.39995199 -0.37829393 1.6470001 0.6385326982 -0.07483469695 0.7659475803
-0.041049916 -0.34317729 1.8730001 0.3270746469 0.04127477482 0.9440966845
0.1709763 0.32986337 1.9700001 -0.3338428736 0.942622304 -0.003488467773
0.27122751 -0.061814643 1.439 -0.3738770783 0.5906540155 0.7150830626
-0.055168632 0.046626393 1.6240003 -0.2047919482 0.8272026777 0.5232551694
0.14781389 -0.1891382 1.8130001 0.1924876422 -0.2237771004 0.9554435015
0.13500123 0.037613735 1.6630001 -0.02978485078 0.8857841492 0.4631406963
0.28262067 -0.20346235 1.7363335 0.7376112938 -0.4613685608 0.4930199087
0.0048996899 -0.42627305 1.863 0.3992480338 0.2630621791 0.878293395
-0.34114257 0.32417026 1.9360002 -0.4486905932 0.07628568262 -0.8904253244
-0.24182762 -0.11398245 1.7570001 -0.2043653727 0.7558661103 0.6220138073
-0.1719415 -0.16229993 1.8330001 -0.3814935386 0.7596049309 0.5267475843
0.05310145 0.082446992 1.5940001 0.0002076986129 0.8761216402 0.4820900559
0.24380365 -0.11360811 1.7850001 0.5468181372 -0.2850984633 0.7872158289
0.23510094 -0.49718925 1.7760001 -0.06924250722 0.9317548275 0.3564244211
-0.11312682 0.28197283 1.9260001 0.05586188659 0.8851688504 -0.4619042873
0.39181286 -0.49564224 1.6320001 0.6915618181 -0.4196198881 0.5879297256
0.22392696 -0.24355201 1.7220001 0.7495090961 -0.5187628865 0.4112434089
0.32734296 -0.40207878 1.705 -0.130140245 0.7419479489 0.6577056646
0.27751184 -0.29252806 1.6470001 0.5124883652 0.03244280815 0.8580811024
0.095709912 0.006340404 1.7220001 0.109225601 0.7940842509 0.5979130268
0.2544297 -0.11147694 1.4960001 -0.02180862986 0.8245157003 0.565418601
0.072603777 -0.13507679 1.9260001 0.4819000661 0.2004477084 0.8529906273
0.18086509 -0.03617302 1.794 -0.2106819898 0.856295228 0.4715629518
-0.0013053566 0.12923031 1.4890001 -0.1059517935 0.6514428854 0.7512632012
0.42175645 -0.43868312 1.6090001 0.4002937973 -0.1578581631 0.9026880264
0.29406208 0.34999776 1.8230001 0.4807660282 0.09357883036 -0.8718411922
0.075081244 0.14695388 1.4640001 -0.0004484308301 0.5597565174 0.8286570311
0.18299541 0.065723702 1.47 0.3796853125 -0.6826683283 0.6243420839
-0.31690535 0.2972014 1.8730001 -0.4679937661 -0.05691797659 -0.8818969131
0.17240965 0.32018936 1.8730001 0.2924824357 -0.5145190358 0.8060547113
-0.21293533 0.085993104 1.557 0.5710833669 0.1535045356 0.8064118624
-0.18192762 0.00144387 1.6470001 -0.2816889584 0.8498197198 0.4454859793
0.1883435 -0.13589342 1.8130001 0.4894120693 -0.4076165855 0.770924449
0.075128585 -0.089827649 1.863 -0.1591794044 0.8173289299 0.5537467003
-0.050358362 -0.11858582 1.853 -0.3340490758 0.7625909448 0.5539550781
-0.18914697 -0.25412112 1.6470001 -0.4240742028 0.4197578728 0.8024739027
-0.29902047 0.038629439 1.6320001 0.7731338739 -0.2100917101 0.5984358788
0.31585467 -0.13459332 1.5430001 -0.06486390531 0.8270481825 0.558376193
-0.034632541 -0.034019578 1.7479999 -0.2330594808 0.7622300982 0.6038945317
-0.072189115 -0.17963338 1.9150001 -0.2632351816 0.8570973277 0.4428220689
0.1462017 -0.079598702 1.853 0.04480228573 0.708948493 0.7038357854
0.25489435 -0.36476263 1.6710001 0.4143884182 0.06074537337 0.9080706239
-0.21939197 0.21939197 2.1030002 0.08201796561 0.9964034557 -0.02128915861
-0.1153902 -0.1153902 1.8130001 -0.5716692209 0.6119354367 0.5465613604
0.099094018 -0.48632294 1.7390001 0.4598724544 0.1130603924 0.8807579875
0.11638125 0.095221028 1.5360001 -0.09964263439 0.8861480951 0.4525625408
0.33488578 -0.47755015 1.7130001 0.6195018888 -0.1087300926 0.7774285674
-0.17163029 -0.32946888 1.748 -0.2661800385 0.6831282377 0.6800617576
0.039537668 -0.43491432 1.8040003 0.9206639528 0.07636309415 0.3828139305
-0.1737904 0.30594352 2.0650001 0.08942727 0.9958152771 0.01883442514
-0.053604078 0.10410708 1.5160002 -0.05073285848 0.7450308204 0.6650979519
0.1434139 -0.4245806 1.7220001 0.2092283219 -0.1662189662 0.9636362195
0.22175546 -0.46203223 1.7129999 -0.1300187856 0.5885898471 0.7979079485
0.34411797 -0.22448219 1.6846668 -0.1052323133 -0.290284574 0.9511367083
-0.17147863 -0.068287946 1.7310001 -0.5588234663 0.4711772501 0.6824283004
-0.28272763 -0.27100834 1.6710001 0.3170759976 0.5915101171 0.74133569
0.042919844 -0.25256678 1.8830001 0.4375777245 -0.3892686963 0.8105526567
0.41265804 -0.26480576 1.6470001 0.7185968161 -0.03862764686 0.6943533421
0.1741998 -0.24451897 1.8230002 0.2686056793 0.04340553656 0.96227175
-0.059402931 -0.23421729 1.9360001 0.733713448 -0.5033379793 0.4564159214
-0.26971087 -0.039363209 1.6630001 -0.0256010592 0.6632988453 0.7479165792
-0.11882953 0.16288993 1.5230001 0.4951421618 -0.3837500513 0.7794678807
-0.052038934 0.44456118 1.6960001 0.9703398347 -0.0980354324 0.2209742367
-0.15909046 -0.0223024 1.6960001 -0.3871651292 0.7305926681 0.5624389052
-0.11717474 0.042427689 1.6026001 -0.1724241972 0.8862440586 0.4299318194
0.01345245 0.48727763 1.705 -0.4504555464 -0.09151187539 0.8880965114
0.097235732 -0.19563179 1.8529999 0.5548495054 -0.3007391989 0.7756919265
-0.015485878 0.18457764 1.4723334 0.1494608521 -0.4554587603 0.8776211143
-0.10069656 0.23770991 1.8830001 -0.000628137379 -0.040018484 -0.9991987348
0.27625239 0.0050552106 1.6960001 -0.3869483471 0.7728963494 0.5028938651
0.36222464 -0.098298877 1.536 -0.5049954653 0.3941272199 0.7678823471
0.13372634 -0.025064938 1.7570001 -0.10622444 0.7675514221 0.6321243048
0.043623809 -0.48551682 1.8430001 0.8461822271 0.3172598183 0.428161025
0.26488659 -0.42174682 1.6880001 -0.1412190944 0.7184555531 0.6810864806
0.075901799 -0.3670533 1.7760001 0.4652167261 -0.4894876182 0.7375468016
-0.033929631 0.28651688 1.8430001 0.5988721848 0.7254052758 0.3393217921
0.17532018 -0.32472345 1.7390002 0.589261055 -0.2836554945 0.7565124035
0.005059619 0.06213212 1.6160001 -0.06567533314 0.8349147439 0.5464468002
0.38262555 -0.32198301 1.6470001 -0.6659426689 -0.04616326839 0.7445732355
0.0043649236 -0.22731178 1.9150002 0.01577633992 -0.7023614645 0.7116456032
-0.01299483 0.44904357 1.6470001 0.08577977121 0.05011920631 0.9950526953
0.20438781 0.059786912 1.5860001 -0.8357672691 -0.06361442059 0.545386374
-0.2123199 -0.14311934 1.794 -0.03301362693 0.8092030883 0.5866007805
0.0054186764 0.31660551 1.766 -0.1999971122 0.6608815789 0.7233510017
0.094974563 0.19764976 1.4640001 -0.3056890666 -0.3501809835 0.8853967786
0.0081661502 -0.36421028 1.863 0.4517865479 -0.0262806844 0.8917388916
0.1749064 -0.037851837 1.411 0.3834938109 0.7054183483 0.5960851312
0.24930033 0.071436934 1.6630001 -0.825651288 -0.3966161311 0.4012426138
-0.23472366 0.044618987 1.5860003 0.2642848194 0.4273574352 0.8645918965
0.35491216 -0.073573269 1.705 0.6689445376 0.6124557853 0.421202004
-0.12455679 -0.077848002 1.7760001 -0.3583461046 0.7381548882 0.5715903044
0.044841498 0.011957733 1.705 -0.2429830432 0.8289846182 0.5037298799
-0.24427001 -0.31369412 2.9330001 -0.03742251173 0.9216521382 0.3862083554
0.14223653 -0.28607127 1.8230001 0.5442991257 -0.3545773923 0.7602718472
-0.026566507 -0.15441781 1.8940001 -0.3569422662 0.7076897621 0.6097273231
-0.14196564 -0.18653625 1.8830001 -0.2641017437 0.750649333 0.6056202054
0.025458397 -0.15444763 1.936 0.05274267122 0.3992533088 0.9153223634
-0.43306279 0.094601102 2.398 -0.1069290191 0.8907214403 0.4417935312
0.094357379 0.054772962 1.6357334 -0.08433325589 0.8022637963 0.5909827948
0.074734069 -0.037367042 1.7760001 -0.02949587442 0.78316921 0.6211086512
