# .PCD v0.7 - Point Cloud Data file format
VERSION 0.7
FIELDS x y z normal_x normal_y normal_z
SIZE 4 4 4 4 4 4
TYPE F F F F F F
COUNT 1 1 1 1 1 1
WIDTH 206
HEIGHT 1
VIEWPOINT 0 0 0 1 0 0 0
POINTS 206
DATA ascii
-0.10491166 0.25325114 1.1052727 0.6034449935 -0.354873836 0.7140859365
-0.096987963 -0.48493984 2.1980002 -0.282941401 0.9550235271 0.08873701841
0.27597579 -0.45174369 1.0947143 0.7554647326 -0.02771777473 0.654602766
-0.37825713 -0.0042500799 1.6160001 0.4682705998 0.8486261964 -0.2460816652
0.39486644 -0.1589949 1.9930001 -0.8081275821 0.5200508833 0.2765446007
-0.17589965 -0.30810449 1.2780001 -0.5551785231 -0.006933359429 0.831702292
0.21848463 -0.027934108 1.138 0.5577451587 0.1202544495 0.8212546706
0.16205797 0.29773441 1.4330001 -0.6842131615 0.6390637755 -0.3513543606
-0.46677241 -0.46319559 2.0400002 -0.2444056422 0.7105160356 0.6598733664
-0.27286512 -0.047019668 1.077 0.1869704723 0.5269443989 0.8290787935
0.11526493 -0.26481983 1.2755001 0.5534766912 -0.2435569763 0.7964568734
0.07060235 -0.30956414 2.0650001 -0.2829664648 0.9545206428 0.09391636401
-0.37232444 -0.092190854 1.3540001 -0.6527779698 0.281689167 -0.703229785
0.014460617 0.048354849 0.99730778 0.1340123713 0.7546566725 0.6422880888
0.3250303 -0.21894705 0.99800009 0.6567471623 -0.1682096124 0.7351113558
-0.054967415 -0.10617029 1.1854209 -0.1868111342 0.7395857573 0.6466177702
0.056069147 -0.496234 1.2589999 0.7511235476 -0.01297451928 0.6600341201
-0.18095452 0.43017331 1.2360001 0.408739984 -0.4648506343 0.7853951454
0.15171155 0.16480894 1.245 -0.4026385248 0.7194017768 -0.5659887195
-0.3345874 -0.21269375 1.1959335 -0.04153590277 0.5787313581 0.8144598007
-0.041848559 -0.32371092 1.404 0.652862072 0.5583264828 0.5119009614
-0.45639968 0.10491946 1.4960002 -0.9341747761 -0.3457666039 -0.0881075561
-0.16368857 0.061634049 0.98100013 0.1165163666 0.5741195083 0.8104385734
0.22733873 -0.20523331 1.1463336 0.8815606833 0.1334576905 0.4528131783
0.10152239 -0.11007164 1.2190001 -0.1011879742 0.7387525439 0.6663374901
0.17400981 -0.3945955 1.2019999 0.6392270923 -0.172671169 0.7493819594
-0.31316462 -0.44095019 2.0530002 0.09305503964 0.9762964249 0.1954124421
-0.035549223 -0.21519917 1.2942224 -0.2116932869 0.6316686869 0.7457751632
0.095752455 -0.41535005 2.1700001 -0.3365032673 0.9395648837 0.06311412901
-0.20316863 -0.13794313 1.1730002 -0.2872900069 0.6426153183 0.7102887034
-0.096305341 -0.021715909 1.077 -0.2150519937 0.7492861152 0.6263568997
0.065469995 -0.016614411 1.1145999 -0.07420959324 0.7820894122 0.6187318563
0.33207679 -0.35424209 1.0112001 0.809343338 0.2229444534 0.5433775187
0.030818339 -0.37096149 1.302 0.5768815875 -0.2524511516 0.7768372297
-0.28772637 0.091230318 1.6010001 0.03852760792 0.9773552418 0.2080682516
-0.072081275 0.14439137 1.0375001 0.6367043257 -0.2406883687 0.7325822115
0.27365652 -0.11592421 1.0568125 0.758621037 -0.01430252101 0.6513751149
-0.4153907 0.0050748172 1.4259412 0.2234590352 0.6233974695 -0.7492941022
0.14429256 0.083071932 1.1475716 -0.3959315419 0.7394250631 -0.5445078611
0.26084289 -0.32462618 1.1120001 0.8215273023 0.09731625766 0.5618028045
0.13958462 0.23342302 1.3380001 -0.7455892563 0.5170475245 -0.4204266071
-0.14507915 0.33520281 1.1751819 0.4566505849 -0.3913461864 0.798948288
-0.1375227 -0.20191824 1.245 -0.3594993055 0.6027560234 0.7123520374
-0.32480347 -0.12564911 1.1358824 0.116997622 0.564072907 0.817394197
-0.24451694 -0.23580347 1.2428824 -0.3253315091 0.6091116667 0.7232858539
0.19453229 -0.29517621 1.1883041 0.7188011408 -0.01562454924 0.6950401068
0.13746747 -0.49425328 1.197 0.5074324608 -0.2362378389 0.8286760449
0.16646942 -0.18508887 1.2346668 0.8292669654 -0.0398684144 0.5574287176
0.11179473 0.030572433 1.041 -0.4584615529 0.4820706248 0.7466062903
0.051775057 -0.17246342 1.2746667 -0.1553088427 0.6856241822 0.7111952305
-0.1764666 -0.073214404 1.1055999 -0.1953922957 0.7343541384 0.6500352621
-0.097357333 -0.2811242 1.3379999 -0.2878118753 0.6656816602 0.6885000467
-0.45999488 0.03139431 1.557 -0.9567629099 -0.1893353909 -0.2208094746
-0.19473572 -0.01000978 1.0380001 0.008979976177 0.6515290737 0.7585704923
-0.074600831 0.08053498 0.96700007 -0.1158293337 0.657992959 0.7440624237
0.2729134 -0.23608443 1.0709231 0.8883148432 0.1481344402 0.4346871376
0.092946596 -0.4137269 1.25 0.4311383963 -0.4004330635 0.8085623384
0.13485983 -0.047328167 1.161 -0.02578273229 0.7326404452 0.6801273227
-0.39058656 -0.41886431 2.016 0.3660289049 0.8352437615 0.4103544056
-0.025097145 -0.043751936 1.1243848 -0.2319090366 0.7523414493 0.6166040301
0.21260424 -0.4706943 1.153 0.5760981441 -0.1997817159 0.7925895452
0.22091123 -0.118876 1.13 0.8578295708 0.1968841255 0.4747262895
0.035472061 -0.072272278 1.1752859 -0.1013975665 0.7285732627 0.6774212718
0.34623426 -0.19687828 1.9360001 -0.4858426452 0.8640150428 0.132041499
-0.023231668 0.011151199 1.0600001 -0.1809152961 0.7966656685 0.5767092109
0.1290094 -0.33769462 1.245 0.5973661542 -0.2329266965 0.7673974037
-0.02481292 -0.15484777 1.2433531 -0.2465631962 0.6571336389 0.7123074532
0.23471349 -0.3948783 1.1442001 0.7065733075 -0.01439330168 0.707493484
-0.12434289 -0.13804169 1.202 -0.2973356247 0.7095505595 0.6388501525
-0.10497309 -0.07307329 1.1335788 -0.2222584039 0.7178965807 0.6597163677
-0.10520262 0.027636044 1.017 -0.1568710804 0.7846646905 0.5997439623
-0.26776162 -0.18108734 1.177 -0.2145227641 0.6328822374 0.7439355254
0.14249809 0.0045285677 1.107 -0.4026110172 0.6361128092 0.6582285762
-0.24457023 -0.10352731 1.1156843 -0.2067402154 0.6886509061 0.6949952841
0.30662569 -0.28487623 1.0257142 0.8366810679 0.1512827873 0.5263823271
0.01804141 -0.44274372 1.2953334 0.6147965789 -0.104136847 0.7817804217
0.29272282 -0.38519725 1.0709 0.7916091084 0.07261369377 0.6066977978
0.060495261 -0.30704197 1.302 0.5030735135 -0.1185132936 0.8560792208
0.046330582 0.021904144 1.0600001 -0.1927567273 0.7610036731 0.6194499731
0.035133418 -0.12380924 1.225 -0.08968664706 0.7296490073 0.6779149175
-0.19877014 -0.19128954 1.2190001 -0.318440944 0.5969491601 0.736374259
0.34163788 -0.30433747 0.96700007 0.7720288634 0.06489754468 0.6322655678
0.19554688 -0.14692682 1.1852666 0.8374974728 0.1468866169 0.5263291001
-0.01064361 -0.34532601 1.3490001 0.6381667256 -0.1632648557 0.7523880601
-0.13365309 -0.24805108 1.2920001 -0.3563898206 0.6343557835 0.6859876513
-0.091986001 0.19653171 1.0743333 0.6228954196 -0.329311043 0.7096164227
0.25091571 -0.17742296 1.0916002 0.8451391459 0.1457038373 0.514305532
-0.37951952 -0.037829921 1.3920001 -0.5376349688 0.3064857125 -0.785503149
0.13382667 0.11907413 1.202 -0.3905851245 0.7181050181 -0.5759934187
0.29486975 -0.17487065 1.0351222 0.6276438236 -0.06282775104 0.7759612799
-0.020002026 0.1043584 0.99200004 0.2801226079 -0.175619632 0.9437632561
-0.36416849 -0.15941073 1.1756667 0.4256614447 0.4837243259 0.7647372484
-0.43508622 0.053904478 1.4640001 -0.5048562288 0.4104377329 -0.7593820095
0.16169441 -0.25373641 1.233143 0.7679715753 -0.1523422748 0.622102499
0.24162382 -0.26545835 1.1325455 0.8661450744 0.02638720721 0.4990955889
-0.032167532 -0.2835508 1.3590001 0.2729239464 0.5641062856 0.7792924047
-0.084206812 -0.16819604 1.2410001 -0.2298861742 0.6536012292 0.7210809588
-0.15465188 -0.10815524 1.153 -0.2091169506 0.7197095156 0.6620334983
-0.044050306 0.042500801 1.0100001 -0.1434442401 0.7718712687 0.6193855405
-0.17021886 0.37955633 1.2060001 0.3442984521 -0.5275017023 0.7766598463
-0.23159429 -0.29254016 1.2640001 -0.4054169059 0.2899887264 0.8669161797
-0.18551043 -0.23373464 1.2589999 -0.273468852 0.6558576226 0.7036089301
0.081467755 -0.36046693 1.273 0.5436928868 -0.2651247978 0.796308279
0.1973033 -0.23409234 1.1876668 0.8188333511 -0.01489133295 0.5738380551
0.13716349 0.19339529 1.29575 -0.6511242986 0.6452826858 -0.399559021
0.13562177 -0.43541262 1.2168278 0.5427815914 -0.1864474416 0.8189172745
0.20608847 -0.35519692 1.174778 0.6597229838 -0.05128364265 0.7497569919
-0.11703237 0.29908273 1.141 0.3762983382 -0.3688312471 0.8499194384
0.14802077 0.27299398 1.3840001 -0.6868621707 0.6272522807 -0.3671170175
-0.30014613 -0.24271744 1.2360001 0.1414153725 0.6259515882 0.7669330239
0.29213116 -0.32585952 1.0612501 0.8449407816 0.1588674039 0.5107213259
-0.30111745 -0.083535813 1.108 0.219458878 0.4986327589 0.8385720849
0.11828951 0.052893683 1.097 -0.3180127442 0.713088572 -0.6247980595
0.24485065 -0.072951518 1.1120002 0.7150840163 -0.3126041293 0.6252467632
0.014425551 -0.010578737 1.097 -0.09933845699 0.7934868336 0.600425303
-0.14872913 -0.03086831 1.067 -0.2442784011 0.7123180628 0.6579749584
-0.21532492 -0.046824984 1.0715789 -0.1222283244 0.6580611467 0.7429776192
0.13732339 -0.21690603 1.2666668 0.7398023009 -0.07119724154 0.6690467
0.094727024 -0.46613836 1.2320002 0.390448153 -0.2233475596 0.8931215405
-0.0081801768 -0.39615425 1.3330001 0.6110534072 -0.2592665851 0.7479268312
-0.096038103 -0.21334225 1.2763332 -0.3060783148 0.6140890718 0.7274686694
0.082158573 -0.05172947 1.1570001 -0.1215750128 0.7333385348 0.6689051986
0.23126554 -0.31350061 1.1545 0.8047159314 -0.003145892872 0.5936517119
0.064651854 0.044957776 1.0127275 -0.3247576654 0.4261069894 0.8443726897
-0.15573539 0.016654359 1.0169475 -0.08476402611 0.7016148567 0.7074967623
-0.0045344126 -0.099119432 1.1943334 -0.2530921102 0.7155796289 0.6510685086
0.021686981 -0.20431417 1.302 -0.04411365837 0.5871600509 0.8082678914
-0.27507612 -0.1370379 1.1409999 -0.09356129915 0.6153851748 0.782654047
0.17563602 -0.45518962 1.1848094 0.5695270896 -0.2239044905 0.7908891439
0.17078343 -0.33414149 1.21 0.6402937174 -0.07787374407 0.764172554
-0.062583484 -0.24917497 1.322 -0.1461817473 0.6526111364 0.7434579134
0.27313542 -0.28533325 1.0832103 0.8481135368 0.130653739 0.5134520531
0.024941165 -0.040903512 1.138 -0.1018805131 0.747264564 0.6566704512
-0.31479222 -0.16605735 1.1620667 0.04462394118 0.6010218859 0.7979858518
0.26809168 -0.40505156 1.1079999 0.7724283338 0.01447053999 0.6349371076
-0.05564642 -0.073334917 1.1481429 -0.2401592731 0.7052794099 0.6670116186
0.093246937 0.013001259 1.0853332 -0.179907307 0.7345680594 0.6542500257
-0.44636098 0.068361588 1.529 -0.9567629099 -0.1893353909 -0.2208094746
0.13421813 -0.38431817 1.2333915 0.5645520687 -0.2613928914 0.7829142213
-0.14331134 -0.2840735 1.3226001 -0.5589597225 0.1514232606 0.8152514696
-0.24139981 -0.01193231 1.0470001 0.1325878501 0.5428884625 0.8292723298
0.17504841 -0.00900249 1.141 -0.2594515383 0.3277463615 0.9084421992
0.074516669 -0.13917083 1.25 -0.1132267714 0.7082500458 0.6968224645
0.1015557 -0.31136307 1.273 0.5614583492 -0.2782801092 0.7793104053
-0.1148452 0.058707844 0.97762507 -0.1054790094 0.6896134019 0.7164548635
0.19943061 -0.41628322 1.169 0.6654609442 -0.1674314737 0.7274121046
0.34037986 -0.25892878 0.97800004 0.678624928 -0.1064612567 0.7267283797
0.054277156 -0.40501952 1.274579 0.6345220804 -0.1257112473 0.7626128793
-0.044486932 -0.017306374 1.09 -0.1321266443 0.7775137424 0.6148291826
0.2496361 -0.22049569 1.108 0.8662992716 0.157581687 0.474018544
-0.1039995 -0.10709289 1.1746001 -0.1857098341 0.7274159789 0.6605890393
0.1413625 -0.29258749 1.25 0.678810358 -0.131083414 0.7225189209
-0.01221372 -0.068193272 1.161 -0.2375138104 0.7047522664 0.6685143113
0.24220981 -0.44479433 1.13 0.6878572106 -0.06241445616 0.7231575847
-0.1654612 -0.16308236 1.2060002 -0.2695102692 0.6557331085 0.7052505016
0.12195573 -0.080261461 1.189 -0.05432961881 0.6765620708 0.7343786955
-0.13445351 -0.057275612 1.1023332 -0.3164648116 0.7283818722 0.6077086926
-0.17447744 -0.26630315 1.2943077 -0.414437443 0.3076664209 0.8564946055
-0.24291557 -0.19836336 1.21 -0.3527725637 0.6038453579 0.7147882581
-0.28450283 -0.2143217 1.205143 -0.1714121848 0.690687716 0.7025442123
-0.075091667 -0.045142427 1.1154737 -0.1871379614 0.714425981 0.6742216945
-0.064916044 0.014309352 1.0442729 -0.1400524378 0.7923594713 0.5937607288
-0.075168021 -0.13532855 1.2121304 -0.1765372157 0.7275693417 0.6629309654
-0.19568333 -0.10178626 1.137273 -0.2114129215 0.7437445521 0.634151876
0.32182959 -0.39098808 1.0380001 0.7453424931 0.3532505333 0.5654013157
0.24337724 -0.12552534 1.0930001 0.8296243548 0.0603986159 0.5550454259
-0.26430652 -0.27456692 1.2411902 -0.2018119395 0.0484778583 0.9782238007
0.29479462 -0.22517277 1.0349261 0.7545787096 0.01627174206 0.6560077667
-0.19568077 0.032318316 1.01 0.1207150593 0.5911503434 0.7974767685
-0.0039857021 -0.17871891 1.2729999 -0.1966131926 0.6657442451 0.7198109627
0.064048566 -0.44523722 1.2640001 0.636924386 -0.1372179091 0.7586162686
-0.1257513 -0.0019179874 1.0456363 -0.2481375188 0.7497389317 0.6134487391
0.064356096 -0.096009493 1.2034545 -0.07650031894 0.7292915583 0.6799128652
0.10487369 -0.025065264 1.1333333 -0.1443618983 0.7479656339 0.6478480101
-0.045017026 -0.18402557 1.2662221 -0.1786316335 0.6498106718 0.7388076782
0.22723168 -0.1651177 1.1342353 0.8742368817 0.109607175 0.4729652703
0.21649022 -0.26505738 1.1673639 0.7397498488 0.01013061032 0.6728057265
0.19166604 -0.19541271 1.202 0.8238523006 0.01256997045 0.5666651726
0.30357641 -0.42525089 1.0705293 0.5953655839 0.1403304785 0.791105032
0.014017946 0.036019415 1.0367897 -0.1194483489 0.7818924189 0.6118630171
-0.054182053 0.11600533 1.0115716 0.6679267287 -0.2302599102 0.7077105641
0.24318345 -0.35500377 1.1326153 0.7770010233 0.01031877287 0.6294147372
0.32193846 -0.31490526 1.0030999 0.859051466 0.1328962743 0.4943371415
0.27149981 -0.36553881 1.101 0.797499001 0.01699047349 0.6030809879
0.165599 -0.29484951 1.2165909 0.7047783136 -0.04355072975 0.7080895901
0.27115148 -0.19471915 1.0607002 0.8620054722 0.04711917788 0.5047041774
-0.035126016 -0.12560925 1.2142003 -0.1800154448 0.7133556604 0.6772873402
-0.24270013 -0.14669177 1.1620001 -0.3509086072 0.6160811782 0.7052000165
-0.066986367 0.1827879 1.0467 0.6246358156 -0.287029326 0.7262535691
0.26723698 -0.15474857 1.0633889 0.8327864408 0.05701417848 0.5506506562
0.037377559 -0.47684705 1.2920001 0.7747937441 0.0727821067 0.6280106306
0.016072223 -0.14720696 1.25 -0.07202462107 0.6681588292 0.740524292
-0.24466649 -0.072184958 1.087 0.001218694495 0.6132227182 0.7899091244
0.2542142 -0.087775521 1.0746666 0.7970817685 -0.02970968559 0.6031401157
-0.098539084 -0.25093094 1.307 -0.2649234831 0.6545914412 0.7080435157
-0.36689523 -0.05513094 1.3573335 -0.6275687218 0.3096602261 -0.7143304944
0.017351864 -0.40581363 1.3062308 0.6165258288 -0.07625494152 0.7836332917
-0.023155648 0.067236446 0.98871428 0.06681106985 0.4296300709 0.9005299807
0.034275565 -0.33516443 1.3120002 0.501311183 -0.27343449 0.8209267259
-0.14708187 -0.083059661 1.126 -0.2352439165 0.7425605059 0.6271077991
-0.12528619 -0.16956837 1.2320001 -0.2999550998 0.6414322257 0.706110239
-0.2112644 -0.168384 1.1930001 -0.3158922493 0.6336992979 0.7061425447
0.085232161 -0.27778322 1.2919999 0.5090594292 -0.1824695617 0.8411678672
0.30641839 -0.35483724 1.0440001 0.8699380755 0.145818159 0.4711101651
-0.074719563 0.05190656 0.99233341 -0.1149000227 0.7520778775 0.6489813924
-0.20546217 -0.26137596 1.2754999 -0.5160236359 0.1338407695 0.8460533023
