# .PCD v0.7 - Point Cloud Data file format
VERSION 0.7
FIELDS x y z normal_x normal_y normal_z
SIZE 4 4 4 4 4 4
TYPE F F F F F F
COUNT 1 1 1 1 1 1
WIDTH 206
HEIGHT 1
VIEWPOINT 0 0 0 1 0 0 0
POINTS 206
DATA ascii
0.042907573 -0.11799583 1.748 -0.2749664783 0.8798056841 0.3877311051
0.46573618 -0.49741891 3.6140001 -0.2088024616 0.8671827316 0.4521014094
-0.33170816 -0.29258779 2.7890003 -0.4005873501 0.7857618928 0.4712833464
0.49525356 0.11718053 2.5220001 -0.7257131338 0.2959722281 -0.6210803986
-0.34654984 0.082329519 2.184 -0.2022313625 0.884139359 0.4211888611
0.12698868 -0.2953867 3.1490002 -0.2009893358 0.8537991643 0.4802397788
0.27064627 0.38687477 1.8940001 -0.9208965898 0.2078416198 -0.3297747076
-0.18081075 0.3829771 1.6240001 0.405936867 -0.1755282134 0.8968863487
0.27128538 -0.49221238 1.853 0.5923107862 -0.1187582389 -0.7969092727
0.072814174 0.1035431 2.286 0.7090049386 0.2751224041 0.6493224502
-0.13937509 -0.4942787 1.6390001 -0.2536359131 0.1059416533 -0.9614807367
-0.25831684 -0.46553805 3.2380002 -0.3622508943 0.7723673582 0.5217499733
0.4939245 -0.27534872 3.2380002 -0.2042184621 0.8705283403 0.4477445781
-0.1545651 0.26619545 1.9590001 -0.2522639632 0.8888542652 0.3824931383
0.33225229 0.044977382 1.6550001 -0.6114393473 0.2882822454 0.7369092703
-0.11355989 0.074958503 1.5359999 0.2482367307 -0.08032212406 0.9653636217
-0.27604479 -0.096503466 2.5600002 -0.1632499844 0.8742425442 0.4572192729
-0.12556672 -0.28514108 2.9840002 -0.3551846445 0.7707503438 0.5289497375
0.28221506 -0.41201434 3.3650005 -0.1923545897 0.8741470575 0.4459446073
0.20994501 -0.22018623 1.9470001 0.9722542763 0.2339245528 0.0009595101001
0.052417401 -0.37532625 1.7659999 0.3780329823 0.2575972378 -0.8892326355
-0.38380906 0.19762082 1.863 -0.4968304634 0.8487558961 0.1810328662
-0.1832961 -0.2695531 1.7570001 -0.6585562229 0.3756605089 -0.6520605087
0.12734021 0.081765823 1.529 -0.3546900153 -0.428293407 0.831119597
-0.1368389 0.051832918 2.365 -0.1889181584 0.8758867383 0.443995893
0.49357384 -0.38221878 3.4330001 -0.2271390855 0.8615843654 0.4539605677
0.25507057 -0.098585546 1.7850002 -0.03260122612 0.8610684872 0.507442832
-0.123293 -0.11702869 1.6240002 -0.1159481481 0.8673321605 0.4840361178
-0.34489295 -0.40194291 2.9580002 -0.3765574992 0.7795191407 0.5005540252
-0.3665536 -0.01441503 2.3490002 -0.2261773348 0.8642267585 0.4493950605
0.025792411 -0.38688615 3.2690001 -0.209909007 0.8500189781 0.4831210375
-0.1039376 -0.4020744 3.1200001 -0.2930269539 0.8092408776 0.5091801882
-0.20833018 0.17145759 2.1030002 -0.2057214826 0.8829610944 0.421969682
0.1127218 0.19350575 2.1430001 -0.09379474074 0.8581557274 0.504748702
-0.16671044 0.36015746 1.794 -0.9940074086 -0.09810419381 0.04821645841
0.15521602 -0.038262554 1.6470001 -0.1903803945 0.7937357426 0.5777013302
0.0074843224 -0.038771242 1.5517501 -0.4438845515 0.8169245124 0.3682402074
-0.15231733 0.22498247 1.5940001 0.6186261773 0.0461717695 0.7843276262
0.19873069 -0.34414339 1.8430001 0.6082723141 0.1569830328 -0.7780495286
-0.36742854 -0.48595384 3.1200001 -0.3765574992 0.7795191407 0.5005540252
0.075943664 -0.2359533 1.8529999 0.1807677746 0.5650605559 -0.8050028682
-0.075470477 -0.3551552 1.6879998 0.4531473517 0.3357374966 -0.8257952929
0.14479728 -0.49511328 1.7760004 0.1467597485 0.04941997677 -0.9879368544
-0.0048578293 -0.49437752 1.705 0.71401757 0.1711021066 -0.6788983345
0.24412361 -0.35483083 3.2380002 -0.1885546893 0.8655232191 0.464022249
-0.045151841 -0.24392374 1.7760001 0.3548180759 0.7065027356 -0.6123381257
-0.26123789 -0.30609691 3.0100002 -0.3620921969 0.7870616913 0.4994227886
0.3705442 -0.2813907 3.1780002 -0.1985398382 0.8787090182 0.4341110587
0.14543286 -0.1390402 1.8230001 -0.1746442467 0.8416469097 0.5110086203
0.22719029 0.043936428 1.5860002 -0.3205010593 0.5155066848 0.7946898341
0.2434328 -0.29266641 3.1200001 -0.2067843229 0.8729383349 0.4418358207
-0.1049931 -0.057148147 1.516 -0.04905724898 0.4205906987 0.9059231877
0.14424644 -0.40599164 3.2690001 -0.2105472684 0.8832260966 0.4190244973
-0.0090638567 0.047908958 1.4770001 -0.2066227943 -0.03448296338 0.9778128266
-0.16540858 -0.15933855 1.7310001 0.5314769745 0.5189002156 0.6695332527
-0.40186927 0.13910858 1.9590001 -0.9448456764 -0.05301329121 -0.3231968284
0.39233899 -0.3466489 3.3990002 -0.2271390855 0.8615843654 0.4539605677
-0.01299483 -0.094814129 1.647 -0.3891102374 0.8363201022 0.3862148225
0.28375947 -0.38224068 1.904 0.9036206603 0.2940018177 -0.3115006387
0.27506292 -0.040144321 1.6960001 -0.1574385762 0.7878958583 0.5953429937
-0.16443343 -0.39512387 1.6550001 -0.1630088836 0.07466133684 -0.9837955832
-0.063404039 -0.14945237 1.7220001 -0.354349494 0.8592317104 0.3689949214
0.16497426 -0.088468812 1.7355715 -0.1535621732 0.8861142993 0.4372872412
0.23316354 -0.14285371 1.8730001 -0.2640992999 0.8467745185 0.4617623389
-0.02404872 0.078158341 2.286 -0.3072320521 0.9516262412 -0.003992098849
-0.0015981633 -0.16780715 1.8230001 -0.3996639848 0.7210584879 0.5659888387
0.42686391 -0.38387042 3.5030003 -0.2236993462 0.86522156 0.4487206936
0.17219311 -0.24529396 1.853 0.3435539007 0.4623125494 -0.8174581528
0.0955422 -0.0072458689 1.57375 -0.3345784843 0.7828586698 0.5245851278
0.40408108 -0.26652157 3.2690001 -0.2042184621 0.8705283403 0.4477445781
0.11443656 -0.31628993 1.8130001 0.1173487753 0.2348834276 -0.9649140239
0.20556195 -0.4344351 1.8130001 0.397513181 0.07317576557 -0.9146740437
0.2523818 -0.2839295 1.8940001 0.5772121549 0.140247792 -0.8044604659
0.073977955 -0.072513044 1.6710001 -0.2520752251 0.8533169627 0.4564079344
0.023722598 -0.29574171 1.804 0.5073009133 0.2528405488 -0.8238431215
-0.06560535 -0.44465849 1.6630001 0.4462172091 0.07610034943 -0.8916832209
0.06315244 -0.46794415 1.7570002 0.4185169637 0.2343079448 -0.8774641752
-0.10416378 -0.27565661 1.7220001 0.1587613672 0.750826478 -0.6411352754
-0.01358658 -0.41212624 1.7220001 0.7296830416 0.2165518105 -0.6485892534
-0.11851832 0.15021507 1.572 -0.1431911588 -0.2289328128 0.9628530741
-0.14952251 0.3116217 1.5940001 0.3859036863 -0.1518740803 0.9099519849
0.12518799 -0.41468525 1.785 0.3382083476 0.2843236625 -0.8970926404
-0.17136237 -0.31460831 1.6880001 -0.4511900544 0.2170346081 -0.8656347394
-0.23912749 -0.28541023 2.9330001 -0.3490866721 0.7903001904 0.5035514832
-0.059523035 -0.081671141 1.5790001 -0.3277433217 0.8419561386 0.4285955429
0.06501431 0.034006618 1.5079091 -0.4413796961 0.4729198813 0.7625816464
-0.32569045 0.18299101 1.9150001 -0.5371580124 0.8305510283 0.1471268386
-0.028965943 -0.31710082 1.7390001 0.6138010025 0.3857521415 -0.688798666
0.093675338 -0.35483083 3.2380002 -0.2121485025 0.8547280431 0.4737435281
0.054793421 -0.17434269 1.8940001 -0.02346265875 0.7879952788 0.615234077
0.2346866 -0.011015902 1.6390001 -0.2086753398 0.7231629491 0.6583995223
-0.043279279 -0.01879807 1.4959999 -0.008105293848 0.5696182251 0.8218694329
0.068721026 -0.14862919 1.8230001 -0.1935508698 0.8838179111 0.4259153903
0.16452987 0.0088058244 1.5860001 -0.391835928 0.7513310909 0.5310049057
0.28305534 0.075651422 1.6159999 -0.3604459167 -0.2602734864 0.8957323432
0.4652698 -0.2563163 3.1780002 -0.2042184621 0.8705283403 0.4477445781
0.17860155 -0.17192486 1.904 -0.1550974846 0.8596291542 0.486808449
0.20518208 -0.049065281 1.6960001 -0.08543405682 0.8650088906 0.4944296181
0.036125679 -0.057376079 1.6160001 -0.2993115187 0.8252010345 0.4790155292
0.26424605 -0.4250679 1.853 0.5053853393 0.1550317407 -0.8488526344
-0.11081856 0.0093461433 1.5230001 -0.5086148381 -0.2119339556 0.8345028162
0.10431632 -0.11988592 1.7760001 -0.1725396514 0.8791252375 0.4442621768
-0.11574705 -0.1532764 1.6834285 -0.2169858515 0.8805288672 0.4214095771
-0.15867783 0.29679605 1.8040003 -0.9958018661 -0.08420772105 0.03588401899
0.0015981633 -0.23812634 1.8230001 0.1588149816 0.7777317166 -0.6082032919
-0.12751292 -0.097348571 1.5640001 -0.2029061913 0.8178191781 0.5385172963
0.18882084 0.08417315 1.557 -0.3902924061 -0.2265841663 0.8923740387
0.26803645 0.33951283 1.853 -0.9150910378 0.2266629636 -0.3335150778
0.19470522 -0.11355183 1.794 -0.2056602687 0.8775604367 0.433118403
0.33405206 -0.011500464 1.6816 -0.2641605735 0.6347651482 0.7261490226
0.22346917 -0.49493814 1.8130001 0.4509471953 -0.09076822549 -0.8879233003
-0.0037367917 -0.11509318 1.705 -0.4265632927 0.8297057748 0.3600446284
-0.013159644 -0.14630426 1.766 -0.4543331563 0.8029385209 0.3858382702
0.29422337 -0.068958603 1.748 -0.2371235341 0.8242229819 0.5142264962
-0.067063242 -0.12392122 1.6630001 -0.3439914882 0.8615305424 0.3734099269
0.10340897 -0.092841633 1.7220001 -0.1773035377 0.8647088408 0.4699383974
0.093964636 -0.041287493 1.6240001 -0.2842953503 0.8008770943 0.5270408392
0.15656915 -0.36849105 1.8040001 0.08040396124 0.2535759509 -0.9639680982
-0.10591449 -0.39692023 1.655 0.2381575257 0.1888885647 -0.9526815414
-0.1570259 -0.22105588 1.7390001 -0.8134214282 -0.1154001355 -0.570112586
0.016867943 0.0033707833 1.5056667 -0.4164586365 0.6564296484 0.6290169954
-0.062278397 -0.17282256 1.7760001 -0.3350186944 0.8496715426 0.4072109759
0.28047022 0.018508187 1.6240001 -0.3908954561 0.6276697516 0.673224628
0.23477659 -0.073177122 1.7390002 -0.04014703631 0.8603185415 0.5081734061
0.15995397 -0.30375099 1.8430001 0.3872165084 0.2685993016 -0.8819964528
0.24708438 -0.37307641 1.863 0.5187800527 0.3683397472 -0.7714875937
0.13391697 0.028406629 1.5430001 -0.3175002038 0.6660848856 0.6749255657
-0.085239395 -0.49511394 1.655 0.3223904669 0.1246489286 -0.9383640289
-0.1355844 -0.34697941 1.6630001 0.07585711032 0.5466240644 -0.8339351416
0.20864667 -0.25371435 1.904 0.4934140742 0.5818454623 -0.6465280056
0.0015324133 -0.3677792 1.748 0.7169761062 0.4131164849 -0.5614980459
0.064841777 -0.33369792 1.804 0.3172305822 0.2742076814 -0.9078407884
-0.1002179 0.03067895 2.3330002 -0.1889181584 0.8758867383 0.443995893
0.12411487 -0.26453361 1.8430003 0.192924574 0.4868157804 -0.8519334197
0.12528734 -0.067803741 1.6813335 -0.1261582673 0.8507017493 0.5102848411
0.099634923 -0.37323558 1.8040001 0.2654740512 0.3977513909 -0.8782467246
-0.04533419 -0.055657808 1.5360001 -0.274864167 0.8147662282 0.5104954839
0.034019578 -0.42570442 1.7479999 0.6043625474 0.3569901586 -0.7122527361
-0.12477595 -0.44542119 1.6550001 -0.2306902856 0.2486140132 -0.9407300949
0.054107871 -0.0067634834 1.5430001 -0.3569706976 0.755851984 0.5488712788
0.21354483 -0.29602295 1.863 0.5388630033 0.4323636591 -0.7229718566
-0.11229574 -0.17147863 1.7310001 -0.2931665778 0.8847743273 0.3622536659
0.18402849 -0.15339576 1.8529999 -0.1985678971 0.7995749116 0.5667898655
-0.09443979 -0.25235552 1.766 0.04561858252 0.8693970442 -0.4920037687
0.23493002 -0.12534167 1.8230001 -0.1475303024 0.8630365729 0.4831177294
0.075113684 -0.28607124 1.8230002 0.02029489912 0.5651050806 -0.8247693181
0.26068383 -0.33374172 1.8940001 0.6532734036 0.3252212107 -0.6837140918
0.13956971 -0.16584167 1.8730001 -0.1247803569 0.8899917603 0.4385709763
0.075253069 -0.42193615 1.7760001 0.1840900481 0.2437273115 -0.9522120953
-0.10506675 -0.31520021 1.688 0.2672584653 0.2880329192 -0.9195705056
0.16341506 -0.44642931 1.785 0.4074063599 0.2732858956 -0.8713982701
-0.033538636 -0.36391923 1.7130002 0.5637407303 0.4041295946 -0.7203302383
0.44202936 -0.47651392 3.5760002 -0.2088024616 0.8671827316 0.4521014094
-0.01251354 -0.068129271 1.5860001 -0.4262563884 0.8189879656 0.3841409087
-0.057931885 -0.27593872 1.7390002 0.5868685842 0.4897732735 -0.6447537541
0.44842991 -0.40027636 3.4330001 -0.2271390855 0.8615843654 0.4539605677
-0.039552569 -0.48488522 1.6710001 0.5327109694 0.2111371607 -0.8195365667
-0.15392733 -0.27706918 1.7130001 -0.1394754648 0.8423740268 -0.5205310583
0.4671292 -0.30091146 3.2690001 -0.2042184621 0.8705283403 0.4477445781
0.049325649 -0.097156584 1.705 -0.2769903839 0.8778256178 0.3907665312
0.0233544 -0.33552486 1.7760001 0.4251831472 0.4438245595 -0.78882128
-0.054753095 -0.40546885 1.6879998 0.4913487732 0.2718203068 -0.8274600506
0.21479297 -0.39262655 1.8330001 0.4684661329 0.3062658012 -0.8286982179
0.28720564 -0.0072894832 1.6630001 -0.3480770588 0.748108089 0.5649572015
-0.054100852 -0.098235756 1.6240001 -0.351432085 0.8376241326 0.4181881249
0.18742432 -0.0071536 1.6320001 -0.2471625507 0.7617628574 0.5988555551
-0.048525251 0.02754136 1.4960001 0.3937598169 -9.140875045e-05 0.9192133546
0.024849292 -0.14374843 1.794 -0.1797424108 0.8522971869 0.491204828
-0.17003827 -0.29560497 2.9840002 -0.3490866721 0.7903001904 0.5035514832
-0.17796333 0.33741847 1.6240001 0.5517494678 -0.3330215812 0.7646365762
0.10431632 -0.46397409 1.7760001 0.2322101295 0.08009111136 -0.9693626165
-0.021158641 -0.28125513 1.7660002 0.5378305912 0.4022133648 -0.740920186
0.25341627 0.39636904 1.853 -0.9175658822 0.2302189022 -0.3241482079
0.037362657 -0.16731972 1.853 -0.2108999789 0.9385258555 0.2732954621
-0.15016335 -0.1326686 1.6630001 0.3341560066 0.82702142 0.4520789087
0.044296209 -0.033222158 1.5790001 -0.3587591946 0.8303365707 0.4264187813
-0.06557554 -0.31786618 1.7130002 0.5483458638 0.4043375254 -0.7320027351
-0.02663664 -0.44542381 1.6880001 0.5458881855 0.1661527306 -0.8212181926
0.030615829 -0.080184318 1.6630001 -0.3120293021 0.8434035778 0.4373877645
0.085420161 0.072854824 1.5159999 -0.3060981035 -0.2016892731 0.9303898811
-0.1263189 0.18947835 1.6010001 -0.7267344594 -0.3015075326 0.6172116399
0.15413904 -0.11054417 1.7760001 -0.06205286831 0.8945611715 0.4426169395
0.1053052 0.17806152 2.184 -0.09446912259 0.856544733 0.5073526502
-0.00151751 -0.4537355 1.7310001 0.6706719995 0.166667819 -0.7227869034
0.12526369 -0.015486512 1.6054444 -0.2718634009 0.8061492443 0.525560379
0.24212176 -0.45627564 1.8230001 0.531119287 0.06625515968 -0.844702661
0.035047673 -0.4952184 1.7381113 0.4201664925 0.3434994519 -0.8399215937
0.095843337 -0.1640708 1.853 -0.02493271418 0.8459214568 0.5327243209
-0.096421063 -0.10201069 1.5940002 -0.1257963181 0.8520545959 0.5081124306
-0.16314723 0.26655534 1.594 -0.4267786145 -0.3496232629 0.8340405226
0.034885723 0.062164783 1.4960001 -0.2123562843 -0.2143865675 0.9533851147
-0.11517296 0.10831743 1.5640001 -0.2880967855 -0.4715996385 0.8334230781
0.16540946 -0.064305253 1.6960001 -0.2971888781 0.7851601839 0.5433251262
0.18636969 -0.486763 1.794 0.6684065461 0.1296893358 -0.7324024439
-0.14670841 0.19332604 1.5640001 -0.5682442188 -0.2425109893 0.7863122225
0.064158849 -0.12988254 1.7850002 -0.2063007504 0.8551625013 0.4755387008
0.17280519 0.038492154 1.557 -0.4512000382 0.5369662046 0.7128013968
0.24401404 0.082728408 1.5860001 -0.5283184648 -0.1083857864 0.8420998454
-0.39202866 -0.0040624733 2.3170002 -0.2232653946 0.8652999997 0.448785603
-0.06809333 0.0013351634 1.5230001 0.6890004277 -0.06080180407 0.7222060561
0.045547657 -0.25650519 1.8230001 0.4269301593 0.6245720983 -0.6539421678
-0.093133844 -0.06769532 1.5546666 0.02057784051 0.8470680714 0.5310859084
0.09021952 0.017505281 1.536 -0.3648881614 0.7267808318 0.5819332004
0.17554724 -0.40486571 1.8040003 0.3102306128 0.2294792086 -0.9225487709
0.31249133 -0.043778978 1.7220001 -0.2930673361 0.8110978007 0.5061935186
0.20332004 -0.090877898 1.7570001 -0.2172618806 0.8340526223 0.5071030855
