# .PCD v0.7 - Point Cloud Data file format
VERSION 0.7
FIELDS x y z normal_x normal_y normal_z
SIZE 4 4 4 4 4 4
TYPE F F F F F F
COUNT 1 1 1 1 1 1
WIDTH 206
HEIGHT 1
VIEWPOINT 0 0 0 1 0 0 0
POINTS 206
DATA ascii
-0.33860636 -0.1823265 2.7010002 -0.2917944789 0.8518303633 0.4350183606
0.27408281 0.095513709 1.5790001 -0.1499673426 0.2006137669 0.9681239128
0.48570576 -0.22944383 3.3990002 -0.2551296949 0.8699268699 0.4220617712
-0.32727718 0.1770516 2.0400002 -0.2860355079 0.8679929972 0.405921042
-0.10320033 -0.49382123 1.7570002 -0.39377895 -0.4440863729 -0.8048139215
-0.21622282 -0.41783598 3.3330002 -0.2817223668 0.857827723 0.4298419058
0.18104306 0.28182992 2.1290002 -0.2165498883 0.8618656993 0.4585778415
-0.20160703 -0.0208559 1.5860001 0.6539856791 0.1040010899 0.7493240237
0.32459986 -0.30370978 1.8330001 0.1879696995 0.2289761156 -0.955111146
0.13282201 -0.18703508 3.0920002 -0.2527357638 0.872516036 0.4181392491
-0.28272763 0.38673624 1.6710001 -0.9036484957 -0.4231580794 0.06600481272
0.19662055 0.47374716 1.766 0.5211241245 0.7117336392 0.4710253179
0.027466843 -0.11794586 1.8430001 -0.2808866799 0.8152942657 0.5063575506
-0.43565422 -0.33452022 2.9580002 -0.2728615403 0.8594217896 0.4323664606
0.43246317 -0.14773586 3.0640001 -0.2517945766 0.8722223639 0.4193180203
-0.01791819 0.14931825 2.2710001 -0.2492955774 0.8613633513 0.4426114559
0.018606372 0.10366407 1.516 0.08820836991 -0.5436131358 0.8346880078
0.15633036 -0.49415487 1.794 0.1918511391 -0.4395778477 -0.8774762154
0.26132995 -0.04851035 1.7850001 -0.1327979714 0.8713190556 0.4724063575
-0.22428641 -0.30907759 3.1200001 -0.2728615403 0.8594217896 0.4323664606
-0.1533553 -0.26289481 1.7850001 -0.1714079529 0.4312877953 -0.8857822418
0.2923806 -0.26683277 3.2380002 -0.2551296949 0.8699268699 0.4220617712
-0.40592647 -0.47405398 3.2380002 -0.2728615403 0.8594217896 0.4323664606
-0.21581517 0.19324625 1.6090001 -0.4804046154 -0.2952897549 0.8258422017
0.084964782 -0.022706104 1.6710001 -0.1954063922 0.8935854435 0.404130429
0.046887204 -0.32344222 1.8130001 0.1605791301 0.1775604486 -0.9709205031
-0.047809891 -0.35154334 3.2080002 -0.2563079596 0.8716948032 0.4176774025
-0.094914511 -0.10313546 1.705 -0.3866733015 0.817363441 0.4270840287
0.18580511 -0.1954993 1.8430002 0.07440273464 0.2963838279 -0.9521663785
-0.047064729 -0.02076385 1.5790001 -0.3623099923 0.7955275774 0.4856617451
-0.26848531 0.29138383 1.9590001 -0.8333797455 0.5222107768 0.1810360998
0.27351999 -0.1613768 3.1200001 -0.2517945766 0.8722223639 0.4193180203
0.29368517 -0.44414803 1.813 0.347111553 -0.2604146004 -0.9009427428
0.18693408 -0.34255433 1.8040001 0.1687891781 -0.003200549865 -0.9856469631
0.137812 0.062015399 1.572 -0.1532080621 0.7414137125 0.6533245444
0.025213433 -0.45450529 1.7660002 0.4441512227 0.1442764252 -0.8842589855
0.22364135 0.0061231656 1.6630001 -0.1446084231 0.8740926385 0.4637352824
-0.075366877 -0.3651323 1.7479999 0.08301052451 0.4356752038 -0.8962680101
0.24510723 -0.10576545 1.9150001 -0.8896194696 -0.2421754599 -0.3872056305
0.13614196 -0.070418246 1.7850002 -0.05581855029 0.8830685616 0.4659122527
-0.03479315 -0.22615546 1.8040003 0.1294637322 0.4346171618 -0.891261518
-0.12038299 0.042332478 1.5090001 0.06178781018 -0.1467650086 0.9872397184
-0.16289519 -0.15024313 1.8040001 0.9755699635 -0.1644851863 0.1456290781
-0.16030376 -0.33466926 3.2080002 -0.2629792392 0.865164578 0.4270037115
0.012946175 -0.072332457 1.737 -0.3380119503 0.86135149 0.3792381585
0.069474958 -0.22135045 1.8430001 -0.0851405859 0.2842647135 -0.954957962
0.29234818 -0.1959876 1.863 0.2895531952 0.2836371958 -0.9141711593
-0.21212633 0.085800774 1.5940001 -0.2544168532 -0.09976357967 0.9619351625
-0.24471565 0.28582403 1.6550001 -0.5345543623 -0.4210846126 0.7327615023
0.045882981 0.020855898 1.5860001 -0.3071259558 0.79085356 0.5293620825
0.10576677 -0.40380096 1.7939999 0.07182441652 0.472119391 -0.8786037564
-0.058191381 -0.13053742 1.794 -0.3513596058 0.8026916385 0.4819051623
-0.35344744 -0.13311657 2.618 -0.3181391656 0.8433194757 0.4331279099
-0.18223709 -0.10642646 1.6630001 -0.3448970318 0.8384460211 0.4219647944
-0.0066416264 -0.19592799 1.8940001 -0.05942112207 0.9560855031 -0.2870011926
-0.31508979 -0.45134482 3.2380002 -0.2728615403 0.8594217896 0.4323664606
0.30323461 0.050780911 1.6550001 -0.4743816257 0.6619954705 0.5802792907
0.244519 -0.26369694 1.8230002 0.07004284114 0.1304652989 -0.9889756441
-0.11475217 -0.066584587 1.6160001 -0.2510023415 0.8704784513 0.423397094
0.20722121 -0.2923806 3.2380002 -0.2551296949 0.8699268699 0.4220617712
-0.0043526501 -0.043042868 1.6550001 -0.3889221251 0.8579887748 0.3355515003
0.1446351 -0.26542926 1.813 -0.1841934919 0.02875120007 -0.9824693799
0.1954993 -0.093171842 1.8430001 -0.2095014155 0.8240013123 0.5264323354
0.2123199 -0.42463982 1.794 -0.2878403366 -0.1254206449 -0.9494301677
0.19519071 0.12387102 1.557 -0.2618021667 0.03296265379 0.9645584822
0.16068511 -0.03153633 1.7130001 -0.1660628766 0.8744397163 0.4558269978
-0.14791121 -0.40013871 1.7760001 -0.6683527231 -0.08086212724 -0.7394362092
-0.034554694 0.03455469 1.5160002 -0.1916791201 0.5698059797 0.7991122007
0.27360064 -0.36216503 1.8040001 -0.1162729636 0.1624284834 -0.9798457026
-0.025619067 -0.30672112 1.7760003 0.4394254982 0.3473513126 -0.8284034729
0.14507499 0.011159616 1.6320002 -0.1590722799 0.8198372722 0.5500571728
0.2808235 -0.01051211 1.7130001 -0.08035801351 0.8654809594 0.4944545031
0.094923712 0.11497746 1.525 -0.176484257 -0.2752343714 0.9450393319
-0.044778906 -0.43560833 1.7374001 0.1573088169 0.172839269 -0.972306788
0.21474212 0.051931102 1.6010001 -0.2177849412 0.7390363812 0.6374911666
-0.12504256 -0.026100041 1.5519092 -0.05234595388 0.7285216451 0.6830198169
-0.12490045 -0.39457187 3.2380002 -0.2571278811 0.8663949966 0.4280712306
0.090791985 -0.11390267 1.8830001 -0.2294054478 0.9194839001 0.3192530572
0.0046708798 -0.37522736 1.7760001 0.3253339827 0.3519901037 -0.8776450157
-0.30913895 0.19515477 1.9700001 -0.9870772958 0.1440426558 -0.070214957
0.22374287 -0.49223429 1.8230001 0.3586065173 -0.5474049449 -0.7561410069
-0.15439591 -0.13364492 1.7323333 -0.1145742536 0.9043907523 0.4110353887
0.085905962 -0.052702218 1.7374001 -0.1264391392 0.8893310428 0.4394353032
0.33584836 -0.38084242 1.8330001 0.627124548 0.1153731346 -0.7703270912
0.08314167 -0.4941791 1.7760003 0.2455612719 -0.155155763 -0.9568836689
0.26467443 -0.24238606 3.1780002 -0.2551296949 0.8699268699 0.4220617712
0.11602595 -0.3353627 1.813 0.06859751046 0.1768707782 -0.9818406701
-0.15659751 -0.32705775 1.7570001 -0.3226547539 0.2447149307 -0.9143350124
-0.094439797 -0.2957049 1.7659999 0.2004840672 0.1577295065 -0.9669165015
-0.16551378 -0.21372169 1.8330001 0.4906453788 0.3859064281 -0.7812447548
0.06526871 -0.082568847 1.794 -0.2153956294 0.8946152925 0.3914949
0.11614913 -0.17625427 1.853 -0.3455740213 0.3859464526 -0.8553501964
0.19507235 -0.047219895 1.766 -0.1637067646 0.889044106 0.427551955
0.0234436 -0.25589284 1.813 0.2958832681 0.1161319017 -0.9481384158
-0.097509876 -0.23119278 1.794 -0.03949215636 0.5808836222 -0.8130280375
0.074939393 0.057624884 1.5430001 -0.2615204453 0.7336831689 0.6271491647
-0.062689558 -0.068521142 1.6630001 -0.3359418809 0.8564818501 0.3918952644
-0.05207137 0.094796598 1.5230001 0.2730371654 -0.4938974082 0.8255398273
-0.0229862 -0.49343711 1.748 0.4664956033 -0.1400476396 -0.8733661771
-0.29135665 0.3532511 1.7220001 -0.9022701383 -0.4121931195 -0.1265125573
0.23808952 -0.16912566 1.8730001 -0.1926348954 0.8099679351 -0.5539347529
0.1347491 -0.093387268 1.8430001 -0.04802358896 0.9066284895 0.4191879034
-0.10519211 -0.43448916 1.7390002 -0.3331128657 0.1335023344 -0.9333878756
0.30435252 -0.24650307 1.8329999 -0.07076308131 0.5691439509 -0.8191872239
-0.17936073 0.034759831 1.5860001 -0.5046958923 -0.3660599589 0.7818453312
-0.044109482 -0.094306536 1.7350001 -0.3792068958 0.8445906639 0.3779798746
-0.0055045905 -0.10301447 1.794 -0.391985774 0.8148031831 0.4271333814
0.086357214 -0.2770848 1.8130001 -0.09252084792 0.1398991495 -0.9858337045
-0.28683132 0.23761173 1.9360001 -0.9760382175 0.215637207 -0.02915361524
0.15484563 0.29329583 2.0780001 -0.2252227366 0.8634470701 0.451368928
0.020890091 -0.19122466 1.8330001 0.05311705172 0.198591277 -0.9786419868
0.15465277 -0.43460047 1.794 -0.08651927114 0.04039243236 -0.995431006
0.21775085 -0.022525949 1.7130001 -0.01981646754 0.8450145125 0.5343760848
-0.077744558 -0.0013404234 1.529 -0.2863393724 0.6735821962 0.6813932657
-0.17161773 -0.072878756 1.6090001 -0.2027609199 0.78682971 0.5829125643
-0.11365807 -0.14168335 1.7760001 -0.3116392195 0.8457653522 0.4330842495
0.014879663 0.041933596 1.5430001 -0.2780301571 0.7707739472 0.5732423067
-0.22242086 0.13741925 1.6160001 0.4100257158 -0.09899034351 0.9066861868
0.087557957 0.007830387 1.6240001 -0.2049992681 0.8268819451 0.5236807466
0.24586029 -0.20729397 1.8330001 0.06991396844 0.4821283817 -0.8733065128
0.053159066 -0.40636656 1.7760001 0.3148529828 0.1116107479 -0.9425553679
0.23532954 -0.32442716 1.8230001 0.1227260083 0.187719211 -0.9745254517
-0.28002048 0.32644877 1.6550001 -0.1403853297 -0.4714254737 0.8706606627
-0.12625386 -0.092430644 1.6630001 -0.2571235001 0.8542183638 0.4518832862
0.14744394 0.10551034 1.5430001 -0.2315514088 -0.05586414412 0.9712173343
-0.26541522 0.26541522 2.0050001 -0.850538969 0.5026789308 0.1545875818
0.19657409 -0.28607124 1.8230002 0.2733671963 0.1620255709 -0.9481656551
-0.23377964 0.23721337 1.6320002 0.7114867568 -0.238990739 0.6608101726
0.015583627 -0.0099168532 1.6160001 -0.2689397037 0.8114721179 0.5188298821
0.25667116 0.042635456 1.6320002 -0.324677676 0.7164592147 0.6174711585
0.034197014 -0.047578454 1.6960001 -0.2396046966 0.8929520845 0.3810854852
0.11986225 -0.21894838 1.8230001 -0.3015984595 0.2758122981 -0.9126696587
-0.01784192 -0.072854504 1.6960001 -0.3954443634 0.8108071089 0.4315270782
0.24366949 -0.079598702 1.853 -0.2600120306 0.9162276983 0.3048286736
0.17432427 -0.0036622749 1.6710001 -0.2724043429 0.8011269569 0.5329084992
0.15024313 -0.38114309 1.8040001 -0.1369722486 0.08690595627 -0.9867552519
-0.044609476 -0.043185771 1.6240002 -0.3149879873 0.8266460896 0.4663032889
0.074330814 -0.36374652 1.804 0.07575268298 0.4310103655 -0.8991615772
0.22615544 -0.37481701 1.804 -0.2091130316 0.2752323449 -0.9383596778
0.084188931 -0.44660816 1.7850001 0.1000994146 0.07427087426 -0.9922015667
0.27540308 0.014649101 1.6710002 -0.2833105326 0.7843037844 0.551908195
0.18595941 -0.23999889 1.8130001 0.193476066 0.2199533284 -0.9561315775
0.18441384 0.077467524 1.5640001 -0.223344937 0.6306030154 0.7432744503
-0.0062696505 0.0062677618 1.5763079 -0.4322480857 0.7701601982 0.469057411
-0.14946815 0.01211904 1.536 0.5732109547 0.4436835349 0.6888934374
-0.12043734 -0.38722891 1.7390001 -0.4524317384 0.193161577 -0.8706285954
-0.035426978 -0.39277735 1.7570001 0.3241770864 0.2681216002 -0.9072045088
-0.054769747 -0.26445964 1.7850001 0.1958624274 0.4607833326 -0.8656307459
-0.08275032 -0.11799583 1.748 -0.3856540024 0.8644544482 0.3224740922
-0.090375565 -0.037540618 1.5860001 -0.3530735672 0.806289196 0.4745911658
-0.25748754 0.35071576 1.6880001 -0.8471844792 -0.5073909163 0.1575846523
0.22331023 -0.066754662 1.8130001 -0.1450093985 0.851269424 0.5042942166
0.29183882 0.073668048 1.6160001 -0.2142687589 0.8210926056 0.5290517807
0.11466612 -0.033524364 1.705 -0.1295491457 0.8794677854 0.4579884112
0.094745375 0.033170816 1.5860002 -0.1189591587 0.7899702787 0.6014944911
0.086774215 -0.094808869 1.8330001 -0.138352111 0.885707438 0.4431489706
0.16622506 0.042608049 1.6023332 -0.2230191231 0.7936864495 0.5659720302
-0.17221504 -0.30353883 1.794 -0.586578548 0.3721173406 -0.719342947
-0.15025979 -0.16964816 1.8430001 0.6671481729 0.3188543618 -0.67323488
0.24513353 -0.45705542 1.8040001 0.09201022983 -0.5472263694 -0.8319119215
-0.06525293 -0.47498062 1.7310001 -0.06860017031 -0.1857769936 -0.9801943302
-0.11552275 -0.34502801 1.7570001 -0.0850995779 0.03901131451 -0.995608449
-0.035769269 -0.34622601 1.7570001 0.247227639 0.3345735669 -0.9093618989
0.046203841 -0.018770309 1.6470001 -0.2188035995 0.8622676134 0.4567488432
-0.16564825 -0.044175781 1.5746253 0.174223572 0.6517797112 0.7381255627
-0.015557664 0.074930109 1.5076154 -0.349301666 -0.03362151608 0.9364069104
-0.073934846 0.053356566 1.5089999 0.06847524643 -0.1555324942 0.9854546189
0.2748841 -0.29566023 1.8230001 0.06542441249 0.2573104203 -0.9641115069
0.24825096 -0.029115854 1.748 -0.1855621338 0.8819796443 0.4332188368
0.17554724 -0.071167797 1.8040003 -0.2664312124 0.8166428804 0.5119656324
0.26411161 -0.40486571 1.8040003 0.04704293236 0.1452040672 -0.9882827401
0.19499725 0.024370311 1.6355001 -0.05326551944 0.8202309012 0.569547236
0.2262326 0.093920797 1.5640001 -0.5020928383 0.2276449502 0.8343144655
-0.025570612 -0.13264756 1.8230001 -0.3669960797 0.7989867926 0.4763759077
0.0038195115 -0.33544296 1.7939999 0.4186365008 0.3457423747 -0.8397652507
0.19868948 -0.47129777 1.794 0.1120911986 -0.3163982034 -0.9419807792
-0.021118023 -0.19980898 1.853 0.0908273384 0.9640392661 -0.2497571558
0.13331996 -0.047504812 1.748 -0.1692087352 0.9159393907 0.3639003038
0.12362315 -0.46476051 1.7850001 0.005773651879 0.09965071082 -0.9950057268
0.0046209102 -0.41742221 1.7570001 0.3707813323 0.2849622071 -0.883921802
0.07022889 -0.18292177 1.863 -0.008586923592 0.6234239936 -0.7818368077
0.1541715 -0.31628993 1.813 -0.02275086194 0.02689707465 -0.9993792772
0.26234424 -0.14113456 1.8940001 -0.7496963739 0.3269686699 -0.5753666759
0.3148382 -0.34520328 1.8230001 0.3377120495 0.1432973742 -0.9302776456
0.062464252 0.089044787 1.516 -0.0885829851 0.07069195062 0.9935570955
-0.14422219 -0.11448565 1.6960001 -0.04856258258 0.906036675 0.4204035997
0.12450437 -0.010788435 1.6630001 -0.1295278519 0.8914023638 0.4343090057
0.013838183 -0.29613709 1.804 0.2999832034 0.2085280418 -0.9308738708
-0.01415466 -0.26579309 1.794 0.4514335096 0.2500266433 -0.8565596342
0.18621714 -0.38964763 1.7850001 0.1198591217 0.4965165555 -0.8597122431
-0.07452748 -0.40458462 1.7350003 0.1581849903 0.2127526253 -0.9642167091
0.11715072 0.07810048 1.5360001 -0.2247078866 0.6184980273 0.752971828
-0.13653673 -0.21877509 1.8040003 0.08904779702 0.4455075562 -0.890838623
0.035608452 -0.49387372 1.7659999 0.2674517035 0.1681683213 -0.9487829208
0.053910617 -0.068286784 1.7570001 -0.2475291342 0.8833661675 0.3979868889
0.30516416 -0.40529612 1.8129998 0.3758485913 -0.2335774601 -0.8967605233
-0.15918952 0.0013842566 1.5790001 0.6936699152 0.003006263403 0.7202867866
-0.13469283 -0.2957049 1.7659999 -0.3696301877 0.3401163816 -0.8646932244
-0.011952823 -0.45573974 1.7479999 0.4770336449 0.003751619486 -0.8788770437
0.15349118 -0.16964816 1.8430001 0.1001576409 0.575761795 -0.8114596605
0.25013578 0.068472929 1.5940001 -0.3859457672 0.6605203152 0.6440176964
0.030567612 0.066451333 1.516 -0.2170278728 0.3753923774 0.9010990262
-0.1676397 -0.1881993 1.8040001 0.6205433011 0.3466602564 -0.7033865452
0.037745759 -0.36015746 1.794 0.4220001101 0.6979821324 -0.5785645247
0.024911361 -0.084075838 1.7760001 -0.2586931586 0.8834631443 0.3906030059
0.094974555 -0.066949278 1.7760001 -0.1582235247 0.9188567996 0.3614795208
