# .PCD v0.7 - Point Cloud Data file format
VERSION 0.7
FIELDS x y z normal_x normal_y normal_z
SIZE 4 4 4 4 4 4
TYPE F F F F F F
COUNT 1 1 1 1 1 1
WIDTH 206
HEIGHT 1
VIEWPOINT 0 0 0 1 0 0 0
POINTS 206
DATA ascii
0.27758861 -0.45373547 1.794 -0.5402208567 -0.194620505 0.8187088966
0.22498861 -0.43536755 3.3330002 -0.357265234 0.6771074533 0.643340528
-0.20400383 0.37542376 1.6160001 0.4476425648 -0.429572314 0.7842727304
-0.26383898 -0.055222109 2.3330002 -0.3975725174 0.8089283109 0.4330948293
0.39609113 0.13203038 2.3170002 0.8522527814 -0.1969282925 0.4846487641
-0.33386531 -0.36368954 2.835 -0.3988576829 0.7483879924 0.5299320221
0.27382961 0.065225504 1.564 -0.4509319067 0.06461881101 0.8902161717
-0.18945731 -0.20794095 1.7570001 0.2113596797 0.07821050286 0.9742742181
0.44482854 -0.20827232 2.9330001 -0.1542054564 0.9176531434 0.3662422299
-0.17496864 0.20501375 2.016 -0.5412762761 0.7481638193 0.3837588727
0.27157116 0.38727012 1.8330001 -0.6197224855 -0.5040712357 0.601544857
0.055414099 -0.29818064 3.0100002 -0.269343406 0.7158942819 0.6441657543
-0.081547879 -0.0033232681 1.4580001 0.4187318087 0.1859300882 0.8888721466
-0.037722964 -0.49475121 1.6550001 -0.4156368673 -0.2259975374 0.8810057044
0.13840112 -0.14941029 1.794 -0.07717784494 0.8150309324 0.5742544532
-0.2270216 -0.4950712 3.1200001 -0.3845818043 0.7424841523 0.5484652519
0.081858747 0.10150485 2.2410002 -0.1692830026 0.8093425035 0.5624126196
0.47734499 -0.39055499 3.3000002 -0.2728170156 0.7987296581 0.536285162
0.3036072 -0.34189999 3.1200001 -0.3269153535 0.6852659583 0.6507971287
0.084729537 -0.05570583 1.6018889 -0.2660548985 0.8307269216 0.4889862239
0.084763587 -0.35414925 1.7659999 -0.07752876729 -0.3114252388 0.9471027255
-0.14141949 -0.31369412 2.9330001 -0.3988576829 0.7483879924 0.5299320221
-0.16977702 0.093670085 2.2260001 -0.3694159389 0.8118268847 0.4521824718
0.11594617 -0.42237538 3.1490002 -0.2340290099 0.5709452629 0.7869256139
-0.10447259 -0.12628712 1.6050001 -0.1723950654 0.8651595712 0.4709340334
0.28547069 -0.07731498 1.6960001 -0.04225556925 0.8251527548 0.5633270144
-0.17555688 -0.36997524 1.6550001 0.3289283812 -0.02331756987 0.9440669417
-0.32065398 0.15948758 1.9150001 -0.5096826553 0.8316855431 0.2202787548
0.26120427 -0.27843842 1.8430001 -0.2809822559 -0.7027484179 0.6536005139
-0.16041948 0.21800596 1.5640001 0.2709356844 -0.5216667652 0.8089855909
0.11869015 0.074099377 1.4960001 -0.03537795693 -0.6289190054 0.7766654491
-0.026051028 -0.16703303 1.748 -0.3400878012 0.836940527 0.4288015962
-0.035238493 -0.43099388 3.0920002 -0.3380007446 0.639887929 0.6901441216
0.13568258 -0.49547005 1.7390002 -0.08735904098 -0.06546749175 0.9940233231
-0.047830932 -0.30940634 1.705 -0.5469231606 -0.4190908372 0.724732995
0.33212167 -0.40024918 3.2380002 -0.2944119573 0.7448672652 0.5987439752
0.41133288 -0.27330172 3.1490002 -0.2360563129 0.8784330487 0.4154910147
-0.13717 0.094276451 1.5289999 0.09310122579 -0.1342798024 0.9865602255
0.18496177 -0.30642918 3.1490002 -0.1102304459 0.5715655088 0.8131187558
-0.31050831 0.0296664 2.256 -0.3975725174 0.8089283109 0.4330948293
0.16425928 -0.091748424 1.6880001 -0.1456738859 0.8843423724 0.4435286522
0.21476698 -0.18527824 1.9040002 0.9984417558 0.04226081073 -0.03644218668
0.066754662 -0.24635649 1.8130001 -0.2881480157 -0.3812847733 0.8784034848
-0.015350784 -0.061672449 1.536 -0.4063548446 0.7802039981 0.4755601585
-0.18634865 0.26357421 1.9150001 -0.5604426265 0.7745382786 0.293248266
0.19509251 -0.018246064 1.6010002 -0.02771192975 0.7928200364 0.6088255048
0.20460415 -0.36500126 1.785 -0.2203323394 -0.458379209 0.86101228
-0.15160635 -0.48514032 1.6470001 0.4584359825 -0.01812410168 0.8885425925
-0.0014508833 -0.10881625 1.6550001 -0.3359028697 0.8678622842 0.3660386801
0.037740499 -0.44835714 1.7220001 -0.6586877108 -0.2405994385 0.7129111886
0.025240988 0.027237449 1.464 -0.2062284648 0.2287814021 0.951382637
0.2441166 -0.13614196 1.7850001 -0.04621813819 0.8142805099 0.5786287189
0.32353735 -0.006762607 1.6240003 -0.3675419092 0.6527149081 0.6624773741
0.033734132 -0.35648775 3.1200001 -0.284845978 0.6727760434 0.6828141212
-0.12832034 -0.08201918 1.5090001 -0.1690472364 0.6896613836 0.7041237354
0.40308782 -0.32360572 3.2380002 -0.2944119573 0.7448672652 0.5987439752
0.1660582 -0.26727462 1.8040003 -0.1461043954 -0.2532280982 0.9563100934
-0.14648223 -0.28399616 1.705 0.3226728737 -0.7815005183 0.5339843035
-0.11448565 -0.17693238 1.6960001 -0.2540772557 0.8457903862 0.4691303968
-0.080184318 -0.40237948 1.6630001 -0.3174610138 -0.2622649372 0.9112824202
0.073971376 -0.12227922 1.7220001 -0.1974242032 0.8485430479 0.4909158647
0.29165429 -0.36397186 1.8130001 -0.404006511 -0.09020426124 0.9102976918
0.19606738 0.036435142 1.5290002 -0.2296322286 0.4885567427 0.8417727351
0.085267812 -0.0031264855 1.5276668 -0.3113137484 0.7627273798 0.5668603778
-0.010837353 -0.25235552 1.766 -0.5046625137 -0.1961438209 0.8407397866
0.047706444 -0.1640892 1.794 -0.331803143 0.8404585719 0.4284110665
0.47761676 -0.22429517 3.0100002 -0.1951859444 0.9148116708 0.353584528
-0.19326468 0.29337299 1.5860001 -0.3017216325 -0.1171998754 0.9461650252
0.01056734 -0.36834729 1.7220001 -0.6421856284 -0.2798862755 0.7136254311
0.2554782 -0.43431294 3.2380002 -0.338496387 0.6597630382 0.6709194183
0.20447527 -0.44476262 1.7570001 -0.2548506558 -0.1892977655 0.9482707977
0.12856813 -0.4172112 1.739 -0.07056184858 -0.2683997452 0.9607198238
-0.13505627 0.015590466 1.5074 0.4972738028 -0.1266826242 0.8582949638
0.25432363 -0.043105695 1.6390001 -0.1442146897 0.7678305507 0.6242101789
-0.16026957 -0.14871861 1.6470001 0.190559864 0.8446574211 0.5002407432
-0.10642646 -0.32627726 1.6630001 -0.2544816136 -0.3518792689 0.9007886052
0.025193326 -0.31400177 1.766 -0.3852845132 -0.4178582728 0.8227698803
0.19443853 -0.16551378 1.8330001 -0.2165745199 0.879647553 0.4234568179
-0.041922197 -0.097818464 1.5940001 -0.3187954426 0.8655603528 0.3862315118
0.094180122 -0.087182209 1.6630001 -0.1940925568 0.8354356289 0.5141744614
0.18235719 -0.12106065 1.748 -0.2517336309 0.8471332788 0.4679694772
-0.07775069 -0.25764444 1.7390001 -0.2147544026 -0.7884280086 0.5764216185
-0.054626852 -0.14763418 1.684 -0.3644990921 0.851559341 0.3768117726
0.26000354 -0.0013903934 1.5860001 -0.3074833453 0.7040785551 0.6400995255
0.20853357 -0.24465752 1.8730001 0.7511929274 -0.3336343765 0.5695587993
0.10431632 -0.2880376 1.7760001 -0.1162885502 -0.2790036201 0.9532229304
0.14736415 -0.05865952 1.6320001 -0.1281225681 0.8100646734 0.5721711516
-0.014798134 -0.42470643 1.6879998 -0.6784710288 -0.1489363164 0.7193713188
0.13533139 -0.017364312 1.572 -0.2546993494 0.7630757093 0.5940064788
0.21685226 -0.29546121 3.0920002 -0.1654624194 0.6033149362 0.7801495194
0.0209611 -0.071267739 1.5940001 -0.2737143338 0.8422145247 0.4644944966
0.088863313 -0.17934233 1.8430001 -0.0456793718 0.890425384 0.4528311193
0.30925119 -0.3705442 3.1780002 -0.3391352594 0.6874916553 0.6421390176
-0.13448767 -0.4249239 1.6320001 0.1076314002 -0.2308743894 0.967012167
0.425271 -0.35294598 3.3000002 -0.2944119573 0.7448672652 0.5987439752
-0.025578503 -0.026158661 1.4836665 -0.4183708131 0.6707141995 0.6124608517
0.2252595 -0.088602066 1.7130001 -0.09021424502 0.8471434712 0.5236500502
0.29815784 -0.31427449 3.0640001 -0.1616599709 0.8828467131 0.4409623146
-0.075751007 -0.084543541 1.5430001 -0.2508282661 0.8492555022 0.4645968378
-0.20414411 -0.48081309 3.0640001 -0.3911810219 0.7478832006 0.5363283753
0.14479727 -0.33474639 1.7760001 -0.1041007787 -0.3958943784 0.9123764038
0.23996997 -0.49387369 1.7660002 -0.5604498386 -0.2866143882 0.7770123482
0.025916021 -0.019270886 1.516 -0.3945082724 0.7478821278 0.5338871479
0.21488643 -0.30421048 1.813 -0.3574074209 -0.3314222693 0.8731662035
0.0150173 -0.13215223 1.7130001 -0.2405899763 0.8764896393 0.4169920981
-0.035348322 0.035355087 1.455 -0.1578580737 -0.1102218181 0.9812909961
-0.094427519 -0.47499913 1.6320001 -0.3545509875 -0.1261309534 0.9264904857
0.011838507 -0.49277782 1.6880001 -0.4737528563 -0.2666907012 0.8393058181
0.073971376 -0.49515536 1.7220001 -0.4184281528 -0.2919248343 0.8600568175
0.096621819 -0.36716291 3.1490002 -0.2284542769 0.5860849619 0.7773757577
0.25820026 0.35678577 1.7850001 -0.5828193426 -0.5162733793 0.6275216341
0.24568145 -0.40529612 1.7850001 -0.3872633278 -0.3229441941 0.8635590076
-0.035515521 -0.36551392 1.6879998 -0.2970062792 -0.3280550241 0.8967536688
-0.084848188 -0.050908908 1.489 0.06342887878 0.6652602553 0.7439123392
0.27276957 -0.1042041 1.748 -0.04712508991 0.8801515102 0.4723478854
-0.20275547 0.20637609 2.0650001 -0.5412762761 0.7481638193 0.3837588727
-0.18438476 -0.32555896 1.688 0.5295721292 -0.4343509078 0.7286238074
0.13556072 0.024586994 1.5159999 -0.2479970008 0.6948197484 0.6750726104
0.074665025 -0.40379059 1.7381113 -0.2583236396 -0.2714132071 0.9271481633
0.075890146 0.034405909 1.4851428 -0.3263928592 0.311819315 0.8923208117
-0.16890298 -0.17488185 1.705 0.3652627468 0.8383815885 0.4045978785
0.16219123 0.081765823 1.529 -0.3788454831 -0.2504940927 0.890914619
-0.13025513 -0.10009079 1.5640001 0.05133419111 0.8327553272 0.5512561798
0.20498028 -0.064439029 1.6630001 -0.09744427353 0.8351422548 0.5413334966
0.12551908 -0.12450274 1.7390002 -0.07432389259 0.8698661923 0.4876563549
0.31283849 0.034759834 1.5860002 -0.4577505887 0.4421528876 0.7713398933
-0.15750368 -0.2339911 1.7220001 0.5364978909 -0.3248226047 0.7788839936
0.18848686 -0.49496952 1.748 -0.3177757263 -0.3097658157 0.8961382508
0.050503891 -0.042314071 1.557 -0.2975596189 0.7904459238 0.535400331
0.17405428 -0.39739826 1.7570001 -0.2896704078 -0.3864987195 0.8756196499
-0.0031454801 -0.17771962 1.794 -0.2649278641 0.8831202388 0.3871845901
-0.074477218 -0.18086188 1.7336668 -0.3502044976 0.8293523192 0.4353521466
-0.13396622 -0.033756044 1.4862727 0.1439208388 -0.1625798345 0.9761427045
0.044542555 -0.090521969 1.6390001 -0.2938855588 0.8391237855 0.4577144682
-0.055638332 -0.12419406 1.6366668 -0.3179332018 0.8586043119 0.4021406472
-0.12438028 -0.37551495 1.655 -0.1781437099 -0.1881851852 0.9658421874
-0.056584448 -0.44716224 1.6550001 -0.3430948555 -0.2918575704 0.8928074241
-0.096148126 -0.28893998 1.6960001 -0.2656404674 -0.6798995733 0.6834996343
-0.097209185 -0.15234275 1.6550001 -0.2973463535 0.8798068762 0.3708436489
0.38771021 0.11817905 2.365 0.06157038361 -0.757894218 0.6494655013
0.11814515 -0.25377366 1.8130001 -0.1265994459 -0.4144346118 0.9012305737
0.035810079 -0.26624018 1.7760001 -0.2302152067 -0.3225177824 0.9181411862
0.08592473 -0.14165969 1.766 -0.124884136 0.8881270289 0.4423057437
0.26369694 -0.32442719 1.8230002 0.02924576029 -0.1201317906 0.9923270941
0.30033284 -0.050780915 1.6550001 -0.1200769395 0.7627396584 0.6354602575
0.21526374 0.0082266396 1.5640001 -0.2116334736 0.775359571 0.5950031877
-0.18585509 0.24734098 1.5940001 0.05677192286 -0.589633882 0.805672884
0.31810638 -0.43273932 3.2690001 -0.3064860106 0.7107929587 0.6331190467
0.22622208 0.071367681 1.536 -0.5095081329 0.04451394454 0.8593136668
0.19659251 -0.13997386 1.794 -0.1925923824 0.8296180367 0.5240630507
-0.17719099 0.10352732 2.2710001 -0.3694159389 0.8118268847 0.4521824718
0.1608372 -0.45659474 1.7390001 -0.2928765714 -0.154234007 0.9436287284
-0.034953382 -0.27508932 1.7336668 -0.3056580424 -0.5505834818 0.7768082023
0.095603131 -0.45525292 1.7310003 -0.1425436735 -0.1399258077 0.9798479676
-0.1734897 -0.41550052 1.6630001 0.6680657864 -0.1445240676 0.7299321294
0.046451062 -0.106906 1.682 -0.2811182737 0.8759046793 0.3921269774
0.12476458 -0.37429374 1.7570001 -0.2254143655 -0.3462464809 0.9106600285
-0.18604495 0.33538491 1.6036668 0.01872195303 -0.4267402589 0.9041804075
0.29363307 -0.4085559 1.8040003 -0.3981013596 -0.378927052 0.8354218006
0.042907573 -0.14251444 1.748 -0.2107394189 0.8813467622 0.4228672981
0.12043296 -0.10259104 1.6960001 -0.1814191192 0.8531016111 0.4891878366
0.28010815 -0.49918714 1.7850001 -0.5754957795 -0.017176833 0.8176243305
-0.014209411 -0.32322961 1.7310002 -0.5023488402 -0.2739428878 0.82012254
0.22742486 -0.20955577 1.853 0.8873609304 -0.2813909054 0.365252912
0.20729397 -0.26514348 1.8330001 -0.5525650382 -0.530035913 0.6432214379
0.04137516 -0.35092264 1.748 -0.4021706581 -0.5251140594 0.7500093579
0.18621714 -0.32392392 1.7850001 -0.4298201799 -0.1878449619 0.8831584454
0.24794589 -0.36397186 1.8130001 -0.5388810635 -0.4029083252 0.7397783995
-0.074344188 -0.35487449 1.6710002 -0.4807748199 -0.3666560948 0.7965041399
0.24448478 -0.067748807 1.6800002 -0.06070867926 0.8425530195 0.5351811051
0.094363235 -0.15973218 1.8040003 0.04505542666 0.8554641008 0.5158984065
0.22465178 -0.1130921 1.7479999 -0.1439083666 0.8647936583 0.4810637534
0.094606355 -0.026051026 1.5640001 -0.265959233 0.8077390194 0.5261400342
0.17413054 -0.0022851776 1.5640001 -0.2061475366 0.7930209041 0.5732547641
-0.14502609 -0.30909601 1.6710001 -0.00229804893 -0.6444289088 0.7646607757
-0.10098498 -0.0091804536 1.4960001 0.6710059047 -0.04399641231 0.7401455045
0.28192198 -0.021250401 1.6160001 -0.3154722154 0.6747099161 0.667265892
-0.045767978 -0.054181591 1.5073636 -0.3050263822 0.7863762379 0.5371883512
0.023650713 -0.40810061 1.7220001 -0.5617902875 -0.212959975 0.7993996143
0.24507749 0.035397552 1.5530623 -0.3167855144 0.3347248137 0.8874718547
0.47714514 -0.19967486 2.9580002 -0.1951859444 0.9148116708 0.353584528
0.044994041 -0.17836922 1.8330001 -0.2174251229 0.8580608368 0.4652504027
0.065392315 -0.3160629 1.7760001 -0.2586471736 -0.2256335467 0.9392502904
-0.15018001 0.057148147 1.516 0.02359214798 -0.1163207293 0.9929314852
-0.0042500799 -0.095862918 1.6160001 -0.3176397085 0.8474670053 0.42532897
-0.016264921 -0.13330545 1.6868571 -0.4218236208 0.8178144693 0.3914644122
0.052451842 -0.37820539 3.1490002 -0.2284542769 0.5860849619 0.7773757577
-0.14480107 -0.13074695 1.6036668 -0.01020953059 0.8667362332 0.4986622334
0.0451045 0.0618576 1.4700001 -0.2440205365 -0.1385988146 0.9598147273
-0.085593171 -0.10630671 1.5748001 -0.3096265495 0.8498848081 0.426412046
0.23556294 -0.022568906 1.6090001 -0.1172167435 0.8324550986 0.5415521264
-0.015159319 -0.078552842 1.572 -0.4044591784 0.8296287656 0.3848751187
0.18578261 -0.045373637 1.6343335 -0.2111264318 0.8018528223 0.558979094
0.076066613 0.072132133 1.4960001 -0.35442397 -0.4808547497 0.8019740582
0.15579331 -0.036291622 1.601 -0.2810756266 0.7355884314 0.6163652539
0.1326686 -0.080184318 1.6630001 -0.0566075407 0.8959047198 0.4406249225
-0.18058369 -0.26404673 1.7310001 0.1341856718 -0.349603951 0.927238524
-0.094832532 -0.43680441 1.6390001 -0.3072836697 -0.3439459205 0.8872868419
0.24444275 -0.44529054 1.7760004 -0.4083147943 -0.08809742332 0.9085801244
-0.01296064 -0.46452117 1.6800001 -0.7148730159 -0.2407672405 0.6564965248
-0.013091087 0.0043636961 1.4640001 -0.3876922131 0.3750053346 0.8420603871
0.066055074 -0.28152046 1.794 -0.241953522 -0.6019185185 0.7610207796
0.055340461 0.0013176299 1.503 -0.3583617508 0.6989439726 0.6189137101
0.14490512 -0.29763445 1.7850001 -0.1510493457 -0.4127335548 0.8982400298
-0.081775464 -0.32412821 1.6960001 -0.3253147006 -0.3682665825 0.8709478378
0.1541627 0.055340458 1.5030001 -0.4932391346 -0.04765512794 0.8685874343
