# .PCD v0.7 - Point Cloud Data file format
VERSION 0.7
FIELDS x y z normal_x normal_y normal_z
SIZE 4 4 4 4 4 4
TYPE F F F F F F
COUNT 1 1 1 1 1 1
WIDTH 206
HEIGHT 1
VIEWPOINT 0 0 0 1 0 0 0
POINTS 206
DATA ascii
0.43739432 -0.3954432 1.227 0.5643901229 -0.2123486698 0.7977291942
-0.49470037 -0.49470037 2.3810003 -0.05945234001 0.7513177395 0.6572572589
-0.22558649 0.24282877 1.6390001 0.9717835784 0.1473791748 0.1841632724
0.49732774 -0.2204273 2.0780001 0.05221609026 0.7738769054 0.6311798096
0.27859852 0.2366474 1.2270001 0.5462652445 -0.3103768528 0.7779849172
-0.085771479 -0.22208071 1.3858001 -0.6876327395 0.3848654926 0.6156620383
0.056481879 -0.36108059 2.3010001 -0.02914300375 0.7511075735 0.6595363021
0.46712542 0.13424222 1.6826668 -0.5602304935 -0.7922626734 0.2417884916
-0.26693186 -0.082262017 1.9150001 0.9041028023 0.3654322326 0.2214890122
0.24917497 -0.10778266 1.322 -0.06235155836 0.778175652 0.6249439716
0.13490595 -0.49500787 1.3753333 -0.08890517056 -0.4941075742 0.8648430705
-0.022900725 0.032569923 1.161 0.1566207856 0.4232966602 0.8923507333
0.28984001 0.36328366 1.4960001 -0.949937284 -0.2749731541 0.1483539343
-0.18438551 0.086004227 1.3970001 0.199457705 -0.414688617 0.8878344297
-0.18760052 -0.35704616 2.3010001 -0.02914300375 0.7511075735 0.6595363021
0.32261625 0.021463722 1.13 0.1480140835 0.4628633261 0.8739847541
0.2851826 -0.32523587 1.3843002 0.531780839 -0.3828238845 0.7554171085
0.40593779 0.097427092 1.4731113 -0.3805756867 -0.7085194588 0.5942746401
0.26304209 -0.31841937 2.256 -0.007816180587 0.7606640458 0.6490986943
-0.20401436 0.080656841 1.8040001 0.968714416 -0.2382436395 -0.06951481104
0.11511387 -0.21334648 1.4366001 -0.06504330784 0.6874771714 0.7232872844
-0.15180342 -0.082182765 1.2566 -0.02636031061 0.7443383932 0.6672821641
0.044920899 -0.092922404 1.2948571 -0.07186489552 0.754232347 0.6526629925
0.42185548 -0.21534616 1.3047274 0.5206517577 -0.5093809962 0.6851661801
0.0063339169 -0.37370104 1.4449999 0.1687617153 -0.1524797678 0.9737912416
0.146228 0.078963116 1.1120001 0.2328157127 0.3767544925 0.8965784311
0.30532977 -0.4947944 1.3151249 0.6120260954 -0.2845359445 0.7378776073
0.24471073 0.38438883 1.3240002 0.2446380854 -0.5354837179 0.80833745
-0.18688808 0.232639 1.4770001 0.2779615819 -0.5092239976 0.8145110607
0.18537675 -0.024513023 1.2152916 0.01461823657 0.8118271232 0.5837149024
0.35275665 0.19692037 1.6160001 -0.4364329278 -0.8576909304 0.2718317807
0.35374901 -0.071399242 1.2340001 0.5181952715 0.8105030656 0.2730538547
0.14519978 -0.35553515 1.427 0.01183724962 -0.4043903947 0.9145098925
-0.0050236755 -0.24711967 1.4847143 0.3096219301 0.606711328 0.7321445346
0.27297032 0.11818255 1.1930001 0.5941948891 -0.3143355846 0.7403550744
0.36953691 -0.32746655 1.2970001 0.6332982183 -0.1791654676 0.7528831959
-0.063501351 -0.13046642 1.317 -0.09621411562 0.7771971226 0.6218580604
0.02512154 -0.1667707 1.381 -0.1284080893 0.6920213103 0.7103645802
0.027417265 -0.48511231 1.4144444 0.4502415657 -0.2440083474 0.8589193821
0.07240653 -0.02203677 1.197 -0.04910770431 0.8035686016 0.5931828618
0.22461182 -0.42485651 1.376 0.4153856337 -0.2423223853 0.8767751455
0.13535234 -0.13517243 1.3570769 -0.05048797652 0.7754694223 0.6293632984
-0.17194627 -0.014647973 1.3447143 0.5379116535 -0.3688572347 0.758020699
-0.04524301 -0.055204745 1.2346667 -0.1067807004 0.755048573 0.6469154358
0.38621551 -0.11516522 1.3350002 -0.3349758685 0.4621656239 0.8210932612
0.39192116 -0.49325502 1.2414446 0.7042025924 -0.2239840031 0.6737431884
0.22509819 -0.1809773 1.3980001 0.0629972145 0.6988642216 0.7124746442
0.35428292 -0.23902142 1.3840001 0.7526849508 -0.396007508 0.5259689689
0.15631668 -0.34670237 2.286 -0.02914300375 0.7511075735 0.6595363021
0.42266357 0.15816009 1.55525 -0.2602159977 -0.7247091532 0.6380315423
0.20815136 -0.27879664 1.439 0.4218690395 -0.2115305513 0.8816356063
0.24109298 0.06956438 1.087 0.08535274863 0.6531352401 0.7524155974
0.32599989 0.25295427 1.5430001 -0.7867904902 -0.6166197658 0.02721715719
-0.12361807 -0.0067629567 1.2052001 0.192335397 0.3741446435 0.9072060585
0.31783023 -0.39932516 1.3280001 0.604078114 -0.2268591821 0.7639532685
0.13463308 -0.07424517 1.2756922 -0.01146261394 0.817353189 0.576022923
0.06464532 0.044752426 1.1344802 0.1801745594 0.4917436242 0.8518951535
0.27510345 -0.024888361 1.2034116 0.1136283055 0.8084371686 0.5775101185
-0.19877101 0.15814628 1.6550001 0.9797121286 0.1579526663 0.1233492792
0.25358683 0.30489063 1.2833334 0.6244621277 -0.3649162054 0.6905673146
0.44203725 -0.30778891 1.245 0.4600414634 -0.255649209 0.8502972126
-0.26153859 -0.017869096 1.853 0.9966384768 -0.03844764456 0.07234347612
0.085217565 -0.4165307 1.4039999 0.219901979 -0.3497124016 0.9106834531
0.21409369 0.018455878 1.1483334 0.04209045321 0.828959167 0.5577231646
-0.17964566 0.16205797 1.4330001 0.6124388576 -0.2780884504 0.7399901748
0.13595083 0.012508838 1.1628182 0.01847927459 0.7968905568 0.6038410068
0.37809497 -0.4150061 1.2759999 0.6595796347 -0.2167701572 0.7196981311
-0.13530736 -0.15349995 1.2970001 -0.4730600417 0.3231615126 0.8196223974
0.074740216 -0.32809687 1.4450001 0.05211844295 -0.2665382922 0.9624141455
0.43992534 0.18935299 1.6240001 -0.509539783 -0.725018084 0.4633766413
0.31387559 -0.14101051 1.3460001 0.1917012036 0.7502685785 0.6327303648
0.24267536 -0.058729652 1.2640001 0.02210562676 0.823353827 0.5670977235
0.2355673 -0.49449787 1.3458002 0.3406357765 -0.394584924 0.8533873558
0.28492105 -0.2556667 1.41 0.4185336828 -0.1055557355 0.9020463228
0.041456688 -0.21733356 1.4330001 -0.05159715936 0.7437444329 0.6664697528
0.21451783 -0.34516269 1.404 0.4342975914 -0.2980085313 0.8500450253
0.35105911 -0.027798807 1.1743335 -0.1315042526 0.6792258024 0.7220519185
0.15662913 -0.42478603 1.3980001 0.2559511662 -0.2667506337 0.9291571975
0.30512649 -0.086699121 1.2843335 0.1172852069 0.7794596553 0.61537534
-0.024469454 -0.20461908 1.4119231 -0.07826827466 0.7825965285 0.6175894141
0.3739194 -0.26408011 1.3228575 0.605156064 -0.3238314688 0.7272683978
0.027198583 -0.048957448 1.2410001 -0.033472348 0.8189865351 0.5728356242
0.44087741 -0.4620226 1.2060001 0.4335430264 -0.2449729592 0.8671959043
-0.20865719 0.28308266 1.516 0.8964450359 -0.1454530358 0.4186044335
0.016584853 -0.31467548 1.4740834 0.3209954202 -0.30510813 0.8965885043
0.0046796473 -0.126304 1.3340001 -0.1359974146 0.7604322433 0.6350177526
0.27743131 0.065341301 1.1466001 0.453430146 -0.28246364 0.8453492522
0.18490383 -0.10243241 1.3150769 -0.02764666267 0.7871362567 0.6161592007
0.15557817 -0.1755178 1.4040002 0.1048873737 0.7359127998 0.6689028144
-0.0454727 -0.167531 1.3649999 -0.02029597946 0.7558304071 0.6544528008
-0.0050884234 -0.017217604 1.1952858 -0.03326064721 0.7061382532 0.7072923779
-0.08448261 -0.091152295 1.268 -0.04218735173 0.7764550447 0.6287589073
0.085508138 -0.17469354 1.3974 0.02225528657 0.7507194877 0.6602461338
0.27473018 -0.44497299 1.3450003 0.4435901046 -0.1818065047 0.8775957227
-0.15686636 0.045669947 1.3590001 0.6749337316 -0.2882147133 0.6792618632
0.27348989 -0.38422647 1.3708572 0.3799808919 -0.347840935 0.8571004868
0.33706692 -0.30678323 1.3473637 0.7662741542 -0.201029852 0.6102548242
0.07450527 -0.13262275 1.3490001 -0.07894548774 0.7266163826 0.6824926734
0.38970727 -0.18013659 1.3430001 0.4543619752 -0.2563037872 0.8531492352
-0.065617256 -0.0050326502 1.1864998 0.1682739705 0.4600281715 0.8718129992
0.12525299 -0.035263289 1.2241429 -0.09468744695 0.7989734411 0.593865037
-0.015153476 -0.094437651 1.285778 -0.2307669222 0.7249369621 0.6490092874
0.26748678 0.18079145 1.2060001 0.618598938 -0.2872646749 0.73131001
0.19777074 -0.14177541 1.3590001 0.07674185187 0.7690342069 0.6345841885
0.35280076 -0.47390029 1.2830001 0.7035341859 -0.2096229941 0.6790418625
-0.11411034 -0.18276775 1.3450001 -0.2453541309 0.5689008236 0.7849543095
0.025183303 -0.42548943 1.4222001 0.4743258953 -0.1473243088 0.8679346442
0.15402332 -0.29913619 1.452 0.2221907675 -0.4086788595 0.8852190971
0.40434909 -0.36452794 1.2648696 0.6640588045 -0.2241731882 0.713282764
0.36465952 -0.094690785 1.2858126 -0.07455886155 0.7861038446 0.6135810614
0.076229878 -0.47412184 1.3870002 0.3913188279 -0.2688190043 0.8801169991
0.25488645 -0.1452733 1.365 0.04574467242 0.7600769997 0.6482209563
0.41590288 -0.27535 1.2864212 0.5162588954 -0.3028199673 0.8011097312
0.24598566 0.43425927 1.3490001 0.1792813987 -0.519937098 0.8351787925
0.18660429 -0.4659076 1.3760002 0.2675254047 -0.3698248863 0.8897526264
0.084806688 -0.062781319 1.2563336 -0.02331755869 0.7874714732 0.6159098744
0.27406296 0.011474982 1.155 0.121952273 0.7788512111 0.6152384877
0.097393282 -0.10197649 1.307 -0.03004188836 0.8043148518 0.5934433937
0.18432179 -0.060704783 1.2590001 0.04042175412 0.7997123599 0.5990210772
0.035561424 0.0056759366 1.1680911 0.08782798052 0.6733802557 0.7340608239
-0.10430668 -0.052045941 1.2266002 0.03936525434 0.6605030894 0.7497906685
0.05514022 -0.3765901 1.4238237 0.2935186028 -0.3970425129 0.8695999384
0.29492658 -0.05540834 1.2427142 0.1078720912 0.8316445351 0.5447301865
-0.16170116 -0.10615206 1.302 0.341538161 0.4901542962 0.8019354343
0.19497786 0.055378452 1.104074 0.03791353479 0.7143679261 0.6987424493
0.31320021 -0.35525417 1.3540001 0.6256566644 -0.2245237082 0.7470895648
0.24770656 -0.29694015 1.4040002 0.4064911306 -0.3402142823 0.8479499817
0.41199827 0.12359948 1.516 -0.3805756867 -0.7085194588 0.5942746401
0.40809324 -0.43540525 1.2347693 0.7319700122 -0.1296119839 0.6688950658
0.35446826 -0.37420693 1.3041052 0.6508610249 -0.1984773725 0.7327936888
-0.15454997 -0.045076661 1.22425 0.01728240959 0.5662715435 0.8240374923
0.3002066 0.10815524 1.153 0.5752281547 -0.3721384406 0.7284405231
0.184626 -0.38349456 1.404 0.3283185065 -0.3245858848 0.8870462179
0.087531656 0.01119591 1.161 9.132327978e-05 0.7357587814 0.6772437096
0.32520613 -0.44520533 1.3146471 0.6120117307 -0.2188136727 0.7599751353
0.32234266 -0.27512628 1.381 0.6876229644 -0.2887488306 0.66618222
0.11531167 0.042772371 1.1317778 0.06676802784 0.5949831605 0.8009601235
0.25708073 0.25818884 1.2640001 0.6642150283 -0.2803287506 0.6929893494
0.235015 -0.0056206598 1.1861999 0.03820936754 0.8206501007 0.5701521635
0.45198157 -0.35396147 1.2423334 0.4097552299 -0.4488759935 0.7941101789
0.23478468 -0.034932945 1.2248822 0.01190447435 0.8146195412 0.5798735023
0.34307402 -0.12289132 1.3150001 0.02914892696 0.787645936 0.6154382229
0.16523549 0.033276305 1.1342353 0.05594248325 0.7868090272 0.6146560311
0.12424669 -0.39489728 1.4137503 -0.004778036382 -0.3704699278 0.9288321733
-0.10452146 -0.11789238 1.302 -0.1306878626 0.7332900167 0.6672379375
-0.16362107 -0.37837371 2.3330002 -0.02914300375 0.7511075735 0.6595363021
0.32401428 -0.035297293 1.2146429 0.3526927531 0.8382824063 0.4158009291
0.26265544 0.3531636 1.2970001 0.3076578975 -0.3704675436 0.8764134049
0.24426648 0.038258608 1.1190001 0.05092496425 0.7582911253 0.6499239802
0.18790069 -0.31650382 1.427 0.252333343 -0.472235769 0.8445835114
0.12441666 -0.45472735 1.3932858 -0.05686817691 -0.2601422966 0.9638941884
0.02122673 0.044475053 1.153 0.250841707 0.3831908405 0.8889562488
0.23503363 -0.38244829 1.3920001 0.4433588088 -0.2962759733 0.8459630609
0.17566325 0.0010353433 1.1810001 0.02366592549 0.8091240525 0.5871611238
-0.16934569 0.1248461 1.4100001 0.5461831689 -0.3288780749 0.7704045177
-0.031669583 -0.23182134 1.4450001 -0.2216177732 0.7617566586 0.6087793708
0.41180277 -0.32140702 1.273 0.5679808259 -0.2961929739 0.7678981423
0.30645549 -0.011350203 1.177 0.4240094423 0.8097496629 0.4056124091
0.2955699 -0.11314785 1.317 0.1292447299 0.7735421062 0.6204259396
0.22503702 -0.086402729 1.2937647 0.07097519934 0.7498211861 0.6578227282
-0.19518605 0.19519335 1.4552308 0.1999067813 -0.4946688116 0.84577775
0.037018225 -0.34583184 1.4449999 0.4412404597 -0.3850328624 0.8105902672
0.094715416 -0.36515474 1.4216 0.1843611747 -0.320012033 0.9293025732
0.11606014 -0.32925758 1.439 -0.09121312201 -0.5422632098 0.8352429271
0.41231266 -0.14575757 1.3430002 0.1296373606 0.07937896997 0.9883790612
0.14486916 -0.10778266 1.322 0.03237966448 0.7752328515 0.6308451891
-0.084959514 -0.15399177 1.3460002 -0.3601561785 0.7115596533 0.6032995582
0.29224297 0.15323256 1.1863333 0.4508105218 -0.4377505481 0.7779102325
0.41433722 0.18283671 1.5860001 -0.5214862227 -0.6989966631 0.4893422127
0.38211215 -0.45413908 1.2640001 0.645493269 -0.2220150083 0.7307857275
0.023682898 -0.27468434 1.4890002 0.6217710972 0.06747284532 0.7802872062
0.26537904 -0.082981512 1.2865715 0.1066305339 0.7784181237 0.6186236143
0.054977518 -0.44515383 1.4040002 0.4566597342 -0.184891656 0.870216608
0.014739955 -0.19702126 1.4118181 -0.04939696938 0.7674667835 0.6391828656
0.18979394 -0.19227491 1.4150001 0.05068429932 0.6921677589 0.7199547887
0.15326414 -0.20225839 1.4330001 -0.01504385378 0.6765690446 0.7362254858
0.12384669 -0.16270231 1.3850001 -0.09723943472 0.7379099131 0.6678573489
0.043075893 -0.1222424 1.3280001 -0.1554351449 0.7619794607 0.6286709905
-0.0054996456 -0.064922974 1.2550403 -0.1730550379 0.7738654613 0.6092488766
0.27488273 -0.48606136 1.3374444 0.3984213173 -0.3419493437 0.8510764241
0.034448359 -0.025513783 1.203647 0.05083892867 0.7979719639 0.6005465388
0.25114185 -0.3424218 1.3920001 0.3261811733 -0.4199427962 0.8469084501
-0.063584998 -0.2058271 1.4129167 -0.5303809047 0.4975748062 0.686378479
0.45567906 -0.42184675 1.2060001 0.5892387033 -0.1385683715 0.7959877849
0.38542539 -0.22754344 1.3242501 0.6549016237 -0.3395515382 0.6751360297
0.23520941 -0.45539451 1.3554707 0.4076232016 -0.1279947907 0.9041352868
0.14324927 -0.012374852 1.1962001 -0.01506365929 0.8122271895 0.5831466913
0.35041595 -0.41205263 1.302 0.6943560839 -0.2451606244 0.6765840054
-0.18252558 0.045530066 1.3870001 0.6607679725 -0.2352719009 0.7127642035
-0.045507092 -0.082909741 1.2661538 -0.1245401353 0.7801956534 0.6130126119
-0.04651944 -0.03066054 1.2060001 0.01563526317 0.7159923315 0.6979330778
-0.013730645 -0.17729123 1.382 -0.2019530237 0.7484305501 0.631717205
0.075021408 -0.20255668 1.42625 -0.03281506151 0.6517484188 0.7577250004
0.0045242263 -0.22313483 1.4449999 -0.1674254984 0.8112549782 0.5602089763
0.29170907 -0.29170907 1.404 0.5679880977 -0.3774835467 0.7313656211
-0.072640598 -0.18765488 1.381 -0.5194783211 0.5297707915 0.6704365611
0.21502179 -0.11685966 1.3330001 0.0821101591 0.754248023 0.6514351964
0.16438489 -0.15297994 1.3760003 0.04742716998 0.7223095894 0.6899416447
0.38553959 -0.29516485 1.3049999 0.6380369663 -0.2567824423 0.7259280682
0.35446271 -0.23484443 1.3473636 0.7382751107 -0.2616085708 0.6216999888
-0.035158716 -0.14297098 1.3367501 -0.05796630308 0.7542005181 0.654080689
0.34475014 -0.3449856 1.3241001 0.7114900947 -0.177345261 0.679948926
0.06561587 -0.041951131 1.2270001 -0.03042899072 0.851777494 0.5230193138
0.15561649 -0.044978697 1.2421998 -0.06572952121 0.7649043798 0.6407815218
-0.011793797 -0.039670043 1.223 -0.1607306004 0.7643998265 0.624386549
0.33478981 -0.076591797 1.2661538 0.1271771342 0.8084257841 0.5746944547
