# .PCD v0.7 - Point Cloud Data file format
VERSION 0.7
FIELDS x y z normal_x normal_y normal_z
SIZE 4 4 4 4 4 4
TYPE F F F F F F
COUNT 1 1 1 1 1 1
WIDTH 206
HEIGHT 1
VIEWPOINT 0 0 0 1 0 0 0
POINTS 206
DATA ascii
-0.095090277 0.050990444 1.572 -0.1979246736 0.8375290036 0.5092847943
-0.26421329 -0.3139168 2.9840002 0.8726738691 0.331820488 0.3582394719
0.49449262 0.16870923 2.2120001 0.1957128644 0.9107239842 0.3637007773
0.47185764 -0.49421617 1.5940002 0.3442737162 0.2152124345 0.9138704538
-0.35711718 0.12489344 2.2260001 -0.2329147607 0.8836214542 0.4061573744
-0.024629951 -0.42363513 1.8730001 0.6836869121 0.3574718237 0.636228025
0.0083020329 0.42340371 1.8940001 0.942404747 -0.11062067 0.3156522512
0.36318198 0.0015324134 1.748 0.4306740463 -0.9024927616 -0.005168857053
0.23419009 -0.034017161 1.3819232 -0.2706075013 0.3078075349 0.9121546149
-0.49746451 -0.077383369 2.5220001 0.8740624189 0.332216084 0.3544676602
-0.27183679 -0.27183679 1.6320001 0.3220005035 0.1340368688 0.9372031689
-0.33706254 0.34204376 1.8940001 -0.09048030525 0.3725452721 0.923592627
0.054933686 -0.098557495 1.8430001 -0.1745976359 0.8386349082 0.5159526467
0.31120875 0.34656122 1.8330001 0.6875181198 -0.09269423038 -0.7202268243
0.22458096 -0.3154822 1.6832001 0.5956988335 -0.2054852992 0.7764783502
-0.46699944 -0.19315684 2.789 0.8722180128 0.3327338696 0.3585022688
0.18872003 0.29132509 2.0900002 -0.7710184455 0.6165895462 0.1592102796
-0.16509737 0.25413868 2.1160002 0.5286393166 -0.8449444175 0.08129781485
0.082906365 0.20404416 1.4699999 -0.1349219531 -0.6430825591 0.7538175583
-0.01299483 0.43171713 1.6470001 -0.0820171088 -0.2425763011 -0.9666591883
-0.32081529 -0.03369293 1.6710001 0.3272394538 0.6677092314 0.6686394811
0.14799623 0.038795128 1.6390001 0.06815475225 0.9242653847 0.3756173849
0.35517427 -0.15270329 1.55525 -0.2791754901 0.7991303802 0.5324017406
-0.17408408 -0.17301279 1.8330001 -0.2298670858 0.8137177229 0.5338769555
-0.13410282 0.22781323 1.8430001 -0.01570484228 -0.8841633797 0.4669137895
0.11506139 -0.4945558 1.7315336 0.2112291306 -0.04727578163 0.9762926102
0.12573346 0.25634032 1.853 -0.2490227222 -0.3740057051 -0.8933686018
0.32535413 -0.48347864 1.7310002 -0.1562458277 -0.2665579617 0.9510699511
0.42209134 -0.31283852 1.6470002 0.3255059719 0.004292786121 0.9455302358
0.23471171 -0.14440805 1.7760001 0.5740026236 -0.213554576 0.7905159593
0.095357083 -0.28500581 1.8230001 0.6028326154 0.0600775294 0.7956026196
-0.086833835 -0.24139805 1.9810001 0.6571441293 -0.08432780206 0.7490329742
-0.089067578 -0.052836701 1.7220001 -0.1510856152 0.7290142179 0.6676162481
-0.0050316285 0.31467026 1.7659999 0.1259740591 -0.7986061573 -0.5885225534
-0.24451058 0.074485354 1.5860002 0.6024249196 -0.03260188922 0.7975094914
-0.064397596 0.17404754 1.4890002 0.3470009565 -0.389051497 0.8533635139
0.17350811 0.08804889 1.4770001 0.929107368 0.3559742868 0.1002087519
0.046200335 0.091041833 1.5500001 0.03127084672 0.9364752769 0.3493367732
0.27491477 0.093265928 1.6710001 0.8185305595 0.2877406776 -0.4972052574
0.32843441 -0.21208319 1.6800001 0.02508253232 -0.5318076015 0.8464936614
0.045072943 -0.0140179 1.7220001 -0.1693357527 0.8175135851 0.5504516363
0.30401748 0.33424145 2.0280001 -0.1932952106 0.9206614494 0.3391451836
0.033769198 -0.20430367 1.9260002 0.5134508014 -0.4070686996 0.7554226518
-0.21436603 -0.10114454 1.7220001 -0.09843122959 0.7392963171 0.6661473513
0.1731627 -0.032180678 1.748 -0.1017820612 0.8183811903 0.5655905604
0.40325266 -0.10515791 1.6800001 0.7873330116 0.6160591245 -0.02403971367
-0.041049916 -0.29391742 1.8730001 0.4463601708 -0.1439549327 0.8831984997
0.26285183 -0.11006112 1.4770001 0.06142990664 0.8008619547 0.5956899524
-0.048754938 0.47024927 1.794 0.9820455313 -0.1002655253 -0.1597916037
-0.20273355 -0.33488578 1.7130001 0.2096845061 0.7318432927 0.6484117508
-0.2566652 0.25828966 1.853 0.3186793327 0.01423728839 0.9477556348
-0.17470828 -0.00721935 1.6470001 -0.3500715494 0.7880425453 0.506397903
0.12485629 -0.36475366 1.7353079 0.5614111423 -0.3354545832 0.7564970255
-0.065981314 -0.11666592 1.8230001 -0.1080859825 0.751640141 0.6506569982
0.32487077 -0.38551331 1.6470002 0.08892787248 0.5963169932 0.7978081703
0.21430388 -0.4354687 1.6879998 0.2718034387 0.2794705331 0.9208795428
0.22742838 0.33774811 1.9360001 -0.5750464797 0.7555757165 -0.3137305677
-0.027913943 0.27092946 1.8730001 0.8409647346 -0.11598894 0.5285119414
0.21721959 -0.066962428 1.863 0.5493556857 -0.8320629001 -0.07667884976
0.20447373 -0.26445964 1.785 0.7868925929 -0.3263939619 0.5237051249
-0.16286144 0.1327019 1.529 0.4465449452 -0.4498561025 0.7734514475
0.046346735 -0.49543065 1.8230001 0.9295576215 0.2535313964 0.26766482
0.13456535 -0.17483908 1.8230002 0.7553021908 -0.2966789305 0.5843801498
-0.004297683 0.03351751 1.6341002 -0.2270011902 0.7523108721 0.6184648871
0.22957008 0.1997073 2.1290002 0.2825967669 0.9554385543 0.08530063927
0.052450091 -0.38463399 1.8130001 0.772018373 -0.6118876338 0.1719918698
0.27754915 -0.010334147 1.684 0.4229870439 -0.6853228211 -0.5928023458
0.47651568 -0.38987646 1.5940002 0.01060422324 -0.4899773002 0.871670723
0.3778933 -0.49571556 1.6390001 0.7965442538 -0.4445183575 0.4097812474
0.21372168 0.31174439 1.8330001 -0.6132265925 -0.2116688192 -0.7610186934
-0.083020329 -0.18762596 1.8940001 -0.2497540861 0.8335507512 0.4927636683
0.15533079 0.0052517583 1.4266 0.4712815881 -0.3765890002 0.7975427508
0.33433962 -0.28475532 1.6159998 0.08725316823 -0.2926723957 0.952223599
-0.11312682 0.27184206 1.9260001 0.2204507142 -0.8419396281 0.4924826324
-0.17663343 -0.27096626 1.647 0.02240118571 0.6817715764 0.7312220931
0.39620188 -0.21297623 1.6160001 0.800770998 0.3007367551 0.5179992318
0.015478591 0.13414101 1.4713124 0.04214541242 0.6127743125 0.7891333103
-0.14168335 -0.10743024 1.7760001 -0.4103196263 0.5667087436 0.7144781351
0.23599166 -0.49803433 1.748 -0.2009095848 0.7090818286 0.6758981347
0.13240209 0.069613472 1.557 -0.004131762777 0.9211432338 0.3892018199
-0.00506012 -0.063446119 1.7760001 -0.4547460079 0.6794664264 0.5757876635
0.28698558 -0.13751394 1.705 0.6746054888 -0.05434698611 0.7361751199
-0.08560212 0.0072544166 1.6550001 -0.09606851637 0.7327742577 0.6736562252
0.13584389 -0.076711841 1.8230001 -0.06586357206 0.8517526388 0.5197879076
0.26543763 -0.22475016 1.737286 0.5245397687 -0.5967075229 0.6072875857
-0.045452714 0.092234448 1.516 -0.001848410699 0.775380373 0.6314917207
-0.0056125955 -0.14163549 1.8830001 -0.4766258001 0.7151975036 0.5111950636
0.40275943 -0.41500232 1.6339092 0.8203001022 -0.06637128443 0.56806916
0.094228074 -0.15400273 1.8940001 0.5932121277 -0.08180737495 0.8008788228
-0.26492167 -0.0028333867 1.6160001 0.177400589 0.5763351321 0.7977260351
0.0024911945 0.37318096 1.705 0.015360686 -0.8532004952 -0.5213568807
0.094236962 0.11320101 1.4873637 0.08728200197 0.800953567 0.5923303366
-0.043550171 0.46703804 1.7130001 -0.7237068415 0.4615318477 -0.5130660534
-0.17471616 0.046408977 1.557 0.07197329402 0.6941010356 0.7162706256
-0.067889065 -0.33435366 1.9360001 0.970710814 0.1542667747 0.184180066
0.034012787 -0.26342317 1.8730001 0.3214704096 -0.3216713071 0.8906089664
0.34620705 -0.047365423 1.6710001 0.7816147208 0.4172284305 0.4636796713
0.22851017 0.077580616 1.6090001 0.6932242513 0.06994309276 -0.7173200846
0.071436934 0.030615829 1.6630001 0.1044637859 0.8658951521 0.4891962111
0.37367916 -0.42748898 1.705 0.5576762557 0.6213471889 0.5503861308
0.065206178 -0.43590584 1.7570001 0.5455866456 -0.166188702 0.8214113116
0.26762819 -0.25554845 1.6630001 0.7646007538 -0.2447047979 0.5962426066
0.34229976 -0.10623096 1.4960001 -0.638052702 0.1301239133 0.7589179873
-0.0047445199 0.24829654 1.8040001 0.5971394181 -0.6116514802 -0.5189479589
-0.24463998 -0.054201674 1.6710002 -0.1806007624 0.7045757771 0.686262548
-0.026267273 -0.012390223 1.6960001 -0.2204378992 0.8184828758 0.530559063
0.085632801 -0.048265759 1.7760001 -0.02871195041 0.7791263461 0.6262090206
0.0038108702 -0.35223326 1.863 0.1453380287 -0.1056939065 0.9837203026
0.18063278 -0.067270137 1.4210001 0.246573925 0.7150014639 0.6541973352
0.0221972 0.48981822 1.6880001 0.42346856 -0.05140858516 -0.904450953
0.12406149 0.0014947165 1.705 0.05524839833 0.7591094375 0.6486142874
-0.16152933 -0.049817462 1.7220001 -0.3521380424 0.6544115543 0.669137001
0.14791121 -0.30983505 1.7760001 0.5223097801 -0.8483077884 0.0869853124
-0.18618822 0.27274939 1.863 0.01195427869 0.4803813696 0.8769782186
0.13605253 0.15226734 1.4450001 -0.003437079489 0.5974146128 0.8019251823
0.37501696 -0.26514873 1.6710001 -0.04661342874 -0.2513300776 0.966778338
0.14349279 -0.43496251 1.705 0.08024631441 0.05525102466 0.9952425957
0.25535545 -0.37577879 1.6550001 0.5610354543 0.09778625518 0.8219957948
0.28470394 -0.43369284 1.6826667 -0.2200033218 0.7407013774 0.6347913146
-0.035255149 -0.23503433 1.9150001 0.5566291213 -0.5325012803 0.6376569271
0.086096555 -0.21605362 1.853 0.5450829268 -0.3957169056 0.7391161919
0.30960098 -0.041588191 1.7570001 0.6471331716 -0.316229552 0.6936984062
0.18485422 -0.12732033 1.8230001 0.496026665 -0.6282300353 0.5994035006
-0.30213529 0.31182945 1.8430001 0.6189828515 -0.1300448626 0.7745634317
0.0141757 0.2023259 1.47 0.3750582933 -0.4089161158 0.8319368362
-0.20551872 -0.14168335 1.7760001 -0.1607833356 0.799316287 0.5790010095
-0.015193071 0.065373182 1.5755 -0.2737240195 0.8998209834 0.3397019207
-0.11296728 0.089044787 1.5160002 0.09354108572 0.5840370655 0.8063192368
0.18684454 -0.37451512 1.6960001 0.6714978218 -0.09050607681 0.7354586124
0.083454631 0.062939063 1.6025999 -0.04789944738 0.8440012336 0.5341980457
-0.2808235 -0.091605529 1.7130001 0.09093445539 0.8314553499 0.548099339
0.2725285 -0.066258468 1.4260001 -0.2655383646 0.6919965148 0.6712899804
0.19030154 -0.19501975 1.794 0.6023274064 -0.06188472733 0.7958467007
0.3640902 -0.34283975 1.6160001 -0.4254024327 0.4493813217 0.7855502367
-0.23658778 -0.21958746 1.6160001 0.2742605805 -0.09586051852 0.9568656683
0.1454986 -0.24513352 1.804 0.04109245911 0.06873679906 0.9967881441
0.4020744 -0.2047192 1.6800001 -0.3852471709 -0.1621005684 0.9084646702
0.2945556 0.033047702 1.6390001 0.6979012489 -0.07635298371 -0.7121123672
0.20278835 0.022397518 1.381 0.8335916996 -0.01746323332 0.55210495
0.29454947 -0.3248708 1.647 0.4171819687 0.03275845945 0.9082323909
0.21663046 -0.26418349 1.7220001 0.7202680111 -0.6022268534 0.3442917466
0.063354068 -0.33301499 1.853 0.3131766617 -0.0369316265 0.9489765167
0.18471278 -0.48505878 1.7130002 0.1989268214 0.3517362177 0.9147183895
-0.11409203 -0.15587221 1.8329999 -0.3717594743 0.6569334865 0.6559216976
0.098034121 -0.34652707 1.794 0.6453819871 -0.746868372 0.1602177322
0.030698236 -0.43462241 1.8430001 0.7954006791 -0.1772149354 0.5795969367
0.19136231 -0.052189719 1.8040001 -0.06273825467 0.8259227872 0.5602815747
-0.13934179 -0.20313682 1.9150001 -0.04511101916 0.9299593568 0.3648843765
-0.0041552247 -0.10388062 1.8230002 -0.2337107062 0.7761361003 0.5856552124
-0.2082136 0.0097818468 1.5940001 0.0286379531 0.7229847908 0.6902701259
-0.082518883 -0.079404958 1.7760001 -0.1570920646 0.8174769878 0.5541239977
0.36674297 -0.1689328 1.6470001 0.4242622852 0.3232454062 0.845880568
-0.084562823 0.24383649 1.8730001 0.1167370975 -0.5526093841 0.8252243996
0.33341852 0.011328871 1.6853334 0.4505940974 0.7330141068 -0.5095638037
-0.14480576 0.023895303 1.6036668 -0.2063604891 0.8368199468 0.5070973635
0.43599087 -0.44437537 1.594 0.3957592845 -0.05744410306 0.9165559411
0.17964478 -0.31249133 1.7220001 0.7863163352 -0.1958192885 0.5859704614
-0.052494276 -0.35425383 1.8830001 0.7157019377 0.03112768754 0.6977118254
0.062237374 -0.49325436 1.766 0.8426135182 -0.007638738025 0.5384646058
0.0079075331 0.46496296 1.8040001 0.9819704294 0.1886844635 -0.01149878185
0.13392486 -0.12575871 1.863 0.6561954021 -0.08152554929 0.7501741052
0.42642468 -0.36550689 1.6160001 0.2471989542 -0.3338572979 0.9096328616
-0.28359631 0.35725155 1.8730001 -0.5663198829 -0.3062847555 0.7651610374
0.23046251 -0.093774401 1.8130001 0.6797127128 -0.4759926796 0.5580515862
-0.20489569 0.10433853 1.5546668 0.612919569 -0.29687953 0.7322514057
-0.11442998 0.15676247 1.5090001 0.6013122201 -0.2486239821 0.7593482137
-0.075546749 -0.28036237 1.9150001 0.8195366263 -0.1287263334 0.5583809614
-0.12578414 -0.023677014 1.6880001 -0.1177896187 0.7387860417 0.6635667086
-0.2212014 -0.30323637 1.6710001 0.197157532 0.7277835011 0.6568562388
-0.031897515 0.39116427 1.9150001 0.7549471259 -0.2645180225 0.6000708938
0.02423545 0.27466843 1.8430001 0.2633131742 -0.8667328358 -0.4236039817
0.41689301 -0.49794257 1.5940002 0.4933881164 -0.2122797668 0.8435078263
0.27419916 0.30707565 1.8230001 -0.01372870989 0.02163753472 -0.999671638
0.064918928 0.15529622 1.4519998 0.2029981464 0.2886172533 0.9356772304
0.21682072 -0.094196081 1.452 0.02827176638 0.7505161762 0.6602470279
0.0048996899 -0.4785364 1.863 0.5277197957 0.3166095912 0.7882069349
0.18144634 0.053003266 1.4225 0.7814890742 -0.3219433725 0.5344411135
0.17475855 -0.024273694 1.3843753 0.6739174724 0.1360950768 0.7261634469
-0.05525104 0.038250718 1.6160001 -0.1661834568 0.8908891082 0.4227288663
0.28516194 0.38315576 1.8630002 0.5183214545 0.6429077983 -0.5639259815
0.17772663 0.26658997 1.8430001 -0.07057836652 -0.4844892323 -0.8719454408
-0.053352181 -0.15515685 1.863 -0.3860643208 0.6679694057 0.6362162828
-0.33123273 0.14551264 2.184 -0.00141468225 0.9237585068 0.3829729259
-0.023503434 -0.17963338 1.9150001 -0.4147388041 0.674387157 0.6108958125
0.045328051 -0.15445113 1.9150001 0.1490070075 0.6717584729 0.7256290317
0.15344472 0.13246083 1.4960001 -0.3316516876 0.6377066374 0.6952247024
0.075861476 -0.38550016 1.7659999 0.5724756718 -0.2485161424 0.781352222
0.27542806 -0.46815184 1.7310001 -0.007196250372 0.4637501836 0.8859367967
-0.035010267 -0.044148058 1.7363335 -0.2519863546 0.7068487406 0.6609597206
0.37577879 -0.37577876 1.655 -0.02001574263 0.4313961267 0.9019405246
0.30486038 -0.077934645 1.4735001 -0.4865534902 0.461466074 0.7418320179
0.0053161066 0.10322106 1.5159999 -0.1783528179 0.8667103648 0.4658362269
0.38193387 -0.4755303 1.7220001 0.9138024449 -0.2860982418 0.288293004
-0.022840381 0.48645154 1.6630001 -0.387227267 0.1173023731 -0.9144917727
0.037956163 -0.068004787 1.8040001 -0.05003030971 0.7879965305 0.6136435866
-0.01285544 -0.39048398 1.8330001 -0.07509244978 -0.04488474131 0.9961658716
0.23377718 -0.19465013 1.766 0.5185576677 -0.1980490834 0.8317899108
-0.03496059 0.12818883 1.4770001 0.1594930887 0.5366997719 0.8285622001
0.31467161 -0.23923664 1.6390001 0.009897222742 -0.6225771308 0.7824958563
0.10490865 -0.41355112 1.7343335 0.5607335567 -0.1386251599 0.8163093328
0.0279832 0.0103096 1.6800001 -0.2150491625 0.8154931068 0.5373312235
-0.066567928 -0.20994501 1.9470001 0.3010636568 0.7648544312 0.5695247054
-0.19494434 -0.054647312 1.6846666 -0.2987040281 0.5562807322 0.7754532099
0.034935161 0.067075521 1.594 -0.07109389454 0.8108291626 0.5809490085
0.48469114 -0.44687241 1.5860001 -0.09178623557 -0.3613937497 0.9278845787
0.13483274 -0.05262525 1.7760003 -0.1753643751 0.8429194689 0.5086591244
