# .PCD v0.7 - Point Cloud Data file format
VERSION 0.7
FIELDS x y z normal_x normal_y normal_z
SIZE 4 4 4 4 4 4
TYPE F F F F F F
COUNT 1 1 1 1 1 1
WIDTH 206
HEIGHT 1
VIEWPOINT 0 0 0 1 0 0 0
POINTS 206
DATA ascii
-0.20573699 -0.055564005 1.7130002 -0.1250372678 0.7000182271 0.7030932307
-0.49625382 -0.32140791 2.9330001 0.8026522398 0.4433342516 0.3990039527
0.48635098 0.11897857 2.381 -0.06618668884 0.8354516029 0.545563817
0.49932128 -0.48215264 1.6320001 -0.2440874577 0.298409313 0.9226988554
-0.44357404 0.048351672 2.398 0.07014744729 0.8525953889 0.5178421736
0.31470054 0.38463399 1.8130001 0.4521581531 -0.5784820914 0.6789046526
0.26422295 -0.014708587 1.4150001 -0.2542001903 0.6171379089 0.7446630597
0.052342258 -0.48458803 1.9260001 0.7951228023 0.3484074771 0.4963788986
-0.30539119 0.37637404 1.8830001 0.194681868 0.1287361681 0.9723815918
0.22266369 -0.063151561 1.863 0.4563856721 -0.1924751997 0.8687148094
-0.014794043 0.49554285 1.6873332 0.1040642709 -0.712780714 0.6936240196
-0.033741146 0.18468212 1.4960002 0.3115930259 -0.2484761924 0.9171528816
0.037556399 0.366622 2.0400002 -0.7816265225 0.04108371586 0.6223922372
-0.4664717 -0.08524356 2.7010002 0.8088229895 0.3979162574 0.432975769
-0.053538032 -0.18824664 1.9700001 -0.2926436663 0.805762291 0.5148852468
0.49059582 0.31680542 2.0650001 -0.1679396927 0.8118223548 0.559232235
0.42510882 -0.17845865 1.6550001 0.6441979408 0.1025386006 0.7579543591
-0.26784095 0.18305677 2.1980002 -0.5342673659 0.8041000366 0.260732621
0.22525948 -0.3859446 1.7129999 0.3340931833 -0.04901395366 0.9412647486
-0.19228455 -0.32462615 1.7760001 -0.007729445118 0.8668271303 0.4985488355
0.27512592 0.10559338 1.6630001 -0.7913097739 -0.2839162648 0.5414983034
0.034197014 0.028249705 1.6960001 -0.1893451661 0.8456050158 0.499099791
0.32950217 0.17920294 2.1980002 -0.06618668884 0.8354516029 0.545563817
-0.26538014 -0.25021556 2.8830001 0.8026522398 0.4433342516 0.3990039527
-0.090309814 0.24137351 1.8730001 0.01035920624 -0.3820992708 0.9240632057
0.11696136 -0.25504074 1.853 0.4878909886 -0.05406729504 0.8712285161
0.13719133 0.28908172 1.863 -0.1268914938 0.9873076081 0.09551069885
-0.20625424 0.10797202 1.5790001 0.5564798117 0.0406476222 0.8298662305
0.16635078 0.15449211 1.5030001 -0.3882402778 0.5308977962 0.7532708645
-0.055935718 -0.073515512 1.8230001 -0.08117670566 0.8247697949 0.5596115589
0.26663992 -0.20840821 1.748 0.6384106874 -0.7651481628 0.08354658633
0.20464291 0.32447886 2.1030004 0.4759141207 0.8742787838 0.09561542422
0.39702481 -0.43439183 1.7760001 -0.2917648554 0.173802644 0.9405667782
0.36088336 -0.035245508 1.748 0.7723132968 0.5225803852 0.3611674011
-0.22921677 -0.23206419 1.6240001 0.2297306061 0.1067111269 0.9673864841
0.021459924 0.45065838 1.8830001 -0.9714467525 -0.117749393 0.2059763074
-0.010782124 0.34810856 1.7570001 -0.3033385873 0.7629908323 0.5708158016
0.11832896 -0.4904424 1.7760001 0.5820139647 0.3959921598 0.7102463841
0.36562261 -0.3293505 1.6550001 0.170715645 0.4461222887 0.878539145
-0.013990139 -0.33520374 1.9150001 0.7000086904 0.2794288099 0.6571965814
0.075966455 -0.10618515 1.9150001 -0.1032437235 0.7320417166 0.6733911633
0.29624057 -0.10415764 1.5430001 -0.07392028719 0.8665850759 0.493524164
-0.19477779 0.29123917 2.1160002 0.3110271692 0.9007430673 0.3031898141
0.23871721 0.36752146 1.9590001 0.5702935457 -0.6628192067 0.485217452
0.17608245 0.01905654 1.7390001 0.003373370739 0.7796219587 0.6262413263
-0.061485894 0.074062556 1.5940001 -0.1578315496 0.911760807 0.3791852593
-0.49626523 -0.19549842 2.8590002 0.8088229895 0.3979162574 0.432975769
0.2609486 -0.49501157 1.8040003 -0.1759324521 0.9138349891 0.3659964204
0.49334547 -0.32702559 1.6010001 0.9697077274 0.1998315454 0.1404788643
-0.33109158 0.15640523 2.3170002 -0.2466658056 0.8689205647 0.4291072786
0.13458586 0.086418293 1.6160001 0.09766725451 0.9562363625 0.2758136392
-0.17475364 -0.13699079 1.8330001 -0.2494404763 0.7688084245 0.5888234377
0.074330807 -0.031630132 1.804 0.04291374236 0.7781083584 0.6266624331
0.076711841 -0.37716657 1.8230001 0.8593719006 -0.356462568 0.366625607
-0.28002048 0.031919435 1.6550001 0.6307597756 0.1407077461 0.7631143332
-0.095369317 0.0053100954 1.6960001 -0.02335507423 0.741787672 0.6702280045
-0.067627817 -0.33184814 1.794 -0.3774578273 0.7242724299 0.5770225525
-0.21395314 0.29234818 1.863 0.2795501053 0.1343058646 0.9506911635
0.38820115 -0.49806941 1.6710001 0.7979671359 -0.4995732605 0.3371572196
-0.13827488 -0.25573421 1.6960001 -0.5688544512 -0.6164432168 0.5444284678
0.0016972267 0.28004241 1.9360001 -0.1044893265 0.9517718554 0.2884654999
0.16631055 0.043613542 1.4449999 0.5267981291 -0.121168375 0.8413096666
0.18698511 -0.16780715 1.8230001 0.6781881452 -0.1144077852 0.7259281874
0.054301113 0.12154945 1.5430001 -0.07095003128 0.895627141 0.4391106367
0.19275007 -0.29338264 1.766 0.7201355696 -0.4592080116 0.5201276541
0.04474419 -0.21190172 1.9260001 0.3923445344 -0.4583927989 0.7974596024
0.32586837 -0.22488692 1.655 0.648199141 -0.136104241 0.7492085695
0.074892379 0.20531292 1.4729167 0.05777195841 -0.3799400926 0.9232052565
0.24204503 0.31514588 1.853 0.6589151025 0.4816601574 0.5777840614
0.28453442 -0.10470555 1.7760001 0.7668552995 0.1089067906 0.6325126886
0.34627631 -0.11986488 1.6880001 0.8407501578 0.2193251401 0.4950107634
0.0080346502 0.27799889 1.8330001 0.1938537657 0.6648284793 0.7214040756
-0.12093109 0.1533958 1.5430001 0.6150280833 -0.1583399475 0.7724434733
-0.17499703 0.024954665 1.6362002 -0.2037552446 0.8102580905 0.5495139956
0.43460488 -0.40572742 1.6470002 0.6895993352 -0.1363180876 0.7112454772
0.26529235 -0.2963033 1.6960001 0.7186051607 -0.07458337396 0.6914072633
0.35219556 0.042914588 1.6880001 0.2973231375 0.6636565924 0.6864101291
-0.083528623 -0.15220037 1.8830001 -0.1866852045 0.7757255435 0.6028254628
-0.39394858 -0.13753234 2.6590002 0.8088229895 0.3979162574 0.432975769
0.44000688 -0.079591691 1.7130001 -0.4487636387 0.007025310304 0.8936228752
0.3258754 -0.39495501 1.7129999 -0.303273201 0.8063480258 0.5077678561
0.40346304 0.18788719 2.256 -0.06618668884 0.8354516029 0.545563817
0.44502297 -0.27517799 1.6630001 0.115029484 0.02775963768 0.9929741025
-0.02310455 -0.016943337 1.7570001 -0.3920894861 0.7079972029 0.5873719454
-0.12850004 -0.07276509 1.766 -0.3641216159 0.6066311598 0.706692338
0.016277947 0.40250921 1.6880001 0.3275880516 0.3022223413 0.895180285
0.14632882 -0.40509981 1.7570001 0.3328970075 -0.108527787 0.9366970062
0.32500064 -0.4852142 1.7390002 0.3839424551 -0.5851256251 0.7142941952
0.23508371 -0.063444942 1.4870001 0.1653932035 0.9108939171 0.3780441284
0.026236881 0.082778372 1.6240003 -0.01740273274 0.8483109474 0.5292123556
-0.49727601 -0.138267 2.7670002 0.8088229895 0.3979162574 0.432975769
-0.037156641 0.45981342 1.766 -0.9726794958 -0.2029802948 -0.1126657054
0.42917654 0.18452518 2.365 -0.06618668884 0.8354516029 0.545563817
0.32214344 -0.0577548 1.4640001 -0.1625236571 0.749106884 0.6422031522
-0.0049522901 -0.11225191 1.8830003 -0.4020890594 0.6295511723 0.6648230553
0.1213311 -0.17333014 1.8830001 0.6755403876 -0.1711426079 0.7171857357
0.13555808 -0.06206274 1.863 0.04992173985 0.8070814013 0.5883259773
0.33042091 0.41178086 1.8940001 0.1579769701 -0.9724184275 0.1715975255
0.23493001 -0.244519 1.8230001 0.6831794381 -0.1463703364 0.7154310346
0.033208132 -0.40347883 1.8940001 0.7604466677 0.01972982101 0.6491006017
0.064379774 -0.31529579 1.8830003 0.09439505637 -0.1234657913 0.9878490567
-0.22153717 -0.27654976 1.6960001 -0.06619112194 0.8158375025 0.5744805336
0.20764008 -0.46436983 1.7390001 0.1901887655 0.3851842284 0.903028965
0.082847632 -0.45647418 1.853 0.8336837292 0.4098848403 0.3700889349
0.11690525 0.048833836 1.6880001 0.0695573017 0.887480557 0.4555656314
-0.044079676 -0.26848531 1.9590001 0.909701407 -0.1603159904 0.383069396
0.23336691 0.099215873 1.5940001 -0.6014591455 -0.04115854204 0.7978426218
-0.28249705 -0.040144321 1.6960001 0.3107906282 0.6245774627 0.7164580822
0.017483363 0.49430236 1.8130001 -0.9416113496 0.3152834773 0.1181709245
0.21350341 -0.0079075331 1.8040001 -0.2884860337 0.8290171623 0.4790682793
-0.024238082 0.11266219 1.5360001 -0.1267742664 0.7964003086 0.5913330913
-0.29234818 0.29888108 1.863 -0.2003570497 -0.6014391184 0.7733873725
0.13191992 -0.32264751 1.8130001 0.6929547191 -0.6667987704 0.2742136717
0.40155894 -0.37740499 1.7220001 0.5419059396 0.5144547224 0.6645858288
0.13218117 0.22297227 1.5230001 -0.5492743254 -0.6236514449 0.5561983585
-0.035961449 0.043250933 1.6630001 -0.01584995724 0.7891070843 0.6140511632
-0.13525622 0.075905018 1.5743335 -0.04892047867 0.7404803038 0.6702952385
0.49583229 -0.4044933 1.6029998 0.5263298154 -0.1214556769 0.8415613174
0.18855345 -0.021088216 1.4150001 0.1261285096 0.6977388859 0.7051610351
0.18897338 0.055666581 1.6710001 0.06753049046 0.9039317369 0.4223115444
0.39418903 -0.025731921 1.6826669 0.5602125525 0.2485057116 0.7901941538
0.093860313 0.013025513 1.748 0.03344242647 0.8385888934 0.5437372923
0.0054556215 -0.26495343 1.8940001 0.5537342429 -0.3255576491 0.7664141655
-0.14777619 0.28725034 1.8940001 -0.1184773818 -0.4558841884 0.8821182847
0.043175831 -0.15370597 1.9700001 0.3165761232 0.239539206 0.9178237915
0.1752895 0.099194832 1.5500001 0.7777072191 0.5286969543 0.3400750458
-0.38528711 0.11094655 2.3010001 0.07267640531 0.8664641976 0.4939210117
-0.11493101 -0.30188543 1.748 -0.1372015029 0.7334617972 0.6657398343
0.01446237 -0.062670268 1.8330001 -0.05900187045 0.8391332626 0.5407162905
0.3825703 -0.26704669 1.6240003 -0.3221131265 -0.3824521303 0.8660101295
-0.19600128 -0.10125184 1.766 -0.1168636009 0.7887582779 0.603492558
-0.26985905 0.34623426 1.9360001 -0.4364808798 0.8854162097 0.1597580165
-0.024761448 0.39783397 1.883 -0.9453559518 0.2453260869 -0.2147491723
0.3210406 -0.16473442 1.748 0.5409359932 -0.1263801903 0.8315144777
0.30751744 0.015701978 1.7336668 -0.4757775366 0.6798205972 0.558103621
0.14626481 -0.02201836 1.794 -0.181948334 0.8167510629 0.5475513339
0.26971087 0.037905313 1.6630001 -0.662545681 0.3611271083 0.6562167406
0.04457061 0.30539122 1.8830001 -0.3378652632 0.9306335449 0.1405995041
0.4313831 -0.47551805 1.6240001 0.4094058573 -0.146657005 0.9004879594
0.16342556 -0.12050572 1.8830001 0.5575553179 -0.5753982067 0.598371923
0.27441418 -0.44058725 1.7390001 -0.2721420527 0.738179028 0.6172766089
0.22728372 -0.10807897 1.8130001 0.5487545729 -0.3593815565 0.7547935247
-0.16206411 -0.0074341334 1.6960001 -0.5427317619 0.6770718694 0.4970069528
-0.11087817 -0.11730589 1.8330001 -0.3692085743 0.6831951737 0.6300233006
-0.10489053 0.038795128 1.6390001 -0.2014467418 0.9044960141 0.3759071529
0.18488549 0.33180344 1.8830001 0.4799691141 -0.4567713141 0.7489923835
0.1767623 -0.27799889 1.8330001 0.461291194 -0.6965444684 0.5495781898
0.094427519 0.14557576 1.4960002 0.05736112967 0.7391016483 0.6711471081
0.089196451 -0.43189859 1.7850001 0.8064750433 0.06057775393 0.5881567001
0.39716506 -0.23319332 1.6800002 -0.122059226 -0.1822817028 0.9756407738
0.025174735 0.15608336 1.4890002 0.03505717218 0.5459551811 0.8370805979
0.43007952 -0.33968991 1.6630001 0.3556497395 0.4025034606 0.8435071111
-0.24630125 0.082574986 1.6240001 0.6119631529 0.01401888113 0.7907620072
-0.034666032 0.28605372 1.8830003 0.04793849587 0.552782774 0.8319453597
-0.22451608 -0.0058315871 1.6630001 0.0741475895 0.7589226365 0.6469455361
0.28449166 -0.35502893 1.6832001 0.2990309894 0.208605513 0.9311628342
-0.018573061 -0.1604037 1.9260001 -0.4135729671 0.8089280128 0.417843163
-0.084282734 -0.027072636 1.748 -0.1341359317 0.8345556259 0.534344852
0.24220197 -0.16513769 1.794 0.6537635326 -0.01621614583 0.7565251589
0.18542202 -0.35398746 1.748 0.4390078187 -0.3726859391 0.817543447
-0.085760966 0.1025344 1.5430001 0.1085222885 0.7468991876 0.6560217142
-0.092094712 -0.36030036 1.8430001 -0.2279076874 0.8338471055 0.5027495027
0.11465748 0.10783263 1.557 0.1257448494 0.912424624 0.3894477785
0.3222802 -0.28858727 1.6710001 0.7301462889 0.1281447709 0.6711671352
0.073495351 -0.073495351 1.8630002 -0.2375949174 0.8234155178 0.5153014064
-0.17058706 -0.30041438 1.7220001 -0.1716813296 0.8093258142 0.5617092252
0.024355205 0.33180013 1.8040001 -0.05870774016 0.7210384607 0.6904034615
-0.17700776 -0.22778869 1.6550001 -0.1810340583 0.6089045405 0.7723094821
0.03619713 -0.0038507585 1.7570001 -0.05353007093 0.883946538 0.4645137787
0.38240376 -0.49232548 1.766 -0.5589566827 -0.05152582377 0.8275943995
0.28228465 -0.23470621 1.6960001 0.7708531022 -0.1816948205 0.61055094
-0.088977285 0.28372002 1.9150001 -0.1376719624 -0.7722824812 0.620182395
0.40872446 -0.44483185 1.6880001 0.9661523104 -0.2327650934 0.1112210304
-0.032555893 0.43654492 1.6880001 0.03028652072 0.5104134679 0.8593956232
0.22205386 0.043211076 1.4246 0.4730296135 -0.3862386346 0.7918729186
0.35577637 -0.17778198 1.6960001 0.2447400838 -0.5937014222 0.7665643692
0.28254879 0.39687487 1.863 0.7024645805 -0.5128469467 0.4934890866
0.16480106 -0.21811906 1.8430001 0.2668644786 0.3201556504 0.9090014696
0.065480277 -0.25696883 1.883 0.278958261 -0.1053968221 0.9545018673
0.46018425 0.14725897 2.3330002 -0.06618668884 0.8354516029 0.545563817
0.23417899 -0.26524371 1.7368668 0.6386570334 -0.3106191754 0.7040120363
-0.050973784 -0.23377632 2.0050001 0.9090775847 -0.09748733789 0.4050606489
0.067063242 0.062689558 1.6630001 -0.132584691 0.8565375805 0.4987631738
-0.014143555 -0.21667928 1.936 0.4260400534 -0.5644379258 0.7070358396
-0.014716019 0.40134645 1.7363335 0.3220605552 0.797526598 0.5101258159
0.074387796 0.10245866 1.6010001 0.01924558729 0.8927675486 0.4501063526
0.14787877 -0.45888153 1.7390001 -0.1122638211 0.06405351311 0.9916118383
0.13077851 0.190341 1.4770001 -0.6215472221 -0.1912528276 0.7596719265
0.34287152 -0.42543179 1.7570002 0.1011783704 0.03676583245 0.9941887259
0.083860181 -0.17166011 1.9260001 0.4769527912 -0.6019310355 0.6404647231
0.26289785 -0.06632378 1.8230001 0.4535444975 -0.675753057 0.5810810328
-0.19576396 0.054752935 1.594 0.2008066922 0.55066365 0.810213685
0.1890365 0.2924411 1.8430001 0.3148354888 -0.7003439069 0.6406223774
0.22443019 -0.3245683 1.7220001 0.6373508573 -0.2097559124 0.7414757609
0.22931847 0.33686092 1.8040001 0.2853882909 0.9352684021 -0.2093478739
-0.071436055 0.1468408 1.5089999 0.3259257376 0.1985111088 0.9243190885
0.18590102 -0.49853858 1.7760003 0.1048274413 0.6309690475 0.7686932087
-0.040546712 0.01051211 1.7130001 -0.1885138452 0.8307327628 0.5237801075
0.0253269 -0.12663449 1.9260001 -0.3205431998 0.7577414513 0.5684011579
-0.13694252 -0.15467608 1.8730001 -0.2659756839 0.7816547155 0.5641567707
-0.096242219 -0.18235368 1.9260001 -0.1865491271 0.8573119044 0.4798080027
-0.24212131 -0.081217907 1.748 0.03590445966 0.8793537021 0.4748136103
0.11611187 -0.36523598 1.7850001 0.7323099971 -0.3697595 0.5718390942
-0.23491159 0.028758874 1.6240002 0.2066616714 0.6141254902 0.761669755
0.28482834 0.34548995 1.8330001 0.2933614552 0.3866904378 0.8743051887
0.015172616 0.10205554 1.5731667 -0.1307194978 0.9350355268 0.3295769393
