# .PCD v0.7 - Point Cloud Data file format
VERSION 0.7
FIELDS x y z normal_x normal_y normal_z
SIZE 4 4 4 4 4 4
TYPE F F F F F F
COUNT 1 1 1 1 1 1
WIDTH 206
HEIGHT 1
VIEWPOINT 0 0 0 1 0 0 0
POINTS 206
DATA ascii
-0.13454029 -0.0092540933 1.6240001 -0.2726247311 0.8999914527 0.3401340544
0.4707621 -0.28501925 3.6530001 -0.3455398381 0.879889369 0.3261854649
-0.39157018 -0.1944885 2.9580002 -0.200500384 0.7430427074 0.6385037899
0.48746786 0.49795106 1.9930001 -0.4247099459 0.850687921 0.3097603917
0.45746481 0.037911449 2.8830001 -0.2174962759 0.8468756676 0.4852802753
-0.14742728 0.22870129 2.1560001 0.2206303328 0.738774538 -0.636815846
-0.49858925 0.38076702 1.6390001 -0.8298841715 -0.4448795617 0.3367112577
0.0021088216 0.484734 1.605 0.08766875416 -0.2306685299 0.9690749049
0.21700393 -0.35661486 1.7310001 -0.3445704877 0.2877850831 0.8935608268
-0.21574853 -0.44100806 1.7129999 0.03859390318 0.3737256527 0.9267359972
0.31508979 -0.17883474 3.2380002 -0.2628124058 0.861111939 0.4352192879
0.19407207 0.20254068 2.4150002 -0.5326732993 0.8376528025 0.1208179221
0.059139058 -0.048854005 2.9330001 -0.1588229686 0.7395607829 0.6540833712
-0.42260945 0.18839216 1.9360001 -0.9120300412 -0.4089507461 -0.03099251539
0.14168335 -0.051379681 1.7760001 0.6299593449 0.0150632197 0.776481986
0.090630673 0.19343562 1.5430001 0.3922800422 -0.06526839733 0.917527318
-0.41205788 0.097846523 1.572 0.3751071095 -0.3299398124 0.866276145
0.041510165 0.46657428 1.8940001 0.8873038888 0.4403464794 -0.1370647699
-0.29885653 -0.14543286 1.8230001 0.7234076262 0.1065008044 0.6821576357
-0.41512096 -0.36497211 3.1780002 -0.200500384 0.7430427074 0.6385037899
-0.14236365 -0.22563297 3.0640001 -0.1458708048 0.6857818365 0.7130392194
-0.053910617 -0.2325858 1.7570001 -0.01840118691 -0.03170450404 0.999327898
-0.16888545 0.13385735 1.427 -0.004991183523 -0.2466887236 0.9690819383
0.01372071 -0.47107771 1.739 -0.2491793185 0.3441666663 0.9052397609
0.47978565 -0.051502414 3.0920002 -0.2448684424 0.8650313616 0.4379042983
0.24604964 0.062133748 2.835 -0.1910966635 0.7930224538 0.5784440041
-0.32555425 -0.082100414 1.6240002 -0.234893173 0.8914599419 0.3874588907
0.16653863 -0.13161923 3.0640001 -0.2457690388 0.8014944792 0.5451643467
0.05436736 0.03004512 1.6320001 -0.1762305498 0.8667142391 0.4666360915
-0.035608448 -0.051090378 1.7660002 -0.2127108723 0.8650820255 0.454298526
0.11680142 -0.21587978 1.705 0.2541910112 0.04609170556 0.9660550952
-0.28578383 0.014112781 1.4843845 -0.2026260048 0.7211075425 0.6625304222
-0.21518293 -0.27345529 1.7310002 0.2126372159 -0.3979075253 0.8924432993
0.32215482 -0.071885787 3.0370002 -0.2565488517 0.8575286865 0.4459004402
-0.024918372 0.080001093 1.4959999 -0.1787454784 0.8087136745 0.5603857636
-0.10632038 -0.10632038 2.9580002 -0.1491442323 0.6715030074 0.7258372307
0.48540857 -0.1220618 3.2380002 -0.2572056055 0.8613668084 0.4380553663
0.035512175 0.33517817 1.5745456 0.09984077513 -0.1036384702 0.9895913005
-0.45248026 0.2439872 1.5940001 0.2134588212 -0.1858629584 0.9591091275
-0.18542202 -0.08275032 1.748 -0.4624558389 0.7875270247 0.4073521197
0.0026861066 -0.19071357 3.0640001 -0.1681911498 0.687749207 0.7061960101
0.37464789 -0.22124875 3.3650002 -0.3240465224 0.8853416443 0.3334127367
-0.25153846 -0.15299761 2.9580002 -0.1539223492 0.6930295825 0.7042853832
-0.27377599 -0.27648664 3.0920002 -0.200500384 0.7430427074 0.6385037899
-0.095106058 -0.36532804 1.7220001 0.09793473035 -0.2399594933 0.9658303261
0.044007789 -0.33536971 1.7310001 0.03918083012 -0.1379574239 0.9896628857
-0.14510554 0.04554937 1.5159999 -0.2293291539 0.7679300904 0.5980731249
-0.10427462 -0.48495284 1.7310001 -0.1439091861 0.342610091 0.9283902645
0.044161368 -0.13443445 1.7479999 0.2888207138 -0.331264019 0.8982464671
0.11227382 0.077103712 1.5430001 -0.1729121506 0.622889936 0.76296103
-0.38183215 -0.013588334 1.5500001 0.6603953838 0.204355374 0.722576499
0.22376595 -0.23898311 1.7363334 -0.5607049465 -0.09455371648 0.8225992918
0.12392998 -0.42136192 1.7310001 -0.05418306217 0.6657164693 0.7442350388
-0.11228697 -0.14708012 1.8040001 0.3460344076 -0.7575219274 0.553552866
-0.23520343 -0.023478497 1.5751112 -0.3043005168 0.8334541321 0.4612541795
0.03439426 0.16304685 1.4530001 -0.3713918626 -0.0414381586 0.9275510311
0.19056542 -0.13873163 1.7390001 -0.5488233566 -0.2505976558 0.7974921465
-0.28531817 -0.11775035 1.7220001 -0.235091269 0.883223474 0.4057689309
-0.044492587 0.025722276 1.5860001 -0.1182687059 0.9128373265 0.3908203542
0.054630358 -0.017299615 1.7310002 -0.005392316263 0.8948013186 0.4464320242
0.2843442 -0.14079179 3.1490002 -0.2613970637 0.857488811 0.4431529045
-0.065579303 0.15440103 1.4385713 -0.01166597288 -0.1238835752 0.99222821
-0.0279832 -0.0073639997 1.6800001 -0.1687288284 0.8837564588 0.4364689589
0.425271 -0.170687 3.3000002 -0.2572056055 0.8613668084 0.4380553663
0.13452451 -0.31538522 1.705 0.02454833314 -0.0835006088 0.9962053299
-0.35831121 -0.31454799 3.1200001 -0.200500384 0.7430427074 0.6385037899
-0.22451608 -0.068521142 1.6630001 -0.3385693431 0.8156729341 0.4690932631
-0.19337443 -0.19399722 1.7760003 -0.05532864854 -0.6293879151 0.7751191258
-0.25432944 0.093941495 1.4519998 0.1459908783 -0.1107924357 0.9830623865
-0.10962629 -0.040546712 1.7130001 -0.2675035894 0.8991219997 0.3464410901
-0.46128097 0.20678112 2.016 -0.3100517988 0.8694535494 0.3846016228
0.035064038 -0.24544825 1.7390002 0.1160711497 -0.05629432946 0.9916443229
-0.12719031 -0.28196406 1.748 -0.06276974827 -0.1968376935 0.9784246683
-0.23824906 -0.35813236 1.7310001 0.6092479825 -0.1449059099 0.7796275616
-0.0150962 -0.39401081 1.7220001 -0.2511047125 -0.02030594088 0.9677469134
-0.043128494 -0.14940943 1.7570001 0.2775360644 -0.3474341035 0.895691514
0.45899287 0.00777954 2.9580002 -0.2022957951 0.8535168171 0.4801931381
0.11456211 0.016825687 1.684 -0.1884023249 0.8369665146 0.5138011575
0.03548922 0.058693711 1.557 -0.1722269803 0.8824570775 0.4377297461
-0.034902729 -0.31412458 1.7310001 0.01406743564 -0.2260603756 0.9740117192
0.13118178 0.038085029 1.6090001 0.1511123329 0.84472543 0.5134238005
-0.26736581 -0.21389264 1.794 0.4098261893 -0.3323878348 0.8494473696
-0.30570945 -0.036522809 1.5430001 -0.2627735734 0.845231235 0.4653323293
0.0090831434 0.40734404 1.5940001 0.102168493 -0.07425549626 0.991991818
-0.10524207 0.091979861 1.4640001 -0.126862213 0.8268300295 0.5479581356
-0.41603658 0.175962 1.5860002 0.2390730381 -0.2078023106 0.9485052824
0.065813117 0.26462358 1.5640001 -0.008408297785 -0.1450614929 0.9893869162
-0.28022298 -0.29415673 1.766 0.5489057899 -0.1370522678 0.8245720863
0.055228442 0.10331652 1.4960002 -0.290397644 0.7642087936 0.575894177
-0.47817871 0.31455413 1.6090001 0.007471391931 -0.2688176632 0.9631621242
-0.21556814 0.018872177 1.516 -0.3448704183 0.771435678 0.5347442031
0.11473112 -0.13496003 1.7220001 0.1008716524 -0.2819513977 0.9541112781
0.44483876 -0.10494109 3.1780002 -0.2528888285 0.8595207334 0.4441524148
-0.1853361 0.06774354 1.4580001 -0.1637704223 0.7362693548 0.6565718651
-0.16540858 -0.34447479 1.7310001 -0.06280486286 -0.3391052186 0.9386496544
0.05829395 -0.40207878 1.705 0.3105934858 0.1368542761 0.9406394362
-0.3139168 -0.18050216 2.9840002 -0.2107666582 0.7372529507 0.6418998837
0.35294598 -0.196724 3.3000002 -0.2693446279 0.8623319268 0.4287623465
-0.14566781 -0.41597924 1.7130002 0.1276511848 -0.1958632767 0.9722873569
-0.12476458 -0.20486034 1.7570001 -0.02706160769 -0.235422641 0.9715162516
-0.10171525 -0.070418246 1.7850001 -0.3521929979 0.8726543188 0.3382816911
-0.35410321 0.02360688 1.4960001 0.7438652515 0.2059093267 0.6358190179
0.18872879 -0.1668472 3.1200001 -0.2841604054 0.8128358722 0.5084788203
0.49967283 -0.080058075 3.1490002 -0.2484878302 0.8634328246 0.4390188754
0.1963512 -0.29471451 1.7130002 -0.3453242779 -0.09723041207 0.9334331155
-0.074958503 0.054311249 1.5360001 -0.1532093287 0.8511123657 0.5021301508
-0.16406992 -0.042482391 1.6710001 -0.3356231153 0.8730524778 0.3537464142
-0.06491366 -0.43477055 1.7220001 -0.151349023 -0.0005903290585 0.9884802103
-0.17138833 0.01233996 1.5640001 -0.3463176787 0.8507211208 0.3953955173
0.17338714 -0.1883343 1.705 -0.220988974 -0.2988603413 0.9283568263
0.087180555 -0.27512825 1.7220001 0.5294117928 0.1146803796 0.8405780792
0.0064361366 -0.18603499 1.7479999 0.07365023345 0.03228471056 0.9967614412
-0.074125081 -0.001434811 1.6366668 -0.1975420862 0.9072957039 0.3712029755
-0.0127292 0.12220032 1.452 -0.3512179255 0.5659789443 0.7458645105
0.17189242 -0.39161575 1.705 -0.2459881902 0.118411079 0.9620128274
-0.16454856 -0.475099 1.7220001 0.2536399961 0.1409332752 0.9569767714
-0.25106946 -0.16789307 1.7570001 0.7767649889 0.2262981236 0.5877289772
0.42454863 -0.27563977 3.6140001 -0.3455398381 0.879889369 0.3261854649
0.11186618 -0.0045972401 1.748 -0.4124186635 0.8099363446 0.4170299172
-0.37724677 0.051755331 1.5535001 0.1289108843 -0.03516609967 0.9910324812
-0.26350498 -0.058084425 1.6160001 -0.3456437886 0.8778273463 0.3315863013
-0.10520351 0.017995337 1.5790001 -0.205102697 0.8282407522 0.5214883685
0.10490706 0.13457961 1.5285715 -0.5077956915 -0.2989052832 0.8079598546
0.16272396 -0.10643025 3.0100002 -0.2064169794 0.7736859918 0.5990008712
-0.17554724 -0.099634923 1.8040003 -0.2940385044 0.9009516239 0.3191043139
-0.31187591 0.062888563 1.4640001 0.4836360216 -0.1130172908 0.8679419756
0.06525293 -0.19575879 1.7310001 0.1706926674 0.009657775052 0.9852769971
-0.19408698 -0.029750561 1.6160001 -0.4076432884 0.840718925 0.3563967645
-0.28283197 -0.088931695 1.6630001 -0.211664483 0.8723493814 0.4406866133
0.10837353 -0.097536176 1.766 0.01447703224 -0.8120635748 0.5833894014
-0.23412611 -0.11244214 1.7570001 -0.3583926857 0.8928813934 0.2726124525
0.10463017 -0.36471087 1.705 0.01310354751 -0.02402743325 0.9996254444
0.035347197 0.0014728 1.6800001 -0.1173468754 0.8991425633 0.4216306508
-0.0030350201 -0.019727631 1.7310001 -0.1952406317 0.8674346209 0.4576442838
0.16591355 -0.24513352 1.705 -0.1614633352 0.000441017939 0.9868786335
-0.0014237066 0.021355599 1.6240001 -0.2401800454 0.8786854148 0.4125838578
-0.1746704 -0.24305987 1.7570002 0.1303464323 -0.3945034146 0.9096025825
0.0834236 0.052834947 1.5860001 -0.3906069994 0.8391728997 0.3784376383
-0.002802528 -0.11739478 1.7760003 0.1834084243 -0.4880343676 0.8533368707
-0.35286096 -0.052907709 1.5743333 -0.03604404628 0.8406615853 0.5403599739
-0.11838156 0.15147749 1.452 0.2484170198 -0.3928929865 0.8853948712
-0.036230877 -0.48156878 1.7220001 -0.05902285501 0.2199272662 0.973729074
-0.053771228 -0.12652053 1.8040001 0.3700596094 -0.8620601892 0.3462774754
-0.015245231 -0.26526707 1.7390002 -0.01300748903 -0.06965616345 0.9974862337
-0.2330706 0.050498631 1.4770001 -0.3361009657 0.7117757201 0.6167750359
-0.28336671 -0.12611376 1.7760001 0.6378064156 0.6368797421 0.4331133366
-0.19672664 -0.3859446 1.7130002 -0.109186843 -0.07979914546 0.9908129573
-0.25870171 -0.01206381 1.529 -0.3462843001 0.8170938492 0.4609173536
-0.074475288 -0.28410941 1.7479999 0.01212817151 -0.1759927422 0.9843167663
-0.022995843 0.052416999 1.5430001 -0.2097781599 0.8365370631 0.5061609149
-0.23566641 -0.2325858 1.7570001 0.2589465976 -0.4525776505 0.8532995582
0.07441292 -0.44345537 1.7323335 0.05516837537 0.4891560972 0.8704497218
0.1570259 -0.099094018 1.7390001 0.1037903056 -0.7029543519 0.7036211491
-0.2108997 0.1214271 1.4580001 0.3868455887 -0.4674750865 0.7948694825
-0.05510113 -0.033966448 1.7220001 -0.1255287528 0.9305824041 0.3438879848
-0.22225605 -0.087100342 1.7130001 -0.3255805075 0.86699754 0.3772433996
-0.085150629 -0.17494583 1.7659999 0.132825762 -0.2328574359 0.9633975029
-0.15429422 -0.16556114 1.7850001 0.4367156625 -0.7405705452 0.5107197165
0.073439792 0.14428607 1.4761251 -0.5658203959 0.37967363 0.7319120765
-0.13485238 -0.063595146 1.748 -0.2871810794 0.8392370939 0.4617446363
-0.30449614 -0.059786912 1.5860001 -0.2522788048 0.8917604685 0.375657618
0.17346311 -0.34395254 1.6960001 -0.3046280146 -0.05872929096 0.9506590366
-0.057518099 0.09841986 1.4580001 -0.1641576588 0.7562776208 0.6333217621
-0.1056734 -0.31852981 1.7220001 -0.0954175964 -0.1583670378 0.9827590585
0.025797671 -0.42490277 1.7310003 -0.1053343937 0.1464062482 0.9836004376
-0.10107879 -0.019043829 1.6710001 -0.2475408912 0.8842589855 0.3959918618
-0.3225432 -0.1075144 1.6800001 -0.2919843793 0.8210446835 0.4905413091
-0.17451365 -0.29591441 1.7310001 -0.1771476865 -0.2023246884 0.9631632566
0.019935399 0.081070624 1.516 -0.1680442691 0.8089145422 0.5633989573
-0.43937919 0.22750464 1.9810001 -0.2878883779 0.8660581708 0.4087340534
0.0013842566 0.037374929 1.5790001 -0.2252624184 0.8906695843 0.3949234784
-0.14415771 0.097366661 1.439 -0.1002813429 0.5939490795 0.7982281446
0.025916895 -0.29423299 1.7390002 0.1597552747 -0.09917701036 0.9821619987
-0.32543498 -0.014306003 1.5084546 0.04059821367 0.7876668572 0.6147623062
-0.21285641 -0.31852981 1.7220001 0.2689840794 -0.160103485 0.9497444034
-0.074230514 0.075804316 1.4960001 -0.1384161711 0.8257853389 0.5467354059
-0.38372663 -0.35059917 3.1490002 -0.200500384 0.7430427074 0.6385037899
-0.28022298 -0.24925913 1.766 0.4141764939 -0.2015260756 0.8876063824
-0.23460706 -0.40456814 1.7310002 0.34339571 0.05658842251 0.9374845028
-0.16488995 -0.057366084 1.7130001 -0.3235821724 0.851303041 0.4130105674
0.004556037 -0.35536849 1.7323335 -0.06142869964 -0.1204365119 0.9908186197
-0.10474063 -0.24490826 1.7570001 -0.03357813507 -0.176998347 0.9836381674
-0.18557629 0.045902267 1.4960001 -0.2847436368 0.789942801 0.5430574417
-0.044785395 -0.35576713 1.7220001 -0.08380870521 -0.2687149644 0.959566772
-0.14561082 0.074105509 1.4829999 -0.1367456019 0.8110215664 0.5688098669
0.1353626 -0.17561914 1.7220001 0.0204490535 -0.1621665955 0.9865514636
-0.085815147 -0.050569639 1.748 -0.260352999 0.860022366 0.438836962
-0.10295608 -0.41393775 1.7220001 -0.1661148071 -0.1080900654 0.9801644683
0.2139689 -0.19727629 1.7310001 -0.4659501016 -0.3241690993 0.8232890964
-0.2545954 -0.31557631 1.7390002 0.4587753713 0.04427970573 0.8874483109
-0.014737058 -0.22207223 1.739 0.01007293165 -0.2534100711 0.9673064947
-0.2748363 -0.16553089 1.7939999 0.6628873944 -0.1776961684 0.72732687
0.076226167 -0.10519211 1.7390001 0.2571546733 -0.4557932317 0.8521291018
0.076422893 0.0026762881 1.6960001 -0.1711840779 0.8916548491 0.419103384
0.087851204 -0.32662627 1.7130001 0.4155266881 -0.2143260092 0.8839694262
0.058165956 0.22048956 1.5430001 0.3533294797 -0.1148817688 0.9284182787
0.099627033 0.03032127 1.6470001 -0.2699548304 0.8896445632 0.368316412
0.081945539 -0.2344553 1.7310001 0.3465777934 -0.09799841791 0.9328880906
-0.016468184 0.16341504 1.4450001 -0.1399666816 -0.006811568979 0.9901328087
0.1240615 -0.26456487 1.705 0.09247533232 0.01443980541 0.9956102967
-0.0150962 -0.44533786 1.7220001 -0.2158666253 0.131020233 0.9675925374
0.032086 0.11679304 1.4640001 -0.3023201227 0.5845245123 0.7529499531
0.0046445797 -0.041801218 1.7660002 -0.1743253618 0.9100596309 0.376034677
0.062930763 0.077464394 1.5272858 -0.2415577471 0.8075124621 0.5381202698
0.034296367 0.37447929 1.5860001 0.2393946499 -0.4100753069 0.8800730109
-0.11497921 0.039228205 1.5430001 -0.2065796405 0.8358811736 0.5085543394
