# .PCD v0.7 - Point Cloud Data file format
VERSION 0.7
FIELDS x y z normal_x normal_y normal_z
SIZE 4 4 4 4 4 4
TYPE F F F F F F
COUNT 1 1 1 1 1 1
WIDTH 206
HEIGHT 1
VIEWPOINT 0 0 0 1 0 0 0
POINTS 206
DATA ascii
0.32262209 -0.25710881 1.4100001 0.7179812193 -0.2675945163 0.6425699592
-0.15832074 -0.36674297 2.286 0.4711997807 0.8818103075 -0.01952863112
-0.19589853 0.26607114 1.516 0.8669310808 -0.1898498833 0.4608551562
0.42361408 -0.43370014 2.3010001 0.3442887962 0.9359986186 0.07329264283
0.28382149 0.26337212 1.2440001 0.4641104341 -0.3794212043 0.8004005551
-0.23355189 -0.05063013 1.863 0.9943760633 0.06289393455 0.0852092281
-0.12166292 -0.14212959 1.2970001 0.3384302855 0.4205954075 0.8417626619
0.45985726 0.18935299 1.6240001 0.8747195601 0.2842027247 -0.3925486803
0.068019688 -0.49697268 1.3980001 0.6561751962 -0.1266962588 0.7438966036
0.45393276 -0.49588385 1.2270001 0.4442913234 -0.01807640307 0.8956999779
0.17476262 -0.039670043 1.223 -0.03742295131 0.8144657612 0.5790034533
0.044717889 -0.24788085 1.4742 0.1717867553 0.7493145466 0.6395444274
-0.17035562 0.064955741 1.3980001 0.2472058237 -0.5902575254 0.7684304118
0.38316995 -0.090750776 1.2780001 -0.03331061825 0.8008720279 0.597908318
0.28211191 -0.46491095 1.3540001 0.4394776821 -0.2782400846 0.8540736437
-0.024468912 0.013293032 1.1665385 0.08185276389 0.4770900011 0.8750344515
0.47149938 -0.28755367 1.2640001 0.4361995757 -0.289408654 0.8520402312
0.31241819 0.085096464 1.1434445 0.5483173132 -0.3082588315 0.7773832083
0.2477596 0.43224883 1.3490001 0.1646755636 -0.4795508981 0.861923933
0.23848315 -0.35672268 2.286 0.4704185724 0.8822562695 -0.01817383803
0.17483614 -0.15699223 1.37 -0.008318687789 0.7128277421 0.7012898326
-0.19597445 -0.2967613 2.1290002 0.470505029 0.8822146058 -0.01795629971
0.17562287 -0.34552956 1.4265715 0.3352483213 -0.4341642261 0.8361279964
0.03492377 -0.096882187 1.2850001 -0.09772449732 0.7730217576 0.6268072128
0.15771934 0.072127752 1.097 0.2288180143 0.4990442991 0.8358212113
0.38309896 -0.30844375 2.2410002 0.6539500952 -0.728856802 -0.2027733922
-0.17871025 0.06484177 1.8040001 0.9973352551 -0.0448131524 0.05756926164
0.38667449 -0.39621153 1.2950001 0.6454390287 -0.2293781489 0.7285562158
-0.055750303 -0.22906642 1.3825001 -0.7252396941 0.3244742751 0.607242763
0.038003497 -0.37750143 1.4450001 0.3295974135 -0.255202502 0.9089758992
0.3003197 -0.02845134 1.202 0.1032763273 0.8187534213 0.5647802949
-0.13068995 -0.038252473 1.2120001 0.08730892092 0.5209283233 0.8491235375
0.41983128 -0.18567187 1.3490001 0.3290675581 -0.2647572756 0.9064315557
0.29683846 -0.14073217 1.3490001 0.1064550951 0.7208032608 0.6849160194
0.055599157 -0.17337726 1.3760003 -0.08948304504 0.7108134031 0.697665453
-0.13723867 -0.031670459 1.3380001 0.1211683527 -0.3983157575 0.9092099667
-0.16675252 0.16929837 1.452 0.3691005111 -0.3906526864 0.8433002234
0.17401764 -0.45176244 1.3920001 0.1472195089 -0.4438378215 0.8839312196
0.084896773 -0.005118506 1.1667603 -0.01364918519 0.7246661186 0.688964963
0.48552632 -0.3864975 1.2190001 0.109701924 -0.2938495576 0.9495356083
0.27586576 -0.3557708 1.3862503 0.3832378387 -0.3241324723 0.864908576
0.38609257 -0.28690016 1.3269092 0.6494868398 -0.3305117488 0.6847838163
0.27692145 0.16525649 1.2045001 0.4923691452 -0.320897162 0.8090720773
0.35720816 -0.49711365 1.2870001 0.529876709 -0.2566118836 0.8083198667
0.23444697 0.018955287 1.138 0.09053388983 0.799187839 0.5942242146
0.22521056 -0.094598524 1.2941875 -0.02720595524 0.7695186138 0.6380446553
0.134983 -0.22076659 1.439 -0.1049422398 0.6914384961 0.7147726417
0.25436834 0.3420223 1.307 0.5848625302 -0.3467099965 0.7332993746
-0.035993569 -0.06313356 1.2270001 -0.09279178828 0.7170949578 0.6907709837
0.12848514 -0.10119626 1.2970001 -0.05260428041 0.8010923862 0.596224606
-0.027359013 -0.15076561 1.3280001 -0.1668356359 0.7440530062 0.6469551921
0.3847678 -0.054043397 1.1959094 0.2891514301 0.7120698094 0.6398031116
0.23486164 -0.28299937 1.4450001 0.4169388413 -0.5592464209 0.7165231705
0.34253296 0.0049356334 1.126 0.0976915583 0.5666350126 0.8181571364
0.085305214 -0.054648187 1.2343334 -0.006756320596 0.8341411352 0.5515096784
0.10412906 -0.40888506 1.404 0.1263694316 -0.3140551448 0.9409570098
0.24001379 -0.19078019 1.404 0.00339955464 0.7369316816 0.675958693
0.30383009 -0.078398764 1.2729999 0.06562816352 0.7703266144 0.6342632174
0.24443074 0.07469587 1.0860454 0.08302421868 0.584833622 0.8068932295
0.34417427 -0.35556421 1.3440003 0.6629521847 -0.2000063807 0.7214512229
0.45163131 -0.21713349 1.286 0.5752113461 -0.3058928847 0.7586576343
0.15452583 0.016048612 1.1446002 0.03076060489 0.7599232793 0.6492845416
0.097858168 -0.33718714 1.439 0.2618436217 -0.4348867536 0.8615749478
-0.049643878 -0.21257764 1.452 0.4553051889 0.8103669882 0.3687851727
0.23518655 -0.41461131 1.3828754 0.3726232052 -0.2815302014 0.8842469454
0.41802534 -0.43548855 1.245 0.748694241 -0.1641478539 0.6422712803
0.24478726 -0.048957448 1.2410001 -0.0008855606429 0.8176134229 0.5757668614
0.024136078 -0.034314077 1.2031764 -0.000763142074 0.8080989718 0.5890462399
-0.055793822 -0.11143386 1.2765714 -0.09469121695 0.7514015436 0.653015554
0.42291105 -0.33517945 1.2830001 0.682982862 -0.2122312784 0.6989222169
0.088472463 0.051965434 1.1255 0.163797915 0.3880065084 0.9069846869
0.014467921 -0.21369338 1.4144444 -0.08672624081 0.7933821082 0.6025142074
-0.092431642 -0.19540256 1.3346667 -0.755595386 0.210705325 0.6202248335
0.33436242 -0.42486167 1.3343159 0.5966106057 -0.1875651628 0.7803044915
0.21445018 -0.49561819 1.3589998 0.2451362163 -0.5291817784 0.8123268485
0.41017744 -0.11802826 1.3330001 0.2069782019 0.6603857875 0.7218384147
0.046057727 -0.31467736 1.4731113 0.5650845766 -0.2815404236 0.775509119
0.10542417 -0.1427049 1.3468573 -0.04391615838 0.7431752682 0.6676539779
-0.1150625 -0.088762499 1.25 0.01231513638 0.7235303521 0.6901827455
0.047538124 -0.43910217 1.427 0.6613531113 -0.183623448 0.7272512913
0.37455145 -0.23813334 1.365 0.7332136631 -0.3119169772 0.6042396426
0.23455307 -0.13702235 1.3445002 0.01657563075 0.7473778725 0.6641924381
-0.074814096 -0.017640229 1.1930001 0.173475042 0.4190741777 0.8912256956
0.12808958 -0.49226111 1.381 -0.1028918326 -0.4085593522 0.9069137573
0.34598613 -0.1216147 1.317 0.1699174494 0.7247412801 0.6677410603
0.074927382 -0.21355028 1.4245001 0.007826274261 0.7530828118 0.6578791738
0.035249673 0.025178183 1.1488401 0.2006560415 0.4444231093 0.8730551004
0.21594718 -0.013527093 1.1867144 -0.06086521223 0.7887811065 0.6116533279
-0.1911142 0.21581605 1.483 0.3535384834 -0.5516356826 0.7554525733
0.33579949 -0.30448511 1.373818 0.6068304181 -0.300311327 0.7359143496
-0.1563009 0.12032688 1.4150001 0.2858491242 -0.3578666747 0.888944149
0.47653332 -0.44591522 1.2041999 0.3343960643 -0.1120234057 0.9357510209
0.28566384 0.041166011 1.1142857 -0.4258123338 0.6376871467 0.6419026256
0.035836965 -0.13828394 1.3330001 -0.1354816258 0.7748554945 0.6174493432
-0.13600168 0.026017712 1.3490001 0.1254253387 -0.2913964987 0.9483441114
0.12443438 -0.18403593 1.3952727 -0.2059134394 0.7344400883 0.6466819048
-0.014439453 -0.18582627 1.3725717 -0.1833645254 0.740450561 0.6466146111
0.28430301 -0.30408061 1.41 0.4510801733 -0.3154635131 0.8348709345
0.17527854 -0.078150891 1.2734998 -0.01908813789 0.7900054455 0.6128026247
0.4043451 -0.49526903 1.2538574 0.7032734752 -0.1653944999 0.6914123893
0.29465339 0.0036676447 1.1549999 0.09345189482 0.8236123323 0.5594009757
0.4684591 -0.33590361 1.2360001 0.1922965646 -0.32609272 0.9255731106
0.41262195 -0.2349066 1.3237144 0.719966948 -0.2056746334 0.6628314257
0.16862507 -0.39756131 1.404 0.1739505082 -0.4056888223 0.8973058462
0.18534856 -0.11870204 1.326 -0.01119697746 0.7823694944 0.6227139235
0.34487805 -0.058748938 1.2410001 0.05611010268 0.7681435943 0.637814343
0.12469414 -0.028100088 1.202 -0.1127908006 0.7901723981 0.6024166346
0.17557223 -0.19555458 1.4117857 0.1289493889 0.6832015514 0.7187542915
0.29078594 -0.41164759 1.365 0.435926348 -0.2699286044 0.8585492373
0.22348687 -0.3661328 1.41 0.4014245868 -0.2012276947 0.8935131431
0.43767148 -0.38528186 1.2450001 0.7094393373 -0.147966668 0.6890585423
0.30720145 0.13331577 1.1667778 0.4444788396 -0.3870565891 0.8078525662
0.31371978 -0.49433818 1.3220003 0.5715814829 -0.241192475 0.7842963934
0.3658551 -0.44479787 1.2970003 0.5295857787 -0.2320699841 0.8158936501
0.27537021 0.21469994 1.2255882 0.6279438138 -0.3577029109 0.6911839247
0.27398112 0.30475441 1.2751429 0.3613061607 -0.4481686056 0.8176813126
0.27541623 -0.10736581 1.3145002 0.1409609318 0.7787448168 0.6112990379
0.34585387 -0.027239708 1.1744547 0.2948430181 0.8638884425 0.4083679616
0.42682174 -0.27582976 1.287091 0.6643773913 -0.2677007616 0.6978101134
0.015545771 -0.066642679 1.2424546 -0.1168588623 0.7584457397 0.6411739588
0.20171632 0.048891116 1.108 0.01241270546 0.7079347372 0.7061687708
0.084983774 -0.086103432 1.2754999 -0.03936681151 0.7998976707 0.5988438725
0.38251668 -0.34485987 1.3124547 0.5642914176 -0.1475748867 0.8122788072
-0.0012729199 -0.24312772 1.452 -0.2025798112 0.7576542497 0.6204203367
0.26427642 0.39001146 1.3280001 0.2157417834 -0.4401207268 0.8716359735
-0.085773066 -0.058968984 1.223 0.09845291823 0.6437398195 0.7588847876
-0.074572839 -0.14421411 1.3145001 -0.2697526515 0.7207657695 0.6385375857
-0.025100721 -0.02823831 1.1930001 -0.04148654267 0.6740717292 0.7374999523
0.2829012 -0.17119984 1.3850001 0.07589726895 0.7250961065 0.6844524741
0.074841037 -0.11628866 1.3133334 -0.1049877703 0.7907096744 0.6031216979
0.096377671 -0.45656839 1.3975 0.1617197096 -0.3202648759 0.9334222674
0.13417967 -0.058386292 1.2410001 -0.06771205366 0.8046928048 0.5898174644
-0.00285355 -0.11927839 1.302 -0.2483028173 0.7351770401 0.6307618022
0.14923935 -0.31888485 1.455 0.02570814826 -0.2817684412 0.9591379762
0.12404834 -0.36842355 1.4150001 -0.1111424118 -0.3019777238 0.9468140602
0.2381728 -0.31756374 1.4150001 0.3665062785 -0.4386744797 0.820510745
0.16380981 -0.008730975 1.1815716 -0.01106952131 0.8044729829 0.593886137
-0.055111021 -0.17788145 1.3540001 -0.3564482629 0.6022219062 0.7143342495
0.081657119 -0.38064778 1.4330001 0.3333631754 -0.3900443316 0.8583323359
0.19500017 -0.30428135 1.4449998 0.2493039519 -0.4823234975 0.8397687674
-0.014927881 -0.095006883 1.2666665 -0.2505880296 0.7292154431 0.6367499232
0.23887371 -0.4563024 1.3590001 0.3784092665 -0.3037856221 0.8743687272
0.25485927 -0.024446975 1.2048572 0.03567181528 0.8098334074 0.5855743885
0.16872765 -0.49900305 1.365 0.192139253 -0.5192273855 0.8327577114
0.43797389 0.18492231 1.5860001 0.8747985959 0.2921079695 -0.386523366
0.33104393 0.046068832 1.1339999 0.2745480239 0.03375754505 0.9609806538
0.19576053 0.0091287298 1.1570001 0.01131161395 0.8044936061 0.5938535929
-0.031802546 -0.21269979 1.4133334 0.2123868167 0.8552402854 0.4727111757
0.31352231 -0.37574807 1.3649999 0.487182498 -0.2390526831 0.8399446607
0.25518101 -0.0010248233 1.169 0.0652365908 0.8313417435 0.5519194007
0.26216891 -0.081787743 1.2780001 0.09946542233 0.7886666656 0.6067219377
0.14501771 -0.12603125 1.3352224 -0.006165803876 0.8137007952 0.5812512636
0.43655106 -0.18447433 1.307 0.5803861022 -0.432269901 0.6901410818
0.044083495 -0.0079570254 1.1744547 0.05412136391 0.6646658778 0.7451779246
0.20272917 -0.058079164 1.25 -0.01346305758 0.8053289056 0.5926753283
0.22437055 -0.1616433 1.3760002 0.0469856523 0.7562351227 0.6526107788
0.29472834 -0.050927319 1.2360001 0.09295535833 0.8229729533 0.5604237914
0.13626221 -0.43664071 1.3979999 -0.03802348301 -0.5130015612 0.8575450778
0.27813971 -0.26729771 1.427 0.3648274541 -0.3546307683 0.8608936667
0.25527665 -0.49518844 1.3476156 0.2478979826 -0.3613136113 0.8988876939
0.030164346 -0.27934808 1.4960001 0.3208840787 0.2530174255 0.912696898
0.064819366 -0.033875763 1.2033334 -0.02323359624 0.8108323812 0.5848171115
0.12502845 -0.0020496468 1.169 -0.05394929647 0.7848077416 0.6173866391
0.12566882 0.036827423 1.1260002 0.1262905449 0.5489344001 0.8262697458
0.36126295 -0.31411582 1.3445001 0.6996129751 -0.2941852808 0.6511502862
0.014063778 -0.16361655 1.3556668 -0.2124768198 0.7258979082 0.6541603804
-0.095311634 -0.11303633 1.2747858 0.0006118571036 0.7539205551 0.6569653153
0.45439041 -0.41486016 1.224818 0.5032295585 -0.2243357003 0.8345259428
0.41180277 -0.37497488 1.273 0.7107120156 -0.2138424963 0.670193851
0.37397459 -0.08139237 1.2270001 0.6178513169 0.7469735742 0.245540753
0.34434697 -0.086923733 1.2729999 0.1206527203 0.7848257422 0.6078580618
-0.075977772 -0.088397212 1.25 -0.01082081627 0.7396997809 0.6728500128
0.35792759 -0.27589187 1.3590001 0.6820170283 -0.2860428691 0.6730766892
0.44440433 -0.4557682 1.2239411 0.5366849303 -0.151256755 0.8301148415
0.39216122 -0.46358499 1.273 0.6968175173 -0.2344926 0.6778337359
-0.14039466 -0.1084349 1.302 0.6730291247 0.4529227614 0.5847159624
0.3111439 -0.33293608 1.381 0.5221661925 -0.3064788282 0.7958726287
0.20678727 0.080999613 1.087 0.08672540635 0.5003139973 0.8614897728
0.063756458 -0.34374699 1.4545715 0.345506072 -0.6282655597 0.6970709562
0.3544392 -0.39495587 1.322286 0.5888411403 -0.2227870226 0.776937604
0.29709563 0.19170858 1.1863333 0.7093461156 -0.2316075861 0.6657221913
0.085629188 -0.18594334 1.3953751 -0.05437305942 0.713523984 0.6985177994
0.05507702 -0.0727024 1.2565001 -0.05789896101 0.7863568664 0.6150532961
-0.18389533 0.13579166 1.4356668 0.4512807131 -0.4297435284 0.7820909619
0.43386725 -0.15380019 1.3345386 0.4960712194 0.1679543555 0.8518829942
0.0051767165 -0.00931809 1.1810001 0.04498039931 0.629419148 0.7757630348
0.13451575 -0.15813607 1.37 -0.1477143019 0.7379665375 0.6584724188
0.023898518 -0.19157505 1.386 -0.1267897636 0.7624548078 0.6344974637
0.3323299 -0.46213263 1.322 0.5905739665 -0.2824939787 0.7559229732
0.4555454 -0.25556743 1.275647 0.5233888626 -0.2877092659 0.802052021
0.046255857 -0.23169981 1.439 -0.06156636775 0.7648119926 0.641305089
0.2587499 -0.38722014 1.376 0.3171626031 -0.3244752884 0.8911361694
-0.1825916 0.09666355 1.4246 0.4043415189 -0.2800403237 0.8706809878
0.21485235 -0.033244707 1.2175714 -0.03412798047 0.8041394949 0.5934601426
0.20627616 -0.45778835 1.3760002 0.2139913887 -0.2996875346 0.929728508
0.3149915 -0.10658031 1.3052143 0.07755676657 0.7754477262 0.6266305447
-0.10387865 -0.17256658 1.3057501 0.1269802898 0.6116926074 0.7808380723
-0.14171667 -0.06491366 1.2340001 0.09768979996 0.6062268019 0.7892691493
0.16436447 -0.099303536 1.302 0.001004365156 0.7675595284 0.6409769058
0.13427904 -0.35089898 1.4450001 -0.1720668375 -0.5290098786 0.8309882879
0.24482875 0.0427799 1.1131053 0.07115121931 0.7458142042 0.6623433232
0.074350983 0.023529952 1.1422502 0.1283437163 0.5491392016 0.8258171678
0.4483324 -0.31721008 1.2590001 0.5696856976 -0.3149237335 0.7591319084
0.20581575 -0.3947185 1.3980001 0.2717791498 -0.2633778155 0.9256177545
0.39997566 -0.42462403 1.2780001 0.7427499294 -0.1095696241 0.6605429649
0.34565148 -0.03767319 1.2123333 0.27223441 0.8544247746 0.4425457418
