# .PCD v0.7 - Point Cloud Data file format
VERSION 0.7
FIELDS x y z normal_x normal_y normal_z
SIZE 4 4 4 4 4 4
TYPE F F F F F F
COUNT 1 1 1 1 1 1
WIDTH 206
HEIGHT 1
VIEWPOINT 0 0 0 1 0 0 0
POINTS 206
DATA ascii
0.20507872 0.31490299 1.2661176 0.2916325033 -0.4758892953 0.8297468424
-0.49275827 -0.48446497 2.365 0.5882287621 0.7085139751 0.3898651898
0.066024393 -0.4970516 1.4210001 0.6707676053 -0.1573386788 0.7247864008
-0.25091165 -0.0015981633 1.8230001 0.2971327305 0.7559552193 0.5833042264
0.45826524 0.017030127 1.766 -0.8135259151 0.404455781 0.4178410172
0.050780915 -0.4935905 2.3170002 0.499468863 0.8003123403 0.3317092359
-0.16349921 -0.05653711 1.245 0.2063106149 0.5415700078 0.8149465322
0.41207576 -0.15618098 1.2780001 0.477622807 -0.09631871432 0.8732692003
-0.19625294 0.22371948 1.5160002 0.8037293553 0.01993016154 0.5946611762
0.38216531 -0.49557087 1.21 0.7550681829 -0.09839174151 0.6482214928
0.15463524 0.0089788204 1.138 0.0955940783 0.822520256 0.5606444478
0.41378841 0.12362789 1.4568001 -0.489554882 0.7041307688 -0.5143304467
0.10391568 -0.18532452 1.3836668 -0.03845312446 0.7068011761 0.7063664198
-0.2023259 -0.3487713 2.1980002 0.5882287621 0.7085139751 0.3898651898
-0.026185157 0.047749404 1.7570001 0.8117113709 0.5094980597 0.2855457366
0.28121275 -0.34463519 1.365 0.6273272038 -0.3017545938 0.7179169059
-0.12133242 -0.23408578 1.3980001 0.09010709077 0.7170248032 0.6911990643
-0.19165094 0.025216658 1.4382501 0.6058529019 -0.2969501317 0.7380805612
-0.22869165 0.18683958 1.705 0.9873386621 0.05563155934 0.1485513002
-0.30397803 -0.12193469 1.9590001 0.09034618735 0.7816900611 0.6170885563
0.44320679 -0.31589276 1.1825999 0.6784868836 -0.2920210063 0.6740766168
0.026169227 -0.076132663 1.2525001 -0.01578520983 0.8377011418 0.5459007621
0.23521206 -0.096927032 1.2753075 -0.003585560014 0.7835057974 0.6213741899
0.38426453 0.016320778 1.3162858 -0.4097221196 0.743136704 -0.5290327072
0.23248076 0.16458994 1.1734002 0.1822344512 -0.4027132094 0.8970020413
0.036721811 -0.30361071 1.4960001 0.25934273 -0.122935161 0.957929194
-0.1002179 -0.41927898 2.3330002 0.4943244457 0.8035477996 0.3315934837
0.32271063 -0.033616133 1.1482002 -0.0844008401 0.6924689412 0.7164937258
0.21645992 -0.49562916 1.3380001 0.4342406988 -0.4141426384 0.7999505401
0.0052826032 0.034821387 1.1463916 0.2851872742 0.3365061283 0.8974585533
0.14429601 -0.37569597 1.4216667 0.1603396088 -0.3839981854 0.9093055725
0.42032659 0.19569303 1.572 -0.5305424333 0.797493875 -0.2872773409
-0.074822515 -0.13826805 1.3131112 -0.06763834506 0.7388131618 0.6705073714
0.18171635 0.41654289 1.3460001 0.5030955672 -0.3897062838 0.7713779211
0.23451169 -0.18410538 1.3738574 0.06407152116 0.7357208729 0.6742475033
0.36442575 -0.28506786 1.2848185 0.7527473569 -0.2083207965 0.6244788766
0.45265719 0.1025437 1.6710001 -0.7309638262 0.489045471 0.4759479165
0.45150042 -0.42291319 1.1245 0.956827879 -0.2635964155 0.1224634349
0.32243434 -0.43420678 1.2938181 0.6620461345 -0.2094057351 0.7196139097
-0.0045484384 -0.22287349 1.4150001 -0.09320412576 0.7423354387 0.6635141969
0.25485137 0.047123462 1.097 0.297349304 0.02986087278 0.9543017149
0.12507403 -0.11029255 1.2970001 -0.05278543383 0.7939564586 0.6056787968
-0.064227015 -0.032973625 1.2034999 0.1511366814 0.5998999476 0.7856702805
-0.20363563 0.12139817 1.4890001 0.2245153487 -0.5275788903 0.8193005323
0.334719 -0.087219469 1.2418889 0.08560016006 0.724316597 0.6841330528
0.025709128 -0.139063 1.3330001 -0.03163808584 0.7635843754 0.6449325085
0.049643878 -0.39587811 1.452 0.4404317737 -0.195073247 0.8763368726
0.38819104 -0.39458984 1.2165 0.8224076033 -0.1129535735 0.5575726032
0.1554637 -0.048247349 1.223 0.009923699312 0.7844340801 0.6201328635
0.21504061 -0.29524216 1.4220003 0.4822395742 -0.4244578481 0.7663422823
0.31106764 -0.25101596 1.3700001 0.7689417005 -0.1845968515 0.6120887995
0.15995397 0.074832261 1.067 0.1656806469 0.5215175152 0.8370002508
0.31134903 -0.14278181 1.317 0.1862269938 0.7505142093 0.6340724826
-0.15802443 -0.039807681 1.376 0.6210550666 -0.3981046081 0.6751320958
0.074889831 -0.019326409 1.1810001 -0.01336935814 0.7511278987 0.6600213051
0.42735615 -0.23547333 1.2253156 0.6165671945 -0.1254615486 0.7772414684
0.23508614 -0.024152463 1.1750002 0.108598195 0.787584424 0.60656178
-0.16148025 -0.15444237 1.3380002 0.3068266213 0.6005604267 0.738366127
0.14557756 -0.46515664 1.3845298 0.3589268029 -0.2974861562 0.8846883774
0.21572544 -0.40591773 1.3760003 0.3967972398 -0.24104096 0.8856924772
0.22167218 0.24775125 1.2060001 0.7193104625 -0.2360569537 0.6533525586
0.38474268 0.065635338 1.3967999 -0.4044506848 0.7279857993 -0.5535849929
0.08454603 0.054897159 1.1029258 0.2099550515 0.5078676343 0.8354575634
-0.22498247 0.2082136 1.5940001 0.9287732244 -0.09565404803 0.3580929935
0.072644405 -0.24229459 1.4370002 0.07706994563 0.5774767995 0.8127611876
0.33535686 -0.35517314 1.3039047 0.7681804895 -0.1791823357 0.6146482229
0.17305401 -0.2163175 1.4100001 0.1418150514 0.6323363185 0.7616030574
0.16539833 -0.15222052 1.3490001 0.06503082812 0.733009398 0.6771028042
-0.08547993 -0.085485309 1.2561251 0.007621453609 0.729737699 0.6836847067
-0.064924181 -0.18756767 1.3715 -0.05997394398 0.7711562514 0.6338148117
0.37458107 -0.024184676 1.2542499 -0.1740687042 0.8802076578 -0.4415139258
0.22417471 0.095961168 1.1426001 0.4721386731 -0.4037764072 0.783613205
0.28484023 -0.49507844 1.3025556 0.5425400138 -0.3222299516 0.7757694125
0.39408472 -0.32527778 1.2331766 0.8191387057 -0.186195448 0.5425339341
0.048008896 -0.46339023 2.381 0.0005888318992 0.8941851258 0.447696954
0.0057642292 -0.031963404 1.1953335 0.03620496392 0.7407357097 0.6708202362
0.26629561 -0.43541232 1.3370907 0.4858755469 -0.2634331584 0.833383441
0.43201169 0.17571469 1.507 -0.472527951 0.7954978943 -0.3793420792
-0.14544469 -0.11562696 1.2836252 -0.04953890666 0.6550104618 0.7539941669
0.26571897 -0.063024849 1.2248462 0.1351094842 0.8264114857 0.5466163754
0.33553186 -0.49557176 1.2590002 0.6457716227 -0.1872578114 0.7402117848
0.094475284 -0.43444246 1.4147062 0.4723415971 -0.1664354652 0.8655591607
0.38630095 -0.21830453 1.2751428 0.766749084 -0.2019988745 0.6093375683
0.094714187 -0.067496665 1.2418001 -0.07934097946 0.7738887668 0.6283320785
-0.02453308 -0.10526678 1.2849448 -0.1238967702 0.7428991199 0.6578377485
0.41523039 -0.44479194 1.1753079 0.7363604903 -0.1103757173 0.6675256491
0.22392547 -0.13761087 1.3254286 0.08652818203 0.7468288541 0.6593629718
0.3835443 -0.097854413 1.2830001 -0.4569282234 0.2899796069 0.8409093022
0.20431417 0.36867866 1.302 0.5798526406 -0.4756928384 0.6614282131
-0.038593497 -0.40827855 2.3170002 0.4961902797 0.8025345802 0.3312604129
0.035166826 -0.18674994 1.38325 -0.124271892 0.7319297791 0.6699517369
0.074095644 -0.33471027 1.45725 0.4661319852 -0.3356550336 0.8185698986
0.26703441 -0.00886836 1.1240001 0.4135918915 0.7441439629 0.5245870352
0.44429266 -0.3750076 1.1648465 0.4772637486 -0.1921770871 0.8574889302
-0.06223632 -0.25016561 1.3920001 -0.5263471007 0.1562636644 0.8357872963
0.3480792 -0.23669474 1.3235002 0.8041319847 -0.2008841634 0.5594795346
0.32366106 -0.30467781 1.3358947 0.7251369953 -0.2669047713 0.6347740889
0.17533238 -0.085094362 1.2665453 0.0562126562 0.7681058645 0.6378507018
0.01150362 -0.26202691 1.4580001 -0.114436619 0.7385197878 0.6644492149
0.27201563 -0.28186235 1.404 0.4817152619 -0.5223280191 0.7036503553
0.065110989 -0.10638685 1.2947272 0.02257968485 0.8050805926 0.5927355289
0.36608243 -0.44591853 1.2446667 0.7731871009 -0.1338050365 0.6199015379
0.20431942 -0.35448194 1.4039999 0.3670539558 -0.223274529 0.9030060172
0.096966349 -0.14271258 1.3380002 0.04480288178 0.7554669976 0.6536530852
0.19547318 0.036929771 1.095 -0.01372233778 0.7318313718 0.6813476086
-0.12417545 -0.20222859 1.3490001 -0.4982985258 0.3155592084 0.8075400591
-0.16197118 -0.38053471 2.2260001 0.4908538759 0.8051898479 0.3327638805
-0.12339638 -0.027566003 1.2145555 0.2278911322 0.4497731924 0.8635795712
-0.04474692 0.012244401 1.1747779 0.3020994961 0.4245614707 0.8535124063
-0.17824669 0.083901212 1.4544001 0.5968765616 -0.4831980765 0.6405138969
0.29456642 -0.10644995 1.2762142 0.1701066494 0.7721616626 0.6122336984
0.16495004 -0.32629248 1.4377998 0.4513387382 -0.3841580153 0.8054290414
0.35587808 -0.39531678 1.2658461 0.709056735 -0.2417339385 0.6624222994
-0.025111055 -0.06474635 1.2341055 -0.04777515307 0.7703369856 0.6358446479
0.064830907 0.016955553 1.1377335 0.1333874017 0.6880431175 0.7133053541
0.09770976 -0.49819914 1.376 0.4866269827 -0.3536644578 0.7988213897
0.13499396 -0.017805537 1.1830001 0.05963315442 0.7906427383 0.6093668342
-0.024135949 -0.15806103 1.3430002 -0.1953405589 0.6842796803 0.7025691271
-0.2036124 0.16355751 1.5230001 0.6571894884 -0.2882328928 0.6964364648
0.29682881 -0.38521302 1.3265001 0.6528027654 -0.2143569738 0.72656703
0.21565285 0.0074237483 1.1352308 0.03876712918 0.8077286482 0.5882784128
0.31191099 -0.049526405 1.202 0.2172492892 0.8845170736 0.4128344953
0.20629019 -0.059402931 1.2320001 0.09338054061 0.8078741431 0.581910193
0.12259833 -0.23143561 1.427 -0.02596885338 0.7050435543 0.7086883783
0.19411913 -0.45417359 1.3708001 0.4176606238 -0.413814187 0.8088988662
0.1343495 0.042899009 1.1025383 0.1832677722 0.7148131132 0.6748741269
0.39610443 -0.2756047 1.2447144 0.7854578495 -0.2199442536 0.5785157084
0.17367819 -0.11846922 1.312 0.01010998618 0.7952955365 0.6061375737
0.18487681 -0.017058473 1.1752224 0.08566890657 0.8142389655 0.5741739273
0.095597327 -0.37485465 1.4348754 0.4204366207 -0.3645844758 0.8308497071
0.39617881 0.054400671 1.3490001 -0.397685945 0.8012926579 -0.4469630122
0.27478394 -0.16275032 1.3452501 0.09137431532 0.7643238306 0.6383258104
0.24373117 -0.32316291 1.3920001 0.503349781 -0.3708052039 0.7804758549
0.16454518 -0.41450039 1.3976473 0.3632387221 -0.2766629755 0.8896713853
0.20828022 0.19982214 1.2060001 0.4349017441 -0.4500819445 0.7799273729
0.054579917 -0.051956117 1.217077 0.009298819117 0.7995413542 0.6005390882
0.25396752 -0.38415533 1.3566667 0.4218115211 -0.3111208975 0.8516330123
-0.18462162 -0.086153828 1.2763335 0.1949534863 0.5896649957 0.7837654948
-0.015681813 -0.19180064 1.376 -0.1770404428 0.7091109157 0.6825088859
-0.16828617 -0.0054741567 1.41 0.653758049 -0.2794158757 0.7032262683
0.36637655 -0.34416103 1.2671999 0.7208845615 -0.09200982749 0.6869204044
0.28182641 -0.019471643 1.169 0.3168202341 0.8345537186 0.4507161677
-0.11335388 -0.15717626 1.3330001 -0.2516020834 0.6182413697 0.7446300983
0.41508296 -0.35534018 1.1956669 0.7179299593 -0.211988017 0.663051784
0.20691779 0.27484587 1.2429999 0.4677996337 -0.4864704609 0.7379091978
0.15550616 -0.18349503 1.3833078 0.07132105529 0.7498111129 0.6577967405
0.1748722 -0.49524322 1.357 0.3034965992 -0.4646626413 0.8318524361
0.43525454 -0.27496645 1.2037777 0.5744969249 -0.3169923127 0.7546318173
0.1047902 0.0028774221 1.1536154 -0.05588415265 0.8120350242 0.5809268951
0.26454332 -0.12463434 1.3042728 0.1342287958 0.7484080195 0.6495137215
0.40362084 0.098413721 1.4210001 -0.3519206643 0.7853690386 -0.5092614889
-0.21157034 0.23340988 1.557 0.902308166 0.01110925339 0.4309484661
0.025347222 -0.0056690844 1.1650001 0.1319404989 0.7120919228 0.6895772815
-0.042712953 -0.23743376 1.4330001 -0.1273972392 0.6955005527 0.7071413994
0.063143671 -0.16083765 1.3590001 -0.02226239629 0.7140306234 0.699760437
0.1081982 -0.039248366 1.21 -0.07926938683 0.7778168917 0.6234719157
0.038395371 0.050209329 1.123 0.3946068287 0.3970843852 0.8286190033
0.074207641 -0.20820029 1.4108334 0.03677426651 0.7470241189 0.6637790203
0.13506627 -0.074631192 1.254737 -0.03787293658 0.7879008651 0.6146364212
0.056058448 -0.45220482 1.4210001 0.2542126179 -0.1935103089 0.9475915432
0.3922185 -0.45427334 1.21 0.7999131083 -0.1130488142 0.5893716812
0.29209366 -0.30434343 1.3721818 0.706461966 -0.329199791 0.6265292764
0.051548 -0.2680496 1.47 0.3537130952 0.7360424399 0.5771728754
0.34037897 -0.11494765 1.273 -0.04721038043 0.8101824522 0.5842735171
-0.12333385 -0.07094425 1.245 0.114525117 0.6544836164 0.7473521233
0.25775683 -0.47546473 1.3280001 0.4666260183 -0.3263965249 0.8220252395
0.37781003 -0.13468756 1.302 0.3158172369 0.1063884348 0.9428366423
0.014781475 -0.11094229 1.2970001 -0.04752668366 0.7587675452 0.6496253014
0.42189583 -0.20272917 1.25 0.7333391905 -0.3560275435 0.5791873932
-0.094664216 -0.1149538 1.2855003 -0.0257993266 0.7208198905 0.6926421523
0.2282463 -0.445849 1.3490001 0.5478654504 -0.3096256554 0.7771585584
0.3447693 -0.062741801 1.1810001 0.3534594774 0.9038319588 0.2411517203
0.36471438 -0.01019388 1.2920001 -0.270817101 0.8145188689 -0.5130469203
0.42138472 -0.40481925 1.1810001 0.7084441185 -0.1663561463 0.6858808398
-0.08805941 -0.22316426 1.376 -0.2467032671 0.5062192678 0.8263652325
0.29354852 -0.45463175 1.3139234 0.6231054068 -0.2530400455 0.7400745749
-0.046572041 -0.21202534 1.3980001 -0.1668150425 0.6872522235 0.7070057988
0.41103131 -0.48454067 1.1810001 0.7453696132 0.06126863882 0.6638300419
0.034690578 -0.22336784 1.4234002 -0.1018806174 0.7791163325 0.6185451746
0.19539557 -0.17573924 1.373 0.09357917309 0.7651327848 0.6370359063
0.40727127 0.15011601 1.4890001 -0.5473183393 0.647598505 -0.5301497579
0.35389543 -0.044102471 1.2270001 -0.6580740213 0.1947022676 0.7273442149
0.23736832 0.13304128 1.1467779 0.5461549759 -0.5121038556 0.6629210711
0.1270909 -0.33749577 1.4354001 0.1605054885 -0.5276926756 0.834133327
0.12483408 -0.41547158 1.398 0.05184897408 -0.3713954091 0.9270259738
0.3282246 -0.39530972 1.2970001 0.7040932178 -0.1975463927 0.682076335
0.31432024 -0.47513068 1.2851056 0.6864666343 -0.2319383621 0.6891793013
0.44220033 -0.45518318 1.149 0.5830482244 -0.3029788136 0.7538293004
0.22666094 0.052761562 1.1234287 0.3130015135 -0.2791234255 0.9078106284
-0.094975561 -0.052491628 1.2257693 0.119560957 0.6513829827 0.7492699027
0.2948128 -0.083314016 1.245 0.122337386 0.7842066288 0.6083202958
-0.21237338 0.19749372 1.5430001 0.7597366571 -0.1561911851 0.6311929822
0.34226298 -0.31338513 1.3033637 0.7844252586 -0.2277423292 0.5768972635
-0.034840837 -0.13313656 1.316 -0.1269646883 0.7405918241 0.6598513126
0.30434936 -0.34483412 1.3347499 0.6914752722 -0.2281369716 0.6854308248
0.10510348 -0.46563864 1.3941002 0.3745107949 -0.4021074772 0.8354946375
0.13423134 -0.13190292 1.3268001 0.0008806167752 0.7743479013 0.6327594519
0.34189123 -0.27467194 1.322 0.7657865882 -0.2564800084 0.5897363424
0.095334627 -0.094830543 1.2752728 -2.21074315e-05 0.7942109108 0.6076422334
0.23442943 -0.047734499 1.21 0.06111719087 0.8361353874 0.5451076627
0.105637 0.025772018 1.1239474 0.05927654356 0.7435007095 0.6661028266
0.12613656 0.07399226 1.0833635 0.2779396772 0.451996237 0.8476136923
0.072468482 -0.30462939 1.4850001 0.2302810401 -0.354182452 0.906380415
0.18713501 -0.041233141 1.2060001 0.135648787 0.818323195 0.5585218072
0.1269218 -0.15457778 1.3553637 -0.05700267106 0.7823768854 0.6201912165
0.37764171 -0.37436736 1.245 0.8620816469 -0.1467069834 0.4850693643
