# .PCD v0.7 - Point Cloud Data file format
VERSION 0.7
FIELDS x y z normal_x normal_y normal_z
SIZE 4 4 4 4 4 4
TYPE F F F F F F
COUNT 1 1 1 1 1 1
WIDTH 206
HEIGHT 1
VIEWPOINT 0 0 0 1 0 0 0
POINTS 206
DATA ascii
0.24582346 -0.44756544 1.3590001 0.2189089656 -0.3052628934 0.9267650247
-0.49470037 -0.49470037 2.3810003 0.2732672691 0.9531353712 0.129838407
0.44983783 -0.41554525 2.3010001 0.2751862407 0.9573304057 0.08826670796
0.2548812 0.43600881 1.3460002 0.05948504433 -0.4216575623 0.9048018456
-0.22191414 0.095106058 1.7220001 0.9919196367 0.008094256744 0.1266092956
-0.066261798 -0.0043773716 1.1883998 0.2173876017 0.4144802988 0.883713007
0.49277782 0.13466302 1.6880001 -0.8670542836 -0.3162401021 0.3849793375
-0.25943285 -0.20530656 2.1290002 0.3078805506 0.9367955327 0.1662036628
0.3757621 -0.048906311 1.2040001 0.3514280915 0.8233917356 0.4455606639
0.075968251 -0.36602888 2.3170002 0.2740077078 0.9522302747 0.1348232776
-0.01140105 -0.22928779 1.4450001 -0.1685815156 0.7764458656 0.6072166562
-0.18139549 0.14136338 1.427 0.4695982933 -0.3739143014 0.7997909188
0.46211991 -0.31630221 1.245 0.5143153071 -0.2697273791 0.8140804172
0.28564894 0.20443566 1.2126501 0.3538752496 -0.4574779272 0.8157734275
0.24739884 -0.1784718 1.404 -0.04336120933 0.734380722 0.6773512363
-0.24203013 -0.073443621 1.904 0.9920201302 0.03165145591 0.1220420823
0.15762818 0.028931754 1.138 0.05610927939 0.7633265257 0.6435715556
0.037471581 -0.44715106 1.4247501 0.4441847801 -0.2580606341 0.8579654098
0.084628724 -0.097209923 1.3045001 -0.008286562748 0.7850463986 0.6193814874
-0.13196003 -0.1451017 1.3032501 0.2894587219 0.4766201675 0.8300884962
0.39837924 -0.49660975 1.245 0.6956891418 -0.1609501392 0.7000797987
0.42173612 -0.16526614 1.3338333 0.6878778338 0.06673662364 0.7227518559
0.14383996 -0.31313831 1.452 0.06461577117 -0.155305922 0.9857509136
0.42625463 0.13538276 1.5290002 -0.96431005 -0.1479272544 0.2195987552
-0.19572459 0.28565967 1.5055715 0.6881505251 -0.2836548984 0.6678239107
0.33875188 -0.30777574 1.3590001 0.6913729906 -0.3512207866 0.6313852668
-0.14540832 0.0035610201 1.3540001 0.3033818603 -0.4251920283 0.8527433276
0.2354753 -0.067629404 1.273 -0.04175429046 0.7893084288 0.6125754714
0.31106296 0.074151784 1.1344445 0.6208264828 -0.1964302659 0.7589398026
0.25809866 0.31325561 1.286889 0.5463813543 -0.3914953172 0.7404044867
0.11511017 -0.18813869 1.411875 -0.1186340451 0.7535163164 0.6466367245
0.058764718 -0.02203677 1.197 0.002469076309 0.7768504024 0.6296803951
-0.015374104 -0.15113926 1.3490001 -0.2593954504 0.7399879694 0.6205899119
0.13490593 -0.49500793 1.3753333 -0.02887654491 -0.5128594637 0.8579868078
0.35241178 -0.41340017 1.3126252 0.7010834813 -0.224472627 0.6768264174
0.032217499 -0.33377331 1.47 0.6488958597 -0.3610392511 0.6697647572
0.2389881 -0.33948565 1.3980001 0.3112991154 -0.3451837003 0.8854044676
0.3151415 -0.1229775 1.3265001 0.1939835995 0.7169194221 0.6696244478
-0.044791527 -0.084734648 1.2654999 -0.07452440262 0.7824052572 0.6182945371
0.46873555 -0.41739678 1.2033334 0.3549917638 -0.2651507258 0.8964797258
-0.15078929 -0.056751017 1.233 -0.07412332296 0.5820891261 0.8097394109
0.25514895 -0.0067068888 1.1863332 0.08611119539 0.8307338357 0.5499692559
0.45278868 0.1988885 1.6090001 -0.5121728182 -0.6700963974 0.5372614264
-0.25529146 -0.14414416 1.9810001 0.4768647552 0.8459516764 0.2386750728
0.17463902 -0.12744191 1.3460001 -0.01990303025 0.7837468982 0.6207613349
0.15566567 -0.032208383 1.2246002 -0.0199862998 0.8244464397 0.5655869842
0.15574861 -0.4042047 1.4100001 0.1765660495 -0.4166241288 0.8917672038
0.2250292 0.081271879 1.087 0.05438992381 0.6231809258 0.7801841497
0.40683329 -0.26554218 1.305611 0.6607156396 -0.2696447372 0.7005330324
0.055550158 0.051965643 1.1356001 0.195423454 0.410489291 0.890678525
0.16232885 -0.34670237 2.286 0.2718455195 0.9519937634 0.140740335
0.30711561 -0.4999288 1.317 0.5869274735 -0.2535694242 0.7689074278
0.37223792 -0.44382215 2.3330002 0.07813689113 0.9908995032 0.1096027195
0.28582501 -0.2569252 1.4127778 0.3976833522 0.001529746572 0.9175214767
0.38850009 -0.08947961 1.2920001 -0.2459236681 0.7633191943 0.5973821282
-0.087838493 -0.19585609 1.3540001 -0.6145316362 0.3943043053 0.6832824945
0.41292086 -0.38330415 1.2640001 0.6610894799 -0.1633503735 0.7323095798
-0.17468889 0.21508457 1.4705834 0.3390752077 -0.4924320877 0.8015850782
0.3146269 -0.064384773 1.2575002 0.09053318948 0.7994174957 0.5939152837
0.33542758 -0.00100729 1.149 -0.04721972719 0.5807914138 0.8126817346
-0.16276181 0.074866958 1.3870001 0.3357286453 -0.4262251258 0.8400110006
0.064619094 -0.1483846 1.3649999 -0.1134691164 0.7498303056 0.6518276334
0.29429615 -0.38524154 1.3649999 0.4806857705 -0.3380860686 0.8090976477
0.084810823 -0.37597764 1.4238422 0.2964064479 -0.3527714014 0.887522161
0.21445897 -0.27879664 1.439 0.2949305177 -0.3383251429 0.8936173916
0.035263039 -0.063917771 1.2570002 -0.09731072187 0.7816666365 0.6160583496
0.28627735 0.13196045 1.177 0.543484211 -0.342056483 0.7665652633
0.15582225 -0.08016941 1.2880001 -0.0418689698 0.8068925738 0.5892125368
0.3523069 -0.23850331 1.381 0.718290925 -0.2137405425 0.6620975137
0.0404117 -0.25681338 1.4870001 0.525387764 0.3449075222 0.77782166
-0.0051065832 0.02553292 1.1650004 0.1067772061 0.3720138669 0.922065258
0.24606894 -0.1283326 1.3430001 -0.05120026693 0.7229155898 0.6890366673
0.044599317 -0.19574046 1.4131253 -0.1373059154 0.6911634803 0.7095351219
0.37527254 -0.33456323 1.3066154 0.586876452 -0.2354160249 0.7746969461
0.24440365 0.031980325 1.1303637 0.05119117722 0.7705367804 0.6353365183
0.26378357 0.37616414 1.3129092 0.5765928626 -0.2769317031 0.7686673403
0.26843885 0.24544561 1.2640001 0.742538929 -0.2140756398 0.6346712708
-0.01602985 -0.041677609 1.2190001 -0.1275347471 0.7554161549 0.6427140236
0.015050477 -0.10640562 1.3050771 -0.1345326602 0.7797222733 0.6115015149
0.18437003 -0.19433595 1.4210001 0.1380859166 0.6286451221 0.7653349638
-0.034261666 -0.19333196 1.39575 -0.01506193168 0.7820334435 0.6230544448
-0.063917518 -0.12898521 1.3120002 -0.07221655548 0.7475664616 0.6602493525
0.095595241 -0.43712354 1.3979999 0.2243649215 -0.2793112695 0.9336196184
0.19726014 -0.49715003 1.3590001 0.3101323545 -0.4888162911 0.8153996468
-0.084530137 -0.052840266 1.2267334 0.04756710678 0.7192412019 0.6931301951
0.31559941 -0.027764618 1.2026668 0.08809234947 0.8247687817 0.5585662127
0.065015793 -0.49508658 1.3950001 0.4231950939 -0.4321591854 0.7963318229
0.44375464 -0.21792531 1.2880001 0.4413847625 -0.3647127748 0.8198561668
0.10535944 -0.057070453 1.251875 -0.05843752995 0.8043842316 0.5912284255
0.35676548 -0.47675475 1.2871667 0.5814269781 -0.194642216 0.7899728417
-0.11439575 -0.093599312 1.2669091 0.04856179655 0.7961099744 0.6032003164
0.10520773 0.0052817701 1.1670002 -0.132172212 0.7382462621 0.661455214
0.025230467 -0.38602614 1.439 0.2759631276 -0.2684166431 0.9229283929
0.21444984 -0.40377221 1.3932859 0.3643478751 -0.2649951875 0.8927643299
0.11659959 0.071274169 1.1240001 0.208575204 0.366915971 0.9065699577
0.19480591 -0.0054638982 1.1856664 0.01344600972 0.8087322712 0.5880231857
-0.19128428 0.084874481 1.4450001 0.894148469 0.0320116058 0.4466248453
0.18437003 -0.34382513 1.4210001 0.2490098774 -0.2793788314 0.9273303151
0.42453906 -0.44488251 1.2330911 0.6695865989 -0.1447121501 0.728499949
0.16710493 0.081633009 1.0955 0.3058232069 0.4275775552 0.8506759405
0.29345247 -0.15533365 1.37 0.1062446311 0.7144693136 0.6915531158
0.11563935 -0.12744191 1.3460002 -0.08313252032 0.7572539449 0.6478081942
0.30546927 -0.43582991 1.3377367 0.4954313934 -0.2755892575 0.8237707615
0.2946623 -0.314098 1.3953335 0.5938326716 -0.3866254091 0.7056086659
0.26497307 -0.038881917 1.2320002 0.1152238324 0.8182838559 0.563147366
0.18182768 -0.45029807 1.3920001 0.2967668772 -0.3511641622 0.8880389333
0.39206198 -0.1189137 1.3430001 0.1490834504 0.5981794596 0.7873725295
0.46047619 -0.27001157 1.2780001 0.2747150362 -0.4014183581 0.8737247586
0.42178622 -0.31380895 1.2830001 0.6283506751 -0.2152014375 0.7475718856
0.34072894 -0.36474717 1.3430001 0.6929630041 -0.1832763106 0.6972890496
0.24984474 -0.4985165 1.3380001 0.2891290188 -0.4192260206 0.8606125712
0.47198331 -0.3704583 1.2320001 0.4441100657 -0.2510881722 0.8600703478
0.27857399 -0.092099972 1.2970001 0.1391101629 0.777647078 0.6131177545
0.15563989 -0.16171958 1.3870001 0.02997785993 0.7554136515 0.6545621157
0.20473322 -0.097765863 1.312 -0.00791360531 0.7972242832 0.6036313772
0.086985797 -0.32725236 1.4450001 0.188039273 -0.6880340576 0.7008925676
-0.11456279 -0.0095469002 1.21 0.2823715508 0.2836563289 0.9164089561
0.42583907 0.17226499 1.572 -0.2884729505 -0.7541678548 0.5899272561
0.38726404 -0.43505117 1.2757272 0.6599712372 -0.195168063 0.7254980803
0.20472586 -0.043328725 1.2356001 0.03714298457 0.8118188977 0.582726717
-0.15180886 -0.097020701 1.302 0.5728048682 0.4969840944 0.6518446207
0.13535857 -0.35703632 1.427 -0.07414122671 -0.5109195113 0.8564253449
0.27023864 0.060587309 1.097 -0.05490151793 0.6908457875 0.7209146619
0.21496364 -0.15286113 1.3746154 0.07687371969 0.7408016324 0.6673105955
0.37887254 -0.23576899 1.3379999 0.6807457209 -0.2082030326 0.7023081779
0.36511698 -0.066241808 1.2540001 0.09289046377 0.8325256109 0.5461432934
0.29390496 0.026116978 1.1358463 -0.1353312284 0.5353999138 0.8336860538
0.10879024 -0.027996643 1.2126667 -0.1147165149 0.8115386367 0.5729268193
0.05405404 0.012237566 1.1634001 0.09414374083 0.6505048871 0.7536447048
0.37338966 -0.28429538 1.3345386 0.6308349371 -0.2908823192 0.7193293571
0.19497091 0.047072779 1.1145453 0.02024482563 0.7380396128 0.6744536161
0.25503084 -0.29464409 1.4121877 0.3099600673 -0.4426808059 0.8414026499
0.014802339 -0.17471984 1.3840002 -0.1053979844 0.7142806053 0.6918774843
0.33648568 -0.091460876 1.2880001 0.1018203273 0.7567481995 0.6457281113
0.0043183346 -0.012061556 1.189 0.03983133659 0.6757495999 0.7360543013
0.085117236 -0.21467339 1.4335457 -0.005926738959 0.6886714101 0.7250493169
0.20447989 0.019138509 1.149 0.01404074207 0.81874156 0.5739905238
0.38191915 -0.381006 1.302 0.6273285151 -0.1616290659 0.7617971897
-0.052419696 -0.20589423 1.4350001 0.2061291337 0.8069452643 0.5534890294
0.41490528 -0.21208847 1.322 0.6051486135 -0.3925583065 0.6925988197
0.28476062 0.29027924 1.2590001 0.4202579558 -0.4320374131 0.7979516983
0.050061174 -0.1222424 1.3280001 -0.1218086332 0.7612480521 0.6369176507
0.13740084 -0.44868064 1.3870001 0.1071469486 -0.298830539 0.9482720494
-0.055045903 -0.16753101 1.3649999 -0.02595696226 0.7325885296 0.6801766157
0.14433077 -0.0058501055 1.1854999 -0.05007515103 0.8159143329 0.5760002732
0.25568926 -0.40548882 1.3743331 0.2419873327 -0.2804782689 0.9288563132
0.032936364 -0.22548744 1.4450001 0.01934404857 0.828384757 0.5598253608
0.32094416 -0.27457199 1.3920001 0.6619807482 -0.1907568127 0.7248402238
-0.20065849 0.24262626 1.4959999 0.7003283501 -0.2499886453 0.6686148643
-0.093875222 -0.15877661 1.322 -0.5458516479 0.3952367008 0.7388057709
0.10775022 -0.15859865 1.381 -0.0460533537 0.7287397981 0.6832403541
0.30801767 -0.34415659 1.3649999 0.6116002202 -0.3282439709 0.719861865
-0.184828 0.17642674 1.4519999 0.1945644021 -0.4733737409 0.8591053486
-0.15754752 0.11446812 1.404 0.1721491814 -0.267013818 0.9481921196
0.026804082 -0.039670043 1.223 -0.02900567837 0.8098450303 0.5859263539
-0.0011159966 -0.079235762 1.273 -0.2045725286 0.7576624155 0.6197562218
0.43147233 -0.48261005 1.2152501 0.6093168855 -0.1654483378 0.7754738927
0.094314158 0.035131842 1.136609 0.031616956 0.5794373751 0.8144032955
0.29392442 -0.001024122 1.1682 0.1016293615 0.7968260646 0.5956002474
0.35907125 -0.12122985 1.317 -0.1059910208 0.8145587444 0.570315659
0.43994904 -0.39799792 1.2270001 0.5364333391 -0.3191202581 0.7812820077
0.14371021 -0.10778266 1.322 0.003793754149 0.7852694392 0.619142592
0.1461453 -0.20644595 1.4330001 -0.01477494743 0.694270432 0.7195625901
0.33553264 -0.45505166 1.3162105 0.5685534477 -0.2631371915 0.7794265747
0.27842146 0.16478746 1.2029999 0.5831171274 -0.3269376457 0.7436976433
-0.02511818 -0.11532103 1.3024167 -0.1687270552 0.7559732199 0.6324837208
0.061041422 -0.4135868 1.4210001 0.4013835788 -0.3074225485 0.8627761006
0.35465193 -0.026576502 1.1748669 0.2287578583 0.7511171103 0.6192680597
0.28327364 -0.47518381 1.3430002 0.4224691093 -0.2640210986 0.8670713305
0.19490299 -0.072088063 1.2757272 -0.02697738446 0.8037624359 0.5943384171
0.43524691 -0.34556016 1.2542144 0.5289580822 -0.3100384772 0.7899870276
0.05114824 -0.295086 1.4960001 0.1251880974 -0.2755400836 0.9531031251
0.27482456 0.10636605 1.1475456 0.3697864115 -0.4049201608 0.8362401724
-0.1531712 0.04188275 1.365 0.1691581458 -0.5963323116 0.784712255
0.11467284 -0.40418744 1.4113158 -0.002297288738 -0.4825831652 0.8758471608
0.27484798 -0.064776197 1.2652 0.09689152241 0.825684309 0.555749476
0.025687277 -0.14617041 1.3555386 -0.1182806492 0.7714096308 0.625249505
0.064711146 -0.045966849 1.2336668 -0.03580318391 0.8390867114 0.5428182483
0.0057062237 -0.20269498 1.4150001 -0.0837873742 0.7857159972 0.6128866673
-0.10158638 -0.1198491 1.302 -0.1374744028 0.6648273468 0.7342379093
0.4599081 -0.45567906 1.2060001 0.451578021 -0.1054676995 0.8859761953
0.18495037 -0.30402797 1.4449998 0.2139763087 -0.3602972329 0.907964766
0.095297173 -0.47889844 1.376 0.3160601854 -0.4107659161 0.8552060127
0.11697538 -0.079858199 1.2830001 -0.02297411673 0.7858379483 0.6180055737
0.27525306 -0.35550544 1.3831822 0.2863560915 -0.3138557374 0.90525949
0.055507027 -0.35574961 1.4389998 0.2692406774 -0.2156519294 0.9386179447
0.24415621 -0.10296618 1.314273 -0.05893894285 0.7936358452 0.6055314541
0.23473509 -0.025354218 1.2127368 0.01295821182 0.8108434677 0.5851195455
0.075985961 -0.18016025 1.3980001 -0.06121348962 0.7321679592 0.6783679128
0.25567806 -0.15398894 1.3744 0.03297617659 0.7592300773 0.6499863863
0.046438783 -0.089479603 1.2920001 -0.08462797105 0.7544307113 0.650901258
0.34473389 -0.046202462 1.2255716 0.4114473462 0.8327661753 0.3704208732
0.21600656 -0.31608683 1.427 0.3523810804 -0.4193159044 0.8366610408
0.31275603 0.10529938 1.1559091 0.3661741912 -0.45423159 0.8121515512
0.16513723 -0.054879893 1.2533529 -0.05052885041 0.7717421055 0.6339250803
0.21411997 -0.36492422 1.41 0.3899710178 -0.2832061052 0.8761945367
0.21414112 -0.46619803 1.371895 0.290838182 -0.3610977232 0.8860144615
0.33184391 0.033204276 1.1340001 -0.115560092 0.3221180141 0.9396200776
0.075033896 -0.07197696 1.268 -0.01775975153 0.8130591512 0.5819101334
-0.055020101 -0.036984567 1.2102858 -0.0227264706 0.6970973611 0.7166161537
-0.043703586 -0.062124107 1.2360001 -0.07676891237 0.7180970907 0.6916958094
-0.079546981 -0.10195458 1.2780001 -0.04382249713 0.7468184829 0.6635825038
-0.038307704 0.02174221 1.1810001 0.261492759 0.3092924654 0.9143083096
0.29007584 0.061068602 1.161 0.6757825017 -0.222553283 0.7027005553
-0.11470168 -0.066614144 1.2427145 0.01248154696 0.6795262694 0.7335450053
0.27303207 0.34498695 1.2958889 0.6496449709 -0.3346711695 0.6826101542
