# .PCD v0.7 - Point Cloud Data file format
VERSION 0.7
FIELDS x y z normal_x normal_y normal_z
SIZE 4 4 4 4 4 4
TYPE F F F F F F
COUNT 1 1 1 1 1 1
WIDTH 206
HEIGHT 1
VIEWPOINT 0 0 0 1 0 0 0
POINTS 206
DATA ascii
0.095611759 -0.13429359 1.3254287 -0.01864440367 0.7208067775 0.6928852797
-0.48140308 -0.48140308 2.3170002 -0.04419033602 0.7302433252 0.6817564964
0.3723484 -0.33454651 2.1560001 0.09085995704 0.7835254669 0.6146806479
0.07309857 0.49835342 1.2672001 0.6507778168 -0.3522107601 0.6726334691
0.49526203 0.15617554 1.6343335 -0.8570252061 0.2685065269 0.439786315
0.4713771 -0.29397714 1.0056154 0.7460412979 -0.01623817347 0.6657016277
-0.31638899 -0.12655559 2.0050001 -0.07002782822 0.7540574074 0.6530646682
-0.23760588 0.23487596 1.5546666 0.6660096049 -0.4333924949 0.6071261764
0.095372573 0.15433015 0.98900002 0.08444869518 0.6941953897 0.7148154378
0.36349753 0.21083599 1.268 -0.8659494519 0.4673729837 -0.1780283004
0.21635397 -0.49499297 1.2349476 0.659044981 -0.2336251587 0.7148979306
-0.0039292201 -0.34773597 2.2410002 0.06161216646 0.8284124732 0.5567196012
-0.18563417 -0.028640701 1.21 0.3297347426 0.5392596722 0.7749025822
0.47921669 -0.050358362 1.853 0.1254955828 0.7315660119 0.6701208949
0.38846415 -0.05119295 1.1450001 0.5481647849 -0.3933320343 0.7381092906
0.3002969 -0.26262128 1.2640001 0.7202240229 -0.2206538469 0.6577151418
0.16498178 0.015686885 1.1663915 0.02842959017 0.7640634775 0.6445143819
0.12331096 0.32542044 1.1313334 0.6511997581 -0.3442927003 0.6763145328
-0.19227491 0.062024169 1.4150001 0.6712158918 -0.2666251957 0.691650331
0.40917102 0.33443081 1.4450001 -0.9386107326 -0.1186645776 0.3239269257
0.25796705 -0.42452845 2.3170002 0.08304429054 0.7974060178 0.5977016687
0.12818882 -0.34243828 1.3730001 0.8034856319 -0.09394689649 0.5878645778
0.48571572 -0.19276293 2.0050001 0.1276358366 0.740498662 0.6598263383
0.38369605 -0.43391126 1.1312633 0.7410447001 -0.02152080275 0.6711106896
-0.23295838 -0.24610926 2.1430001 -0.04419033602 0.7302433252 0.6817564964
-0.050970275 0.068280935 1.097 0.2911810279 0.5875846148 0.7549555898
-0.095465496 -0.17137781 1.312 -0.3418174088 0.347250849 0.8732569814
0.29065505 0.073822051 1.057 -0.3550904691 0.4336420596 0.8281698823
-0.014594396 -0.045934528 1.2242 -0.1706877053 0.7294586897 0.6623864174
0.25217202 -0.084556252 1.2746667 0.04787852243 0.6645991802 0.7456644773
0.3918519 -0.21527275 1.1315999 0.9249950051 0.01416606084 0.3797150254
0.2273223 -0.26113883 2.1430001 0.08304429054 0.7974060178 0.5977016687
0.11423142 -0.39880794 2.286 0.0732556954 0.8054299355 0.5881464481
0.32781687 0.11654294 1.1764287 -0.4370275438 0.7514535785 -0.4942919016
0.29708654 -0.38792238 1.2190001 0.5798566937 -0.2620027363 0.7714406848
0.10298145 -0.22423379 1.4210001 0.4221307635 0.3458924294 0.8379523158
-0.12604713 -0.32772255 2.2120001 -0.04419033602 0.7302433252 0.6817564964
0.2025065 -0.24489158 1.3430002 0.471888721 -0.3121528924 0.8245493174
0.0745342 0.0716675 1.09 -0.07040390372 0.8140726089 0.5764799118
0.34392613 -0.1449803 1.223 0.814794004 -0.02118250169 0.5793634653
0.45256162 -0.27300277 2.0900002 0.1276358366 0.740498662 0.6598263383
0.28441188 0.0022637285 1.1746002 0.1406785101 0.7643563747 0.62926054
0.1991062 -0.38692093 1.2880001 0.5879492164 -0.2208960801 0.7781520486
0.15147047 0.22767033 1.0600001 0.5643904805 -0.3789927661 0.7333675027
0.10456836 -0.053375412 1.2425001 -0.09191696346 0.7667276263 0.6353582144
0.44117111 -0.12887087 1.0730001 0.6974083185 -0.15044792 0.7007046938
0.41107219 -0.3248468 1.101 0.8438215852 0.005080884788 0.5365998149
-0.19811001 0.16185458 1.4770001 0.501049459 -0.386580795 0.7742769122
0.0060051666 -0.18696086 1.3700002 -0.3383580744 0.1479654163 0.9293115735
0.095117271 0.41483513 1.1951056 0.5325732231 -0.4189932644 0.7353981137
-0.24712531 -0.21156771 2.0280001 -0.04419033602 0.7302433252 0.6817564964
0.1861341 0.10856615 1.0357143 0.2861988842 0.8596057296 0.4232825935
0.36797208 0.28132057 1.3540001 -0.5327692032 0.6926079988 -0.4862624109
0.0054357713 0.13194263 1.0349287 0.3167229891 0.5708758831 0.7574874759
0.30645549 -0.48496324 1.177 0.5642780662 -0.2224955559 0.7950383425
0.054444086 0.0062972801 1.1671054 -0.0663305968 0.752931416 0.6547477245
-0.095163926 -0.0040956112 1.1672002 0.1319732815 0.6690482497 0.7314078808
-0.1052 -0.087666668 1.25 -0.007322448306 0.7406465411 0.6718549132
0.35618588 -0.3054198 1.1848397 0.7140712738 -0.08131623268 0.6953343749
-0.0047662021 -0.11551655 1.2943333 -0.2140882015 0.6865814924 0.6948180795
0.42128918 0.19882624 1.5860001 -0.947005868 0.02430433035 0.3202954233
0.27888694 -0.178442 1.302 0.7521490455 -0.06977088004 0.6552891135
0.44393855 -0.21517643 1.0424002 0.7746693492 -0.1288398951 0.6191022992
0.18535189 -0.12792057 1.3235002 0.05120686442 0.6981745362 0.7140939236
0.21531516 0.058928367 1.1079999 0.01992126927 0.809361577 0.5869727135
0.19116944 -0.039961971 1.2320001 0.1064195558 0.717158556 0.688736856
0.36401781 0.032555796 1.1645555 -0.09286369383 0.4420751035 0.8921580315
0.071749903 -0.31996581 2.2120001 0.05420638621 0.8383439779 0.5424399376
0.16702779 -0.46303606 1.302 0.7583767176 -0.1780531555 0.6270262003
0.2349755 -0.30436334 1.2924761 0.3630424142 -0.3787890077 0.8513043523
0.35462213 -0.2249535 1.2041051 0.8046158552 -0.07412330061 0.589151144
0.38381454 -0.13538471 1.1459414 0.9360129237 -0.009704302996 0.3518317938
0.42685163 0.27281955 1.4890001 -0.967135787 0.049590379 0.2493775487
-0.0251165 0.014059104 1.1460001 -0.08643294126 0.7877268195 0.6099309921
0.35863668 -0.3757858 1.1680001 0.7653592825 -0.1206018999 0.6322027445
0.44404396 -0.35155436 1.0431429 0.8615589738 0.1498726606 0.4850302637
0.14541936 0.076707542 1.085 0.0292218402 0.8214668036 0.5695071816
0.14454471 -0.26767451 1.383 0.5757173896 -0.4405831099 0.6887931824
0.14810362 -0.40333328 1.3355001 0.730641067 -0.05883364379 0.6802222133
0.23829991 -0.4282122 1.245 0.3831879795 -0.3688262105 0.846837759
-0.17569859 -0.088762499 1.25 0.1137805581 0.643882215 0.7566173077
-0.15010023 -0.12718417 1.307 0.3247040808 0.6489914656 0.6880242229
0.31097382 0.050030489 1.1190001 -0.3046664 0.460596472 0.8336841464
0.15990488 0.17062476 1.0190001 0.1821175218 -0.3087524474 0.9335443974
0.17345831 -0.32470974 1.3244001 0.6316406131 -0.2560008466 0.7317743301
0.10434175 0.11042581 1.041 0.07732865959 0.8127501011 0.5774578452
0.045002222 -0.077554993 1.2657778 -0.04041197896 0.7175441384 0.6953396797
0.33625877 0.1633793 1.2254617 -0.2000848353 0.7872049809 -0.5833304524
0.2831012 -0.044532474 1.224 0.1346153766 0.7022354007 0.6991024017
0.14499229 -0.086588763 1.2857274 -0.02387103625 0.7200203538 0.6935423017
0.42131197 -0.39453506 1.0910001 0.769913435 0.1350575984 0.6236928105
0.074735835 -0.18443049 1.3750001 -0.04677472264 0.7399372458 0.6710476875
0.2873632 -0.32540801 1.245 0.6521163583 -0.2337972671 0.7211678624
0.11498202 0.043800019 1.1356001 -0.03886146098 0.7720015645 0.634431541
0.43125179 -0.27572352 1.06075 0.908931911 0.03931638971 0.4150867164
0.012627507 0.049538679 1.108 -0.06286174059 0.7270319462 0.683719933
0.12161646 0.26929358 1.1010001 0.5506336093 -0.4016368687 0.7317721248
-0.10171261 0.051350575 1.1308 0.309591651 0.5003051162 0.808608532
-0.2117676 0.096258 1.4640001 0.8248382807 -0.1705263853 0.5390385389
-0.050626624 -0.20250648 1.3430001 -0.1573699564 0.47591573 0.8652970195
0.1154307 -0.01154307 1.197 -0.07641135156 0.7529950738 0.6535745859
-0.075314432 -0.045612969 1.2100002 -0.07388938963 0.7070313692 0.7033115029
0.045251124 -0.034492042 1.2152631 -0.0146368742 0.757240355 0.652972281
0.32107916 -0.20163333 1.25 0.8196954131 -0.1233369708 0.5593634248
-0.065490499 -0.12194783 1.2880001 -0.06522474438 0.7239397764 0.6867728233
0.22516131 -0.005808075 1.1940911 -0.005492480006 0.7192070484 0.6947740912
0.25727198 -0.24583688 1.3043078 0.5939011574 -0.285626024 0.7521297932
0.035075981 -0.14731276 1.3336251 -0.0566951111 0.745775342 0.6637806892
0.14362781 -0.1602459 1.3540001 0.04900158197 0.6253060699 0.7788396478
0.41559711 -0.074827753 1.0962858 0.7899571657 -0.06259370595 0.6099587083
0.34037724 -0.43498358 1.1730001 0.5880249739 -0.2038066238 0.7827448249
0.39163816 -0.27461535 1.1340001 0.8986176252 -0.01125741284 0.4385881722
0.4159199 -0.18513183 1.0836999 0.7940314412 -0.01373194903 0.6077215672
0.39172271 0.31850353 1.3920001 -0.77844733 0.5726215243 -0.2571465075
0.28416157 -0.44386926 1.2114283 0.6147484183 -0.2924514711 0.7325001359
0.25539768 -0.37494746 1.2577372 0.5164090395 -0.238971889 0.8223223686
0.02496108 0.087030955 1.0658573 0.02452308498 0.7315712571 0.6813237667
-0.15167999 0.00309551 1.177 0.2776385248 0.5174580216 0.8094158769
-0.22432435 0.20391406 1.5089999 0.5939970613 -0.4600583315 0.6599346995
0.091820754 0.46554551 1.2250001 0.576885283 -0.3469376862 0.7394846678
0.23582816 0.077777557 1.0437858 0.209352836 0.8132961392 0.5428819656
-0.13512076 -0.054355409 1.2156316 -0.03156555817 0.6939507723 0.7193302512
0.10530474 0.36541915 1.1662803 0.5283847451 -0.3189550936 0.7868145704
0.36495525 0.24407475 1.3132502 -0.4951763451 0.6658802629 -0.5580357313
-0.034985609 -0.08513701 1.2561539 -0.09657873213 0.7208340168 0.6863459945
0.36695939 -0.17548475 1.1844668 0.8814786077 0.01138001122 0.4720868468
0.24529667 0.027883179 1.147182 0.05926619843 0.7836713791 0.6183418632
0.055998661 0.12858948 1.0172 0.1297201514 0.7155377865 0.686424315
0.32629937 -0.34531152 1.2045598 0.6432365775 -0.1006781235 0.7590194941
-0.025224624 -0.1517358 1.3280001 -0.1599385291 0.7463980317 0.6459950805
0.38314715 -0.33411127 1.1457061 0.8651382327 -0.1003003344 0.4914017022
0.0043163309 -0.012050534 1.1878573 -0.07902429253 0.778906405 0.6221414208
0.32081616 0.10167404 1.126 -0.4156345427 -0.590528965 0.6917539239
0.19529942 -0.079235762 1.273 0.05023499206 0.7290742397 0.6825885773
0.26264712 -0.4934586 1.2105001 0.5326493979 -0.3458754718 0.7724342942
0.33129847 -0.27232948 1.223 0.7553116083 -0.2061683983 0.6220924258
0.31387472 -0.14782803 1.265143 0.8238526583 -0.09850043803 0.5581796169
0.43423054 0.16657367 1.6240001 -0.9340420961 0.09963935614 0.342983067
0.36836568 -0.09802448 1.177 0.8873010278 0.01918363571 0.4607916176
0.47229978 -0.2383569 1.0070001 0.6919100285 -0.1779317111 0.6997148395
0.094824471 -0.09482611 1.2876877 -0.03440382704 0.6924796104 0.7206166387
-0.17387894 0.023913421 1.3870001 0.5870936513 -0.2954260409 0.7536872625
-0.024608362 0.097612113 1.0642501 0.2328781933 0.5652944446 0.7913342714
0.40844676 -0.24479048 1.0938667 0.8782743216 0.02349796891 0.4775793552
0.39130017 -0.38139382 1.13 0.805101037 -0.07750016451 0.5880527496
0.16432042 0.046877775 1.1257502 0.02845900878 0.8020924926 0.596521318
0.40205833 -0.0071492172 1.1650001 0.4310579598 -0.1814781576 0.8838861585
0.065150358 0.03849794 1.126 -0.09747201949 0.7697455287 0.6308653355
0.20093668 -0.45506251 1.2640001 0.6390168667 -0.2260198146 0.7352363467
0.26615664 0.06153214 1.101 0.00335798203 0.7796327472 0.6262280345
-0.044552851 -0.015751656 1.1841666 -0.03408806026 0.7573286295 0.6521436572
-0.1876505 0.11509231 1.427 0.7929381132 -0.2097713351 0.5720534325
0.40458316 -0.12464646 1.1035599 0.813226819 -0.04708164185 0.5800392032
0.055157881 -0.11466661 1.3053333 -0.1506030709 0.6691031456 0.7277497053
0.14454818 0.12622339 1.0172275 -0.2480849624 0.5338227153 0.808385551
0.23510034 -0.053766169 1.2437693 -0.0492500253 0.7286759615 0.6830855012
0.17175682 -0.2829845 1.3450001 0.4818126261 -0.4278368354 0.7647301555
0.37647861 -0.24471021 1.1658574 0.8634169102 -0.1318760961 0.4869496226
0.45073819 -0.16783784 1.0500001 0.7175471187 -0.1482903957 0.6805410385
0.16473067 -0.015526018 1.2034286 0.03045304865 0.7655938864 0.6426029801
0.19536678 0.083333865 1.07295 -0.005499855615 0.8059726357 0.5919272304
0.40128103 -0.31169268 2.1290002 0.1019798294 0.7654126287 0.6354082227
0.24361427 -0.20435889 1.317 0.4919309318 -0.1175287962 0.8626649976
0.15438321 -0.056880318 1.2525001 -0.01756473258 0.7307698131 0.6823979616
0.21792531 -0.34551889 1.2880001 0.5058248043 -0.2776616514 0.8167284131
0.291796 -0.22362866 1.2837143 0.7154380679 -0.2336904407 0.6584354043
0.32132551 0.019138509 1.149 -0.236547336 0.6740766168 0.6997613907
-0.13895166 -0.11004972 1.268 -0.07913472503 0.7809676528 0.61953789
0.39182773 -0.094296232 1.1322501 0.8927251697 -0.06333632022 0.4461280406
0.49383247 -0.022374287 1.8230001 0.1254955828 0.7315660119 0.6701208949
-0.12357932 0.03370345 1.1650001 0.2800404429 0.5420820713 0.7922905684
0.13585441 -0.1216147 1.317 -0.00789724756 0.7188833356 0.6950858831
0.39661554 -0.16527303 1.116625 0.8935812116 -0.03100746125 0.4478293359
-0.064435944 0.027197029 1.1361538 0.1698812097 0.6882392168 0.7053135037
0.064690933 0.097035013 1.0541875 -0.01356178243 0.806076169 0.5916563869
0.32834235 -0.39713788 1.189 0.5989215374 -0.2061286718 0.7738242745
-0.10570549 -0.13593188 1.2880001 -0.08944396675 0.3433373272 0.9349434376
0.16804096 -0.3660889 1.3165001 0.7239870429 -0.1255766302 0.6782870293
0.27212891 -0.29374397 1.2753333 0.647749126 -0.2863094211 0.7060084939
0.21572837 -0.1084349 1.302 0.1112927273 0.7059896588 0.6994229555
0.1052303 0.015160344 1.1663336 -0.1406462342 0.7480595708 0.6485564709
0.21590459 -0.27478766 1.3170002 0.6114435792 -0.3595338166 0.7048916221
0.015770137 0.021774428 1.142 -0.06172233075 0.7641247511 0.642108798
0.17322749 -0.41496289 1.3047779 0.7882964015 -0.06496293843 0.611856699
0.14382811 0.10102488 1.0500001 0.06260556728 0.8046951294 0.5903781056
0.0044464525 -0.08448261 1.2679999 -0.1525105983 0.6886284351 0.7088944912
0.18860343 -0.49327052 1.273 0.6816036105 -0.1423783302 0.7177360058
0.20447986 0.029211408 1.149 -0.002368300455 0.7802048922 0.6255195737
0.13309115 0.19367057 1.0470001 0.5399786234 -0.362252146 0.7597344518
0.44395605 -0.30456021 1.0338097 0.8672544956 0.04642156139 0.495696187
0.25251156 -0.39880794 2.286 0.08304429054 0.7974060178 0.5977016687
0.34468883 -0.18525328 1.2176363 0.7849652171 -0.03352591023 0.6186320782
0.13843498 -0.30604422 1.3583752 0.7024905682 -0.2105488777 0.6798353791
0.074542642 -0.015461549 1.1955001 -0.0618972145 0.7804551125 0.622140348
-0.2004586 -0.055261564 1.2360001 0.3044842482 0.5067288876 0.806545198
-0.11504497 -0.02823831 1.1930001 0.008171278983 0.6889703274 0.7247434855
0.19354403 0.12854272 1.002 0.2600291967 0.4531997442 0.8526399136
-0.064272813 -0.15776055 1.3330001 -0.4706344008 0.3124986291 0.8251350522
0.10448763 -0.16445194 1.3544168 -0.009668422863 0.6792770028 0.7338182926
0.25689086 -0.33536845 1.2676923 0.6037546992 -0.3003628254 0.7384188771
0.13454543 -0.035442255 1.225 -0.07914822549 0.7613593936 0.6434807181
0.40935475 -0.28382158 1.0942857 0.865929842 0.02183480375 0.4996886253
0.35759583 -0.10962015 1.2140001 0.8627548814 -0.04666866735 0.5034641027
0.44839451 -0.26489294 1.02775 0.7714998722 -0.06898037344 0.6324789524
0.22219643 0.11020226 1.0220001 -0.01500717271 0.5710719824 0.8207628131
0.26535317 -0.017003633 1.2037778 0.0768077746 0.714037478 0.6958814859
