# .PCD v0.7 - Point Cloud Data file format
VERSION 0.7
FIELDS x y z normal_x normal_y normal_z
SIZE 4 4 4 4 4 4
TYPE F F F F F F
COUNT 1 1 1 1 1 1
WIDTH 206
HEIGHT 1
VIEWPOINT 0 0 0 1 0 0 0
POINTS 206
DATA ascii
0.094632067 -0.044451531 1.6355001 -0.2849600613 0.7929695845 0.53851372
0.49741891 -0.44038999 3.6140001 -0.2251237929 0.8870407343 0.4030856788
-0.33334985 -0.34337541 2.8590002 -0.3910409808 0.8169252872 0.4239340127
0.41955602 0.1690748 2.381 -0.97284621 0.1792064905 -0.1464761943
-0.13244154 0.035738192 2.398 -0.5406325459 0.7199149132 -0.4352459013
0.025792411 -0.39834943 3.2690001 -0.3667535782 0.7598219514 0.5368075967
0.2561515 -0.49752498 1.8730001 -0.6380195618 -0.05922320485 0.7677393556
0.2507214 0.38355395 1.8940001 -0.9216751456 -0.3009611666 0.2448208928
-0.18136041 0.37868056 1.6550001 0.58984828 -0.1775920838 0.787743628
0.48198608 -0.25353023 3.1780002 -0.2048469782 0.8739581704 0.4407207668
-0.16182654 -0.44465849 1.6630001 0.2298395336 0.03969142213 0.9724188447
0.024366951 -0.26153859 1.853 -0.3335973024 -0.4318615198 0.8379787803
-0.26154825 -0.4584125 3.2080002 -0.3214590549 0.697545886 0.6403856277
-0.12751292 0.11243074 1.5640001 0.8286938667 -0.0372482799 0.5584613681
0.28287491 -0.11027327 1.8230001 -0.2239444852 0.8571981788 0.4637457728
-0.15242077 -0.14798135 1.6880001 0.3208934665 0.8001691699 0.5067116022
0.19153763 -0.45300171 3.4680002 -0.2489634007 0.8851341605 0.393134445
-0.12929957 -0.3087357 3.0100002 -0.2725105882 0.8466545939 0.4570711255
-0.47006866 -0.44857982 3.0640001 -0.4010403454 0.8076101542 0.4323569238
0.24795815 -0.33153954 3.1780002 -0.1915631294 0.8260462284 0.5300483108
0.29302847 0.32289124 2.1290002 -0.9595171213 -0.109869495 0.2593368888
0.044897605 -0.49387372 1.7659999 -0.4076462984 -0.2753456831 0.8706372976
0.31187594 0.034652881 1.6470001 -0.4971839488 0.3858724833 0.7771168351
-0.28079107 -0.086227179 2.5220001 -0.3532234728 0.8140799999 0.4609846771
0.21677248 -0.27139232 1.9470001 -0.5688066483 -0.7662161589 0.2989512086
-0.064929441 -0.060871348 1.5430001 0.1287502348 0.6753205657 0.7261993885
0.054703999 -0.30907759 3.1200001 -0.3078726828 0.8058133125 0.5058451891
0.11402365 -0.12503283 1.794 -0.1881454736 0.8375580311 0.512930572
-0.092568107 -0.3050195 1.7310001 -0.4761256874 -0.4425453544 0.7599065304
0.4408406 -0.38003498 3.4680002 -0.2135379761 0.8830193877 0.4179452956
0.14623064 -0.37441468 1.8329999 -0.321213007 -0.5263022184 0.787291646
-0.26055235 -0.37874103 3.0640001 -0.3980859518 0.7755105495 0.4900111556
0.16206631 0.068092018 1.5535001 -0.4736451209 -0.3620474935 0.8028585911
0.36588559 0.28281969 2.256 -0.9719722867 0.1607570201 -0.1715432853
-0.024644854 -0.14786913 1.7570001 -0.4096806943 0.8372995257 0.3620652258
-0.13600257 0.24792133 1.6160001 0.2805987597 -0.4366602302 0.8547468781
0.024032939 0.049401045 1.5230001 -0.2416297495 -0.5087967515 0.8262813687
-0.16356495 0.36015746 1.794 -0.9596085548 -0.2755135298 0.05695386976
0.2152392 -0.055304516 1.705 -0.1151914001 0.8626943827 0.4924320579
0.43105701 -0.28640699 3.3000002 -0.2106622159 0.8779059649 0.4300029278
-0.064079076 -0.43183723 3.1780002 -0.4098732471 0.7058234215 0.5777691603
0.0057377829 -0.37295589 1.785 -0.6385874152 -0.3498887122 0.6854079366
0.216975 -0.35583898 3.3000002 -0.2010384202 0.8467662334 0.4925144911
0.26068383 -0.37359151 1.8940001 -0.3938098848 -0.365403533 0.8434417844
0.18818703 -0.16507633 1.8830001 -0.1933260858 0.8447394371 0.4990393519
-0.35187998 -0.48081309 3.0640001 -0.3978848159 0.8083339334 0.4339168966
-0.046860754 -0.47600663 1.6880001 -0.4908502102 -0.1225002035 0.8625890017
-0.013957408 -0.096739292 1.647 -0.3862998188 0.8380481005 0.3852892816
-0.17231759 -0.4348968 3.1200001 -0.2039836496 0.7771913409 0.595285058
-0.1627444 -0.21438444 1.785 0.9443756938 0.03432641551 -0.3270722926
0.15467136 -0.49469528 1.8040001 -0.2019016594 -0.007720984519 0.9793753624
0.044249751 -0.45134744 3.3650002 -0.377946198 0.764801085 0.5217623711
0.3323347 -0.034902729 1.7310001 -0.4605357349 0.6714175344 0.5806077123
0.141757 -0.43684301 3.3000002 -0.3151470125 0.809505105 0.4953623414
0.13694252 -0.27552703 1.8730001 -0.2123754472 -0.5186138153 0.8282127976
0.08308842 -0.17883269 1.883 -0.2006274313 0.8491452932 0.4885702431
0.21497969 0.0056948266 1.6240002 -0.3319680393 0.7651968002 0.551607728
0.063072659 -0.10061591 1.7130001 -0.2460649312 0.8680303097 0.4312486649
-0.17017853 -0.34775612 1.6880001 0.2150982171 -0.2662361264 0.9396015406
-0.12436612 -0.10750607 1.6030002 -0.160870418 0.8669008613 0.471808821
-0.2459015 -0.32699665 2.9840002 -0.3060542345 0.8871219754 0.3454640806
-0.20695908 -0.037034784 2.4850001 -0.1870313287 0.9366793633 0.2960592806
-0.056407068 -0.25356826 1.8040003 -0.1963492334 -0.8176217079 0.541240871
0.024806159 -0.037898298 1.572 -0.3832719028 0.7957035899 0.4689972997
-0.1176136 -0.35831121 3.1200001 -0.2850700617 0.709323585 0.6446667314
-0.10551034 0.024348535 1.5429999 -0.5895017982 -0.1217162088 0.7985441685
-0.057065737 -0.38744634 1.7130001 -0.4928363562 -0.3491250873 0.7970094085
-0.0026928277 -0.1782652 1.8430001 -0.340108037 0.8283130527 0.4452235699
0.20499535 -0.1064098 1.785 -0.1569571644 0.83537817 0.5267900825
0.094781443 0.008366406 1.554 -0.3947799802 0.6906397343 0.6059418917
0.067491055 -0.33263451 1.8330001 -0.4955611229 -0.4181488454 0.7612954378
0.084723569 -0.42497343 1.804 -0.3212344944 -0.1650268286 0.9325098395
0.20519347 -0.43785378 1.8430001 -0.58635813 -0.2424286604 0.772924602
-0.040656295 0.0039344798 1.4959999 0.1434863955 0.2632092535 0.9540086985
-0.17775995 -0.28349647 1.748 0.2509867251 -0.518473804 0.8174292445
-0.074376404 -0.136234 1.6800001 -0.4163170755 0.7992722988 0.4334095716
0.14416344 -0.088774338 1.7310001 -0.1838274002 0.8740449548 0.4497254193
-0.072524883 -0.31427449 3.0640001 -0.2879577279 0.7745901346 0.5631078482
0.19864185 -0.32299936 1.883 -0.5762144327 -0.2861168981 0.7655808926
-0.095009625 -0.17852615 1.748 -0.3785969615 0.8152169585 0.4382758141
0.27571431 -0.075474866 1.7570001 -0.1510782391 0.8863044381 0.43776685
-0.12616304 0.17618248 1.6026001 -0.6573640108 -0.3166238368 0.6838288307
-0.0068603554 -0.43448916 1.7390001 -0.7413961291 -0.1720164418 0.6486464143
0.49578744 -0.30091146 3.2690001 -0.2097305954 0.8760747313 0.4341728985
0.18451203 -0.33496031 3.2380002 -0.2145183682 0.8272711635 0.5192342997
0.2754136 -0.0191464 1.6799999 -0.2981431782 0.7044235468 0.6441258192
-0.029415673 -0.30809048 1.766 -0.5762768388 -0.319535464 0.7521981597
0.045151841 -0.13234159 1.7760001 -0.2711628377 0.8687903285 0.4143356681
0.16500501 -0.0346893 1.655 -0.3682385683 0.7328692675 0.5721040368
-0.15647011 0.3143757 1.6374445 0.5571705699 -0.1855317503 0.8094065189
0.22591408 0.067541324 1.5940002 -0.4695000648 0.03626970574 0.8821871877
0.14643635 0.0032749344 1.6010002 -0.3950609863 0.7408192754 0.543243587
-0.10986825 -0.3984555 1.6710001 -0.3934765458 -0.3240111172 0.860344708
-0.11517382 -0.49422696 1.6630001 0.03308904916 0.183735162 0.982418716
0.02531112 -0.36841741 3.2080002 -0.3439809382 0.7330126166 0.5868301392
-0.013553266 -0.31714645 3.0920002 -0.2859543562 0.7781825066 0.5591619611
-0.0029894332 -0.11808261 1.705 -0.356185168 0.8424075246 0.4043287039
0.22458184 -0.13410282 1.8430001 -0.07684734464 0.8899040222 0.4496279359
-0.063730158 -0.096070103 1.6036667 -0.2362407446 0.8758530021 0.420799017
0.25681159 -0.43415076 1.8830003 -0.6416018605 -0.2975689173 0.7069652081
0.13483046 -0.15757294 1.853 -0.05088404566 0.8436162472 0.5345301628
0.15178737 -0.43390527 1.8130001 -0.1087786704 -0.1758630574 0.9783861041
0.10191894 0.073582716 1.5640001 -0.2658895552 -0.5626167059 0.7827932239
0.0808874 -0.25421757 1.8830001 -0.04615775868 -0.8636354208 0.5019993186
0.044977382 -0.07302779 1.6550001 -0.2998212576 0.8584420681 0.4161543548
0.25158054 -0.31574202 1.9260001 -0.6993547678 -0.45604828 0.5503843427
0.056242544 -0.15908606 1.8330001 -0.1641512811 0.883605361 0.4385155439
0.01430457 -0.30516413 1.8129998 -0.421421051 -0.376211226 0.8251481056
-0.0045542833 -0.49527812 1.7330003 -0.639918685 -0.2258860767 0.7344927192
0.095937148 -0.48597664 1.794 -0.2382538468 -0.2446514368 0.9398834109
-0.055045899 -0.18086509 1.794 -0.3843057454 0.8153417706 0.4330437183
0.20415376 -0.38380903 1.863 -0.6338829398 -0.4508672059 0.6284195781
0.20448184 -0.49453276 1.8330001 -0.6722568274 -0.2349245846 0.7020549774
0.035810079 -0.43439183 1.7760001 -0.3800152242 -0.1652321666 0.9101026058
0.10420586 -0.07316485 1.6860001 -0.1782036871 0.8622367978 0.4741214812
-0.11448565 -0.34494376 1.6960001 -0.1749242693 -0.3294348419 0.9278330803
0.0053472281 -0.014703892 1.5244999 -0.436200738 0.5802826881 0.6877506375
0.26453853 0.062368255 1.6355001 -0.6139464378 -0.06835104525 0.7863827944
-0.015371474 -0.072665147 1.5940001 -0.4397835433 0.8356893063 0.3289586902
0.12508367 -0.32489267 1.8530002 -0.09496668726 -0.2926553488 0.9514905214
0.18360907 -0.2687369 1.904 -0.4346201718 -0.7380924225 0.51606673
0.32901183 -0.0024663557 1.6880001 -0.4066922963 0.5853382349 0.7014132142
0.16434361 -0.12746961 1.8130001 -0.1451444328 0.7887670398 0.5973103642
-0.072668649 -0.01233996 1.5640001 -0.7200100422 -0.5525339246 0.4198711514
0.055352736 -0.3748171 1.804 -0.3006786406 -0.346147716 0.888692379
-0.17147863 -0.17147863 1.7310001 0.3597741425 0.7570022941 0.5454448462
-0.09382052 -0.26659888 1.766 -0.1915147305 -0.7664254308 0.6131184101
0.092094712 -0.28597832 1.8430001 -0.09475162625 -0.183059141 0.9785251617
0.18492232 0.034759834 1.5860002 -0.3286950588 0.5040187836 0.7987018228
-0.11530333 -0.13304231 1.6470002 -0.08161175251 0.8539206386 0.513964057
0.44993427 -0.32383803 3.2690001 -0.2106622159 0.8779059649 0.4300029278
-0.089359507 -0.44533265 1.6710001 -0.3941334188 -0.4033195972 0.825828135
-0.14498751 -0.30492219 1.705 0.001653685234 -0.6562906504 0.7545064092
0.14855643 -0.18861659 1.904 -0.07127962261 0.8615819812 0.5025889874
0.076298401 -0.023755914 1.5940001 -0.3552008569 0.780803144 0.5139832497
0.22526474 -0.078153081 1.748 -0.1212043613 0.7993879318 0.5884627104
-0.032180678 -0.36318195 1.748 -0.6369683743 -0.4759392738 0.6064264774
0.2658062 -0.054062281 1.7130002 -0.1276810318 0.789229095 0.6006788015
0.21236694 -0.023812311 1.6630001 -0.1223410964 0.7897123694 0.6011547446
0.086256988 -0.10936154 1.7570001 -0.1409545094 0.8900123835 0.4336009324
0.16563249 -0.062744088 1.6960001 -0.3275713623 0.7751259208 0.5402562022
0.07423158 0.043949585 1.5284002 -0.3728951812 -0.1871673763 0.9088000655
-0.162605 -0.3969906 1.6710001 0.4685186446 -0.1324286908 0.8734717369
0.036123928 -0.18226163 1.8730001 -0.2008709908 0.8572770953 0.4740536213
0.04847616 0.0040396801 1.536 -0.429910183 0.6128591299 0.6630089879
0.10225119 -0.37721682 1.8130001 -0.3207556009 -0.4689133167 0.8229435682
-0.012785306 -0.26050061 1.8230001 -0.6261407137 -0.4640245736 0.6266011596
-0.10753939 -0.037199162 1.5430001 0.02470483817 0.1916260421 0.9811570644
-0.10290226 -0.077520303 1.5734 -0.1926926821 0.772490859 0.6050846577
-0.11380185 0.067184225 1.5640001 0.2487651557 -0.2657713294 0.931386888
0.0047182203 -0.14941029 1.794 -0.3354827464 0.8386284709 0.4291312099
0.25845271 0.01010709 1.6470001 -0.2870416939 0.6361138225 0.7162166238
-0.0065267831 0.040466055 1.489 -0.4098604321 0.2706307769 0.8710759878
-0.06491366 -0.15398124 1.7220001 -0.3328282237 0.8788442016 0.3418453634
0.23385815 -0.1546215 1.883 -0.192469731 0.8303801417 0.5228998065
-0.11371186 -0.3339726 3.0640001 -0.3033513129 0.786863625 0.5374231339
-0.074402697 -0.34656563 1.7220001 -0.5893872976 -0.4824240208 0.6479889154
-0.013588334 -0.047559168 1.5500001 -0.4099811316 0.7766848803 0.4782008529
0.14122398 0.02879324 1.5640001 -0.4022103846 0.5242361426 0.7506019473
0.25194085 -0.10171525 1.7850001 -0.2346520722 0.8311157823 0.5041675568
0.025783818 -0.061484493 1.6159999 -0.2990867198 0.8422757387 0.4484626055
-0.052315082 -0.43496251 1.705 -0.6146498322 -0.2442932129 0.7500175834
-0.10853834 -0.15909046 1.6960001 -0.2373369336 0.9021353126 0.3603096306
-0.13568257 -0.27746326 1.7390002 -0.1279998273 -0.7134410143 0.6889252663
0.05582672 -0.37564754 3.2380002 -0.3667535782 0.7598219514 0.5368075967
0.17219311 -0.34601068 1.853 -0.3446647823 -0.1685486883 0.9234703779
-0.05438577 -0.11214057 1.647 -0.3701828718 0.8465864658 0.3824342489
0.16643079 -0.10450305 1.766 -0.1415357441 0.8743435144 0.464210093
0.025916897 -0.12196186 1.7390001 -0.3274770379 0.8608361483 0.3895124197
0.16454792 -0.30582234 1.863 -0.3912952542 -0.3655230105 0.8445596099
0.23508306 -0.4671492 1.8529999 -0.5198734403 -0.0479985252 0.8528937697
-0.18492845 -0.31551057 1.7220001 0.5073803663 -0.5813090801 0.6361170411
-0.036560506 -0.44153842 3.2080002 -0.3866438568 0.7045910358 0.5950277448
0.22368051 -0.35461542 1.8940001 -0.4845871329 -0.2400143892 0.8411708474
-0.049401045 -0.028038429 1.5230001 0.3241509795 0.5219832659 0.7889610529
0.17483398 -0.40591049 1.8329999 -0.4530998766 -0.3735950589 0.8093993068
0.025698256 -0.096600249 1.6848001 -0.3610767126 0.8258526325 0.4331178069
-0.0062909597 -0.3349936 1.794 -0.685585618 -0.2767812312 0.6733234525
0.016943337 -0.46517161 1.7570001 -0.6537865996 -0.1955041587 0.7309864759
-0.16583933 -0.24388136 1.7570001 0.3686377704 -0.1616642028 0.9154074788
0.094291635 -0.14862919 1.8230001 -0.09378235787 0.872096777 0.4802625179
0.0164112 -0.32275361 3.1200001 -0.3114682436 0.801422298 0.510597527
0.18515883 -0.14508955 1.8430001 -0.3197495341 0.8001391888 0.5074815154
0.043623812 -0.29567248 1.8430002 -0.2945687473 -0.2809930742 0.913384974
0.12756597 -0.047381643 1.6630001 -0.231295988 0.8143199682 0.5323393345
0.18367861 -0.083722539 1.7363334 -0.3274306953 0.8218156099 0.4662705362
0.10114454 -0.092086822 1.7220001 -0.1597668529 0.8483031988 0.5048328638
0.070418246 -0.45693618 1.7850001 -0.6504141688 -0.1177625433 0.7503955364
-0.055218894 -0.27506235 1.7659999 -0.4482444227 -0.55089885 0.703979671
0.21656735 -0.29435253 1.9150001 -0.6090965867 -0.4960155785 0.618845582
0.31261232 -0.064361356 1.748 -0.2736800909 0.8055913448 0.525472939
0.11758555 -0.018417014 1.6160001 -0.3303344846 0.8041900396 0.494122982
-0.075442865 -0.49623826 1.6710002 -0.5000112653 -0.05945218727 0.8639757633
-0.11877956 0.13554846 1.5940002 -0.7043731213 -0.2931761742 0.6464567184
0.11544999 -0.45389238 1.804 -0.1277107596 -0.127296865 0.9836083651
-0.010782124 -0.39431766 1.7570001 -0.7632498145 -0.2386718094 0.6004043818
-0.036097623 -0.12392659 1.6857144 -0.31268543 0.8433215022 0.4370774627
0.26307014 -0.35132593 1.9360001 -0.6635155082 -0.3467844129 0.662938714
0.18532364 -0.46760049 1.8130001 -0.4405867159 -0.2097725272 0.8728566766
-0.15088573 -0.48195538 1.6710001 0.2906840146 0.05020341277 0.9555011392
0.24473378 0.035771504 1.6160001 -0.4804766774 0.3137360215 0.8189700246
-0.13445216 -0.18155459 1.733 -0.07290706784 0.8950546384 0.4399566054
-0.023938259 -0.46431595 1.7220001 -0.7164390683 -0.1703216881 0.6765394211
-0.1645328 0.27755967 1.6320001 -0.1079442799 -0.07065517455 0.9916430116
-0.01730014 -0.28466594 1.794 -0.6637362838 -0.3188745975 0.6765893698
0.17740928 -0.0071536 1.6320001 -0.3077861667 0.7873263359 0.5342142582
