# .PCD v0.7 - Point Cloud Data file format
VERSION 0.7
FIELDS x y z normal_x normal_y normal_z
SIZE 4 4 4 4 4 4
TYPE F F F F F F
COUNT 1 1 1 1 1 1
WIDTH 206
HEIGHT 1
VIEWPOINT 0 0 0 1 0 0 0
POINTS 206
DATA ascii
0.034728359 0.036446456 1.6369002 -0.08025426418 0.8737054467 0.4797896147
-0.25898135 -0.30606887 2.9840002 0.5569227934 0.8012678623 0.2186478078
0.47654635 0.094082117 2.3330002 0.005067980383 0.819448173 0.5731309056
-0.37984127 0.12390544 2.3170002 -0.4010342658 0.851182282 0.3386152387
0.47134334 -0.48246649 1.5860001 0.345836401 0.03692552447 0.9375679493
-0.0049812198 -0.45329103 1.8940001 0.7728478909 0.416644305 0.4786581695
-0.30541405 0.36461857 1.863 0.04840040579 -0.3650039136 0.929747045
0.31197935 0.38422722 1.8730001 -0.01587406546 -0.9348057508 0.3548044264
-0.28381088 -0.25169918 1.6160001 0.4038668871 -0.439638108 0.8022530079
0.39618319 -0.1045688 1.6800001 0.1711019725 -0.5281487107 0.8317349553
0.0027205474 0.49451178 1.6710002 0.2097093165 0.04641867802 -0.9766613245
-0.49795368 -0.21409602 2.7440002 0.8180781007 0.4483559728 0.3601737618
0.20735796 0.25681949 2.1700001 -0.2368215322 0.8855634332 0.3996160328
0.2228196 -0.022574916 1.3760002 0.2183650881 -0.2502397299 -0.9432373643
0.093694374 -0.14445536 1.8940001 0.5219585896 0.1083830893 0.8460569382
0.20596312 -0.35555881 1.6879998 0.5341367722 -0.322509408 0.7814637423
-0.16509737 0.26155877 2.1160002 -0.2796683609 0.9576581717 0.06838421524
-0.27528912 0.054498859 1.5940001 0.5088602901 0.1961137354 0.8382127285
0.01469907 0.25968358 1.863 -0.2093049586 -0.9292920232 -0.304315269
-0.17240965 -0.17897764 1.8730001 0.1310880929 0.9120408297 0.3885838389
0.080856718 0.2053504 1.4640001 -0.216436103 -0.5369654298 0.8153671026
-0.49185383 -0.023626167 2.45 0.8456294537 0.3561674356 0.3975620568
0.25248966 0.045137815 1.6090001 -0.02300130948 0.7024119496 0.7113988996
-0.11988329 -0.3323347 1.7310001 -0.1401770562 0.7159632444 0.6839203835
-0.11476071 0.15444741 1.5089999 0.557254076 -0.2911939025 0.7776078582
-0.13665743 -0.046982698 1.7130002 -0.1104939133 0.7931616902 0.5989037156
0.35765845 -0.47533759 1.7570002 -0.1913854778 -0.05844995007 0.9797730446
0.40189469 -0.30613637 1.6550001 0.2157684416 -0.03877514973 0.9756743908
0.2353254 -0.17494583 1.7660002 0.670473218 -0.09040483832 0.7364051938
0.089184612 -0.49470782 1.7390001 0.3729320765 0.07763087749 0.9246053696
0.10261396 -0.31564698 1.8330001 0.6414002776 0.1007783264 0.7605586648
0.3122783 -0.11726907 1.503 0.1869859099 -0.8446590304 -0.5015848875
-0.16584168 0.24465752 1.8730001 -0.1026742682 0.5203317404 0.84776932
0.15324134 -0.019921374 1.748 -0.07858652622 0.82136482 0.564963758
0.18356435 0.27453429 1.853 -0.0928639397 -0.1403500289 0.9857373834
0.28435561 0.330854 2.0400002 -0.4510541558 0.8473067284 0.28039518
-0.30143452 -0.074237593 1.705 0.311404705 0.7539168 0.5784778595
-0.075980701 -0.30561125 1.9260001 0.7270252705 0.3331562877 0.6003675461
0.0049812198 0.4217433 1.8940001 0.9166485667 -0.2232062221 0.3315635026
-0.023976659 0.34508181 1.7310002 0.2341412455 -0.6669431329 -0.7073646784
0.0039121248 -0.06494128 1.7850001 -0.2649139464 0.7696589828 0.5809006691
-0.12576661 0.034935165 1.594 -0.2107176781 0.8752069473 0.4354432523
0.134656 0.084833279 1.536 -0.07235237211 0.869653821 0.4883311987
0.38309896 0.14734575 2.2410002 0.005067980383 0.819448173 0.5731309056
0.30805454 -0.0075875497 1.7310001 -0.4009315073 0.6457530856 0.6498129964
0.27866691 -0.23390692 1.6470001 0.6512381434 -0.4191955328 0.6325851679
0.22493339 -0.48458803 1.7220001 -0.4383859932 0.7166565061 0.5424215794
-0.041729335 -0.17860155 1.904 -0.3508481085 0.7586045265 0.5490216017
0.005340653 0.10102735 1.5230001 -0.1257851571 0.8796041608 0.4587751329
-0.34491748 0.14066467 2.1980002 -0.4794240594 0.8352117538 0.2693953514
0.32365304 -0.40092158 1.6630001 -0.2599629164 0.7022813559 0.6627368927
0.1954993 -0.085631922 1.8430002 0.3799974024 0.2948819101 0.8767249584
-0.20590971 -0.13159643 1.7660002 -0.1826693863 0.7981573939 0.5740876794
-0.083560362 -0.37762854 1.8330001 -0.4259382486 0.7887000442 0.443315804
-0.21810853 0.30397803 1.9590001 -0.5486364365 -0.7767608762 0.309258163
-0.095363803 -0.11602596 1.8130001 -0.4079544842 0.6557760835 0.6352407932
0.10671663 -0.37960631 1.7390001 0.591673851 -0.3475199342 0.7274283171
0.17210807 0.064069428 1.4330001 -0.1614873856 0.6743990779 -0.7204912901
0.14372686 -0.21502267 1.813 0.2714371681 -0.05236414075 0.9610306025
0.21894224 0.33774811 1.9360001 0.5882522464 -0.7021178007 0.4012354016
0.14438701 0.038984489 1.6470001 0.04151538759 0.9151105881 0.4010599852
-0.21404694 -0.30683333 1.6800002 -0.2446344644 0.7405864 0.6258479953
0.47130981 -0.37418467 1.6010001 0.1931404471 -0.5878332257 0.7855882049
0.37540621 -0.49524739 1.6470002 0.7198434472 -0.5152079463 0.4651732743
-0.22484994 -0.02480831 1.6470001 -0.1820723265 0.729077518 0.6597693563
0.014367471 -0.26477194 1.8730001 0.3707220852 -0.2824676037 0.8847469687
-0.26784971 0.26784971 1.863 0.1215529144 -0.1913785636 0.9739605188
0.27814442 0.30675355 1.8130001 0.1243858263 0.2562146783 0.9585834146
-0.19478834 0.094688766 1.5429999 0.5309914947 0.09008912742 0.8425745964
-0.0458485 -0.004438661 1.687111 -0.1637666821 0.7853400707 0.5970103741
0.38484678 -0.20457456 1.655 0.06657219678 0.1687199622 0.9834132791
0.039537668 -0.42226228 1.8040001 0.9722905755 -0.1230963022 0.1987418979
0.29885215 -0.13827488 1.6960001 0.582054913 -0.09949985147 0.8070389628
0.20650907 -0.26739416 1.7363335 0.633009553 -0.7198340297 0.2848470807
-0.022012223 0.1838668 1.4770001 0.3343803287 -0.6881037951 0.6439743042
-0.30337226 -0.26258272 2.9080002 0.8164865971 0.4503431916 0.3613041341
0.055855941 -0.01056734 1.7220001 -0.01778357849 0.8468886614 0.5314728618
-0.095517218 -0.22750464 1.9810001 0.2897163332 0.6728443503 0.6806944609
0.10558135 -0.073339298 1.813 -0.1036522314 0.8595371842 0.5004518628
-0.043736897 0.40821105 1.6630001 -0.3259821832 -0.3884304762 -0.8618917465
0.23942205 -0.084874481 1.4450001 0.1351884454 -0.738483429 -0.6605802774
0.39383021 -0.04137516 1.748 -0.2048095167 -0.908944428 0.3631433845
-0.46234962 -0.00621995 2.365 0.8311991096 0.1878967583 0.5232617855
0.1923845 0.29865402 2.0900002 -0.5469019413 0.8030512333 0.2366580665
0.31463915 -0.31463915 1.6240003 0.5455472469 0.1969948858 0.8145987988
0.00476819 0.46251443 1.8130001 0.9978231788 0.02577819303 -0.0606989488
-0.07454665 0.26239103 1.8730001 0.2901633084 -0.381180644 0.877785027
0.00326646 -0.35277766 1.863 0.2227012962 -0.1860565543 0.9569676518
0.0032489267 -0.12183475 1.853 -0.4175078869 0.7519828081 0.5101068616
-0.31179789 -0.015805423 1.6390001 0.2960293889 0.506968379 0.8095366955
-0.036150225 0.058396518 1.5860001 -0.2256629467 0.8953994513 0.38384372
0.4033494 -0.41511446 1.6362002 0.8612712026 -0.01452896558 0.5079378486
0.14502171 0.14502171 1.4769999 -0.3078178465 0.4651764333 0.8299753666
0.045239504 -0.49682674 1.8430001 0.8984976411 0.168220982 0.4054672718
-0.023591101 0.28781143 1.794 -0.08537260443 -0.8784637451 -0.4701201618
0.34095758 -0.047879148 1.6550001 -0.1050974205 -0.3969869912 0.9117871523
-0.17213351 -0.36461005 1.7850001 -0.4362680912 0.7412149906 0.5101671219
0.15467818 -0.4445121 1.7129999 -0.1353396773 0.09853759408 0.9858871698
-0.2082136 -0.23336691 1.5940001 -0.01138702314 0.5905262232 0.8069381118
0.034782276 -0.19214675 1.9260002 0.5171413422 -0.4282736778 0.7410442233
-0.095170058 0.079084978 1.5289999 -0.08239732683 0.7593617439 0.6454303861
0.24537243 -0.42335898 1.6710002 0.2273987085 0.3608974218 0.9044572115
-0.21494026 -0.078622088 1.7050002 -0.1892610937 0.7892208099 0.5842180252
-0.06665998 -0.063595146 1.748 -0.1441307217 0.7913660407 0.5941095352
0.065288998 0.083432995 1.5749999 0.03492080793 0.8901547194 0.454318285
0.1846879 -0.28323048 1.8130001 0.4851933122 -0.5296235085 0.6957631707
0.065173447 0.12617464 1.4770001 0.1078053415 0.7251482606 0.6801015139
0.076349773 -0.21605362 1.853 0.6142968535 -0.3424228728 0.7109050155
0.10825168 0.26335856 1.8430001 0.2628261149 -0.1495822072 0.9531776309
0.3047004 0.030615829 1.6630001 0.591796279 0.5048942566 0.6283780932
0.14619222 -0.31475773 1.7479999 0.5062584877 -0.6247733831 0.5944414139
0.24359499 -0.097542316 1.7850002 0.6227923632 -0.354863137 0.6972817779
0.2943759 -0.4533892 1.7220001 -0.07376239449 0.5744537711 0.8152067065
-0.20569828 0.025991764 1.594 0.007389997598 0.7287052274 0.6847875714
0.28229895 -0.21285641 1.7220001 0.6805897951 -0.6341636181 0.3669251502
-0.14847374 -0.002418139 1.6550001 -0.421464622 0.798208952 0.4303835928
0.24463998 -0.29444689 1.6710002 0.6733555794 -0.05360277742 0.737373054
0.18405214 -0.15353572 1.8130001 0.4646672606 -0.2820360363 0.8393688202
-0.14502609 -0.29444692 1.6710001 0.01711008511 0.9184045792 0.3952723444
0.37218446 -0.42748898 1.705 0.6932663918 0.532202065 0.4859451056
-0.097177185 -0.17230576 1.863 -0.2413108051 0.8132619262 0.5295036435
-0.14165969 -0.09521389 1.766 -0.4355878532 0.5636602044 0.7018193007
0.15626408 -0.0024993767 1.426 -0.3555974662 0.3350437284 -0.8725228906
0.22957008 0.20717299 2.1290002 -0.2368215322 0.8855634332 0.3996160328
-0.054646466 0.124901 1.484125 0.1532399952 0.4028095305 0.9023646712
-0.04812111 -0.24398246 1.9260001 0.5702341199 -0.5484755039 0.611561656
0.34435463 -0.25539228 1.6366668 -0.663833499 -0.5362574458 0.5212994218
-0.15340614 -0.15024313 1.8040001 -0.3947819769 0.6651703119 0.6337946057
0.26615337 -0.35519204 1.6470002 0.6028663516 0.03770929575 0.7969505191
0.072346039 -0.36487567 1.794 0.6927882433 -0.6892640591 0.2120366246
0.4628318 -0.33225229 1.6550001 -0.5341971517 -0.5777467489 0.6171240211
0.36483359 -0.3572031 1.6320001 -0.4052310288 0.5699483156 0.7148053646
-0.21269512 -0.34639031 1.733 -0.02598823048 0.7438380718 0.6678544283
0.18565901 -0.061610673 1.4150001 -0.04990492389 -0.7380021811 -0.672950387
0.13807938 -0.11533689 1.853 0.4788835049 0.08392531425 0.8738576174
0.11299883 0.0074341334 1.6960001 0.07604987919 0.7466233373 0.6608858109
-0.21050783 0.27639198 1.8330001 0.3748421073 0.8387435675 0.3949716687
-0.074057795 0.026052028 1.6380001 -0.08959706873 0.8785998821 0.4690784812
0.19344702 -0.039318498 1.794 -0.3348130584 0.8376913071 0.4314782917
0.06567473 -0.10419772 1.8529999 -0.09773555398 0.835360229 0.5409445763
-0.040546712 0.47404611 1.7129999 -0.5749732852 0.7251710296 -0.3788570464
-0.041049916 -0.29391742 1.8730001 0.5300266743 -0.1727835685 0.8301912546
0.41429862 -0.25341979 1.6240001 0.793536067 0.191776067 0.5775140524
0.20186563 -0.22377355 1.7850002 0.6018180251 0.06781567633 0.7957487702
0.12530079 0.064746507 1.5940002 0.1965340972 0.9339627624 0.2984760404
-0.079404958 -0.34408817 1.7760001 -0.39616552 0.7481917143 0.5322237015
0.32622522 -0.20251 1.6800001 0.3750496507 -0.4075264931 0.8326222897
-0.004176659 -0.017094782 1.7330002 -0.2394699007 0.783328414 0.5736294389
0.29904151 -0.071872637 1.4640001 0.5426667333 -0.4521631896 -0.7078568339
0.32887888 -0.061570931 1.7130001 0.8941535354 -0.0007368904189 0.4477598667
0.078153081 -0.43214056 1.748 0.6974189878 0.01067233738 0.7165842056
0.41223681 -0.47487298 1.603909 0.7492136955 -0.1419289708 0.6469427943
0.085150629 -0.041801218 1.7660002 0.04155290499 0.7854491472 0.6175297499
-0.096242219 -0.20430367 1.9260001 -0.1498721093 0.9126383662 0.3803019822
0.048510354 -0.48353863 1.7850002 0.9423920512 0.1681345999 0.289185077
0.2731781 0.36316615 1.8330001 0.5425908566 -0.6347411275 0.5501807928
-0.035496522 -0.10331079 1.8130001 -0.214167133 0.7837970853 0.5829190612
0.22619754 0.31344515 1.8430001 -0.05956855044 0.7822160125 0.6201529503
0.060105141 -0.36225533 1.853 0.3950725198 -0.2884983718 0.8721733689
-0.23188815 -0.27431354 1.6348002 0.09310016036 0.7054552436 0.7026131153
0.27225876 -0.13383077 1.748 0.8261376023 -0.14870134 0.5434929729
-0.14948657 0.10715409 1.5090001 0.3259252906 -0.003305895254 0.9453897476
0.16152933 -0.37287614 1.7220001 0.5329614282 -0.2295648754 0.8144028783
0.47364458 -0.43269548 1.557 0.9364565611 -0.1820391268 0.2998514771
0.0048733898 -0.41423818 1.853 0.1164109781 0.2173740417 0.9691217542
0.0034458844 0.38462988 1.6853333 0.131633386 -0.6565442085 -0.7427128553
0.10494605 -0.25517341 1.8230001 0.653470993 -0.4289019406 0.6237137318
-0.31135547 0.30269167 1.853 0.5161194801 0.07639326155 0.853102982
0.0051720594 0.13445859 1.4748124 0.1040903628 0.572314322 0.8134012222
0.11633015 -0.17611094 1.8430001 0.5522773862 -0.3291253746 0.7659413815
0.19976954 0.02328602 1.3980001 -0.0443892628 0.7212384939 -0.69126302
0.41999349 -0.35450295 1.6240001 0.3327204585 -0.4585576057 0.8240278959
0.0029157933 0.43882689 1.6630001 0.7609611154 -0.06394123286 -0.6456389427
-0.16516137 0.047773946 1.557 -0.01501618885 0.6663627625 0.7454764843
-0.26527584 0.0038959063 1.6160001 0.1917670816 0.5546489358 0.809685111
0.24447678 -0.24490158 1.6960001 0.6907386184 -0.5197933316 0.5026878119
0.16454858 -0.49817458 1.7220001 0.2900652587 0.3739162385 0.8809363246
0.035649981 0.17570736 1.4523748 0.2995209694 -0.1128269136 0.9473949671
0.25577328 0.0061526219 1.6710001 -0.1240916178 0.7685565352 0.6276322007
-0.050901897 -0.3546713 1.8730001 0.6351186633 -0.1181262508 0.7633285522
-0.050358362 -0.13807938 1.853 -0.243786782 0.7177732587 0.6522036195
0.19522491 -0.024027679 1.7130001 0.3079355061 0.8660894036 0.3937827945
-0.01588257 0.018770309 1.6470001 -0.113496989 0.8154969811 0.5675236583
0.19774795 -0.41482463 1.6960001 0.6286036372 0.01499916706 0.7775811553
-0.26441625 -0.053469211 1.6710001 -0.1565830708 0.7989490032 0.5806567073
0.053607289 -0.30377463 1.853 0.311281532 -0.178552255 0.93339324
0.038189352 -0.12785131 1.8940001 -0.1618972868 0.6947610974 0.7007826567
0.085602127 0.031919435 1.6550001 0.1237615645 0.8464950919 0.5178118944
0.37468031 -0.037170667 1.6960001 -0.4892299175 -0.7314261794 0.4750472009
0.26225778 -0.047494877 1.4133334 0.3054527342 -0.5506615639 -0.7768336535
-0.18551016 -0.035690378 1.6821334 -0.4027698636 0.5881012678 0.7013653517
0.44351968 -0.42597538 1.6010001 0.413813591 -0.1051517799 0.9042684436
0.073433988 0.10013726 1.5230001 0.1363108754 0.9099780917 0.3916110992
0.016070178 0.06637682 1.5940001 -0.07044699043 0.8386035562 0.5401678681
0.025677215 0.011507478 1.6832001 -0.235490799 0.8242173791 0.5149852633
0.010782124 0.31422189 1.7570001 -0.03870623931 -0.7693437934 -0.6376613379
0.34940425 -0.15314315 1.6960001 0.1917904168 -0.5720125437 0.7975074649
-0.10494226 -0.014785861 1.686 -0.1003322229 0.7609419227 0.64101547
-0.04174336 0.082140163 1.536 -0.1278524697 0.8809173107 0.4556735754
-0.26116425 -0.10265416 1.7220001 0.01606068015 0.7709959149 0.6366375685
0.092475183 0.15834792 1.4450001 -0.246310249 0.3127873838 0.9173305035
0.36773309 -0.30418426 1.6160001 -0.6405080557 -0.2994244099 0.7071735859
0.16878639 0.11828338 1.516 -0.2017355561 0.7163092494 0.6679849029
0.18711555 -0.31446227 1.7130001 0.6618451476 -0.1343999952 0.7374941707
0.3245683 -0.49515536 1.7220001 -0.22866714 -0.5064356923 0.831404984
0.054900877 -0.073427089 1.804 -0.04098258913 0.7981133461 0.6011118889
