# .PCD v0.7 - Point Cloud Data file format
VERSION 0.7
FIELDS x y z
SIZE 4 4 4
TYPE F F F
COUNT 1 1 1
WIDTH 1452
HEIGHT 1
VIEWPOINT 0 0 0 1 0 0 0
POINTS 1452
DATA ascii
-0.18141565 0.090707824 0.96700007
-0.17887244 0.090707824 0.96700007
-0.28293541 -0.17061862 0.97800004
-0.2733483 -0.17155395 0.97800004
-0.26453051 -0.17423801 0.97625017
-0.25561947 -0.17353523 0.97688901
-0.24456088 -0.17173132 0.97735703
-0.23449042 -0.17398489 0.97671437
-0.2251313 -0.17375875 0.97673094
-0.21399014 -0.17401099 0.97687519
-0.20509131 -0.17363194 0.97565234
-0.19744726 -0.17107211 0.97499996
-0.15004151 -0.17233337 0.97800004
-0.14510235 -0.17099996 0.97650003
-0.13573429 -0.17077906 0.97500002
-0.30159786 -0.16246416 0.97366667
-0.29575816 -0.16380247 0.97610545
-0.2849198 -0.16448502 0.97550011
-0.27509707 -0.16489165 0.97453326
-0.26432657 -0.16501859 0.97340614
-0.25479439 -0.16500548 0.97414297
-0.24538037 -0.16483009 0.97453582
-0.23490605 -0.16473714 0.97232229
-0.22530335 -0.16508536 0.97293937
-0.21510397 -0.16486928 0.97537524
-0.20483468 -0.16514991 0.97500026
-0.19499829 -0.16461477 0.97435719
-0.18790737 -0.16264884 0.9734
-0.14351296 -0.16543877 0.9735263
-0.13509463 -0.16502374 0.97533357
-0.12640426 -0.16428491 0.97755003
-0.30321908 -0.15508738 0.97157675
-0.29516059 -0.15519328 0.97391176
-0.28596422 -0.15596585 0.97169554
-0.27524596 -0.15615231 0.97035986
-0.26479083 -0.15496129 0.97121418
-0.25511536 -0.15528879 0.97326648
-0.24578273 -0.15547967 0.97178096
-0.23463035 -0.15639661 0.96999997
-0.22462276 -0.15506148 0.97108555
-0.21528663 -0.15548664 0.97450012
-0.20524274 -0.15558158 0.97363627
-0.1967314 -0.15615839 0.97099996
-0.18793102 -0.15901856 0.97000003
-0.13381882 -0.15563196 0.97227561
-0.12495071 -0.15508702 0.9744243
-0.11780151 -0.15265718 0.97766674
-0.31463566 -0.14753862 0.97000003
-0.29507723 -0.14881417 0.97000009
-0.28912467 -0.14881417 0.97000003
-0.27126697 -0.14711344 0.97000003
-0.26429886 -0.145317 0.97072703
-0.25499284 -0.14454168 0.97056222
-0.24776593 -0.14634037 0.97000021
-0.22363421 -0.14540397 0.97080761
-0.21485066 -0.14498101 0.97197115
-0.20656085 -0.1461148 0.97112513
-0.13340178 -0.1445756 0.97199976
-0.12456605 -0.14504164 0.97322202
-0.11570838 -0.14445935 0.97650009
-0.32299986 -0.1341809 0.97123539
-0.31854734 -0.13656889 0.97000009
-0.2576611 -0.13860977 0.97000003
-0.22137879 -0.13577521 0.97000009
-0.21650334 -0.13826962 0.97000009
-0.14158957 -0.13250846 0.97100002
-0.13475454 -0.13475618 0.97377145
-0.12489986 -0.13516302 0.97583359
-0.1148769 -0.13630912 0.97790027
-0.10802988 -0.13460867 0.9780001
-0.33336991 -0.12530209 0.97042859
-0.32313931 -0.12840536 0.97000003
-0.22279607 -0.12670463 0.97000003
-0.14410602 -0.12474372 0.97348273
-0.13632603 -0.12719351 0.97666669
-0.12534896 -0.12946437 0.97800004
-0.10631512 -0.12946437 0.97800004
-0.35538399 -0.11188809 0.97800004
-0.34184742 -0.11905134 0.97000003
-0.14392048 -0.11550771 0.97447383
-0.35360277 -0.10561846 0.97244453
-0.34865034 -0.1096973 0.97000003
-0.14231831 -0.10648782 0.9731819
-0.37464437 -0.073855028 0.97286671
-0.36922923 -0.071941018 0.97000009
-0.37457946 -0.065259941 0.97560877
-0.36587253 -0.064467616 0.97119987
-0.35885471 -0.062076766 0.97000003
-0.3733412 -0.057700008 0.97750002
-0.36464921 -0.055354435 0.97433335
-0.35613772 -0.053549539 0.97095644
-0.34950069 -0.050171632 0.97000003
-0.11427262 -0.05245769 0.97033352
-0.1096973 -0.050171632 0.97000003
-0.36129993 -0.045441139 0.97800004
-0.35505274 -0.044294123 0.97439289
-0.34749076 -0.044760205 0.97000021
-0.35520566 -0.036344681 0.97543752
-0.34711966 -0.038266499 0.97000009
-0.10450948 -0.034315631 0.97339135
-0.10663906 -0.025595013 0.9731667
-0.37278172 -0.01358411 0.97427267
-0.36681718 -0.01338375 0.97081828
-0.10711898 -0.01551731 0.97388244
-0.37224692 -0.0089952573 0.97724998
-0.36491013 -0.0054289172 0.97377276
-0.35786262 -0.0038266501 0.97000021
-0.11270864 -0.0039819661 0.97399998
-0.10920878 -0.0085315006 0.97325003
-0.36315739 0.0019996767 0.977
-0.35471076 0.0042794142 0.97515398
-0.34593508 0.0063234405 0.97385007
-0.33785659 0.0085108988 0.97075003
-0.12093748 0.0093684979 0.97150004
-0.11736156 0.0050344528 0.97483325
-0.3438026 0.015073669 0.97700006
-0.33658302 0.015264813 0.97100013
-0.13108253 0.018241154 0.97220004
-0.12401008 0.016001834 0.97382605
-0.11825752 0.012855002 0.97750014
-0.35157034 0.028197458 0.97479999
-0.345911 0.02526537 0.97306263
-0.33929631 0.021259166 0.97000003
-0.1324061 0.023796866 0.97442859
-0.128607 0.021434499 0.97800004
-0.35265294 0.034396626 0.97590005
-0.34620225 0.035592772 0.97237509
-0.33929631 0.039967231 0.97000003
-0.13328984 0.037097342 0.97181815
-0.12880249 0.038384851 0.97300005
-0.34417394 0.042809039 0.97660005
-0.33610618 0.046454933 0.97224998
-0.32569045 0.048470899 0.97000003
-0.13409959 0.044580728 0.97389281
-0.12882316 0.04441344 0.97685724
-0.33352387 0.0520702 0.97633338
-0.32454666 0.054011289 0.97423077
-0.31558785 0.056006689 0.97280937
-0.30811617 0.058108389 0.97000003
-0.1505149 0.057824932 0.97000003
-0.14369215 0.055961739 0.97249991
-0.13725869 0.05389018 0.97568434
-0.31472719 0.061446331 0.97687507
-0.30431923 0.063362315 0.97400016
-0.29527432 0.066363297 0.97242105
-0.28584298 0.068321809 0.97112507
-0.27977064 0.068879701 0.97000003
-0.16300274 0.066396646 0.97192311
-0.15539545 0.064705729 0.97378808
-0.14626546 0.062076893 0.97571427
-0.29408133 0.071162537 0.97800004
-0.28533447 0.071118876 0.97740012
-0.27950326 0.07094425 0.97500002
-0.26363739 0.077542558 0.97375005
-0.25544026 0.077767856 0.97125012
-0.24915743 0.079084098 0.97000003
-0.16229513 0.075138271 0.97285002
-0.15879808 0.071908146 0.97650003
-0.26235828 0.081451103 0.97800004
-0.25499809 0.083491147 0.97588223
-0.2454862 0.084658533 0.97379988
-0.23561038 0.085611992 0.97394753
-0.22504368 0.087184265 0.97236353
-0.21468878 0.087347686 0.97271413
-0.20496915 0.087961495 0.97300011
-0.19558281 0.088046327 0.97253317
-0.1887814 0.088438138 0.97000003
-0.17177406 0.089288503 0.97000003
-0.16373414 0.085746631 0.97204763
-0.23377895 0.09059649 0.9780001
-0.22424759 0.092312343 0.9772501
-0.21521169 0.092235297 0.97663635
-0.20432997 0.092312343 0.9772501
-0.19607292 0.092186183 0.97666675
-0.18381111 0.094412431 0.97521436
-0.17482994 0.094317384 0.97392303
-0.16720693 0.092684224 0.97588891
-0.27312401 -0.19228484 0.98799998
-0.26549914 -0.19295999 0.98820013
-0.25433347 -0.19263384 0.98807704
-0.24523467 -0.1925199 0.9871819
-0.23420677 -0.19107476 0.98400009
-0.22738849 -0.19121283 0.98250008
-0.28272828 -0.18086182 0.98475003
-0.27458864 -0.18509635 0.98496407
-0.26491776 -0.18515328 0.98304003
-0.25485605 -0.18567167 0.98317224
-0.24494457 -0.1851899 0.98441362
-0.2350433 -0.18510759 0.98208028
-0.22566187 -0.1850424 0.98250014
-0.21661556 -0.18517853 0.98474985
-0.20898242 -0.18146211 0.98100007
-0.29351452 -0.17425136 0.98300004
-0.28556526 -0.1748901 0.98140931
-0.27535957 -0.17653657 0.98100019
-0.2653991 -0.17974208 0.98100007
-0.25323385 -0.17817843 0.98100001
-0.24521036 -0.17716205 0.98100001
-0.23753473 -0.17853808 0.98100007
-0.22446258 -0.17916876 0.98100007
-0.21689454 -0.17905408 0.98100007
-0.15242164 -0.17777748 0.98600006
-0.14643934 -0.17654307 0.98507166
-0.29498345 -0.16856197 0.98100007
-0.28867668 -0.16884863 0.98100013
-0.12240808 -0.16521747 0.98100007
-0.1150924 -0.16394758 0.98400003
-0.10869265 -0.16131368 0.98400003
-0.11426009 -0.15576676 0.98219997
-0.1079915 -0.15637572 0.98550016
-0.11524134 -0.13158153 0.98100001
-0.10922127 -0.13158153 0.98100007
-0.14018163 -0.12126141 0.98100007
-0.13401575 -0.12357465 0.98231262
-0.12529509 -0.12523066 0.98228592
-0.11521281 -0.12515533 0.98463178
-0.10745154 -0.12464626 0.98534781
-0.35862416 -0.11266131 0.98100007
-0.14104164 -0.11524134 0.98100001
-0.13446595 -0.11570635 0.98585284
-0.12477391 -0.11570776 0.98717636
-0.11441957 -0.11512297 0.98831254
-0.10732266 -0.11425767 0.98886681
-0.14018163 -0.10836126 0.98100007
-0.13770863 -0.10639375 0.98670006
-0.11271303 -0.10837792 0.98900002
-0.10837792 -0.10837792 0.98900002
-0.37374091 -0.053125508 0.98343766
-0.36808428 -0.051600598 0.98100007
-0.37323973 -0.046285722 0.98873347
-0.36662814 -0.044575427 0.98487514
-0.3638365 -0.036253344 0.98462498
-0.1032012 -0.030100349 0.98100007
-0.098340958 -0.030192399 0.98400003
-0.10216524 -0.025021031 0.98430014
-0.098800331 -0.025132457 0.98860008
-0.38042423 -0.01121432 0.98400003
-0.37869105 -0.01290015 0.98100013
-0.10233781 -0.015060131 0.9857145
-0.099129662 -0.016473444 0.98900002
-0.38087717 -0.0077818781 0.98666668
-0.37523451 -0.0050496003 0.98428583
-0.36894429 -0.00086000998 0.98100007
-0.11266131 -0.00086000998 0.98100007
-0.10593145 -0.0057927938 0.98645008
-0.37195301 0.00086702331 0.98900002
-0.36463264 0.0068388092 0.98400009
-0.35656014 0.0091161067 0.98100007
-0.11270855 0.0055809184 0.98446673
-0.10988929 0.00086526998 0.98700005
-0.36303791 0.011841722 0.9883334
-0.35401708 0.014590786 0.98348027
-0.34830403 0.0172002 0.98100007
-0.12298143 0.01978023 0.98100013
-0.11515478 0.015344347 0.98438907
-0.35300583 0.023943346 0.98260009
-0.34830403 0.02150025 0.98100007
-0.13178097 0.026701951 0.98250008
-0.12466376 0.025509043 0.98492312
-0.1192321 0.023017233 0.98699999
-0.35604414 0.037840445 0.98100001
-0.13108841 0.032014988 0.98700005
-0.12685491 0.031714641 0.98839998
-0.35383862 0.04352165 0.98620009
-0.34657499 0.046925776 0.98390007
-0.13158153 0.04902057 0.98100007
-0.1290015 0.04902057 0.98100007
-0.34381595 0.053013351 0.98724997
-0.33543798 0.056826338 0.98323089
-0.3268038 0.059340689 0.98100007
-0.13289821 0.056134105 0.98329419
-0.12764306 0.053717755 0.98681825
-0.33196661 0.062642075 0.98783332
-0.32465988 0.063474044 0.98553848
-0.31572393 0.066104062 0.98400009
-0.30618328 0.068208389 0.98175007
-0.15222177 0.0688008 0.98100007
-0.14412658 0.066558592 0.98447073
-0.13631307 0.063692346 0.98620015
-0.31321636 0.070547298 0.98860008
-0.30530691 0.072685316 0.98809093
-0.29491979 0.075507291 0.98693347
-0.28541562 0.075883746 0.98359084
-0.27793926 0.075057693 0.98242861
-0.26746312 0.079980932 0.98100007
-0.16082187 0.076540887 0.98100007
-0.15544982 0.075096838 0.98459995
-0.1457991 0.071868584 0.98769248
-0.29131985 0.080633171 0.98900002
-0.28411824 0.081605941 0.98784626
-0.27561709 0.081981868 0.98900002
-0.26480302 0.085665338 0.98464721
-0.25638554 0.088166997 0.98185718
-0.24596286 0.088581033 0.98100007
-0.16082187 0.085140988 0.98100007
-0.1562364 0.086068787 0.98668772
-0.26071015 0.091812417 0.98800004
-0.25471455 0.09177313 0.9867273
-0.24440947 0.092612624 0.98464298
-0.23527357 0.094945826 0.98409516
-0.22575468 0.096960194 0.98488247
-0.21445616 0.096603297 0.98560011
-0.2051044 0.09699785 0.98394459
-0.19467562 0.096992381 0.9848572
-0.18690883 0.097546048 0.98250008
-0.17458205 0.098901153 0.98100013
-0.16420719 0.0966575 0.98314285
-0.15675955 0.0935646 0.98690498
-0.20201643 0.10144173 0.98900002
-0.19247918 0.10144173 0.98900002
-0.18504976 0.10265385 0.98635733
-0.17497748 0.10222398 0.98623091
-0.16453938 0.10218879 0.9878335
-0.26081273 -0.20149745 0.99500006
-0.25906816 -0.20149745 0.99500006
-0.27328855 -0.19654167 0.99200004
-0.26291177 -0.19736673 0.99249989
-0.25581062 -0.19710074 0.99281812
-0.24785119 -0.19654165 0.99200004
-0.1043584 -0.15914656 0.99200004
-0.13218731 -0.11044598 0.99200004
-0.12580986 -0.11073586 0.99200004
-0.11775106 -0.1111417 0.99199998
-0.1345935 -0.10476264 0.99587512
-0.12508893 -0.10490769 0.99518776
-0.11524572 -0.10441219 0.99500018
-0.10666303 -0.10430314 0.99484998
-0.13823631 -0.098865204 0.99800003
-0.12358151 -0.09777157 0.99800009
-0.11561354 -0.098615229 0.99800009
-0.10761434 -0.098865204 0.99799997
-0.38118044 -0.043789502 0.9962858
-0.37690204 -0.04421705 0.99290001
-0.3745338 -0.036665957 0.99585718
-0.36916783 -0.036525439 0.99200004
-0.095180765 -0.023794675 0.99478567
-0.097014375 -0.015218835 0.995
-0.38100138 -0.0026098366 0.99300003
-0.37829921 -0.0017393066 0.99200004
-0.10257433 -0.0037762125 0.99439991
-0.098766141 -0.0078645768 0.99700004
-0.38058731 0.0017498266 0.99800003
-0.37436453 0.0043594441 0.99425
-0.36960265 0.0095661869 0.99200004
-0.11066865 0.0078444136 0.99400002
-0.10710794 0.0033680911 0.99564284
-0.37096325 0.012248786 0.99800003
-0.36481056 0.015299347 0.99445456
-0.35916683 0.01826272 0.99200004
-0.36125469 0.022195447 0.99680007
-0.35742751 0.022610987 0.99200004
-0.11734183 0.024797713 0.99418181
-0.13083985 0.036638528 0.995
-0.12523665 0.03418503 0.99550003
-0.11898822 0.030621966 0.99800003
-0.36167017 0.047175627 0.99650002
-0.35631436 0.047864247 0.99266666
-0.35429579 0.052734561 0.99590003
-0.34633613 0.056449346 0.99400002
-0.12861226 0.058619194 0.99800003
-0.34237254 0.060625006 0.995
-0.33469814 0.065304473 0.9932
-0.32721534 0.067886062 0.99457151
-0.13413651 0.066572063 0.99542856
-0.12938695 0.06076907 0.99500006
-0.32336259 0.071599998 0.99599999
-0.31437084 0.074701808 0.99368739
-0.30539045 0.077765152 0.99387491
-0.29771134 0.078558683 0.99200004
-0.27605838 0.078623846 0.99650007
-0.1523201 0.078212939 0.99285716
-0.14452851 0.07619562 0.99571449
-0.13799185 0.07255619 0.99714291
-0.30330327 0.082241856 0.99800009
-0.29476115 0.083471447 0.99524999
-0.28464386 0.086429641 0.99331236
-0.27494243 0.086676687 0.99343491
-0.26872289 0.089574292 0.99200004
-0.15351892 0.084065318 0.995
-0.14698544 0.081366941 0.99800003
-0.28329697 0.090816006 0.99800003
-0.27424499 0.092247494 0.99671429
-0.26555169 0.092980824 0.99533337
-0.25392067 0.095693432 0.99533337
-0.24521823 0.096937768 0.99260008
-0.23915467 0.098270826 0.99200004
-0.15293187 0.095850937 0.9946
-0.14961018 0.098865204 0.99800003
-0.23472005 0.10059881 0.99350005
-0.22511986 0.10139813 0.99585724
-0.215416 0.10196612 0.99550003
-0.20496394 0.10190329 0.99350005
-0.19451769 0.10380398 0.99500006
-0.18473244 0.10726565 0.99474996
-0.17474328 0.10731659 0.99521434
-0.16569541 0.10636964 0.9952727
-0.15642641 0.10205803 0.99500006
-0.18325345 0.11100266 0.99700004
-0.17935723 0.111114 0.99800003
-0.13215801 -0.10161952 1.001
-0.10217112 -0.10242184 1.001
-0.13459125 -0.094902731 1.0029998
-0.12520313 -0.093810208 1.0028888
-0.11476374 -0.093780838 1.0034231
-0.1052484 -0.094770789 1.0016428
-0.099162392 -0.099162392 1.001
-0.13318942 -0.087585039 1.0046668
-0.12634616 -0.086598486 1.0063684
-0.1132931 -0.088868864 1.0070001
-0.10600194 -0.087927468 1.0055001
-0.37588108 -0.033931676 1.001
-0.092126511 -0.023756038 1.0035716
-0.088897504 -0.023764679 1.0040001
-0.095182948 -0.014962947 1.0040001
-0.10091748 -0.00087754335 1.001
-0.09785784 -0.0051991115 1.0040001
-0.38298509 0.0058425847 1.0034546
-0.37830651 0.0076141418 1.002
-0.10470257 0.0059550419 1.0036471
-0.099608183 0.0017642917 1.0055001
-0.38137105 0.014713389 1.0070001
-0.37544748 0.015507634 1.0032105
-0.36886072 0.017843381 1.001
-0.11106753 0.012342152 1.0055001
-0.10858481 0.011476443 1.0070001
-0.3744778 0.021924555 1.0065385
-0.36661276 0.023601549 1.00325
-0.11671326 0.028081387 1.001
-0.12421092 0.037028711 1.0037693
-0.11764983 0.031981383 1.0040001
-0.12840123 0.042969815 1.006143
-0.36431378 0.053682495 1.0037857
-0.35597938 0.057269402 1.0026155
-0.12800649 0.058265019 1.0070001
-0.35365435 0.060852941 1.006
-0.34513235 0.064272895 1.0043
-0.33723086 0.069741465 1.0070001
-0.13129069 0.068061545 1.00175
-0.12851942 0.065406434 1.0055001
-0.32603371 0.07569883 1.0049231
-0.14216202 0.078978896 1.001
-0.13512215 0.074755378 1.0044999
-0.12933069 0.072831273 1.0070001
-0.31158137 0.081856117 1.0040001
-0.30541751 0.085086487 1.0040001
-0.29617527 0.087593764 1.0025001
-0.1507199 0.086336024 1.0015
-0.1451083 0.084731005 1.0051053
-0.13927385 0.080215439 1.0055001
-0.29132509 0.091811545 1.0070001
-0.28516474 0.0940791 1.005
-0.2753422 0.095409065 1.0034547
-0.26507172 0.098170705 1.0052
-0.2556541 0.098835066 1.0021251
-0.24820888 0.099459589 1.0040001
-0.15023981 0.094008647 1.0022
-0.26307538 0.10152239 1.0070001
-0.25513017 0.10218449 1.0070001
-0.24517737 0.10171583 1.0060002
-0.234652 0.10434163 1.004375
-0.22444551 0.10503621 1.0040001
-0.21440864 0.10650307 1.0039999
-0.20537893 0.10649336 1.0049376
-0.19693813 0.10716308 1.0040001
-0.18428409 0.10969292 1.001
-0.17463112 0.10969292 1.001
-0.16366184 0.10837659 1.001
-0.15407434 0.10548997 1.0036668
-0.19099762 0.11002167 1.0040001
-0.18549448 0.11259323 1.006
-0.17473866 0.11262902 1.005
-0.16616186 0.11128889 1.0055001
-0.15694562 0.11131238 1.0065714
-0.11145195 -0.15363495 1.013
-0.10459831 -0.15517238 1.0134003
-0.09636797 -0.1548298 1.0143125
-0.1305453 -0.082589887 1.013
-0.12346032 -0.083231598 1.0122001
-0.11542424 -0.084417075 1.0114486
-0.10678636 -0.083312735 1.0118463
-0.12192655 -0.07633464 1.0179092
-0.11554913 -0.076465234 1.0178001
-0.10760908 -0.077804163 1.0178
-0.12059865 -0.067892574 1.0190001
-0.118812 -0.068785898 1.0190001
-0.093246646 -0.020425456 1.013
-0.093271635 -0.013678017 1.0133001
-0.094384931 -0.0055706627 1.0152107
-0.10176326 0.007799021 1.0133334
-0.098523304 0.0036990324 1.0177144
-0.38339263 0.011510633 1.01
-0.11272706 0.017122833 1.0145
-0.10647466 0.014148304 1.0163751
-0.37406501 0.026494745 1.0121429
-0.11506383 0.024150472 1.0154001
-0.12183716 0.038545936 1.0107501
-0.11670635 0.035474408 1.0130001
-0.1246997 0.045470484 1.015
-0.1188188 0.043170355 1.01525
-0.3642734 0.059382766 1.011
-0.12737179 0.055209838 1.016
-0.36349034 0.06370452 1.01625
-0.35542062 0.065295428 1.0137058
-0.34767932 0.067551024 1.0112
-0.12520191 0.064866319 1.0103531
-0.35307714 0.071278885 1.0181429
-0.343676 0.074222066 1.0177729
-0.33553806 0.07549461 1.0145884
-0.32349634 0.079096153 1.0137501
-0.13249077 0.078078069 1.0104287
-0.12759708 0.075763069 1.0107501
-0.33436197 0.083536826 1.0162307
-0.32595971 0.083024547 1.0148948
-0.31463546 0.086622551 1.0159999
-0.30489969 0.089310706 1.0120001
-0.1428915 0.088139974 1.0110002
-0.1357145 0.084235981 1.0139602
-0.31176984 0.090225659 1.0190001
-0.30453286 0.093181685 1.0181
-0.29520398 0.094719701 1.015143
-0.28609535 0.097737372 1.0135001
-0.27466142 0.098283097 1.01
-0.15037902 0.096993528 1.015
-0.14629167 0.09334407 1.01525
-0.13846512 0.090225659 1.0190001
-0.28359437 0.10266556 1.0183333
-0.27461714 0.10433727 1.0152224
-0.26503924 0.10646121 1.0137826
-0.25437671 0.10703202 1.0131502
-0.24505341 0.10662851 1.0122106
-0.23540244 0.10814822 1.0119092
-0.22534364 0.10882881 1.012
-0.21634088 0.1089083 1.01
-0.2045351 0.1089083 1.01
-0.15063655 0.10575252 1.0137501
-0.149185 0.10541216 1.0190001
-0.27067697 0.11166541 1.0190001
-0.26531702 0.11166541 1.0190001
-0.25481185 0.11235798 1.017909
-0.2448028 0.11339478 1.0173999
-0.23561785 0.11384135 1.017143
-0.224842 0.11271911 1.0177499
-0.21490498 0.11385524 1.0158422
-0.20536327 0.11376626 1.0145001
-0.19524972 0.11395513 1.0150528
-0.18485896 0.11686733 1.01375
-0.17556652 0.11729679 1.0118463
-0.16446835 0.11563343 1.0120001
-0.15471062 0.11511811 1.0134287
-0.18425342 0.12126291 1.0181429
-0.17525066 0.12095696 1.0177144
-0.1633195 0.1204803 1.018
-0.15811823 0.12059865 1.0190001
-0.11109821 -0.15141611 1.0220001
-0.10520437 -0.15073976 1.0235002
-0.094840869 -0.15195796 1.0247858
-0.10381539 -0.1487982 1.0262001
-0.12214831 -0.073169522 1.0220001
-0.11396235 -0.072141565 1.0222503
-0.10556088 -0.074158698 1.0233333
-0.1209537 -0.065404594 1.0220001
-0.11519509 -0.067793302 1.0247693
-0.10682025 -0.068992443 1.0273999
-0.090668373 -0.013467354 1.024
-0.088959746 -0.012580168 1.0250001
-0.091376811 -0.0040830262 1.0230001
-0.087867051 -0.0053956644 1.0262499
-0.095244482 0.0045917952 1.0254736
-0.089220122 0.00090121332 1.028
-0.11020226 0.01881502 1.0220001
-0.10310254 0.016506353 1.0240769
-0.099742748 0.012580168 1.0250001
-0.1119504 0.025911752 1.0238
-0.10705017 0.023322165 1.0261538
-0.1130545 0.031404391 1.0235001
-0.12193841 0.048417643 1.0227501
-0.11968648 0.048595823 1.0265
-0.12572692 0.054172408 1.0235002
-0.36599594 0.067994379 1.0238751
-0.36382586 0.072495073 1.0272501
-0.35556817 0.075434342 1.0260714
-0.34737274 0.078025088 1.0230001
-0.35057199 0.080207989 1.028
-0.34419367 0.082451664 1.0259999
-0.33254772 0.089220129 1.028
-0.3256788 0.087569289 1.02625
-0.31899709 0.088959746 1.0250001
-0.13324526 0.087571986 1.0256001
-0.33134609 0.091623358 1.028
-0.32677996 0.091743514 1.028
-0.31535512 0.094085298 1.0255294
-0.30521902 0.097021766 1.0236669
-0.29637733 0.099150822 1.0226002
-0.14439975 0.09716738 1.0240771
-0.13808143 0.092855364 1.0250001
-0.3046101 0.10033508 1.028
-0.29418698 0.10455838 1.0265882
-0.28625208 0.10642322 1.0240771
-0.27864149 0.10841035 1.0220001
-0.14710769 0.10443661 1.0259999
-0.2826806 0.11084924 1.028
-0.27390116 0.11261976 1.0244001
-0.26356965 0.11535823 1.0253333
-0.25504774 0.11674903 1.0244
-0.24581619 0.11833151 1.0241001
-0.23417801 0.11823808 1.0243335
-0.22533767 0.11791089 1.0246001
-0.21502878 0.11886314 1.0220002
-0.20507278 0.11897974 1.0230001
-0.19583847 0.11875754 1.0223752
-0.15080887 0.1145327 1.026
-0.14809938 0.11265167 1.028
-0.24242638 0.1216638 1.028
-0.23690295 0.12250584 1.0275
-0.22169848 0.1216638 1.028
-0.21387061 0.1223431 1.0261251
-0.20555817 0.12238626 1.0271817
-0.19493867 0.12217289 1.0247002
-0.18439862 0.12566589 1.0242943
-0.17461058 0.12523814 1.0240626
-0.16530043 0.1234683 1.0252728
-0.15748221 0.12238749 1.0265
-0.11117273 -0.15094183 1.031
-0.091288179 -0.15184568 1.031
-0.0875016 -0.1529716 1.035143
-0.11106928 -0.14859587 1.0356668
-0.10420094 -0.14842108 1.0336001
-0.095330663 -0.14779904 1.0343335
-0.089004457 -0.14894742 1.036
-0.12038606 -0.063359767 1.0325
-0.11479063 -0.063230284 1.032737
-0.10589976 -0.064201474 1.0339584
-0.11416096 -0.058280006 1.0372728
-0.10683165 -0.058420718 1.0380001
-0.085865118 -0.001355765 1.031
-0.09305606 0.0079664448 1.0326002
-0.087202504 0.0039359997 1.0354668
-0.10047258 0.018104482 1.0325
-0.095933929 0.014022576 1.0356668
-0.10430252 0.024793228 1.0345834
-0.099187821 0.02183952 1.0380001
-0.11149622 0.031726565 1.034
-0.1232006 0.055588774 1.0352501
-0.1189777 0.052678898 1.036
-0.3714796 0.069595933 1.031
-0.12515074 0.060763083 1.0345001
-0.37467155 0.072145574 1.0373334
-0.36613214 0.076217331 1.0329168
-0.35792196 0.078634366 1.031
-0.36186871 0.081594877 1.0380001
-0.35454607 0.083283 1.035154
-0.3473441 0.085252762 1.0345001
-0.32447976 0.089480489 1.031
-0.13178696 0.088964723 1.0320001
-0.12841327 0.086396724 1.0330001
-0.33086276 0.095179699 1.034
-0.3246797 0.09515503 1.0324001
-0.31657594 0.098590583 1.0317501
-0.14009571 0.098518923 1.031
-0.13510711 0.095213525 1.0343686
-0.3230429 0.10100778 1.0380001
-0.31440842 0.10257162 1.0353848
-0.30427572 0.10500926 1.0338572
-0.29681444 0.10870562 1.0316001
-0.14276895 0.10484467 1.0331876
-0.13769802 0.10239992 1.0362858
-0.30302334 0.11010758 1.0380001
-0.29183358 0.11308499 1.0342858
-0.28508544 0.11376502 1.034
-0.27547243 0.11641421 1.0353751
-0.26730672 0.11781821 1.0322001
-0.15094183 0.11840348 1.031
-0.14630511 0.11486027 1.0335883
-0.26326081 0.12164465 1.0355
-0.25460222 0.12225676 1.0340716
-0.24443755 0.12497959 1.0337274
-0.23413958 0.12613811 1.0338751
-0.22512138 0.12528577 1.0342355
-0.21519305 0.12636198 1.0323848
-0.20536895 0.12715833 1.0326002
-0.19507633 0.1269536 1.0323638
-0.18827425 0.12943766 1.0325
-0.17318653 0.12883508 1.0325001
-0.16684997 0.12762821 1.0325
-0.15389746 0.12394013 1.0356877
-0.14798495 0.12256864 1.035625
-0.2411447 0.13012713 1.0380001
-0.23750478 0.1319471 1.0380001
-0.20292555 0.13012713 1.0380001
-0.19746566 0.13012713 1.0380001
-0.18395682 0.13230389 1.0336667
-0.1770637 0.13166744 1.0358001
-0.1683463 0.13012713 1.0380001
-0.083655916 -0.15118904 1.041
-0.1118197 -0.14664748 1.0455
-0.10484302 -0.1461193 1.0448
-0.094616346 -0.14488266 1.0438
-0.084981881 -0.1465525 1.0448334
-0.07985469 -0.14594132 1.0470001
-0.11300211 -0.053828869 1.0437499
-0.10673126 -0.053748503 1.0446923
-0.083820403 0.0061663636 1.042125
-0.092819579 0.016399872 1.0435386
-0.086619057 0.012336521 1.0451537
-0.10311546 0.026925415 1.0446
-0.09722434 0.02263904 1.0448571
-0.11074404 0.032033399 1.044
-0.10777149 0.030726947 1.04625
-0.12217717 0.057892609 1.0416
-0.11989644 0.058575362 1.044
-0.12326337 0.062457759 1.0446
-0.11955191 0.06114487 1.041
-0.36960706 0.079397067 1.041
-0.37173736 0.082608297 1.0470001
-0.36488205 0.084919319 1.0431429
-0.35602546 0.088169865 1.0440001
-0.34748611 0.088168122 1.044
-0.12584551 0.087863043 1.044
-0.35337994 0.091328062 1.0470001
-0.34808117 0.091262966 1.0462501
-0.33127743 0.098561883 1.041
-0.32853961 0.09947449 1.041
-0.13181636 0.095762052 1.0431429
-0.12824407 0.091918491 1.0464
-0.33131689 0.10159164 1.044
-0.32371578 0.10364642 1.041
-0.31466314 0.10750966 1.0428001
-0.30846217 0.10768798 1.041
-0.14074314 0.10875707 1.0425
-0.13561352 0.10518281 1.0446923
-0.31360558 0.11106227 1.0470001
-0.30507505 0.11281559 1.0443333
-0.29618168 0.11507355 1.0434
-0.28387055 0.11872872 1.0426668
-0.27652085 0.11955192 1.041
-0.14215055 0.11482148 1.0442142
-0.28606948 0.1214648 1.0470001
-0.27534738 0.12305412 1.0453637
-0.2650075 0.12564503 1.0437692
-0.25575197 0.12792009 1.0442728
-0.24795312 0.12831442 1.04175
-0.22541466 0.12867801 1.041
-0.16211255 0.12868392 1.0447501
-0.15407592 0.12849742 1.0419999
-0.14657693 0.12458923 1.0450001
-0.25057852 0.1312554 1.0470001
-0.24423285 0.13153525 1.0434
-0.23388304 0.13321142 1.044
-0.22522794 0.13276009 1.0443751
-0.21544573 0.13295701 1.0439999
-0.20524943 0.13359663 1.0452
-0.19492203 0.13494019 1.0455002
-0.18573105 0.13598065 1.0444999
-0.17464541 0.13487595 1.0440001
-0.16524383 0.13287869 1.046357
-0.15395531 0.13145603 1.0444286
-0.11199417 -0.14390482 1.0500001
-0.10598899 -0.1424145 1.0500001
-0.09452045 -0.14183356 1.0513334
-0.084905706 -0.14221705 1.0518463
-0.078391537 -0.14202526 1.052
-0.10439127 -0.1387976 1.05375
-0.095557444 -0.13876016 1.0560001
-0.084588692 -0.13846599 1.057
-0.076910846 -0.1389955 1.057
-0.1058575 -0.051548 1.0500001
-0.11199417 -0.048172832 1.0500001
-0.10670719 -0.046237424 1.0500001
-0.081412524 0.0064493441 1.0513334
-0.091129497 0.0193305 1.0500001
-0.084068514 0.015361365 1.0524706
-0.077616557 0.011088081 1.054
-0.101255 0.027615 1.0500001
-0.095391557 0.024750927 1.0541111
-0.087503381 0.02176084 1.05625
-0.10451912 0.031664032 1.052
-0.099150121 0.03057901 1.057
-0.37166458 0.087617576 1.052
-0.36789319 0.088061176 1.0500001
-0.36344358 0.093658194 1.0531111
-0.35518104 0.095581152 1.0513912
-0.34501749 0.095547229 1.0535556
-0.33822238 0.099150121 1.057
-0.13095821 0.098681107 1.052
-0.12821513 0.096121058 1.0522001
-0.35627195 0.10318394 1.0560001
-0.34378219 0.10100339 1.057
-0.33295518 0.10482198 1.0544001
-0.32555771 0.10851956 1.0528572
-0.31941348 0.1095395 1.0500001
-0.13286108 0.1056133 1.0516667
-0.12833917 0.10378331 1.057
-0.32455799 0.11158016 1.0562501
-0.31517336 0.11500601 1.0542858
-0.30533826 0.11799512 1.0548
-0.2969656 0.11851043 1.052
-0.14137302 0.11919686 1.054
-0.13737856 0.11489806 1.0540833
-0.29435852 0.12276793 1.0543637
-0.28518063 0.12541658 1.054
-0.27588481 0.12733278 1.0525001
-0.266945 0.12933025 1.0500001
-0.14481317 0.12572695 1.0536667
-0.13992214 0.12231604 1.057
-0.27433646 0.13053216 1.0560001
-0.26260266 0.13269028 1.05475
-0.25530237 0.13314863 1.0538889
-0.245498 0.13474432 1.05275
-0.2365685 0.1353135 1.0500001
-0.224602 0.1371545 1.0500001
-0.21558449 0.13762453 1.0515715
-0.20448501 0.13763197 1.0518751
-0.19790751 0.1389955 1.0500001
-0.1841 0.1389955 1.0500001
-0.17430414 0.13880001 1.052
-0.16429186 0.13794321 1.0548334
-0.15619092 0.13521196 1.0530909
-0.14640859 0.13158241 1.057
-0.20108016 0.14177541 1.057
-0.19613808 0.14177541 1.057
-0.18422712 0.14287682 1.056
-0.17513433 0.14214608 1.057
-0.16957451 0.14177541 1.057
-0.10448764 -0.13536797 1.0628572
-0.094542839 -0.13351271 1.0622963
-0.085304379 -0.13329689 1.062619
-0.076149404 -0.13433869 1.0641876
-0.077129133 0.0074341334 1.0600001
-0.081541978 0.018913498 1.061
-0.078279316 0.015842244 1.0630001
-0.09265805 0.027352 1.0611999
-0.085935324 0.024555797 1.0635834
-0.11369139 0.035412073 1.0630001
-0.10157674 0.034480177 1.0630001
-0.09523043 0.032738362 1.0629334
-0.3707774 0.092926666 1.0600001
-0.36664522 0.096784443 1.0615001
-0.34475794 0.09943153 1.0600001
-0.12288602 0.095889166 1.0619445
-0.11849932 0.096103407 1.0643334
-0.3635861 0.10232541 1.0643334
-0.35305279 0.10452127 1.0626001
-0.3446326 0.1044321 1.0635625
-0.3372539 0.10709786 1.0622858
-0.1310266 0.1087242 1.0600001
-0.12492151 0.10460513 1.0643333
-0.11879622 0.10102355 1.067
-0.33400017 0.1118304 1.0648
-0.32505035 0.11545663 1.0632857
-0.3122336 0.1198754 1.0600001
-0.3038702 0.1198754 1.0600001
-0.1325634 0.11547073 1.0636668
-0.12861137 0.1117975 1.0656667
-0.3153446 0.12183885 1.0663333
-0.30437139 0.12365358 1.0637
-0.2951358 0.12717803 1.062
-0.28621414 0.12916806 1.0600001
-0.14144798 0.12749143 1.0615001
-0.13783884 0.12480435 1.0623751
-0.29184583 0.13095647 1.067
-0.28479734 0.13259549 1.0651251
-0.27424425 0.1349299 1.0645716
-0.26585716 0.13672554 1.0630001
-0.25525549 0.13787891 1.0626667
-0.24695297 0.13868883 1.0646
-0.23346424 0.13859135 1.061
-0.15303881 0.13814192 1.0623335
-0.14499442 0.13442534 1.0643334
-0.13937509 0.13189188 1.067
-0.26378375 0.1412459 1.067
-0.25723591 0.1412459 1.067
-0.24694648 0.1412459 1.067
-0.23104462 0.1412459 1.067
-0.22334561 0.1415749 1.0634285
-0.21461804 0.14187342 1.063889
-0.20594522 0.14281711 1.063
-0.19382511 0.14552903 1.0625386
-0.18554357 0.14672089 1.0600001
-0.17506108 0.14619814 1.0621876
-0.16576889 0.14317019 1.0614287
-0.15762313 0.1408845 1.0607501
-0.19175768 0.15059994 1.067
-0.18572657 0.15026119 1.0646001
-0.11026275 -0.13382141 1.075
-0.10551383 -0.13216628 1.072
-0.098493502 -0.13038664 1.0700001
-0.083484963 -0.13038664 1.0700001
-0.075503297 -0.1310271 1.0708572
-0.10388923 -0.12761812 1.0756665
-0.094820753 -0.12681626 1.0735625
-0.08531291 -0.12508692 1.0746665
-0.075618379 -0.12602986 1.074875
-0.068924412 -0.12746295 1.077
-0.079844609 0.018788282 1.0715001
-0.084365509 0.026776029 1.0744287
-0.1125038 0.037293009 1.0724444
-0.10635062 0.0367091 1.0735
-0.092865296 0.032831166 1.0700001
-0.089404657 0.032000527 1.0735
-0.12134557 0.045151841 1.0730001
-0.11690423 0.04371386 1.0734999
-0.12179793 0.053188246 1.077
-0.11990959 0.050041009 1.077
-0.36677104 0.1041217 1.0700001
-0.35430133 0.10807547 1.072
-0.34644699 0.10912454 1.0700001
-0.12189963 0.106233 1.0723333
-0.11913023 0.1041217 1.0700001
-0.36188626 0.11026275 1.075
-0.35429028 0.11162561 1.0754
-0.34473649 0.11365918 1.0744166
-0.33514497 0.11603505 1.0738751
-0.3276796 0.11861622 1.0710001
-0.13113385 0.11861622 1.0710001
-0.12674195 0.11407824 1.0738182
-0.3246527 0.12256701 1.0742857
-0.31482756 0.12615098 1.072
-0.30615479 0.12818043 1.0717143
-0.13403825 0.12449726 1.0734999
-0.12935129 0.1227421 1.077
-0.30415103 0.13147311 1.0763334
-0.29545635 0.132494 1.0718572
-0.28510356 0.13691166 1.0726001
-0.27709502 0.13826612 1.0700001
-0.24201259 0.13976696 1.0700001
-0.23919851 0.13976696 1.0700001
-0.15102337 0.13976696 1.0700001
-0.14459114 0.13869491 1.0700001
-0.13821532 0.1343147 1.0725384
-0.28230682 0.14131077 1.077
-0.27448604 0.14327666 1.0732727
-0.26578924 0.1436184 1.072
-0.2543225 0.14463881 1.0729229
-0.2442503 0.14470141 1.0727856
-0.23537235 0.14485212 1.073263
-0.22563536 0.14601828 1.0713845
-0.21525393 0.14626504 1.0713637
-0.20497654 0.14754708 1.072
-0.19917576 0.14727123 1.0700001
-0.1716601 0.1491473 1.0700001
-0.16561407 0.14699732 1.0717273
-0.15460064 0.14435145 1.0723636
-0.14491247 0.14366098 1.0741667
-0.13879299 0.14068133 1.077
-0.23320998 0.15012303 1.077
-0.2266008 0.15012303 1.077
-0.21432659 0.15012303 1.077
-0.20551433 0.1510672 1.077
-0.19486572 0.15414146 1.0746154
-0.18474048 0.15429458 1.0742499
-0.17557494 0.15253425 1.0729166
-0.16711809 0.1510672 1.077
-0.11172239 -0.13160519 1.08
-0.11178815 -0.12653603 1.0816667
-0.10594141 -0.12324156 1.0832777
-0.096051611 -0.12219381 1.0817143
-0.085211992 -0.1202436 1.08
-0.073534794 -0.12150601 1.08
-0.068169594 -0.1202436 1.08
-0.10291715 -0.11911708 1.087
-0.093404859 -0.11764133 1.0861818
-0.084621437 -0.11599164 1.0845499
-0.075118333 -0.11504905 1.0846399
-0.067242466 -0.11460801 1.0860624
-0.073693767 -0.10895243 1.087
-0.066272415 -0.10820162 1.087
-0.077243097 0.018361492 1.0833334
-0.081668518 0.026830163 1.08325
-0.076763868 0.024907036 1.0867857
-0.10746956 0.037092011 1.0848572
-0.091839597 0.033137999 1.08
-0.085366003 0.031735625 1.086
-0.1132459 0.044288468 1.0825
-0.10848355 0.040919729 1.0855
-0.12042174 0.055948161 1.0816
-0.11742431 0.053723816 1.0845833
-0.12288111 0.06572821 1.0865715
-0.11848179 0.060670301 1.087
-0.12292883 0.086717233 1.087
-0.12388176 0.092434853 1.087
-0.12117169 0.10851731 1.0826668
-0.11839405 0.10793542 1.0847501
-0.36161914 0.11421447 1.0826668
-0.3554301 0.11647591 1.0830833
-0.34590638 0.11793796 1.082
-0.3380076 0.11835 1.08
-0.12311746 0.11541662 1.0827646
-0.11855842 0.11284606 1.0862499
-0.35258657 0.12102295 1.087
-0.3446475 0.12122925 1.0860001
-0.33479628 0.12293734 1.0836999
-0.32530484 0.127087 1.0818332
-0.3181248 0.1297116 1.08
-0.13232055 0.12805471 1.082
-0.12575948 0.12341445 1.0843529
-0.31414902 0.13349003 1.0833334
-0.30537105 0.13578191 1.083077
-0.29523852 0.13801537 1.082
-0.13358615 0.13403697 1.0843529
-0.30112797 0.14008169 1.087
-0.29535061 0.14176364 1.0852858
-0.2847403 0.14457643 1.0830001
-0.27483937 0.14770634 1.0823334
-0.26504382 0.14843644 1.083625
-0.25587532 0.14878523 1.0810001
-0.24639331 0.14878523 1.081
-0.160956 0.14864761 1.08
-0.15461302 0.14860611 1.082
-0.14336948 0.14779256 1.0806667
-0.1380458 0.14413109 1.0845
-0.26015171 0.15151693 1.087
-0.25439399 0.15092452 1.08275
-0.24527818 0.15202254 1.0855
-0.23478924 0.15357791 1.0835834
-0.22402878 0.15383771 1.0841428
-0.21460813 0.15423134 1.0837221
-0.20502342 0.15543355 1.0840908
-0.19861409 0.1568006 1.0840001
-0.1853098 0.15870121 1.0840001
-0.17455269 0.15762714 1.0837272
-0.16481857 0.15452664 1.0834736
-0.15574874 0.1516255 1.0855
-0.14424278 0.15088968 1.0825001
-0.1118013 -0.12135696 1.09
-0.11114994 -0.11785644 1.0930001
-0.10414551 -0.11562982 1.092
-0.095328689 -0.11296842 1.092579
-0.08595667 -0.11137048 1.0911429
-0.094424233 -0.10787691 1.0962501
-0.084248409 -0.10655229 1.0940001
-0.075782083 -0.10411321 1.092
-0.065481938 -0.1034309 1.0913334
-0.073803619 -0.097907804 1.0959091
-0.06417612 -0.095216848 1.0952917
-0.062510721 -0.089438409 1.097
-0.058663905 -0.089438409 1.097
-0.074773096 0.025083626 1.09
-0.084794134 0.034578655 1.0922223
-0.078356467 0.031533699 1.09
-0.11262399 0.046389814 1.0927143
-0.10737018 0.042183008 1.0935
-0.11365566 0.055025399 1.0923078
-0.1225043 0.06890972 1.09175
-0.11652485 0.063749507 1.0946429
-0.12486423 0.075357154 1.0950358
-0.11828951 0.072127752 1.097
-0.13139305 0.08343938 1.0940001
-0.124737 0.085005596 1.0919501
-0.11907954 0.086836316 1.0925001
-0.12221654 0.093636155 1.0943
-0.11882105 0.091919668 1.0960001
-0.12021291 0.10386395 1.097
-0.1180379 0.10523564 1.0946666
-0.36330557 0.11822814 1.092
-0.11716364 0.11476749 1.09325
-0.36063874 0.12213632 1.097
-0.35287169 0.12376815 1.0944
-0.34487265 0.12547925 1.0944445
-0.33600354 0.12776278 1.0930001
-0.32967049 0.1290015 1.09
-0.12358019 0.12762025 1.090889
-0.32496676 0.13443273 1.0940001
-0.3154254 0.13823675 1.0925001
-0.13187228 0.1382591 1.0926667
-0.12750836 0.1332656 1.0936
-0.31375039 0.14198406 1.0958
-0.3054134 0.14244498 1.0921111
-0.29470336 0.14663477 1.095
-0.28910887 0.14742903 1.092
-0.1353732 0.14497653 1.0951819
-0.28258181 0.150391 1.0926667
-0.2739611 0.15220237 1.0936251
-0.2646195 0.15436785 1.0936668
-0.25494966 0.15527265 1.0933001
-0.24607244 0.15622485 1.09325
-0.23673433 0.15761517 1.0918335
-0.22649845 0.15835558 1.09475
-0.1920689 0.15957963 1.09
-0.16354831 0.15876871 1.0910001
-0.15487771 0.15628915 1.0946001
-0.14536335 0.15532281 1.0923001
-0.13803759 0.15213118 1.0960001
-0.22279459 0.16060446 1.097
-0.21542154 0.16060446 1.097
-0.20273618 0.16045806 1.0960001
-0.19330235 0.16188674 1.097
-0.18482801 0.16306935 1.0948889
-0.17523786 0.16277868 1.0935
-0.16337714 0.16097552 1.0962501
-0.10574826 -0.11193262 1.1026001
-0.10304654 -0.10774773 1.1044286
-0.095533304 -0.10395115 1.1033527
-0.087391391 -0.10308219 1.1015
-0.093618251 -0.099005274 1.1060001
-0.083522521 -0.096273035 1.1057894
-0.075215474 -0.093402691 1.1024116
-0.068529911 -0.091694951 1.1010001
-0.073639624 -0.085989349 1.1045237
-0.065042049 -0.08460366 1.1037035
-0.059081018 -0.084258184 1.1048
-0.064108878 -0.078679077 1.108
-0.0582808 -0.07770773 1.108
-0.10383854 0.038818799 1.107
-0.11099914 0.047295291 1.1010001
-0.10703983 0.045690257 1.105
-0.11099915 0.055016972 1.1010001
-0.10847541 0.055209137 1.1048
-0.1129967 0.065931104 1.1032499
-0.10844849 0.064604633 1.1064999
-0.12065125 0.077216804 1.1010001
-0.11501399 0.074610323 1.1040832
-0.10976217 0.071879655 1.108
-0.13030335 0.082042851 1.1010001
-0.12065125 0.081077635 1.1010001
-0.11538755 0.084265083 1.1037915
-0.10976217 0.085478507 1.108
-0.11468051 0.09562698 1.1045198
-0.10976217 0.093249276 1.108
-0.12065125 0.10134705 1.1010001
-0.11520065 0.10511722 1.1043156
-0.36871022 0.11872083 1.1010001
-0.11434451 0.11540064 1.1028183
-0.37070665 0.1231401 1.1060001
-0.36491311 0.12461527 1.1052999
-0.35560122 0.12739873 1.103
-0.34747559 0.12837292 1.1010001
-0.12087042 0.12474528 1.103
-0.1154926 0.12425777 1.1044283
-0.10976217 0.12336103 1.108
-0.36036962 0.1311318 1.108
-0.35355231 0.13292803 1.1054164
-0.34482875 0.1337637 1.1064498
-0.33568379 0.13547684 1.1043332
-0.32575837 0.13850763 1.1010001
-0.13030335 0.13995545 1.1010001
-0.12378062 0.13599324 1.1031249
-0.11947564 0.13598853 1.108
-0.3331719 0.14149283 1.108
-0.3254436 0.14283082 1.1066667
-0.31561521 0.14616545 1.1028181
-0.30601001 0.14720473 1.102875
-0.29728466 0.14960755 1.1010001
-0.13243181 0.14596735 1.1026666
-0.12506358 0.14193559 1.1059
-0.31428763 0.15035491 1.1065
-0.30278662 0.15139419 1.107
-0.29540393 0.15287371 1.1059999
-0.28494582 0.15496421 1.1064999
-0.27580801 0.15688328 1.103889
-0.26462474 0.15903434 1.1016667
-0.25481546 0.15925965 1.1010001
-0.24709377 0.15925965 1.1010001
-0.15539882 0.15925965 1.1010001
-0.14188586 0.15732923 1.1010001
-0.13573723 0.15478645 1.1046667
-0.27294841 0.16091977 1.108
-0.26445967 0.16177568 1.105
-0.25439113 0.16272379 1.1065
-0.2474681 0.16206849 1.107
-0.23434676 0.16256081 1.1065714
-0.22531408 0.16360505 1.10425
-0.21535133 0.16343211 1.1042727
-0.2061756 0.16331209 1.1041429
-0.19542852 0.16521636 1.1020908
-0.1841708 0.16820209 1.10425
-0.17530736 0.16678408 1.1048
-0.16527125 0.16462602 1.1038889
-0.15591981 0.16325788 1.1047143
-0.093167834 -0.094410472 1.1165454
-0.086966559 -0.092825152 1.1146001
-0.08376582 -0.087322213 1.1169091
-0.077144541 -0.082162835 1.1138572
-0.073729105 -0.076522417 1.1170715
-0.065547034 -0.074886963 1.1144781
-0.0581793 -0.073619939 1.1164445
-0.064549141 -0.068276905 1.1190002
-0.057425644 -0.067235544 1.1190002
-0.10403959 0.046419203 1.1161113
-0.10536728 0.056108817 1.1157273
-0.082403161 0.059840389 1.1190001
-0.10430708 0.066108651 1.115706
-0.099079989 0.069650292 1.1190001
-0.11015842 0.077013411 1.1120001
-0.10584464 0.074769147 1.1156667
-0.11093831 0.085592121 1.1120001
-0.10620124 0.08547841 1.1162353
-0.11015843 0.098460183 1.1120001
-0.10589513 0.09449362 1.1150556
-0.11071549 0.1051449 1.1120001
-0.10613173 0.10452527 1.1155294
-0.11123321 0.1151379 1.113
-0.10687494 0.11429291 1.117
-0.372895 0.12690321 1.1135001
-0.36732808 0.12855457 1.1126001
-0.11280757 0.12711243 1.1125001
-0.10849803 0.12385985 1.1183333
-0.365578 0.13180658 1.1137143
-0.35189399 0.13978012 1.115
-0.3468374 0.13877457 1.1131999
-0.11499668 0.13491184 1.1148518
-0.10888989 0.13341464 1.1190001
-0.34242323 0.1429673 1.1137142
-0.33689886 0.14452752 1.1139002
-0.32941189 0.14564502 1.115
-0.13080524 0.14935376 1.1135001
-0.12432558 0.14600307 1.11525
-0.11587283 0.14166115 1.1170001
-0.3127726 0.15408619 1.1154286
-0.30520856 0.15586521 1.1146668
-0.29476845 0.1575693 1.1142308
-0.2867212 0.15829268 1.1131999
-0.13215293 0.15541898 1.115
-0.1269401 0.15087625 1.1190001
-0.29527801 0.16186334 1.1190001
-0.28405014 0.16209128 1.1167142
-0.27577698 0.16363992 1.1155001
-0.26404861 0.16539823 1.1141666
-0.25460291 0.16739719 1.1142728
-0.2449621 0.16650663 1.1137648
-0.23592347 0.16738404 1.1145387
-0.22516206 0.16842067 1.1160001
-0.21461461 0.16837044 1.1144445
-0.20555082 0.16795848 1.1138749
-0.19523498 0.16887712 1.1135001
-0.17285764 0.16895296 1.1140001
-0.16501795 0.16892263 1.1138
-0.15716574 0.16790226 1.1135001
-0.14412013 0.16291711 1.1168001
-0.13782661 0.16297846 1.1176667
-0.25309542 0.17167325 1.1190001
-0.24391302 0.17142777 1.1173999
-0.21287483 0.17167325 1.1190001
-0.20282531 0.17146869 1.1176667
-0.19363575 0.17157432 1.1147144
-0.18498456 0.17180693 1.1135001
-0.17603846 0.17179568 1.1176667
-0.16578729 0.17167325 1.1190001
-0.09451168 -0.091558188 1.123
-0.092911623 -0.08831466 1.1235001
-0.086357892 -0.084779017 1.1245
-0.081931517 -0.078970134 1.126
-0.077429436 -0.074580073 1.1243334
-0.072324418 -0.06772045 1.125
-0.065306909 -0.064180262 1.1238573
-0.055135321 -0.062485769 1.1249092
-0.060214728 -0.058240473 1.126
-0.054588012 -0.055985272 1.1279999
-0.10140315 0.038395371 1.123
-0.096093014 0.038082577 1.1253999
-0.10140315 0.044302348 1.123
-0.097696029 0.042215101 1.1256667
-0.10255071 0.054234631 1.1248
-0.083795302 0.057669327 1.1245
-0.076995879 0.056266218 1.126
-0.10147087 0.063047893 1.1237501
-0.099646673 0.064126939 1.1253999
-0.085651211 0.060054295 1.123
-0.10236311 0.077301703 1.1242858
-0.099633388 0.076454319 1.12525
-0.10252398 0.084450327 1.1245
-0.099699795 0.081931517 1.126
-0.10208182 0.096451618 1.1242858
-0.099699795 0.092789903 1.126
-0.10227697 0.10572666 1.1245
-0.099699795 0.10759681 1.126
-0.10320921 0.11475767 1.1242858
-0.099566981 0.11337097 1.1245
-0.10759681 0.12635221 1.126
-0.10768608 0.13559417 1.1235001
-0.35209036 0.14530955 1.125
-0.34847713 0.14613858 1.1248001
-0.12109309 0.14865899 1.123
-0.11550499 0.14543565 1.1243638
-0.10858393 0.14115912 1.126
-0.31306994 0.15850396 1.123
-0.30814746 0.15850396 1.123
-0.13093805 0.15850396 1.123
-0.12561709 0.15387379 1.1243334
-0.31193203 0.16090165 1.126
-0.30400172 0.16377984 1.1246667
-0.29460093 0.16552879 1.1239002
-0.28536725 0.16585901 1.1248
-0.27528602 0.1680665 1.1255
-0.26703796 0.16849883 1.1240001
-0.15497889 0.16879866 1.126
-0.1451122 0.16767371 1.1243334
-0.13582285 0.16538028 1.1238573
-0.27475026 0.17241812 1.126
-0.26607901 0.17168421 1.1255
-0.2543394 0.17350416 1.1245
-0.23418717 0.17211215 1.1240001
-0.22362588 0.17346178 1.1251428
-0.21549633 0.17468715 1.1245
-0.20558611 0.17402585 1.1251428
-0.19420095 0.17547581 1.1245
-0.1834826 0.17633252 1.12525
-0.17456624 0.17654051 1.1250001
-0.16557153 0.17487119 1.1251429
-0.1582693 0.17143099 1.126
-0.14247529 0.17143099 1.126
-0.13918486 0.17077291 1.126
-0.17570855 0.18064418 1.126
-0.092458174 -0.082733139 1.1316
-0.086581349 -0.081033804 1.13
-0.091123357 -0.077179104 1.136
-0.084943421 -0.074094445 1.1338183
-0.078260034 -0.0713256 1.13
-0.083063632 -0.066219211 1.1352308
-0.075083412 -0.064093523 1.1330589
-0.06597618 -0.06082489 1.13
-0.052503567 -0.060428634 1.13
-0.071830556 -0.058861151 1.138
-0.063752294 -0.055544507 1.1340001
-0.048541032 -0.051512934 1.13
-0.060856447 -0.047887042 1.138
-0.054509751 -0.045918409 1.1348423
-0.046989333 -0.045790754 1.1356
-0.072847493 0.016428733 1.1356666
-0.065957278 0.01524562 1.1342223
-0.072377957 0.022133028 1.1372
-0.066533305 0.022179231 1.1370001
-0.091138266 0.038634699 1.13
-0.088478461 0.038771458 1.1340001
-0.10005397 0.048541032 1.13
-0.094125554 0.045245934 1.132889
-0.083654158 0.043821935 1.1359999
-0.074191689 0.046247054 1.1337649
-0.068172522 0.048219591 1.138
-0.10005397 0.054484833 1.13
-0.094831333 0.054961286 1.1345218
-0.084377214 0.055401634 1.1353333
-0.076232128 0.052747279 1.1352
-0.09469609 0.064034432 1.1316363
-0.087609977 0.061820779 1.1313334
-0.10040814 0.074560501 1.1340001
-0.097802684 0.073913522 1.1355
-0.1009173 0.08664237 1.1308
-0.097948961 0.08459007 1.1351429
-0.10005397 0.094770588 1.13
-0.097595789 0.094609872 1.1359999
-0.10031959 0.10330202 1.1330001
-0.098101921 0.10142741 1.138
-0.10131022 0.11621006 1.133
-0.1057999 0.12340937 1.1340001
-0.10644802 0.13548812 1.1348001
-0.35365608 0.14859501 1.13
-0.11289117 0.14781335 1.1316
-0.10682695 0.14491555 1.1340001
-0.12284429 0.15608099 1.1340001
-0.11579789 0.15161097 1.1345714
-0.10874349 0.15064465 1.138
-0.31006822 0.16147323 1.13
-0.3081834 0.16602138 1.1340001
-0.29025558 0.16741703 1.13
-0.28391552 0.16900204 1.13
-0.15255752 0.16840766 1.13
-0.13284612 0.16438201 1.133
-0.12824406 0.16005655 1.1340001
-0.28233576 0.17198622 1.1340001
-0.27514711 0.17153123 1.131
-0.26415077 0.17290497 1.1313334
-0.25947055 0.17596278 1.1340001
-0.24299343 0.17663676 1.1331999
-0.2351106 0.17679298 1.1339999
-0.22478883 0.17782326 1.1317778
-0.21411833 0.17873855 1.13
-0.20574099 0.17841472 1.1313334
-0.19737099 0.1775326 1.1313334
-0.18789245 0.17876601 1.1316
-0.16399558 0.17809694 1.1324
-0.15438017 0.17491688 1.1332
-0.14623702 0.1747535 1.1325715
-0.13868867 0.1723702 1.13
-0.23544461 0.18057404 1.138
-0.2244705 0.18256934 1.138
-0.21532731 0.18275431 1.1345
-0.2057033 0.18182492 1.1351429
-0.19587129 0.18057404 1.138
-0.18170904 0.18237881 1.1326667
-0.17431377 0.18301073 1.1330001
-0.16716667 0.18231265 1.1364
-0.078021578 -0.061016876 1.141
-0.074096449 -0.05598861 1.1473335
-0.06756492 -0.052993402 1.146
-0.064965576 -0.044723827 1.147889
-0.055784345 -0.041417826 1.143
-0.04436956 -0.041369904 1.1416668
-0.039147548 -0.041155115 1.1450001
-0.063747071 -0.037845325 1.149
-0.054907624 -0.036266174 1.1475265
-0.045239959 -0.035181645 1.1467602
-0.038358554 -0.034777854 1.1481112
-0.05137179 -0.029211409 1.149
-0.046767034 -0.028348016 1.149
-0.039284311 -0.029211409 1.149
-0.057682622 0.018338405 1.141
-0.071019642 0.02700747 1.141
-0.064380899 0.027041787 1.1424285
-0.058320075 0.025141221 1.1470001
-0.064457417 0.034930535 1.1446193
-0.05840214 0.035243578 1.1486001
-0.085889079 0.04695617 1.1436669
-0.064253911 0.043746043 1.1452857
-0.058422819 0.041298889 1.149
-0.08556667 0.052408986 1.1423334
-0.091025174 0.069019087 1.141
-0.092713498 0.075678982 1.1433334
-0.093063749 0.085345589 1.1453078
-0.089648813 0.089648813 1.149
-0.092185713 0.095190041 1.1430001
-0.089648813 0.095692553 1.149
-0.093844734 0.10588108 1.1438237
-0.088183664 0.10668116 1.149
-0.094803251 0.11509651 1.1456002
-0.088305764 0.11315224 1.149
-0.1027429 0.12701236 1.1427778
-0.097412221 0.12517323 1.1471335
-0.10274849 0.13506119 1.1446
-0.099721707 0.13195498 1.149
-0.1018703 0.14525953 1.1472858
-0.12103347 0.15904398 1.141
-0.11408877 0.15703543 1.143
-0.10539269 0.1553881 1.1450002
-0.099721707 0.15512267 1.149
-0.13103624 0.16804647 1.141
-0.12518391 0.16535705 1.1454446
-0.115863 0.16429894 1.1480001
-0.10610121 0.16250946 1.149
-0.099721707 0.1611664 1.149
-0.26630417 0.17720413 1.1420001
-0.15304233 0.17904952 1.141
-0.14001331 0.17829032 1.149
-0.13500278 0.17431678 1.1455715
-0.12591125 0.17023201 1.149
-0.24335063 0.18320252 1.1435001
-0.23583743 0.18392457 1.1436667
-0.22612949 0.18536608 1.1454002
-0.20266692 0.18524931 1.1463333
-0.19564033 0.18502589 1.146143
-0.18736601 0.18486008 1.1460001
-0.17265072 0.18770748 1.1450001
-0.16361268 0.18541412 1.1450001
-0.15547489 0.18256302 1.1442001
-0.14956371 0.18168478 1.1450001
-0.17224659 0.1903778 1.149
-0.075370103 -0.053111535 1.1539999
-0.073200785 -0.048237413 1.1543332
-0.068936333 -0.046294488 1.153
-0.063275874 -0.034973565 1.153
-0.056941543 -0.032008562 1.153
-0.053858798 -0.027096109 1.1543334
-0.044984493 -0.024063917 1.1545554
