# .PCD v0.7 - Point Cloud Data file format
VERSION 0.7
FIELDS x y z
SIZE 4 4 4
TYPE F F F
COUNT 1 1 1
WIDTH 1480
HEIGHT 1
VIEWPOINT 0 0 0 1 0 0 0
POINTS 1480
DATA ascii
-0.34679472 0.069654085 1.0100001
-0.12192724 0.067392871 1.0115
-0.11770774 0.06511575 1.016
-0.36307213 0.071593486 1.0190001
-0.35424572 0.07308042 1.0165625
-0.34571528 0.075420678 1.0150626
-0.13015869 0.078803569 1.01
-0.12413193 0.075474538 1.0141053
-0.11854703 0.070863381 1.0167501
-0.34660944 0.081292421 1.0190001
-0.14137419 0.08883848 1.01
-0.13483296 0.085139923 1.0123574
-0.12780564 0.083061911 1.0163333
-0.34418428 0.097790122 1.011
-0.33469379 0.098283105 1.0100001
-0.32849577 0.098283097 1.01
-0.14251505 0.094123989 1.0106925
-0.13697238 0.094294965 1.0142632
-0.34354976 0.10195074 1.017875
-0.33471093 0.10334142 1.0170501
-0.32538116 0.10501427 1.0158639
-0.31586677 0.1071118 1.0123076
-0.30755135 0.10901613 1.011
-0.14078391 0.10394987 1.01
-0.13745214 0.10456064 1.0142001
-0.31425974 0.11260538 1.0178001
-0.30489832 0.11463577 1.0150456
-0.2953966 0.11566797 1.0128423
-0.2854538 0.11625043 1.0131874
-0.27503377 0.11809197 1.0118003
-0.26468909 0.11892223 1.0116364
-0.2543512 0.11828056 1.0109231
-0.24606003 0.11796402 1.0117143
-0.23995243 0.1195335 1.01
-0.22578549 0.1195335 1.01
-0.20542054 0.1195335 1.0100001
-0.19627106 0.1195335 1.01
-0.18505558 0.11886942 1.0100001
-0.17472552 0.11805777 1.0100001
-0.16573764 0.11804099 1.0102144
-0.15471326 0.11803586 1.0123334
-0.14395757 0.11544356 1.013316
-0.13894685 0.11222868 1.016
-0.30104995 0.12149197 1.0190001
-0.29504034 0.12141076 1.0190001
-0.2847327 0.12100767 1.0181428
-0.27434289 0.12417089 1.0179285
-0.26539439 0.12381064 1.0168823
-0.25451612 0.12450662 1.0164093
-0.24501251 0.12580296 1.017154
-0.23504002 0.12598015 1.0148003
-0.22519146 0.12487078 1.0134618
-0.21491008 0.12433021 1.0139134
-0.20491588 0.12505862 1.0141741
-0.19550155 0.1243002 1.0121254
-0.1850493 0.12396492 1.0148332
-0.17527655 0.12446237 1.0162611
-0.16550973 0.12274002 1.0163751
-0.15550014 0.12131364 1.0185715
-0.149185 0.12059865 1.0190001
-0.33435014 -0.15050262 1.028
-0.28760102 -0.15141611 1.0220001
-0.27662557 -0.15656784 1.0220002
-0.25611365 -0.1561774 1.0223751
-0.23061839 -0.15571669 1.0220001
-0.22598547 -0.15309705 1.0222502
-0.21950856 -0.15141611 1.0220001
-0.16037564 -0.15141611 1.0220001
-0.15432622 -0.15073974 1.0235001
-0.34108153 -0.14243168 1.0244
-0.3346681 -0.14380705 1.0237142
-0.32762027 -0.14663769 1.0220001
-0.29118484 -0.1496242 1.0220001
-0.28939292 -0.1496242 1.0220001
-0.22309238 -0.1496242 1.0220001
-0.21771666 -0.1496242 1.0220001
-0.16139959 -0.14732035 1.0220002
-0.15453225 -0.14601654 1.022875
-0.14508656 -0.1440274 1.0227777
-0.13597585 -0.14293154 1.0253999
-0.12814735 -0.14195366 1.027
-0.34411997 -0.13615373 1.0275714
-0.33527422 -0.13563158 1.0257825
-0.32945836 -0.1355537 1.024
-0.14385028 -0.13807636 1.0220002
-0.13461094 -0.13617393 1.0227826
-0.12799467 -0.13490766 1.0243078
-0.33615258 -0.1279723 1.028
-0.13278028 -0.12382074 1.0220001
-0.12738349 -0.12485374 1.0220002
-0.14126198 -0.11079956 1.0220001
-0.13464676 -0.11398371 1.0232412
-0.12721074 -0.11539902 1.0249999
-0.11877991 -0.11193071 1.028
-0.14381903 -0.10387427 1.0244286
-0.13486354 -0.10636748 1.0274545
-0.12707111 -0.10544195 1.028
-0.11896016 -0.10814559 1.028
-0.14791064 -0.095630772 1.0245262
-0.14826626 -0.088959746 1.0250001
-0.097564667 -0.014612499 1.02575
-0.10153992 0.0080907568 1.0250001
-0.37830359 0.018870249 1.0250001
-0.10227028 0.015664183 1.0243335
-0.10340058 0.025427129 1.0236669
-0.11240152 0.037966389 1.0230001
-0.1060538 0.03544613 1.0245385
-0.12113123 0.044864729 1.0235001
-0.11571085 0.042467434 1.0251874
-0.10724438 0.040554598 1.028
-0.37369388 0.062249649 1.0232
-0.11306219 0.065454558 1.0228183
-0.37075284 0.072715998 1.024
-0.36475632 0.075330749 1.0238461
-0.35475129 0.078017637 1.0229002
-0.12188455 0.07844571 1.0238001
-0.11574284 0.074710183 1.0242499
-0.36138654 0.082010411 1.028
-0.35586876 0.0828254 1.0269285
-0.34865034 0.083568253 1.0250001
-0.13170514 0.088699378 1.0220001
-0.12603676 0.085772187 1.0245
-0.11580592 0.080207989 1.028
-0.13300486 0.095428415 1.024143
-0.12929934 0.091589093 1.02425
-0.35207403 0.10664358 1.028
-0.34528133 0.10671587 1.024143
-0.33568385 0.1075144 1.0220002
-0.1348857 0.10434543 1.0244001
-0.34414312 0.11201389 1.0271
-0.33499429 0.11203666 1.0261538
-0.32537037 0.11247291 1.0246999
-0.31620848 0.11714344 1.0246999
-0.30820793 0.11916179 1.0220001
-0.14149049 0.11896016 1.028
-0.13728371 0.11317433 1.0262001
-0.31181979 0.1216638 1.028
-0.30587918 0.12195766 1.0244
-0.29416758 0.1249501 1.0253751
-0.28511703 0.1253773 1.0254617
-0.27615416 0.12776737 1.0227501
-0.26545817 0.12824669 1.0230001
-0.25534669 0.12955484 1.0220001
-0.24101144 0.12991323 1.0220001
-0.23921953 0.12991323 1.0220001
-0.22309238 0.12991323 1.0220001
-0.21473014 0.12991323 1.0220001
-0.20786119 0.12991323 1.0220001
-0.19382457 0.12871863 1.0220001
-0.1863583 0.12812133 1.0220001
-0.17119604 0.12802549 1.026
-0.16479674 0.12643719 1.0241818
-0.1551799 0.12507032 1.0240771
-0.14671348 0.12254807 1.0253333
-0.27126521 0.13067593 1.028
-0.2643559 0.13097633 1.028
-0.25486386 0.13317901 1.0256667
-0.24584714 0.13263196 1.0250001
-0.23452711 0.13209176 1.025
-0.22508065 0.13234949 1.0270001
-0.21552631 0.13161111 1.0265
-0.20557483 0.13226329 1.024
-0.19472711 0.13096014 1.0274
-0.17791951 0.13029458 1.0250001
-0.16762567 0.13067593 1.028
-0.33235395 -0.15123464 1.033
-0.33261433 -0.14913414 1.031
-0.1340431 -0.14602429 1.0313751
-0.12621574 -0.14252378 1.0333334
-0.35389313 -0.1320046 1.0356001
-0.34414744 -0.13289674 1.0312501
-0.33894125 -0.13105728 1.031
-0.12672085 -0.13758537 1.0325
-0.36126205 -0.12648723 1.0380001
-0.35497916 -0.1249091 1.0358002
-0.34554327 -0.12533121 1.0338389
-0.33885556 -0.12502603 1.0335001
-0.12201885 -0.12021116 1.031
-0.35285908 -0.11540677 1.0375296
-0.34532332 -0.11537062 1.0369567
-0.33851254 -0.11647744 1.0380001
-0.12251184 -0.11495244 1.031
-0.34670237 -0.10737763 1.0380001
-0.14069827 -0.10092918 1.031
-0.13527521 -0.10198367 1.031
-0.12330833 -0.10395394 1.0330528
-0.11686265 -0.10268414 1.0366001
-0.14296246 -0.093958944 1.0333184
-0.13495281 -0.094164096 1.0344841
-0.12538968 -0.094980776 1.0355628
-0.11738742 -0.099187821 1.0380001
-0.14764798 -0.088769294 1.0332501
-0.13012713 -0.088268057 1.0380001
-0.12739721 -0.088268057 1.0380001
-0.11147728 -0.086020283 1.0372001
-0.095750585 -0.011763465 1.0324001
-0.10052123 -0.005430073 1.033
-0.095989361 -0.0055494052 1.0349202
-0.10079337 0.0053040837 1.0331428
-0.097165652 0.00272994 1.0380001
-0.10050178 0.01539111 1.0328
-0.10157104 0.021762811 1.0345001
-0.12111501 0.047903698 1.031
-0.11429389 0.046231255 1.034
-0.10748272 0.043696195 1.0352857
-0.12102734 0.050048899 1.0380001
-0.1182974 0.050048899 1.0380001
-0.36605656 0.078634366 1.031
-0.36438197 0.083182849 1.0313751
-0.3588258 0.085865118 1.031
-0.12229746 0.08589986 1.0333637
-0.11656447 0.083616786 1.0336366
-0.13105728 0.098518923 1.031
-0.12753987 0.094750792 1.0342501
-0.36126205 0.10646766 1.0380001
-0.35666421 0.10730136 1.0343333
-0.13274732 0.10525179 1.033412
-0.35432091 0.11468066 1.0354446
-0.34502342 0.11669696 1.0341431
-0.3351419 0.11737614 1.0344287
-0.32698998 0.11705068 1.0332223
-0.14009571 0.11840348 1.031
-0.13420036 0.11554829 1.0329502
-0.32352191 0.12166204 1.0372001
-0.3153795 0.1247042 1.0345
-0.30626851 0.12656787 1.0322858
-0.29479453 0.12810715 1.0315001
-0.28560153 0.12896328 1.0316001
-0.16359565 0.1292496 1.031
-0.15387933 0.1285717 1.031
-0.14405516 0.12561896 1.0334707
-0.13585889 0.12326295 1.0351766
-0.12739721 0.1228473 1.0380001
-0.31030318 0.13012713 1.0380001
-0.29483354 0.13103712 1.0380001
-0.28425115 0.1325818 1.0368572
-0.27476141 0.13330437 1.0343848
-0.26450399 0.13465795 1.0330001
-0.2542558 0.13767578 1.034875
-0.24467856 0.13640612 1.0350001
-0.23504983 0.13626339 1.0346154
-0.22455038 0.13550319 1.033875
-0.21458066 0.13615736 1.0354
-0.20495896 0.13513291 1.0345001
-0.19482893 0.13361208 1.0336667
-0.18644772 0.13184765 1.0331429
-0.17297114 0.13245453 1.0348333
-0.16450435 0.13441405 1.034706
-0.15596062 0.1339401 1.0346192
-0.1477327 0.13101572 1.0364001
-0.1220861 -0.14145343 1.0448573
-0.11840523 -0.14043412 1.0470001
-0.12490711 -0.1368126 1.0446001
-0.36261037 -0.12289814 1.041
-0.34527078 -0.12198553 1.041
-0.33857831 -0.12137713 1.041
-0.36462054 -0.11531559 1.0440003
-0.35725632 -0.11310961 1.0412728
-0.34363273 -0.11379544 1.0410001
-0.33766571 -0.11407626 1.041
-0.36459738 -0.10424905 1.0459619
-0.35510066 -0.10484429 1.0426668
-0.3458682 -0.10536821 1.0436089
-0.33829513 -0.10809475 1.0419999
-0.11882182 -0.10422006 1.041
-0.3629258 -0.097844943 1.0470001
-0.35451612 -0.0958234 1.0458002
-0.34854072 -0.097253717 1.0446
-0.12320235 -0.090348393 1.041
-0.11582894 -0.093974456 1.0422695
-0.14450134 -0.085014261 1.0444446
-0.13475151 -0.085016549 1.0428002
-0.12471175 -0.0845908 1.0438803
-0.11665544 -0.085233875 1.0443158
-0.14315899 -0.077740349 1.0467857
-0.13455488 -0.076952077 1.0462501
-0.12630947 -0.077317812 1.0462942
-0.11748736 -0.07985469 1.0470001
-0.091738783 -0.0030455401 1.043
-0.095273495 0.0054270923 1.043
-0.097779058 0.01352377 1.0447059
-0.10081974 0.021996005 1.0455
-0.11225104 0.048368331 1.041
-0.106125 0.047385089 1.0422857
-0.11520063 0.053886499 1.0446002
-0.10627071 0.053851586 1.0450001
-0.11558685 0.088124387 1.0443751
-0.12367531 0.09479323 1.0441668
-0.11779331 0.091481037 1.0470001
-0.36230618 0.10860059 1.041
-0.13069128 0.10601793 1.0425
-0.12742962 0.10408357 1.0445
-0.36093724 0.11453255 1.041
-0.35500529 0.11955192 1.041
-0.13106735 0.11548549 1.0455
-0.12941967 0.11198014 1.0470001
-0.35423112 0.12569852 1.0449475
-0.34533814 0.12420851 1.0435716
-0.33496466 0.12443544 1.043286
-0.32561362 0.12624614 1.0426668
-0.31302524 0.12867801 1.041
-0.30481175 0.12867801 1.041
-0.14145455 0.12867801 1.041
-0.13326392 0.12665735 1.0428462
-0.12868275 0.12318815 1.044
-0.32480863 0.13180211 1.0458751
-0.31512001 0.13178903 1.0425001
-0.30440828 0.13417837 1.044
-0.29524583 0.13589357 1.0426668
-0.28525952 0.13655283 1.0421538
-0.27543774 0.13756609 1.0415
-0.26465687 0.13932514 1.041
-0.25461817 0.13962933 1.041
-0.24731731 0.13962933 1.041
-0.23362817 0.13962933 1.041
-0.22567542 0.1388471 1.041
-0.21537596 0.13932513 1.041
-0.20499742 0.13764542 1.0413333
-0.19524214 0.13737221 1.0423335
-0.18471166 0.13647842 1.0430624
-0.17570424 0.13633193 1.0426154
-0.16518241 0.1392643 1.041
-0.15323211 0.13769759 1.0425
-0.14436367 0.13457733 1.0442611
-0.13664992 0.13219695 1.0461428
-0.30197921 0.14043412 1.0470001
-0.29446796 0.1412715 1.0464
-0.2850486 0.14115077 1.0455
-0.27514735 0.14176995 1.0453845
-0.26500884 0.14326319 1.0441874
-0.25458446 0.14489985 1.0442729
-0.24538763 0.14357132 1.0450001
-0.23480578 0.14427255 1.0450588
-0.22493432 0.14439727 1.0450437
-0.21494105 0.14374605 1.0459414
-0.20452444 0.14326122 1.0452858
-0.19526088 0.1429361 1.0462106
-0.1856797 0.14216186 1.0470001
-0.1748895 0.14152914 1.0464545
-0.16538817 0.14281951 1.0458461
-0.15588886 0.14121784 1.046
-0.14961281 0.14043412 1.0470001
-0.11582958 -0.14177541 1.057
-0.12173569 -0.138338 1.052
-0.11573265 -0.13901517 1.0561429
-0.37096149 -0.112301 1.0500001
-0.37096149 -0.1095395 1.0500001
-0.34595522 -0.10346441 1.05375
-0.36507428 -0.093800418 1.0510668
-0.35868815 -0.091743171 1.0500001
-0.36561838 -0.087245427 1.0539286
-0.35784435 -0.08813788 1.0500001
-0.114142 -0.080083497 1.0500001
-0.1463595 -0.078242503 1.0500001
-0.13585033 -0.0722799 1.0525556
-0.1238574 -0.073634185 1.0506315
-0.11599312 -0.074626215 1.0509499
-0.13320765 -0.065933123 1.0560001
-0.12582961 -0.066057459 1.0554001
-0.11639124 -0.067611605 1.0565001
-0.091436327 0.0052161664 1.0500001
-0.088072121 0.0062429621 1.05475
-0.093930453 0.015214771 1.0517499
-0.088479914 0.010791474 1.0549999
-0.10187042 0.026108008 1.0540001
-0.09746705 0.023084138 1.0531429
-0.10193003 0.03057901 1.057
-0.11352834 0.059218835 1.0500001
-0.1073303 0.059464298 1.0500001
-0.11315915 0.063594371 1.0513334
-0.10786586 0.06418395 1.0500001
-0.1211606 0.097206555 1.0510001
-0.11561348 0.094657898 1.0526429
-0.12394387 0.10536028 1.0520771
-0.11942304 0.10399312 1.0560001
-0.12740913 0.11430119 1.0532001
-0.34571347 0.1290015 1.0500001
-0.3359825 0.1297905 1.0500001
-0.12887001 0.1297905 1.0500001
-0.35234791 0.13321774 1.0538
-0.34374708 0.13308199 1.0549999
-0.33481914 0.13471831 1.0543126
-0.32589635 0.13634701 1.0537
-0.31423959 0.13701293 1.0529287
-0.30836749 0.1389955 1.0500001
-0.14267749 0.1389955 1.0500001
-0.13501242 0.13651854 1.0530626
-0.12714681 0.13233353 1.0556
-0.31266335 0.14272538 1.0558
-0.30502781 0.14382257 1.0521538
-0.29483205 0.14594492 1.0523001
-0.28542244 0.14656337 1.0532001
-0.27568713 0.14714792 1.0523334
-0.26527292 0.14798777 1.0506667
-0.24209149 0.14728001 1.0500001
-0.23441656 0.14838868 1.0513334
-0.2155285 0.14793751 1.0500001
-0.20619199 0.1482005 1.0500001
-0.19500661 0.14781082 1.0505002
-0.18500614 0.14728558 1.0518183
-0.17555548 0.1468859 1.0528668
-0.16539094 0.14755255 1.0526668
-0.15558453 0.14556074 1.0537144
-0.14561135 0.14299478 1.0545833
-0.13762848 0.14256793 1.0560001
-0.27243119 0.15104178 1.057
-0.265432 0.15157598 1.0558751
-0.25493792 0.15282972 1.0541251
-0.24524921 0.15237567 1.0541875
-0.23410998 0.15249771 1.0542308
-0.22539531 0.15194952 1.0533847
-0.21504679 0.15180582 1.0552728
-0.20490386 0.15159836 1.0550001
-0.1950942 0.15163977 1.0547001
-0.18611982 0.15162958 1.0562501
-0.16339692 0.15135065 1.057
-0.15783711 0.15165953 1.057
-0.12113985 -0.13608526 1.0656667
-0.11648709 -0.1369888 1.0630001
-0.11094786 -0.072725199 1.0635
-0.12359246 -0.062260866 1.0600001
-0.11446361 -0.063437432 1.0607824
-0.10903191 -0.062437076 1.0630001
-0.12440964 -0.055209212 1.0634813
-0.11546384 -0.055767305 1.0655999
-0.10944219 -0.057995006 1.067
-0.122912 -0.04845389 1.067
-0.11692542 -0.049576376 1.067
-0.0909568 0.018938044 1.0623335
-0.086890049 0.013981408 1.062875
-0.095972791 0.026193822 1.0628889
-0.10258052 0.034506697 1.0637501
-0.098824441 0.030767055 1.0635
-0.11300601 0.098484203 1.0618
-0.12021467 0.10903191 1.0630001
-0.11600436 0.10388944 1.0635002
-0.12368148 0.11494759 1.0620002
-0.11879622 0.11131299 1.067
-0.12571597 0.12106043 1.0622501
-0.35254335 0.13657777 1.0618571
-0.34569806 0.13742396 1.0606
-0.33825305 0.13846073 1.0600001
-0.1310266 0.13846073 1.0600001
-0.12829316 0.13723409 1.062
-0.35171166 0.1412459 1.067
-0.34385106 0.14170966 1.0642223
-0.33415663 0.14374901 1.0647223
-0.32478267 0.14352512 1.0643182
-0.31605747 0.14513758 1.0635
-0.30473021 0.14817157 1.0630001
-0.29364827 0.14961194 1.0600001
-0.153329 0.14899242 1.0600001
-0.14421634 0.14731973 1.0613334
-0.13425076 0.14465329 1.0622501
-0.12884194 0.14098114 1.0650001
-0.30242914 0.15112242 1.0654
-0.29465252 0.15245858 1.0640001
-0.28512609 0.15398169 1.062875
-0.27564672 0.15616716 1.0634583
-0.26535356 0.15704811 1.0629414
-0.25573456 0.15871094 1.0642223
-0.24553519 0.15829922 1.0627275
-0.23535998 0.1577909 1.061154
-0.22455528 0.15773876 1.0628573
-0.21503127 0.15769462 1.0635625
-0.20556211 0.15723823 1.0630715
-0.19553386 0.15620154 1.0626667
-0.18455142 0.15542008 1.0627273
-0.17553565 0.15304831 1.0620002
-0.16450061 0.1543974 1.0618571
-0.15427385 0.15334535 1.0637858
-0.1455182 0.15081765 1.0663333
-0.23385084 0.16182478 1.067
-0.22730301 0.16182478 1.067
-0.12362306 -0.13319005 1.072
-0.11812294 -0.13444084 1.0741111
-0.11312683 -0.05271747 1.0700001
-0.10810834 -0.053702407 1.0700001
-0.12257606 -0.047115047 1.0706
-0.11468479 -0.045654561 1.0726295
-0.108491 -0.047569685 1.0724
-0.085841358 0.017320389 1.0737
-0.09252467 0.026230665 1.072
-0.088472031 0.024398606 1.0748888
-0.10229254 0.037539307 1.0705001
-0.096008919 0.034294788 1.0743529
-0.089696147 0.031157609 1.077
-0.10381091 0.041524634 1.0765001
-0.098508395 0.041228756 1.077
-0.11439623 0.10769224 1.0708572
-0.12151723 0.1170115 1.0712001
-0.11707345 0.11425371 1.0732857
-0.12493115 0.12509112 1.0741667
-0.11896542 0.12179793 1.077
-0.12698926 0.13548328 1.0756668
-0.3451153 0.14575839 1.0726668
-0.3356615 0.14890432 1.0705
-0.32549757 0.1491473 1.0700001
-0.31759843 0.14893934 1.0712001
-0.13301167 0.14772242 1.0710001
-0.12802613 0.14348665 1.0754001
-0.33387864 0.15219386 1.0738335
-0.32495424 0.15243298 1.0744166
-0.31317806 0.15287742 1.0742222
-0.30480793 0.15604147 1.0740714
-0.2960898 0.15728189 1.0714445
-0.28703821 0.15852763 1.0700001
-0.19354755 0.15852763 1.0700001
-0.18239972 0.15889801 1.0725001
-0.17420195 0.15809329 1.0741112
-0.16569388 0.1581821 1.0712858
-0.15342075 0.15802248 1.0722222
-0.14515257 0.15438259 1.072
-0.13661869 0.15132317 1.0748001
-0.29234686 0.16147542 1.0740001
-0.28503913 0.16312487 1.0730667
-0.27491462 0.16419937 1.0733333
-0.26498944 0.16436039 1.0721334
-0.25515297 0.16383061 1.074
-0.24499454 0.16350506 1.0725555
-0.23577186 0.164574 1.0727143
-0.22548892 0.16414827 1.0727692
-0.21525376 0.1635548 1.0722001
-0.20485157 0.16369812 1.0731249
-0.19547717 0.16304082 1.0735292
-0.18848157 0.16115326 1.075
-0.17655979 0.16145307 1.077
-0.16711809 0.16145307 1.077
-0.11291671 -0.14074269 1.0823334
-0.10958771 -0.14008169 1.087
-0.11496831 -0.13469978 1.0849375
-0.12113458 -0.12935655 1.0823334
-0.084265202 0.0198828 1.08
-0.086080581 0.026027359 1.0816666
-0.092751659 0.037008811 1.082375
-0.088722169 0.032865886 1.0836
-0.10394849 0.045400437 1.0821428
-0.096477173 0.043967906 1.0825
-0.11609653 0.11704683 1.0855
-0.12237678 0.12725906 1.0821429
-0.11789019 0.12216789 1.0845
-0.12466112 0.13132378 1.0855
-0.35383084 0.14729753 1.0840001
-0.34765488 0.14912933 1.0835
-0.12551291 0.14534651 1.083625
-0.3437798 0.15447591 1.0846363
-0.33485603 0.15714563 1.0830833
-0.32477334 0.15733418 1.0840908
-0.31568733 0.1571334 1.081375
-0.14424396 0.15784836 1.0825
-0.1340314 0.15421496 1.0843076
-0.12864645 0.15151693 1.087
-0.33193961 0.16168158 1.087
-0.32781023 0.1610463 1.087
-0.31393138 0.16163087 1.0857999
-0.30492771 0.16276069 1.0835834
-0.29576069 0.16583467 1.0834
-0.28522715 0.16817324 1.0838001
-0.27646559 0.1675836 1.08
-0.26339975 0.16871974 1.08
-0.25468922 0.16812463 1.08
-0.24603274 0.16812463 1.08
-0.23537448 0.16796231 1.08
-0.22439161 0.1675836 1.08
-0.21492359 0.1675836 1.08
-0.20374697 0.16773877 1.081
-0.19336636 0.16710114 1.0829999
-0.18458427 0.16457886 1.0834666
-0.17445906 0.16559836 1.0835
-0.16471899 0.16528323 1.0838823
-0.15590833 0.16389598 1.0843999
-0.14842033 0.16173996 1.08525
-0.28778687 0.17057566 1.087
-0.27425846 0.17057945 1.085
-0.26466671 0.17238757 1.0852001
-0.25518692 0.17302187 1.0847999
-0.24551219 0.17204319 1.0851537
-0.23498452 0.17067438 1.0852001
-0.22569466 0.17099613 1.0851251
-0.21414658 0.17100172 1.0856667
-0.2042845 0.17085116 1.0852858
-0.19821084 0.17152861 1.087
-0.10797903 -0.1404683 1.09
-0.11243834 -0.13314229 1.09
-0.1067294 -0.13465025 1.0914546
-0.12176111 -0.1249551 1.0936667
-0.11561795 -0.1262092 1.0943201
-0.10771078 -0.12982994 1.097
-0.083268166 0.027054548 1.0943
-0.090778835 0.039178234 1.09
-0.086893015 0.03456609 1.09525
-0.092689969 0.041089367 1.09
-0.11490705 0.11650608 1.0953335
-0.11744297 0.12583333 1.0936251
-0.12404484 0.1353845 1.0926667
-0.11988416 0.13139305 1.0940001
-0.12349428 0.14168161 1.092
-0.3547267 0.15305673 1.0945834
-0.34623334 0.15829094 1.0910001
-0.32202595 0.15957963 1.09
-0.14142387 0.15957963 1.09
-0.13483098 0.15854868 1.0908
-0.12674895 0.15335734 1.0925555
-0.35102171 0.16156617 1.097
-0.34462318 0.16345505 1.0950001
-0.3356362 0.16515262 1.0934286
-0.32530728 0.16460106 1.0932633
-0.31517893 0.16560408 1.0937144
-0.30557722 0.16776218 1.0917143
-0.29909235 0.1691353 1.09
-0.19111334 0.1691353 1.09
-0.18442437 0.1691353 1.09
-0.16244633 0.1691353 1.09
-0.15436912 0.16735196 1.0922222
-0.14537926 0.1650112 1.0961429
-0.13467066 0.16157806 1.096143
-0.33371106 0.17022149 1.097
-0.31063017 0.17022149 1.097
-0.30474234 0.17180286 1.0965716
-0.2949852 0.17267375 1.0942501
-0.2842913 0.17428792 1.0943333
-0.27522188 0.1762858 1.0938824
-0.26532003 0.17789797 1.0939168
-0.25473139 0.1788241 1.0941429
-0.24514398 0.17695078 1.0942727
-0.23565006 0.17647474 1.0950589
-0.2252578 0.17644414 1.0945625
-0.21609055 0.17537075 1.0944445
-0.20509617 0.17467341 1.09325
-0.19488694 0.17319262 1.0951002
-0.18621476 0.1724927 1.0957143
-0.17533043 0.1734127 1.0937144
-0.1654592 0.17378083 1.0945001
-0.155109 0.17104581 1.097
-0.14906402 0.17022149 1.097
-0.25581306 0.18176194 1.097
-0.10352528 -0.13061894 1.1036667
-0.12161646 -0.12161646 1.1010001
-0.11352737 -0.12233611 1.1026666
-0.10708106 -0.12556377 1.1062939
-0.096163318 -0.12336103 1.108
-0.12125396 -0.11834255 1.1065
-0.116015 -0.1181488 1.1065
-0.078679077 0.018455587 1.108
-0.081247106 0.023788612 1.1032999
-0.076887697 0.024982722 1.1046
-0.083945602 0.036291752 1.1038123
-0.077221185 0.033065628 1.1056666
-0.091803648 0.042197764 1.1023334
-0.1120047 0.11490313 1.1013999
-0.10936592 0.11614344 1.1040001
-0.11365538 0.12500578 1.1030667
-0.10856925 0.12214049 1.1057501
-0.12168952 0.13810861 1.1016666
-0.11773936 0.13390081 1.1058888
-0.12161646 0.14381629 1.101
-0.1193139 0.14356206 1.1065
-0.36231232 0.1583295 1.108
-0.35680875 0.15782963 1.1018001
-0.13030335 0.15925965 1.1010001
-0.12398364 0.1551211 1.1049286
-0.3610172 0.16351002 1.108
-0.35506132 0.16463529 1.1035833
-0.34590086 0.16804972 1.1025714
-0.32428655 0.16940267 1.1042001
-0.31716222 0.16921858 1.103
-0.14244993 0.16835436 1.1024001
-0.13575146 0.16589502 1.103857
-0.12773208 0.16221489 1.108
-0.34304246 0.17239508 1.1059999
-0.33379957 0.17297238 1.1041539
-0.3252244 0.17280662 1.1073999
-0.31533515 0.17434075 1.1062306
-0.30580568 0.17644003 1.1046
-0.29460579 0.17779872 1.1042222
-0.28830382 0.17813663 1.1023334
-0.21361999 0.17882334 1.1026
-0.20480949 0.17872603 1.102
-0.19490308 0.1780255 1.1030908
-0.18573037 0.17745511 1.1049999
-0.17505735 0.17853317 1.1032
-0.16306511 0.17853945 1.1028334
-0.15507373 0.17609787 1.1032666
-0.14599498 0.17350973 1.1048665
-0.29140401 0.18164183 1.108
-0.28443241 0.18278326 1.1052727
-0.27519697 0.18321906 1.1057777
-0.26503026 0.18470655 1.1051818
-0.25498736 0.18459725 1.105
-0.24488646 0.18308508 1.1035882
-0.23534483 0.18465139 1.1041874
-0.22498704 0.18318303 1.1039999
-0.21582341 0.18192466 1.1049999
-0.20592549 0.18164183 1.108
-0.19407506 0.18203036 1.108
-0.17371589 0.1814779 1.107
-0.16490275 0.18139592 1.1065
-0.10213611 -0.12449942 1.1124002
-0.097171262 -0.12207298 1.114
-0.12127264 -0.11460891 1.1173999
-0.11383054 -0.11408781 1.1158181
-0.10506229 -0.11536124 1.1152306
-0.097187921 -0.11677266 1.117
-0.12066177 -0.1079089 1.1190001
-0.1153364 -0.10832932 1.1190001
-0.1079089 -0.10888989 1.1190001
-0.081131116 0.018572183 1.115
-0.081887677 0.038994133 1.1120001
-0.077988267 0.038019281 1.1120001
-0.09326227 0.04703277 1.1155455
-0.086206049 0.043506656 1.1162728
-0.078479201 0.040220588 1.1190001
-0.094371237 0.050815284 1.1190001
-0.086981118 0.050684482 1.1190001
-0.10757139 0.11930338 1.1155001
-0.1109074 0.12782063 1.113
-0.10592894 0.12528329 1.1147002
-0.11381168 0.13507867 1.1160001
-0.10850065 0.13000529 1.115
-0.12196449 0.14928669 1.113
-0.11761273 0.14211643 1.118
-0.36557001 0.1589011 1.1120001
-0.12077252 0.15658113 1.114
-0.11900158 0.15671754 1.1172501
-0.36375993 0.16494521 1.1132858
-0.35777116 0.16864963 1.1120001
-0.1313457 0.16850527 1.1153334
-0.12549165 0.16445166 1.1160001
-0.35315824 0.17443484 1.1153001
-0.34509775 0.17676789 1.1140001
-0.33476204 0.17804737 1.1132858
-0.32535255 0.17769206 1.113
-0.31812713 0.17774825 1.1120001
-0.30512908 0.17839816 1.1120001
-0.14392745 0.17712611 1.1138
-0.13624696 0.1722949 1.1145556
-0.33349222 0.18213819 1.1182001
-0.32510394 0.18189451 1.117
-0.31476215 0.18278109 1.1158462
-0.30486825 0.18331529 1.1158003
-0.29552117 0.18458113 1.1140001
-0.28455549 0.1878912 1.1154287
-0.27509141 0.18754247 1.1127501
-0.26270545 0.18848509 1.1140001
-0.25460571 0.18827359 1.1127501
-0.2466379 0.1881467 1.1120001
-0.23104024 0.1881467 1.1120001
-0.22519112 0.1881467 1.1120001
-0.21455947 0.18707921 1.1139286
-0.20475768 0.18643808 1.1148751
-0.19525675 0.18549848 1.1136429
-0.18474366 0.18298733 1.1150001
-0.17365672 0.18393256 1.1160001
-0.16405685 0.18512648 1.1146668
-0.15622026 0.18325266 1.1156365
-0.28154412 0.19129305 1.1190001
-0.27565819 0.19129305 1.1190001
-0.26584828 0.19129305 1.1190001
-0.25499088 0.19193619 1.1175454
-0.24426436 0.19265579 1.1165456
-0.23591205 0.1914037 1.1145557
-0.22493549 0.19149414 1.1156
-0.21516381 0.19162004 1.1190001
-0.20568089 0.19129305 1.1190001
-0.12207758 -0.11321712 1.123
-0.10238765 -0.11124812 1.123
-0.095852025 -0.11393532 1.1252501
-0.11414663 -0.1062654 1.1238573
-0.10501341 -0.10713872 1.1243846
-0.099699795 -0.10858393 1.126
-0.084362805 0.046503272 1.1233335
-0.079957262 0.044420701 1.126
-0.11238121 0.13899945 1.1245
-0.11618646 0.14544053 1.1247501
-0.1188692 0.15241046 1.12525
-0.12254648 0.16672547 1.1234287
-0.11886922 0.16622236 1.1252501
-0.36340913 0.17374383 1.1251429
-0.14115912 0.17866993 1.126
-0.13502122 0.17523183 1.1242001
-0.12680772 0.17098574 1.1248
-0.35242245 0.18203107 1.1248
-0.34494045 0.18331312 1.1242001
-0.33568326 0.18492289 1.124
-0.32557258 0.18677144 1.1242501
-0.31546104 0.18796186 1.1245
-0.30470172 0.18803886 1.123
-0.19000785 0.18803886 1.123
-0.18336251 0.18730047 1.123
-0.17536727 0.18776333 1.1247143
-0.16834892 0.18803886 1.123
-0.15398048 0.18601014 1.1241251
-0.14622785 0.18204701 1.1245
-0.30431429 0.19122368 1.1250001
-0.29467908 0.19119747 1.1242001
-0.28441864 0.19395852 1.1243334
-0.27507484 0.19548479 1.1246364
-0.26545388 0.19597013 1.1242501
-0.25511527 0.19687113 1.1243638
-0.24557538 0.19757992 1.125
-0.23471798 0.1961399 1.1242858
-0.22533061 0.19574969 1.1248751
-0.2158341 0.19454794 1.1242001
-0.20367713 0.1924897 1.126
-0.1924897 0.19051544 1.126
-0.18459269 0.19051544 1.126
-0.16216668 0.19075522 1.1245
-0.15812816 0.19100434 1.125
-0.092128903 -0.11293221 1.13
-0.11478224 -0.10210239 1.1324614
-0.1045799 -0.10248388 1.1313334
-0.094231397 -0.10513911 1.1314665
-0.08801838 -0.10311669 1.1332
-0.11373171 -0.097769372 1.138
-0.1046816 -0.096702769 1.1372
-0.09462098 -0.096610658 1.1361333
-0.087638617 -0.097595796 1.136
-0.081373952 0.044653893 1.132
-0.078537062 0.042748019 1.1340001
-0.10239642 0.052689418 1.1340001
-0.09841986 0.053683557 1.1340001
-0.11054416 0.067722499 1.136
-0.10807839 0.063184291 1.138
-0.12029094 0.078537062 1.1340001
-0.11405998 0.075967461 1.1368891
-0.10874349 0.076818794 1.138
-0.12054553 0.084684953 1.1364
-0.11622102 0.084085919 1.1367501
-0.12071525 0.090785846 1.138
-0.1177223 0.090785846 1.138
-0.10674819 0.1047529 1.138
-0.11127413 0.11525771 1.1366667
-0.1093519 0.11830266 1.1340001
-0.11258461 0.14631346 1.1315
-0.10946499 0.14463246 1.13
-0.11423454 0.15438452 1.1353334
-0.10684326 0.15379284 1.1366668
-0.11878236 0.16414602 1.1348001
-0.13421883 0.17786281 1.1313334
-0.12454219 0.17487127 1.1329334
-0.11871995 0.17359051 1.138
-0.35093141 0.18789245 1.1340001
-0.34496659 0.18789245 1.1340001
-0.33344367 0.18954585 1.132
-0.1518334 0.18855345 1.132
-0.14470202 0.18516544 1.1348889
-0.13767524 0.18157169 1.138
-0.34418809 0.19055051 1.138
-0.33520928 0.19154815 1.138
-0.32437631 0.19203821 1.135
-0.31415957 0.19392203 1.1343637
-0.30409777 0.19677275 1.1336
-0.29435641 0.19642225 1.1322223
-0.28545144 0.19875261 1.1311429
-0.27391011 0.1991173 1.13
-0.26251784 0.1991173 1.13
-0.24864897 0.1991173 1.13
-0.23527543 0.1991173 1.13
-0.22503015 0.19925827 1.1308
-0.21430516 0.19783486 1.1340001
-0.20575424 0.19583273 1.1320001
-0.195224 0.19440202 1.1323334
-0.18502206 0.19296895 1.1326667
-0.17546308 0.19261727 1.1340001
-0.16607016 0.1944662 1.1343637
-0.15426704 0.19252914 1.1335
-0.29530343 0.20052698 1.138
-0.28632459 0.20252228 1.138
-0.27535045 0.20252228 1.138
-0.26544529 0.20294818 1.1332729
-0.25665468 0.20246015 1.1328572
-0.24242814 0.20052698 1.138
-0.23323482 0.20271279 1.1353334
-0.22765808 0.20181042 1.1340001
-0.21449403 0.20052698 1.138
-0.11433224 -0.093267381 1.1440002
-0.10521595 -0.092185713 1.1430001
-0.095026292 -0.092025451 1.1409999
-0.086390331 -0.092617393 1.1414443
-0.11382377 -0.089648813 1.149
-0.10461971 -0.087035052 1.1482002
-0.095321678 -0.085282452 1.1445203
-0.085285537 -0.085284129 1.1445203
-0.079298884 -0.08231023 1.1450001
-0.095312074 -0.077626571 1.1478573
-0.08523383 -0.076843634 1.1483334
-0.078568615 -0.077561326 1.149
-0.10375088 0.057991128 1.149
-0.098714419 0.05741553 1.149
-0.10497745 0.06591519 1.1467143
-0.10564557 0.074536175 1.1450001
-0.11172546 0.0876785 1.1430001
-0.10745158 0.085363649 1.1455334
-0.11389896 0.095496796 1.1438237
-0.10701826 0.09579207 1.1459414
-0.11421061 0.10533727 1.1443688
-0.10576712 0.105566 1.1436002
-0.099721707 0.10979461 1.149
-0.11303127 0.11203098 1.1409999
-0.10451733 0.11472765 1.1427145
-0.099271394 0.11603736 1.1476667
-0.1032264 0.12332486 1.1460001
-0.098714419 0.12288938 1.149
-0.11203098 0.15904398 1.141
-0.10393647 0.15712309 1.1415714
-0.099200964 0.1583225 1.1430001
-0.1136417 0.16487572 1.1440771
-0.10641959 0.16356963 1.1470002
-0.12224591 0.17936337 1.1430001
-0.11576997 0.17516501 1.1483334
-0.14203782 0.18882728 1.1436667
-0.13623694 0.18551677 1.1450001
-0.12669587 0.18200213 1.1470001
-0.35032037 0.19373018 1.1450001
-0.3443886 0.19424877 1.1453078
-0.33538345 0.19622964 1.1457274
-0.3246676 0.19669881 1.1455715
-0.31563595 0.19840369 1.1430001
-0.20329578 0.19928767 1.1423334
-0.19505395 0.19905506 1.141
-0.18489335 0.19847608 1.1427779
-0.17576049 0.19832547 1.1440001
-0.1653928 0.19947375 1.1434
-0.15407461 0.19774531 1.1450001
-0.14531773 0.19305864 1.145
-0.13699144 0.1903778 1.149
-0.31357753 0.20155883 1.1476668
-0.30345175 0.20219706 1.1436666
-0.29388681 0.20482157 1.1458889
-0.28406307 0.20625639 1.1476668
-0.27437493 0.20748019 1.1445556
-0.26404059 0.20851454 1.1427143
-0.2551561 0.20738161 1.1450001
-0.2455337 0.20499502 1.1457275
-0.23548055 0.20497537 1.1450001
-0.22404794 0.20498891 1.1443335
-0.21576276 0.20411465 1.1458001
-0.20558998 0.20372984 1.1455716
-0.19518282 0.20223035 1.1476668
-0.18433407 0.2024653 1.149
-0.17627575 0.20112224 1.149
-0.16418827 0.2024653 1.149
-0.29174736 0.21239209 1.141
-0.27499017 0.21052361 1.149
-0.2666221 0.21229155 1.1476668
-0.11391159 -0.086401932 1.1549999
-0.10693181 -0.082866132 1.1543334
-0.1029233 -0.077274367 1.1547778
-0.094599053 -0.072775707 1.1547778
-0.086254649 -0.072440431 1.153
-0.078288265 -0.072624996 1.1537999
-0.091895886 -0.069175497 1.1570001
-0.084403999 -0.067858674 1.1553332
-0.077778526 -0.068152294 1.1559999
-0.10006887 0.059637003 1.153
-0.098047279 0.059637003 1.153
-0.1031116 0.066645779 1.1554
-0.10327834 0.075434096 1.155
-0.10345894 0.08418718 1.1570001
-0.10350064 0.094525829 1.1558571
-0.10217901 0.10319331 1.154
-0.09838742 0.11563058 1.1570001
-0.10167185 0.1279771 1.154
-0.096434593 0.12479457 1.1552222
-0.11017684 0.16880304 1.153
-0.1058106 0.16859046 1.155
-0.11306691 0.17247218 1.155
-0.10751615 0.17141727 1.1570001
-0.13250619 0.18773927 1.1560001
-0.12467585 0.18427481 1.1562001
-0.11826321 0.1809326 1.153
-0.34569246 0.19912694 1.153
-0.33255211 0.19912694 1.153
-0.32749814 0.19912694 1.153
-0.14454281 0.1971963 1.155
-0.13714591 0.19386974 1.1554
-0.33526805 0.20258084 1.1554
-0.325068 0.20206816 1.1563333
-0.31324029 0.20646113 1.1563333
-0.30617648 0.2074108 1.1554999
-0.29455 0.20952527 1.1545999
-0.28605545 0.20923491 1.153
-0.25573155 0.20923491 1.153
-0.24475132 0.20935589 1.1536666
-0.23379691 0.20996079 1.1570001
-0.22441316 0.20941131 1.1562001
-0.21453901 0.20876101 1.1535714
-0.2053583 0.20860127 1.1562001
-0.19542214 0.20656197 1.155
-0.18630056 0.2062798 1.1558571
-0.17499197 0.20371683 1.1537999
-0.16495274 0.20340508 1.1543334
-0.15524526 0.20241569 1.1552857
-0.31240541 0.21198939 1.1570001
-0.30829298 0.2112565 1.153
-0.29262927 0.21364689 1.155
-0.28455988 0.21456969 1.1541764
-0.27684116 0.21370432 1.1542
-0.26418287 0.21525559 1.1558571
-0.2559104 0.21246329 1.1564286
-0.24647571 0.21198939 1.1570001
-0.23836128 0.21198939 1.1570001
-0.22010382 0.21198939 1.1570001
-0.21579529 0.2124213 1.1556667
-0.1159963 -0.082706921 1.1623335
-0.11435245 -0.074847907 1.1662635
-0.10584632 -0.073098481 1.1628823
-0.09770976 -0.07022889 1.161
-0.10335737 -0.067392252 1.1672858
-0.094850861 -0.06489262 1.164778
-0.084917665 -0.062472362 1.1635
-0.07598263 -0.061924927 1.1618001
-0.083196767 -0.057083927 1.168
-0.075342193 -0.055700649 1.1666
-0.10155746 0.065895528 1.1623335
-0.098442368 0.064038157 1.1656667
-0.10111035 0.07455612 1.1650001
-0.099135742 0.074608713 1.1658001
-0.10121817 0.085253783 1.1623334
-0.096892789 0.084610209 1.167909
-0.08915963 0.085060336 1.169
-0.10144398 0.093876101 1.1621429
-0.099339828 0.09524335 1.1682
-0.10083262 0.10490385 1.1618
-0.099407859 0.10863127 1.169
-0.096852027 0.1154456 1.1653999
-0.093279004 0.12650929 1.1646364
-0.088854551 0.12970722 1.1650001
-0.10127209 0.13282421 1.161
-0.095977768 0.13426508 1.1655334
-0.10212816 0.16749594 1.1650001
-0.11303151 0.1770412 1.1615715
-0.10630864 0.17466882 1.1638
-0.12391836 0.18727705 1.1610001
-0.11659563 0.18502855 1.165
-0.14351121 0.19847295 1.161
-0.13422637 0.19659391 1.1646923
-0.12661622 0.19308187 1.1663332
-0.11990433 0.19164196 1.169
-0.34401977 0.20356201 1.161
-0.33078825 0.20559762 1.161
-0.32461056 0.20621832 1.1622002
-0.31786573 0.20868129 1.164
-0.18336096 0.20883076 1.1620001
-0.17551129 0.20714933 1.164
-0.16443619 0.20773581 1.165
-0.15426071 0.2067066 1.1638
-0.14548144 0.20290467 1.1654
-0.13835114 0.2018902 1.169
-0.32179451 0.21213843 1.169
-0.31494275 0.2132629 1.1676668
-0.30524042 0.21413131 1.1645002
-0.29822475 0.21389176 1.1636667
-0.27277309 0.21679352 1.161
-0.26349968 0.21958308 1.1650001
-0.25502366 0.21726599 1.1620667
-0.24443287 0.21640326 1.1614707
-0.23521747 0.21592009 1.1654446
-0.22453021 0.21561688 1.1646364
-0.21478802 0.21564029 1.1630001
-0.20527677 0.21323743 1.1638
-0.19487266 0.21221749 1.1638001
-0.1882627 0.21209578 1.1650001
-0.17729443 0.21008877 1.169
-0.16499656 0.21008877 1.169
-0.15406512 0.21008877 1.169
-0.27157819 0.22033702 1.169
-0.26850373 0.22033702 1.169
-0.11334219 -0.066972069 1.1753335
-0.10495614 -0.063555695 1.1756668
-0.096663021 -0.061185636 1.1730001
-0.09383402 -0.05671104 1.1762002
-0.08608637 -0.05339919 1.1742501
-0.074382529 -0.051530752 1.1730002
-0.068898112 -0.052444831 1.1730001
-0.081515096 -0.048496325 1.177
-0.074464217 -0.046776593 1.177
-0.068445161 -0.04471292 1.177
-0.094606362 0.057586484 1.1730002
-0.088394009 0.058126796 1.177
-0.095534749 0.064470463 1.1740911
-0.096590735 0.075608753 1.1755456
-0.095113426 0.084614642 1.1742002
-0.089617252 0.082404912 1.1750001
-0.097478494 0.094183639 1.1754001
-0.10008816 0.10318366 1.177
-0.097856164 0.10712867 1.1750001
-0.09413179 0.11406309 1.1756667
-0.089769788 0.11866122 1.177
-0.092344031 0.12195994 1.1730001
-0.089769788 0.1269159 1.177
-0.093221664 0.13751701 1.1750001
-0.089464709 0.13471124 1.1730001
-0.098487943 0.14172924 1.1743335
-0.10051728 0.16598456 1.1760001
-0.097911097 0.16181485 1.1756667
-0.10094641 0.17099208 1.1750001
-0.11434276 0.18542026 1.1750001
-0.12498168 0.19708985 1.1750002
-0.11659754 0.19088978 1.177
-0.17231672 0.20946284 1.177
-0.14515699 0.20727205 1.1743335
-0.13508013 0.20272234 1.1762002
-0.32289562 0.21492097 1.1730001
-0.31981063 0.21492097 1.1730001
-0.23485023 0.21940774 1.1750001
-0.22931759 0.21697763 1.1730001
-0.21978121 0.21978121 1.177
-0.20590474 0.21793817 1.1763334
-0.19571233 0.21734758 1.1750001
-0.18430382 0.21442458 1.1745001
-0.17485826 0.21344911 1.1751819
-0.16637321 0.21347038 1.1763334
-0.15512985 0.21384636 1.1750002
-0.14786369 0.21220823 1.1762002
-0.2704508 0.22314762 1.1730001
-0.26530913 0.22314762 1.1730001
-0.23445924 0.22109094 1.1730001
-0.2262326 0.22109094 1.1730001
-0.21771753 0.22184487 1.177
-0.11319754 -0.062465712 1.1810001
-0.1076757 -0.061085258 1.1810001
-0.11257452 -0.059414331 1.189
-0.10400334 -0.05674319 1.1855334
-0.095812418 -0.052661765 1.182091
-0.093804948 -0.047158536 1.1866668
-0.085092008 -0.044891886 1.1845293
-0.076397255 -0.04230031 1.1813077
-0.067297317 -0.040378388 1.1810001
-0.081825003 -0.037003662 1.189
-0.074973732 -0.035727348 1.18575
-0.06596867 -0.034613676 1.1864287
-0.074602365 0.036132477 1.1860001
-0.075049676 0.047948405 1.189
-0.067753181 0.04690605 1.189
-0.083727308 0.056759275 1.1832857
-0.075913757 0.05512134 1.1862798
-0.068795539 0.051075477 1.189
-0.092005581 0.066239037 1.1836668
-0.085181125 0.065421142 1.1865554
-0.076077171 0.064904019 1.1871052
-0.092239857 0.075480878 1.1841428
-0.086651586 0.074187726 1.1845556
-0.093180895 0.088004179 1.1810001
-0.095378205 0.094785579 1.1844286
-0.095119104 0.1048592 1.18425
-0.090866797 0.11332378 1.1823334
-0.087112442 0.11621847 1.1858001
-0.090074867 0.12320586 1.1810001
-0.086095244 0.12438644 1.1856668
-0.092145555 0.13977134 1.1810001
-0.093940221 0.14484486 1.1850002
-0.093606859 0.15559275 1.1849999
-0.094068579 0.16501844 1.1825651
-0.10215124 0.17626055 1.1850001
-0.095383964 0.17343505 1.187
-0.11213952 0.18662497 1.1866001
-0.10769981 0.18210559 1.187
-0.12209892 0.19819708 1.1836667
-0.11717234 0.19413608 1.1863334
-0.1433613 0.20880885 1.1850001
-0.13507751 0.20711161 1.1860911
-0.12626894 0.2034421 1.1855001
-0.1911484 0.21919735 1.1850001
-0.18444802 0.21864243 1.1820002
-0.17438141 0.21786582 1.1810001
-0.1647066 0.21788456 1.1835001
-0.15427025 0.21909887 1.1863333
-0.14434536 0.21435596 1.186
-0.12195573 0.21576783 1.189
-0.11987101 0.21472546 1.189
-0.2319169 0.22259882 1.1810001
-0.21425937 0.22502337 1.1883334
-0.20534481 0.22357538 1.1853077
-0.19685417 0.22205418 1.1850002
-0.18439485 0.22259237 1.1883334
-0.17556565 0.22127505 1.1850001
-0.16876096 0.22052813 1.1810001
-0.15948057 0.22202197 1.189
-0.11308794 -0.055319134 1.1956668
-0.10646174 -0.053099044 1.1934999
-0.10323939 -0.047497928 1.1964285
-0.096151508 -0.04279422 1.195154
-0.087852523 -0.040788669 1.1930001
-0.092869245 -0.038302004 1.197
-0.084987395 -0.034704603 1.1948667
-0.074256301 -0.030927671 1.193
-0.067283876 -0.031027278 1.1930001
-0.080801487 -0.02833299 1.197
-0.073477462 -0.025795562 1.1962001
-0.064925931 -0.02512921 1.1945001
-0.059747461 -0.024106286 1.1956667
-0.072164565 0.038696945 1.1930001
-0.065291755 0.037800487 1.193
-0.073823541 0.043529026 1.1939414
-0.064723052 0.04489452 1.1938423
-0.059694164 0.045035243 1.1946001
-0.070072845 0.056476623 1.1930001
-0.064778239 0.055739354 1.194895
-0.058914632 0.055916432 1.1969999
-0.083669059 0.065889388 1.1930001
-0.070072845 0.06379766 1.1930001
-0.065390214 0.063505553 1.1954
-0.09129519 0.089196451 1.197
-0.093267687 0.095365025 1.1954
-0.091738194 0.10394578 1.1936666
-0.088334903 0.10589519 1.1960001
-0.08446309 0.11397884 1.1948183
-0.082441106 0.12553604 1.1947143
-0.078702748 0.12697376 1.197
-0.087852523 0.13073291 1.1930001
-0.090990104 0.14746673 1.1930001
-0.088072561 0.14469382 1.196
-0.090990111 0.15165018 1.1930001
-0.088057652 0.15410064 1.1958001
-0.088997744 0.16229233 1.1943334
-0.09416759 0.17787173 1.1935
-0.088898383 0.17884263 1.1930001
-0.10487899 0.18623053 1.1944739
-0.095775045 0.18530558 1.1959568
-0.088898383 0.18198022 1.1930001
-0.12027428 0.1997599 1.1930001
-0.11359093 0.19597772 1.1946002
-0.10646503 0.19300386 1.1964999
-0.099690147 0.19203471 1.197
-0.13073291 0.2081268 1.1930001
-0.122366 0.20603506 1.193
-0.11485058 0.20514521 1.1961583
-0.14119154 0.21649371 1.1930001
-0.1346184 0.2145403 1.1958239
-0.12546204 0.21405992 1.1946003
-0.11774715 0.21138567 1.1956667
-0.21092337 0.22981203 1.197
-0.20649563 0.22955604 1.1956667
-0.19417404 0.22556697 1.1935714
-0.18595107 0.22654843 1.1950001
-0.17645249 0.22543116 1.1938001
-0.16486111 0.2224327 1.194
-0.15517437 0.22332908 1.1960001
-0.11505198 -0.052775331 1.204
-0.11171714 -0.048986379 1.2060001
-0.1047307 -0.044280428 1.2026666
-0.10103349 -0.038370531 1.2046667
-0.094995596 -0.035885472 1.204
-0.088000856 -0.031442527 1.2036
-0.08284124 -0.025801303 1.2048572
-0.07631804 -0.021713983 1.2024
-0.064278953 -0.020021314 1.202
-0.058149301 -0.020087941 1.2060001
-0.073264197 -0.017258644 1.2053334
-0.063945226 -0.016382564 1.2056669
-0.056563415 -0.01480164 1.2060002
-0.057956435 0.0474189 1.202
-0.06006394 0.055848926 1.202
-0.092703991 0.096080214 1.2044001
-0.088281214 0.097796544 1.2060001
-0.091676541 0.10010657 1.202
-0.084156483 0.10385111 1.2033333
-0.079294503 0.1004397 1.2060001
-0.081535257 0.11421797 1.2026668
-0.07844869 0.11693295 1.2060001
-0.081139006 0.12469414 1.202
-0.078765869 0.12422806 1.2060001
-0.085354023 0.14647171 1.202
-0.085638069 0.15330268 1.2060001
-0.087752581 0.16176078 1.2060001
-0.10352791 0.19756824 1.2029999
-0.097350322 0.19491352 1.2044001
-0.1106441 0.20442814 1.202
-0.10551969 0.20381917 1.2056669
-0.13593417 0.21812694 1.202
-0.23393324 0.22866447 1.202
-0.22308186 0.22942542 1.2060001
-0.21885282 0.22942542 1.2060001
-0.17398223 0.22797227 1.2028
-0.16523938 0.22643705 1.2036
-0.13488042 0.22023444 1.202
-0.20405118 0.23153993 1.2060001
-0.19494437 0.23077197 1.202
-0.18572533 0.23153992 1.2060001
-0.11729509 -0.050673086 1.2126669
-0.11581819 -0.047813401 1.2120001
-0.10168948 -0.034179829 1.2108001
-0.096305341 -0.032100901 1.2105001
-0.10110597 -0.028735381 1.2140001
-0.09351667 -0.026792394 1.2145001
-0.086078309 -0.023474105 1.2121819
-0.082219064 -0.015587484 1.2180001
-0.075921632 -0.013973122 1.2118461
-0.065502346 -0.012464009 1.21
-0.058342166 -0.011668433 1.21
-0.080149248 -0.0096179098 1.2190001
-0.07469254 -0.0085344594 1.2171251
-0.064483456 -0.0058047292 1.2148184
-0.056557614 -0.0046625854 1.2137692
-0.060913429 0.0010686567 1.2190001
-0.056638803 0.0032059702 1.219
-0.058342166 0.049856033 1.21
-0.086206138 0.088334687 1.2140001
-0.090363882 0.092487752 1.2126669
-0.086249277 0.094528869 1.2116001
-0.077284433 0.10531899 1.21
-0.075465977 0.11410819 1.21
-0.074216537 0.12260422 1.2141818
-0.083800569 0.14850733 1.21
-0.082620427 0.15549876 1.2135
-0.078695603 0.15420091 1.2154287
-0.090835817 0.16991641 1.2190001
-0.084882379 0.16260764 1.2168572
-0.1050159 0.20727381 1.21
-0.33662686 0.22762388 1.2190001
-0.16017577 0.22806484 1.21
-0.15805423 0.22806484 1.21
-0.27464476 0.2340358 1.2190001
-0.26731318 0.23124713 1.21
-0.2418548 0.23018636 1.21
-0.23550615 0.23211065 1.2134001
-0.22583877 0.23363702 1.2132223
-0.2195787 0.2323079 1.21
-0.20206571 0.23358329 1.2144001
-0.19683796 0.23337071 1.2136668
-0.18457341 0.2323079 1.21
-0.17560509 0.23201159 1.2140001
-0.16850366 0.2314229 1.2165
-0.085241981 -0.015244357 1.2246001
-0.081304699 -0.0075215078 1.2256669
-0.07517416 -0.0032194119 1.2249999
-0.068975843 -0.0017869389 1.223
-0.052536003 -0.0010721633 1.223
-0.064047448 0.0042164298 1.2254617
-0.053506806 0.0065711644 1.2237498
-0.048405148 0.0032270099 1.2270001
-0.054839294 0.013023274 1.2265557
-0.048405148 0.01505938 1.2270001
-0.059065416 0.055841915 1.2250001
-0.06776721 0.12800473 1.2270001
-0.083896473 0.16650915 1.2237999
-0.078353256 0.16422217 1.2243334
-0.091133885 0.17369047 1.223
-0.087361805 0.17284425 1.2265002
-0.33453336 0.22804204 1.2270001
-0.34150374 0.23196775 1.2250001
-0.33693194 0.23123968 1.2240001
-0.15975234 0.23265944 1.223
-0.082534075 -0.005406111 1.2333335
-0.07298965 0.0044138143 1.234154
-0.066840574 0.0075648823 1.2325716
-0.048602398 0.005940293 1.2320001
-0.063855447 0.014465637 1.2345456
-0.055082716 0.016789921 1.2320002
-0.047932625 0.014053551 1.2333335
-0.061762918 0.02058764 1.2360001
-0.054230414 0.023957914 1.2332634
-0.048007768 0.024546163 1.2325716
-0.050927319 0.031423241 1.2360001
-0.072893783 0.12826124 1.2336
-0.070431396 0.135445 1.2360001
-0.068043359 0.1339266 1.2320001
-0.081004001 0.16956837 1.2320001
-0.078843892 0.16956837 1.2320001
-0.092102602 0.1787874 1.2360001
-0.085481517 0.17637329 1.234286
-0.079099879 0.17445315 1.2360001
-0.086684801 0.18095452 1.2360001
-0.074218601 0.0087315999 1.245
-0.043657999 0.0098230503 1.245
-0.07094425 0.01200595 1.245
-0.067669898 0.0152803 1.245
-0.061666925 0.024011901 1.245
-0.057119217 0.028741516 1.245
-0.042864967 0.028504113 1.2410001
-0.053999305 0.03527151 1.2443334
-0.044861667 0.03475019 1.2409999
-0.053793252 0.045073483 1.2427503
-0.044737663 0.044737939 1.2446803
-0.038200751 0.049115248 1.245
-0.053438094 0.054531295 1.2440001
-0.045543227 0.053084157 1.245
-0.038200751 0.052389599 1.245
-0.054906506 0.063998416 1.2443334
-0.040383648 0.063304096 1.245
-0.074340954 0.13481142 1.2444285
-0.072323538 0.14209919 1.2436666
-0.081595749 0.17951065 1.2410001
-0.078394167 0.17530178 1.2420001
-0.090444818 0.18307079 1.243
-0.08549691 0.18372743 1.245
-0.079675846 0.18008925 1.245
-0.072581425 0.015408732 1.2545
-0.068472631 0.017943321 1.253
-0.063846759 0.026491212 1.2532222
-0.062709063 0.034917265 1.25125
-0.058079164 0.034701388 1.25
-0.060270835 0.040545832 1.25
-0.057348609 0.041276388 1.25
-0.043955095 0.056618053 1.25
-0.038354166 0.058079164 1.25
-0.05218922 0.063791282 1.2514286
-0.045318514 0.06476146 1.2502174
-0.051504165 0.071229167 1.25
-0.044687767 0.072895229 1.2546364
-0.037526593 0.078364357 1.2590001
-0.043597072 0.082227394 1.2590001
-0.036422871 0.084250875 1.2589999
-0.0756125 0.13588333 1.25
-0.080315813 0.18373618 1.2550001
-0.070587449 0.022788072 1.268
-0.067594506 0.025486454 1.2640001
-0.072254866 0.032236785 1.268
-0.068404548 0.033646468 1.2653333
-0.043741457 0.077938475 1.2664001
-0.044334538 0.085975699 1.2642858
-0.035274729 0.086432315 1.2640001
-0.029918879 0.087540425 1.2640001
-0.050022598 0.093375519 1.268
-0.044703957 0.094965011 1.2677777
-0.035825107 0.094954014 1.2657143
-0.029918879 0.09197285 1.2640001
-0.071566246 0.025713949 1.2755001
-0.07058394 0.030250261 1.2780001
-0.068075798 0.03013191 1.273
-0.075065456 0.081787743 1.2780001
-0.034595896 0.099323705 1.273
-0.045755863 0.1015557 1.273
-0.039059885 0.1015557 1.273
-0.08016941 0.024841227 1.2880001
-0.075741567 0.024914572 1.2852223
-0.07565283 0.030486962 1.2880001
-0.073109619 0.079858199 1.2830001
-0.08016941 0.089202583 1.2880001
-0.074032836 0.085708588 1.2848183
-0.068877943 0.08694429 1.2880001
-0.082879357 0.09597747 1.2880001
-0.076499686 0.095695175 1.2880001
-0.084419496 0.10108177 1.2840002
-0.076104484 0.10139737 1.2880001
-0.042741008 0.10572775 1.2830001
-0.035621192 0.10444438 1.2853076
-0.02709952 0.10275234 1.2880001
-0.043172911 0.1144985 1.2846667
-0.038616814 0.11359215 1.2880001
-0.45165867 0.15751596 1.2880001
-0.45165867 0.16146797 1.2880001
-0.080418386 0.028316334 1.2920001
-0.078153081 0.028316334 1.2920001
-0.072489813 0.08947961 1.2920001
-0.069091856 0.08947961 1.2920001
-0.08268369 0.096275531 1.2920001
-0.074331246 0.093628004 1.2945
-0.081628844 0.10317336 1.2932501
-0.07731849 0.10574441 1.2970001
-0.032887861 0.10736332 1.2936667
-0.026692966 0.10621102 1.29575
-0.041908175 0.1189286 1.2920001
-0.033711188 0.11556513 1.2946471
-0.035736442 0.12262151 1.2964444
-0.46049985 0.1489518 1.2970001
-0.45671055 0.15497704 1.295125
-0.10347033 0.21603698 1.2970001
-0.072185613 0.093955874 1.307
-0.083323658 0.10615206 1.302
-0.025111239 0.1084349 1.302
-0.025111239 0.11528341 1.302
-0.019478656 0.11687194 1.307
-0.041167825 0.12808669 1.3045001
-0.034470886 0.12738247 1.302
-0.026102237 0.1251875 1.3040835
-0.034335963 0.13344945 1.3055
-0.028645083 0.13176738 1.307
-0.46227509 0.14724317 1.302
-0.071106434 0.095705114 1.3153334
-0.022620337 0.12767071 1.312
-0.064285308 0.088139847 1.3272501
-0.058143605 0.088381588 1.3265001
-0.070696153 0.098511033 1.322
-0.065532289 0.094425172 1.3270001
-0.057711717 0.093968645 1.3280001
-0.072125994 0.10353696 1.327
-0.4740119 0.12864383 1.322
-0.064272813 0.098746419 1.3330001
