# .PCD v0.7 - Point Cloud Data file format
VERSION 0.7
FIELDS x y z
SIZE 4 4 4
TYPE F F F
COUNT 1 1 1
WIDTH 1469
HEIGHT 1
VIEWPOINT 0 0 0 1 0 0 0
POINTS 1469
DATA ascii
-0.16458832 0.053858824 1.1248571
-0.15556939 0.055886339 1.1258126
-0.14581586 0.056190372 1.1279999
-0.25237539 0.062847063 1.126
-0.24549079 0.062492713 1.1260002
-0.23546146 0.063937932 1.1258887
-0.22371879 0.061471067 1.1260002
-0.21366806 0.063983761 1.1259999
-0.20570046 0.064706385 1.1246876
-0.1991965 0.067930274 1.123
-0.15350688 0.061480723 1.1239002
-0.14480077 0.065302074 1.1249564
-0.13852678 0.067453653 1.126
-0.23394901 0.071073122 1.126
-0.21278499 0.072814532 1.1279999
-0.20394039 0.073639639 1.126
-0.19460106 0.076697469 1.1244999
-0.18452768 0.077714287 1.1240002
-0.17650621 0.078337796 1.123
-0.14157061 0.07344345 1.123
-0.13560222 0.075245835 1.1249499
-0.20514365 0.084368937 1.1299998
-0.19380586 0.083247691 1.126
-0.18382493 0.084892891 1.126
-0.1750018 0.086246938 1.1249089
-0.16488758 0.0872273 1.1238824
-0.15434235 0.088172287 1.1237501
-0.14444053 0.087198541 1.1235294
-0.13501067 0.086007275 1.1254998
-0.12865551 0.089170448 1.126
-0.24184602 0.099699795 1.126
-0.23564124 0.099135719 1.126
-0.21025798 0.099699795 1.126
-0.19355381 0.095692709 1.1279999
-0.1856609 0.094930723 1.128
-0.17373429 0.091802776 1.126
-0.16353399 0.093338303 1.126
-0.15475953 0.094544806 1.126
-0.14535829 0.094673611 1.1255263
-0.13545571 0.092680231 1.126
-0.12832646 0.091802776 1.126
-0.24351655 0.10607816 1.1260002
-0.23529929 0.10575638 1.1251109
-0.22328804 0.10733357 1.1260002
-0.21427734 0.10581274 1.1247368
-0.2051402 0.10580342 1.1243042
-0.19492935 0.10574119 1.1250355
-0.18618295 0.10600479 1.1279998
-0.15560871 0.10441277 1.1299996
-0.24431385 0.11475348 1.1260002
-0.23501988 0.11515268 1.124714
-0.2241675 0.1152246 1.1259999
-0.21472423 0.11550775 1.1242857
-0.20582478 0.11568683 1.1233529
-0.19384739 0.11567835 1.1229999
-0.18452808 0.11563352 1.1240432
-0.17620346 0.116988 1.1257694
-0.24184602 0.12141658 1.126
-0.23592329 0.12267292 1.1260002
-0.22012925 0.12141658 1.126
-0.21297258 0.12289726 1.126
-0.20446682 0.12431213 1.1260002
-0.19483741 0.1249899 1.1244998
-0.18444356 0.12486541 1.1245651
-0.17510287 0.12403052 1.1254706
-0.18057404 -0.15164229 1.138
-0.17581604 -0.15294689 1.1380002
-0.16581404 -0.15212271 1.136
-0.15806825 -0.15011513 1.1340001
-0.21183364 -0.14199838 1.138
-0.20457929 -0.14349455 1.1361333
-0.19505326 -0.14400192 1.1361055
-0.18494351 -0.14413886 1.136609
-0.17564495 -0.14406663 1.1354548
-0.16495293 -0.14437775 1.1346898
-0.15503953 -0.14413111 1.1375296
-0.21204172 -0.13626614 1.1373334
-0.20428173 -0.13706948 1.1329999
-0.19495542 -0.13586959 1.1312633
-0.18546586 -0.13529851 1.1320001
-0.17565244 -0.13496809 1.1320002
-0.16456741 -0.13473605 1.1316295
-0.15437011 -0.13445535 1.1360803
-0.14690347 -0.132687 1.138
-0.13667759 -0.13368465 1.138
-0.17633274 -0.12977296 1.13
-0.16338897 -0.12725112 1.1306155
-0.15447769 -0.12441385 1.1346157
-0.14453506 -0.12460288 1.1370404
-0.13701014 -0.12337565 1.138
-0.15401752 -0.11709879 1.1312308
-0.14449206 -0.11443359 1.134308
-0.1381028 -0.11529945 1.138
-0.14506871 -0.10633775 1.1358001
-0.13800779 -0.10807839 1.138
-0.19154815 -0.030927047 1.138
-0.18556228 -0.030927047 1.138
-0.17259288 -0.030927047 1.138
-0.164121 -0.032740496 1.1365715
-0.1540917 -0.033353042 1.1365883
-0.14396471 -0.032564659 1.1361539
-0.13444559 -0.031870339 1.136
-0.12662573 -0.031906579 1.1373334
-0.2519612 -0.023167571 1.138
-0.24442343 -0.024594164 1.1380004
-0.23628879 -0.024327232 1.1380002
-0.22297402 -0.023195282 1.138
-0.21511121 -0.023904948 1.1360003
-0.20512371 -0.023713833 1.1364003
-0.19480042 -0.024808716 1.1358184
-0.18508095 -0.024856722 1.13384
-0.17530526 -0.024767295 1.1335001
-0.16515692 -0.02478561 1.1307997
-0.15543318 -0.024613438 1.1304997
-0.13530853 -0.025675653 1.1303636
-0.12506676 -0.024535146 1.1322857
-0.1173202 -0.022268502 1.1373334
-0.25310883 -0.014143108 1.1380002
-0.24442343 -0.0149647 1.1380004
-0.23489527 -0.014353138 1.1368003
-0.22456242 -0.014711483 1.1342103
-0.21508944 -0.014870159 1.1306398
-0.17592482 -0.016258042 1.13
-0.1660962 -0.018491821 1.13
-0.12245017 -0.016362106 1.131
-0.11525937 -0.014632693 1.134143
-0.10635464 -0.013727386 1.1370771
-0.26204851 -0.0043231356 1.1380001
-0.25403711 -0.0049882336 1.1380004
-0.24477044 -0.0052484898 1.1380004
-0.23464456 -0.0047513987 1.1360004
-0.22434877 -0.0049581765 1.131143
-0.12184789 -0.0049531669 1.13
-0.11533869 -0.0049725701 1.1342667
-0.10475291 -0.0055133104 1.1380002
-0.096912995 -0.0024193495 1.1362858
-0.26138341 0.00099764671 1.138
-0.25415048 0.0042399983 1.1380002
-0.24451019 0.0049882336 1.1380004
-0.23438948 0.0050583673 1.1366156
-0.22467741 0.0049738558 1.1340002
-0.21502942 0.0049554119 1.1303197
-0.1218479 0.0019812665 1.13
-0.11445653 0.004579572 1.1323079
-0.10481785 0.0056441477 1.136667
-0.0960043 0.0049882336 1.1380002
-0.24342577 0.0149647 1.1380002
-0.23440666 0.01478586 1.1370002
-0.22523105 0.014952427 1.1368004
-0.21527572 0.014881662 1.1315999
-0.18822032 0.018822033 1.13
-0.11248554 0.013378371 1.1305001
-0.10508784 0.01503048 1.1327586
-0.095823087 0.015155904 1.1367369
-0.2843293 0.028183518 1.138
-0.27456897 0.026786679 1.1377144
-0.2646679 0.026895786 1.1364002
-0.2545079 0.028123468 1.1376002
-0.24392062 0.025021655 1.1374289
-0.23567644 0.025021296 1.1372002
-0.22514522 0.0248177 1.1371582
-0.21539745 0.024814649 1.1322399
-0.17930463 0.025756467 1.13
-0.10458343 0.024410103 1.1305922
-0.095449544 0.024857182 1.1342001
-0.29245302 0.035487715 1.1380002
-0.2843293 0.034917634 1.1380004
-0.2744326 0.034799639 1.1342001
-0.26620451 0.03364541 1.1310668
-0.25504267 0.03175462 1.132
-0.24479733 0.032030378 1.1321819
-0.23430239 0.033612195 1.1338184
-0.22516561 0.035066195 1.1341819
-0.21533434 0.034728557 1.13192
-0.20546761 0.034737539 1.1322401
-0.19543132 0.034717903 1.1315999
-0.18530199 0.034681145 1.1303198
-0.1789744 0.035002377 1.13
-0.1575107 0.037644066 1.13
-0.14760436 0.038634699 1.13
-0.1218479 0.038634699 1.13
-0.11986663 0.038634699 1.13
-0.1032657 0.035560329 1.1302221
-0.095196404 0.034795906 1.1340001
-0.29174039 0.042898804 1.138
-0.28394943 0.044499684 1.1376193
-0.27462032 0.044642624 1.1340001
-0.26632801 0.045340523 1.13
-0.23081757 0.042597234 1.13
-0.22472136 0.042292424 1.13
-0.21813746 0.042200979 1.13
-0.20431812 0.04135894 1.13
-0.19559506 0.04149653 1.13
-0.18445592 0.041804731 1.13
-0.17562513 0.043446343 1.13
-0.16417497 0.04601942 1.13
-0.13663122 0.046559758 1.13
-0.12304369 0.046377808 1.1308889
-0.11550944 0.045450538 1.1314543
-0.10469966 0.044614997 1.1326667
-0.096257888 0.043913171 1.1366668
-0.2827338 0.05431417 1.1374668
-0.27431354 0.054207277 1.1366001
-0.26468164 0.054492354 1.1340002
-0.25740162 0.05510902 1.131143
-0.2466677 0.058447365 1.13
-0.16147323 0.050522301 1.13
-0.15442872 0.051623002 1.13
-0.1355058 0.054645203 1.1301535
-0.12491718 0.054471053 1.1324829
-0.11456582 0.054796506 1.1364003
-0.10518351 0.0529592 1.1369336
-0.26327771 0.064310692 1.1377897
-0.25478539 0.064976312 1.1331999
-0.24598196 0.066646352 1.1308889
-0.23081757 0.066372432 1.13
-0.22515681 0.066513963 1.13
-0.21892996 0.065712012 1.13
-0.14413714 0.060923953 1.13
-0.13436876 0.064083606 1.131037
-0.1254389 0.064111188 1.1361055
-0.11472937 0.064181931 1.138
-0.26171598 0.071498007 1.138
-0.25441009 0.074704766 1.1376193
-0.24489541 0.074257657 1.1334548
-0.23517378 0.075365007 1.1318948
-0.22506562 0.074363433 1.13096
-0.20605172 0.076608978 1.13
-0.13174115 0.073311165 1.1314546
-0.12675175 0.074956104 1.13625
-0.27290168 0.086432479 1.1380001
-0.26448724 0.086019307 1.1380002
-0.25392482 0.085465059 1.1380002
-0.24481234 0.084837407 1.1372731
-0.2350111 0.084733889 1.1349603
-0.2253589 0.084256127 1.1341741
-0.21545751 0.084396563 1.1325601
-0.19569512 0.086545326 1.13
-0.18722969 0.087671041 1.13
-0.12694676 0.084195524 1.1327368
-0.28144723 0.094998136 1.138
-0.27463239 0.09441223 1.1369094
-0.26493263 0.094550692 1.1343335
-0.25505495 0.094427124 1.1347694
-0.24498236 0.094610848 1.1329565
-0.23501703 0.093869321 1.1338402
-0.22488752 0.094526522 1.135077
-0.21511789 0.094678402 1.1336362
-0.20547153 0.094296172 1.1322399
-0.17558974 0.09584377 1.13
-0.16651647 0.09627156 1.13
-0.15618986 0.0980727 1.13
-0.14463246 0.0980727 1.13
-0.13553667 0.096811898 1.13
-0.12644315 0.09496031 1.1312499
-0.28119382 0.10332769 1.138
-0.27506733 0.10492572 1.1378099
-0.26496026 0.10409773 1.1326667
-0.25463954 0.10475755 1.1311425
-0.24765834 0.10362025 1.13
-0.23081757 0.10302586 1.13
-0.22571982 0.10232303 1.1302667
-0.21638264 0.10090308 1.13
-0.20562717 0.10062004 1.13
-0.19565009 0.10005397 1.13
-0.1756632 0.10472011 1.1307139
-0.16545048 0.10430257 1.1306152
-0.14523803 0.10464577 1.1304443
-0.13494335 0.10426146 1.1334076
-0.12696663 0.10377079 1.1365715
-0.27036226 0.11173642 1.138
-0.26469439 0.11298116 1.1373847
-0.25485611 0.1143485 1.1331112
-0.24765833 0.118876 1.13
-0.23081757 0.118876 1.13
-0.2258644 0.11986663 1.13
-0.18227653 0.11194157 1.13
-0.17363285 0.1137237 1.1308572
-0.1650916 0.1150404 1.1321819
-0.15477481 0.11524351 1.1340001
-0.14500518 0.11245255 1.1351428
-0.13707665 0.1115369 1.138
-0.12869641 0.11073878 1.138
-0.25318044 0.12160681 1.1370001
-0.24515758 0.1244323 1.1321819
-0.23411645 0.12658948 1.1339999
-0.22498244 0.12530488 1.1333334
-0.21585497 0.12583466 1.1318183
-0.20605172 0.12878233 1.13
-0.18425781 0.12977296 1.13
-0.17435145 0.12853467 1.13
-0.16524063 0.12582038 1.130769
-0.1578076 0.12352994 1.1353334
-0.24043284 0.13069171 1.138
-0.23644225 0.13069171 1.138
-0.22047991 0.13069171 1.138
-0.21324717 0.13233633 1.1374285
-0.20480379 0.13455103 1.13475
-0.19538176 0.13487571 1.1325263
-0.18547757 0.13489601 1.1314
-0.17568453 0.13499211 1.1321999
-0.16464999 0.13476901 1.1335386
-0.15862583 0.132687 1.138
-0.19404227 0.14066818 1.138
-0.18356699 0.14066818 1.138
-0.17382194 0.14158343 1.1373334
-0.1654985 0.14199837 1.138
-0.21213527 -0.15169787 1.149
-0.2045743 -0.15438421 1.1450001
-0.19515079 -0.15464774 1.1420913
-0.18581173 -0.15502727 1.1415716
-0.22402516 -0.14297338 1.1485001
-0.21591146 -0.14458507 1.1446925
-0.20612249 -0.14861894 1.1421429
-0.19705451 -0.14904122 1.141
-0.188052 -0.14904122 1.141
-0.15304233 -0.14604039 1.141
-0.14504011 -0.14218219 1.1409999
-0.13903846 -0.14103901 1.141
-0.23066941 -0.13195498 1.149
-0.22484511 -0.13519575 1.1461114
-0.21772173 -0.13571642 1.1428462
-0.14320628 -0.13637103 1.1409999
-0.13670447 -0.13437051 1.1409999
-0.23402704 -0.12658277 1.149
-0.22611658 -0.12963884 1.1463333
-0.13303679 -0.12485271 1.1409999
-0.1258405 -0.12312593 1.1418571
-0.13272902 -0.11472405 1.1409999
-0.12511945 -0.11511247 1.1418003
-0.11782312 -0.11508904 1.1487143
-0.13443719 -0.10422884 1.141
-0.12515339 -0.10513132 1.1421202
-0.11886021 -0.10702457 1.149
-0.14153169 -0.097361729 1.145
-0.13467111 -0.095990263 1.1430001
-0.12548597 -0.095371053 1.1451603
-0.11929191 -0.095980346 1.149
-0.13195498 -0.089648813 1.149
-0.12563019 -0.085428335 1.1464403
-0.11986752 -0.085619651 1.149
-0.12544635 -0.076786481 1.149
-0.14404246 -0.061444689 1.149
-0.13799873 -0.061444689 1.149
-0.12591125 -0.061444689 1.149
-0.25282979 -0.051371794 1.149
-0.24880064 -0.05137179 1.149
-0.16015911 -0.05137179 1.149
-0.15387839 -0.054133695 1.1483848
-0.14506751 -0.055167541 1.1458336
-0.13565613 -0.055170834 1.1476668
-0.12601504 -0.054910265 1.1482729
-0.11986751 -0.05137179 1.149
-0.27499017 -0.041298889 1.149
-0.26467311 -0.043133605 1.1486667
-0.25536615 -0.045247078 1.1468184
-0.2455017 -0.044943258 1.1470002
-0.23817134 -0.041203041 1.1463333
-0.21253818 -0.041298889 1.149
-0.20457719 -0.041586727 1.1476667
-0.1938291 -0.042100664 1.1472857
-0.18429631 -0.042925034 1.1468463
-0.17538856 -0.041964497 1.1465
-0.16367592 -0.044082433 1.1464288
-0.15512033 -0.044878963 1.1441307
-0.14544576 -0.045141209 1.1442003
-0.13550991 -0.045171376 1.1450003
-0.12557587 -0.045208681 1.1459603
-0.11986752 -0.045328051 1.149
-0.29110682 -0.031225991 1.149
-0.28406122 -0.033842504 1.1480001
-0.2745907 -0.035427358 1.1458699
-0.26507622 -0.034814823 1.1433638
-0.25517869 -0.035026096 1.1414802
-0.24517003 -0.035026092 1.1414802
-0.23584105 -0.0348146 1.143087
-0.22566944 -0.03328101 1.1460003
-0.21500228 -0.034636389 1.1442384
-0.20531636 -0.035057522 1.1424403
-0.19552393 -0.035398617 1.1422178
-0.18495433 -0.035791337 1.1415716
-0.17543212 -0.035580151 1.1417274
-0.16556908 -0.037775014 1.1420909
-0.15579309 -0.038260587 1.1409999
-0.14484006 -0.03781046 1.1409999
-0.13475154 -0.037153136 1.1409999
-0.12479179 -0.03649218 1.1431177
-0.11648503 -0.034098532 1.1476668
-0.10778003 -0.031225989 1.149
-0.29168242 -0.025182249 1.149
-0.28443184 -0.025125582 1.1464403
-0.27427009 -0.025025154 1.1418002
-0.2650733 -0.025006913 1.1410003
-0.25644591 -0.026007196 1.1409999
-0.24906889 -0.029008023 1.141
-0.23306444 -0.026150091 1.1409999
-0.22639593 -0.026340617 1.1409999
-0.21505947 -0.029008025 1.141
-0.20505671 -0.029008025 1.141
-0.19905506 -0.029008023 1.141
-0.11388303 -0.026386203 1.1428668
-0.10687999 -0.024797194 1.1465557
-0.29186231 -0.014605705 1.149
-0.28457227 -0.0151591 1.1463336
-0.27481878 -0.014936103 1.1430955
-0.26507333 -0.015004151 1.1410003
-0.25782132 -0.016754635 1.1409999
-0.2310639 -0.01800498 1.141
-0.22906336 -0.019005256 1.141
-0.10515178 -0.019027464 1.1423334
-0.29211411 -0.0080583207 1.149
-0.28444293 -0.0051930817 1.1471668
-0.27489409 -0.0050162873 1.1444004
-0.26722777 -0.0056169378 1.1409999
-0.10402878 -0.0010002767 1.141
-0.28264555 0.0044320757 1.149
-0.27418825 0.0050214422 1.1456403
-0.26429528 0.0054459502 1.141
-0.2574712 0.0082022678 1.141
-0.10402878 0.0010002767 1.141
-0.093025722 0.0050013834 1.141
-0.29211411 0.018131219 1.149
-0.28383729 0.016094822 1.1476668
-0.27436027 0.014893255 1.1456668
-0.26453382 0.015206537 1.1419526
-0.25507057 0.01500415 1.1410003
-0.24906889 0.015004149 1.141
-0.091025174 0.011003044 1.141
-0.087406173 0.015330269 1.144143
-0.31125259 0.028204121 1.149
-0.30392882 0.026966333 1.1459233
-0.29455984 0.025163202 1.144273
-0.28493682 0.023446074 1.1415714
-0.27507609 0.022006087 1.1409999
-0.2650733 0.022006087 1.1409999
-0.25478473 0.022863466 1.1409999
-0.2490689 0.023006363 1.141
-0.2310639 0.02700747 1.141
-0.22906336 0.02700747 1.141
-0.085639313 0.025349116 1.1446524
-0.3116973 0.03617039 1.1460001
-0.3047277 0.03514903 1.142524
-0.29744592 0.034282207 1.1409999
-0.084976621 0.035060823 1.1426669
-0.078556217 0.035762612 1.1467143
-0.31241509 0.04261798 1.1483334
-0.30480489 0.045080561 1.1452003
-0.29602665 0.045738742 1.1414707
-0.28841311 0.048346702 1.141
-0.092225507 0.047813222 1.141
-0.08569359 0.044925161 1.1453481
-0.079575911 0.041298889 1.149
-0.30356601 0.053364009 1.1485001
-0.29447687 0.054700099 1.1457275
-0.28768325 0.05513655 1.1434001
-0.27440926 0.059016328 1.141
-0.10360008 0.058158938 1.1409999
-0.094891354 0.055404983 1.1436089
-0.088494927 0.054261867 1.1485556
-0.29110682 0.061444689 1.149
-0.28455156 0.065024808 1.1447896
-0.27498999 0.064871438 1.1413336
-0.26840758 0.06668511 1.1409999
-0.12103347 0.067018539 1.141
-0.11495993 0.065634429 1.1414707
-0.10530607 0.065194301 1.1440403
-0.096072465 0.06496641 1.1480911
-0.089648813 0.061444689 1.149
-0.2931214 0.078424715 1.149
-0.28459108 0.075794503 1.1474349
-0.27441472 0.075111046 1.1424001
-0.26554963 0.075687602 1.1410002
-0.25807136 0.079021856 1.141
-0.12120321 0.075130157 1.1426001
-0.1155132 0.075339995 1.1458004
-0.10649589 0.074892223 1.1482002
-0.099721707 0.072524875 1.149
-0.30185124 0.088977285 1.149
-0.29459912 0.085459851 1.1469049
-0.28503233 0.085442178 1.1430004
-0.27690995 0.083689816 1.1409999
-0.26547343 0.081822626 1.141
-0.25757122 0.081522547 1.141
-0.12137292 0.085263371 1.1442001
-0.11609799 0.085292093 1.1481305
-0.10912308 0.082262017 1.149
-0.30176759 0.095557891 1.1474001
-0.29459855 0.095192134 1.1430002
-0.28670427 0.094901234 1.1409999
-0.12111834 0.095090106 1.1418002
-0.11685995 0.09576726 1.145889
-0.30117971 0.10274358 1.149
-0.29411751 0.10407279 1.1466002
-0.28593835 0.10561855 1.1427143
-0.12201209 0.10628043 1.1421428
-0.11649551 0.10545424 1.1456002
-0.28344366 0.1134788 1.1455001
-0.2753652 0.11487088 1.1435266
-0.2658847 0.1183969 1.1445
-0.25907165 0.11903292 1.141
-0.14335145 0.11783473 1.1415
-0.1346646 0.11641587 1.1425557
-0.12523966 0.11549213 1.1437274
-0.1180013 0.11347464 1.1480001
-0.26451436 0.12268792 1.149
-0.25593805 0.12512654 1.1458889
-0.24764578 0.12867041 1.1436666
-0.15275303 0.12590586 1.1413332
-0.14498451 0.12560274 1.1441114
-0.13540754 0.12517928 1.1464547
-0.12727198 0.12392136 1.1476668
-0.24535269 0.1317253 1.1470001
-0.23427542 0.13468844 1.1436666
-0.22561175 0.13536973 1.1437829
-0.21631487 0.13706082 1.1434001
-0.20839097 0.1383716 1.141
-0.1535442 0.13541742 1.1412354
-0.1463398 0.13460106 1.1462634
-0.23335551 0.14068483 1.149
-0.224178 0.14292324 1.149
-0.21450172 0.14303976 1.1463335
-0.20470357 0.14404713 1.1442943
-0.19492982 0.14548136 1.1434002
-0.1852465 0.14619641 1.1422002
-0.17547895 0.14654952 1.1430002
-0.16450144 0.14739443 1.1425385
-0.15487772 0.14550726 1.1427603
-0.14765225 0.14381517 1.147182
-0.19517468 0.15116176 1.1484287
-0.18456705 0.15304272 1.1476668
-0.17433509 0.15313686 1.1474618
-0.16484502 0.15378237 1.1475716
-0.15491708 0.15378956 1.1475002
-0.14807163 0.15008621 1.149
-0.22137171 -0.15341337 1.1570001
-0.21516716 -0.15559693 1.1549999
-0.20923491 -0.15869507 1.153
-0.23126116 -0.14301676 1.1570001
-0.22603157 -0.14620684 1.1547143
-0.21934287 -0.14858711 1.153
-0.24140419 -0.13185942 1.1570001
-0.23501238 -0.13458432 1.1542499
-0.25053293 -0.1217164 1.1570001
-0.2444941 -0.12383378 1.1559333
-0.23753722 -0.1254511 1.153
-0.22945084 -0.12837118 1.153
-0.24444711 -0.11867349 1.1570001
-0.11422002 -0.11017684 1.153
-0.11578236 -0.10439774 1.1547499
-0.14226064 -0.09416189 1.155
-0.13770679 -0.092140295 1.155
-0.11508204 -0.094698153 1.1544285
-0.1338605 -0.085052446 1.155
-0.1163737 -0.085340865 1.1543332
-0.14301677 -0.072015539 1.1570001
-0.13446164 -0.075081691 1.1557999
-0.12323943 -0.074876703 1.153
-0.11664408 -0.075870439 1.153923
-0.26574749 -0.061872505 1.1570001
-0.16228853 -0.061872505 1.1570001
-0.15449634 -0.063854776 1.1561426
-0.14479606 -0.066831462 1.1549999
-0.13430722 -0.065890402 1.1533333
-0.12438374 -0.065946221 1.1543332
-0.11818571 -0.06669277 1.1562001
-0.29211938 -0.05172947 1.1570001
-0.28447828 -0.053893317 1.1569998
-0.27488264 -0.055672377 1.1566188
-0.26521012 -0.05567855 1.1546665
-0.25548837 -0.056237604 1.1548181
-0.24516386 -0.055673253 1.1545651
-0.23744093 -0.05417347 1.1549999
-0.17209347 -0.052405674 1.1570001
-0.16485849 -0.055223424 1.1557997
-0.1563458 -0.058110636 1.1538889
-0.13039277 -0.059637003 1.153
-0.12095866 -0.057278473 1.153
-0.11681262 -0.054863412 1.1553332
-0.30385631 -0.042455833 1.1570002
-0.29447123 -0.045149289 1.1560906
-0.28503311 -0.045838032 1.1548181
-0.27588052 -0.045638386 1.1543332
-0.26634493 -0.048012838 1.153
-0.24461278 -0.049529035 1.153
-0.23490658 -0.045563675 1.1549999
-0.22416101 -0.044629347 1.1569998
-0.21506785 -0.045829501 1.155588
-0.2055036 -0.046190578 1.15475
-0.19556555 -0.046580058 1.1549999
-0.18630056 -0.047047574 1.1558572
-0.17465088 -0.046788108 1.1551331
-0.16713542 -0.047545627 1.1538889
-0.11588208 -0.045173861 1.1541764
-0.31189826 -0.034993462 1.1570001
-0.30501312 -0.035466533 1.1558797
-0.29440552 -0.035729468 1.153
-0.28524682 -0.03901675 1.153
-0.23248324 -0.038410272 1.153
-0.22540765 -0.03841028 1.153
-0.21934287 -0.03942107 1.153
-0.11281992 -0.037608124 1.1537273
-0.10828031 -0.035421129 1.1543334
-0.30504945 -0.025180349 1.1566664
-0.29647443 -0.025269916 1.153
-0.3044197 -0.01529066 1.155727
-0.29666883 -0.015498883 1.153
-0.30296463 -0.0055396562 1.1569998
-0.29545271 -0.0041034706 1.1534705
-0.3022624 0.0050715166 1.1569999
-0.29455394 0.0050615575 1.1545998
-0.2864598 0.0056604617 1.153
-0.30374679 0.016035005 1.1560587
-0.29499727 0.014213214 1.153842
-0.28706625 0.012129559 1.153
-0.32317024 0.027627053 1.1565001
-0.31530094 0.025315506 1.1552221
-0.30560979 0.022366203 1.1538889
-0.32386807 0.03579703 1.1556666
-0.31693068 0.034458973 1.153
-0.32398781 0.044728741 1.1562498
-0.31599912 0.046878465 1.1540666
-0.080884598 0.046827853 1.1562001
-0.32254845 0.052743774 1.1570001
-0.31442115 0.05399232 1.1561999
-0.30569583 0.057666551 1.1539999
-0.29717422 0.059637003 1.153
-0.085027605 0.055674177 1.1546665
-0.30348468 0.065240748 1.1547776
-0.29505157 0.066106096 1.153
-0.28807706 0.069744967 1.153
-0.092060521 0.068792909 1.1539999
-0.08835686 0.064351462 1.1547143
-0.30393046 0.075606957 1.1543332
-0.29569691 0.074254677 1.153
-0.28706625 0.071766563 1.153
-0.10209046 0.077831335 1.153
-0.095602393 0.074022375 1.1539999
-0.31215185 0.084947906 1.1570001
-0.30553311 0.08440125 1.1543999
-0.11098547 0.088343635 1.153
-0.10507303 0.083992563 1.1543332
-0.09838742 0.080129966 1.1570001
-0.31268206 0.094145797 1.1569999
-0.30763212 0.094525799 1.1538889
-0.111947 0.094742417 1.1545999
-0.10853045 0.090272993 1.1570001
-0.31139112 0.10143033 1.1570001
-0.30535507 0.10471041 1.1551331
-0.29717422 0.10815524 1.153
-0.11141767 0.10432806 1.1553999
-0.30124807 0.11157337 1.1570001
-0.29409197 0.11378869 1.1554444
-0.28665966 0.11753663 1.1537999
-0.1202848 0.11826321 1.153
-0.11374771 0.11468399 1.1545384
-0.29178128 0.1213783 1.1570001
-0.28447583 0.12332279 1.1566923
-0.27586934 0.12484737 1.1550951
-0.26657549 0.12646091 1.1539999
-0.25910088 0.1276973 1.153
-0.12344378 0.1248617 1.1542
-0.11765918 0.1207021 1.1570001
-0.28096202 0.13084513 1.1570001
-0.27411547 0.13160585 1.1570001
-0.26540938 0.13118322 1.1570001
-0.25352484 0.13394341 1.1559998
-0.24564289 0.13648692 1.1546665
-0.2395588 0.13746834 1.153
-0.14237379 0.13717242 1.1541427
-0.1354537 0.13474102 1.155588
-0.12718374 0.13123919 1.156
-0.24292564 0.14327034 1.1570001
-0.23536506 0.14565258 1.1547499
-0.22513813 0.14748807 1.1544545
-0.21539217 0.14764075 1.1535
-0.20822412 0.14858711 1.153
-0.14344808 0.14438599 1.1554614
-0.13895956 0.14098816 1.1570001
-0.22340029 0.15189192 1.1570001
-0.21570851 0.15180741 1.1570001
-0.20454398 0.15329933 1.1558571
-0.19503629 0.15640698 1.1552857
-0.18536434 0.15801319 1.1554
-0.17570351 0.1580058 1.1535
-0.16442291 0.15835814 1.153
-0.15229337 0.15734735 1.153
-0.14691593 0.15502439 1.1557692
-0.19373193 0.16127422 1.1570001
-0.18561752 0.16127422 1.1570001
-0.17412205 0.16330284 1.1569999
-0.1650739 0.16406342 1.1551998
-0.15623115 0.16347314 1.1561428
-0.14910258 0.16127422 1.1570001
-0.22697163 -0.15233223 1.161
-0.25108171 -0.14245045 1.169
-0.24476691 -0.14460722 1.1682003
-0.23526797 -0.14577867 1.1640769
-0.22900724 -0.14860027 1.161
-0.25213966 -0.13334152 1.1682001
-0.24526624 -0.13594298 1.1647334
-0.23918535 -0.13842216 1.161
-0.26043576 -0.12153668 1.1650001
-0.25466985 -0.12501948 1.1637692
-0.24854919 -0.12763336 1.161
-0.26164883 -0.11483917 1.1670001
-0.25535119 -0.11637574 1.1645001
-0.24834564 -0.11704815 1.161
-0.26419944 -0.10760645 1.169
-0.11175243 -0.10411622 1.1615001
-0.10763165 -0.10303222 1.1665001
-0.14529039 -0.093033843 1.1630001
-0.13943997 -0.09058509 1.161
-0.1115229 -0.093783922 1.1610001
-0.1073105 -0.095046282 1.1658001
-0.1520706 -0.083145298 1.1676667
-0.14475715 -0.084611312 1.1627998
-0.13842215 -0.084478237 1.1610001
-0.1119591 -0.084478222 1.1610001
-0.10735866 -0.084866293 1.1663334
-0.29131064 -0.071164735 1.1680001
-0.28551576 -0.071122736 1.169
-0.27490884 -0.071481429 1.169
-0.26588476 -0.071623765 1.169
-0.2557959 -0.072352529 1.1689999
-0.24605078 -0.072389789 1.1689999
-0.1630646 -0.071933344 1.168
-0.15447256 -0.074178085 1.1643332
-0.14567405 -0.07569962 1.161
-0.13943997 -0.078371368 1.161
-0.112596 -0.073873624 1.1623335
-0.10820328 -0.075474165 1.1666
-0.30129808 -0.066101104 1.169
-0.29434946 -0.064802699 1.1684785
-0.28478923 -0.06430497 1.1659523
-0.27555764 -0.065041751 1.1646
-0.26505446 -0.065638579 1.165
-0.25472802 -0.065347798 1.1645998
-0.24420099 -0.06497886 1.1646364
-0.2375028 -0.062127832 1.1665
-0.18207695 -0.06114779 1.169
-0.17475261 -0.063784882 1.1657059
-0.16632791 -0.06452927 1.1624736
-0.15708201 -0.067514725 1.1610001
-0.1148898 -0.064726472 1.164158
-0.1096561 -0.068663165 1.169
-0.31369597 -0.051316854 1.1681111
-0.30405098 -0.053000912 1.1677692
-0.29461682 -0.055629015 1.1634616
-0.2860046 -0.058015171 1.161
-0.23290788 -0.055661384 1.1640769
-0.22491218 -0.054626696 1.1652354
-0.21470448 -0.055093098 1.1647893
-0.20513046 -0.054805398 1.1647781
-0.19529243 -0.054195471 1.1663334
-0.18488048 -0.055062369 1.1664737
-0.1756586 -0.055525165 1.1613078
-0.16997427 -0.058015171 1.161
-0.11299795 -0.05470838 1.1665001
-0.32418579 -0.043384183 1.169
-0.31510237 -0.044870082 1.1632
-0.30498442 -0.046956107 1.1620911
-0.29821834 -0.049872689 1.161
-0.23206067 -0.049872689 1.161
-0.22561455 -0.049533423 1.1610001
-0.21882915 -0.049872689 1.161
-0.2045798 -0.049872689 1.161
-0.1944017 -0.049872685 1.161
-0.18422361 -0.049872689 1.161
-0.17811675 -0.049872689 1.161
-0.1119229 -0.046138342 1.1621429
-0.10953102 -0.044019479 1.1676668
-0.3241725 -0.035337701 1.1683332
-0.31656748 -0.035799235 1.1625
-0.10928088 -0.039831351 1.1650001
-0.33101794 -0.024595762 1.169
-0.32550651 -0.025589904 1.1676003
-0.31564391 -0.025667336 1.1623334
-0.33101794 -0.017421996 1.169
-0.32535025 -0.015584596 1.1687896
-0.31528318 -0.015387412 1.1631818
-0.32205075 -0.0069175567 1.169
-0.31489268 -0.0051093888 1.1662003
-0.3081184 -0.0042186454 1.1621429
-0.32128209 0.0076861749 1.169
-0.31510872 0.0051139467 1.1670002
-0.30790988 0.0050978167 1.1630001
-0.32250389 0.015365688 1.1686
-0.31494379 0.015401488 1.1640478
-0.30788752 0.012722625 1.161
-0.33261171 0.027630955 1.1674001
-0.32652259 0.023900565 1.1653999
-0.31755671 0.02137401 1.161
-0.34331581 0.039968111 1.169
-0.33459318 0.03607931 1.164778
-0.32875264 0.032569923 1.161
-0.077485055 0.03976297 1.1630001
-0.33493689 0.044884723 1.1656154
-0.32801798 0.047369368 1.1620001
-0.080406986 0.049872689 1.161
-0.077249631 0.045258503 1.1645555
-0.33363676 0.053412173 1.1684284
-0.32590234 0.055822387 1.1653637
-0.31826183 0.057403255 1.1623334
-0.081177868 0.055705737 1.1623334
-0.078057773 0.053257376 1.165
-0.32438672 0.063117072 1.169
-0.3147296 0.064650469 1.1643333
-0.30839643 0.067175463 1.161
-0.084660828 0.064553842 1.1635715
-0.32226038 0.075743765 1.1689999
-0.31454906 0.074354194 1.1636668
-0.30839643 0.07022889 1.161
-0.09252318 0.076724336 1.1630001
-0.087815069 0.072621189 1.1667143
-0.32442623 0.084941573 1.1674
-0.31768689 0.08413735 1.1633333
-0.10263115 0.086843699 1.1620001
-0.096603885 0.083875075 1.1656153
-0.33101794 0.095308572 1.169
-0.32495078 0.094554745 1.1671177
-0.31791368 0.09495499 1.161889
-0.10601774 0.094569936 1.1641113
-0.32179451 0.10145751 1.169
-0.31444818 0.10488369 1.1638
-0.30839643 0.10890567 1.161
-0.1083311 0.10526786 1.1658001
-0.31052145 0.11375539 1.169
-0.30476096 0.11552134 1.1647334
-0.2975398 0.11840523 1.161
-0.1114502 0.11755706 1.161
-0.10935593 0.11549084 1.1658
-0.30334449 0.12454462 1.1676668
-0.29495153 0.12599458 1.1624737
-0.28629538 0.12780784 1.1610001
-0.12162829 0.12773515 1.161
-0.1152161 0.12541859 1.1630952
-0.1096561 0.1229788 1.169
-0.3010931 0.13179228 1.169
-0.29447627 0.13419414 1.1669999
-0.28478479 0.13540526 1.1633528
-0.27543262 0.13714941 1.1628826
-0.26487333 0.13632944 1.1637499
-0.25721794 0.13726999 1.1620001
-0.13211173 0.13781147 1.161
-0.12522238 0.13596275 1.1633159
-0.11686004 0.13236579 1.1678572
-0.28182641 0.14245044 1.169
-0.2748754 0.14353257 1.1671818
-0.26515594 0.14340693 1.169
-0.25533986 0.14538705 1.1664119
-0.24685371 0.14595307 1.1626
-0.23511411 0.14961807 1.161
-0.14215413 0.14893954 1.161
-0.13516223 0.14554447 1.163087
-0.12778781 0.14356531 1.1661428
-0.25313136 0.15064903 1.169
-0.24446881 0.15205652 1.168
-0.23392518 0.15391286 1.1642001
-0.22540416 0.15629205 1.1624546
-0.21440145 0.15612172 1.1616155
-0.20585208 0.15877835 1.1610001
-0.19847295 0.15979616 1.161
-0.14271757 0.15605821 1.162091
-0.13633271 0.15337102 1.1658001
-0.22033702 0.16089725 1.169
-0.21407197 0.16183315 1.1658889
-0.20537508 0.16281465 1.1638572
-0.19521019 0.16417477 1.1646001
-0.18382226 0.16548942 1.1616669
-0.17608112 0.16726011 1.1610001
-0.16590303 0.16997427 1.161
-0.15403081 0.16761488 1.161889
-0.14489585 0.16476262 1.1659526
-0.17406514 0.17243245 1.1666
-0.16451915 0.17371309 1.1642001
-0.15461332 0.17202303 1.168
-0.25529847 -0.13536347 1.1735716
-0.26016748 -0.12648459 1.1730001
-0.25811082 -0.12854125 1.1730001
-0.26016748 -0.11003131 1.1730001
-0.25752085 -0.11227733 1.1750001
-0.27091193 -0.10094641 1.1750001
-0.2637772 -0.10350282 1.1751055
-0.14961632 -0.10112 1.177
-0.10386133 -0.10180467 1.1730001
-0.27324876 -0.093834721 1.1762002
-0.2654368 -0.094990015 1.175737
-0.25830314 -0.092521362 1.177
-0.15288278 -0.093105219 1.1756668
-0.14927734 -0.095745735 1.1743335
-0.10337289 -0.09484344 1.174143
-0.2816914 -0.083578765 1.177
-0.27462798 -0.085254818 1.1740001
-0.26435205 -0.085375786 1.1733203
-0.25506938 -0.085550018 1.1743335
-0.24528067 -0.08547201 1.1746002
-0.23489867 -0.084661096 1.1765001
-0.22803588 -0.083578773 1.177
-0.20368457 -0.082340568 1.177
-0.19557996 -0.083015949 1.177
-0.16376723 -0.083283961 1.177
-0.15653658 -0.08621265 1.1747143
-0.10209835 -0.085182324 1.1747144
-0.09802448 -0.081515096 1.177
-0.28406861 -0.075873099 1.1735002
-0.27482119 -0.076867677 1.1730002
-0.26415226 -0.076867677 1.1730002
-0.25451168 -0.076610588 1.1730002
-0.24488942 -0.076977856 1.1730002
-0.23512255 -0.075281419 1.1763333
-0.2255853 -0.074679174 1.177
-0.21527863 -0.072509974 1.177
-0.2053355 -0.075324066 1.177
-0.1951891 -0.075152121 1.177
-0.18469876 -0.073260404 1.177
-0.17441484 -0.074508674 1.1755883
-0.16612346 -0.076236516 1.1740668
-0.15870559 -0.07849586 1.1730001
-0.10309099 -0.074769855 1.1748002
-0.09802448 -0.075324073 1.177
-0.071196727 -0.07738775 1.177
-0.068445168 -0.07669986 1.177
-0.31058285 -0.060878363 1.177
-0.30418 -0.062522464 1.1730002
-0.23415995 -0.065906048 1.1746001
-0.22514555 -0.064606316 1.1745653
-0.2154199 -0.064938098 1.1757201
-0.20502958 -0.064912148 1.17524
-0.19456591 -0.064858846 1.1742803
-0.18567258 -0.065444544 1.1739414
-0.17831242 -0.068075448 1.1730001
-0.11071686 -0.063070908 1.1730002
-0.10496768 -0.06557887 1.1762
-0.09802448 -0.069133058 1.177
-0.31227979 -0.056624781 1.1743335
-0.30618528 -0.057329401 1.1730002
-0.22520427 -0.058614809 1.1730001
-0.202581 -0.058614809 1.1730001
-0.19435437 -0.058614809 1.1730001
-0.11083333 -0.055194307 1.1752857
-0.10765496 -0.058126796 1.177
-0.33009392 -0.04010487 1.1730001
-0.32803726 -0.04010487 1.1730001
-0.11003131 -0.04833151 1.1730001
-0.33219773 -0.034216397 1.1747779
-0.32803726 -0.037019879 1.1730001
-0.34153792 -0.023732243 1.177
-0.33623663 -0.025737472 1.1743335
-0.34153792 -0.016509388 1.177
-0.33559328 -0.015005811 1.1740528
-0.32803726 -0.01131163 1.1730001
-0.33466643 -0.0051467 1.1746002
-0.32624522 -0.0039422237 1.1733335
-0.33457878 0.0048736292 1.1762729
-0.32573482 0.0044998196 1.1735002
-0.33304784 0.015195263 1.1752501
-0.32726604 0.014653703 1.1730002
-0.34153792 0.029923264 1.177
-0.33566561 0.025226083 1.1745001
-0.35066053 0.031878229 1.1730001
-0.34430155 0.034692708 1.1738573
-0.35342494 0.04410851 1.1761112
-0.34530258 0.044739265 1.1737621
-0.073471859 0.044456117 1.1738002
-0.34321335 0.054624461 1.1756668
-0.33667523 0.057792146 1.1730001
-0.075252987 0.054637298 1.1759092
-0.34222582 0.061566252 1.177
-0.3349174 0.06476067 1.1744002
-0.3259806 0.067869775 1.1730002
-0.081760213 0.066522695 1.1746
-0.078984685 0.063313395 1.1762002
-0.33202112 0.074832499 1.175182
-0.3268947 0.073925503 1.1730002
-0.086737528 0.075841561 1.1758573
-0.33241019 0.085749142 1.1744287
-0.093505189 0.086956173 1.1744547
-0.089081906 0.082202993 1.177
-0.34176368 0.096393444 1.1760001
-0.33513483 0.096241057 1.1734446
-0.32803726 0.099748008 1.1730001
-0.10226199 0.096772902 1.1743335
-0.097567149 0.092416145 1.1756668
-0.3427172 0.10244664 1.177
-0.3355419 0.10392269 1.1754616
-0.32541078 0.10469434 1.1754001
-0.31981063 0.10694632 1.1730001
-0.10494614 0.10377091 1.1752857
-0.32090122 0.11040653 1.177
-0.31434229 0.11358649 1.1743335
-0.30952734 0.11825795 1.1730001
-0.10753223 0.11406135 1.1756668
-0.31140834 0.12485223 1.177
-0.30829334 0.12442793 1.1730001
-0.11040653 0.1269159 1.177
-0.10834285 0.12175673 1.177
-0.31058285 0.13104326 1.177
-0.30449015 0.13494441 1.1750001
-0.29820079 0.13723427 1.177
-0.12031461 0.13882455 1.1730001
-0.11614057 0.13545683 1.1750001
-0.28587574 0.14190954 1.1730001
-0.27434555 0.14798979 1.1750001
-0.26649001 0.14816426 1.1736668
-0.12465746 0.14526358 1.175182
-0.26164293 0.15142225 1.1750001
-0.25419563 0.15411036 1.1752857
-0.24515811 0.15698715 1.1750001
-0.23647082 0.15826586 1.1738001
-0.13336135 0.15648764 1.1752223
-0.12800181 0.15202422 1.1743335
-0.22400004 0.16318946 1.1756667
-0.21528916 0.16687436 1.1750001
-0.20444356 0.16711183 1.1735716
-0.19435437 0.1689889 1.1730002
-0.18715605 0.16967446 1.1730001
-0.14190954 0.16864613 1.1730001
-0.13783063 0.1641109 1.1755002
-0.2053355 0.17025305 1.177
-0.19501713 0.171904 1.177
-0.18469876 0.17272946 1.177
-0.17566875 0.17526302 1.1746
-0.16478987 0.17790109 1.1730002
-0.15546155 0.17735682 1.1732858
-0.1461468 0.17418426 1.1756668
-0.16390373 0.18334219 1.1758573
-0.15575299 0.1827794 1.1766001
-0.14961632 0.18057142 1.177
-0.26194185 -0.12941791 1.1810001
-0.25587559 -0.11288222 1.1844286
-0.26075134 -0.10492385 1.1850001
-0.25613648 -0.10463461 1.1862305
-0.24559529 -0.10303295 1.189
-0.23366161 -0.10284585 1.189
-0.2254333 -0.10300379 1.189
-0.21785255 -0.10235943 1.189
-0.20221719 -0.1011086 1.189
-0.19353089 -0.10273005 1.189
-0.18524167 -0.10319331 1.189
-0.17535645 -0.10351403 1.189
-0.16573474 -0.10423565 1.1889998
-0.15606546 -0.10458322 1.1876665
-0.1024469 -0.10334134 1.1872857
-0.26297718 -0.09628693 1.1810001
-0.25459981 -0.09566927 1.1830952
-0.24489154 -0.095470555 1.1836666
-0.23511988 -0.094608255 1.1836666
-0.22585654 -0.094615422 1.1881664
-0.21573937 -0.094842255 1.1888397
-0.20506792 -0.094731018 1.1873997
-0.19455349 -0.094680518 1.1867598
-0.18447976 -0.094935186 1.186565
-0.17537324 -0.094458289 1.1875453
-0.1654696 -0.094706059 1.1870797
-0.1567103 -0.096517317 1.1838
-0.10111712 -0.095197864 1.1821431
-0.094633691 -0.09407375 1.1862725
-0.085113585 -0.094422214 1.1862631
-0.077750258 -0.091746673 1.1825
-0.22424828 -0.085201107 1.1826471
-0.21479002 -0.085088387 1.1835999
-0.20528035 -0.085933499 1.181
-0.19506174 -0.086886913 1.1814445
-0.18538852 -0.084927961 1.1813999
-0.17527004 -0.085045084 1.183
-0.16618267 -0.086200178 1.1818001
-0.094014704 -0.085077308 1.1812105
-0.084898151 -0.084898137 1.181
-0.076310903 -0.084715456 1.181
-0.22200719 -0.077946559 1.1810001
-0.21563378 -0.077838995 1.181
-0.19153851 -0.079721436 1.1810001
-0.18532646 -0.078686088 1.181
-0.17662957 -0.079307295 1.1810001
-0.093180902 -0.075580075 1.181
-0.084898151 -0.07558006 1.181
-0.075752616 -0.07549379 1.1809999
-0.066779643 -0.072732873 1.1810001
-0.10125659 -0.062741801 1.1810001
-0.094107836 -0.065098338 1.1818331
-0.085056126 -0.065343931 1.1832
-0.075733095 -0.065355264 1.1833998
-0.066930778 -0.065705292 1.1831176
-0.10431933 -0.05451639 1.1835452
-0.094675198 -0.055136617 1.1867598
-0.084506728 -0.055537622 1.1885998
-0.075352132 -0.055399928 1.1862726
-0.067209437 -0.055013902 1.184
-0.10722166 -0.045882106 1.1874616
-0.094854459 -0.048990764 1.189
-0.08130382 -0.048990764 1.189
-0.074140139 -0.046357404 1.1883334
-0.067582823 -0.04574417 1.1860001
-0.34120482 -0.031114653 1.1830001
-0.33786702 -0.034166332 1.1810001
-0.34476936 -0.024227034 1.1810001
-0.35187113 -0.015791787 1.1832223
-0.34624839 -0.01479062 1.181
-0.35101798 -0.0049231406 1.1820002
-0.34552479 -0.0050630416 1.1812222
-0.353248 0.0050790771 1.18775
-0.3447935 0.0055348831 1.1834445
-0.35335889 0.014071815 1.189
-0.34513733 0.015263157 1.1869999
-0.33913061 0.01659004 1.1830001
-0.3450599 0.024460023 1.1873335
-0.33855727 0.022777554 1.1810001
-0.34697589 0.03012665 1.1850001
-0.35512277 0.048661131 1.1810001
-0.071438693 0.048661135 1.1810001
-0.35526597 0.054896902 1.1814799
-0.34891069 0.054873198 1.1810001
-0.07209944 0.05581674 1.182143
-0.068850555 0.055866681 1.1855
-0.36180013 0.06304127 1.1866
-0.35462186 0.065378301 1.1868331
-0.34539971 0.066464357 1.1831539
-0.33855727 0.069368005 1.1810001
-0.07512898 0.065454073 1.183
-0.068957023 0.063125439 1.1882001
-0.35127419 0.071922608 1.189
-0.34459013 0.074628882 1.1870002
-0.33809438 0.075968646 1.1830002
-0.083209932 0.076429307 1.1824546
-0.077755079 0.074018024 1.1858002
-0.34425509 0.084800571 1.1874617
-0.3386018 0.084389165 1.1826001
-0.090074867 0.086968839 1.1810001
-0.084754184 0.083797932 1.1868463
-0.3528029 0.09711735 1.1880001
-0.34505448 0.093502633 1.1839092
-0.33855727 0.090074867 1.1810001
-0.10042831 0.098357618 1.1810001
-0.095279939 0.095283054 1.1827779
-0.088600315 0.090685032 1.189
-0.35436454 0.10564757 1.1859233
-0.34639627 0.10575293 1.181
-0.33338055 0.10767571 1.1810001
-0.32716849 0.10871105 1.1810001
-0.10229035 0.1054062 1.1834002
-0.098912835 0.10307992 1.1876668
-0.3530919 0.11367456 1.1874001
-0.34448734 0.11379359 1.186143
-0.33458236 0.11487563 1.1862726
-0.32516629 0.11557757 1.1854209
-0.3177084 0.11616196 1.1815716
-0.10504034 0.11475109 1.1863334
-0.32289436 0.12422649 1.1885556
-0.31614459 0.12505211 1.1832223
-0.11078174 0.12941791 1.1810001
-0.10812895 0.12476281 1.1860001
-0.31339428 0.13450754 1.1863334
-0.30749696 0.13925368 1.1810001
-0.29921421 0.13977134 1.1810001
-0.11301997 0.13675678 1.1827779
-0.30369145 0.14313988 1.1841112
-0.29570249 0.14282253 1.1872222
-0.28727227 0.14519528 1.1830001
-0.12212755 0.14659671 1.1826001
-0.11629037 0.14462316 1.18575
-0.27480006 0.1532317 1.1867143
-0.26568139 0.1566654 1.1866001
-0.25650799 0.15764046 1.1830001
-0.13355929 0.15840752 1.1810001
-0.12546064 0.1548643 1.1855716
-0.11917611 0.15183662 1.189
-0.26406369 0.16399746 1.189
-0.25537255 0.1655158 1.1880907
-0.2451956 0.16573197 1.1853807
-0.23533864 0.16593857 1.1851999
-0.22601567 0.16746563 1.1832224
-0.13337983 0.16592231 1.185941
-0.12853916 0.16395824 1.1882001
-0.25746208 0.17251003 1.189
-0.24411993 0.17323968 1.189
-0.23363681 0.17258449 1.189
-0.224582 0.17354089 1.1882001
-0.21552809 0.17491357 1.1864736
-0.20544732 0.17546307 1.1852858
-0.19546279 0.17621595 1.1842728
-0.18579635 0.17645809 1.1840001
-0.17698935 0.17906426 1.1834
-0.14259817 0.17760237 1.1830001
-0.1377254 0.17372431 1.1866001
-0.2115984 0.1803277 1.189
-0.20430189 0.1824124 1.189
-0.19492073 0.18267299 1.1889999
-0.18487616 0.18203336 1.189
-0.17419426 0.1845995 1.1865386
-0.16663845 0.1864849 1.1827143
-0.15334255 0.18652809 1.1827779
-0.14514045 0.1835719 1.1871539
-0.13863343 0.1803277 1.189
-0.17198884 0.19075127 1.189
-0.16556424 0.19231781 1.1877694
-0.15687074 0.19123226 1.1876667
-0.26758936 -0.13117126 1.197
-0.25289816 -0.12067755 1.197
-0.24639331 -0.12215079 1.1960001
-0.20042966 -0.12067755 1.197
-0.19518282 -0.12067755 1.197
-0.1848743 -0.12351702 1.1970003
-0.17556141 -0.12428617 1.1959094
-0.16754942 -0.12207671 1.197
-0.253032 -0.11552567 1.1943333
-0.24585395 -0.11446254 1.1955266
-0.23524261 -0.11384901 1.1958001
-0.22531298 -0.11423077 1.1954001
-0.21480952 -0.11402519 1.1960002
-0.20462714 -0.11396158 1.1970003
-0.19526084 -0.11511268 1.1955884
-0.18521091 -0.11510441 1.1936003
-0.17465916 -0.11504497 1.1930002
-0.16444933 -0.11490068 1.1932107
-0.15792537 -0.11190738 1.1930001
-0.10178889 -0.11018385 1.197
-0.25275028 -0.1091184 1.1930001
-0.24539757 -0.10791409 1.193
-0.23612377 -0.10788483 1.193
-0.22433765 -0.10824686 1.193
-0.21410315 -0.1058314 1.1930002
-0.20498921 -0.10563221 1.1930001
-0.19636084 -0.10707026 1.1930001
-0.18416701 -0.10829439 1.193
-0.17465918 -0.10903125 1.193
-0.16420054 -0.10981564 1.1930001
-0.10249461 -0.10772392 1.1930001
-0.095846325 -0.10421944 1.193706
-0.086806655 -0.1024946 1.193
-0.09517356 -0.099357016 1.1930001
-0.088898383 -0.099357016 1.1930001
-0.086806655 -0.051247302 1.1930001
-0.1033945 -0.043763351 1.1933333
-0.09519022 -0.043933094 1.1932002
-0.084987767 -0.04460834 1.1930003
-0.075883195 -0.04241557 1.193
-0.066935256 -0.040788669 1.1930001
-0.10551053 -0.034866218 1.1957829
-0.095443018 -0.034608737 1.1963603
-0.084874563 -0.034574088 1.1952404
-0.074386045 -0.034569457 1.1950804
-0.067047819 -0.03456714 1.1950001
-0.10443567 -0.027420005 1.1964285
-0.095492668 -0.02728362 1.1970001
-0.084399328 -0.026234249 1.1970003
-0.074636444 -0.025840733 1.1970003
-0.066809893 -0.026584042 1.197
-0.061912831 -0.01154307 1.197
-0.059814088 -0.01154307 1.197
-0.061912831 -0.0083949603 1.197
-0.35873112 0.0073210434 1.1930001
-0.35503983 0.016426206 1.1930001
-0.35367784 0.024514232 1.1950001
-0.35245594 0.030330036 1.1930001
-0.065889388 0.059614211 1.1930001
-0.36553058 0.067509472 1.197
-0.071118712 0.067981116 1.1930001
-0.06631165 0.065266959 1.1943333
-0.36238244 0.07380569 1.197
-0.3557947 0.07586915 1.1951177
-0.3482725 0.07843975 1.1930001
-0.073201768 0.073668927 1.1947778
-0.068209052 0.070307791 1.197
-0.36203265 0.084998965 1.197
-0.35499969 0.0847186 1.1958574
-0.3482725 0.081577346 1.1930001
-0.08269158 0.087404102 1.194
-0.077758051 0.082371071 1.1954
-0.36203265 0.09129519 1.197
-0.35500899 0.09215939 1.1961112
-0.092850745 0.09620592 1.1954
-0.085975572 0.091743603 1.1960001
-0.35783517 0.10178889 1.197
-0.10144874 0.10981565 1.1930001
-0.097749457 0.10553376 1.1952858
-0.3531532 0.11818256 1.1930001
-0.34618077 0.11818256 1.1930001
-0.1025513 0.11615687 1.1936666
-0.099690147 0.11438134 1.197
-0.35498792 0.1223162 1.1966002
-0.34585077 0.1222759 1.1962001
-0.33510485 0.12388375 1.1950003
-0.32707119 0.1266717 1.1941429
-0.10412067 0.12347909 1.1936666
-0.32278076 0.13234285 1.1962001
-0.31724843 0.13576907 1.1943334
-0.11018385 0.13536873 1.197
-0.10981565 0.13491637 1.1930001
-0.30355373 0.14759034 1.194
-0.29554099 0.14724617 1.1946
-0.28761244 0.1485126 1.1930001
-0.11201257 0.14611091 1.1941429
-0.10777009 0.14435573 1.1961112
-0.30326793 0.15005991 1.197
-0.29487297 0.1504097 1.197
-0.28274542 0.15418474 1.1964285
-0.27459568 0.15771882 1.1946001
-0.1219439 0.15753481 1.194
-0.11474324 0.15334362 1.1953335
-0.10808511 0.15110928 1.197
-0.2801818 0.1605536 1.197
-0.27373362 0.16466108 1.1963335
-0.26599017 0.16625418 1.194091
-0.25623652 0.168384 1.1930001
-0.12483895 0.16325447 1.1949999
-0.27248642 0.17174689 1.197
-0.26519671 0.17519362 1.1952002
-0.25446257 0.17632078 1.1945002
-0.24570638 0.17629017 1.1942308
-0.23580194 0.1770727 1.193
-0.2266037 0.17814539 1.193
-0.13292633 0.17592333 1.1939231
-0.12848023 0.17333576 1.1954
-0.24310404 0.18224059 1.197
-0.23415582 0.18310595 1.1965556
-0.22493497 0.18388297 1.1953532
-0.21430492 0.18478283 1.1942003
-0.20498921 0.18825538 1.193
-0.19557644 0.1883716 1.193
-0.18511781 0.18753134 1.193
-0.17814539 0.18860401 1.1930001
-0.14461482 0.18828632 1.1941427
-0.13731319 0.18308657 1.1956667
-0.21092337 0.19203471 1.197
-0.20432167 0.19314867 1.1952223
-0.19540149 0.19261096 1.1947778
-0.18542814 0.19276321 1.1949999
-0.17509516 0.19477609 1.1940666
-0.16338073 0.19716521 1.1935714
-0.15421197 0.1947919 1.195182
-0.14726159 0.19273429 1.197
-0.171572 0.20200372 1.197
-0.16650005 0.20112924 1.197
-0.24316978 -0.13004299 1.2060001
-0.23450026 -0.13152315 1.2060002
-0.22534741 -0.1320065 1.2060002
-0.21435945 -0.13242182 1.2060001
-0.20574281 -0.13046589 1.2060001
-0.19559309 -0.13004299 1.2060001
-0.18751022 -0.13151929 1.205
-0.2687071 -0.12855791 1.202
-0.24307452 -0.12488195 1.2037778
-0.23545375 -0.12459292 1.2043998
-0.22493532 -0.12461483 1.2045999
-0.21462007 -0.12479553 1.2047369
-0.2052965 -0.12455286 1.2040001
-0.19570532 -0.12523842 1.2042501
-0.18651433 -0.12855791 1.202
-0.24257402 -0.11738813 1.202
-0.23468593 -0.11847198 1.202
-0.22444947 -0.11907413 1.202
-0.21496567 -0.11907413 1.202
-0.20723815 -0.11837163 1.202
-0.10259941 -0.022628326 1.2037778
-0.094917573 -0.022145478 1.2029999
-0.086120397 -0.021554045 1.2019999
-0.074582309 -0.021192154 1.202
-0.065683961 -0.021660484 1.202
-0.093673237 -0.017127613 1.2060001
-0.084901243 -0.015213676 1.2043529
-0.074939661 -0.015566096 1.2039999
-0.065435342 -0.015524419 1.2053847
-0.083523542 -0.0095153395 1.2060001
-0.063276924 -0.0052713966 1.2030001
-0.36143738 0.015806301 1.202
-0.36052567 0.02854602 1.2060001
-0.35722238 0.026870709 1.202
-0.35827613 0.030558847 1.202
-0.065332711 0.06849397 1.202
-0.36655563 0.07451541 1.202
-0.072382852 0.077449292 1.2036
-0.066940509 0.072432652 1.2044001
-0.35932988 0.086407773 1.202
-0.076433644 0.085240632 1.2053334
-0.091676541 0.097999059 1.202
-0.087607056 0.095701016 1.204
-0.094242543 0.10374825 1.2045001
-0.097511627 0.11159441 1.2046667
-0.35406113 0.12680165 1.202
-0.34536764 0.12671383 1.202
-0.33667418 0.12908478 1.202
-0.35545081 0.13046588 1.2060001
-0.34487826 0.1313117 1.2060002
-0.33504066 0.1340882 1.2043334
-0.32667774 0.13548453 1.2042222
-0.31928727 0.13804169 1.202
-0.10744164 0.13436583 1.2045001
-0.32140702 0.14167285 1.2060001
-0.31612659 0.14381951 1.2033334
-0.10853659 0.14014919 1.202
-0.31085724 0.15068673 1.202
-0.3044568 0.15527889 1.204
-0.29489994 0.15648302 1.2029998
-0.2872915 0.15624288 1.2019999
-0.11311083 0.15765409 1.2033334
-0.10807254 0.15665507 1.2046667
-0.30258781 0.16302948 1.2060001
-0.29475299 0.16476564 1.206
-0.28456619 0.16546911 1.2022221
-0.27834144 0.1660414 1.202
-0.12265384 0.16658594 1.2026668
-0.11809325 0.16364434 1.2042857
-0.29074651 0.17021886 1.2060001
-0.2841256 0.17362702 1.2056365
-0.27557984 0.17570138 1.2027272
-0.12563309 0.17359577 1.2042857
-0.27322719 0.18151733 1.2052
-0.26493216 0.18365991 1.2040001
-0.25467166 0.18435495 1.2043999
-0.24563807 0.18555163 1.2041539
-0.23660181 0.18780261 1.2035
-0.22761072 0.18862185 1.202
-0.21812694 0.18862185 1.202
-0.14014919 0.18862185 1.202
-0.13418554 0.18589365 1.2036667
-0.12961166 0.18019181 1.202
-0.24211253 0.19136406 1.2060001
-0.23561259 0.19123712 1.2052001
-0.22519639 0.19136406 1.2060001
-0.21483795 0.19518255 1.2044617
-0.20577495 0.19793807 1.2037144
-0.19533433 0.19850259 1.2043999
-0.18428008 0.19814445 1.203143
-0.17808431 0.19915938 1.202
-0.15237273 0.19831638 1.202
-0.14399537 0.19578576 1.2041177
-0.13797243 0.19294995 1.2060001
-0.18220113 0.2026415 1.2060001
-0.17553534 0.2046134 1.2037778
-0.16527036 0.20535976 1.2033333
-0.15613799 0.20341359 1.2056366
-0.14801639 0.20193666 1.2060001
-0.17127612 0.21039474 1.2060001
-0.22240742 -0.14178914 1.21
-0.21604282 -0.14143555 1.21
-0.28265968 -0.13197911 1.2190001
-0.27569896 -0.13317902 1.21775
-0.24079403 -0.13259584 1.21
-0.23513661 -0.13542454 1.21
-0.22476466 -0.13754608 1.21
-0.21580708 -0.13801754 1.21
-0.2050373 -0.13598672 1.2118331
-0.19521841 -0.13519157 1.2127693
-0.18881646 -0.13471736 1.21
-0.28467366 -0.12700573 1.219
-0.2766569 -0.1271112 1.2184443
-0.10643025 -0.020861745 1.21
-0.10339963 -0.015426409 1.2138333
-0.095249295 -0.013629739 1.2103077
-0.08804363 -0.011668433 1.21
-0.075314432 -0.011668433 1.21
-0.067889065 -0.011668433 1.21
-0.10287786 -0.0081864595 1.2181667
-0.094135173 -0.0055846716 1.2112172
-0.084995359 -0.004832576 1.210222
-0.075384147 -0.0053053754 1.21112
-0.067205667 -0.0051414473 1.2109231
-0.092976697 0.0044787149 1.2153333
-0.085192151 0.0051227575 1.2162502
-0.075069465 0.0036037029 1.2168125
-0.067450657 0.0058204597 1.2153077
-0.090835817 0.011755223 1.2190001
-0.088698506 0.011755223 1.2190001
-0.064920671 0.011707007 1.2140001
-0.071071364 0.079557501 1.21
-0.064346097 0.076483801 1.2127059
-0.072537929 0.085278824 1.210889
-0.066293843 0.084435463 1.2169285
-0.083655626 0.096637696 1.2113334
