# .PCD v0.7 - Point Cloud Data file format
VERSION 0.7
FIELDS x y z
SIZE 4 4 4
TYPE F F F
COUNT 1 1 1
WIDTH 1467
HEIGHT 1
VIEWPOINT 0 0 0 1 0 0 0
POINTS 1467
DATA ascii
-0.32774884 -0.011068794 1.0700001
-0.1638256 -0.011259293 1.0703
-0.15763463 -0.012016142 1.075125
-0.33319524 -0.007857562 1.0756667
-0.32477063 -0.0046984465 1.0731111
-0.31571266 -0.002941625 1.0716001
-0.30673689 -0.00093803334 1.0700001
-0.21152651 -0.0023450835 1.0700001
-0.18454422 -0.002132372 1.0705453
-0.1744246 -0.0040684273 1.0716249
-0.1653157 -0.0050641317 1.0738076
-0.15879808 -0.007065495 1.075
-0.32007363 0.00094416999 1.077
-0.31506258 0.0018865869 1.076
-0.30529907 0.0035046742 1.0715455
-0.29609293 0.0065747811 1.0710833
-0.20319223 0.0032508823 1.0711538
-0.19519988 0.0047759824 1.0733703
-0.1851341 0.0041664313 1.0751666
-0.1756321 0.0019722609 1.0755454
-0.29214916 0.01225317 1.075
-0.28437787 0.014417319 1.0721666
-0.27512011 0.017240761 1.0725332
-0.25688714 0.019162681 1.0700001
-0.24670276 0.0196987 1.0700001
-0.19459468 0.0150962 1.0735999
-0.18600149 0.01038587 1.077
-0.27286515 0.021715909 1.077
-0.26481909 0.022619754 1.075
-0.25435656 0.024668613 1.0737998
-0.24514438 0.025399286 1.072826
-0.23492749 0.026125167 1.0724782
-0.22523528 0.025466602 1.07248
-0.21523272 0.027528819 1.0713845
-0.20660184 0.028140999 1.0700001
-0.1960773 0.025454614 1.0722399
-0.23415416 0.031157609 1.077
-0.22187994 0.031157609 1.077
-0.21457973 0.033163961 1.0760769
-0.20537052 0.033926494 1.0734285
-0.1962077 0.033662595 1.0731666
-0.31168357 -0.25349113 1.0846001
-0.30695257 -0.25393176 1.08
-0.31075028 -0.24993065 1.0840001
-0.3096036 -0.24711479 1.08
-0.32200536 -0.22036639 1.0835
-0.3150821 -0.22238842 1.0819334
-0.32367083 -0.21378399 1.0846521
-0.31476149 -0.21466023 1.0842757
-0.30531725 -0.21305688 1.0865713
-0.29449752 -0.21247457 1.0861428
-0.28482547 -0.21302664 1.0862501
-0.27626503 -0.2119851 1.087
-0.20106964 -0.21059901 1.087
-0.19653597 -0.21213396 1.0850999
-0.15321109 -0.21126133 1.0855
-0.33066902 -0.20202258 1.087
-0.32442063 -0.20472071 1.0843911
-0.31446508 -0.20483428 1.0839998
-0.30508399 -0.20480035 1.083818
-0.29500216 -0.20489037 1.0819999
-0.28478137 -0.20434375 1.0834481
-0.27476004 -0.20440809 1.0844798
-0.26548579 -0.20409261 1.0854347
-0.25627249 -0.20281659 1.0861428
-0.24554002 -0.20106964 1.087
-0.23537536 -0.20106964 1.087
-0.21288259 -0.20172788 1.0861428
-0.20418383 -0.20501839 1.0851874
-0.1953415 -0.20517334 1.081
-0.15294534 -0.20372681 1.0836364
-0.33441007 -0.19413272 1.0835263
-0.32534912 -0.19475701 1.0824615
-0.31528437 -0.19487754 1.08
-0.30465108 -0.19773553 1.08
-0.29384887 -0.19568464 1.08
-0.28510725 -0.19490312 1.0834837
-0.27463862 -0.19481289 1.0839998
-0.26486108 -0.19461355 1.0828799
-0.25478071 -0.19489619 1.083724
-0.24481227 -0.19496004 1.0856153
-0.23570739 -0.19439359 1.0866842
-0.22498882 -0.19394453 1.086647
-0.21590897 -0.19536471 1.0837499
-0.20640239 -0.1974078 1.08
-0.16000921 -0.1912536 1.08
-0.15526058 -0.19423051 1.0840625
-0.3528592 -0.18220937 1.0814
-0.34629208 -0.1848627 1.08
-0.33663046 -0.18686388 1.08
-0.32475239 -0.1884132 1.08
-0.29350799 -0.1884132 1.08
-0.28424916 -0.18697523 1.0802857
-0.27476117 -0.18535654 1.0805714
-0.2648679 -0.18490188 1.0811851
-0.25496638 -0.1849286 1.0808333
-0.24547829 -0.18481888 1.0811199
-0.2353301 -0.18525036 1.0810769
-0.22533351 -0.18738495 1.08225
-0.21776399 -0.1884132 1.08
-0.16113378 -0.18482903 1.0812
-0.15632927 -0.18496589 1.0855454
-0.36466363 -0.17410301 1.0832499
-0.35513103 -0.17719887 1.080889
-0.3493692 -0.1789452 1.08
-0.24597862 -0.17856649 1.08
-0.23859361 -0.1789452 1.08
-0.16078769 -0.17517002 1.0834286
-0.15850513 -0.17756386 1.087
-0.36451802 -0.16947718 1.08
-0.16060182 -0.16820428 1.0840001
-0.15914042 -0.1610463 1.087
-0.38345399 -0.15148801 1.08
-0.38481569 -0.14502051 1.0828823
-0.37966681 -0.14296679 1.08
-0.38483363 -0.13492624 1.0838749
-0.37834129 -0.13425624 1.08
-0.38355854 -0.12522914 1.0849332
-0.37540317 -0.12417154 1.0805217
-0.366458 -0.12450148 1.0804445
-0.38149229 -0.11689357 1.087
-0.37443873 -0.11507458 1.0840453
-0.36515155 -0.11488953 1.0823332
-0.35883722 -0.1164564 1.08
-0.38022172 -0.10387009 1.087
-0.3745912 -0.10662048 1.0839332
-0.3665159 -0.10779844 1.0810001
-0.37917235 -0.099782199 1.0840001
-0.12785335 -0.091775894 1.0830001
-0.39285579 -0.083650038 1.0819
-0.38866138 -0.081898198 1.08
-0.13111688 -0.084558003 1.0838001
-0.1267169 -0.085344665 1.0857333
-0.11721121 -0.080999613 1.087
-0.39361408 -0.077128813 1.0861818
-0.38593611 -0.074231938 1.0816429
-0.37966681 -0.071010001 1.08
-0.13110417 -0.075057134 1.0836999
-0.1283288 -0.075917296 1.087
-0.38317665 -0.065286241 1.0852499
-0.37498936 -0.064609043 1.0826923
-0.36738127 -0.064320311 1.0833637
-0.13091144 -0.064978607 1.0828182
-0.12864645 -0.065752633 1.087
-0.37208408 -0.058999225 1.0855
-0.36320472 -0.055143297 1.0845555
-0.35552731 -0.054008201 1.080842
-0.3493692 -0.051127199 1.08
-0.1337553 -0.054455277 1.0842857
-0.3734363 -0.041663229 1.0849999
-0.36412281 -0.045801722 1.0831538
-0.35576007 -0.047103301 1.08
-0.14353009 -0.042540248 1.0820769
-0.13810995 -0.04540202 1.084625
-0.37653676 -0.032782424 1.0808001
-0.36830521 -0.031244399 1.08
-0.16000921 -0.031244399 1.08
-0.15442434 -0.034877803 1.0829999
-0.14630412 -0.036560815 1.0857648
-0.37342513 -0.025921805 1.0846
-0.36574534 -0.024794346 1.0812631
-0.16055022 -0.025834117 1.08
-0.15642391 -0.026970765 1.0857999
-0.3638196 -0.016581614 1.0844998
-0.35536593 -0.01400509 1.0812777
-0.34627059 -0.011791965 1.08
-0.15870121 -0.01995644 1.0840001
-0.35305166 -0.0076116584 1.0855
-0.34514388 -0.0047497801 1.0845712
-0.33579338 -0.0036847277 1.0813333
-0.32853961 -0.00094679999 1.08
-0.16098611 -0.0015841365 1.0823334
-0.15771453 -0.0047491225 1.08375
-0.34115133 0.00095293665 1.087
-0.33469975 0.0022229343 1.0863334
-0.3248125 0.0042540939 1.0835263
-0.31479579 0.006646303 1.0826666
-0.30613199 0.0075743995 1.08
-0.1903068 0.0085212002 1.08
-0.1832058 0.0080477996 1.08
-0.17421333 0.0065401285 1.0826666
-0.1667621 0.0023340054 1.0836364
-0.15914042 0.00095293665 1.087
-0.32113966 0.010482303 1.087
-0.31421015 0.011294974 1.0865713
-0.30489424 0.013005932 1.0853333
-0.29592276 0.01484534 1.0843076
-0.28628895 0.018959379 1.0813333
-0.19128121 0.014458426 1.0815001
-0.18524452 0.014417905 1.0845199
-0.17700465 0.011731359 1.0848889
-0.29128098 0.02064696 1.087
-0.28406015 0.024291554 1.0851332
-0.27528962 0.026309466 1.0831999
-0.26517928 0.027500216 1.0816
-0.25705621 0.028877402 1.08
-0.2490084 0.0293508 1.08
-0.1911484 0.025774 1.08
-0.18828395 0.025024839 1.0841111
-0.27158695 0.031446911 1.087
-0.26440468 0.03197905 1.0865713
-0.25438419 0.032949004 1.0840834
-0.24473138 0.034278706 1.0846189
-0.23504956 0.034587525 1.0837499
-0.22507417 0.034982681 1.0841999
-0.21558848 0.03757884 1.0824001
-0.20526624 0.038962573 1.0840001
-0.19420166 0.035532176 1.0838
-0.18882465 0.032053273 1.086
-0.22012837 0.040976275 1.087
-0.21392205 0.041810766 1.0866666
-0.20437071 0.042692047 1.0858461
-0.19742024 0.043406568 1.0857999
-0.29716632 -0.24138753 1.097
-0.31055915 -0.23029156 1.09
-0.30472597 -0.23298827 1.0948125
-0.29565507 -0.2346556 1.097
-0.28581825 -0.23292454 1.097
-0.27431169 -0.23380707 1.097
-0.26446843 -0.23488456 1.097
-0.25659993 -0.23439336 1.097
-0.31110519 -0.22537722 1.09
-0.30487961 -0.22530754 1.0936334
-0.29456407 -0.22548261 1.09448
-0.28479254 -0.22534256 1.0937999
-0.27528465 -0.22540733 1.0941199
-0.2654694 -0.22555391 1.0941154
-0.25585958 -0.22474642 1.0964445
-0.24509051 -0.22308142 1.0968335
-0.23557639 -0.22271658 1.0968126
-0.22920597 -0.22247402 1.097
-0.21109387 -0.22167261 1.097
-0.20608884 -0.22268672 1.0961819
-0.31055915 -0.21882476 1.09
-0.30395687 -0.21842152 1.0922222
-0.29496658 -0.21785222 1.0904446
-0.28635144 -0.21850623 1.09
-0.27414706 -0.21641074 1.09
-0.26534939 -0.21554069 1.0927199
-0.25542742 -0.21469872 1.0948439
-0.24520347 -0.21494702 1.0948095
-0.23541877 -0.21439268 1.0943847
-0.22528793 -0.2141037 1.097
-0.21418072 -0.21418163 1.0955652
-0.2049779 -0.21523377 1.0922941
-0.1990764 -0.21755068 1.09
-0.15198371 -0.21338293 1.0942857
-0.14752528 -0.21138239 1.097
-0.33301497 -0.20401348 1.09
-0.26316306 -0.20888686 1.09
-0.25385484 -0.2062522 1.090889
-0.24537265 -0.20552617 1.0904212
-0.23574068 -0.20548646 1.0917693
-0.22542211 -0.20528182 1.0942
-0.21578373 -0.20620704 1.0925715
-0.20863205 -0.20799501 1.09
-0.1507273 -0.20429514 1.0911429
-0.14532448 -0.20427713 1.0953044
-0.13776399 -0.20267898 1.097
-0.34113729 -0.19780231 1.09
-0.33922616 -0.19684674 1.09
-0.23363605 -0.19875789 1.09
-0.2251952 -0.19843936 1.09
-0.15131664 -0.19482483 1.0918182
-0.14486772 -0.19475573 1.09436
-0.13602459 -0.19449954 1.0960001
-0.15176757 -0.18432522 1.09225
-0.14534214 -0.18626821 1.0965716
-0.13752358 -0.18657045 1.097
-0.1175347 -0.1806021 1.09
-0.16016525 -0.1726332 1.0940001
-0.15610129 -0.17561501 1.0946667
-0.14906402 -0.17983852 1.097
-0.12021291 -0.17983852 1.097
-0.11739882 -0.17721201 1.0946667
-0.16016525 -0.16687876 1.0940001
-0.15803991 -0.16765694 1.097
-0.39302298 -0.14335048 1.0925556
-0.40199199 -0.13175336 1.097
-0.39390007 -0.13444604 1.0932143
-0.4010303 -0.12790655 1.097
-0.39507434 -0.12500921 1.0950869
-0.38843784 -0.12470145 1.09
-0.39255241 -0.11689941 1.0960001
-0.38592994 -0.1141725 1.0920001
-0.38541925 -0.10555221 1.0928236
-0.12305575 -0.083771348 1.09
-0.11944583 -0.082178734 1.09
-0.40097013 -0.074829109 1.0916001
-0.39676476 -0.07236854 1.091
-0.12466174 -0.075356893 1.0925264
-0.119665 -0.078498483 1.092
-0.40167141 -0.067639798 1.097
-0.39420736 -0.065519243 1.0937778
-0.38724336 -0.062828504 1.09
-0.37171543 -0.061156265 1.09
-0.12785584 -0.063611954 1.0938334
-0.39169756 -0.057969291 1.0960001
-0.38474855 -0.054574061 1.0939546
-0.37494892 -0.054492258 1.09208
-0.36837092 -0.053989515 1.09
-0.13196297 -0.05412082 1.0916667
-0.12905322 -0.057088971 1.0945001
-0.38254943 -0.046238553 1.0942
-0.37540272 -0.0461508 1.0910001
-0.36980429 -0.045867201 1.09
-0.13574959 -0.044727694 1.094
-0.14344417 -0.033667844 1.0925386
-0.13803895 -0.037208252 1.0953751
-0.38513228 -0.025218708 1.0950454
-0.37757054 -0.022818131 1.091143
-0.15379478 -0.023966311 1.0936471
-0.14776063 -0.027628589 1.0962501
-0.37536046 -0.016312378 1.0945455
-0.36706558 -0.012754916 1.0913334
-0.16016525 -0.018222393 1.0940001
-0.15750237 -0.018247377 1.0955
-0.36198378 -0.0071989675 1.09525
-0.35546884 -0.0036727218 1.0934167
-0.15696834 -0.0015984555 1.0940001
-0.35217541 0.001730014 1.0958
-0.34454337 0.0050428063 1.09475
-0.33603299 0.0067115407 1.0930834
-0.32806006 0.0081302067 1.0910001
-0.16409552 0.0062068459 1.0933158
-0.15667951 0.0048058867 1.0956249
-0.33332142 0.011664676 1.0957143
-0.32414281 0.014296583 1.095
-0.31559339 0.015541143 1.0921539
-0.30546281 0.017094025 1.09
-0.29909235 0.018155767 1.09
-0.18251324 0.018155767 1.09
-0.17385533 0.015476796 1.0933809
-0.16652815 0.013097455 1.0964376
-0.15579593 0.010578737 1.097
-0.31413352 0.021904219 1.0958
-0.30480903 0.024414612 1.0942594
-0.29512987 0.025034972 1.0925653
-0.28628802 0.028561551 1.091143
-0.18507315 0.024249224 1.0938572
-0.17641914 0.021050617 1.097
-0.29139611 0.03173621 1.097
-0.28466225 0.034176659 1.0959285
-0.2755821 0.034895625 1.0934
-0.26604828 0.035776161 1.0937693
-0.25555873 0.037856512 1.0931667
-0.2465362 0.03870045 1.09
-0.23411384 0.039178234 1.09
-0.22646929 0.039178234 1.09
-0.19199526 0.037853215 1.0911429
-0.18739457 0.035003308 1.0951819
-0.25382945 0.042145249 1.0961429
-0.24488251 0.043001518 1.094
-0.23584281 0.042621035 1.0953077
-0.22534432 0.043023366 1.0945834
-0.21512511 0.046737321 1.0938667
-0.2054065 0.047244441 1.0923333
-0.19422571 0.045111839 1.09475
-0.18881442 0.041994378 1.097
-0.21157473 0.050970275 1.097
-0.20484281 0.050970275 1.097
-0.19811088 0.050970275 1.097
-0.29043266 -0.25157878 1.108
-0.28478119 -0.25299165 1.1079999
-0.27516863 -0.25213385 1.1079999
-0.2640675 -0.2535215 1.1079999
-0.25768438 -0.25407654 1.1079999
-0.2925204 -0.24382737 1.106111
-0.28499991 -0.24520014 1.1062607
-0.27481797 -0.24482563 1.1038076
-0.26464587 -0.24483863 1.1035198
-0.25511608 -0.24505757 1.1055382
-0.24550775 -0.2444856 1.1068945
-0.23546723 -0.24322596 1.1059333
-0.22497214 -0.24243768 1.1066667
-0.21810919 -0.24185984 1.1057501
-0.30120996 -0.23739213 1.103
-0.29245859 -0.23702799 1.101
-0.28421047 -0.23700294 1.101
-0.27556747 -0.23840687 1.1010001
-0.25331071 -0.23562057 1.1025383
-0.24521574 -0.23472413 1.1027855
-0.23475166 -0.23475339 1.1019598
-0.22518891 -0.23485646 1.1024398
-0.21568048 -0.23440631 1.1015216
-0.20880711 -0.23132867 1.1010001
-0.25320676 -0.22746782 1.1010001
-0.24585275 -0.228479 1.101
-0.23478734 -0.22803086 1.101
-0.2245582 -0.22514573 1.101
-0.2158853 -0.2253536 1.101
-0.20713405 -0.22798261 1.1010001
-0.1602722 -0.22632377 1.108
-0.15458933 -0.22365378 1.1052727
-0.14473067 -0.22179081 1.1079999
-0.22360699 -0.21845919 1.1010001
-0.21910267 -0.21910267 1.1010001
-0.15213263 -0.21885604 1.103
-0.14444196 -0.21598119 1.102684
-0.13598192 -0.21346191 1.106222
-0.12813032 -0.2116109 1.10725
-0.14188586 -0.20848536 1.1010001
-0.13432433 -0.20594713 1.1023333
-0.12615645 -0.20472054 1.1056314
-0.13175116 -0.19545501 1.101
-0.12620157 -0.19399779 1.1028823
-0.1447815 -0.18145947 1.101
-0.13404821 -0.18374802 1.1023332
-0.12501252 -0.18501888 1.1039997
-0.15283719 -0.17382257 1.1024284
-0.14494915 -0.17553042 1.1049284
-0.13477701 -0.17550009 1.1060398
-0.12498342 -0.17535473 1.1051198
-0.11872083 -0.17180738 1.1010001
-0.15540296 -0.16621585 1.104684
-0.14440687 -0.16933811 1.1079999
-0.13598853 -0.16949999 1.108
-0.12389814 -0.16918468 1.107
-0.1193139 -0.1687842 1.1065
-0.40225849 -0.14117488 1.103
-0.39863172 -0.1447815 1.1010001
-0.40370134 -0.13605489 1.1030768
-0.39863172 -0.13899024 1.1010001
-0.40120563 -0.12322515 1.1010001
-0.40156779 -0.1144725 1.1052858
-0.39655384 -0.11382343 1.1021999
-0.40104872 -0.10946498 1.105
-0.39532617 -0.10568082 1.1032665
-0.12261783 -0.072311193 1.1035
-0.11841925 -0.072289057 1.1054
-0.40406647 -0.062800795 1.1058888
-0.39766651 -0.061773442 1.1010001
-0.12444402 -0.065500043 1.1054704
-0.11947564 -0.068965614 1.108
-0.40293238 -0.056081768 1.1067998
-0.39573827 -0.054107465 1.1036923
-0.13030335 -0.052121341 1.1010001
-0.12752712 -0.055235606 1.1054
-0.40213752 -0.049538679 1.108
-0.39380503 -0.04671837 1.1064166
-0.38831353 -0.045417644 1.1024001
-0.13272443 -0.045919888 1.1051
-0.1291891 -0.048567332 1.108
-0.13709323 -0.034734994 1.1038889
-0.39468119 -0.022235509 1.1028999
-0.3870492 -0.020269411 1.1010001
-0.15218145 -0.020912884 1.1010001
-0.14413965 -0.024171129 1.1029627
-0.139429 -0.02904528 1.1045001
-0.39368907 -0.017144386 1.107
-0.38504568 -0.014417713 1.1053529
-0.3761332 -0.011731429 1.1021428
-0.36967543 -0.01061731 1.1010001
-0.15504439 -0.014998538 1.1039999
-0.14462021 -0.015999056 1.1062498
-0.38173923 -0.0087421201 1.108
-0.374749 -0.0061878962 1.1074374
-0.36592376 -0.0037965057 1.1044616
-0.14181662 -0.0087421201 1.108
-0.36365426 0.0044051828 1.1070768
-0.35541487 0.0060176346 1.1029998
-0.3484408 0.0086868899 1.1010001
-0.36134097 0.010684813 1.108
-0.35393649 0.012138217 1.1076249
-0.34463969 0.01351677 1.1051052
-0.33527714 0.016187901 1.1044284
-0.32849315 0.01640857 1.1010001
-0.16265768 0.01614213 1.102923
-0.15686512 0.013138076 1.1018
-0.33446702 0.02039828 1.108
-0.32371953 0.02281772 1.1052727
-0.31578225 0.026301315 1.1028999
-0.30114552 0.029921509 1.1010001
-0.2982499 0.029921509 1.1010001
-0.1821834 0.027508484 1.101
-0.17448877 0.025360363 1.1030555
-0.16752712 0.022276625 1.1046
-0.31346181 0.030084571 1.107
-0.30423805 0.03306197 1.1061817
-0.29489481 0.035508264 1.1044999
-0.28586283 0.039063137 1.1021429
-0.27508485 0.03957361 1.1010001
-0.26543275 0.03957361 1.1010001
-0.18387745 0.035705443 1.1042939
-0.17706314 0.030921036 1.1071428
-0.29043266 0.041767906 1.108
-0.28445047 0.04174529 1.1073999
-0.27409533 0.04317781 1.10675
-0.26479471 0.044037424 1.1063998
-0.25610033 0.046349075 1.1051666
-0.24487816 0.047728769 1.1040769
-0.23447704 0.047671378 1.1027691
-0.22539538 0.04802978 1.1017272
-0.19154845 0.04796857 1.1016666
-0.1859253 0.045514926 1.1046109
-0.24866475 0.051481374 1.108
-0.23215185 0.051481374 1.108
-0.22424448 0.051749103 1.1054001
-0.21483167 0.055020254 1.1048498
-0.2054614 0.055323448 1.1044666
-0.19498928 0.053835943 1.1046469
-0.18777819 0.052682698 1.1060001
-0.28334415 -0.26290277 1.1166668
-0.27620926 -0.26278669 1.1167142
-0.26782385 -0.26243544 1.1170001
-0.292456 -0.25053731 1.1120001
-0.28406668 -0.25654072 1.1126667
-0.27449486 -0.25705522 1.1142857
-0.26485652 -0.25630051 1.1129233
-0.25199956 -0.25199959 1.1120001
-0.2466379 -0.25118721 1.1120001
-0.23053265 -0.25211442 1.1190001
-0.22758968 -0.25015244 1.1190001
-0.3423655 -0.24426651 1.1190001
-0.33563873 -0.24566792 1.1190001
-0.2944057 -0.24858759 1.1120001
-0.25053731 -0.24858759 1.1120001
-0.24468818 -0.24858759 1.1120001
-0.2320151 -0.2466379 1.1120001
-0.22660396 -0.24651411 1.1132001
-0.33157462 -0.23249462 1.1190001
-0.16085079 -0.22909053 1.1120001
-0.15430333 -0.22765331 1.1126001
-0.14863679 -0.2260453 1.113
-0.13842916 -0.22129171 1.1120001
-0.13452977 -0.21641743 1.1120001
-0.12287185 -0.20566249 1.1153334
-0.14720285 -0.17059933 1.1120001
-0.13452977 -0.17059933 1.1120001
-0.12770578 -0.17059933 1.1120001
-0.15404752 -0.16290106 1.1126925
-0.14532222 -0.16448683 1.1125218
-0.13533679 -0.16461393 1.1131998
-0.12553538 -0.16458707 1.1136667
-0.11990696 -0.16572507 1.1120001
-0.15384799 -0.15580299 1.1170001
-0.14538038 -0.15480696 1.1156428
-0.13477035 -0.15485165 1.1159118
-0.1245665 -0.15497281 1.1176206
-0.11827549 -0.15346488 1.115
-0.14236167 -0.14726049 1.118
-0.13492601 -0.14701612 1.1180001
-0.12416458 -0.14652413 1.1187335
-0.11859372 -0.14701436 1.118
-0.12250657 -0.062065661 1.1120001
-0.11717254 -0.064752087 1.1121765
-0.40651384 -0.052642077 1.1120001
-0.12293641 -0.055212248 1.1147499
-0.11596564 -0.056837279 1.1165999
-0.4026362 -0.044169385 1.1156667
-0.39747891 -0.042967405 1.1140001
-0.13180223 -0.041813269 1.1157501
-0.12670301 -0.04669369 1.1150771
-0.40220588 -0.038258608 1.1190001
-0.39730096 -0.038258608 1.1190001
-0.13535021 -0.034682006 1.1161112
-0.14028157 -0.02452475 1.1190001
-0.13978012 -0.02639205 1.115
-0.40281495 -0.01588542 1.11525
-0.39592224 -0.012392157 1.1138461
-0.38896647 -0.010723387 1.1120001
-0.15274355 -0.011509055 1.1126001
-0.14629443 -0.012687121 1.1133333
-0.40122491 -0.0078479201 1.1190001
-0.39482135 -0.0071639186 1.1183848
-0.38537794 -0.0040159612 1.1157222
-0.37615415 -0.0026460306 1.1120001
-0.15573406 -0.0071288017 1.1162857
-0.14443222 -0.0056998674 1.1144167
-0.38343704 0.0016326456 1.1176666
-0.3744407 0.0045636352 1.1142223
-0.3688195 0.0051992177 1.1120001
-0.36819476 0.010771603 1.1170001
-0.3560828 0.015876673 1.1128182
-0.3473599 0.017888969 1.113
-0.15662877 0.017261276 1.1143334
-0.35289693 0.020471919 1.1120001
-0.34507683 0.021231333 1.1135
-0.33462104 0.022920061 1.1150001
-0.32737091 0.026611108 1.113875
-0.17059933 0.028270746 1.1120001
-0.16462635 0.024901254 1.1150589
-0.15932979 0.02052715 1.115
-0.33059362 0.03041069 1.1190001
-0.32352459 0.033071842 1.1170001
-0.31518036 0.035085861 1.1150001
-0.30529532 0.037454359 1.1126001
-0.29830509 0.039968986 1.1120001
-0.18122506 0.03725991 1.1126001
-0.17444916 0.034810774 1.1143159
-0.16833337 0.032835111 1.118
-0.32078373 0.040220588 1.1190001
-0.31346399 0.041512597 1.1185555
-0.30453372 0.04381818 1.1161666
-0.29490134 0.044295918 1.1145
-0.28496823 0.045599233 1.1145002
-0.27470818 0.047952205 1.1125001
-0.26557791 0.048881929 1.1120001
-0.25492415 0.049230091 1.1120001
-0.18203138 0.045397304 1.1147274
-0.17865328 0.04082666 1.1176667
-0.28350613 0.050030489 1.1190001
-0.2742452 0.053735081 1.1175386
-0.26468867 0.054859567 1.11535
-0.25504363 0.056034375 1.1149999
-0.2447048 0.055989861 1.1156399
-0.23528159 0.055859778 1.1160434
-0.22566441 0.056805108 1.1137648
-0.21739228 0.059466053 1.1120001
-0.20413427 0.059076112 1.1120001
-0.19464745 0.058766387 1.1135001
-0.1852746 0.055292305 1.1142669
-0.23053265 0.061802369 1.1190001
-0.22444683 0.062973373 1.118
-0.21535456 0.063810758 1.115706
-0.2052152 0.062756985 1.1155835
-0.1956571 0.062236696 1.1167142
-0.18933107 0.061802369 1.1190001
-0.27565908 -0.26384512 1.123
-0.34418166 -0.24267393 1.124125
-0.33650097 -0.24297377 1.123
-0.34327331 -0.23579988 1.1260002
-0.33582273 -0.23606044 1.1229999
-0.34055871 -0.22802626 1.126
-0.33714759 -0.22870699 1.1245
-0.12299597 -0.20551977 1.126
-0.15390964 -0.15194064 1.123
-0.15254572 -0.14541411 1.1248463
-0.14548559 -0.14373189 1.1238332
-0.13472305 -0.14274608 1.1240716
-0.12533249 -0.1421728 1.124091
-0.14341542 -0.13608244 1.1260002
-0.13800029 -0.13681576 1.126
-0.12470699 -0.13918486 1.126
-0.11944233 -0.13819773 1.126
-0.14379145 -0.12404891 1.126
-0.12109309 -0.050209329 1.123
-0.11615939 -0.052655756 1.1248001
-0.40659711 -0.040364362 1.123
-0.12460528 -0.044361524 1.1245
-0.11944233 -0.048369206 1.126
-0.13300849 -0.034764219 1.1238573
-0.12931359 -0.037510812 1.126
-0.14078303 -0.021658927 1.123
-0.13899945 -0.027601412 1.1245
-0.40104696 -0.0029543666 1.1240001
-0.39599481 -0.002297451 1.1233335
-0.15424578 -0.0034477105 1.1242501
-0.14885756 -0.0039419318 1.1245
-0.40176055 0.00098712661 1.126
-0.3953293 0.001726814 1.1252501
-0.38495651 0.0055869967 1.1243334
-0.37903121 0.0088604698 1.123
-0.38004377 0.010858393 1.126
-0.3736966 0.012546478 1.1255715
-0.36552152 0.01535632 1.1247144
-0.15456598 0.018705437 1.123
-0.36227548 0.020729659 1.126
-0.35324317 0.025736578 1.1257694
-0.3449803 0.026375689 1.1254002
-0.33730289 0.026590943 1.1233751
-0.16160035 0.026605954 1.124
-0.15565804 0.024448622 1.1248947
-0.34174329 0.031785477 1.126
-0.33454868 0.034393497 1.1248751
-0.32718101 0.03642638 1.123
-0.17130241 0.038395371 1.123
-0.16446163 0.034169786 1.1249412
-0.15329437 0.033024032 1.1245
-0.33216813 0.040965758 1.126
-0.32473364 0.043057848 1.1247501
-0.31606099 0.045772053 1.1236
-0.30420947 0.048240338 1.123
-0.29436451 0.048240338 1.123
-0.28845751 0.048240338 1.123
-0.18032332 0.046314299 1.1240001
-0.17544761 0.042406276 1.1249093
-0.16879866 0.040472195 1.126
-0.31242558 0.050837025 1.126
-0.30392906 0.051943522 1.1250001
-0.29440269 0.053440858 1.1246499
-0.28485331 0.05492647 1.1235713
-0.27713582 0.057593055 1.123
-0.2687676 0.058085304 1.123
-0.18163131 0.052317716 1.126
-0.28475758 0.06107435 1.1256667
-0.27526709 0.061628569 1.1247503
-0.26562986 0.062299583 1.1250001
-0.25409526 0.063091949 1.1245
-0.24532676 0.063901983 1.1238573
-0.23565777 0.065235339 1.1247368
-0.2259548 0.066637777 1.1233335
-0.21374781 0.067966558 1.1236001
-0.20453081 0.067155987 1.1246667
-0.19470009 0.066075675 1.1249287
-0.18765101 0.062945545 1.1253999
-0.24283315 0.070085995 1.126
-0.23493615 0.070085995 1.126
-0.22407775 0.070085995 1.126
-0.2151936 0.070085995 1.126
-0.20038672 0.070085995 1.126
-0.19545108 0.070085995 1.126
-0.35390159 -0.23443533 1.1367501
-0.34752467 -0.23424226 1.131
-0.35057303 -0.22606674 1.138
-0.34607163 -0.22581269 1.1360002
-0.34718102 -0.21848463 1.138
-0.12240119 -0.2025328 1.1331112
-0.11619498 -0.20403308 1.1328887
-0.1242675 -0.19982214 1.1340001
-0.11730852 -0.19982214 1.1340001
-0.15126182 -0.13868339 1.1326667
-0.14661373 -0.13505633 1.13
-0.13510208 -0.13510041 1.1303807
-0.12551585 -0.13476439 1.1303331
-0.11986663 -0.13373549 1.13
-0.14282879 -0.12539639 1.1314286
-0.13505776 -0.12589519 1.1340002
-0.12527996 -0.12590846 1.1341821
-0.11876134 -0.12629436 1.1308
-0.14166583 -0.11871995 1.138
-0.1143863 -0.051242337 1.1313334
-0.12235325 -0.042255137 1.1326667
-0.11637808 -0.046750292 1.1346667
-0.13271806 -0.03165393 1.1334287
-0.12621458 -0.036604922 1.1336666
-0.14066818 -0.02095058 1.138
-0.1373505 -0.026632937 1.1344445
-0.14116438 -0.01888866 1.1340001
-0.1517434 -0.0009918022 1.1313334
-0.14812686 -0.00099414005 1.1340001
-0.40127224 0.0049698232 1.133
-0.39533398 0.0061346213 1.1340001
-0.3873376 0.0082552778 1.13
-0.15440495 0.001875482 1.1331112
-0.39127705 0.014166581 1.138
-0.3842417 0.014563845 1.1355001
-0.37463489 0.016737457 1.1330769
-0.38010338 0.02095058 1.138
-0.37396401 0.022638908 1.1380002
-0.36439204 0.02588767 1.1356667
-0.35811394 0.025261151 1.13
-0.15949197 0.028728366 1.13
-0.36203003 0.034000799 1.1376365
-0.35458216 0.034792032 1.1367275
-0.34553388 0.035341132 1.1318462
-0.33929193 0.037148748 1.13
-0.16199164 0.038018696 1.1313334
-0.15743797 0.034199644 1.1306667
-0.34325066 0.041829273 1.136
-0.33513334 0.04548673 1.1348572
-0.32630408 0.047276299 1.1313334
-0.17427506 0.046798464 1.1322857
-0.16603656 0.042545807 1.133
-0.15862583 0.040903512 1.138
-0.32331073 0.052308515 1.1365
-0.31391448 0.054530159 1.1339999
-0.30403826 0.056895912 1.1328572
-0.29619938 0.057786942 1.13
-0.18203457 0.055986565 1.1336666
-0.17882305 0.051425856 1.1353334
-0.30029166 0.060856447 1.138
-0.294402 0.06255874 1.1366668
-0.28360274 0.066899389 1.1358184
-0.27389979 0.066889659 1.132
-0.26468468 0.067149028 1.1327692
-0.2559779 0.066945583 1.1322222
-0.24604984 0.068005838 1.1308
-0.2347801 0.068353698 1.13
-0.19119224 0.068353698 1.13
-0.18397485 0.064818017 1.1327274
-0.17993934 0.064619102 1.1340001
-0.2734977 0.071402989 1.138
-0.26637164 0.071830556 1.138
-0.25249013 0.071431853 1.1348001
-0.24498275 0.072703719 1.136
-0.23473866 0.073572502 1.1340001
-0.22516795 0.075304106 1.132526
-0.21516891 0.075342178 1.1334546
-0.20560597 0.073133059 1.1329999
-0.19496849 0.073544808 1.1309413
-0.1871285 0.072892331 1.1345716
-0.22347285 0.080809377 1.138
-0.21748698 0.080809377 1.138
-0.35909933 -0.2310639 1.141
-0.36418816 -0.22482122 1.1468463
-0.35583523 -0.22453584 1.141
-0.36337677 -0.21620145 1.1462309
-0.35508952 -0.21566944 1.1437827
-0.34909657 -0.21706003 1.141
-0.35609847 -0.20905782 1.141
-0.12217455 -0.19800445 1.1442001
-0.11587212 -0.19859838 1.1457273
-0.10691037 -0.19799986 1.1475457
-0.13603762 -0.12103347 1.141
-0.12570144 -0.12103347 1.141
-0.11703237 -0.12103347 1.141
-0.13475105 -0.11564039 1.1442384
-0.12538554 -0.11535105 1.1442003
-0.11774058 -0.11573242 1.143
-0.13396956 -0.10878732 1.149
-0.12504838 -0.10746046 1.1484667
-0.11892013 -0.10886826 1.1463333
-0.11351616 -0.042664733 1.1436667
-0.10880025 -0.044468697 1.1465
-0.12349517 -0.032626513 1.1432223
-0.11657522 -0.035822675 1.1468949
-0.10979461 -0.038277023 1.149
-0.13373974 -0.023686927 1.1443846
-0.12629651 -0.026375391 1.1474446
-0.11919598 -0.028539883 1.149
-0.14186074 -0.014422628 1.1476668
-0.13811059 -0.017491078 1.1466
-0.40520746 0.0082373349 1.1458
-0.39911038 0.00900249 1.141
-0.15304233 0.0050013834 1.141
-0.14771776 0.0030078432 1.1436667
-0.40327492 0.014178526 1.145889
-0.39633036 0.015270438 1.142
-0.38710707 0.018505119 1.141
-0.39443451 0.022906642 1.1485001
-0.38524473 0.024230737 1.1455002
-0.37568197 0.02775264 1.1441112
-0.36910209 0.028007746 1.141
-0.37405017 0.033418186 1.1482002
-0.36692503 0.036196299 1.1432223
-0.36109987 0.041011345 1.141
-0.35417637 0.042143561 1.1445001
-0.34594929 0.04560196 1.1445556
-0.33909377 0.049013555 1.141
-0.16379727 0.046814717 1.1450002
-0.15859777 0.043162685 1.1450001
-0.33435819 0.052911215 1.1474001
-0.32523879 0.057236373 1.1453637
-0.31695026 0.05834024 1.1434001
-0.30708495 0.059016325 1.141
-0.17363837 0.055545598 1.1436002
-0.16787979 0.052707579 1.1467143
-0.32283646 0.061948333 1.149
-0.31560752 0.062540136 1.1485556
-0.30444726 0.064706109 1.1442502
-0.29542133 0.067225575 1.1416667
-0.28707942 0.067018539 1.141
-0.17651436 0.064493902 1.1446365
-0.30150172 0.072106123 1.1476668
-0.29501519 0.072497703 1.1467777
-0.28397599 0.072709858 1.1446363
-0.27434063 0.07636907 1.1450002
-0.26438919 0.076602153 1.1440001
-0.25591508 0.07633207 1.1447897
-0.24595104 0.077416532 1.1443335
-0.23748112 0.078160092 1.143
-0.20477094 0.07845027 1.1409999
-0.19505396 0.079021856 1.141
-0.18429865 0.077211708 1.1438
-0.17899692 0.072925866 1.1458001
-0.24275689 0.081590489 1.149
-0.23382916 0.082537785 1.146143
-0.22487414 0.084854312 1.1444286
-0.21473983 0.085193492 1.1460528
-0.20515111 0.084053725 1.1458889
-0.19587171 0.082369141 1.1458001
-0.18792373 0.081401132 1.1463333
-0.1144164 -0.19643295 1.155
-0.13264404 -0.10530344 1.1550001
-0.12641321 -0.10329626 1.1535714
-0.11219843 -0.033356294 1.153
-0.10834285 -0.036448292 1.155
-0.12402018 -0.022599783 1.1543334
-0.11536945 -0.028227542 1.1558571
-0.1422624 -0.012654245 1.155
-0.13434704 -0.017786689 1.1547143
-0.12780222 -0.019271763 1.1570001
-0.15373941 0.0082593272 1.1570002
-0.40217125 0.023328977 1.1570001
-0.39475632 0.027331486 1.1545999
-0.38713515 0.028639236 1.153
-0.39354968 0.031443402 1.1570001
-0.38353434 0.03373472 1.1543332
-0.3763476 0.037707813 1.1535714
-0.37317041 0.04221471 1.1556667
-0.36539993 0.042890918 1.1556667
-0.35499936 0.04706385 1.1545
-0.34670326 0.049529035 1.153
-0.16176224 0.048967388 1.1556667
-0.15721701 0.045136496 1.1570001
-0.35297757 0.05172947 1.1570001
-0.34486079 0.054767281 1.1555882
-0.33570555 0.058204368 1.1537273
-0.17082463 0.059637003 1.153
-0.16541409 0.055861704 1.1555712
-0.33283848 0.063189261 1.1563333
-0.32515681 0.065844744 1.1554614
-0.31472409 0.0678031 1.1543332
-0.30829298 0.068734169 1.153
-0.17379116 0.066293731 1.1551538
-0.16857722 0.063495383 1.1570001
-0.31284013 0.073754333 1.1570002
-0.30528572 0.075330421 1.1551538
-0.29405192 0.0766185 1.1540909
-0.28571853 0.077157475 1.153
-0.27796909 0.079852939 1.153
-0.18194339 0.078842141 1.153
-0.17732675 0.074550614 1.1558571
-0.30124807 0.080129966 1.1570001
-0.29566944 0.080129966 1.1570001
-0.28501922 0.080535688 1.1570001
-0.27431586 0.082946822 1.1558571
-0.26612571 0.083159328 1.1552222
-0.25516084 0.083030842 1.155
-0.24514097 0.084079787 1.1555001
-0.23625992 0.085730977 1.155
-0.22473378 0.089287043 1.153
-0.2152997 0.089960903 1.153
-0.20569712 0.088950105 1.153
-0.19535378 0.086645521 1.1545999
-0.18537423 0.083064601 1.1554999
-0.23024686 0.090272993 1.1570001
-0.22416103 0.091490164 1.1570001
-0.21508579 0.092643499 1.1562001
-0.2055655 0.091287293 1.1570001
-0.19778915 0.0912873 1.1570001
-0.12173261 -0.19507632 1.1620001
-0.11551727 -0.1930317 1.1635
-0.10525988 -0.19408041 1.1646001
-0.11375538 -0.18959232 1.169
-0.10863127 -0.18959232 1.169
-0.13254324 -0.10195458 1.1630001
-0.12824406 -0.10076319 1.161
-0.13136822 -0.097244836 1.1676668
-0.1283063 -0.097298957 1.1634001
-0.10687005 -0.04173021 1.161
-0.10672408 -0.034211479 1.1650001
-0.12111939 -0.02137401 1.161
-0.1150808 -0.024429487 1.1644666
-0.10776162 -0.027962161 1.1670001
-0.13482179 -0.013390316 1.1640002
-0.12548974 -0.01754736 1.1638
-0.11867437 -0.01943833 1.1670001
-0.14332478 -0.0085086348 1.1650001
-0.14961807 0.0091602895 1.161
-0.15449785 0.012087855 1.1627144
-0.14961807 0.01119591 1.161
-0.41095415 0.029719876 1.169
-0.40591821 0.02735249 1.165
-0.39999932 0.02951649 1.161
-0.40445983 0.033534911 1.168
-0.39529908 0.035773549 1.1656667
-0.3864215 0.037987847 1.1621429
-0.39045769 0.042017758 1.169
-0.38389799 0.044558495 1.1671818
-0.37530988 0.045515276 1.1647142
-0.3656081 0.046622589 1.1645555
-0.35725132 0.049872689 1.161
-0.15776055 0.048854884 1.1610001
-0.37201086 0.050216343 1.169
-0.36497238 0.050529316 1.1683334
-0.35536683 0.055749703 1.1639091
-0.34910882 0.058015171 1.161
-0.16167603 0.056723546 1.1623334
-0.15836094 0.054051135 1.1632859
-0.35267162 0.06120168 1.1674001
-0.34418246 0.064348318 1.165
-0.33594611 0.0665287 1.163
-0.32875264 0.068193272 1.161
-0.17200989 0.068193272 1.161
-0.16529089 0.064799748 1.1634002
-0.3346872 0.071646899 1.1675001
-0.32477617 0.073686704 1.165
-0.31622466 0.076424196 1.1623334
-0.30839643 0.078371368 1.161
-0.17352967 0.075033493 1.1639333
-0.16778173 0.07059183 1.1670001
-0.31332856 0.081404194 1.168
-0.30476615 0.082843766 1.1666
-0.29386291 0.084695987 1.1658001
-0.28527731 0.086059622 1.1658
-0.27577549 0.087289624 1.1639092
-0.26466396 0.087235421 1.1631818
-0.25480244 0.087653697 1.1626
-0.24530712 0.087976784 1.1635001
-0.23613192 0.088549472 1.161
-0.19134828 0.088549472 1.161
-0.18373537 0.086328581 1.1639333
-0.17729892 0.083375968 1.1645555
-0.27465266 0.091209278 1.169
-0.26566035 0.091556787 1.1682001
-0.2550078 0.091146864 1.1682001
-0.2449328 0.091209278 1.169
-0.23443156 0.093646407 1.1668181
-0.22542028 0.096281782 1.1642001
-0.21495077 0.09730164 1.1650001
-0.20471729 0.095612407 1.1638236
-0.19484635 0.093652844 1.1636666
-0.18696386 0.092332512 1.1670001
-0.12031461 -0.19024105 1.1730001
-0.11825795 -0.19024105 1.1730001
-0.10386133 -0.19024105 1.1730001
-0.0983769 -0.19161217 1.1730002
-0.12190413 -0.18617283 1.177
-0.11463002 -0.18569164 1.175737
-0.10499234 -0.1864017 1.1764667
-0.094835162 -0.18601201 1.177
-0.11134036 -0.022843655 1.1738001
-0.10712867 -0.025234411 1.1750001
-0.1305979 -0.01131163 1.1730001
-0.12438124 -0.014935331 1.1750001
-0.11471647 -0.01870143 1.1758573
-0.10834285 -0.019604897 1.177
-0.14281899 -0.0067989007 1.1754
-0.13596749 -0.00927075 1.1750001
-0.15630616 0.01542495 1.1730001
-0.41030368 0.033934891 1.1730001
-0.40592033 0.037277441 1.1746
-0.39693537 0.038048211 1.1730001
-0.40325329 0.041401334 1.1764287
-0.39506894 0.043691661 1.1754001
-0.38768041 0.047303181 1.1730001
-0.38445026 0.052217219 1.1762729
-0.3748506 0.053847712 1.1755002
-0.36516145 0.055545885 1.1733335
-0.15695447 0.056093954 1.174
-0.36114281 0.061910197 1.177
-0.35406324 0.065112166 1.1735716
-0.34757555 0.068898112 1.1730001
-0.16250932 0.065860584 1.1764287
-0.15993468 0.061910197 1.177
-0.34445351 0.072394907 1.1755002
-0.33364841 0.076319464 1.174143
-0.32677442 0.078734748 1.174
-0.17084427 0.077693872 1.1754
-0.16559181 0.073521353 1.1756667
-0.15993468 0.073260404 1.177
-0.32466269 0.081422754 1.1756667
-0.31525782 0.084567457 1.1747779
-0.30516022 0.087483451 1.1740001
-0.29677603 0.089053378 1.1730001
-0.17512204 0.085937962 1.1745386
-0.30129629 0.091833465 1.177
-0.29408783 0.092121363 1.1754
-0.2853331 0.092709258 1.1750001
-0.27478281 0.095600933 1.1746668
-0.26517418 0.095399149 1.1751335
-0.25525326 0.095387824 1.1750002
-0.24536233 0.09574572 1.1743336
-0.23578136 0.097985156 1.1730002
-0.202581 0.099748008 1.1730001
-0.1953325 0.098326556 1.1735716
-0.18409103 0.095971189 1.175154
-0.17824574 0.093172766 1.1752859
-0.24041794 0.10008816 1.177
-0.2338194 0.10269185 1.1764287
-0.225087 0.10287616 1.1747779
-0.2152874 0.10301008 1.1750002
-0.20591787 0.10259266 1.1752859
-0.19295345 0.10008816 1.177
-0.18469876 0.10112 1.177
-0.1218254 -0.1818753 1.1810001
-0.11423288 -0.18153019 1.1810001
-0.10332726 -0.18263458 1.181
-0.09628693 -0.18236832 1.1810001
-0.12286016 -0.17804076 1.1876668
-0.1148726 -0.17633817 1.1855712
-0.10521418 -0.17593019 1.1863332
-0.095089711 -0.17713518 1.1873528
-0.088600315 -0.17303121 1.189
-0.11153216 -0.16990414 1.189
-0.10736273 -0.16990414 1.189
-0.10618625 -0.022481531 1.1836667
-0.12456793 -0.011996933 1.1827145
-0.11573388 -0.014700968 1.184
-0.10813245 -0.017671846 1.186
-0.15114172 -0.0010423567 1.189
-0.14404598 -0.0028856944 1.185889
-0.1357249 -0.0072664395 1.1844286
-0.12881739 -0.0093496498 1.1850001
-0.15115048 0.0064429739 1.1858001
-0.14801465 0.0052117826 1.189
-0.15385482 0.015617114 1.1874001
-0.149057 0.01250828 1.189
-0.40460023 0.046066027 1.1834
-0.39790481 0.047483247 1.1826001
-0.40530625 0.052096356 1.1885
-0.39465553 0.054347072 1.1855716
-0.38564566 0.057496529 1.1838
-0.37684518 0.058760334 1.1842
-0.36961758 0.05901457 1.1810001
-0.15561691 0.057549488 1.1850002
-0.38384783 0.062280815 1.189
-0.37332958 0.063125446 1.1882001
-0.36496648 0.065057613 1.1854001
-0.35784954 0.067758441 1.1818001
-0.16047822 0.067297317 1.1810001
-0.15604359 0.065471917 1.185421
-0.3538045 0.073885173 1.1870002
-0.34538627 0.077071495 1.1840001
-0.33735797 0.079001166 1.1826001
-0.16359402 0.077739589 1.1823334
-0.15644564 0.075038612 1.1867501
-0.34418616 0.081929229 1.189
-0.33453029 0.084216185 1.1859232
-0.32572481 0.086417265 1.1850002
-0.31838694 0.087117873 1.1830001
-0.17190878 0.085783593 1.1836667
-0.16602717 0.084439658 1.1871334
-0.15635349 0.08130382 1.189
-0.32104585 0.090685032 1.189
-0.31409243 0.093361787 1.1876668
-0.30541998 0.095415428 1.1852351
-0.29542974 0.096656248 1.1831819
-0.28539467 0.097511344 1.1818891
-0.27850735 0.098357618 1.1810001
-0.26401255 0.098357618 1.1810001
-0.25572979 0.098357618 1.1810001
-0.17451282 0.095046863 1.1844667
-0.16990414 0.090685032 1.189
-0.29238105 0.10162977 1.189
-0.28459957 0.10234722 1.1872224
-0.27520233 0.10177539 1.1846001
-0.26562491 0.10104056 1.1882
-0.25423717 0.10257157 1.1866001
-0.24510725 0.1034205 1.1847143
-0.2357914 0.10690559 1.1839091
-0.22482169 0.10774934 1.1818001
-0.21445985 0.10774934 1.1818001
-0.20465088 0.10660759 1.1859231
-0.19465394 0.10512687 1.1855716
-0.18527362 0.10541315 1.1842
-0.1769924 0.10272166 1.1857274
-0.23140317 0.11153216 1.189
-0.22509497 0.11283859 1.1881112
-0.21610492 0.11222012 1.1880001
-0.20847133 0.11153216 1.189
-0.1219452 -0.17311423 1.1947143
-0.11650918 -0.17131241 1.1930001
-0.10437717 -0.17089406 1.1930001
-0.095025837 -0.17209215 1.1933333
-0.086806655 -0.17047572 1.1930001
-0.12067755 -0.16789919 1.197
-0.11439903 -0.16678528 1.1951817
-0.10550845 -0.16671896 1.1950001
-0.095192194 -0.16651735 1.1965003
-0.086391121 -0.16561373 1.1939231
-0.10446916 -0.031097412 1.1956667
-0.10575026 -0.026178144 1.1943334
-0.11314085 -0.012570816 1.1950001
-0.10617942 -0.015035126 1.1965556
-0.14247411 -0.0010476167 1.1950001
-0.13630851 -0.0040375507 1.1947143
-0.12479017 -0.0090182703 1.1962001
-0.11857881 -0.0094443299 1.197
-0.10808511 -0.0094443299 1.197
-0.14442568 0.0040711425 1.194778
-0.15356161 0.019544991 1.1943334
-0.14745173 0.014780114 1.1947778
-0.15491489 0.021981541 1.194
-0.15845487 0.03567858 1.197
-0.41520774 0.040788669 1.1930001
-0.1605536 0.043024171 1.197
-0.15688081 0.044335887 1.197
-0.41030368 0.05561661 1.197
-0.40430832 0.055962019 1.1954
-0.39822206 0.058983594 1.1943334
-0.15550664 0.054450206 1.1945001
-0.39406738 0.063409299 1.1955
-0.38491538 0.066772431 1.195182
-0.37594458 0.066818409 1.1935713
-0.36918977 0.067981116 1.1930001
-0.1526864 0.065337092 1.1956667
-0.37392554 0.070307791 1.197
-0.36393741 0.072841354 1.1955001
-0.35715386 0.077356182 1.1947143
-0.15216829 0.075033024 1.1943333
-0.35379171 0.081456065 1.1963334
-0.3457315 0.086828142 1.1956668
-0.336768 0.088375449 1.1930001
-0.16302823 0.087927043 1.194
-0.15443662 0.083911516 1.1947778
-0.34104526 0.09129519 1.197
-0.33451217 0.09264157 1.1954
-0.32452279 0.093826368 1.195182
-0.31533056 0.098366678 1.1936666
-0.17166448 0.096299201 1.194
-0.16601123 0.092063904 1.1952858
-0.31271225 0.10178889 1.197
-0.30536667 0.10178889 1.197
-0.29647201 0.10266819 1.1950001
-0.28418598 0.10624542 1.194
-0.27515751 0.10578497 1.1947143
-0.26403126 0.10493787 1.1956668
-0.2558879 0.10702667 1.193
-0.2460767 0.1089192 1.193
-0.20289749 0.10981565 1.1930001
-0.19557644 0.10981564 1.1930001
-0.18198022 0.10876979 1.1930001
-0.17504491 0.10446682 1.1956667
-0.25331789 0.11060359 1.197
-0.24555258 0.11228259 1.197
-0.2344633 0.11490191 1.1944546
-0.2247104 0.11729692 1.1934445
-0.21456252 0.11571329 1.1938888
-0.20491278 0.11398244 1.1950002
-0.19606648 0.11297581 1.1960001
-0.18646203 0.11309029 1.1956667
-0.17944227 0.11018385 1.197
-0.22876266 0.12067755 1.197
-0.12560529 -0.17310134 1.204
-0.12296565 -0.16729517 1.204
-0.11533894 -0.16421545 1.2033334
-0.10431886 -0.16275434 1.2046669
-0.095426157 -0.16235742 1.2037144
-0.086934648 -0.16175114 1.202
-0.1004397 -0.15964626 1.2060001
-0.094560638 -0.15700358 1.2056925
-0.087732501 -0.15638219 1.2030908
-0.10027313 -0.031663448 1.204
-0.096809126 -0.031329144 1.2046667
-0.10326783 -0.025290079 1.202
-0.1106441 -0.011591286 1.202
-0.10440661 -0.014765697 1.2030001
-0.13440061 -0.0031653512 1.2040001
-0.12595539 -0.0066848756 1.204
-0.114876 -0.0077722073 1.2041819
-0.10784052 -0.0084580798 1.2060001
-0.14192846 0.0061159772 1.2028
-0.13850106 0.00105726 1.2060001
-0.14468215 0.01372451 1.2046667
-0.15479587 0.026108228 1.2032498
-0.14855643 0.023588762 1.2046667
-0.16122426 0.038988873 1.202
-0.15475474 0.034732539 1.2037389
-0.14872123 0.035594419 1.2060002
-0.15366203 0.045683302 1.2019999
-0.14801642 0.04546218 1.2060002
-0.40710005 0.057956439 1.202
-0.1523146 0.054524962 1.2037778
-0.14907366 0.052862998 1.2060001
-0.40463293 0.062568098 1.2051113
-0.39610639 0.067742132 1.2036002
-0.15179044 0.064149208 1.2045001
-0.14907366 0.063435599 1.2060001
-0.40070152 0.072950937 1.2060001
-0.39443931 0.072293095 1.2056001
-0.38435698 0.072267465 1.204182
-0.37520909 0.07561662 1.2048235
-0.36723304 0.076660559 1.202
-0.15068673 0.074816488 1.202
-0.14907366 0.074008197 1.2060001
-0.37109825 0.081409022 1.2060001
-0.36450765 0.08342471 1.2045456
-0.35578358 0.086858913 1.2026154
-0.15449452 0.087415509 1.2050002
-0.35277244 0.092686452 1.2060001
-0.34528795 0.094802238 1.2034285
-0.33572251 0.097235605 1.2037144
-0.3281388 0.097156063 1.202
-0.1717618 0.097999059 1.202
-0.16513887 0.096025102 1.2036667
-0.15964626 0.094096147 1.2060001
-0.33197963 0.1004397 1.2060001
-0.32378191 0.10220662 1.205
-0.31564382 0.10483356 1.2034545
-0.30507612 0.10662033 1.2041333
-0.29562193 0.10721186 1.202889
-0.28662091 0.10853659 1.202
-0.27334362 0.10811509 1.202
-0.26712647 0.10800971 1.202
-0.17317471 0.10540083 1.2050771
-0.16641273 0.1012855 1.2060001
-0.30290496 0.11154094 1.2060001
-0.29497555 0.1110123 1.2060001
-0.28466401 0.11234016 1.2051113
-0.27580044 0.11222274 1.2045455
-0.26482123 0.11287009 1.2048572
-0.2549738 0.11526003 1.2043334
-0.2446177 0.11681829 1.2048
-0.23887414 0.11759256 1.2030001
-0.21514364 0.11917319 1.2030001
-0.20494537 0.1184324 1.2035
-0.19504766 0.1179131 1.2038183
-0.18407415 0.11567441 1.205
-0.1768668 0.11178447 1.2052
-0.23445399 0.12218875 1.2036
-0.22439453 0.12257963 1.2042222
-0.21409516 0.12237784 1.2060002
-0.20828022 0.1215849 1.2060001
-0.12623124 -0.17078343 1.21
-0.12288338 -0.16237445 1.2128572
-0.11562357 -0.16166084 1.21
-0.10628881 -0.1606001 1.21
-0.12212804 -0.15630752 1.2184443
-0.1147361 -0.15439895 1.2169547
-0.10487871 -0.15442181 1.2126523
-0.095734194 -0.15275042 1.21
-0.086629272 -0.15239681 1.21
-0.11007164 -0.14854327 1.2190001
-0.10373963 -0.14604628 1.2176363
-0.094564103 -0.14555639 1.21196
-0.086524077 -0.14561902 1.2110001
-0.10152239 -0.13999403 1.2190001
-0.094237447 -0.13721472 1.2180625
-0.085191421 -0.13478282 1.2157334
-0.094408236 -0.031823002 1.21
-0.10217024 -0.021285467 1.2140001
-0.096848875 -0.028735379 1.2140001
-0.10168207 -0.014699196 1.21
-0.13217327 -0.0015920267 1.2110001
-0.12450965 -0.0028615075 1.2139231
-0.11494399 -0.0029939758 1.2129999
-0.10608862 -0.0062823524 1.2134546
-0.14108196 0.0074253664 1.21
-0.13655812 0.0044090068 1.2142857
-0.14323619 0.015514282 1.2121
-0.13931614 0.013346154 1.2177501
-0.14486103 0.024618018 1.2150557
-0.13999403 0.028853729 1.2190001
-0.14474849 0.034940936 1.2155265
-0.13885468 0.03418003 1.2183751
-0.14458367 0.044407554 1.2156668
-0.41613087 0.058535032 1.2140001
-0.14659539 0.054061916 1.21325
-0.41582945 0.063742705 1.2164614
-0.40729406 0.067708217 1.2148572
-0.14821413 0.064602539 1.2124445
-0.39505982 0.076526739 1.21
-0.38581184 0.077730142 1.2108889
-0.37657216 0.079557501 1.21
-0.14774026 0.076071747 1.2124287
-0.39433432 0.080149248 1.2190001
-0.38418794 0.083501451 1.2180001
-0.37568712 0.084901385 1.214
-0.36679909 0.087586008 1.2110001
-0.15087609 0.088189155 1.2120001
-0.14823392 0.084746167 1.2121252
-0.37082386 0.090835817 1.2190001
-0.36370191 0.092795052 1.216625
-0.3551859 0.096210785 1.2135715
-0.34687069 0.098651297 1.21
-0.16123652 0.098651297 1.21
-0.15385436 0.094977647 1.2125652
-0.14839095 0.093948647 1.2177501
-0.34281909 0.10206083 1.2152001
-0.33498666 0.1046972 1.2151818
-0.32613072 0.10611699 1.2117778
-0.31504771 0.10925897 1.21
-0.17078343 0.1081982 1.21
-0.16467416 0.10540043 1.2128749
-0.15564112 0.10317161 1.2174166
-0.32487163 0.1111403 1.2190001
-0.31458798 0.11360408 1.2156001
-0.30509025 0.11547876 1.214
-0.29502863 0.11600329 1.2122308
-0.28610983 0.11700058 1.21325
-0.27446973 0.11688869 1.210889
-0.26497951 0.1181694 1.21
-0.25564477 0.11951304 1.21
-0.2482194 0.11986663 1.21
-0.18386622 0.11915945 1.21
-0.17479835 0.11617919 1.2108887
-0.16849463 0.11297183 1.2180001
-0.30136117 0.12075821 1.2190001
-0.29494923 0.12075821 1.2190001
-0.28533131 0.12118566 1.2190001
-0.27538079 0.12115659 1.2168571
-0.26580906 0.12171924 1.21525
-0.25452483 0.12316772 1.2181667
-0.24437104 0.12390496 1.2148889
-0.23529337 0.12563992 1.2145001
-0.22493163 0.12728465 1.2160002
-0.2155932 0.12677127 1.2114545
-0.20516859 0.12544551 1.2126111
-0.19541331 0.12406858 1.2147499
-0.18415147 0.12526104 1.2163845
-0.17615846 0.12268493 1.2145556
-0.21479999 0.13144477 1.2190001
-0.12517506 -0.1535874 1.223
-0.1235688 -0.14827998 1.2256668
-0.11420538 -0.14593008 1.2255881
-0.10672453 -0.14265515 1.2235
-0.11079401 -0.13768576 1.2270001
-0.10452519 -0.13515373 1.226
-0.096177265 -0.13233656 1.2242309
-0.087917387 -0.1318761 1.223
-0.10003731 -0.12800473 1.2270001
-0.093368158 -0.12542312 1.2270001
-0.084868804 -0.12568562 1.2253997
-0.091431953 -0.11939937 1.2270001
-0.084499858 -0.11844322 1.2270001
-0.13481994 0.0069019967 1.2247144
-0.12973176 0.0010721633 1.223
-0.1404534 0.018226776 1.223
-0.1369783 0.015039656 1.2255001
-0.14088227 0.024230892 1.223
-0.13741505 0.024690617 1.2246001
-0.1404534 0.039670043 1.223
-0.13677174 0.035427678 1.2246001
-0.14157028 0.045556985 1.2247144
-0.13861065 0.044056881 1.2256669
-0.1430482 0.05571479 1.2255715
-0.13876143 0.054859169 1.2270001
-0.42136019 0.067546293 1.223
-0.41921586 0.067546293 1.223
-0.14374459 0.065741368 1.225105
-0.41063854 0.071834944 1.223
-0.40742207 0.071834944 1.223
-0.14488886 0.075132489 1.2259092
-0.39373851 0.083471112 1.2238001
-0.38547269 0.086893737 1.2236668
-0.37847364 0.088989556 1.223
-0.14605092 0.084033534 1.2250001
-0.37372124 0.093433082 1.2250001
-0.36707962 0.09624368 1.2243334
-0.35810256 0.099711187 1.223
-0.14760348 0.095609792 1.2254002
-0.36250079 0.10111298 1.2270001
-0.35059741 0.10185552 1.223
-0.34365159 0.1063195 1.2250001
-0.33773145 0.1082885 1.223
-0.16189666 0.1082885 1.223
-0.15518987 0.10727537 1.2236668
-0.14951813 0.10218865 1.2270001
-0.33393079 0.11234687 1.2256668
-0.32516605 0.11483069 1.2241429
-0.31584567 0.1183067 1.2246001
-0.30985519 0.11901013 1.223
-0.17047396 0.11901013 1.223
-0.16500691 0.11365931 1.2254002
-0.15705536 0.11107981 1.2254002
-0.31086862 0.12155071 1.2270001
-0.30510718 0.12260236 1.2246001
-0.29450577 0.12402866 1.2241429
-0.28501675 0.12543522 1.225
-0.27642176 0.12559871 1.2245001
-0.26414984 0.126175 1.2241429
-0.25542623 0.12704411 1.2255001
-0.24423881 0.12844518 1.223
-0.2369481 0.12758744 1.223
-0.22622645 0.12973176 1.223
-0.2015667 0.12973176 1.223
-0.19513372 0.12812352 1.223
-0.18870074 0.12758744 1.223
-0.17553659 0.12617199 1.2241429
-0.25278243 0.13015607 1.2270001
-0.2474041 0.13015607 1.2270001
-0.23342039 0.13015607 1.2270001
-0.22337905 0.13308169 1.2262001
-0.21531942 0.13316743 1.2250001
-0.20570545 0.13311979 1.2256668
-0.19469626 0.13107808 1.2270001
-0.18716657 0.13015607 1.2270001
-0.17748556 0.13015607 1.2270001
-0.12322988 -0.14488564 1.2352002
-0.11772581 -0.14328706 1.2320002
-0.12027516 -0.13869569 1.2360001
-0.11478394 -0.13533038 1.2337502
-0.1073573 -0.13155051 1.2320001
-0.11160668 -0.12894364 1.2360001
-0.10361902 -0.12575419 1.2341539
-0.097404681 -0.12364458 1.2325716
-0.094757579 -0.11557097 1.2335002
-0.085594229 -0.11367559 1.2320002
-0.078843892 -0.11340559 1.2320001
-0.093186162 -0.10943956 1.2360001
-0.084955342 -0.10558757 1.2356192
-0.079099879 -0.10510532 1.2360001
-0.13215365 0.0062713227 1.2336
-0.12519269 0.001082391 1.2346667
