# .PCD v0.7 - Point Cloud Data file format
VERSION 0.7
FIELDS x y z
SIZE 4 4 4
TYPE F F F
COUNT 1 1 1
WIDTH 1430
HEIGHT 1
VIEWPOINT 0 0 0 1 0 0 0
POINTS 1430
DATA ascii
-0.11302641 -0.21385294 1.2049092
-0.10685059 -0.21728393 1.202
-0.11162114 -0.20582205 1.2040001
-0.10769359 -0.20295289 1.202
-0.1110123 -0.19982214 1.2060001
-0.1039696 -0.19539958 1.204
-0.10123143 -0.18521608 1.2042222
-0.097999059 -0.18019181 1.202
-0.1004397 -0.17867693 1.2060001
-0.097052842 -0.17405982 1.2033335
0.017913807 -0.1717618 1.202
0.023918839 -0.17472437 1.2023076
-0.093360245 -0.16695915 1.2042857
-0.087208457 -0.16210559 1.2033335
-0.0052687665 -0.16122426 1.202
0.0084300265 -0.16227801 1.202
0.015319952 -0.16381811 1.2019999
0.022309914 -0.1661233 1.2037143
-0.083104752 -0.15790996 1.2042857
-0.075381592 -0.15311171 1.2032307
-0.011606717 -0.15510373 1.2036002
-0.0052739559 -0.15504269 1.2031198
0.005001192 -0.1554454 1.2033911
0.014546598 -0.15708423 1.2050771
0.022880415 -0.15876725 1.2046667
-0.070836417 -0.14801639 1.2060001
-0.064894959 -0.14508952 1.2036668
-0.054819282 -0.14126123 1.2025
-0.013717028 -0.14455357 1.2036
-0.053920258 -0.13850106 1.2060001
-0.044637643 -0.13363194 1.2028
-0.038988873 -0.13171917 1.202
-0.014894958 -0.13383992 1.2042222
-0.042290401 -0.12792847 1.2060001
-0.034815527 -0.12603816 1.2034118
-0.023600746 -0.12394334 1.2032501
-0.016538806 -0.12679854 1.2042223
-0.024674134 -0.11685817 1.2079999
-0.081217907 -0.34090146 1.2190001
-0.074805968 -0.34090146 1.2190001
-0.083088055 -0.33422238 1.219
-0.075651124 -0.33530504 1.2154211
-0.065880798 -0.33281574 1.216
-0.057470761 -0.330989 1.2140001
-0.084860675 -0.32410389 1.2156249
-0.076025553 -0.32537836 1.2106314
-0.065016307 -0.32701659 1.2121818
-0.057761233 -0.32779208 1.2126667
-0.093895443 -0.31456879 1.2180001
-0.084986903 -0.31444257 1.21175
-0.078496739 -0.31575486 1.21
-0.033590943 -0.31151178 1.21
-0.025340537 -0.31575489 1.21
-0.018033033 -0.31504771 1.21
-0.094197325 -0.30510038 1.2150477
-0.086525247 -0.3068158 1.2110001
-0.0941374 -0.29516175 1.2137334
-0.096035995 -0.28514001 1.214
-0.10216542 -0.27410224 1.2181667
-0.09709952 -0.2754502 1.2122728
-0.10319802 -0.26481882 1.2158183
-0.098226987 -0.2658281 1.21
-0.11197883 -0.25382087 1.2165002
-0.10503734 -0.25465268 1.2135457
-0.098651297 -0.25776634 1.21
-0.12075821 -0.24258506 1.2190001
-0.11472505 -0.24412066 1.216
-0.10544518 -0.24469195 1.2110525
-0.12262215 -0.23390241 1.2162727
-0.11457636 -0.23457545 1.211895
-0.12403834 -0.22484 1.2155001
-0.11580036 -0.22505932 1.21
-0.12242555 -0.2151715 1.2160833
-0.11641914 -0.21666159 1.21
-0.12131204 -0.20582555 1.2165
-0.11631555 -0.20447724 1.2116667
-0.11382771 -0.19621789 1.2153333
-0.10845293 -0.19369449 1.2111429
-0.11098764 -0.18487762 1.219
-0.10635578 -0.18531783 1.2122308
-0.11007164 -0.17846566 1.2190001
-0.10371511 -0.17554578 1.2146001
-0.098651297 -0.1718442 1.21
-0.10356715 -0.16762519 1.2178888
-0.096048065 -0.16337945 1.2127999
-0.08804363 -0.16017577 1.21
0.0222761 -0.16229731 1.21
-0.10152239 -0.15922984 1.2190001
-0.094009608 -0.15518323 1.2158002
-0.085418455 -0.15316419 1.2122501
-0.079557501 -0.15168963 1.21
0.0084861331 -0.15168963 1.21
0.015508935 -0.1518881 1.2116001
0.02349296 -0.15399225 1.2149999
-0.091548257 -0.14783083 1.2190001
-0.084663205 -0.14602475 1.2173332
-0.075724006 -0.14563721 1.2134547
-0.066286273 -0.14212443 1.2111429
-0.011691578 -0.14560907 1.2124002
-0.0053188759 -0.14578448 1.2138802
0.0053169127 -0.14569856 1.21316
0.014531736 -0.14553937 1.2162501
0.021159403 -0.14683342 1.2190001
-0.073737308 -0.13999403 1.2190001
-0.064157091 -0.13832292 1.2156
-0.054825272 -0.13590495 1.2143333
-0.049856033 -0.1368389 1.21
-0.011707007 -0.13516271 1.2140001
-0.00726292 -0.13758555 1.2184999
0.0053432835 -0.13892536 1.219
0.012467661 -0.13928159 1.2190001
-0.042336162 -0.1248796 1.2134001
-0.037181437 -0.12185591 1.2117144
-0.013447586 -0.12378231 1.2143636
-0.034378819 -0.11577966 1.2127142
-0.01594528 -0.11517635 1.2127999
-0.03228296 -0.10891064 1.2140001
-0.024755882 -0.10573093 1.2140436
-0.01726928 -0.10809264 1.2160002
-0.082109481 -0.35246119 1.2270001
-0.075115427 -0.35088408 1.2240001
-0.069690615 -0.35059741 1.223
-0.09229248 -0.34270847 1.2270001
-0.084420241 -0.34569171 1.226077
-0.075092934 -0.34649751 1.2236668
-0.068194628 -0.34551722 1.2261113
-0.093379177 -0.33462235 1.2266668
-0.087202609 -0.33648053 1.2229999
-0.065184303 -0.33851117 1.2247144
-0.058254212 -0.33630189 1.223
-0.11079401 -0.32162532 1.2270001
-0.10460889 -0.3224321 1.2270001
-0.094396338 -0.32508853 1.2255715
-0.088989556 -0.32915413 1.223
-0.11079401 -0.31947398 1.2270001
-0.10445978 -0.31575081 1.2257367
-0.098388009 -0.31663534 1.2243334
-0.10188131 -0.3044146 1.2270001
-0.099711187 -0.30449438 1.223
-0.10218864 -0.29473352 1.2270001
-0.099711187 -0.29162842 1.223
-0.10437681 -0.28535655 1.2254616
-0.099711187 -0.28841195 1.223
-0.10537396 -0.27623853 1.2247144
-0.11115204 -0.26379758 1.2262001
-0.10784096 -0.26611477 1.2240001
-0.13553442 -0.25063109 1.2270001
-0.1241696 -0.25428236 1.2259334
-0.11716498 -0.25569776 1.2240909
-0.13365911 -0.24473543 1.2267144
-0.12503758 -0.2454664 1.2250003
-0.11793797 -0.24874189 1.223
-0.13377288 -0.23563637 1.2253528
-0.12764706 -0.23644714 1.2235715
-0.1333831 -0.22481504 1.2270001
-0.12973176 -0.22515428 1.223
-0.13015607 -0.21728534 1.2270001
-0.12747589 -0.21549846 1.2245001
-0.12547387 -0.20436749 1.2251821
-0.12341898 -0.19653648 1.2265556
-0.11787852 -0.19366863 1.2246001
-0.11633129 -0.18490818 1.2248666
-0.11382945 -0.17538516 1.2255882
-0.1082885 -0.17369045 1.223
-0.11079401 -0.16780452 1.2270001
-0.10607803 -0.16365001 1.2244545
-0.10864267 -0.15812349 1.2270001
0.028948409 -0.15117502 1.223
-0.093243338 -0.14410073 1.2256668
-0.085616842 -0.14183256 1.2237999
-0.075408824 -0.1404534 1.223
0.017512001 -0.14116818 1.223
0.025292417 -0.14471067 1.2247777
0.03119443 -0.14413978 1.2270001
-0.092507616 -0.13876143 1.2270001
-0.084329717 -0.13595073 1.2267647
-0.075235538 -0.13542134 1.226
-0.065751888 -0.13347937 1.2253158
-0.056022681 -0.13178895 1.2242
-0.0046007461 -0.13509397 1.2244285
0.0062309373 -0.13399425 1.2254001
0.014645484 -0.13448186 1.2260001
0.02043773 -0.13768576 1.2270001
-0.06131319 -0.12800473 1.2270001
-0.053835701 -0.12749852 1.2259092
-0.046176307 -0.12500004 1.2250001
-0.0088624423 -0.1256969 1.2255001
0.013983709 -0.12800473 1.2270001
-0.011819512 -0.11711828 1.2256668
-0.0096810302 -0.11939937 1.2270001
-0.023798371 -0.1005568 1.2258574
-0.015920347 -0.10362766 1.2255456
-0.024740407 -0.097885966 1.2270001
-0.092102602 -0.36082548 1.2360001
-0.089935482 -0.36190903 1.2360001
-0.10077108 -0.352157 1.2360001
-0.094551302 -0.35353476 1.2340001
-0.087785259 -0.35438305 1.2334548
-0.066963308 -0.35101733 1.2320001
-0.10231752 -0.34457013 1.2356365
-0.096330762 -0.34589148 1.2323335
-0.088564374 -0.34885722 1.2320001
-0.063311115 -0.34551293 1.2324002
-0.059499368 -0.34401628 1.2340001
-0.11434139 -0.33187994 1.2354287
-0.10441741 -0.33500138 1.2335558
-0.097564816 -0.33553657 1.2320002
-0.1143818 -0.32533535 1.2335387
-0.10458516 -0.32779622 1.2320002
-0.098284855 -0.32941628 1.2320001
-0.11298449 -0.31574121 1.2338183
-0.10764531 -0.31285545 1.2320001
-0.11160668 -0.303758 1.2360001
-0.10707892 -0.30527529 1.2337501
-0.11160668 -0.29472834 1.2360001
-0.10749897 -0.29588413 1.2336001
-0.11243225 -0.28533298 1.2348573
-0.10908539 -0.28513408 1.2320001
-0.11178727 -0.27549717 1.2340001
-0.1090854 -0.2754136 1.2320001
-0.14266874 -0.26186034 1.2360001
-0.13580619 -0.26276329 1.2360001
-0.12505579 -0.26331383 1.2340001
-0.11606079 -0.2656348 1.2330911
-0.14266874 -0.25427541 1.2360001
-0.13501036 -0.25548425 1.2331113
-0.12852634 -0.25705269 1.2320001
-0.14265433 -0.24504431 1.2337779
-0.13716678 -0.24640644 1.2320002
-0.14194636 -0.23729964 1.2360001
-0.13904224 -0.23377603 1.2326669
-0.13795647 -0.22588262 1.2352002
-0.13492426 -0.21513927 1.2332002
-0.14194636 -0.20912708 1.2360001
-0.13425273 -0.20583478 1.2325002
-0.12852634 -0.20521012 1.2320001
-0.13185668 -0.19739525 1.2342857
-0.12640418 -0.19397511 1.2323638
-0.12428889 -0.18697126 1.2328002
-0.11988592 -0.1803689 1.2320001
-0.11826584 -0.17442861 1.2320001
-0.11385284 -0.16491476 1.2332308
-0.11124549 -0.15876783 1.2320001
-0.096844785 -0.14220703 1.2320001
0.028081387 -0.14148699 1.2320001
0.031321548 -0.14148699 1.2320001
-0.10044496 -0.13932689 1.2320001
-0.094779193 -0.13537587 1.2325716
-0.08667428 -0.13176651 1.2320002
-0.07452368 -0.13068645 1.2320001
-0.0028081385 -0.13155049 1.2320001
0.0028081385 -0.13155051 1.2320001
0.018360907 -0.13284655 1.2320001
0.025243884 -0.13485587 1.2332176
0.032144301 -0.13586974 1.2325002
-0.084653392 -0.12751819 1.2348001
-0.074357942 -0.12458318 1.2339133
-0.065051802 -0.12412328 1.2334738
-0.055574358 -0.12260825 1.2333335
-0.047934961 -0.12145574 1.2333335
-0.0035132421 -0.12421884 1.2335001
0.0055106436 -0.12523861 1.2340955
0.015325164 -0.12355863 1.2331766
0.023748314 -0.12609012 1.2349335
0.031423241 -0.12894364 1.2360001
-0.072598517 -0.11810804 1.2360001
-0.065013602 -0.11810804 1.2360001
-0.059595801 -0.11810804 1.2360001
-0.044859909 -0.11944145 1.233
-0.011880587 -0.11232555 1.2320001
-0.007755578 -0.1154535 1.2346667
0.018420519 -0.11702448 1.2360001
0.023477132 -0.11738566 1.2360001
0.033590361 -0.11738566 1.2360001
-0.01226632 -0.10426956 1.2346667
-0.0093186153 -0.10683902 1.2360001
-0.022713071 -0.09529952 1.233778
-0.015895721 -0.095457681 1.234154
-0.016253401 -0.089935482 1.2360001
-0.09059035 -0.37000155 1.245
-0.088407449 -0.37000155 1.245
-0.10405157 -0.3619976 1.245
-0.097035021 -0.36197451 1.2436666
-0.11023645 -0.35035545 1.245
-0.10539977 -0.35518837 1.2442502
-0.096826948 -0.35793337 1.2410001
-0.11332888 -0.34435248 1.245
-0.10777582 -0.34466657 1.2418001
-0.12115095 -0.33507511 1.245
-0.11646539 -0.33794117 1.2444999
-0.10988227 -0.33835039 1.2410001
-0.12115095 -0.32525209 1.245
-0.11896805 -0.32488826 1.245
-0.12115095 -0.31488335 1.245
-0.11731355 -0.31425449 1.2442727
-0.12177464 -0.30482641 1.245
-0.11623865 -0.30482763 1.2435
-0.12115095 -0.29360005 1.245
-0.11656059 -0.29496348 1.2443846
-0.15171155 -0.28050265 1.245
-0.14467776 -0.2814728 1.245
-0.13643125 -0.2835587 1.245
-0.12271017 -0.28237373 1.245
-0.11754546 -0.28458741 1.2446363
-0.15258472 -0.27657345 1.245
-0.14495684 -0.27464896 1.2432004
-0.13533835 -0.27503368 1.2416667
-0.12549658 -0.27500176 1.2448003
-0.11681724 -0.27569395 1.243
-0.14627354 -0.26543975 1.2424117
-0.13433707 -0.26846009 1.2418001
-0.12583877 -0.26835933 1.2410001
-0.14749968 -0.25534216 1.2426001
-0.14680003 -0.24612197 1.245
-0.14297995 -0.23357029 1.245
-0.14265054 -0.22420311 1.2444999
-0.14342974 -0.21560492 1.2416154
-0.1318533 -0.19178486 1.243
-0.077243976 -0.1229376 1.2410001
0.0043517733 -0.12076171 1.2410001
0.027198583 -0.12184966 1.2410001
0.033037182 -0.12403675 1.2423334
-0.071978718 -0.11505417 1.2440001
-0.064479381 -0.11437157 1.244
-0.054631125 -0.1153918 1.2432503
-0.045312017 -0.11553188 1.2432858
-0.0014511755 -0.11393043 1.2416667
0.0046028891 -0.11564742 1.2432221
0.015265221 -0.11623462 1.2437999
0.02475068 -0.11457057 1.243
0.031652048 -0.11460225 1.245
-0.0035756733 -0.10469417 1.2421428
0.00109145 -0.10587064 1.245
-0.022146061 -0.091121607 1.2423334
-0.015231207 -0.090299293 1.2410001
-0.0067571718 -0.095558479 1.2434002
-0.020737549 -0.088407449 1.245
-0.014912684 -0.086018972 1.2446667
-0.11184671 -0.37436733 1.2582
-0.10611365 -0.3742539 1.2556
-0.096801661 -0.37355232 1.2527143
-0.12030584 -0.36202127 1.2590001
-0.11384109 -0.36470425 1.2550769
-0.10536997 -0.36751086 1.2505555
-0.095824547 -0.36832178 1.25
-0.087666661 -0.36710417 1.25
-0.12351883 -0.35429147 1.258
-0.1149707 -0.35548729 1.2517649
-0.12586795 -0.34539998 1.2552501
-0.11788034 -0.34769225 1.25
-0.12633635 -0.33541715 1.2530833
-0.13281471 -0.32191932 1.2590001
-0.12619178 -0.32516298 1.2516668
-0.14105584 -0.31191221 1.2590001
-0.13440275 -0.31507301 1.2566249
-0.12561668 -0.31458864 1.2503334
-0.14155252 -0.30407578 1.2589999
-0.13408306 -0.30442768 1.2536501
-0.12666517 -0.30385387 1.2504545
-0.15231381 -0.29138297 1.2590001
-0.14440428 -0.29549378 1.2585295
-0.13482641 -0.295131 1.2567501
-0.12529282 -0.29492068 1.251706
-0.16003989 -0.2836569 1.2590001
-0.15463395 -0.28477228 1.2541817
-0.14486863 -0.28754061 1.251875
-0.13345826 -0.28611735 1.25125
-0.12632133 -0.28614059 1.2505555
-0.16003989 -0.27482709 1.2590001
-0.15527813 -0.27359307 1.2522223
-0.13259584 -0.27943751 1.25
-0.16003989 -0.26820478 1.2590001
-0.1551328 -0.2651903 1.2537144
-0.15332446 -0.25516558 1.2546
-0.15179084 -0.24498518 1.2556667
-0.148332 -0.24282205 1.2533334
-0.1512101 -0.2361968 1.2590001
-0.14686228 -0.23545818 1.2539001
-0.15012917 -0.22464584 1.25
-0.14693747 -0.22722888 1.2521429
0.028893471 -0.22128673 1.2516667
0.032509726 -0.22099304 1.25
0.029677447 -0.21432905 1.2538
0.034928475 -0.21413991 1.2513158
0.040545832 -0.21259166 1.25
0.036034506 -0.20742942 1.2552501
0.040545832 -0.20711249 1.25
-0.13040416 -0.18957916 1.25
-0.071229167 -0.11067916 1.25
-0.063923605 -0.11067917 1.25
-0.054791663 -0.11067916 1.25
-0.0441714 -0.11166705 1.251875
-0.038430877 -0.11199636 1.2525001
0.0076708337 -0.11193154 1.25
0.014532942 -0.11215963 1.25125
0.027395835 -0.11177499 1.25
0.03297472 -0.11210924 1.2537501
-0.063167341 -0.10600974 1.2531668
-0.054816056 -0.10529059 1.2550001
-0.045451168 -0.10660799 1.2569376
-0.037305851 -0.10750265 1.2590001
0.0058704522 -0.10498852 1.2547779
0.015727837 -0.10618079 1.2560714
0.025305303 -0.10449944 1.2548003
0.032954387 -0.10522933 1.2576667
-0.026600698 -0.092985757 1.2538
-0.002800463 -0.093632877 1.25
0.0019276806 -0.095686957 1.2546251
0.025385637 -0.098231375 1.2590001
0.034215424 -0.098231375 1.2590001
0.041873105 -0.095871389 1.2570001
-0.022693951 -0.084865086 1.2542727
-0.016437501 -0.082735412 1.25
-0.0054910905 -0.084622316 1.2536805
0.0011025545 -0.087099463 1.2576667
-0.020970743 -0.078364357 1.2590001
-0.015172703 -0.077171512 1.2540667
-0.007087349 -0.077347167 1.2578572
-0.12338908 -0.38239497 1.268
-0.11647627 -0.38048151 1.2653333
-0.12431396 -0.37460539 1.2674999
-0.11683197 -0.37510288 1.2644
-0.13005877 -0.36349759 1.268
-0.12461125 -0.36480343 1.2653333
-0.11856741 -0.36899951 1.2640001
-0.13495407 -0.35340703 1.2673846
-0.12876198 -0.3561455 1.2640001
-0.13427943 -0.344953 1.2658461
-0.13407081 -0.33419979 1.2665
-0.14179558 -0.32242537 1.2656
-0.13545446 -0.32566518 1.2644
-0.16192502 -0.31162229 1.268
-0.15327913 -0.31236336 1.268
-0.14528853 -0.31568128 1.2650908
-0.16118394 -0.30458206 1.268
-0.15547632 -0.30423075 1.2651764
-0.14737819 -0.30536252 1.2640001
-0.16255312 -0.29437107 1.2671112
-0.15587367 -0.29549512 1.2640001
-0.1340809 -0.29586449 1.2640001
-0.16380459 -0.28458977 1.2653334
-0.16416615 -0.27467605 1.2662222
-0.16186984 -0.26578361 1.2664001
-0.15845925 -0.26040506 1.2640001
-0.15788765 -0.2543923 1.2653333
-0.15595607 -0.24427967 1.2646667
-0.15455434 -0.23539601 1.2657143
-0.15181062 -0.22937807 1.2640001
0.030013559 -0.21009491 1.268
0.035118457 -0.20413008 1.267077
0.041064821 -0.20199277 1.266
0.043352921 -0.19786717 1.268
-0.082259387 -0.12116585 1.268
-0.078924544 -0.12116585 1.268
-0.081147775 -0.11894263 1.268
-0.063297667 -0.10105044 1.2666668
-0.05651344 -0.10083771 1.2640001
-0.044939887 -0.1018227 1.2640001
-0.035157204 -0.10285244 1.2640001
-0.029918879 -0.10083771 1.2640001
0.0092342226 -0.10157645 1.2640001
0.014781184 -0.10162964 1.2646667
0.037235793 -0.1028315 1.2651428
0.042006362 -0.1038309 1.2657144
-0.062878743 -0.097981878 1.2672
-0.054733448 -0.094475225 1.2663999
-0.045387119 -0.095052876 1.2657142
-0.034942761 -0.095070422 1.2675555
-0.029918879 -0.09640529 1.2640001
0.0062162681 -0.094557628 1.266
0.014849776 -0.09749043 1.2676362
0.025526196 -0.09452045 1.2659999
0.034695394 -0.094649762 1.2664999
0.041618872 -0.095998503 1.266
-0.051134214 -0.087817453 1.268
-0.045576148 -0.087817453 1.268
-0.026636641 -0.086567327 1.266
0.0035533055 -0.084792256 1.266
-0.021120653 -0.076701321 1.268
-0.014676179 -0.071658738 1.2662221
-0.0045137811 -0.073477291 1.2661332
0.0020009042 -0.077145956 1.268
-0.012713226 -0.066771999 1.2671111
-0.0055580665 -0.067252606 1.268
-0.14116788 -0.38204959 1.2780001
-0.13312009 -0.38234624 1.276
-0.12578878 -0.38342455 1.2729999
-0.14060768 -0.37644768 1.2780001
-0.13410176 -0.37512112 1.2762142
-0.12833962 -0.37832287 1.273
-0.14116788 -0.36524388 1.278
-0.13516046 -0.36539575 1.2759166
-0.14284894 -0.35528207 1.2772857
-0.1387556 -0.35749093 1.273
-0.14116788 -0.34507704 1.2780001
-0.137714 -0.34305736 1.273
-0.14116788 -0.33387324 1.278
-0.13559358 -0.33479899 1.273
-0.16618969 -0.32229599 1.278
-0.15341809 -0.32307237 1.277375
-0.14716266 -0.32580528 1.2758571
-0.17141815 -0.31482679 1.2780001
-0.16584253 -0.31551316 1.2753333
-0.15603562 -0.31654119 1.2736249
-0.1718663 -0.30407113 1.2780001
-0.16658765 -0.30521873 1.2753075
-0.172663 -0.2934151 1.278
-0.1673687 -0.29561669 1.2748749
-0.17339422 -0.28457597 1.2775455
-0.16851549 -0.28457913 1.273
-0.17141815 -0.27897462 1.2780001
-0.16846623 -0.27450994 1.276
-0.16498235 -0.26356581 1.2749999
-0.16373707 -0.25548548 1.2763333
-0.15958752 -0.25109926 1.273
-0.16309531 -0.24632356 1.278
-0.15958752 -0.24551927 1.273
-0.16021433 -0.2352798 1.2780001
-0.15793355 -0.23503523 1.2746667
-0.1549859 -0.22818406 1.2780001
0.027899917 -0.20645939 1.273
0.030601978 -0.2030451 1.2739999
0.041291878 -0.20645939 1.273
0.035605885 -0.1981678 1.2759166
0.043278281 -0.1949867 1.2751428
-0.08625669 -0.12472677 1.274111
-0.083514601 -0.11799425 1.2770001
-0.079235762 -0.11383165 1.273
-0.062123816 -0.094115712 1.273
-0.058031827 -0.090395726 1.273
-0.042407874 -0.090395726 1.273
-0.035711892 -0.090395726 1.273
0.0078119766 -0.090395726 1.273
0.014203189 -0.092544384 1.2740713
0.02298953 -0.091288522 1.273
0.035488695 -0.09084212 1.273
0.041291878 -0.090395726 1.273
-0.052832752 -0.085538119 1.2754999
-0.044726215 -0.086097866 1.2754999
-0.034262601 -0.086926676 1.2757272
-0.027396712 -0.083303936 1.2755001
0.0073655783 -0.084146142 1.273
0.01293171 -0.086441487 1.2775455
0.025448646 -0.08698079 1.276125
0.034117889 -0.086685896 1.2759166
0.041454058 -0.088510022 1.2780001
-0.023044761 -0.076737091 1.276
-0.018971942 -0.070307791 1.273
-0.0011159966 -0.070307791 1.273
0.0052920282 -0.073974535 1.2746665
0.01008342 -0.079546981 1.2780001
-0.01376396 -0.063983813 1.2729999
-0.0040919874 -0.063797802 1.2729999
0.0033587487 -0.065600164 1.2761817
-0.01008342 -0.05938014 1.2780001
-0.00448152 -0.05938014 1.2780001
0.00112038 -0.05938014 1.2780001
-0.14509447 -0.38129476 1.2830001
-0.13609636 -0.3835443 1.2830001
-0.15017651 -0.37261841 1.2880001
-0.14441411 -0.37501779 1.2840716
-0.13609636 -0.37567097 1.2830001
-0.15118021 -0.36421254 1.2880001
-0.146291 -0.36460248 1.2836251
-0.15017651 -0.35455203 1.2880001
-0.14659415 -0.35467538 1.2830001
-0.15017651 -0.34890631 1.2880001
-0.14529832 -0.34497577 1.2847859
-0.14609854 -0.33613783 1.2852223
-0.17515986 -0.32299542 1.2848752
-0.16341066 -0.3251276 1.2855
-0.15607019 -0.32751873 1.2838334
-0.18179262 -0.31164449 1.2880001
-0.17702895 -0.31497157 1.2849231
-0.18179262 -0.30486959 1.2880001
-0.17664145 -0.30472988 1.2833848
-0.18283355 -0.29456538 1.2873751
-0.17743142 -0.29553154 1.2830001
-0.18288144 -0.28632134 1.2865715
-0.17779972 -0.28357679 1.2836251
-0.17371203 -0.27689987 1.2850001
-0.16983926 -0.27106795 1.2830001
-0.17050116 -0.26309118 1.2880001
-0.16983926 -0.26769367 1.2830001
-0.17050114 -0.25744545 1.2880001
-0.16758974 -0.25419652 1.2830001
-0.1667683 -0.24507441 1.2865715
-0.16368039 -0.23650712 1.2846667
-0.15920968 -0.23147507 1.2880001
-0.15920968 -0.22921677 1.2880001
0.035497986 -0.19467984 1.2855
0.043919832 -0.19258438 1.2846668
0.048553307 -0.18743834 1.2880001
0.051376175 -0.18348634 1.2880001
-0.11404381 -0.15372525 1.2880001
-0.11291467 -0.14791821 1.2880001
-0.10782062 -0.14413443 1.2865002
-0.10269661 -0.13751756 1.2872858
-0.096281841 -0.13280657 1.286
-0.093382306 -0.12644698 1.2859167
-0.088856302 -0.12034968 1.2830001
-0.091460876 -0.1163021 1.2880001
-0.085181557 -0.11470082 1.2861819
-0.063107289 -0.092408121 1.2855
-0.062103067 -0.086944282 1.2880001
-0.057261635 -0.084095277 1.2852727
-0.044267718 -0.082159594 1.2838334
-0.035917271 -0.082573324 1.2839092
0.016712846 -0.082989424 1.2850834
0.024244508 -0.082506314 1.2863334
0.033995632 -0.082656391 1.2865715
-0.051429942 -0.079209171 1.2846668
-0.0449805 -0.078058302 1.2863334
-0.034453068 -0.077491872 1.2868462
-0.025721638 -0.074903436 1.2857274
0.013601225 -0.075150646 1.2862356
0.02709952 -0.077911116 1.2880001
-0.021453787 -0.068877943 1.2880001
-0.016908709 -0.064240813 1.2855
0.0069858059 -0.063759789 1.2850001
0.011447138 -0.066581443 1.2872858
-0.011651777 -0.058261808 1.2863334
-0.0036339781 -0.055755515 1.2863334
0.0039498219 -0.057811782 1.2867501
0.01016232 -0.058715627 1.2880001
-0.14837758 -0.38283682 1.2920001
-0.15300684 -0.37401888 1.2928333
-0.14837758 -0.37943888 1.2920001
-0.16145921 -0.36498877 1.2970001
-0.15656741 -0.36439583 1.2931111
-0.15443361 -0.35563171 1.2942222
-0.15222917 -0.34569466 1.2947778
-0.1530918 -0.33686543 1.2962857
-0.18256773 -0.32498279 1.2961667
-0.17851475 -0.3286036 1.2970001
-0.19215919 -0.31268507 1.2970001
-0.18663722 -0.31501627 1.295077
-0.18709014 -0.30494842 1.2945
-0.18806778 -0.2953034 1.2934285
-0.18497536 -0.28597435 1.2945001
-0.18009187 -0.27976537 1.2920001
-0.17581715 -0.27449825 1.293875
-0.17465171 -0.26524162 1.29575
-0.17103066 -0.25258169 1.2920001
-0.17169254 -0.24559993 1.2970001
-0.16876535 -0.24238782 1.2920001
-0.17169254 -0.23991473 1.2970001
-0.1661755 -0.23405538 1.2953334
-0.16247088 -0.22745678 1.296
-0.1579179 -0.22629704 1.2928333
-0.14629871 -0.21224685 1.2970001
0.035178732 -0.19292291 1.2945
0.044173479 -0.19141841 1.2920001
0.03780324 -0.18805289 1.2955714
0.045148566 -0.18535843 1.294
0.0509694 -0.18009187 1.2920001
0.048892576 -0.17851475 1.2970001
-0.12268271 -0.16243954 1.29575
-0.117911 -0.15418771 1.29325
-0.11516358 -0.14537194 1.2955
-0.11142959 -0.13644439 1.2970001
-0.10551209 -0.13419649 1.2941428
-0.10182425 -0.127562 1.2953334
-0.097313501 -0.12397908 1.2945
-0.093556844 -0.11665905 1.2961668
-0.086679824 -0.11166248 1.2953334
-0.083329357 -0.10756861 1.2961667
-0.07845553 -0.10801848 1.2970001
-0.067815423 -0.095092624 1.2964444
-0.071633309 -0.087551825 1.2970001
-0.065654673 -0.085188903 1.2956668
-0.05776532 -0.080418386 1.2920001
0.035112254 -0.080418386 1.2920001
-0.060262945 -0.07731849 1.2970001
-0.055393446 -0.07633429 1.2953334
-0.045373525 -0.073728211 1.293875
-0.03514206 -0.072545037 1.293
-0.02718368 -0.071357161 1.2920001
0.018688781 -0.073056139 1.2920001
0.024323318 -0.074536219 1.2927692
0.032924969 -0.076062225 1.295
-0.044344429 -0.069359235 1.2970001
-0.035753485 -0.068348534 1.2970001
-0.026720362 -0.068790719 1.2970001
-0.015885638 -0.062412091 1.2945001
0.015885325 -0.064666435 1.2941428
0.023552904 -0.067734897 1.2970001
-0.01077993 -0.053901851 1.2945001
-0.0056676501 -0.052292038 1.2927142
0.0052561741 -0.053270567 1.292909
0.011839508 -0.05497301 1.2948571
-0.0040889485 -0.046998795 1.295
0.0038654865 -0.046827067 1.2965
0.01023333 -0.048892576 1.2970001
-0.15296474 -0.38556284 1.307
-0.16210233 -0.36192587 1.3040001
-0.16155827 -0.35863644 1.307
-0.15837844 -0.35444498 1.3028334
-0.15745823 -0.34548822 1.3055716
-0.19249496 -0.33113715 1.307
-0.18376862 -0.33215323 1.302
-0.16208163 -0.33329463 1.302
-0.15782061 -0.33736545 1.3045001
-0.19238693 -0.32419631 1.3036667
-0.18706606 -0.32631931 1.302
-0.19509767 -0.31440911 1.3031112
-0.19457038 -0.30568388 1.3040001
-0.18412147 -0.28132629 1.3045001
-0.18263833 -0.27550563 1.3055714
-0.17920296 -0.27279937 1.302
-0.18275563 -0.26754507 1.307
-0.17840415 -0.26455331 1.3045001
-0.17590681 -0.25560781 1.304143
-0.1747714 -0.24559028 1.3030001
-0.17137834 -0.23589997 1.3050001
-0.16479866 -0.22555467 1.304143
-0.15637454 -0.22120719 1.302
-0.1550846 -0.21554704 1.3048573
-0.14952601 -0.2111627 1.302
-0.15239184 -0.209682 1.307
-0.1469515 -0.20577481 1.3055
0.033101179 -0.19175856 1.302
0.036309123 -0.18526289 1.3045001
0.043412313 -0.18166001 1.3032501
-0.13380432 -0.17542741 1.3045001
-0.1286574 -0.17211246 1.3045001
0.046005625 -0.1773957 1.3055
-0.13176738 -0.16728729 1.307
-0.12711637 -0.16495681 1.3036667
-0.12419887 -0.15598819 1.3045001
-0.1213379 -0.14537346 1.30575
-0.11802282 -0.14313407 1.302
-0.12030935 -0.13749641 1.307
-0.11503094 -0.13456276 1.3038182
-0.1084349 -0.1312633 1.302
-0.11252747 -0.12778293 1.3053334
-0.10570694 -0.1244502 1.3040001
-0.10343922 -0.1175591 1.3061668
-0.09661261 -0.11407068 1.3030716
-0.093648016 -0.10661333 1.3053335
-0.084807061 -0.10390468 1.3024546
-0.075245924 -0.10422043 1.302
-0.069626622 -0.1027278 1.302
-0.09051846 -0.099684887 1.307
-0.083834611 -0.096820377 1.307
-0.075408459 -0.094827071 1.30325
-0.081352033 -0.088226855 1.307
-0.075338311 -0.084828965 1.3035386
-0.068865679 -0.081801772 1.302
0.0399497 -0.083323658 1.302
0.04223254 -0.084465079 1.302
-0.071909457 -0.078757979 1.302
-0.064958721 -0.07561782 1.3030001
-0.057071 -0.071909457 1.302
-0.04793964 -0.071909457 1.302
0.0285355 -0.071909457 1.302
0.03709615 -0.07447765 1.302
0.042613305 -0.075429469 1.3058889
-0.040866986 -0.062255319 1.307
-0.034471098 -0.063385308 1.3045
-0.025175529 -0.064652413 1.3053335
-0.01853396 -0.062462676 1.3050001
0.018643193 -0.061256204 1.302
0.025940904 -0.063571222 1.3039231
0.034302432 -0.065168113 1.3042498
0.040757861 -0.066292904 1.307
-0.036665708 -0.057290167 1.307
-0.013723339 -0.054891169 1.3045001
0.016743695 -0.054590035 1.3047273
0.023603547 -0.057519328 1.307
0.035233453 -0.057003718 1.307
0.040103115 -0.054998558 1.307
-0.010292505 -0.048029497 1.3045001
-0.0042879959 -0.042024989 1.3045001
0.0052606142 -0.04208184 1.3045001
0.012593243 -0.045214307 1.30575
-0.0022916067 -0.03781151 1.307
0.0045832135 -0.036665708 1.307
0.01031223 -0.03781151 1.307
-0.16510351 -0.3613804 1.317
-0.16335806 -0.35592434 1.3153334
-0.16346107 -0.34576479 1.3161668
-0.15987594 -0.34390581 1.312
-0.19821125 -0.33073258 1.3145001
-0.16468854 -0.33742988 1.3136667
-0.19591512 -0.30096552 1.312
-0.1908889 -0.28440908 1.317
-0.18765905 -0.28552136 1.3132501
-0.19165862 -0.27478766 1.317
-0.18692525 -0.27537289 1.3127145
-0.19165862 -0.26786023 1.317
-0.18509363 -0.26419508 1.3140835
-0.18247387 -0.25633323 1.3164446
-0.17827894 -0.25189087 1.312
-0.18126749 -0.24823254 1.317
-0.17787369 -0.24579826 1.3132501
-0.17394468 -0.23430565 1.3140001
-0.17203093 -0.22860485 1.317
-0.16672084 -0.22366309 1.3141429
-0.16181864 -0.21793465 1.3153334
-0.15723559 -0.21386686 1.3130001
-0.15253192 -0.2055496 1.314778
-0.15124866 -0.1997406 1.317
-0.14651731 -0.19543251 1.316
0.034376357 -0.18275018 1.3134286
-0.13696061 -0.17379141 1.3128334
0.036876105 -0.17515711 1.3145001
0.043694817 -0.17451249 1.3143079
-0.13467355 -0.16505952 1.3130002
-0.12997109 -0.16217633 1.312
0.049646508 -0.16972178 1.317
-0.13046642 -0.15586695 1.317
-0.12776802 -0.15400982 1.3130001
-0.1246575 -0.14474618 1.3148572
-0.12435564 -0.13482681 1.3162309
-0.11846922 -0.13227147 1.312
-0.12169207 -0.12803344 1.3157501
-0.11523783 -0.12560704 1.3145001
-0.10926773 -0.1207696 1.312
-0.11199329 -0.11892071 1.317
-0.10615619 -0.11504158 1.3141429
-0.10150682 -0.10727309 1.3157501
-0.095622666 -0.10253256 1.3141429
-0.092279024 -0.096890733 1.31575
-0.086677022 -0.093008518 1.3138751
-0.08412654 -0.086813234 1.3145
-0.024153918 -0.060959894 1.312
0.042556908 -0.063260265 1.312
-0.032715075 -0.056059953 1.3127143
-0.025443496 -0.056116842 1.3146924
-0.017809775 -0.055218503 1.3153335
0.019553173 -0.051758401 1.312
0.026063537 -0.054112565 1.3133638
0.033657756 -0.053220786 1.3126252
-0.012687747 -0.046626266 1.3155714
-0.0080513069 -0.041406721 1.312
0.017482247 -0.044276524 1.3133638
0.0230914 -0.049646508 1.317
0.034637101 -0.049646508 1.317
0.040409949 -0.049646508 1.317
-0.0046098786 -0.034558561 1.3140835
0.0046007466 -0.032205228 1.3120002
0.013563787 -0.034654096 1.3143079
-0.00115457 -0.02886425 1.317
0.0053879935 -0.028094538 1.317
0.011160843 -0.028094536 1.317
-0.17113936 -0.36439881 1.3280001
-0.16804822 -0.36275235 1.322
-0.17113936 -0.35624927 1.3280001
-0.16771285 -0.35449797 1.3245715
-0.17113936 -0.34111449 1.3280001
-0.16714352 -0.34589055 1.324
-0.17230357 -0.33878607 1.3280001
-0.16804823 -0.33957332 1.322
-0.19470416 -0.29205623 1.322
-0.19561832 -0.28558841 1.3242501
-0.19586311 -0.27698985 1.322
-0.19202375 -0.26395774 1.3235
-0.1889094 -0.26076451 1.322
-0.18640761 -0.25424188 1.3227501
-0.18272829 -0.24608444 1.322
-0.17963776 -0.2433802 1.322
-0.18045306 -0.23866373 1.3280001
-0.17764178 -0.23569253 1.3244001
-0.17320652 -0.2266797 1.3260001
-0.16804823 -0.22136009 1.322
-0.16300713 -0.21488766 1.325
-0.15877661 -0.21208847 1.322
-0.15709567 -0.20519961 1.3245715
-0.15223631 -0.19592869 1.3256
-0.14811423 -0.1940088 1.322
-0.14375989 -0.18508869 1.326
0.03136275 -0.18120436 1.325
-0.14319824 -0.17812464 1.3280001
0.033714321 -0.17462552 1.3262
0.043808438 -0.17082973 1.322
-0.14086981 -0.16881093 1.3280001
-0.1375566 -0.16235457 1.3260001
0.037452951 -0.16632995 1.3268001
0.04483955 -0.16540807 1.3266667
0.051107038 -0.16262168 1.325
-0.13361686 -0.15452711 1.3253334
0.052649748 -0.15649794 1.3272501
-0.13330244 -0.1440714 1.3280001
-0.12864383 -0.14486916 1.322
-0.13212068 -0.13791545 1.322
-0.12864383 -0.13791545 1.322
-0.12365489 -0.12458204 1.3232
-0.11800576 -0.12341946 1.324
-0.1222424 -0.11874976 1.3280001
-0.114562 -0.11616831 1.326154
-0.106746 -0.11138444 1.3235
-0.10407962 -0.10507301 1.3254286
-0.098511033 -0.10082894 1.322
-0.10128656 -0.097793922 1.3280001
-0.095875584 -0.095355816 1.3246666
-0.091557309 -0.089239404 1.322
-0.089239404 -0.089239404 1.322
-0.032111716 -0.051455658 1.324
-0.026109327 -0.051629968 1.3235
-0.0173843 -0.052152898 1.322
-0.024670376 -0.04791607 1.3260002
-0.016256468 -0.045087989 1.3245001
0.019702207 -0.040563367 1.322
0.025844522 -0.044837795 1.3266668
0.034618866 -0.044374414 1.3252002
0.041399125 -0.043328959 1.324
-0.011462293 -0.035377257 1.3262857
-0.00695372 -0.031291738 1.322
0.018585334 -0.034844868 1.325
0.023284268 -0.038419038 1.3280001
-0.012806347 -0.022120053 1.3280001
-0.0046530962 -0.02541106 1.3262857
0.004172232 -0.023874439 1.3220001
0.01278155 -0.025061896 1.3254286
-0.012806347 -0.019791627 1.3280001
-0.0027164975 -0.018239344 1.3280001
0.0043861652 -0.017098101 1.3275386
0.01047792 -0.0174632 1.3280001
-0.17516504 -0.36401477 1.3380002
-0.18239838 -0.3524805 1.3380001
-0.17605272 -0.35452053 1.337
-0.18214522 -0.34530479 1.3370001
-0.17600223 -0.34530863 1.3358572
-0.20057958 -0.29207203 1.3380001
-0.20189078 -0.28702506 1.3363333
-0.19983003 -0.28396899 1.3330001
-0.19281845 -0.26059705 1.3330001
-0.19184832 -0.25696605 1.3360001
-0.18529017 -0.24572475 1.3360001
-0.18164206 -0.23437355 1.33675
-0.17879529 -0.23138213 1.3330001
-0.17532611 -0.22508243 1.3355001
-0.16944651 -0.22086477 1.3330001
-0.17008209 -0.21817428 1.3380001
-0.16653921 -0.21450864 1.3346667
-0.1620606 -0.2069664 1.3363334
-0.15454479 -0.19474111 1.3355001
-0.15131442 -0.18767679 1.3380001
-0.14791106 -0.18420331 1.3355001
0.029214917 -0.18113248 1.3330001
-0.14494535 -0.1749149 1.3355001
-0.14341101 -0.16496754 1.3365002
-0.139063 -0.16009775 1.3330001
0.036637217 -0.16331847 1.3338333
0.044406675 -0.16009775 1.3330001
-0.14310355 -0.15483336 1.3380002
-0.13835816 -0.15408082 1.3358573
0.038660124 -0.15580909 1.3363333
0.04480036 -0.15495941 1.3347858
0.051839199 -0.15240133 1.3338333
-0.13707064 -0.14878289 1.3363334
-0.12036546 -0.11569107 1.3330001
-0.11615851 -0.11288644 1.3330001
-0.11122489 -0.10771471 1.3355
-0.10725578 -0.10335317 1.3346667
-0.10400511 -0.098162115 1.3330001
-0.025732139 -0.044447221 1.3342501
-0.018148314 -0.041561894 1.3355
0.038563691 -0.040900882 1.3330001
-0.014450681 -0.035540942 1.3363333
0.019866142 -0.032720707 1.3330001
0.026391311 -0.03485465 1.3356925
0.035353862 -0.035349187 1.3353335
0.042089753 -0.035073791 1.3336251
-0.012008252 -0.025769945 1.3361251
-0.0081801768 -0.024540531 1.3330001
0.015989816 -0.025347354 1.3346667
0.042618275 -0.028542513 1.3379999
-0.012549482 -0.017565269 1.3358573
-0.0053110491 -0.014127214 1.3345386
0.0051795966 -0.01152466 1.3337144
0.012883367 -0.016227225 1.3358573
-0.0035189399 -0.0082108602 1.3379999
0.0041835783 -0.0071922983 1.3358573
0.01055682 -0.0082108602 1.3380001
-0.18013659 -0.36262792 1.3430001
-0.17778187 -0.36616001 1.3430001
-0.18406112 -0.35674107 1.3430001
-0.20368385 -0.29316348 1.3430001
-0.19661967 -0.26019728 1.3430001
-0.19598697 -0.25530121 1.3455715
-0.19040236 -0.24953352 1.3490001
-0.18720077 -0.24606894 1.3430001
-0.18546541 -0.23625772 1.3475001
-0.18158396 -0.2263869 1.3450001
-0.17605694 -0.22130553 1.3442
-0.17435522 -0.21555156 1.3462729
-0.16836296 -0.21074803 1.3430001
-0.16379973 -0.20433469 1.3442
-0.1620194 -0.19868073 1.3490001
-0.15813626 -0.19417201 1.3447144
-0.15342231 -0.1847441 1.3447144
-0.15098159 -0.17621088 1.3490001
-0.14874023 -0.17385732 1.3430001
-0.15255842 -0.16911514 1.3490001
-0.1481123 -0.16506633 1.3430001
-0.1456006 -0.15815915 1.3430001
0.043662384 -0.15103652 1.3460001
0.047197104 -0.14867651 1.3460001
0.053140905 -0.14681683 1.3470001
-0.11209936 -0.1014768 1.3460001
-0.10831743 -0.10007589 1.3430001
-0.034143537 -0.050626624 1.3430001
-0.032966174 -0.048271898 1.3430001
-0.024761451 -0.042053994 1.3450001
-0.020863205 -0.038180295 1.3470001
-0.016901841 -0.034585085 1.3450001
0.022369903 -0.031788811 1.3430001
0.031788811 -0.031788811 1.3430001
-0.015931224 -0.025365911 1.3460001
0.017680176 -0.023569623 1.3445001
0.024363924 -0.028012609 1.3468182
0.036199719 -0.027177382 1.3479091
0.041842423 -0.024749616 1.3445001
-0.014912498 -0.012978253 1.3457274
-0.0082415435 -0.01059627 1.3430001
0.015356068 -0.013666607 1.3472859
-0.012997285 -0.006851851 1.3478
-0.0043993522 -0.004180504 1.3457274
0.0051130117 -0.0027501034 1.345
0.01061994 -0.0047173435 1.3460001
-0.0019710388 0.001971039 1.3490001
0.0027585777 0.0027585777 1.348
-0.18446085 -0.22386947 1.3540001
-0.18240337 -0.2188049 1.3540001
-0.17578585 -0.21181215 1.3548335
-0.16974196 -0.21010017 1.3540001
-0.17343234 -0.20747206 1.3590001
-0.16657661 -0.20456082 1.3540001
-0.16143291 -0.19348209 1.3540001
-0.15727839 -0.18517303 1.3540001
-0.15430315 -0.17474772 1.3560002
0.041545235 -0.15074985 1.3540001
0.046322748 -0.14458671 1.3549092
0.052737009 -0.14362781 1.3540001
0.047357753 -0.13552061 1.3590001
0.052563183 -0.13591538 1.3582859
-0.027301153 -0.041545235 1.3540001
-0.022553127 -0.035847604 1.3540001
-0.017805099 -0.026114147 1.3540001
0.025687998 -0.023067817 1.3565
0.03446557 -0.022975096 1.3556668
0.04169865 -0.02025363 1.3590001
-0.020179113 -0.011870067 1.3540001
0.017805099 -0.013057074 1.3540001
0.021445021 -0.014296679 1.3590001
-0.020179113 -0.0059350333 1.3540001
-0.01384841 -0.0047480268 1.3540001
-0.0083090467 -0.0023740134 1.3540001
0.014092041 -0.0045809592 1.3554287
-0.01072251 0.00238278 1.3590001
-0.0043547931 0.004882352 1.3545556
0.005642117 0.005642117 1.3546251
0.011913899 0.0047655599 1.3590001
-0.00119139 0.01072251 1.3590001
0.0029773791 0.011904038 1.3577502
-0.17303559 -0.20319116 1.365
-0.16872765 -0.20462714 1.365
-0.16433993 -0.19425619 1.3649999
-0.16234551 -0.18707629 1.3650001
-0.15915444 -0.1818908 1.365
-0.15771846 -0.17638621 1.365
0.043079399 -0.14359799 1.365
0.0454727 -0.1364181 1.365
0.051455949 -0.13522145 1.365
-0.038292799 -0.05384925 1.365
-0.03709615 -0.049062651 1.365
-0.029916249 -0.043079399 1.365
-0.026086971 -0.036617491 1.365
-0.02034305 -0.0287196 1.365
0.02752295 -0.02034305 1.365
0.035500616 -0.02034305 1.3650001
-0.021779029 -0.01459913 1.365
0.02444585 -0.014872649 1.3649999
0.032309551 -0.017949751 1.365
-0.022138026 -0.0047865999 1.365
-0.0167531 -0.00119665 1.365
0.017949751 -0.0059832497 1.365
0.02034305 -0.0083765499 1.365
-0.012764267 0.0043877168 1.3649999
-0.0075787832 0.0059832502 1.3650001
0.01555645 0.00119665 1.365
-0.010769849 0.013163149 1.3650001
-0.0035899498 0.012764267 1.3649999
0.0047865999 0.013761475 1.365
-0.17294879 -0.20057257 1.3700001
-0.16934569 -0.2017736 1.3700001
-0.17389633 -0.19659851 1.3734287
-0.16831625 -0.19405268 1.37
-0.17089154 -0.18536706 1.376
-0.16579276 -0.18479852 1.3724
-0.1631804 -0.17841452 1.3720001
0.042036165 -0.14292297 1.3700002
0.043237198 -0.1369178 1.3700001
-0.043334506 -0.055368513 1.373
-0.038833413 -0.053245813 1.3700002
-0.043403544 -0.045812186 1.3752501
-0.036321517 -0.044821944 1.3704616
-0.042220265 -0.039807681 1.376
-0.033590578 -0.035695016 1.3745002
-0.025908006 -0.032084752 1.37
-0.031122366 -0.025814677 1.376
-0.024052978 -0.024048468 1.3717144
-0.030157333 -0.016888106 1.376
-0.026076159 -0.014840798 1.3726668
0.02702325 -0.01261085 1.3700001
0.035006229 -0.014238822 1.3718948
-0.026049275 -0.0044108024 1.3713335
0.0180155 -0.0012010334 1.3700001
0.023313755 -0.0051412517 1.3732728
0.035671815 -0.0077547426 1.3760002
-0.02308994 0.0050218389 1.3740002
-0.016524071 0.0057095108 1.3707501
-0.0084072333 0.0084072333 1.3700001
0.015174049 0.0050580157 1.3736001
-0.022912122 0.014469824 1.3755002
-0.015249956 0.014695631 1.3704617
-0.0060092583 0.015889099 1.3706666
0.0056153424 0.016438669 1.3720001
0.010832969 0.012039263 1.3730001
-0.022919573 0.020506987 1.376
-0.013742276 0.02097162 1.3748001
-0.0048251734 0.021311181 1.376
0.0020104889 0.021311181 1.376
-0.17393388 -0.19088335 1.381
-0.053501211 -0.065660581 1.3870001
-0.047623914 -0.063553698 1.3827144
-0.054454945 -0.055559386 1.3859091
-0.048454024 -0.055723347 1.38175
-0.054511126 -0.045307007 1.386143
-0.048633471 -0.04539448 1.383
-0.053095896 -0.036883414 1.3870001
-0.045373015 -0.034793407 1.3855885
-0.038222793 -0.033380084 1.3809999
-0.04429483 -0.023971317 1.3870002
-0.035867199 -0.023941029 1.3814619
-0.027845563 -0.020581502 1.381
-0.044131342 -0.014662766 1.3870003
-0.034463644 -0.014198743 1.3827144
0.042465732 -0.01455968 1.3840001
-0.042253796 -0.0063836677 1.3870001
-0.034004476 -0.0048561855 1.3851252
0.02727047 -0.0030280068 1.3825001
0.034338888 -0.0034315658 1.3825003
-0.03400382 0.004855528 1.3851252
-0.027240224 0.0042373682 1.381
0.017402126 0.006074423 1.3850001
0.023086138 0.0024309966 1.386
-0.04012591 0.017023113 1.3870001
-0.034013353 0.014575458 1.3855002
-0.027845563 0.01452812 1.381
0.0084747365 0.018160149 1.381
0.012133067 0.01456231 1.3840001
-0.041341849 0.023102796 1.3870001
-0.034029793 0.024306895 1.3862503
-0.024418797 0.02476621 1.3827144
-0.014871695 0.025666332 1.382091
-0.0048511229 0.025956873 1.3834
0.0044484991 0.024397148 1.3836668
-0.033204429 0.033952694 1.3870002
-0.024318734 0.034046229 1.3870003
-0.014588281 0.034038011 1.3866253
-0.0054717148 0.031006385 1.3870001
0.0012159366 0.030398417 1.3870001
-0.032560084 0.043638613 1.3870001
-0.025048293 0.043854777 1.3870003
-0.014834427 0.043530531 1.3870003
-0.064955741 -0.072309218 1.3980001
-0.058575362 -0.073219195 1.3920001
-0.065305904 -0.064605571 1.398
-0.057355043 -0.065564461 1.3920001
-0.073126279 -0.051065832 1.3980001
-0.065853342 -0.054190379 1.3955295
-0.059388906 -0.055727944 1.3920001
-0.074484237 -0.044346534 1.3974
-0.065934762 -0.043955185 1.3927501
-0.059307553 -0.043199327 1.3920001
-0.073418424 -0.034262981 1.39575
-0.065897278 -0.034168962 1.3920001
-0.055890657 -0.033274062 1.3920001
0.077211536 -0.030639499 1.3980001
0.082113862 -0.035541821 1.3980001
-0.072737388 -0.025222752 1.3968002
-0.065916017 -0.024413303 1.3923751
-0.054914396 -0.024406398 1.3920001
0.045346461 -0.020834859 1.3980001
0.052209713 -0.022795787 1.3980001
0.064955741 -0.022877494 1.3980001
-0.072922014 -0.016545329 1.3980001
-0.066006422 -0.014664222 1.3942502
-0.055171307 -0.014579613 1.3920001
0.046066206 -0.015489824 1.3950001
0.051065832 -0.017566646 1.3980001
-0.063447341 -0.0049965954 1.398
-0.054137781 -0.0051009622 1.3941178
-0.04545692 -0.0033558803 1.3920001
0.043416038 -0.0067249099 1.3950001
-0.060870472 0.0049023195 1.3980001
-0.053871606 0.0048970599 1.3965001
-0.043931518 0.0048812795 1.3920001
0.018304801 0.0085422397 1.3920001
0.025173834 0.0063556582 1.3938
0.032789085 0.0036744019 1.3966668
-0.06223223 0.015932538 1.398
-0.053607814 0.014931387 1.396
-0.044454511 0.014295178 1.3920001
0.015908213 0.014685262 1.39575
0.02328602 0.011030219 1.3980001
-0.064138681 0.023013668 1.398
-0.052315477 0.024101799 1.3936365
-0.044280183 0.02458073 1.3920001
0.0079412851 0.026267124 1.3935001
0.011510983 0.02375837 1.3968002
-0.061278999 0.035541821 1.3980001
-0.052699935 0.034561358 1.398
-0.043957159 0.034187369 1.39275
-0.037829921 0.034575734 1.3920001
-0.0046778931 0.035185896 1.3920001
0.0039144917 0.033739742 1.3944
-0.050248779 0.041669719 1.3980001
-0.044030797 0.044026855 1.3950001
-0.036086608 0.04410585 1.3920001
-0.020745439 0.04637216 1.3920001
-0.01098288 0.04759248 1.3920001
-0.0055561783 0.043420896 1.3966155
0.00122558 0.040444139 1.3980001
-0.043595634 0.053575348 1.398
-0.034188025 0.053724978 1.3927501
-0.024268512 0.053780872 1.394143
-0.015024439 0.053290188 1.3950001
-0.034316242 0.060053419 1.3980001
-0.026962761 0.060053419 1.3980001
-0.070157878 -0.070157878 1.404
-0.067696199 -0.071388721 1.404
-0.072346039 -0.063866913 1.4040002
-0.081235439 -0.052926123 1.4040002
-0.075388938 -0.054772377 1.4040002
-0.08141128 -0.044134405 1.4040002
-0.077542916 -0.043899957 1.4039999
-0.080620021 -0.036309779 1.404
-0.077542916 -0.034463521 1.404
-0.075696655 -0.024616798 1.404
0.048002761 -0.022155121 1.404
0.054895461 -0.022893624 1.404
0.063593395 -0.020924279 1.4039999
0.074835069 -0.023878295 1.4040002
-0.076004364 -0.01384695 1.4040002
0.048002761 -0.01353924 1.404
0.054977518 -0.016411198 1.4040002
0.064003676 -0.017231759 1.4040002
0.071388721 -0.017231759 1.404
0.084927961 -0.0123084 1.404
-0.072395772 -0.005259044 1.4040002
-0.067696199 -0.00246168 1.404
0.045541078 -0.0061542001 1.404
0.084927961 -0.0086158803 1.404
-0.07097844 0.0049233604 1.4040002
-0.065726861 0.0049233595 1.4040002
0.034873802 0.0061542001 1.4039999
-0.071799003 0.01518036 1.4040002
-0.065937862 0.013187571 1.4040002
-0.057849478 0.01107756 1.404
0.0184626 0.017231759 1.404
0.023878297 0.01353924 1.404
0.030771 0.01107756 1.404
-0.072127223 0.024862969 1.4040002
-0.063476183 0.026550977 1.4040002
-0.057357144 0.025355304 1.404
0.01518036 0.0225654 1.4039999
-0.07097844 0.033642963 1.4040002
-0.064355351 0.034287684 1.404
-0.056208357 0.03405324 1.4040002
0.0069747604 0.035694361 1.4039999
-0.06277284 0.043079402 1.4040002
-0.05468446 0.044661906 1.404
-0.0020514 0.047182202 1.4039999
0.00246168 0.041848559 1.404
-0.051941447 0.051941447 1.404
-0.048002761 0.056618638 1.404
-0.023385961 0.057849478 1.404
-0.0077953204 0.051284999 1.4039999
-0.043782737 0.061366167 1.4040002
-0.034463521 0.06277284 1.404
-0.02584764 0.061542001 1.404
-0.080631413 -0.080631413 1.4150001
-0.076909967 -0.080631413 1.4150001
-0.083295383 -0.073787935 1.4145833
-0.074791886 -0.074263372 1.4117858
-0.06376873 -0.074917741 1.4125001
-0.091547668 -0.062768459 1.4150001
-0.084132068 -0.064335831 1.41125
-0.077050231 -0.065101266 1.41
-0.10047915 -0.052100301 1.4150001
-0.093964651 -0.054295473 1.4140002
-0.085538127 -0.055130057 1.41
-0.077874303 -0.058096699 1.4100001
-0.10097535 -0.044905499 1.4150001
-0.094176173 -0.044607811 1.4134377
-0.086527005 -0.044499602 1.41
0.08559335 -0.042176437 1.4150001
-0.10109939 -0.035353776 1.4150001
-0.094256729 -0.034725044 1.4146878
-0.085084885 -0.033992749 1.41
0.085402481 -0.03386962 1.4118181
0.09348733 -0.033493053 1.4150001
-0.10154242 -0.025341302 1.4150001
-0.094276741 -0.024809664 1.4150003
-0.084169865 -0.024753233 1.411875
-0.077874303 -0.023485899 1.4100002
0.075402096 -0.021013699 1.4100001
0.084093161 -0.024734598 1.4106251
0.094276726 -0.024809668 1.4150003
0.10130614 -0.025636656 1.4150001
-0.10047915 -0.014885799 1.4150001
-0.094236732 -0.01488032 1.4143753
-0.084093161 -0.014841419 1.410625
0.048207901 -0.0111249 1.4100001
0.05497577 -0.012195686 1.4114286
0.064361036 -0.012375794 1.411875
0.07505472 -0.014018997 1.41125
0.083919533 -0.015192008 1.4107143
0.092805237 -0.016088147 1.4115
-0.094276741 -0.004961933 1.4150003
-0.084054805 -0.0049444009 1.41
-0.07737986 -0.0042027398 1.4100001
0.045792684 -0.0041261776 1.4116668
0.054126859 -0.0070225876 1.4138889
0.064918622 -0.0070294058 1.4150001
0.074429005 -0.0074429 1.4150001
0.082360327 -0.0061992854 1.4142858
-0.093417935 0.0048665116 1.4150002
-0.084189318 0.0049528927 1.4121876
-0.075896539 0.0049443995 1.41
0.037540328 0.0061878054 1.4116669
0.040935948 0.0012404834 1.4150001
-0.093036257 0.014885801 1.4150001
-0.084244929 0.014867171 1.4131252
-0.076814786 0.014303444 1.41
0.025649074 0.016996374 1.41
0.032858014 0.014880869 1.4143751
-0.092484921 0.023844846 1.4150001
-0.084244922 0.024777891 1.4131252
-0.077050231 0.024309965 1.41
0.016466932 0.025668172 1.4135715
0.024809668 0.022328699 1.4150001
0.031012082 0.021088216 1.4150001
-0.09055528 0.033493049 1.4150001
-0.084263273 0.034694903 1.4134376
-0.075896539 0.035105243 1.41
0.0086833835 0.035974018 1.4150001
0.013141233 0.031982552 1.414
-0.09055528 0.048378851 1.4150001
-0.084317252 0.04463768 1.4143753
-0.074166 0.044499602 1.41
-0.066337369 0.046559766 1.41
0.0032243796 0.044873063 1.414
-0.083388045 0.052789453 1.4150001
-0.074379966 0.054547027 1.4140627
-0.064406782 0.054500446 1.4128127
-0.055399761 0.055399753 1.41
-0.012360999 0.058096699 1.4100001
-0.0049502444 0.053216588 1.4116668
-0.080631413 0.062024169 1.4150001
-0.073897362 0.064150713 1.4150002
-0.064422436 0.064257041 1.4150003
-0.054476891 0.064377747 1.4121875
-0.044911634 0.066337377 1.41
-0.03471655 0.066957057 1.4143751
-0.0229073 0.062534824 1.4125001
-0.016730087 0.06135023 1.4137501
-0.070707552 0.070707552 1.4150001
-0.063264653 0.071327791 1.4150001
-0.054378383 0.072089553 1.4142858
-0.045455899 0.071492903 1.4141668
-0.033493049 0.070707552 1.4150001
-0.085478507 -0.084943123 1.4248573
-0.078481831 -0.083464801 1.4210001
-0.092791006 -0.074045673 1.4255002
-0.087824903 -0.07661321 1.4210001
-0.066024393 -0.075990342 1.4210001
-0.10285726 -0.062879503 1.4250001
-0.096034601 -0.065649338 1.4226365
-0.10513869 -0.055015352 1.4237695
-0.098413721 -0.058549937 1.4210001
-0.10628109 -0.044802364 1.423182
0.093656182 -0.04263844 1.4244287
-0.10532168 -0.035188876 1.4234002
0.096420527 -0.037621446 1.4210001
0.1037516 -0.034725793 1.4230002
-0.10692207 -0.024546375 1.4236668
-0.10607798 -0.014975657 1.4235001
-0.10486861 -0.0049934937 1.424
0.047440816 -0.0012483734 1.424
0.05537891 -0.0023142749 1.4218572
0.064244762 -0.0023135233 1.4210002
0.074744597 -0.0024914867 1.4210002
-0.10466225 0.0047467994 1.4246001
-0.098413728 0.0053982208 1.4210001
0.038618043 0.0087202033 1.4210001
0.044008445 0.0037451198 1.4240001
0.055878147 0.0020850056 1.427
0.065242246 0.0035207733 1.4237274
0.073000558 0.0022423381 1.4210001
-0.10345089 0.014647905 1.4248182
-0.098413721 0.01494892 1.4210001
0.037596852 0.015502348 1.4227144
0.041283108 0.013761037 1.427
-0.10299928 0.024603065 1.427
-0.096990004 0.026160611 1.4210002
0.018686149 0.028652096 1.4210001
0.024914866 0.027406354 1.4210002
0.033716306 0.024558648 1.4243335
-0.10216527 0.032109082 1.427
-0.095729105 0.035237882 1.4237692
0.0087202033 0.038618043 1.4210001
0.01548509 0.035972089 1.4246001
0.02425158 0.031749181 1.4258001
0.031275082 0.031275082 1.427
-0.094256133 0.044316813 1.4240001
0.0062444964 0.04493618 1.424
-0.092693694 0.053994123 1.4240001
-0.086009637 0.057161544 1.4218572
-0.0054069883 0.056971353 1.423
0.0012457434 0.051075477 1.4210001
-0.091323242 0.062550165 1.427
-0.085160717 0.063320756 1.4232502
-0.078481831 0.067270137 1.4210001
-0.066024393 0.068515882 1.4210001
-0.025813743 0.067042492 1.4250001
