# .PCD v0.7 - Point Cloud Data file format
VERSION 0.7
FIELDS x y z
SIZE 4 4 4
TYPE F F F
COUNT 1 1 1
WIDTH 1442
HEIGHT 1
VIEWPOINT 0 0 0 1 0 0 0
POINTS 1442
DATA ascii
-0.19688882 -0.073561102 1.2340001
-0.19327414 -0.066443615 1.2344
-0.1882326 -0.06274303 1.2340001
-0.036001775 -0.063723147 1.2320002
-0.18213767 -0.056524657 1.2352002
-0.17741805 -0.050844915 1.2340001
-0.053548548 -0.057063986 1.2340001
-0.044907253 -0.057348903 1.2343334
-0.039282847 -0.058747187 1.2333335
-0.17322846 -0.047095411 1.2350001
-0.16556588 -0.0435002 1.2344002
-0.15603265 -0.040091719 1.2360001
-0.15494908 -0.037924599 1.2360001
-0.14436175 -0.033114858 1.2344
-0.10223828 -0.032205932 1.2328001
-0.095122717 -0.031346969 1.233
-0.088564374 -0.031321548 1.2320001
-0.061563041 -0.031321548 1.2320001
-0.058086764 -0.033556465 1.2346667
-0.14194636 -0.02925612 1.2360001
-0.13666941 -0.026323961 1.2340001
-0.12592205 -0.02056543 1.2346667
-0.11372997 -0.022919225 1.2332002
-0.10712165 -0.027978191 1.234286
-0.092102602 -0.02925612 1.2360001
-0.085517086 -0.027393272 1.2347693
-0.075111702 -0.023099948 1.2327502
-0.064474009 -0.023925547 1.2335001
-0.059595801 -0.02925612 1.2360001
-0.11575156 -0.017578045 1.2340002
-0.073586702 -0.01666438 1.2344
-0.065735973 -0.016975773 1.2360001
-0.24369931 -0.27307379 1.2410001
-0.26197138 -0.26306283 1.2416668
-0.27177104 -0.25212494 1.245
-0.26526874 -0.25437948 1.2418
-0.27177104 -0.2488506 1.245
-0.26543963 -0.24481179 1.2426001
-0.26275933 -0.23683198 1.2436666
-0.25730324 -0.23289964 1.2426001
-0.25649074 -0.2248387 1.245
-0.26449469 -0.21137749 1.245
-0.25867364 -0.21719855 1.245
-0.2925086 -0.20191824 1.245
-0.28562766 -0.2037091 1.2426001
-0.27386102 -0.20632298 1.2426001
-0.26604816 -0.20727119 1.2415714
-0.292759 -0.19553478 1.2428461
-0.28830498 -0.19619244 1.2410001
-0.29221892 -0.1859276 1.2444286
-0.28744936 -0.18346399 1.2420001
-0.28588867 -0.17605484 1.2435
-0.2815941 -0.1680833 1.245
-0.27613685 -0.16262604 1.245
-0.26828191 -0.15267938 1.244
-0.26496178 -0.14501825 1.2437692
-0.26286936 -0.13524725 1.2427143
-0.26158416 -0.12915491 1.245
-0.25461358 -0.12566961 1.2424998
-0.2468797 -0.12429268 1.2421428
-0.25212494 -0.11896805 1.245
-0.24473013 -0.11621018 1.2438571
-0.23731746 -0.11157016 1.2436666
-0.23193312 -0.10750782 1.245
-0.2265546 -0.10354398 1.2432858
-0.22290099 -0.097813509 1.2443333
-0.21763512 -0.09233667 1.245
-0.2117413 -0.087315999 1.245
-0.20628405 -0.081858747 1.245
-0.19973534 -0.073127151 1.245
-0.19248749 -0.062162675 1.244
-0.18882085 -0.060029749 1.245
-0.032379683 -0.062212646 1.245
-0.028377701 -0.064395547 1.245
-0.1855465 -0.055300131 1.245
-0.053395137 -0.052303687 1.243
-0.044665992 -0.052287906 1.2426001
-0.035735175 -0.054393169 1.2436666
-0.18008925 -0.049115248 1.245
-0.174632 -0.045295175 1.245
-0.16590039 -0.040929373 1.245
-0.14952865 -0.040383648 1.245
-0.053481046 -0.046204716 1.245
-0.041475099 -0.048023801 1.245
-0.037473116 -0.048387617 1.245
-0.16044314 -0.038200751 1.245
-0.152803 -0.03601785 1.245
-0.14898293 -0.0349264 1.245
-0.055485111 -0.034814186 1.2410001
-0.14243422 -0.0261948 1.245
-0.13584943 -0.022155995 1.243
-0.10424589 -0.023608925 1.243
-0.095363326 -0.026585996 1.2437693
-0.084965214 -0.02178473 1.2425001
-0.056551524 -0.024583973 1.2432222
-0.1331569 -0.01855465 1.245
-0.12551674 -0.01855465 1.245
-0.11362003 -0.013521006 1.2437999
-0.1069621 -0.01855465 1.245
-0.082950197 -0.01855465 1.245
-0.075217471 -0.013736839 1.2434
-0.066001892 -0.012692672 1.2410001
-0.057975162 -0.015560118 1.2435454
-0.11287478 -0.0084517244 1.2440001
-0.0720357 -0.0098230503 1.245
-0.064858429 -0.0088493666 1.2445555
-0.057846848 -0.0098230503 1.245
-0.29248667 -0.25496009 1.2590001
-0.2852405 -0.2551299 1.2582003
-0.27633357 -0.25544506 1.2538
-0.29115066 -0.24703503 1.2580001
-0.28450581 -0.2463704 1.2575884
-0.27525207 -0.24502976 1.2533751
-0.28200132 -0.23785238 1.2590001
-0.27528918 -0.23563822 1.2560503
-0.266478 -0.23395044 1.2518182
-0.25971249 -0.23122083 1.25
-0.27400368 -0.2257601 1.2577502
-0.26582754 -0.22586025 1.2547226
-0.25971249 -0.22464582 1.25
-0.2818872 -0.21132369 1.2576667
-0.27508548 -0.21497233 1.2565714
-0.26607311 -0.21655102 1.2527274
-0.31069809 -0.20363696 1.2590001
-0.30424333 -0.20392933 1.2574
-0.29526746 -0.20563443 1.253
-0.28518844 -0.20810664 1.256
-0.27505416 -0.20930417 1.25
-0.31088206 -0.19830228 1.2590001
-0.30468079 -0.19498876 1.2575002
-0.29828584 -0.19483916 1.25
-0.30185223 -0.18564455 1.2572858
-0.29643816 -0.18417068 1.252375
-0.29351866 -0.17596123 1.2571111
-0.28823924 -0.1725017 1.2533334
-0.29027924 -0.16886967 1.2590001
-0.28372088 -0.16493958 1.2571111
-0.27835482 -0.16173185 1.2550001
-0.28189093 -0.15385903 1.2590001
-0.27557108 -0.15429769 1.2530001
-0.28255314 -0.14458776 1.2589999
-0.27478352 -0.14508396 1.2537501
-0.26847917 -0.1413625 1.25
-0.28144944 -0.13796541 1.2590001
-0.27486092 -0.13577425 1.255778
-0.26779151 -0.13403082 1.250625
-0.27247533 -0.12722771 1.2583333
-0.26542628 -0.12496485 1.2546923
-0.25898194 -0.12236806 1.25
-0.26192653 -0.11800284 1.2580001
-0.25541407 -0.11505499 1.2544377
-0.24670465 -0.11199479 1.2507143
-0.25325426 -0.10655095 1.2581999
-0.24450216 -0.10576767 1.2559334
-0.23594803 -0.10377382 1.2538824
-0.23351634 -0.096654616 1.2589999
-0.22600876 -0.094317935 1.2535
-0.2236398 -0.087784268 1.2584286
-0.2156195 -0.084080011 1.2552356
-0.20930417 -0.082187496 1.25
-0.21213563 -0.077039883 1.2590001
-0.20569304 -0.074708104 1.2546923
-0.20320058 -0.066996835 1.258
-0.19763373 -0.062629066 1.2534286
-0.031779166 -0.060270835 1.25
-0.028491667 -0.06136667 1.25
-0.19335312 -0.055468645 1.2571111
-0.18776008 -0.053250924 1.2525001
-0.032242924 -0.054175369 1.251
-0.029215444 -0.055566289 1.2528
-0.19094414 -0.049667548 1.2590001
-0.18439905 -0.045781408 1.2562857
-0.17649734 -0.042322543 1.2522223
-0.16985416 -0.040545832 1.25
-0.053718723 -0.043973118 1.2505555
-0.045606695 -0.044349723 1.2514286
-0.03509653 -0.044770136 1.2537999
-0.029800531 -0.048563823 1.2590001
-0.18321806 -0.038630318 1.2590001
-0.17502986 -0.036546629 1.257
-0.16499047 -0.035428148 1.2552667
-0.15553179 -0.033607982 1.2529
-0.05274421 -0.035164852 1.2535
-0.047030699 -0.036199879 1.2582726
-0.037526593 -0.038630318 1.2590001
-0.16180584 -0.028917555 1.2590001
-0.15368323 -0.026899843 1.2583846
-0.14617048 -0.024089517 1.2536155
-0.13917083 -0.020820834 1.25
-0.1019125 -0.020820834 1.25
-0.09582454 -0.021794908 1.25
-0.052752446 -0.025278771 1.2537
-0.049667548 -0.029800531 1.2590001
-0.14317282 -0.017868396 1.2582
-0.13507602 -0.016495448 1.2546999
-0.12535484 -0.014291508 1.2543
-0.11944583 -0.012054167 1.25
-0.10395445 -0.015006487 1.252667
-0.094819322 -0.016150223 1.2543076
-0.085575178 -0.015709627 1.2559091
-0.079055607 -0.014269942 1.2525001
-0.05379343 -0.015372057 1.2523333
-0.12270178 -0.0081484411 1.2564001
-0.11528717 -0.0042314199 1.2524287
-0.10582336 -0.0064070923 1.2551765
-0.098231375 -0.0099335099 1.2590001
-0.074225679 -0.0058369138 1.255
-0.064410344 -0.0035625549 1.2506251
-0.056496706 -0.0056962613 1.2547272
-0.1136835 0.0011037233 1.2590001
-0.10926861 0.0011037233 1.2590001
-0.072323538 0.0018372011 1.2563335
-0.06551671 0.0020832522 1.2572222
-0.05739361 0.0011037233 1.2590001
-0.29278681 -0.24355553 1.2666668
-0.28810772 -0.24267536 1.2640001
-0.28545773 -0.23462372 1.266
-0.28217676 -0.22492385 1.2666667
-0.27813476 -0.22162133 1.2640001
-0.30791688 -0.21009491 1.268
-0.29124272 -0.21342976 1.268
-0.28495696 -0.21586864 1.2659999
-0.31137797 -0.20943215 1.2640001
-0.30546808 -0.20869343 1.2640001
-0.31245539 -0.19434649 1.265
-0.30916175 -0.19170246 1.2640001
-0.31014013 -0.18675104 1.268
-0.30609441 -0.184352 1.2657144
-0.3002969 -0.17840517 1.2640001
-0.29691646 -0.17452444 1.2653334
-0.2939221 -0.16435128 1.2673844
-0.28731623 -0.16320828 1.2640001
-0.29235432 -0.15571138 1.2679999
-0.28643903 -0.15581873 1.2657144
-0.29013109 -0.14673296 1.268
-0.28736287 -0.14534153 1.2656
-0.28263381 -0.13457833 1.2657144
-0.28123817 -0.12783553 1.268
-0.27556631 -0.12489656 1.2657778
-0.2681618 -0.12078363 1.2640001
-0.27012205 -0.11783101 1.268
-0.2644881 -0.11372502 1.2661818
-0.26122913 -0.10782649 1.268
-0.25471199 -0.10293821 1.2659999
-0.24710779 -0.10194582 1.2640001
-0.25011301 -0.098933585 1.268
-0.24349909 -0.096569777 1.2661817
-0.23580757 -0.092723623 1.2651999
-0.23134179 -0.087722778 1.2666668
-0.22568013 -0.083758973 1.2647272
-0.2215924 -0.077194877 1.2670001
-0.21606822 -0.07411544 1.265
-0.21317773 -0.067170635 1.2665
-0.20705989 -0.064511098 1.2644
-0.20236564 -0.057341594 1.266
-0.19757964 -0.052759308 1.265143
-0.19284682 -0.045895252 1.2666668
-0.18859975 -0.042772915 1.2640001
-0.032135092 -0.042108051 1.2640001
-0.029386744 -0.042694546 1.265
-0.19008587 -0.037794851 1.268
-0.18436204 -0.033645529 1.2653333
-0.17628305 -0.032150876 1.2646667
-0.16843221 -0.032135092 1.2640001
-0.043261752 -0.033275343 1.2653333
-0.034416262 -0.034416601 1.266476
-0.027790334 -0.034460012 1.268
-0.17406391 -0.027189523 1.266
-0.16491733 -0.025205689 1.2648
-0.15655963 -0.022637036 1.2640001
-0.050022598 -0.025567107 1.268
-0.045928918 -0.028180977 1.2656
-0.034904659 -0.027345687 1.268
-0.027790334 -0.027790334 1.268
-0.16229555 -0.018897427 1.268
-0.15405788 -0.015546056 1.266857
-0.14548066 -0.013507062 1.2656469
-0.13456209 -0.011468748 1.2662222
-0.12964848 -0.012189173 1.2640001
-0.09418907 -0.012189173 1.2640001
-0.085717961 -0.011881589 1.265143
-0.1411749 -0.0077812932 1.268
-0.13444459 -0.0077767847 1.2674285
-0.12444846 -0.0046572038 1.2651999
-0.10253976 -0.0036017851 1.2645
-0.094551206 -0.0053457548 1.2661817
-0.084636368 -0.006915147 1.2664615
-0.077985458 -0.0028866881 1.2672
-0.053124998 -0.0039655389 1.2662858
-0.12116585 0.0011116134 1.268
-0.11517471 0.002963718 1.2673334
-0.10491947 0.002063924 1.2674286
-0.098933585 0.0011116134 1.268
-0.071029291 0.0066609131 1.266
-0.0642014 0.0070767235 1.2643077
-0.054842763 0.0042791353 1.2657143
-0.070031643 0.010004519 1.268
-0.064314775 0.012545349 1.268
-0.057136923 0.010893811 1.268
-0.30138221 -0.2408817 1.2780001
-0.29777879 -0.24229208 1.276
-0.30138221 -0.23752055 1.2780001
-0.2942467 -0.23625596 1.2754999
-0.28904313 -0.23212731 1.273
-0.29279265 -0.22444944 1.278
-0.28792715 -0.22543134 1.2729999
-0.31085417 -0.21245798 1.2755001
-0.30810449 -0.21399258 1.2780001
-0.29379535 -0.21615905 1.27425
-0.28904313 -0.21761934 1.273
-0.32029104 -0.19306742 1.273
-0.31696969 -0.19232453 1.2739999
-0.31380409 -0.18540598 1.2751428
-0.30861777 -0.18114433 1.2755001
-0.30435523 -0.17453223 1.2751875
-0.31034526 -0.16021433 1.2780001
-0.30422586 -0.16511309 1.2758124
-0.2979711 -0.16851549 1.273
-0.31034526 -0.1568532 1.2780001
-0.30372462 -0.15570611 1.275647
-0.29669568 -0.15289155 1.2729999
-0.30194241 -0.14732996 1.2780001
-0.29520336 -0.14424355 1.2754999
-0.29241917 -0.13705982 1.2780001
-0.28713301 -0.13422681 1.2744285
-0.28318393 -0.12467909 1.2754999
-0.27676719 -0.12164363 1.273
-0.28206068 -0.11864303 1.2767501
-0.27460295 -0.11566841 1.2753075
-0.26821122 -0.11122767 1.273
-0.27075851 -0.10792994 1.2780001
-0.26418078 -0.1047008 1.2750832
-0.26179543 -0.098966897 1.2780001
-0.25549501 -0.097317897 1.2759999
-0.24690616 -0.093240798 1.2763333
-0.23993929 -0.090395726 1.273
-0.2408817 -0.088510022 1.2780001
-0.23472926 -0.084948115 1.2749999
-0.23191866 -0.079546981 1.2780001
-0.22613491 -0.075126901 1.2759166
-0.21985134 -0.070307791 1.273
-0.22146177 -0.066102415 1.2780001
-0.21559995 -0.063673176 1.2742499
-0.2121049 -0.057641491 1.2767501
-0.20625687 -0.053732254 1.2749231
-0.20204186 -0.045562118 1.278
-0.19716737 -0.044681504 1.2742499
-0.20054802 -0.0392133 1.2780001
-0.19470969 -0.034687124 1.2764375
-0.18860343 -0.03013191 1.273
-0.031247906 -0.03013191 1.273
-0.025667923 -0.035711892 1.273
-0.18424888 -0.025359483 1.2763332
-0.17493246 -0.022598932 1.2729999
-0.16851549 -0.022319933 1.273
-0.050219849 -0.022319933 1.273
-0.043887243 -0.02487695 1.2754999
-0.034494143 -0.023613077 1.2746665
-0.027027285 -0.023006188 1.2739999
-0.18038118 -0.019046459 1.2780001
-0.17397204 -0.017014872 1.277
-0.16494226 -0.014165913 1.2760556
-0.15671454 -0.01191054 1.2738333
-0.052127302 -0.014547406 1.276
-0.030250261 -0.016805699 1.2780001
-0.027277861 -0.014837458 1.2737142
-0.16096126 -0.0070957397 1.2780001
-0.15446341 -0.0067146095 1.27675
-0.14487079 -0.004903669 1.2764615
-0.13459806 -0.0033527387 1.2759166
-0.12776364 -0.0018614555 1.2746667
-0.090395726 -0.0011159966 1.273
-0.084926791 -0.0018614555 1.2746667
-0.050367784 -0.0044804239 1.2767501
-0.13556598 0.00112038 1.2780001
-0.12516117 0.0020158072 1.2770001
-0.11433859 0.0064301314 1.2754999
-0.10453169 0.0063239806 1.2729999
-0.095709704 0.0038369193 1.2758571
-0.085148886 0.00112038 1.2780001
-0.0784266 0.00112038 1.2780001
-0.051335845 0.0066959802 1.273
-0.11237902 0.010623885 1.2755001
-0.10429411 0.010804039 1.2746667
-0.099713817 0.01008342 1.2780001
-0.064938016 0.017011814 1.2746665
-0.056203414 0.01514577 1.2752726
-0.061620899 0.02128722 1.2780001
-0.30272231 -0.23400874 1.284875
-0.29779032 -0.23248827 1.2842501
-0.30148217 -0.22470018 1.2880001
-0.29779953 -0.22510871 1.2855
-0.31303465 -0.21714924 1.2867501
-0.30392179 -0.21628024 1.2871667
-0.29806229 -0.21707933 1.2830001
-0.31268421 -0.1810869 1.2830001
-0.31161615 -0.15223463 1.2863334
-0.30818516 -0.15184306 1.2830001
-0.31051534 -0.14791821 1.2880001
-0.30473438 -0.14410888 1.2842501
-0.30223492 -0.13813227 1.2880001
-0.2953732 -0.13472946 1.2850001
-0.292449 -0.12985186 1.2880001
-0.28838792 -0.12494253 1.2840002
-0.28230855 -0.11436906 1.2844287
-0.27781653 -0.11247633 1.2830001
-0.2749792 -0.10706072 1.2855
-0.26876408 -0.10111386 1.2863334
-0.26452848 -0.095318653 1.2867501
-0.25554144 -0.092684418 1.2841111
-0.24744794 -0.091105826 1.2830001
-0.26083288 -0.089202583 1.2880001
-0.25481078 -0.089202583 1.2880001
-0.24546115 -0.085325673 1.2863334
-0.23882473 -0.082857564 1.2830001
-0.23459482 -0.07569053 1.2855002
-0.22832696 -0.071984857 1.2830001
-0.23147507 -0.068877943 1.2880001
-0.22562128 -0.065444529 1.2846667
-0.21932885 -0.061861984 1.2830001
-0.22131275 -0.058715627 1.2880001
-0.21526341 -0.054760579 1.2843637
-0.21225338 -0.045943141 1.2861251
-0.20633158 -0.044115711 1.2830001
-0.2040173 -0.035965886 1.2857274
-0.1990831 -0.031493373 1.2830001
-0.19392031 -0.025912417 1.2852223
-0.1867107 -0.022495268 1.2830001
-0.046565201 -0.022270313 1.2830001
-0.18382551 -0.016641473 1.2846667
-0.17599191 -0.012382138 1.2841113
-0.16871449 -0.01012287 1.2830001
-0.050762288 -0.013533323 1.2867501
-0.045079514 -0.014645594 1.2855002
-0.034910675 -0.01548166 1.2845626
-0.17366357 -0.0063882698 1.2863334
-0.16553712 -0.0047613117 1.2845385
-0.15537077 -0.0022506225 1.28425
-0.14621922 -0.0011247633 1.2830001
-0.045636326 -0.0048376345 1.2876431
-0.03048696 -0.00677488 1.2880001
-0.16146797 0.0011291467 1.2880001
-0.15428251 0.0031821406 1.2880001
-0.14406131 0.0031963261 1.2855
-0.13514179 0.0047365716 1.2853334
-0.12609559 0.0062504737 1.2852727
-0.11810015 0.0078733433 1.2830001
-0.092976466 0.0069796694 1.284
-0.085599817 0.0045997347 1.286077
-0.078560144 0.004135821 1.2863334
-0.048101649 0.0038390986 1.2880001
-0.14189608 0.015431671 1.2880001
-0.13737951 0.014678907 1.2880001
-0.12450434 0.010532127 1.2871667
-0.11652806 0.011822069 1.2842501
-0.10023397 0.015396605 1.2846668
-0.095202632 0.014001553 1.2865295
-0.089202583 0.01016232 1.2880001
-0.068610564 0.019120976 1.2830001
-0.051929835 0.015893575 1.2846667
-0.048553307 0.012420613 1.2880001
-0.064863816 0.023016756 1.2851429
-0.055840977 0.023827566 1.2860001
-0.31268507 -0.23309252 1.2970001
-0.30770412 -0.23294903 1.2920001
-0.31338918 -0.22520705 1.2956363
-0.30678725 -0.22539799 1.2919999
-0.30808169 -0.21860209 1.2920001
-0.31631821 -0.15135495 1.2932501
-0.31489843 -0.1451959 1.2931538
-0.30921435 -0.14158167 1.2920001
-0.31268507 -0.1398555 1.2970001
-0.30413848 -0.13504437 1.2945
-0.29751703 -0.13117826 1.2936667
-0.29392707 -0.12653631 1.2945
-0.28745022 -0.1142991 1.2960001
-0.28256121 -0.10681058 1.2961667
-0.27635273 -0.10317007 1.29325
-0.27422878 -0.097342588 1.2961667
-0.26794827 -0.093700938 1.294
-0.26449877 -0.086801216 1.296
-0.25534013 -0.084543206 1.2945
-0.24578577 -0.080418386 1.2920001
-0.25128511 -0.07845553 1.2970001
-0.24452853 -0.075702354 1.2953333
-0.23785719 -0.072489813 1.2920001
-0.24218881 -0.069359235 1.2970001
-0.23491311 -0.06517911 1.2953335
-0.22788358 -0.061787687 1.2932501
-0.23081844 -0.057988871 1.2970001
-0.22425346 -0.054848012 1.296091
-0.21860209 -0.052102052 1.2920001
-0.22172216 -0.048892576 1.2970001
-0.21734534 -0.044893973 1.2941428
-0.21269637 -0.035720367 1.2958889
-0.2077868 -0.033621777 1.2928333
-0.20395637 -0.026771521 1.2955714
-0.19695836 -0.023058377 1.2936667
-0.19267029 -0.01854676 1.2953334
-0.1856539 -0.012755499 1.29325
-0.037377562 -0.011326534 1.2919999
-0.1821887 -0.0064380937 1.2961668
-0.17503263 -0.0030233311 1.2936667
-0.1676327 -0.0011326533 1.2920001
-0.041908175 -0.0022653067 1.2920001
-0.035719268 -0.0044694007 1.2946471
-0.028425917 -0.0056851832 1.2970001
-0.17169254 0.0011370367 1.2970001
-0.16575399 0.0034058499 1.295
-0.15630616 0.0067959195 1.2919999
-0.14656535 0.0070224507 1.2920001
-0.08268369 0.0079285735 1.2920001
-0.076181456 0.0073907385 1.2970001
-0.044257201 0.0045406949 1.2945
-0.16032217 0.01023333 1.2970001
-0.15487193 0.011189773 1.2948571
-0.14512318 0.011337491 1.29325
-0.13471061 0.014507264 1.2935789
-0.12529086 0.014512729 1.2953334
-0.11738724 0.016123127 1.2950001
-0.092618376 0.018524842 1.2936667
-0.086119689 0.014376896 1.2945
-0.07731849 0.01023333 1.2970001
-0.046930753 0.014543661 1.2942727
-0.094128579 0.021548174 1.2936667
-0.089825898 0.021603696 1.2970001
-0.065519087 0.026524251 1.293
-0.053727221 0.027885189 1.293
-0.048766922 0.023819325 1.2936667
-0.062458113 0.031797577 1.2953334
-0.05616961 0.031609617 1.2970001
-0.31967914 -0.22686905 1.307
-0.31324053 -0.1375134 1.3050001
-0.30590057 -0.13240471 1.302
-0.30191568 -0.12922812 1.3045001
-0.29590416 -0.12362511 1.30575
-0.29247332 -0.11446965 1.30575
-0.28877926 -0.11071774 1.302
-0.29217985 -0.10885131 1.307
-0.28648719 -0.10453965 1.3032501
-0.28301343 -0.097966179 1.307
-0.27605015 -0.093729578 1.3038751
-0.27186859 -0.08642377 1.30575
-0.26591229 -0.082667917 1.3036667
-0.25910234 -0.081040822 1.302
-0.26238894 -0.079060428 1.307
-0.25431582 -0.075617865 1.3047779
-0.24844909 -0.07343135 1.302
-0.25093094 -0.069894001 1.307
-0.24419683 -0.065333001 1.3036667
-0.23779583 -0.061256204 1.302
-0.24252836 -0.057672102 1.307
-0.23545723 -0.05486111 1.3037857
-0.22885472 -0.053076029 1.302
-0.23213975 -0.048352901 1.307
-0.22484264 -0.044409622 1.3037857
-0.22248948 -0.035704795 1.3055001
-0.21697445 -0.033972036 1.3026251
-0.21364921 -0.026307695 1.3047779
-0.20641193 -0.023124166 1.3026251
-0.21311942 -0.019478656 1.307
-0.20433083 -0.018027773 1.30575
-0.19498973 -0.014660277 1.3032501
-0.1883343 -0.01027278 1.302
-0.19364075 -0.0054998556 1.307
-0.18619612 -0.003426014 1.3030001
-0.17806152 -0.00114142 1.302
-0.035384018 -0.00114142 1.302
-0.0285355 -0.00114142 1.302
-0.18218273 0.0011458034 1.307
-0.17460106 0.0031025235 1.304143
-0.16322306 0.0079899402 1.302
-0.041167825 0.0080052819 1.3045001
-0.03544642 0.0039717131 1.3043529
-0.028590292 0.0045766383 1.3045001
-0.1312633 0.019404139 1.302
-0.1255562 0.018643193 1.302
-0.1198491 0.019404139 1.302
-0.081905507 0.016764205 1.3036667
-0.07530164 0.015652936 1.3025883
-0.042576518 0.013715121 1.3038751
-0.035519902 0.01031223 1.307
-0.092952393 0.024764372 1.3036667
-0.085768677 0.023445135 1.3045001
-0.072949477 0.022534132 1.307
-0.068954803 0.02781108 1.3036667
-0.048029497 0.025152881 1.3045001
-0.065550633 0.035057243 1.3040835
-0.054116402 0.035422672 1.3033637
-0.049222421 0.034344509 1.3057501
-0.063592091 0.040676016 1.307
-0.054998562 0.040103115 1.307
-0.31333345 -0.13395414 1.3150001
-0.3094002 -0.13227147 1.312
-0.31057933 -0.12815727 1.317
-0.30394012 -0.12537552 1.3140835
-0.29789835 -0.12191978 1.312
-0.30134276 -0.115457 1.317
-0.29723686 -0.11464846 1.3134286
-0.29531482 -0.10458653 1.3154616
-0.28869686 -0.10121642 1.312
-0.29210621 -0.098138452 1.317
-0.28594616 -0.094196081 1.3147273
-0.27949536 -0.092014939 1.312
-0.28220987 -0.085932992 1.317
-0.27579516 -0.084485948 1.3130001
-0.27348593 -0.078302614 1.3162857
-0.26552919 -0.075089119 1.3146924
-0.25775009 -0.071830116 1.3145001
-0.26439652 -0.06811963 1.317
-0.253187 -0.065457195 1.31575
-0.24805693 -0.063260265 1.312
-0.24476588 -0.054423578 1.3138751
-0.2424597 -0.04849194 1.317
-0.235386 -0.044236802 1.3146924
-0.22888714 -0.040256534 1.312
-0.23264584 -0.036368951 1.317
-0.22782187 -0.033392984 1.3134288
-0.22384566 -0.026788961 1.3145001
-0.21755096 -0.024170574 1.3130001
-0.21125095 -0.01648601 1.312
-0.20504938 -0.013081062 1.3133638
-0.1982155 -0.011118472 1.312
-0.20320432 -0.0080819903 1.317
-0.1989823 -0.0080513069 1.312
-0.19208117 0.0023003733 1.312
-0.18587174 0.0038095212 1.3131541
-0.17796217 0.0049987533 1.3153334
-0.033355415 0.0080513069 1.312
-0.028094536 0.00346371 1.317
-0.041238051 0.017740926 1.3139999
-0.03509184 0.013346248 1.3155715
-0.02609328 0.016394895 1.317
-0.094618104 0.027856434 1.3130001
-0.084121428 0.027081985 1.3145002
-0.076667875 0.025971316 1.3143079
-0.045454115 0.023765732 1.316
-0.02770968 0.02424597 1.317
-0.094230711 0.032308236 1.3161666
-0.087747321 0.031173389 1.317
-0.07415875 0.03387687 1.3160911
-0.046507746 0.03728288 1.3153334
-0.070428766 0.042719085 1.317
-0.064447448 0.045709684 1.3143334
-0.055287313 0.046077047 1.3138752
-0.047649797 0.044636898 1.3158462
-0.054264791 0.051955651 1.317
-0.04849194 0.051955651 1.317
-0.32171094 -0.1369891 1.3280001
-0.31657895 -0.13213412 1.3260001
-0.31443077 -0.12606868 1.3262857
-0.30828157 -0.12284905 1.322
-0.31171811 -0.11613028 1.3280001
-0.30605659 -0.11494362 1.3244001
-0.31212336 -0.10530279 1.3272501
-0.30259511 -0.10454249 1.325
-0.30153126 -0.098958135 1.3280001
-0.29490963 -0.095204607 1.3243999
-0.29215512 -0.086690411 1.3256
-0.28736705 -0.083682947 1.3241819
-0.28327519 -0.075170659 1.3232
-0.27626362 -0.073413953 1.3232858
-0.2646277 -0.071468793 1.322
-0.28057542 -0.068688586 1.3280001
-0.27341503 -0.067313723 1.327143
-0.26455423 -0.0656505 1.3255
-0.25690132 -0.062969796 1.322
-0.26194799 -0.05937488 1.3280001
-0.25434214 -0.055512823 1.3256924
-0.24917497 -0.053311855 1.322
-0.25108203 -0.044628177 1.3280001
-0.24532798 -0.044370379 1.325
-0.23874438 -0.040563367 1.322
-0.23700595 -0.035348073 1.322
-0.22367799 -0.02433802 1.322
-0.034073226 0.017616089 1.3220001
-0.027552757 0.015084803 1.3235002
-0.10160157 0.028201198 1.322
-0.098511033 0.028973833 1.322
-0.042899687 0.026669076 1.3226001
-0.03486032 0.025565023 1.3253752
-0.028973833 0.023179065 1.322
-0.10215221 0.034386873 1.3262857
-0.095771551 0.035964958 1.3233335
-0.084961899 0.035349835 1.3249999
-0.077649884 0.036313869 1.322
-0.043458659 0.034182176 1.3233848
-0.0349264 0.031433761 1.3280001
-0.081106864 0.041523609 1.3280001
-0.07446295 0.04493906 1.3241431
-0.068378247 0.049834993 1.322
-0.043718781 0.045265805 1.324
-0.072127752 0.054678574 1.327
-0.064826697 0.055536833 1.3251998
-0.0551016 0.056200419 1.3241179
-0.046882968 0.054635618 1.3260001
-0.063449629 0.062285412 1.3280001
-0.054503385 0.063426398 1.3275001
-0.047732748 0.062867522 1.3280001
-0.32720709 -0.1414002 1.3330001
-0.33312631 -0.13606569 1.3380001
-0.32616666 -0.13455714 1.3364615
-0.32277688 -0.12435485 1.3370911
-0.31785828 -0.12387125 1.3330001
-0.32313833 -0.11591097 1.3355001
-0.31715715 -0.11405502 1.3330001
-0.30967811 -0.11101668 1.3330001
-0.3166897 -0.10867949 1.3330001
-0.30867645 -0.10467287 1.3330001
-0.31083971 -0.098530322 1.3380001
-0.30393711 -0.095534131 1.3355001
-0.29799214 -0.092319138 1.3330001
-0.29721308 -0.088423818 1.3330001
-0.27228302 -0.061935622 1.3330001
-0.26760864 -0.061935622 1.3330001
-0.26527143 -0.05842983 1.3330001
-0.25709128 -0.053755447 1.3330001
-0.25241688 -0.047912464 1.3330001
-0.11377906 0.024632581 1.3380001
-0.10537314 0.037463035 1.3355
-0.092319138 0.038563691 1.3330001
-0.089981943 0.038563691 1.3330001
-0.037076425 0.035516836 1.3355001
-0.10166791 0.040900882 1.3330001
-0.093838394 0.041640796 1.3380001
-0.085414216 0.043294087 1.3346667
-0.078295976 0.047912464 1.3330001
-0.040952023 0.043295059 1.3346667
-0.03870834 0.043400262 1.3380001
-0.075082645 0.054494299 1.334
-0.068947203 0.059598431 1.3330001
-0.044406675 0.053755447 1.3330001
-0.072244637 0.062872492 1.3363333
-0.065796547 0.066035524 1.3355001
-0.055267695 0.068135411 1.3342501
-0.048002321 0.067907915 1.3355
-0.063340917 0.071551777 1.3380001
-0.055651385 0.072855085 1.3380002
-0.33201647 -0.13304205 1.3430001
-0.33231714 -0.12575227 1.3490001
-0.32885122 -0.12493595 1.3445001
-0.32995191 -0.11944496 1.3490001
-0.30846918 -0.095366426 1.3430001
-0.1144611 0.028320717 1.3460001
-0.10792498 0.028649174 1.3430001
-0.11392605 0.033507664 1.3490001
-0.10839895 0.034561414 1.344
-0.034181673 0.038307704 1.3445001
-0.10195079 0.042118866 1.3470001
-0.094399467 0.04543237 1.3460001
-0.085555479 0.047844082 1.3442
-0.035160646 0.043425329 1.3460001
-0.028382961 0.042574439 1.3490001
-0.091061994 0.050852802 1.3490001
-0.084536843 0.051801857 1.3472859
-0.078219183 0.056009006 1.3478
-0.044837117 0.056637049 1.3460001
-0.082652234 0.065569893 1.3490001
-0.076399811 0.065854676 1.3462002
-0.068287075 0.069464438 1.3430001
-0.081601009 0.075687893 1.3490001
-0.076082103 0.073716857 1.3490001
-0.065587156 0.076193303 1.3448752
-0.053766266 0.077051893 1.3430002
-0.063354827 0.08481098 1.3490002
-0.05487144 0.084757626 1.348143
-0.061890621 0.092638828 1.3490001
-0.055583298 0.093900286 1.3490001
-0.057948545 0.10052298 1.3490001
-0.33354887 -0.11988767 1.3540001
-0.11988767 0.028488159 1.3540001
-0.12271317 0.032167532 1.3590001
-0.11571925 0.036878612 1.3568573
-0.11318205 0.04169865 1.3590001
-0.1044971 0.045577899 1.3562224
-0.096147537 0.048667271 1.3540001
-0.035478003 0.048336245 1.358
-0.026969774 0.047995746 1.3573335
-0.10245954 0.051229771 1.3590001
-0.09517093 0.053536285 1.3570001
-0.085968763 0.056651276 1.3556668
-0.041545235 0.051041286 1.3540001
-0.036933091 0.052024033 1.3590001
-0.02621058 0.051229771 1.3590001
-0.091737032 0.060760889 1.3590001
-0.08747936 0.063730448 1.3545556
-0.086135074 0.074749932 1.3565
-0.074828908 0.078391396 1.3548335
-0.073779978 0.082897894 1.3573335
-0.067659378 0.087838493 1.3540001
-0.065103896 0.096002102 1.3556668
-0.062099386 0.10254879 1.3570001
-0.058378108 0.10365093 1.3590001
-0.12469093 0.027522948 1.365
-0.14359799 0.039489448 1.365
-0.12479349 0.036412347 1.3649999
-0.11846835 0.039489448 1.365
-0.14359799 0.045472704 1.3649999
-0.13362592 0.045871586 1.3649999
-0.12352088 0.044010129 1.3649999
-0.11476961 0.045799065 1.3649999
-0.10809738 0.048264887 1.3650001
-0.14240135 0.051455949 1.365
-0.11208621 0.052253712 1.3650001
-0.10497884 0.054937113 1.3649999
-0.096449986 0.058157187 1.365
-0.035002012 0.054746736 1.3649999
-0.026326299 0.054327913 1.3649999
-0.10171525 0.061029151 1.365
-0.093338698 0.064619102 1.3649999
-0.02752295 0.064619094 1.365
-0.092142053 0.0741923 1.365
-0.084620245 0.084962137 1.3649999
-0.074736238 0.087355442 1.3649999
-0.0844303 0.094003506 1.3649999
-0.07395298 0.095492691 1.3649999
-0.068209052 0.099321947 1.365
-0.084962152 0.10171525 1.365
-0.072311856 0.10376666 1.3649999
-0.065283902 0.10570408 1.3649999
-0.05863585 0.10650185 1.365
-0.0622258 0.11128845 1.365
-0.15078667 0.02533216 1.376
-0.14403144 0.025332158 1.3760002
-0.13529439 0.025276929 1.3730001
-0.12851056 0.0252217 1.3700001
-0.15281549 0.037674967 1.3752502
-0.14421034 0.034614205 1.3728235
-0.13457516 0.034843121 1.3706005
-0.12851056 0.030025832 1.3700001
-0.16250494 0.045322161 1.3760002
-0.15363802 0.045386642 1.3745002
-0.14412402 0.045639269 1.37
-0.13475595 0.045399062 1.37
-0.12610851 0.047526605 1.37
-0.11770126 0.049242366 1.3700001
-0.16124122 0.053479005 1.376
-0.15239505 0.053479005 1.376
-0.14435856 0.055407215 1.3738573
-0.13470082 0.055327423 1.3718753
-0.12504424 0.055311974 1.3714999
-0.11606528 0.055952914 1.3713845
-0.10849335 0.058049943 1.3700002
-0.042036165 0.058850631 1.3700001
-0.034829967 0.058850635 1.3700001
-0.026422733 0.058850631 1.3700001
-0.14354891 0.06152096 1.376
-0.13389856 0.065541938 1.3760002
-0.1254545 0.06513983 1.376
-0.11539686 0.06490808 1.3711252
-0.10593116 0.065096013 1.3700002
-0.098084398 0.065256149 1.37
-0.044438232 0.061252698 1.3700001
-0.033855993 0.064548753 1.373
-0.0268599 0.063744187 1.3720001
-0.15319926 0.073583893 1.376
-0.1332954 0.073583893 1.3760002
-0.1253549 0.074729353 1.3748752
-0.11529922 0.074464075 1.3700002
-0.10571889 0.074484788 1.3703753
-0.096597411 0.074464075 1.3700001
-0.15319926 0.080821656 1.376
-0.13229017 0.081625849 1.376
-0.12482294 0.084019609 1.3747145
-0.11548726 0.084215015 1.3722503
-0.10482995 0.084351376 1.3745
-0.094195344 0.084415495 1.3700001
-0.086874746 0.086874746 1.3700002
-0.13148597 0.09770976 1.376
-0.12304192 0.090471998 1.376
-0.11563183 0.093918547 1.3760002
-0.10494752 0.094090864 1.3759999
-0.094192468 0.094832309 1.3716
-0.085055001 0.095973492 1.37
-0.078067169 0.099685766 1.3700001
-0.14354891 0.1085664 1.376
-0.13389856 0.1085664 1.376
-0.11701045 0.10012235 1.376
-0.10173073 0.10333913 1.3760002
-0.094203785 0.10530452 1.3736668
-0.083992273 0.10593116 1.3700002
-0.075932004 0.10689197 1.37
-0.067257866 0.10929403 1.3700001
-0.14596151 0.11580416 1.3760003
-0.13631114 0.11508038 1.376
-0.09275309 0.11282641 1.3740001
-0.084760949 0.11332101 1.3715
-0.074244544 0.11401751 1.3748002
-0.065086856 0.1145328 1.372
-0.14492753 0.12424821 1.3760002
-0.16415145 0.017023114 1.3870001
-0.15666156 0.017191609 1.381
-0.17144707 0.026750606 1.3870001
-0.16536738 0.02431873 1.3870003
-0.15525468 0.024138782 1.3814003
-0.14891323 0.023809975 1.381
-0.1823905 0.037694037 1.3870001
-0.17442852 0.034915473 1.3862002
-0.1649408 0.035165913 1.3834003
-0.15597551 0.033293609 1.3810002
-0.14891323 0.030266916 1.381
-0.18239048 0.044989653 1.3870001
-0.17493221 0.045150682 1.3841583
-0.16586269 0.046409268 1.381
-0.15678263 0.047216386 1.381
-0.19394191 0.058972925 1.3870001
-0.18299848 0.054717153 1.3870001
-0.17490879 0.055872589 1.3855002
-0.16530393 0.056156773 1.3810003
-0.1561773 0.056901805 1.3810002
-0.14891323 0.059323158 1.381
-0.19284755 0.065174215 1.3870001
-0.18482234 0.065660588 1.3870003
-0.17504784 0.06564185 1.3866253
-0.16478913 0.065428816 1.3821251
-0.15496661 0.065376535 1.3810003
-0.1453619 0.065618671 1.3810003
-0.13715236 0.064857677 1.3809999
-0.043710601 0.065569408 1.3850001
-0.039199565 0.066687159 1.383
-0.1918748 0.073685765 1.3870001
-0.18482235 0.075388074 1.3870003
-0.17462607 0.075183593 1.3832502
-0.16465203 0.07506194 1.3810003
-0.15504733 0.075142659 1.3810003
-0.14539659 0.075123422 1.3821251
-0.13748741 0.076315373 1.3817501
-0.044989657 0.072956204 1.3870001
-0.031614356 0.071740262 1.3870001
-0.027966544 0.071740262 1.3870001
-0.19090205 0.081467755 1.3870001
-0.18477337 0.08509288 1.3866253
-0.17433743 0.084747374 1.3810003
-0.16465203 0.084747382 1.3810003
-0.15504733 0.084989518 1.3810003
-0.14535813 0.084793396 1.3817503
-0.13634075 0.085455909 1.3819234
-0.1295424 0.087168723 1.381
-0.18472438 0.094793089 1.3862503
-0.17438576 0.0944594 1.3813752
-0.16478911 0.094510697 1.3821254
-0.15496661 0.094432779 1.3810003
-0.14539659 0.094508708 1.3821251
-0.13611741 0.094379656 1.3838003
-0.12625627 0.094951622 1.3810003
-0.11743563 0.095643461 1.381
-0.04012591 0.091195248 1.3870001
-0.18464866 0.10196497 1.3870001
-0.17414692 0.10396464 1.3835716
-0.16527861 0.10451531 1.3862503
-0.15509515 0.10420267 1.3821253
-0.14540294 0.10390588 1.3814002
-0.13575715 0.10393497 1.3818003
-0.12591037 0.10411821 1.3810003
-0.11474524 0.10452177 1.3810003
-0.10593422 0.10532887 1.381
-0.17490877 0.11417641 1.3855002
-0.16478391 0.11474916 1.3843337
-0.15496659 0.11501429 1.3810003
-0.14337872 0.11363065 1.3809999
-0.13524988 0.11518724 1.3810003
-0.125158 0.11430653 1.3835719
-0.11411131 0.11411591 1.3847504
-0.10438459 0.11453387 1.3825002
-0.094432786 0.11598282 1.3810002
-0.084142022 0.11834364 1.381
-0.075869076 0.11904988 1.381
-0.067192554 0.11925165 1.381
-0.18117456 0.1228096 1.3870001
-0.17509486 0.12402555 1.3870003
-0.16518521 0.12459146 1.3834002
-0.15472445 0.12566823 1.3810003
-0.14514668 0.12685202 1.381
-0.13527282 0.1260141 1.3813533
-0.12463853 0.12396594 1.3863337
-0.11429805 0.12402555 1.3870003
-0.10439126 0.12459835 1.3866253
-0.094630435 0.12476168 1.3848826
-0.084792726 0.12597744 1.3817502
-0.075186849 0.12574187 1.3818003
-0.067072019 0.12473826 1.3847501
-0.18117456 0.1325371 1.3870001
-0.17353152 0.13184229 1.3870001
-0.16503091 0.1340812 1.3862002
-0.15558186 0.13558564 1.3845298
-0.14543505 0.13574307 1.3825004
-0.13470957 0.1358681 1.3867147
-0.12402556 0.13496898 1.3870004
-0.11429805 0.13496898 1.3870004
-0.10467062 0.13510095 1.3857372
-0.094748572 0.13498573 1.381667
-0.084813446 0.13570723 1.3821251
-0.076260515 0.13431546 1.3848183
-0.06809245 0.13132116 1.3870001
-0.16171958 0.14348052 1.3870001
-0.15559879 0.14587393 1.3866253
-0.14543505 0.14543898 1.3825004
-0.13509698 0.14572042 1.3870004
-0.12524147 0.14469646 1.3870001
-0.11399406 0.14408849 1.3870001
-0.10454325 0.14587393 1.3866253
-0.094976828 0.1455051 1.3854004
-0.086587489 0.14431556 1.3862501
-0.16171958 0.15442395 1.3870001
-0.15551499 0.15535216 1.3866003
-0.14629863 0.15515007 1.3857144
-0.1380088 0.15260005 1.3870001
-0.12645741 0.15199208 1.3870001
-0.11065023 0.15199208 1.3870001
-0.10530011 0.15247846 1.3870001
-0.098490871 0.15199208 1.3870001
-0.14712834 0.16171958 1.3870001
-0.17304875 0.01650851 1.3950001
-0.16962448 0.017084479 1.3920001
-0.1960928 0.02818834 1.3980001
-0.18506257 0.026962763 1.398
-0.17511357 0.024315225 1.3946668
-0.19486721 0.034316242 1.3979999
-0.18624046 0.033716224 1.3950002
-0.17816672 0.030508 1.3920001
-0.19579263 0.044352315 1.3976001
-0.18792927 0.043931518 1.3920001
-0.20499448 0.055681486 1.3959999
-0.1956161 0.053901196 1.3935002
-0.18636028 0.055611726 1.3920001
-0.20516598 0.065326892 1.3961251
-0.1980986 0.066710822 1.3920001
-0.041490879 0.06955824 1.3920001
-0.20499875 0.075845443 1.3954287
-0.19647151 0.076436408 1.3920001
-0.043838155 0.076261677 1.3955002
-0.035187062 0.07485681 1.3946668
-0.21202534 0.085790604 1.3980001
-0.20551446 0.085632473 1.3953751
-0.19549526 0.085666455 1.3920001
-0.050033119 0.089083359 1.3920001
-0.043462068 0.086920187 1.3965
-0.037911452 0.088049769 1.3950001
-0.21202534 0.091918498 1.3980001
-0.20504896 0.095312409 1.398
-0.1952512 0.095184959 1.3920001
-0.04280588 0.093554355 1.3950001
-0.20467186 0.10573413 1.3979999
-0.1955701 0.10512044 1.3942502
-0.18562423 0.10698139 1.3920001
-0.17938703 0.10738815 1.3920001
-0.20283349 0.11397894 1.3980001
-0.19588634 0.11508092 1.3965001
-0.18548864 0.11471008 1.3920001
-0.20222069 0.12133242 1.3980001
-0.19516276 0.12368795 1.3969091
-0.1858414 0.12462693 1.3928001
-0.19241606 0.13236263 1.3980001
-0.18611108 0.13458762 1.3948002
-0.1769464 0.13572671 1.3920001
-0.16718385 0.13789617 1.3920001
-0.072812431 0.13708262 1.3920001
-0.06955824 0.13667583 1.3920001
-0.18261142 0.14308646 1.398
-0.17445166 0.14488141 1.397143
-0.16629633 0.1438868 1.3920001
-0.12162522 0.14684516 1.3920001
-0.11532024 0.14643839 1.3920001
-0.082692467 0.14542674 1.3940001
-0.077101082 0.14155711 1.396
-0.17140612 0.154248 1.398
-0.165318 0.15465932 1.3930911
-0.15742128 0.15986192 1.3920001
-0.14155713 0.15864161 1.3920001
-0.13382843 0.15628234 1.3920001
-0.12397016 0.15555491 1.3920001
-0.11490276 0.15510909 1.3920001
-0.10494752 0.15681113 1.3920001
-0.095366716 0.15424249 1.3926668
-0.087863043 0.15009935 1.3920001
-0.17035562 0.16055098 1.3980001
-0.15494163 0.16471994 1.3935002
-0.14375685 0.16551852 1.3944001
-0.13428473 0.16480325 1.3925
-0.12447264 0.16474319 1.3920001
-0.11544385 0.16461118 1.395
-0.10539988 0.16116378 1.3980001
-0.21621756 -0.0028719602 1.4039999
-0.215397 0.00123084 1.404
-0.19201103 0.0086158803 1.404
-0.18831852 0.0086158803 1.404
-0.21785867 0.0123084 1.404
-0.20431943 0.0184626 1.404
-0.19368944 0.01577713 1.4040002
-0.18528874 0.015243477 1.404
-0.1774168 0.014242576 1.4040002
-0.21293533 0.02707848 1.404
-0.20379193 0.024968471 1.404
-0.19467784 0.023591101 1.4040002
-0.184626 0.022155121 1.4040002
-0.1784718 0.020924279 1.404
-0.22414963 0.036514923 1.4040002
-0.21293533 0.035694361 1.4040002
-0.20431942 0.034463517 1.4039999
-0.22401291 0.044310227 1.4039999
-0.21416615 0.044310234 1.4039999
-0.20517156 0.0440262 1.404
-0.22278206 0.054156959 1.4040002
-0.21469365 0.053805292 1.404
-0.20555027 0.05046444 1.4039999
-0.22255826 0.063667998 1.4040002
-0.21469365 0.063652016 1.404
-0.22137536 0.073322892 1.4040002
-0.21469364 0.073498726 1.404
-0.22032036 0.082466282 1.4039999
-0.21580727 0.084107406 1.4040002
-0.044446997 0.084380917 1.4040002
-0.0369252 0.082466282 1.404
-0.21426082 0.09628956 1.404
-0.045541078 0.092312999 1.404
-0.21314044 0.10564711 1.4040002
-0.20555028 0.10215972 1.404
-0.21047364 0.11528867 1.4039999
-0.20647343 0.11631437 1.4040002
-0.21047364 0.12185316 1.404
-0.2041827 0.12540892 1.4040002
-0.19734468 0.12841763 1.4039999
-0.20185776 0.13293073 1.404
-0.19597708 0.13552918 1.4040002
-0.19262646 0.14216201 1.404
-0.18585683 0.14677766 1.4040002
-0.075081237 0.14277744 1.404
-0.18175404 0.15221389 1.4039999
-0.17683069 0.15522259 1.4040002
-0.22289322 -0.0037163356 1.4125
-0.21483418 -0.00271942 1.4100001
-0.2089009 -0.0012361 1.4100001
-0.22394451 0.0052910815 1.4127272
-0.21499898 0.0051916209 1.41
-0.20673773 0.0064895246 1.41
-0.19777599 0.0086527001 1.4100001
-0.1841789 0.0086527001 1.4100002
-0.1792345 0.0086527001 1.4100001
-0.24437521 0.016126283 1.4150001
-0.23521471 0.015362909 1.4150002
-0.22532333 0.014855389 1.4121876
-0.21455164 0.01518637 1.41
-0.20519258 0.013597098 1.41
-0.19703433 0.01260822 1.4100001
-0.18253076 0.012773033 1.4100002
-0.24331193 0.02605015 1.4150001
-0.2353806 0.024772959 1.413125
-0.22507158 0.024731863 1.410625
-0.21525797 0.024368828 1.41
-0.2089009 0.022249799 1.4100001
-0.24376035 0.03478932 1.4127272
-0.23485899 0.0346108 1.41
-0.22479363 0.031962015 1.41
-0.21714157 0.032550633 1.41
-0.24471651 0.044589765 1.4128572
-0.23485899 0.044499602 1.41
-0.24469116 0.054851685 1.4146155
-0.23485897 0.0543884 1.41
-0.22867849 0.054388396 1.4100001
-0.24508406 0.064150713 1.4150002
-0.23485902 0.064277194 1.41
-0.22818406 0.065018855 1.4100001
-0.24313474 0.074429005 1.4150001
-0.23491186 0.074183255 1.4103124
-0.22703035 0.074578024 1.41
-0.24272124 0.083525874 1.4150001
-0.23564003 0.084335059 1.4146878
-0.22582595 0.084340058 1.41
-0.037083 0.082818702 1.4100001
-0.24189425 0.09055528 1.4150001
-0.23445135 0.091795765 1.4150001
-0.22507158 0.093985803 1.410625
-0.050680101 0.093943596 1.4100001
-0.048207901 0.093943596 1.4100001
-0.23197038 0.1042006 1.4150001
-0.22507158 0.10387842 1.410625
-0.21817166 0.10445044 1.4100001
-0.23197038 0.1116435 1.4150001
-0.22505713 0.11452065 1.4113889
-0.2161409 0.11584022 1.41
-0.22413188 0.12321003 1.4125
-0.2151368 0.12611446 1.4103571
-0.20766479 0.12855439 1.4100001
-0.22204651 0.13025075 1.4150001
-0.21503536 0.13354483 1.4137501
-0.20576112 0.13626686 1.4104999
-0.1990121 0.1396793 1.4100001
-0.19562158 0.14640641 1.4104999
-0.075402096 0.1446237 1.4100001
-0.2446605 -0.024483923 1.427
-0.23769063 -0.021267056 1.427
-0.28647974 -0.015012041 1.427
-0.25145167 -0.01125903 1.427
-0.24394564 -0.013448286 1.427
-0.23502643 -0.013752271 1.426
-0.22714053 -0.012042184 1.4210001
-0.28597933 -0.0055044149 1.427
-0.26521271 -0.0025020067 1.427
-0.25495449 -0.0047538122 1.427
-0.24519664 -0.0050040134 1.427
-0.23506634 -0.0050033559 1.4262501
-0.2267253 -0.0062287166 1.4210001
-0.28397775 0.0037530102 1.427
-0.26467657 0.0050040134 1.427
-0.25500575 0.004997767 1.4258752
-0.24481134 0.0049915207 1.42475
-0.23419976 0.0049829744 1.4210001
-0.22797103 0.0012457434 1.4210001
-0.28397775 0.013761036 1.427
-0.26371151 0.014261438 1.427
-0.25467339 0.014980479 1.4240001
-0.24458092 0.014533672 1.4210004
-0.23544548 0.01121169 1.4210001
-0.26145971 0.025020067 1.427
-0.25467339 0.024967466 1.4240001
-0.24690633 0.023170825 1.4210001
-0.27146772 0.036279097 1.427
-0.26503399 0.035385523 1.427
-0.2545386 0.034934726 1.42325
-0.24790291 0.033635069 1.4210001
-0.27146772 0.045036122 1.427
-0.26521274 0.045036122 1.427
-0.2549766 0.044900861 1.4227145
-0.26340571 0.054349143 1.427
-0.25467113 0.054625273 1.4226
-0.26373425 0.065393358 1.427
-0.25497657 0.065212734 1.4227144
-0.26302347 0.074121945 1.427
-0.25467339 0.0749024 1.4240001
-0.24790291 0.074744597 1.4210001
-0.26145971 0.083817221 1.427
-0.25467339 0.084889397 1.4240001
-0.24707241 0.085541047 1.4210001
-0.25436759 0.094343551 1.4260769
-0.24481766 0.095328353 1.4227144
-0.23630086 0.09633752 1.4218572
-0.25270265 0.10133127 1.427
-0.24458721 0.10469643 1.4265715
-0.23719357 0.10486337 1.424
-0.24144365 0.11133929 1.427
-0.23654449 0.11539914 1.4246001
-0.2333329 0.12478892 1.4250001
-0.22746138 0.12766165 1.423
-0.29141188 -0.059291597 1.439
-0.28458387 -0.0554015 1.4363749
-0.27795565 -0.05256347 1.439
-0.28636581 -0.045414839 1.439
-0.27459157 -0.044573825 1.439
-0.28636581 -0.035322651 1.439
-0.2747598 -0.035070345 1.4389998
-0.26516497 -0.034049176 1.4384545
-0.25594896 -0.0324663 1.4354001
-0.29231963 -0.024677038 1.4381429
-0.28458124 -0.025186742 1.436375
-0.27486876 -0.025219288 1.4382498
-0.26388463 -0.025132826 1.4333754
-0.25502142 -0.025125265 1.4330002
-0.2483214 -0.024287758 1.4330001
-0.29601598 -0.014762669 1.4357275
-0.28140301 -0.01507516 1.4330001
-0.2738654 -0.01507516 1.4330003
-0.26381528 -0.015075159 1.4330003
-0.25524986 -0.015417776 1.4330002
-0.24748388 -0.016645489 1.4330001
-0.23743378 -0.018843951 1.4330001
-0.29494771 -0.0046755141 1.4351429
-0.28140301 -0.0050250534 1.4330001
-0.27440381 -0.005383986 1.4330003
-0.26435369 -0.007717046 1.433
-0.29324958 0.0037793098 1.4370002
-0.2836256 0.0053149606 1.4330003
-0.27440378 0.0050250529 1.4330003
-0.29110813 0.015123814 1.4375001
-0.2836256 0.015365065 1.4330003
-0.2738654 0.015075159 1.4330003
-0.26632783 0.018843951 1.4330001
-0.29141188 0.025230465 1.439
-0.28406608 0.025138414 1.4337502
-0.2738654 0.025125263 1.4330003
-0.26632783 0.025125267 1.4330001
-0.2922529 0.036163669 1.439
-0.28421536 0.035214163 1.4345002
-0.27491227 0.034756616 1.4330002
-0.26507157 0.033919111 1.4330001
-0.2922529 0.045414835 1.439
-0.2842893 0.045283671 1.4348752
-0.27562419 0.045225479 1.4330002
-0.29204264 0.053614743 1.439
-0.28421137 0.05533345 1.4345001
-0.2738654 0.055275589 1.4330003
-0.26674658 0.057369355 1.4330001
-0.28473255 0.063807301 1.4384
-0.27415535 0.065396041 1.4345003
-0.26758409 0.061556902 1.4330001
-0.27361515 0.075256228 1.4362309
-0.26695597 0.077260196 1.4330001
-0.27157554 0.083805829 1.4375001
-0.26603356 0.085886151 1.4336668
-0.26422995 0.09521126 1.4366001
-0.25753397 0.099244803 1.4330001
-0.26059091 0.10323188 1.4360001
-0.25525987 0.1060454 1.4343334
-0.24999641 0.10803865 1.4330001
-0.24568583 0.11561788 1.4335003
-0.31036192 -0.073473431 1.4450001
-0.29484382 -0.063655861 1.4449999
-0.29539087 -0.055392981 1.4449998
-0.29389372 -0.045604207 1.4449998
-0.28375947 -0.045604203 1.4449999
-0.27778748 -0.04506129 1.4449999
-0.26982486 -0.043070633 1.4450001
-0.30022764 -0.032936364 1.4450001
-0.29389372 -0.035469931 1.4449998
-0.28375947 -0.035469931 1.4449999
-0.27995911 -0.039270282 1.4450001
-0.2660245 -0.038003497 1.4450001
-0.30073434 -0.024575595 1.4450001
-0.29718739 -0.026095737 1.4450001
-0.30276123 -0.0152014 1.4450001
-0.2951605 -0.01900175 1.4450001
-0.30276123 -0.0050671333 1.4450001
-0.30167538 0.0056100409 1.4449999
-0.2970607 0.006967308 1.4450001
-0.30149445 0.015201401 1.4449999
-0.29642731 0.015201401 1.4449999
-0.30107215 0.024491146 1.4450001
-0.29642731 0.025335664 1.4449999
-0.30022764 0.035469931 1.4450001
-0.29684958 0.034625407 1.4450001
-0.30022764 0.045604199 1.4450001
-0.29684958 0.045604199 1.4450001
-0.30022764 0.054471683 1.4450001
-0.2958844 0.056281369 1.4449999
-0.29136017 0.065872729 1.4450001
-0.28502625 0.069039695 1.4450001
-0.29009339 0.072206646 1.4450001
-0.28502619 0.075584739 1.4449999
-0.27995911 0.077273786 1.4450001
-0.27573651 0.086141266 1.4450001
-0.27235842 0.092475183 1.4450001
-0.26729128 0.097542316 1.4450001
-0.26349092 0.10514301 1.4450001
-0.059538815 0.11781085 1.4450001
-0.062072381 0.1216112 1.4450001
-0.058694292 0.12118894 1.4450001
-0.32204875 -0.090377316 1.452
-0.32209083 -0.084031656 1.4568001
-0.31695709 -0.083467185 1.4519999
-0.32146227 -0.076051712 1.4580001
-0.31540537 -0.073437192 1.4526666
-0.30606592 -0.071739964 1.4526666
-0.31328088 -0.064392388 1.4574001
-0.30486378 -0.065200336 1.4525999
-0.31187594 -0.055600829 1.4580001
-0.30461952 -0.055714726 1.4519998
-0.31123155 -0.045917168 1.455
-0.30461952 -0.046118874 1.4519998
-0.26731318 -0.042006359 1.452
-0.31110901 -0.035022132 1.4580001
-0.30486378 -0.036167238 1.4525999
-0.3116203 -0.025307965 1.4580001
-0.30613723 -0.025458397 1.4519999
-0.31230199 -0.01448604 1.4580001
-0.30762231 -0.016123652 1.452
-0.31264284 -0.005879628 1.4580001
-0.30786476 -0.0045461431 1.4519999
-0.3131541 0.0051127202 1.4580001
-0.30804661 0.0050916797 1.4519999
-0.31250975 0.01530134 1.455
-0.30804661 0.015275041 1.4519999
-0.31250975 0.02551626 1.455
-0.30728287 0.025967568 1.4519999
-0.3116203 0.035533406 1.4580001
-0.30592507 0.035217449 1.4519999
-0.30581769 0.045869827 1.4535
-0.30440745 0.055133067 1.4528571
-0.29913619 0.059827238 1.452
-0.30330285 0.064381652 1.4562857
-0.29701465 0.06491892 1.452
-0.30122441 0.071152024 1.4580001
-0.29492137 0.074431628 1.4538
-0.28640699 0.076375201 1.452
-0.29373476 0.083746217 1.4546666
-0.28541407 0.084949017 1.4529229
-0.2846975 0.092104845 1.4562857
-0.27674344 0.095188312 1.4547273
-0.33241096 -0.0834236 1.4640001
-0.32801059 -0.083056904 1.464
-0.32666439 -0.073562682 1.467
-0.32214344 -0.068022318 1.4640001
-0.31786531 -0.062888563 1.4640001
-0.31444278 -0.055187918 1.4640001
-0.31637585 -0.043729007 1.467
-0.31546953 -0.035679631 1.4640001
-0.31615403 -0.026524425 1.4640001
-0.31752306 -0.016171345 1.4640001
-0.31786531 -0.0042781332 1.4640001
-0.31810978 0.0045837141 1.464
-0.31829312 0.01540128 1.464
-0.31829312 0.0256688 1.464
-0.31700969 0.035386276 1.464
-0.31290266 0.044407021 1.4640001
-0.30930904 0.0577548 1.4640001
-0.30879566 0.064942062 1.4640001
-0.30587339 0.075664222 1.467
-0.30160838 0.080856718 1.4640001
-0.34313175 -0.081574708 1.4770001
-0.33592114 -0.083765499 1.4700001
-0.34183687 -0.077690199 1.4770001
-0.33405373 -0.075436197 1.4735001
-0.33083078 -0.06668409 1.4770001
-0.32403648 -0.063432679 1.4700001
-0.32462201 -0.054319218 1.4752501
-0.31830889 -0.054125402 1.47
-0.32425874 -0.045006316 1.4762224
-0.32283896 -0.034378834 1.4742
-0.31830889 -0.038660999 1.47
-0.32294515 -0.025835365 1.4735001
-0.32482272 -0.015166491 1.4750911
-0.33018336 -0.0012948366 1.4770001
-0.32459897 -0.0056837806 1.4728001
-0.33070129 0.0059562484 1.4770001
-0.32432282 0.0055843676 1.4700001
-0.33147818 0.015538039 1.4770001
-0.32475239 0.0154644 1.4700001
-0.33104661 0.025033509 1.4770001
-0.32533461 0.025820792 1.4726251
-0.33018336 0.036255427 1.4770001
-0.3242676 0.036282018 1.4723334
-0.31830889 0.0399497 1.47
-0.33018336 0.047908958 1.4770001
-0.32495737 0.044759624 1.4756001
-0.31766456 0.045748848 1.47
-0.33018336 0.050498631 1.4770001
-0.32500407 0.05438314 1.4770001
-0.3158578 0.054148417 1.4705834
-0.32352421 0.064186908 1.4770001
-0.31611046 0.064513244 1.4717501
-0.34400555 -0.072545394 1.483
-0.33932522 -0.072805412 1.483
-0.35114095 -0.065267831 1.4890001
-0.34485644 -0.067039579 1.4878001
