# .PCD v0.7 - Point Cloud Data file format
VERSION 0.7
FIELDS x y z
SIZE 4 4 4
TYPE F F F
COUNT 1 1 1
WIDTH 1431
HEIGHT 1
VIEWPOINT 0 0 0 1 0 0 0
POINTS 1431
DATA ascii
-0.0048814183 -0.063032098 1.1626843
0.0053808205 -0.063713677 1.1637274
0.015337565 -0.064417452 1.1664402
0.021976719 -0.062352043 1.1660001
-0.093316935 -0.052519783 1.1633334
-0.08460886 -0.05300485 1.1628002
-0.074765593 -0.052458856 1.1626472
-0.066497579 -0.051718291 1.1625
-0.014467776 -0.054998707 1.1653334
-0.0051237661 -0.057370115 1.1686
0.0051182723 -0.056273405 1.1671333
0.014347526 -0.057731714 1.169
-0.092234105 -0.048166696 1.169
-0.084526628 -0.045327857 1.1663336
-0.074868016 -0.045327466 1.1663336
-0.064731434 -0.046607982 1.1667143
-0.054232843 -0.046078674 1.1623335
-0.048203807 -0.043789789 1.1616668
-0.017353483 -0.045317531 1.1646923
-0.078911394 -0.039968111 1.169
-0.050216343 -0.039968111 1.169
-0.044861853 -0.036001876 1.1658889
-0.039694589 -0.03155211 1.161
-0.021882914 -0.033078827 1.161
-0.017885607 -0.036285669 1.1659999
-0.041802097 -0.028549526 1.1630001
-0.036443908 -0.023838906 1.1656667
-0.025322869 -0.025421143 1.1648002
-0.019471643 -0.028695054 1.169
-0.031769522 -0.019471643 1.169
-0.13599607 -0.30067721 1.177
-0.12794775 -0.30026448 1.177
-0.11590964 -0.30095235 1.177
-0.14362453 -0.2937113 1.1755456
-0.13494197 -0.29460704 1.1750002
-0.1252232 -0.29528689 1.1756668
-0.11492004 -0.29631874 1.1756668
-0.10797465 -0.29615903 1.1730001
-0.14470619 -0.28528342 1.1751819
-0.13608234 -0.28896073 1.1730001
-0.08843638 -0.28484741 1.1730001
-0.15167999 -0.27240488 1.177
-0.14538759 -0.27504125 1.1746365
-0.15167999 -0.26518202 1.177
-0.14830679 -0.26494044 1.173889
-0.15167999 -0.25417575 1.177
-0.14910784 -0.25502583 1.1730001
-0.15291837 -0.24421147 1.1754
-0.14910784 -0.24577089 1.1730001
-0.15357184 -0.23464711 1.1756668
-0.14910784 -0.23445924 1.1730001
-0.15346596 -0.2251595 1.176077
-0.14766817 -0.22397029 1.1730002
-0.17180079 -0.21204244 1.177
-0.1646097 -0.21314053 1.1755456
-0.15505253 -0.21507712 1.1744002
-0.14592001 -0.21461244 1.1730002
-0.18057142 -0.20327182 1.177
-0.17442735 -0.20504591 1.176579
-0.16604868 -0.20582901 1.1735336
-0.15939115 -0.20875099 1.1730001
-0.14499453 -0.20875101 1.1730001
-0.18057142 -0.19914448 1.177
-0.17514732 -0.19471958 1.1752002
-0.16967446 -0.19641103 1.1730001
-0.17379156 -0.18488261 1.175154
-0.17153122 -0.17496717 1.1763334
-0.16830336 -0.17378777 1.1730001
-0.17025305 -0.1661257 1.177
-0.16605343 -0.16541736 1.1742309
-0.16455342 -0.15548916 1.1746001
-0.1625945 -0.14712395 1.1763334
-0.15939115 -0.1439662 1.1730001
-0.15863459 -0.13700458 1.1750001
-0.012134294 -0.052033495 1.1730001
-0.0055235582 -0.053273354 1.1748183
0.0051486632 -0.051485229 1.1746001
0.015173873 -0.054173145 1.1748668
0.021644024 -0.05668439 1.1756667
-0.093294337 -0.045925234 1.1746
-0.085743845 -0.040813215 1.1736668
-0.073696978 -0.04079042 1.1730002
-0.06471768 -0.041863456 1.175182
-0.054953601 -0.043463003 1.1764287
-0.012886561 -0.046907365 1.1760001
-0.082908995 -0.036372025 1.1758573
-0.075774826 -0.036597766 1.1760001
-0.067069381 -0.038177956 1.177
-0.050559998 -0.038177956 1.177
-0.047700893 -0.036032464 1.1743335
-0.015424949 -0.033934891 1.1730001
-0.02262326 -0.02159493 1.1730001
-0.017195683 -0.025277067 1.175154
-0.033590186 -0.017927308 1.1754001
-0.026160065 -0.017137632 1.1760001
-0.018573061 -0.019604897 1.177
-0.15183662 -0.301936 1.189
-0.1463273 -0.30230007 1.1861429
-0.13450317 -0.30485058 1.1832223
-0.12542969 -0.30524337 1.1835881
-0.11906448 -0.30232024 1.1810001
-0.15403226 -0.29425204 1.1866
-0.14631538 -0.29850471 1.1836667
-0.12320585 -0.29921421 1.1810001
-0.16208646 -0.28195748 1.189
-0.1551037 -0.28497016 1.1851816
-0.16226019 -0.27518216 1.189
-0.15602288 -0.27507576 1.1835001
-0.16156529 -0.26788566 1.189
-0.15686961 -0.26490346 1.1850001
-0.16156529 -0.25120795 1.189
-0.15664664 -0.25543645 1.18625
-0.17198884 -0.24078439 1.189
-0.16511118 -0.24401844 1.1882499
-0.15782568 -0.24526067 1.1832857
-0.18137005 -0.23036082 1.189
-0.17421253 -0.23397432 1.1889999
-0.16467147 -0.23492728 1.1833636
-0.15840752 -0.23502293 1.1810001
-0.19179362 -0.22202197 1.189
-0.18490431 -0.22493546 1.1868824
-0.17522217 -0.22407217 1.1841578
-0.16488893 -0.22503753 1.18292
-0.15840752 -0.2246695 1.1810001
-0.19153304 -0.21602842 1.189
-0.18479256 -0.21490029 1.1841999
-0.17599326 -0.21547474 1.1816667
-0.16530982 -0.21811233 1.1810001
-0.19075127 -0.20638663 1.189
-0.18529478 -0.20486668 1.18325
-0.1791144 -0.20810401 1.1810001
-0.18444628 -0.1950641 1.1856666
-0.18304075 -0.18564227 1.188
-0.17869608 -0.18461534 1.1821431
-0.17559481 -0.17483546 1.1839092
-0.17506847 -0.16518669 1.1860001
-0.17255166 -0.15649663 1.1867143
-0.16868979 -0.15291609 1.1834002
-0.16525781 -0.14446776 1.1855716
-0.16140705 -0.13649394 1.1840001
-0.14801463 -0.11257452 1.189
-0.14592993 -0.10944745 1.189
-0.0041413731 -0.050731823 1.1810001
0.018118508 -0.051249493 1.1810001
-0.093846291 -0.0429403 1.1850001
-0.061085258 -0.040378388 1.1810001
-0.057358019 -0.041206665 1.1810001
-0.012085434 -0.042816985 1.1816667
-0.0051959329 -0.044676438 1.1853199
0.0051897611 -0.044627905 1.1840398
0.015220842 -0.046264537 1.1852351
-0.090379946 -0.038437448 1.1850001
-0.085578971 -0.035019152 1.1818001
-0.075200669 -0.031816192 1.1825386
-0.065122791 -0.03368926 1.1842726
-0.055541396 -0.034942355 1.1863998
-0.047193944 -0.031806342 1.1858001
-0.012451122 -0.03424523 1.1838
0.0068795541 -0.037733309 1.189
-0.072964966 -0.028143629 1.189
-0.06671083 -0.028143629 1.189
-0.012624627 -0.02510385 1.1861429
-0.034719709 -0.01460412 1.1834615
-0.023812896 -0.012572027 1.1810001
-0.016413523 -0.015687227 1.1835881
-0.030889349 -0.0086757848 1.1876668
-0.024843076 -0.007970361 1.1863334
-0.017699024 -0.0083283335 1.1876667
-0.16186334 -0.30240062 1.1963334
-0.15648806 -0.3032949 1.194
-0.17104732 -0.29067549 1.197
-0.16428161 -0.2947121 1.1953533
-0.15792537 -0.29807106 1.1930001
-0.17178954 -0.28452885 1.1956667
-0.16569464 -0.2856701 1.193
-0.17104732 -0.27703369 1.197
-0.16651364 -0.27531263 1.1933333
-0.16381525 -0.26456115 1.194
-0.17104732 -0.25079942 1.197
-0.16530579 -0.25557065 1.1951538
-0.18224059 -0.2410053 1.197
-0.17430292 -0.24474517 1.1944544
-0.16681521 -0.24943841 1.1930001
-0.19442414 -0.23364463 1.1962
-0.18542463 -0.23469123 1.1941767
-0.17842428 -0.23699263 1.1930001
-0.20042966 -0.22456518 1.197
-0.19517775 -0.22578765 1.1937501
-0.20042966 -0.21931833 1.197
-0.1958764 -0.21510907 1.1948181
-0.1944394 -0.20449443 1.1950001
-0.19206364 -0.1962506 1.1950001
-0.18930127 -0.19348472 1.1930001
-0.19203471 -0.18993597 1.197
-0.18639818 -0.18456353 1.1945001
-0.18276 -0.17542613 1.1946666
-0.17884263 -0.17256744 1.1930001
-0.18218048 -0.16601123 1.1952858
-0.17834526 -0.16089317 1.1943334
-0.17547667 -0.15504727 1.1950001
-0.17066626 -0.14762922 1.1943334
-0.16806079 -0.14360121 1.1956667
-0.16552518 -0.13828716 1.1950001
-0.14886121 -0.10842117 1.1930001
-0.096542038 -0.041974798 1.197
0.016494703 -0.041624349 1.1945001
-0.093081839 -0.038696945 1.1930001
-0.054384891 -0.030330036 1.1930001
-0.049155578 -0.030330036 1.1930001
-0.0058624451 -0.035395775 1.1946002
0.0049377619 -0.035018068 1.1950001
0.014470085 -0.035854794 1.1959336
-0.073357716 -0.025358984 1.1954
-0.064669065 -0.02439932 1.1942308
-0.055522282 -0.025139641 1.1950003
-0.045956247 -0.025145805 1.1952858
-0.011504496 -0.024054857 1.1930001
-0.0090119578 -0.025778035 1.1954
-0.070307791 -0.019938029 1.197
-0.065060943 -0.019938029 1.197
-0.058764718 -0.019938029 1.197
-0.040857047 -0.018855346 1.1950001
-0.037715953 -0.012573153 1.1950001
-0.012214597 -0.013958871 1.1943333
-0.0094443299 -0.016789921 1.197
-0.032752048 -0.0057623298 1.1955
-0.025219709 -0.0029483894 1.194091
-0.017037537 -0.0040941127 1.1944544
-0.023535872 0.0028482899 1.1969999
-0.01853887 0.0024485299 1.197
-0.17074749 -0.30449086 1.2060001
-0.16592382 -0.30548596 1.2027272
-0.15911674 -0.30874974 1.202
-0.17421643 -0.29564285 1.2043999
-0.16965428 -0.29715845 1.202
-0.17701255 -0.2846548 1.2038182
-0.17462195 -0.27618554 1.2045455
-0.16965428 -0.27186835 1.202
-0.17092369 -0.2660771 1.2060002
-0.16773145 -0.26513904 1.2033334
-0.17428359 -0.25425714 1.2048572
-0.16965428 -0.25816956 1.202
-0.20405118 -0.24211253 1.2060001
-0.19476523 -0.24357735 1.2056365
-0.18534398 -0.2451911 1.2046667
-0.17703056 -0.24868578 1.202
-0.21779555 -0.23576897 1.2060001
-0.20480566 -0.23541777 1.2042
-0.19614866 -0.23829879 1.202
-0.20535509 -0.2254138 1.2043334
-0.20296253 -0.21563798 1.2051113
-0.19915938 -0.21285817 1.202
-0.19913553 -0.20589218 1.2044001
-0.19597358 -0.19562115 1.2040001
-0.19166002 -0.18658659 1.2052002
-0.1889357 -0.18154539 1.204
-0.18822384 -0.17423093 1.2045001
-0.18645978 -0.16533561 1.2046667
-0.18210119 -0.15814833 1.2053336
-0.17675248 -0.1526778 1.2044001
-0.17408516 -0.1452062 1.2051113
-0.16965428 -0.14120294 1.202
-0.17127612 -0.13638654 1.2060001
-0.16597258 -0.13452101 1.2030909
-0.15279423 -0.11169785 1.202
-0.15199471 -0.10766344 1.204
-0.14633986 -0.10579578 1.2044002
-0.13478173 -0.084975049 1.205143
-0.1316389 -0.076915808 1.2055557
-0.12792847 -0.079294503 1.2060001
-0.10537358 -0.056739617 1.2060001
-0.10021761 -0.045359313 1.2033334
-0.098325178 -0.041233141 1.2060001
-0.093888082 -0.03762478 1.2033334
-0.083523542 -0.03066054 1.2060001
-0.00274046 -0.03142219 1.2028
0.0045662648 -0.030910099 1.202
0.015384799 -0.030980349 1.202
0.020642493 -0.035707135 1.203143
-0.082023852 -0.02780962 1.2046667
-0.076261669 -0.022956831 1.204
-0.053741422 -0.020021314 1.202
-0.046365146 -0.020723814 1.202
-0.0048229182 -0.024879303 1.2040001
0.0061850077 -0.026253913 1.2048572
0.014251385 -0.026210288 1.204
0.020087941 -0.02854602 1.2060001
-0.07158684 -0.01625796 1.2044001
-0.064135924 -0.014934248 1.2034736
-0.054900665 -0.015834646 1.2043334
-0.045401108 -0.015835816 1.2043334
-0.038988873 -0.011591286 1.202
-0.0068590399 -0.014777093 1.2040001
-0.035429604 -0.0052792868 1.2037144
-0.012396943 -0.0044806432 1.2035
-0.0095153395 -0.0063435598 1.2060001
-0.03066054 0.00105726 1.2060001
-0.024797395 0.0063327476 1.2036666
-0.015831199 0.0056997356 1.204
-0.0158589 0.01162986 1.2060001
-0.17361216 -0.30585438 1.21
-0.18295304 -0.29307404 1.2156668
-0.1794671 -0.29415849 1.2113334
-0.18294066 -0.28581458 1.2140001
-0.18273127 -0.27568951 1.2161
-0.17756051 -0.27337182 1.2110001
-0.18167163 -0.26502687 1.219
-0.17631221 -0.2654494 1.2125714
-0.21337511 -0.25291538 1.219
-0.20436276 -0.25282517 1.2168572
-0.19416216 -0.25329289 1.2152501
-0.18509272 -0.25490275 1.215
-0.17753577 -0.25697881 1.2105715
-0.21531574 -0.24425872 1.2125555
-0.20527069 -0.24640551 1.2103078
-0.19553465 -0.24857299 1.21
-0.1877557 -0.24928017 1.21
-0.22030458 -0.23094732 1.2140001
-0.21504793 -0.23463888 1.2110909
-0.21417567 -0.2255787 1.2145714
-0.20914373 -0.22294247 1.2110001
-0.21159402 -0.2169373 1.2190001
-0.20732592 -0.21417308 1.2127779
-0.20358998 -0.20513196 1.2135456
-0.20257048 -0.19616292 1.21775
-0.1983639 -0.19283107 1.2126001
-0.19598232 -0.18402568 1.2176
-0.19442955 -0.17479613 1.2129232
-0.19395666 -0.16520871 1.2145
-0.18881646 -0.16229729 1.21
-0.19128954 -0.15922984 1.2190001
-0.18572523 -0.15420952 1.2142667
-0.17926957 -0.15168963 1.21
-0.18335812 -0.14657383 1.216
-0.17828846 -0.1443042 1.2113334
-0.18060298 -0.13785671 1.2190001
-0.17530908 -0.135599 1.2131666
-0.16463204 -0.13107255 1.2116001
-0.17205372 -0.12930745 1.2190001
-0.16470288 -0.1262819 1.2173333
-0.15857673 -0.12026288 1.2140001
-0.15709254 -0.11488359 1.2144545
-0.15337507 -0.10504932 1.2158889
-0.14524943 -0.10276969 1.2113334
-0.15068059 -0.099385068 1.2190001
-0.14497632 -0.094341688 1.2159166
-0.13825326 -0.092286706 1.21
-0.14314212 -0.085067108 1.2143636
-0.13613172 -0.082386211 1.21
-0.12835276 -0.081679031 1.21
-0.14213133 -0.078011937 1.2190001
-0.13627878 -0.074620344 1.2125334
-0.12580532 -0.073721334 1.2106154
-0.11986663 -0.071071364 1.21
-0.13325477 -0.066767402 1.216
-0.12475277 -0.06483946 1.2143638
-0.11593238 -0.063872419 1.2102666
-0.10855178 -0.061170876 1.21
-0.12261612 -0.055268571 1.2178462
-0.11483417 -0.054222137 1.21285
-0.10651243 -0.053785387 1.2103078
-0.12075821 -0.048089549 1.2190001
-0.11390131 -0.046103023 1.2167778
-0.10540922 -0.045686554 1.2120498
-0.11007164 -0.039540295 1.2190001
-0.10341555 -0.037311547 1.2161
-0.095183007 -0.033769693 1.2123331
-0.087513246 -0.032353386 1.21
-0.093406685 -0.027178224 1.2184443
-0.085584119 -0.023848841 1.214
-0.078850321 -0.020861745 1.21
-0.0019093801 -0.021851793 1.21
0.0041469517 -0.021896424 1.2103636
0.015660334 -0.021497183 1.2110001
0.021390177 -0.023984529 1.2132223
-0.084563375 -0.016804494 1.2171251
-0.076374017 -0.014573393 1.2123572
-0.068949834 -0.011668433 1.21
-0.055159867 -0.011668433 1.21
-0.046219118 -0.012577661 1.21
-0.0024774601 -0.014516626 1.2117778
0.005322638 -0.014899959 1.2144501
0.014697726 -0.015118176 1.2148
0.021318888 -0.014919003 1.2158751
-0.072652243 -0.007461811 1.2161429
-0.065149695 -0.0061280662 1.2144765
-0.054887149 -0.007990743 1.21575
-0.044411346 -0.0081685847 1.2157779
-0.037950318 -0.003544071 1.2136668
-0.0048689605 -0.0054356563 1.214579
0.0053432835 -0.0096179098 1.2190001
0.01282388 -0.0096179098 1.2190001
-0.031769149 0.005021546 1.2137144
-0.027965084 0.008850242 1.2113334
-0.012285607 0.0062210774 1.2111429
-0.0076613496 0.0037848889 1.2171818
-0.023284018 0.014155662 1.215
-0.015440657 0.01455946 1.2150834
-0.19326204 -0.29294077 1.2270001
-0.18789664 -0.29350469 1.223
-0.19111069 -0.28863811 1.2270001
-0.18787405 -0.28449219 1.2246001
-0.18706025 -0.27452728 1.2252859
-0.19039358 -0.26246345 1.2270001
-0.18654232 -0.26561049 1.2248183
-0.21336052 -0.25517488 1.223
-0.20441456 -0.25592047 1.2240001
-0.19545284 -0.25827783 1.2250001
-0.22266369 -0.23126905 1.2270001
-0.22051235 -0.22481503 1.2270001
-0.21836276 -0.22394221 1.2246001
-0.21446 -0.21543342 1.2248183
-0.21291359 -0.20538457 1.2266002
-0.20845918 -0.2038642 1.2230002
-0.21262409 -0.19828182 1.2270001
-0.20696832 -0.19446416 1.2255455
-0.20304942 -0.18469916 1.2254617
-0.19835022 -0.1897729 1.223
-0.20391931 -0.17562138 1.2256666
-0.20082241 -0.16753276 1.2250001
-0.19763546 -0.16547054 1.223
-0.19388658 -0.15630896 1.2246001
-0.1897729 -0.15117502 1.223
-0.19039358 -0.14629112 1.2270001
-0.18666425 -0.14432928 1.2247144
-0.18286391 -0.13768576 1.2270001
-0.17694098 -0.13179088 1.2262001
-0.17146869 -0.12528735 1.2250001
-0.16636805 -0.12343165 1.2243333
-0.16398178 -0.11668423 1.2261113
-0.1613505 -0.107567 1.2270001
-0.15726435 -0.1033189 1.2245001
-0.15383308 -0.09547095 1.2257694
-0.1490307 -0.093278207 1.223
-0.15238659 -0.088563502 1.2270001
-0.14800188 -0.083599612 1.2243334
-0.14438348 -0.074983582 1.2254002
-0.14139619 -0.066473745 1.2258571
-0.13645327 -0.063279845 1.2234445
-0.12973176 -0.061113309 1.223
-0.13371328 -0.057136592 1.2255456
-0.12720785 -0.053940639 1.2245002
-0.12321023 -0.046202376 1.2256669
-0.1166942 -0.043188758 1.224
-0.11382045 -0.037859432 1.2261112
-0.10628375 -0.033278439 1.2246002
-0.10218865 -0.025457524 1.2270001
-0.095636576 -0.023350962 1.2236154
-0.093841322 -0.017549407 1.2256669
-0.085611537 -0.013149343 1.2245002
0.018226776 -0.011793797 1.223
-0.081304699 -0.0089533962 1.2256669
-0.076028474 -0.0044714385 1.2243333
-0.064329803 -0.0010721633 1.223
-0.054211378 -0.002887133 1.2236152
-0.045392439 -0.0030244202 1.2248182
-0.039670043 -0.0010721633 1.223
-0.0010721633 -0.0021443267 1.223
0.0046035019 -0.0053683305 1.2252858
0.015726047 -0.0067371833 1.2255455
0.020813296 -0.0062192483 1.2238001
-0.071834944 0.0010721633 1.223
-0.065803692 0.0018811076 1.2255001
-0.056112099 0.0025809067 1.2262001
-0.044819582 0.00107567 1.2270001
-0.036799178 0.0032221884 1.2255001
-0.0044132373 0.0058466848 1.2247778
-0.026826 0.016633436 1.2240001
-0.01290804 0.01721072 1.2270001
-0.0082415435 0.013260168 1.2263335
-0.021944847 0.022252182 1.2252858
-0.017182084 0.022554589 1.2250001
-0.19689056 -0.29208779 1.2340001
-0.19305812 -0.28460595 1.2344002
-0.1926409 -0.27489066 1.2345002
-0.19416063 -0.26581192 1.2342224
-0.22429691 -0.23079827 1.2360001
-0.22267245 -0.22375077 1.233
-0.22195008 -0.215994 1.2350001
-0.21876806 -0.21335964 1.2333335
-0.22212979 -0.20479284 1.2360001
-0.21852671 -0.20554328 1.2340001
-0.21412902 -0.19509339 1.2336001
-0.20845029 -0.19116944 1.2320001
-0.21102068 -0.18505311 1.2344
-0.20791027 -0.18738925 1.2320001
-0.2106104 -0.1782088 1.2320001
-0.2004586 -0.162534 1.2360001
-0.2004586 -0.15928333 1.2360001
-0.19604862 -0.15281704 1.2328001
-0.19302563 -0.14612046 1.2346667
-0.18931617 -0.14279673 1.2340001
-0.18343373 -0.13535453 1.2352002
-0.17613593 -0.12526821 1.2345002
-0.17119618 -0.11665348 1.2344002
-0.16700412 -0.11457682 1.2330002
-0.16308416 -0.10443477 1.2337779
-0.16145045 -0.097520396 1.2360001
-0.15835668 -0.093499132 1.233
-0.15497011 -0.08627364 1.2340001
-0.15037113 -0.077888325 1.2340001
-0.14766748 -0.07193926 1.2340001
-0.14479376 -0.065146156 1.2344
-0.14251561 -0.058809135 1.2346667
-0.13523003 -0.053226639 1.2340001
-0.13327788 -0.048760194 1.2360001
-0.1259249 -0.044342797 1.2337145
-0.12158782 -0.037881348 1.2346667
-0.11546226 -0.034377608 1.2332002
-0.11279344 -0.027075473 1.2354287
-0.1068211 -0.023924988 1.2325717
-0.1023109 -0.01598845 1.2342223
-0.09556964 -0.013620244 1.2332002
-0.089644425 -0.011880587 1.2320001
-0.095277004 -0.0097441496 1.2350001
-0.086057462 -0.007567036 1.2332002
0.0072056153 -0.0018006732 1.2326669
0.014663377 -0.0020063142 1.2325716
0.022032388 -0.0061401729 1.2360001
-0.064263172 0.0054002665 1.2320002
-0.054375123 0.0071082641 1.2334288
-0.045348682 0.0055545615 1.2336001
-0.036761556 0.0075697242 1.2333335
-0.0019454987 0.0080036167 1.2336
0.004022147 0.0037135608 1.2348573
0.016253399 0.0021671199 1.2360001
-0.054177999 0.01191916 1.2360001
-0.032111716 0.012628675 1.2346667
-0.029208779 0.01731066 1.2340001
-0.011880587 0.018360907 1.2320001
-0.0046849069 0.015685903 1.2340001
-0.024217391 0.02551556 1.2332002
-0.014594746 0.025409305 1.2333335
-0.008307294 0.022032386 1.2360001
-0.02058764 0.031423241 1.2360001
-0.016975773 0.032145616 1.2360001
-0.20191824 -0.2859599 1.245
-0.19823897 -0.28494209 1.2432222
-0.19755244 -0.27504539 1.245
-0.2052262 -0.2629807 1.243
-0.19864389 -0.26849669 1.245
-0.22278233 -0.20242964 1.2436666
-0.22217333 -0.19708169 1.2443333
-0.21769358 -0.1933424 1.2436666
-0.21562815 -0.18581153 1.2443333
-0.20410115 -0.16480894 1.245
-0.1855465 -0.1353398 1.245
-0.1811807 -0.12769964 1.245
-0.17790635 -0.1222424 1.245
-0.17354055 -0.11460225 1.245
-0.16819288 -0.10667298 1.2442
-0.16408132 -0.097139053 1.245
-0.14734575 -0.064395547 1.245
-0.14435552 -0.054192267 1.2431818
-0.1381688 -0.051133335 1.2410001
-0.14204441 -0.046932347 1.245
-0.13535564 -0.043920223 1.243353
-0.1290094 -0.042129971 1.245
-0.13370262 -0.037655026 1.245
-0.12515293 -0.036381666 1.245
-0.11877693 -0.032689147 1.243
-0.11387242 -0.022336151 1.243
-0.11067303 -0.01593517 1.245
-0.10667439 -0.015050086 1.2442
-0.082683697 -0.00326383 1.2410001
-0.04242979 0.0097914897 1.2410001
-0.038078018 0.0097914897 1.2410001
0.0079354616 0.0082453005 1.2421428
0.014442863 0.0059972764 1.2435
0.020737549 0.0054572499 1.245
-0.052389599 0.01418885 1.245
-0.043667641 0.0137655 1.2424546
-0.035701588 0.01444637 1.2435
0.0039264141 0.015042374 1.2434
-0.02728625 0.025103349 1.245
-0.0048210402 0.026291611 1.2421428
0.00109145 0.02292045 1.245
-0.021610711 0.034708109 1.245
-0.014955852 0.035957277 1.2428182
-0.0080735739 0.034479648 1.2446001
-0.015644116 0.041838914 1.245
-0.0065486999 0.041475099 1.245
-0.20542555 -0.28338799 1.2542727
-0.21191487 -0.27041221 1.2590001
-0.20364548 -0.27513078 1.2546428
-0.2112416 -0.26735264 1.2550001
-0.20568879 -0.26803207 1.2520001
-0.22325018 -0.19207415 1.2520001
-0.2230432 -0.18601392 1.2555455
-0.2183494 -0.18369344 1.25475
-0.2174335 -0.1799069 1.2590001
-0.20704548 -0.16239159 1.2552859
-0.20331433 -0.15537602 1.2570001
-0.19834583 -0.15012917 1.25
-0.20198137 -0.14900266 1.2590001
-0.19661307 -0.14357792 1.2554545
-0.19257423 -0.13620082 1.2572858
-0.18779314 -0.13413262 1.2527143
-0.1834944 -0.12481152 1.255
-0.18211435 -0.11809839 1.2590001
-0.17749919 -0.11445983 1.2541112
-0.17304762 -0.10565199 1.2572858
-0.16861661 -0.10204545 1.2516667
-0.16609715 -0.09412457 1.2547143
-0.16285025 -0.085479617 1.2574545
-0.15795867 -0.083699748 1.253
-0.16003989 -0.076156907 1.2590001
-0.15546118 -0.075064294 1.2561667
-0.1529256 -0.065757424 1.254923
-0.14793751 -0.06136667 1.25
-0.14684168 -0.053695831 1.25
-0.13212754 -0.034035854 1.2525001
-0.12614796 -0.033454694 1.25125
-0.12357738 -0.02692138 1.2586
-0.11832995 -0.024918625 1.2514286
-0.10629583 -0.012054167 1.25
-0.10410416 -0.0098625002 1.25
0.015999168 0.0094241668 1.25
0.020862475 0.0087863915 1.2525001
-0.051504165 0.016437501 1.25
-0.045799259 0.01782592 1.25125
-0.035316516 0.018205736 1.251
0.0085025709 0.016181074 1.25125
0.015385774 0.015386868 1.2534375
0.02166214 0.016155213 1.2563335
-0.043617297 0.021888239 1.2572858
-0.03437186 0.022630565 1.2556667
-0.028979093 0.027152704 1.2553334
-0.0010958334 0.028491667 1.25
0.0058347867 0.025192201 1.25475
0.015507473 0.024033112 1.2574
0.02138418 0.023591626 1.2574002
-0.025291286 0.035456017 1.254125
-0.0028517966 0.035563737 1.2520001
0.0018377857 0.034527812 1.2570001
-0.022793939 0.04465396 1.2563846
-0.015198582 0.046223816 1.2510713
-0.0053886417 0.045286883 1.2519568
-0.020970743 0.051874995 1.2590001
-0.014584324 0.053555276 1.2581111
-0.0063573844 0.054316852 1.2565385
-0.21231815 -0.28234977 1.268
-0.20943215 -0.28035098 1.2640001
-0.21270651 -0.27601939 1.2670001
-0.20943215 -0.27702665 1.2640001
-0.22272944 -0.18136013 1.2640001
-0.21164837 -0.16178358 1.2640001
-0.2110391 -0.1555005 1.2670001
-0.20762622 -0.15409446 1.2645714
-0.20324445 -0.14482027 1.2653334
-0.20120201 -0.13895166 1.268
-0.19577965 -0.13362539 1.266
-0.19230911 -0.12783553 1.268
-0.18783179 -0.1252939 1.2648
-0.1832733 -0.11551924 1.2670001
-0.18090719 -0.10876453 1.266
-0.17674451 -0.10509329 1.2657144
-0.17248945 -0.095125347 1.2666668
-0.16954032 -0.093080953 1.2640001
-0.17137782 -0.081801184 1.2666668
-0.16754571 -0.084437735 1.2640001
-0.16540338 -0.075425126 1.2640001
-0.16289169 -0.068702608 1.2640001
-0.15845925 -0.068702608 1.2640001
-0.13167043 -0.025975281 1.2664001
-0.12854038 -0.026594559 1.2640001
-0.050022598 0.02334388 1.268
-0.045002218 0.025524639 1.2657777
-0.035842419 0.027219916 1.2644445
0.0088648535 0.029918879 1.2640001
0.015513494 0.029364826 1.2640001
0.021054026 0.029918879 1.2640001
-0.041129693 0.030013559 1.268
-0.034904655 0.0333484 1.2679999
-0.029180139 0.03582878 1.2640001
0.0057961307 0.035633966 1.2657778
0.014855197 0.033449456 1.2679999
0.021120653 0.035201088 1.268
-0.031283975 0.044305734 1.268
-0.027425639 0.046263453 1.2640001
0.0018515202 0.041827518 1.2666668
-0.030754635 0.050763678 1.268
-0.024424935 0.05550652 1.2662857
-0.015794465 0.057644777 1.2645
-0.0077567468 0.058729652 1.2640001
-0.022232266 0.063361965 1.268
-0.01625563 0.063511468 1.266909
-0.21623334 -0.28121537 1.2780001
-0.21538736 -0.27788317 1.273
-0.21245359 -0.15318742 1.2755001
-0.20820068 -0.14396282 1.2758571
-0.20320107 -0.1357308 1.2765714
-0.19864741 -0.13168761 1.273
-0.20054802 -0.12884369 1.2780001
-0.19397056 -0.12685123 1.276
-0.18860343 -0.12164363 1.273
-0.18562146 -0.11405959 1.2755001
-0.18356369 -0.10633199 1.2767501
-0.17893147 -0.1022997 1.273
-0.18038118 -0.098593444 1.2780001
-0.1764157 -0.095477186 1.2763333
-0.17297949 -0.087047741 1.273
-0.054151699 0.018299539 1.2780001
-0.048176341 0.0280095 1.2780001
-0.042448416 0.032397874 1.27425
-0.036870472 0.036870472 1.2744285
0.0078119766 0.039059885 1.273
0.014061558 0.037497483 1.2729999
0.021203937 0.036827888 1.273
-0.035071224 0.044002704 1.2739999
0.0055854623 0.042450611 1.27425
0.011203799 0.041454058 1.2780001
-0.032100778 0.054455779 1.2751428
-0.027899917 0.059147824 1.273
-0.0055799833 0.059147824 1.273
-0.025364723 0.064604081 1.2737142
-0.012565921 0.065630555 1.2742499
-0.0070855119 0.062287461 1.2763335
-0.022034138 0.07133086 1.2780001
-0.016137304 0.071425915 1.2758571
-0.21524841 -0.15100978 1.2855
-0.21359 -0.1444191 1.2850001
-0.2130861 -0.13727197 1.2880001
-0.20685036 -0.13439417 1.2846667
-0.2024574 -0.12822303 1.2830001
-0.19496542 -0.12396505 1.2855
-0.19133162 -0.11577377 1.2863334
-0.18783547 -0.11247633 1.2830001
-0.19201042 -0.10527501 1.2872858
-0.18624753 -0.10369086 1.2841113
-0.18256743 -0.094662033 1.2855
-0.17906968 -0.093473703 1.2846667
-0.17756999 -0.088221885 1.2846667
-0.062103067 0.0169372 1.2880001
-0.058262743 0.016421545 1.2830001
-0.052989244 0.023673505 1.286
-0.04473104 0.034208413 1.2863334
-0.039366715 0.039366715 1.2830001
-0.037754089 0.045076009 1.2855
0.0051870616 0.045773223 1.286
0.014948453 0.044850033 1.2853335
-0.03519981 0.056041904 1.284875
-0.031342939 0.063811511 1.286
-0.027405769 0.067949854 1.2846668
-0.01012287 0.068610564 1.2830001
-0.024809083 0.073301025 1.2863334
-0.01464954 0.075279281 1.2855
-0.0079040267 0.071136236 1.2880001
-0.015808053 0.08129856 1.2880001
-0.21944807 -0.14667773 1.2970001
-0.20954086 -0.13252044 1.2920001
-0.20313016 -0.12400872 1.293
-0.19745924 -0.12194901 1.2920001
-0.2021651 -0.11756959 1.2970001
-0.19670719 -0.11480436 1.2942727
-0.19368371 -0.10646941 1.2920001
-0.18915311 -0.10080615 1.2920001
-0.18788594 -0.094884656 1.2936666
-0.18391773 -0.08772853 1.2958889
-0.17851475 -0.085277751 1.2970001
-0.063958354 0.016103402 1.2934999
-0.061399981 0.021603696 1.2970001
-0.055299129 0.025786271 1.2948571
-0.05116665 0.030699991 1.2970001
-0.046618503 0.035248134 1.2970001
-0.042070355 0.045102451 1.2970001
-0.039745141 0.046561521 1.2953334
0.0056749559 0.048829749 1.2953334
0.015479594 0.048704091 1.2920001
0.022653066 0.046438783 1.2919999
-0.042070355 0.052303687 1.2970001
-0.03922049 0.05509166 1.293
0.0079592569 0.05116665 1.2970001
0.016413033 0.053162262 1.2951818
0.022566404 0.054062281 1.2962857
-0.035564378 0.065041251 1.2933636
-0.0071910047 0.066996031 1.2953334
-0.031131137 0.074306965 1.296
-0.025723884 0.076792635 1.2945
-0.010962131 0.077498794 1.2936667
-0.0079439152 0.074901961 1.2945001
-0.030699991 0.080729604 1.2970001
-0.02415162 0.082111992 1.296375
-0.017032171 0.083276026 1.2953334
-0.19061714 -0.090172179 1.302
-0.19061714 -0.087889336 1.302
-0.18605146 -0.085606501 1.302
-0.069894001 0.0080206236 1.307
-0.072185613 0.014895444 1.307
-0.068910241 0.015611826 1.3028334
-0.065046474 0.025303781 1.3045
-0.058212418 0.027394079 1.302
-0.063920341 0.034137052 1.3066667
-0.055101771 0.034527574 1.304
-0.047559168 0.038427807 1.302
-0.060727578 0.040103115 1.307
-0.054671191 0.043049462 1.307
-0.046546482 0.045840017 1.3046924
0.00114142 0.049081061 1.302
-0.045776609 0.054928426 1.3053335
-0.0011458034 0.054998562 1.307
0.0041968958 0.053532384 1.3053335
0.013148246 0.056322329 1.3045001
-0.045196909 0.065133438 1.3061174
-0.038808279 0.066963308 1.302
-0.0045722551 0.066325091 1.3045001
0.018314224 0.061815303 1.30575
0.021728622 0.061757222 1.3045001
-0.044686329 0.076195925 1.3069999
-0.036283616 0.075292438 1.3027693
-0.0285355 0.078757979 1.302
-0.00648558 0.075149037 1.3053334
-0.044177081 0.085044056 1.3069998
-0.034517933 0.084802948 1.3036667
-0.025967304 0.086462557 1.302
-0.013872623 0.085373051 1.3034286
-0.051561151 0.09051846 1.307
-0.043998845 0.091893435 1.307
-0.034366705 0.093934231 1.3066874
-0.025435263 0.094495744 1.305611
-0.017465282 0.092480332 1.306375
-0.076636449 0.0074915555 1.3145001
-0.082551755 0.017895836 1.317
-0.077201888 0.014977849 1.3143334
-0.081974469 0.02193683 1.317
-0.075221241 0.025435455 1.3152353
-0.073590264 0.034525059 1.3156667
-0.067861013 0.03795616 1.312
-0.072362095 0.044482205 1.3166155
-0.064670041 0.045157555 1.3135791
-0.05597575 0.048691232 1.3120002
-0.070428766 0.051955651 1.317
-0.063711278 0.054474711 1.3170002
-0.055278275 0.055275537 1.3135628
-0.049458027 0.057509333 1.312
-0.0011501866 0.05865952 1.312
0.0046007466 0.057892729 1.3120002
0.01035168 0.05865952 1.312
-0.061192211 0.063501351 1.317
-0.055291701 0.064503051 1.3138752
-0.049458027 0.064410456 1.312
-0.0017263758 0.064472914 1.3132501
0.0050779171 0.063016295 1.3165002
0.014221677 0.063422941 1.3153335
-0.055130932 0.075018629 1.3143685
-0.049458027 0.072461762 1.312
-0.0046007466 0.073611945 1.312
-0.055318546 0.085276 1.3145001
-0.049458027 0.082813442 1.312
-0.011131622 0.087910093 1.3136667
-0.0080666486 0.082973436 1.3145001
-0.061192211 0.094674736 1.317
-0.055583354 0.094785556 1.3153335
-0.045547388 0.096385643 1.3120002
-0.015431787 0.09514568 1.314
-0.055419359 0.10160216 1.317
-0.044568729 0.10455894 1.3158636
-0.0346108 0.10498959 1.3159999
-0.025122538 0.10549328 1.315889
-0.019137809 0.10352784 1.3150001
-0.02540054 0.11314785 1.317
-0.097095393 -0.0030269544 1.3280001
-0.084987573 -0.0011642133 1.3280001
-0.095798127 0.0051558008 1.3279999
-0.085461602 0.0049748323 1.325
-0.079040624 0.0039404416 1.322
-0.10258012 0.016428344 1.3280001
-0.095296636 0.01510374 1.3256
-0.086512201 0.014345007 1.3223753
-0.10397319 0.025702249 1.3279999
-0.095255084 0.025554832 1.325
-0.085994333 0.025728758 1.3220003
-0.079967782 0.028973833 1.322
-0.11153164 0.036556296 1.3280001
-0.1047792 0.0349264 1.3279998
-0.095412888 0.034908645 1.32725
-0.085787855 0.034779452 1.3223753
-0.079504207 0.035000388 1.322
-0.1113764 0.041523609 1.3280001
-0.1047792 0.044240113 1.3279998
-0.095102265 0.045068417 1.3254738
-0.08584249 0.045237046 1.3232002
-0.07822936 0.045778658 1.3220001
-0.10433142 0.053106032 1.3279999
-0.095495507 0.055436783 1.3255295
-0.085837819 0.055679396 1.3231252
-0.075613052 0.055839319 1.3226318
-0.0669875 0.057715874 1.322
-0.10128656 0.061703306 1.3280001
-0.094689339 0.064419799 1.3280001
-0.085937113 0.065032564 1.324625
-0.075364575 0.064932428 1.3226001
-0.06539809 0.065066963 1.3220003
-0.0011589533 0.068378247 1.322
0.0038736975 0.067709051 1.324
0.011218995 0.066936426 1.324
-0.09197285 0.073345438 1.3280001
-0.08523266 0.074570924 1.3279997
-0.074301787 0.074430555 1.3220003
-0.064734727 0.075105965 1.3223161
-0.059106618 0.073014058 1.322
-0.0034842242 0.075535007 1.3256
0.0034926396 0.071017012 1.3280001
-0.084582627 0.085088797 1.3279996
-0.074498855 0.085005924 1.3245264
-0.065142423 0.08546561 1.3227061
-0.0058210664 0.082659148 1.3280001
-0.084470145 0.095206767 1.3279997
-0.074448839 0.095386922 1.326875
-0.06539809 0.095034167 1.3220003
-0.011991631 0.09478987 1.324
-0.083294168 0.10361498 1.3280001
-0.07450965 0.10477921 1.3279998
-0.064940184 0.10436627 1.3227502
-0.05562976 0.10662371 1.322
-0.047517084 0.10778266 1.322
-0.016751345 0.10500313 1.3245715
-0.081883006 0.1113764 1.3280001
-0.072680175 0.11292869 1.3280001
-0.065154128 0.11518057 1.3270999
-0.055643164 0.11476344 1.3223002
-0.045419924 0.11561935 1.3220003
-0.034807391 0.11603011 1.3235003
-0.026681175 0.11577189 1.3232002
-0.019702207 0.11241847 1.322
-0.071017012 0.12457082 1.3280001
-0.065195948 0.12573503 1.3279998
-0.055438649 0.12570997 1.3255292
-0.045243599 0.1249098 1.3233333
-0.035275895 0.12367078 1.3266667
-0.029105334 0.1222424 1.3280001
-0.071017012 0.13272032 1.3280001
-0.06519594 0.13272032 1.3280001
-0.055715922 0.13222137 1.3280001
-0.046568535 0.13155611 1.3280001
-0.10335705 -0.0042892378 1.3346667
-0.095824927 -0.0038953221 1.3330001
-0.08881335 -0.0011685967 1.3330001
-0.11260608 0.0082108602 1.3380001
-0.10537533 0.0046831532 1.3355001
-0.093487732 0.0011685967 1.3330001
-0.089981943 0.0023371933 1.3330001
-0.11338612 0.015784381 1.3376155
-0.10697972 0.014129395 1.3330001
-0.11452135 0.02599428 1.3356667
-0.1086795 0.025319597 1.3330001
-0.12198991 0.03636238 1.3380002
-0.11585126 0.034360472 1.3348184
-0.12081694 0.041054301 1.3380001
-0.11538808 0.045126617 1.3356925
-0.11318406 0.053430468 1.3365002
-0.10612488 0.057991624 1.3344287
-0.11243851 0.06618958 1.3380002
-0.10577679 0.065904818 1.3376667
-0.098255262 0.067843258 1.3342501
0.015191756 0.068947203 1.3330001
-0.11244883 0.074968264 1.3361251
-0.10546958 0.075001135 1.3367499
-0.096691281 0.075103693 1.3337693
-0.0011715189 0.076151647 1.3363333
0.004517463 0.074115776 1.3358573
0.011710075 0.071418092 1.3355
-0.11221508 0.084063567 1.3380002
-0.10551998 0.084415108 1.3373749
-0.095699243 0.08511205 1.3337896
-0.089981943 0.08413896 1.3330001
-0.0042965431 0.083180763 1.3363333
-0.11260607 0.094424888 1.3380002
-0.10545292 0.094904438 1.3364999
-0.096074991 0.095522478 1.3335884
-0.089981943 0.098162115 1.3330001
-0.011729799 0.09735734 1.3380001
-0.0082006324 0.092549987 1.3363333
-0.1114331 0.10204926 1.3380001
-0.10475444 0.10475445 1.3375835
-0.095735461 0.105662 1.3365295
-0.087060452 0.1063423 1.3330001
-0.10204926 0.1114331 1.3380001
-0.093748167 0.11395954 1.3380001
-0.084834568 0.11548552 1.3368462
-0.076218471 0.11543139 1.3330001
-0.090319462 0.1231629 1.3380001
-0.083672576 0.1237494 1.3380002
-0.074839145 0.12485831 1.3338333
-0.040900882 0.12971424 1.3330001
-0.035057902 0.12737703 1.3330001
-0.08093562 0.13254674 1.3380001
-0.075663462 0.13578583 1.336
-0.06547045 0.13795961 1.3336251
-0.055813417 0.13620465 1.3355001
-0.043238077 0.13205142 1.3330001
-0.071551777 0.14193058 1.3380001
-0.066859864 0.14193058 1.3379999
-0.12259862 -0.0019710388 1.3490001
-0.1154912 -0.0044908128 1.3470002
-0.10848562 -0.0052140378 1.3430002
-0.12477382 0.005063877 1.348143
-0.11575596 0.0042052446 1.3434287
-0.13127118 0.015374104 1.3490001
-0.12504937 0.014155649 1.3456253
-0.11812878 0.01334345 1.3430001
-0.13258521 0.026149116 1.3490001
-0.12482917 0.024729099 1.3433002
-0.1189137 0.021192539 1.3430001
0.053218048 0.029565584 1.3490001
-0.14414863 0.037449736 1.3490001
-0.13442685 0.035673145 1.3474003
-0.12621334 0.034614481 1.3430002
0.046122309 0.037843946 1.3490001
0.054400671 0.0354787 1.3490003
0.061496414 0.037252635 1.3490001
-0.1437732 0.043419171 1.3490001
-0.1347096 0.044903189 1.3478752
-0.12503599 0.044975273 1.3430003
0.028317209 0.048379727 1.3460001
0.035623703 0.045057338 1.3454002
0.045649257 0.043993585 1.3490001
0.054400671 0.044939686 1.3490003
0.060313791 0.045333892 1.3490001
-0.14191478 0.050852802 1.3490001
-0.13427052 0.054046627 1.3485717
-0.12494252 0.054221842 1.3445002
-0.11723175 0.055672467 1.3430002
0.027988752 0.053612258 1.3490001
0.034296077 0.050852802 1.3490001
0.053218048 0.050852802 1.3490001
-0.13346748 0.064706393 1.3490002
-0.12508453 0.064899631 1.3460004
-0.11714765 0.064166315 1.3430003
0.024835089 0.060313791 1.3490001
-0.13337363 0.07529369 1.3490001
-0.12515357 0.075561658 1.3467503
-0.11773633 0.075351253 1.3430002
0.005504882 0.078215905 1.3450001
0.012985712 0.074374817 1.3466001
-0.13274947 0.086035833 1.3490001
-0.12522261 0.085054189 1.3475002
-0.11702991 0.085005626 1.3430002
-0.0032410366 0.086388484 1.3452501
0.0028713339 0.083576515 1.3481429
-0.13316338 0.094373345 1.3490001
-0.12497703 0.094318904 1.3448753
-0.11708224 0.094319887 1.3430002
-0.0055057588 0.093613677 1.3460001
-0.1324538 0.10525347 1.3490001
-0.1251106 0.10504544 1.3463004
-0.115803 0.10520496 1.3433336
-0.10831743 0.10831743 1.3430001
-0.011826233 0.1017056 1.3490001
-0.13127118 0.11353184 1.3490001
-0.12472127 0.1152603 1.3490002
-0.11557821 0.11557558 1.3452502
-0.10517779 0.11577405 1.3430003
-0.095955111 0.11773634 1.3430001
-0.12282388 0.12485123 1.3490001
-0.11564462 0.12507929 1.3460003
-0.10478534 0.12480052 1.3430003
-0.094693653 0.1249687 1.3430003
-0.087124884 0.12656656 1.3430001
-0.12181021 0.13127118 1.3490001
-0.1152603 0.13418227 1.3490002
-0.10490552 0.1343722 1.3445004
-0.094189078 0.13421942 1.3430003
-0.085274749 0.1343876 1.3430003
-0.053135645 0.13816178 1.3470001
-0.048271898 0.13539678 1.3430001
-0.03885299 0.13068733 1.3430001
-0.09439946 0.14396444 1.3460003
-0.085008174 0.144044 1.3467501
-0.06593097 0.14518689 1.3464286
-0.056637049 0.1404192 1.3460001
-0.118305 -0.011474398 1.3540001
-0.12534426 -0.0047546015 1.3552501
-0.11988767 -0.0083090467 1.3540001
-0.15130652 0.0083397301 1.3590001
-0.14463475 0.0078631733 1.3590001
-0.13290547 0.0064203562 1.3560002
-0.12938373 0.0023740134 1.3540001
-0.15321276 0.014773237 1.3590001
-0.14578441 0.013947515 1.3582858
-0.13612376 0.0142649 1.3560834
-0.15236554 0.024754437 1.3590001
-0.14601107 0.025274575 1.3568125
-0.13724647 0.02386239 1.3549092
0.055525534 0.026246035 1.3540001
0.063464828 0.028159702 1.3573335
-0.15321805 0.036004063 1.3567275
-0.14498439 0.033066612 1.3540001
-0.13887978 0.032049179 1.3540001
0.063966475 0.035214532 1.3540001
0.072376944 0.036337398 1.3590001
-0.15421043 0.045056909 1.3575715
-0.14521049 0.046293262 1.3540001
0.04391925 0.046688929 1.3540001
0.064691864 0.044710588 1.3540001
0.072146513 0.044523798 1.3580002
-0.15279576 0.053910397 1.3590001
-0.14558041 0.054923769 1.3551539
-0.13887978 0.056976318 1.3540001
0.029675167 0.056976318 1.3540001
0.035718109 0.054926038 1.3540001
0.045217823 0.054566123 1.355
0.054771878 0.055111025 1.3540001
0.063342996 0.053415298 1.3540001
-0.15130652 0.064335063 1.3590001
-0.14548008 0.064165995 1.3554286
-0.13887978 0.064098358 1.3540001
0.027818035 0.062531233 1.3560002
0.034423191 0.060537338 1.3540001
0.045823585 0.061300695 1.3577502
0.053780537 0.06382443 1.3540001
-0.15130652 0.073866174 1.3590001
-0.14572792 0.075016096 1.3555627
-0.13729711 0.075045198 1.3540001
0.013664822 0.078415863 1.3552501
0.02025363 0.073866174 1.3590001
-0.14466339 0.085805096 1.3576365
-0.13752423 0.084655315 1.3552501
0.0061988123 0.086651482 1.3540001
0.013617264 0.086036943 1.3567779
0.02025363 0.089354247 1.3590001
-0.14415818 0.095311202 1.3590001
-0.1382594 0.095471628 1.3556668
-0.0026122914 0.095745496 1.3550001
0.0051608635 0.095027529 1.3577501
0.01270816 0.093325555 1.3590001
-0.14256968 0.10404807 1.3590001
-0.13746805 0.10379091 1.3556668
-0.011889791 0.10703004 1.3565001
-0.0083243884 0.10346464 1.3565001
-0.13452743 0.11434831 1.3540001
-0.12819672 0.11870067 1.3540001
-0.13224429 0.12033039 1.3590001
-0.12756465 0.12438907 1.3556668
-0.034550309 0.13224429 1.3590001
-0.12564825 -0.02034305 1.365
-0.14479464 -0.014599131 1.365
-0.13043486 -0.01076985 1.365
-0.12564825 -0.014359798 1.3649999
-0.15197454 -0.00119665 1.365
-0.14539298 -0.0041882745 1.3649999
-0.13214435 -0.0042737504 1.3649999
-0.12804155 -0.0071799001 1.365
-0.16154775 0.0083765499 1.365
-0.15547244 0.0050627496 1.3649999
-0.1449656 0.0039318497 1.3649999
-0.13624714 0.0035899505 1.3649999
-0.16154775 0.0143598 1.365
-0.15835668 0.013562034 1.3649999
-0.14000805 0.01076985 1.365
-0.16154775 0.021539699 1.365
-0.15763143 0.025347225 1.3649999
0.065815747 0.025927415 1.3650001
0.072995648 0.029916249 1.365
-0.16154775 0.03709615 1.3650001
-0.15867579 0.035181511 1.365
-0.1627444 0.045472696 1.3649999
-0.15915444 0.046669349 1.365
-0.1627444 0.052652597 1.365
-0.15765864 0.055943388 1.3649999
-0.16154775 0.064619094 1.365
-0.15676114 0.064619094 1.3649999
0.026326299 0.068209052 1.365
0.038292799 0.063422449 1.365
0.045605659 0.065549821 1.3649999
-0.16154775 0.0741923 1.365
-0.15676114 0.074192308 1.3649999
0.022138024 0.0741923 1.365
0.039489448 0.072995648 1.365
0.046669349 0.07060235 1.365
-0.15349756 0.084526993 1.3649999
-0.14958125 0.087355457 1.3650001
0.017949751 0.080175549 1.365
0.020941375 0.084962144 1.365
-0.15197454 0.095732003 1.365
-0.14958125 0.095732003 1.365
0.0023932999 0.099321947 1.365
0.013761476 0.095731996 1.365
-0.15197454 0.10171525 1.365
-0.14610009 0.10584914 1.3649999
-0.0059832502 0.1053052 1.365
0.0023932999 0.10171525 1.365
-0.14192268 0.11224576 1.365
-0.13761474 0.1172717 1.365
-0.14777094 -0.033173066 1.376
-0.15319926 -0.021713279 1.376
-0.14534725 -0.023290986 1.3740001
-0.13474126 -0.021654766 1.3722501
-0.12851056 -0.020417567 1.3700001
-0.16140205 -0.012786709 1.376
-0.15385395 -0.014207262 1.3731999
-0.14374593 -0.014320909 1.3716364
-0.13479629 -0.014657869 1.3704001
-0.16224645 -0.0048251734 1.3760002
-0.15533011 -0.0050877696 1.3718463
-0.14360929 -0.0053188619 1.37
-0.13661756 -0.0057049086 1.37
-0.1649771 0.004816758 1.3736001
-0.1585364 0.0012010334 1.3700001
-0.1405209 0.0012010334 1.3700001
-0.17008735 0.014475521 1.376
-0.16574262 0.014412401 1.37
-0.17008735 0.022919573 1.376
-0.16509512 0.024513179 1.3706
0.06472706 0.022490757 1.3708571
0.074243151 0.026082585 1.3733335
-0.17077665 0.036016472 1.3760002
-0.16532488 0.034264956 1.3715
0.074063726 0.031627212 1.3700002
-0.17129365 0.045839146 1.3760002
-0.16694364 0.045639265 1.3700001
-0.17056987 0.05476572 1.376
-0.1651421 0.056448571 1.37
-0.17008735 0.06152096 1.376
-0.16516823 0.064914718 1.3712001
0.034629799 0.066657357 1.37
0.044438232 0.066056833 1.3700002
-0.16505103 0.074173018 1.3720001
0.026046935 0.074939221 1.3713335
0.033797476 0.074056424 1.3707503
0.042836856 0.071661659 1.3700002
-0.16222505 0.083646275 1.3748
-0.1582962 0.08383213 1.3700001
0.0180155 0.085273363 1.3700002
0.024601521 0.082046233 1.3734286
0.031363625 0.080821656 1.376
-0.15639274 0.09503746 1.3722501
-0.15326911 0.10632184 1.3730001
-0.0027049549 0.10671137 1.3715001
0.0030144183 0.10483312 1.3745
-0.01293149 0.11458845 1.3722501
-0.00721935 0.11194069 1.3730001
-0.16415145 -0.052285273 1.3870001
-0.17387894 -0.04207141 1.3870001
-0.16536738 -0.044989649 1.3870004
-0.1570769 -0.043221019 1.3870001
-0.17485167 -0.033803042 1.3870003
-0.16514613 -0.034003817 1.3851252
-0.15509449 -0.033928864 1.3821251
-0.14770254 -0.032688271 1.381
-0.18117456 -0.027966544 1.3870001
-0.17485167 -0.024561921 1.3870003
-0.16483483 -0.024239836 1.3825002
-0.15569302 -0.025666345 1.3810002
-0.17387892 -0.01459124 1.3870001
-0.16592917 -0.015305724 1.3815455
-0.15859865 -0.018160149 1.381
-0.18117456 -0.0012159366 1.3870001
-0.17470334 -0.0046174033 1.3858001
-0.16724633 -0.0053615682 1.3809999
-0.18239048 0.0048637465 1.3870001
-0.17457838 0.0048482954 1.3828752
-0.16828406 0.0012106766 1.381
-0.18380906 0.01499655 1.3870001
-0.17586941 0.014555735 1.3835001
-0.18269446 0.024622718 1.3870001
-0.17547217 0.024534596 1.3833078
0.069308393 0.020670922 1.3870001
0.075718336 0.021657547 1.3835715
-0.18221678 0.034567345 1.3870001
-0.17603956 0.03457189 1.3819232
-0.18272209 0.044768572 1.3870001
-0.17675878 0.046005711 1.381
-0.18117456 0.055933088 1.3870001
-0.17611872 0.056131776 1.3837273
-0.17478575 0.065694422 1.3826002
-0.17217144 0.07472945 1.3844287
-0.16828406 0.078693986 1.381
-0.17144707 0.081467755 1.3870001
-0.16680461 0.085897647 1.3843335
-0.16295099 0.094211563 1.3836668
0.0048558563 0.10676835 1.3840001
0.0012106766 0.11017158 1.381
-0.18342847 -0.074760377 1.3980001
-0.1777091 -0.072309218 1.3980001
-0.18261142 -0.064955734 1.3980001
-0.1750351 -0.062950246 1.3979999
-0.16790445 -0.060053419 1.3980001
-0.18179438 -0.054334044 1.398
-0.17482005 -0.053795341 1.3945001
-0.16864821 -0.055402528 1.3920001
-0.1819111 -0.043595634 1.398
-0.17511591 -0.044541683 1.3920001
-0.19241606 -0.030639499 1.3980001
-0.18554389 -0.033718474 1.3950002
-0.17938703 -0.037829921 1.3920001
-0.19241606 -0.026962761 1.3980001
-0.18616475 -0.02421844 1.3952003
-0.17938703 -0.020745439 1.3920001
-0.19241606 -0.01470696 1.3980001
-0.18594332 -0.014680333 1.3953751
-0.17938703 -0.01464384 1.3920001
-0.19241606 -0.00122558 1.3980001
-0.18583582 -0.0048902966 1.3945715
-0.17938703 -0.0085422397 1.3920001
-0.19323312 0.005719373 1.3980001
-0.1880312 0.0048819375 1.3927501
-0.19333196 0.014681318 1.39575
-0.18853945 0.01342352 1.3920001
0.068436109 0.015883448 1.3940001
0.074134439 0.016169241 1.3920001
-0.19358078 0.025008293 1.3962858
-0.1876242 0.024101321 1.3920001
-0.19323312 0.033499185 1.3980001
-0.18761308 0.033780303 1.3926668
-0.19241606 0.044120878 1.3980001
-0.18845303 0.044187754 1.3945714
-0.18589103 0.055030115 1.3950001
-0.18452342 0.063276924 1.3970002
-0.18016025 0.074760377 1.3980001
-0.17720063 0.075772054 1.3940001
0.02318608 0.08664272 1.3920001
-0.19201103 -0.083697125 1.4040002
-0.18831852 -0.082466282 1.404
-0.1928902 -0.072971225 1.4040002
-0.1872635 -0.074377902 1.4040002
-0.17354845 -0.070157878 1.404
-0.19394518 -0.063652016 1.404
-0.18831852 -0.064003676 1.404
-0.17354845 -0.066465355 1.4040002
-0.1929957 -0.054895461 1.4040002
-0.1872635 -0.053629462 1.4040002
-0.19160075 -0.043899957 1.4040002
-0.18677996 -0.045233369 1.4040002
-0.20062692 -0.030771 1.404
-0.19549841 -0.035078939 1.4040002
-0.18831852 -0.03815604 1.404
-0.19619589 -0.024124464 1.4040002
-0.19619589 -0.014770078 1.4040002
-0.19549841 -0.0055387807 1.4040002
-0.19718057 0.0046771923 1.404
-0.20062692 0.014770079 1.404
-0.19816524 0.014770079 1.404
-0.20062692 0.0246168 1.404
-0.19718057 0.023878297 1.404
-0.20062692 0.030771 1.404
-0.19734468 0.03528408 1.4040002
-0.19652413 0.04348968 1.4040002
-0.19231874 0.053233832 1.4040002
-0.19078019 0.061542001 1.404
-0.1866774 0.066055082 1.4039999
-0.18380542 0.073029839 1.4040002
0.02584764 0.087389641 1.404
-0.19723685 -0.09055528 1.4150001
-0.20219879 -0.080631413 1.4150001
-0.19804063 -0.084168218 1.411875
-0.203693 -0.073959984 1.4138889
-0.19653988 -0.07485272 1.41
-0.2053778 -0.064334184 1.4112501
-0.1990121 -0.066749394 1.4100001
-0.20420049 -0.054452688 1.4116668
-0.197776 -0.053152304 1.41
-0.20420051 -0.044552203 1.4116668
-0.19703433 -0.044746816 1.41
-0.21212263 -0.033493049 1.4150001
-0.20563737 -0.034890752 1.4113333
-0.20537779 -0.024743916 1.41125
-0.20476867 -0.015017927 1.4107143
-0.2053778 -0.0049487832 1.41125
-0.20542355 0.0049490579 1.4115626
-0.1990121 0.0012361 1.4100001
-0.20667563 0.014850733 1.4116668
-0.20640598 0.024407595 1.4113636
-0.2041752 0.034648936 1.4115
-0.20285252 0.044038095 1.4121429
-0.1990121 0.046971798 1.4100001
-0.20219879 0.052100301 1.4150001
-0.1976434 0.055365887 1.41125
-0.1938836 0.063944064 1.4116668
-0.2062012 -0.091852754 1.4255
-0.21242037 -0.083316818 1.427
-0.20593387 -0.085117236 1.4220911
-0.2123359 -0.074946448 1.4247501
-0.20803912 -0.075990342 1.4210001
-0.2137024 -0.064082757 1.4222
-0.21389458 -0.054648638 1.4242308
-0.22142759 -0.042534113 1.427
-0.21455419 -0.044906918 1.422875
-0.22142759 -0.035028093 1.427
-0.21665092 -0.035344567 1.4230001
-0.22226159 -0.025020069 1.427
-0.21582043 -0.024949936 1.4230003
-0.22142759 -0.018765049 1.427
-0.21532471 -0.014807024 1.4244287
-0.21582043 -0.0049899868 1.4230002
-0.221928 0.0047538127 1.427
-0.21582043 0.0049899868 1.4230002
-0.22142759 0.012510033 1.427
-0.21597208 0.014982234 1.4240001
-0.21463497 0.024556311 1.4243335
-0.21195726 0.034148503 1.4250001
-0.20803913 0.038618043 1.4210001
-0.21141957 0.041283108 1.427
-0.20749795 0.044499893 1.423
-0.21352427 -0.095042065 1.4378
-0.20979598 -0.094219752 1.4330001
-0.21596186 -0.086382635 1.4350001
-0.22076659 -0.075270891 1.439
-0.21733356 -0.075375803 1.4330001
-0.22076659 -0.064337693 1.439
-0.21733356 -0.066581957 1.4330001
-0.22424079 -0.054171864 1.4369999
-0.21984608 -0.05653185 1.4330001
-0.22522683 -0.045295831 1.43525
-0.23085877 -0.031538084 1.439
-0.22636542 -0.035214823 1.4345001
-0.23085877 -0.025230467 1.439
-0.22654615 -0.025125267 1.4330001
-0.23085877 -0.017661326 1.439
-0.22544576 -0.014755493 1.4351821
-0.22510915 -0.0050316281 1.4345002
-0.22657886 0.0052135368 1.4347144
-0.22525607 0.015222343 1.4336668
-0.22325106 0.025007417 1.4364288
-0.21900856 0.02638153 1.4330001
-0.21661995 -0.10007589 1.4450001
-0.21661995 -0.096275531 1.4450001
-0.22168708 -0.082340918 1.4450001
-0.21915351 -0.089941613 1.4450001
-0.22168708 -0.077273786 1.4450001
-0.22358724 -0.065872729 1.4450001
-0.22738761 -0.056371856 1.4450001
-0.23182134 -0.043070633 1.4450001
-0.22928779 -0.048137769 1.4450001
-0.23245473 -0.035469934 1.4450001
-0.23435491 -0.027869234 1.4450001
-0.23266585 -0.014779138 1.4450001
-0.23182134 -0.0050671333 1.4450001
-0.23182134 0.0025335667 1.4450001
-0.23182134 0.013934617 1.4450001
-0.22928779 0.01900175 1.4450001
