# .PCD v0.7 - Point Cloud Data file format
VERSION 0.7
FIELDS x y z
SIZE 4 4 4
TYPE F F F
COUNT 1 1 1
WIDTH 1461
HEIGHT 1
VIEWPOINT 0 0 0 1 0 0 0
POINTS 1461
DATA ascii
-0.23701911 0.10904681 1.028
-0.28027734 0.11265167 1.028
-0.2748701 0.11252291 1.028
-0.26447141 0.1139688 1.028
-0.2552892 0.1139625 1.028
-0.24481718 0.11428403 1.0276666
-0.23713519 0.11517841 1.0276842
-0.2502445 -0.1410469 1.0380001
-0.24417795 -0.14135022 1.0380001
-0.23560001 -0.14205617 1.0369092
-0.22658503 -0.1410469 1.0380001
-0.21930517 -0.14286686 1.0380001
-0.26336643 -0.13324887 1.0371112
-0.25501168 -0.13561118 1.0339131
-0.24464843 -0.1361199 1.0325791
-0.2346137 -0.13518883 1.0326252
-0.22509222 -0.13524128 1.0353335
-0.2177452 -0.13246709 1.0380001
-0.28118381 -0.12102734 1.0380001
-0.27401388 -0.12342019 1.0355883
-0.26474524 -0.12508228 1.0331502
-0.25639021 -0.12503165 1.031
-0.24855691 -0.12021116 1.031
-0.23391549 -0.1246175 1.0330002
-0.22470102 -0.12518455 1.0341145
-0.21728204 -0.12482704 1.0365001
-0.28158674 -0.11379799 1.0368001
-0.2757816 -0.1160041 1.0319232
-0.22389892 -0.11874801 1.034
-0.21566527 -0.11875239 1.0380001
-0.20620148 -0.11520348 1.0380001
-0.32158691 -0.023113491 1.0380001
-0.31475249 -0.024045635 1.0378096
-0.30430186 -0.022451198 1.0353334
-0.2946893 -0.023140134 1.0361767
-0.28608939 -0.022317678 1.0360001
-0.27636477 -0.020909376 1.0370001
-0.26662415 -0.02092954 1.0380001
-0.24205467 -0.02092954 1.0380001
-0.23841476 -0.02092954 1.0380001
-0.3503423 -0.011829739 1.0380001
-0.34774235 -0.012869718 1.0380001
-0.3315967 -0.013467704 1.0380001
-0.324992 -0.014911185 1.0376523
-0.31540316 -0.015299131 1.0354817
-0.30513006 -0.015392162 1.0328002
-0.29471004 -0.015369017 1.0312001
-0.28435841 -0.015513038 1.0324485
-0.27467251 -0.015490261 1.034786
-0.26508456 -0.014723504 1.0353916
-0.25468227 -0.015283029 1.0344231
-0.24500977 -0.015488977 1.0344076
-0.23557097 -0.014409157 1.0354348
-0.22498226 -0.012359659 1.0375296
-0.21551359 -0.01182974 1.0380001
-0.2037431 -0.012336704 1.0368572
-0.19400585 -0.01448521 1.0358949
-0.18611829 -0.013742522 1.0368236
-0.17683946 -0.010616433 1.0380001
-0.35125229 -0.0081898198 1.0380001
-0.34769186 -0.0060612732 1.0373334
-0.33123273 -0.0045498996 1.0380001
-0.32487395 -0.0050949575 1.036261
-0.31535134 -0.0054120636 1.034086
-0.30473834 -0.0052224589 1.0336473
-0.29427645 -0.0056517343 1.0316564
-0.28484714 -0.0054263044 1.0315001
-0.27496731 -0.0054292697 1.0317501
-0.26495445 -0.0054271808 1.0315001
-0.25488389 -0.0054230615 1.0309998
-0.24494161 -0.0054230602 1.031
-0.23498438 -0.0058820504 1.0319376
-0.22511318 -0.004875253 1.0343752
-0.21477565 -0.0049363147 1.0340372
-0.2048137 -0.0054378901 1.0337502
-0.19479614 -0.0054359459 1.0335002
-0.18513384 -0.0051722294 1.0340003
-0.17462946 -0.0047375066 1.0355717
-0.16526452 -0.0028289065 1.0364445
-0.1592465 -0.00090997998 1.0380001
-0.34761235 0.00181996 1.0380001
-0.33062607 0.0039432463 1.0380001
-0.32494792 0.0043546343 1.036737
-0.31528705 0.0045998693 1.0358751
-0.30399913 0.0050599487 1.0343229
-0.29406473 0.0054285829 1.0321002
-0.28484839 0.0054273559 1.0315001
-0.27476841 0.0054230597 1.0309998
-0.26482618 0.0054230602 1.031
-0.25483072 0.0052635581 1.0309999
-0.24494161 0.0054230611 1.031
-0.23514891 0.0054278811 1.0316665
-0.22482926 0.0054391329 1.0341114
-0.21479335 0.0054372614 1.0338002
-0.20482969 0.005437233 1.0338336
-0.19489178 0.00543884 1.0340003
-0.18492058 0.00543884 1.0340003
-0.17494933 0.00543884 1.0340003
-0.1649781 0.0054388396 1.0340003
-0.15742654 0.0045499005 1.0380001
-0.32213292 0.01182974 1.0380001
-0.31339711 0.01182974 1.0380001
-0.30325395 0.014702112 1.0365883
-0.29468617 0.015641809 1.0357038
-0.28489804 0.015427749 1.0349617
-0.27472985 0.015194384 1.032741
-0.26498133 0.015375962 1.0316001
-0.25488389 0.015365334 1.031
-0.24505644 0.01537375 1.0314801
-0.23533721 0.01538769 1.0325001
-0.22500724 0.015426765 1.0349336
-0.21476066 0.015405314 1.0336403
-0.20472406 0.015401193 1.0333002
-0.19489178 0.015410047 1.0340003
-0.18490224 0.015408556 1.0339003
-0.17508499 0.015424212 1.0348002
-0.16508158 0.015419983 1.0346669
-0.1575336 0.014720265 1.0380001
-0.29028362 0.02092954 1.0380001
-0.28421709 0.021232866 1.0380001
-0.27454099 0.023295488 1.0380001
-0.26414347 0.024374545 1.0360001
-0.25426188 0.02487055 1.0346898
-0.24449056 0.024300227 1.0350373
-0.23431882 0.024801953 1.0349336
-0.22542351 0.023149457 1.0377779
-0.21521272 0.023393804 1.036737
-0.20449269 0.023406917 1.0362859
-0.19504368 0.024496241 1.0348002
-0.18501498 0.024489267 1.0345336
-0.17487743 0.024296442 1.0374287
-0.16461973 0.023876145 1.0380001
-0.15779053 0.021657523 1.0380001
-0.3230429 0.039129138 1.0380001
-0.31449953 0.037701923 1.0363334
-0.30516291 0.037754271 1.0360001
-0.29355958 0.038219161 1.0380001
-0.28415924 0.036056422 1.0341113
-0.27452242 0.036455981 1.0350455
-0.26443556 0.034976024 1.0373847
-0.25570437 0.033214271 1.0380001
-0.24464464 0.03282927 1.0380001
-0.23468331 0.033746578 1.0376002
-0.22840498 0.037309181 1.0380001
-0.20110558 0.03002934 1.0380001
-0.19473572 0.030939313 1.0380001
-0.18472596 0.030939316 1.0380001
-0.17603058 0.030838212 1.0380001
-0.16288643 0.03002934 1.0380001
-0.35307369 0.04654 1.0372728
-0.34541377 0.046454415 1.0355654
-0.33537513 0.046092432 1.0341541
-0.32601795 0.045286395 1.0324401
-0.3152644 0.042142771 1.0316001
-0.30410907 0.042255394 1.0314001
-0.29504687 0.041866336 1.032091
-0.28403276 0.041350834 1.031
-0.27476838 0.040974233 1.031
-0.26406729 0.041840401 1.0323848
-0.2550354 0.043740969 1.0356364
-0.24473695 0.044227608 1.034158
-0.23514304 0.045133617 1.034182
-0.22515543 0.046439983 1.0344288
-0.21555187 0.048588082 1.0360001
-0.20667592 0.049856033 1.034
-0.35443905 0.054417871 1.0370477
-0.34488583 0.055217449 1.0325602
-0.33552185 0.055167783 1.0316001
-0.32581875 0.055469185 1.031
-0.3151831 0.057071242 1.031
-0.23228775 0.053326756 1.031
-0.22573487 0.052422911 1.031
-0.21428747 0.05198973 1.0313751
-0.20419297 0.054203734 1.0326401
-0.19571267 0.055934764 1.034308
-0.18571483 0.058791019 1.0362858
-0.17926607 0.059148699 1.0380001
-0.35282037 0.06336917 1.0375557
-0.34564117 0.063607514 1.0356843
-0.33521554 0.064128689 1.0356299
-0.32522216 0.064200424 1.0338336
-0.31467104 0.065003812 1.0318571
-0.30498809 0.066216342 1.031
-0.29540613 0.068541445 1.031
-0.28832603 0.069595933 1.031
-0.23198645 0.066733763 1.031
-0.22722621 0.068872854 1.031
-0.20284827 0.064947598 1.031
-0.19620936 0.06394691 1.031
-0.18487865 0.064941913 1.0322942
-0.17554191 0.06637945 1.0353105
-0.16659166 0.067499392 1.0370001
-0.33305269 0.070068456 1.0380001
-0.32445842 0.070877329 1.0380001
-0.31507456 0.073634498 1.0369334
-0.30455685 0.074751362 1.034381
-0.29461583 0.074901022 1.0320002
-0.28486818 0.076009214 1.0315715
-0.27436015 0.076095536 1.0315715
-0.26503226 0.076887704 1.0318002
-0.25509235 0.077382892 1.031
-0.24614663 0.078031808 1.031
-0.23293865 0.075484715 1.0315294
-0.22513622 0.075046457 1.0313601
-0.21497202 0.076636404 1.031
-0.20497753 0.075344831 1.0314801
-0.19529116 0.075043507 1.0313215
-0.18500367 0.075270109 1.0316668
-0.1753386 0.074870266 1.0341038
-0.16610344 0.074610844 1.0370002
-0.30120337 0.080988221 1.0380001
-0.29449373 0.081986576 1.0368
-0.28456938 0.083338 1.0352728
-0.27444777 0.084385224 1.0367602
-0.26545671 0.08439815 1.0370001
-0.25494438 0.083919019 1.0335001
-0.24465688 0.084223866 1.032154
-0.23498978 0.084319972 1.0341668
-0.22489654 0.083929747 1.0353849
-0.21492542 0.084341966 1.0344402
-0.20506351 0.084527031 1.0345808
-0.19497094 0.084570654 1.0355387
-0.18525799 0.083683148 1.0352802
-0.17473754 0.08332523 1.0361819
-0.1683463 0.080988221 1.0380001
-0.31576306 0.099187821 1.0380001
-0.30241668 0.098581165 1.0380001
-0.29665348 0.099187821 1.0380001
-0.28436875 0.099187821 1.0380001
-0.27416399 0.097887859 1.0380001
-0.26571417 0.094637915 1.0380001
-0.24374463 0.090867996 1.0380001
-0.23841476 0.090088017 1.0380001
-0.21238932 0.090452008 1.0380001
-0.20429052 0.090997994 1.0380001
-0.19564569 0.090543009 1.0380001
-0.32223403 0.10424326 1.0380001
-0.31501347 0.10508939 1.035524
-0.30447692 0.10509079 1.0327859
-0.29487818 0.10492206 1.031484
-0.28563526 0.10393933 1.0318573
-0.27472723 0.10182942 1.032154
-0.26476783 0.10187206 1.0322858
-0.25483271 0.1031104 1.0332502
-0.24478573 0.10564973 1.03225
-0.23484421 0.10637923 1.0339547
-0.22537768 0.1081226 1.035412
-0.21579289 0.10862217 1.036
-0.3230429 0.11010758 1.0380001
-0.31444865 0.11263529 1.0380001
-0.30458578 0.11407214 1.0348423
-0.29456449 0.11475173 1.0324446
-0.28531691 0.11508156 1.0314091
-0.27483791 0.11729105 1.031
-0.26753762 0.11840348 1.031
-0.25307614 0.11840348 1.031
-0.24674922 0.11840348 1.031
-0.23233277 0.11480965 1.0312001
-0.22505699 0.11478808 1.031
-0.21496153 0.11454625 1.0319064
-0.20562927 0.1150841 1.0342859
-0.19867897 0.11860073 1.0380001
-0.29262355 0.12180733 1.0380001
-0.28373024 0.1221191 1.0356668
-0.27427843 0.12273739 1.0351251
-0.26452485 0.12386287 1.0340002
-0.25502294 0.1240974 1.0337243
-0.24522911 0.12424301 1.0331668
-0.23495945 0.12483919 1.0331726
-0.22495641 0.12424903 1.0339261
-0.21474473 0.12439644 1.0327002
-0.20489173 0.124552 1.0329093
-0.19672285 0.12414952 1.0363531
-0.2411447 0.13012713 1.0380001
-0.23477487 0.13073379 1.0380001
-0.22476506 0.13012713 1.0380001
-0.2147553 0.13194709 1.0380001
-0.20429051 0.13058212 1.0380001
-0.19746566 0.13012713 1.0380001
-0.24127752 -0.15079762 1.0425
-0.23589259 -0.15144855 1.0470001
-0.27352524 -0.14165793 1.0470001
-0.26454669 -0.14446089 1.0432175
-0.25503293 -0.14534432 1.0426959
-0.24531235 -0.14642361 1.0417143
-0.23477283 -0.14674394 1.0434706
-0.22595091 -0.14542392 1.0425792
-0.2157325 -0.14146881 1.0439999
-0.28178608 -0.1312554 1.0470001
-0.27483684 -0.13403192 1.0443002
-0.26669315 -0.1365986 1.041375
-0.21467058 -0.13534451 1.0431252
-0.20589356 -0.13387865 1.0450437
-0.19825992 -0.1312554 1.0470001
-0.29188263 -0.12024097 1.0470001
-0.28381228 -0.12459472 1.04375
-0.27596706 -0.12800172 1.0418571
-0.21263814 -0.12502755 1.0410001
-0.20483394 -0.1252805 1.0431002
-0.19604559 -0.12440895 1.0464785
-0.18999909 -0.12391245 1.0470001
-0.29372686 -0.11429882 1.0447896
-0.28671485 -0.11505248 1.0415626
-0.21263814 -0.11955192 1.041
-0.20352918 -0.11674945 1.0425791
-0.19554651 -0.11471421 1.0444287
-0.18969314 -0.11412183 1.0470001
-0.30197921 -0.10167959 1.0470001
-0.29545462 -0.10553767 1.0448333
-0.28716794 -0.10799217 1.041
-0.20101354 -0.10922653 1.0470001
-0.19431046 -0.10586065 1.0455
-0.18868785 -0.10411268 1.0470001
-0.3028971 -0.098212086 1.0470001
-0.19183482 -0.098212086 1.0470001
-0.18701603 -0.094884805 1.0470001
-0.31115794 -0.041304149 1.0470001
-0.34144765 -0.03028971 1.0470001
-0.33408082 -0.032560453 1.0451999
-0.32495341 -0.032826785 1.0441431
-0.31460342 -0.034534696 1.0444841
-0.3048808 -0.03474674 1.0445627
-0.294752 -0.033764392 1.0447243
-0.2867564 -0.032662373 1.0460769
-0.27995035 -0.03028971 1.0470001
-0.25424999 -0.03028971 1.0470001
-0.24323554 -0.03028971 1.0470001
-0.23451579 -0.03028971 1.0470001
-0.2019314 -0.03028971 1.0470001
-0.19397652 -0.03090162 1.0470001
-0.18510379 -0.032247834 1.0470001
-0.17531316 -0.03028971 1.0470001
-0.16797021 -0.03028971 1.0470001
-0.35310379 -0.022227444 1.0455
-0.34497634 -0.024228515 1.0445457
-0.33547029 -0.024682334 1.0426801
-0.32580179 -0.025037257 1.0410002
-0.31412035 -0.027195778 1.041
-0.30502233 -0.027167695 1.0410001
-0.29545748 -0.027606452 1.041
-0.28437546 -0.026307013 1.0426668
-0.27501798 -0.024612097 1.0436844
-0.26476762 -0.024496933 1.0436542
-0.25505584 -0.024849351 1.0436541
-0.24526188 -0.02498115 1.0433079
-0.2348493 -0.025008565 1.0440003
-0.22512349 -0.024602465 1.044621
-0.21475765 -0.024766995 1.0462503
-0.20452426 -0.024463519 1.0458003
-0.195059 -0.024729677 1.0446002
-0.18503638 -0.024736812 1.0449003
-0.17521206 -0.024770178 1.0464003
-0.16584505 -0.024086526 1.0466253
-0.15879151 -0.02202888 1.0470001
-0.36241025 -0.013501668 1.0465714
-0.35540015 -0.014550978 1.0421541
-0.34408838 -0.015012764 1.0411037
-0.33611423 -0.015149323 1.0410001
-0.32945222 -0.0182522 1.041
-0.26410931 -0.01916481 1.041
-0.23362815 -0.0182522 1.041
-0.22513387 -0.017620392 1.0410001
-0.21545199 -0.016842898 1.0424287
-0.20564842 -0.016887233 1.0425791
-0.19666746 -0.018024048 1.041
-0.18327458 -0.016790729 1.0416924
-0.17489909 -0.015289277 1.0426553
-0.16472794 -0.01464479 1.0439168
-0.15638337 -0.014034601 1.0462501
-0.36529633 -0.003972928 1.0455716
-0.35524338 -0.0042456202 1.0410002
-0.3439779 -0.004182796 1.0410002
-0.33675307 -0.0045630499 1.0410001
-0.16402376 -0.0073919739 1.0420909
-0.15523456 -0.0043678218 1.0440003
-0.14961281 -0.00091786997 1.0470001
-0.3656396 0.0043469318 1.0462177
-0.35541722 0.0045693619 1.0422002
-0.34467193 0.0049898177 1.041808
-0.33603594 0.0047564236 1.0411581
-0.32853961 0.0082134902 1.041
-0.1525505 0.0045674327 1.0420001
-0.14623012 0.0055001192 1.0458001
-0.36271164 0.014685921 1.0470001
-0.35524058 0.014550556 1.0452189
-0.3452262 0.013824965 1.0454402
-0.33518681 0.014364591 1.0426073
-0.32525423 0.015149326 1.0410002
-0.31512424 0.015970675 1.0410001
-0.30836076 0.01632558 1.041
-0.15275815 0.014473305 1.0421054
-0.14465307 0.014647203 1.0443333
-0.13749692 0.016338086 1.0470001
-0.34144765 0.02202888 1.0470001
-0.33380744 0.024099216 1.0452001
-0.32450256 0.024682123 1.0426803
-0.31467411 0.024784001 1.0411156
-0.30477411 0.024525469 1.041414
-0.2952804 0.024824575 1.0422503
-0.28506622 0.025801975 1.0410002
-0.27443486 0.027508674 1.041
-0.26921993 0.028290911 1.041
-0.22450204 0.027378298 1.041
-0.21486896 0.027682504 1.041
-0.20685828 0.027682504 1.041
-0.17157069 0.028290911 1.041
-0.16563872 0.028290911 1.041
-0.15471554 0.025256209 1.0423201
-0.1448682 0.024757503 1.0459003
-0.13704506 0.024358857 1.0470001
-0.35053691 0.039355319 1.044
-0.34378716 0.037397787 1.0444615
-0.33428666 0.035408426 1.0442402
-0.32503548 0.03421104 1.0422225
-0.31515464 0.032549754 1.0410001
-0.30460581 0.032829605 1.041522
-0.2954106 0.033179078 1.0417144
-0.28438333 0.031239344 1.0410001
-0.27436373 0.031277638 1.0410001
-0.26648208 0.033766568 1.041
-0.2539663 0.036895514 1.0410001
-0.24501178 0.036072105 1.0410001
-0.23454078 0.036012996 1.0410001
-0.22467093 0.034760632 1.0417944
-0.21523809 0.034628708 1.0439035
-0.20556003 0.035142485 1.0433229
-0.19518948 0.036398001 1.0426364
-0.18486829 0.036689986 1.0428262
-0.17447037 0.03581129 1.0428751
-0.16486026 0.035103403 1.0428182
-0.15497431 0.034544796 1.0437189
-0.14578429 0.034006838 1.0463575
-0.13798645 0.032431405 1.0470001
-0.36108935 0.047759924 1.041
-0.35551858 0.044173043 1.0424999
-0.34473842 0.041980058 1.041
-0.33492786 0.041067451 1.041
-0.25188035 0.041067451 1.041
-0.24640471 0.041067451 1.041
-0.2238013 0.041918691 1.0420001
-0.214816 0.044005532 1.0427145
-0.20487514 0.044814598 1.0433003
-0.19494528 0.04484655 1.0440001
-0.18517713 0.044921014 1.0457003
-0.17515306 0.044937123 1.0460403
-0.16546147 0.04470915 1.0468932
-0.1567263 0.042451486 1.0470001
-0.14961281 0.041304149 1.0470001
-0.37234926 0.056601983 1.0470001
-0.36404663 0.055311725 1.0421542
-0.35865572 0.058407038 1.041
-0.19380908 0.051764101 1.0419999
-0.18483807 0.053723011 1.0437858
-0.17521399 0.055070322 1.0453552
-0.16797023 0.055255763 1.0470001
-0.36425054 0.06412778 1.0449375
-0.35694477 0.066134378 1.0421538
-0.34483624 0.067663506 1.041
-0.33857831 0.06844575 1.041
-0.17289783 0.062351707 1.042125
-0.16426282 0.06464158 1.04445
-0.15787363 0.06884025 1.0470001
-0.3607229 0.070675991 1.0470001
-0.35404533 0.071543239 1.04625
-0.34473303 0.07235074 1.0446428
-0.33493379 0.075311325 1.0433335
-0.32546315 0.076528125 1.0421429
-0.31509981 0.078256376 1.0412728
-0.30754957 0.079397067 1.041
-0.16141887 0.075342923 1.0417501
-0.15626313 0.075777322 1.0442225
-0.33318681 0.081690431 1.0470001
-0.32394308 0.083814956 1.046
-0.31466466 0.08509659 1.0445771
-0.30468538 0.085119613 1.0421253
-0.29515627 0.086864762 1.0414287
-0.28473431 0.088523172 1.041
-0.27834606 0.087610558 1.041
-0.26191908 0.088523172 1.041
-0.25461817 0.088523172 1.041
-0.22450206 0.088523172 1.041
-0.18448201 0.088586949 1.04175
-0.17430852 0.088066861 1.041
-0.16457713 0.085217543 1.0418892
-0.15515958 0.085028782 1.0445558
-0.1490009 0.085973822 1.0470001
-0.324743 0.09767177 1.0449375
-0.31469539 0.096180677 1.0441201
-0.30492041 0.094526447 1.0437696
-0.29464489 0.094324693 1.042552
-0.28454262 0.094385445 1.0411037
-0.27484772 0.094150931 1.0410002
-0.26413539 0.094911434 1.0410002
-0.25461823 0.094911441 1.0410002
-0.24477504 0.096019603 1.0410002
-0.23439404 0.09533792 1.0431565
-0.22512139 0.095057897 1.0443107
-0.215461 0.095564157 1.0425558
-0.20522016 0.096869186 1.0428261
-0.19501103 0.096067019 1.0428464
-0.18500048 0.094466031 1.0441937
-0.17493056 0.09433873 1.0447202
-0.16486874 0.0943444 1.0448003
-0.15595257 0.093228742 1.0464375
-0.148389 0.091481037 1.0470001
-0.34504947 0.10637034 1.0466
-0.33491018 0.10441626 1.0436002
-0.32653186 0.1053152 1.0410001
-0.31439415 0.10129971 1.041
-0.30846217 0.10129971 1.041
-0.26009384 0.10129971 1.041
-0.25340137 0.10190812 1.041
-0.24451862 0.10275991 1.0410001
-0.23413518 0.10211091 1.041
-0.22505109 0.10310034 1.04355
-0.21504949 0.10448954 1.0430455
-0.20530526 0.10540312 1.0455003
-0.1953706 0.10548373 1.0462803
-0.18693954 0.10261787 1.0470001
-0.17462476 0.10073624 1.0470001
-0.16510187 0.10176882 1.0470001
-0.15879151 0.10004783 1.0470001
-0.34403777 0.11162114 1.0465001
-0.33455968 0.11310317 1.0448824
-0.32464501 0.11460288 1.0424401
-0.31551275 0.11851569 1.042091
-0.30633277 0.1192477 1.041
-0.20244952 0.11257295 1.044
-0.1951724 0.11529386 1.0449003
-0.18952307 0.11760203 1.0464
-0.32400811 0.12115885 1.0470001
-0.31400454 0.12305363 1.0453635
-0.30420989 0.12433223 1.0445
-0.29510674 0.1263393 1.0429412
-0.28522876 0.12721947 1.0418572
-0.27532339 0.12761995 1.0413001
-0.26830733 0.12867801 1.041
-0.19236445 0.12550297 1.0414616
-0.18580666 0.12568393 1.0459288
-0.17898464 0.12941967 1.0470001
-0.29463628 0.1312554 1.0470001
-0.28475201 0.13225268 1.0456363
-0.27552125 0.13455909 1.0441202
-0.26531735 0.13449207 1.0436003
-0.25508907 0.13440549 1.0429202
-0.24554081 0.13478349 1.0432224
-0.2346483 0.13523585 1.044353
-0.22528417 0.13529761 1.0444287
-0.2153637 0.13656501 1.0436
-0.20454369 0.13542324 1.0437274
-0.19510771 0.13460696 1.0444803
-0.18611157 0.13387528 1.0462859
-0.25333214 0.14043412 1.0470001
-0.24874277 0.14043412 1.0470001
-0.23130324 0.14043412 1.0470001
-0.22426625 0.14043412 1.0470001
-0.21294585 0.14043412 1.0470001
-0.204685 0.14043412 1.0470001
-0.19734205 0.14043412 1.0470001
-0.28274602 -0.14137302 1.054
-0.27900615 -0.14242385 1.0526667
-0.29446334 -0.13148904 1.0562501
-0.28552645 -0.13542359 1.0530002
-0.2789115 -0.13807499 1.0500001
-0.1997485 -0.1334725 1.0500001
-0.30210748 -0.12189231 1.0560001
-0.29531908 -0.12526269 1.0542631
-0.28737894 -0.12772392 1.0506667
-0.19215438 -0.12587838 1.0500001
-0.18621445 -0.12309796 1.0526
-0.30232552 -0.11423887 1.053
-0.298242 -0.1169035 1.0500001
-0.18461697 -0.11528274 1.0546155
-0.17738473 -0.11437345 1.057
-0.31198111 -0.10276111 1.0560001
-0.30544725 -0.10611621 1.0515556
-0.18399917 -0.10490014 1.0527143
-0.17714204 -0.10486438 1.057
-0.32154292 -0.091737032 1.057
-0.31427827 -0.094453633 1.0568421
-0.30791104 -0.09592896 1.0533334
-0.18206038 -0.095574699 1.0511429
-0.17586236 -0.094771765 1.0552223
-0.31579778 -0.089142434 1.057
-0.18207958 -0.088115714 1.0531111
-0.17467947 -0.086090282 1.0559499
-0.34192893 -0.051428333 1.057
-0.33482471 -0.051273894 1.057
-0.3245545 -0.05165999 1.057
-0.31482485 -0.05270246 1.057
-0.30795226 -0.051582772 1.057
-0.35212195 -0.04169865 1.057
-0.3439675 -0.045034539 1.0569999
-0.33502913 -0.045145292 1.0549999
-0.32537147 -0.045295574 1.0543931
-0.31486553 -0.045393765 1.0532691
-0.30473232 -0.045113657 1.0548887
-0.29471046 -0.044774134 1.05515
-0.28524792 -0.044116206 1.0556666
-0.27521107 -0.043551918 1.057
-0.26647422 -0.042228155 1.057
-0.25482506 -0.04169865 1.057
-0.24741198 -0.04169865 1.057
-0.21590634 -0.04169865 1.057
-0.2016979 -0.042316407 1.057
-0.19512321 -0.043551918 1.057
-0.18592285 -0.044281401 1.0567
-0.17636985 -0.04169865 1.057
-0.35295653 -0.033904944 1.0541053
-0.34509453 -0.035638146 1.0534586
-0.33518916 -0.037904777 1.0506155
-0.32521704 -0.038423661 1.0503637
-0.31941348 -0.0395815 1.0500001
-0.30284449 -0.0395815 1.0500001
-0.29548052 -0.0395815 1.0500001
-0.28444293 -0.036532294 1.0512729
-0.27534717 -0.035080593 1.0529413
-0.26500914 -0.035110831 1.05375
-0.25500765 -0.035240483 1.0539335
-0.24524395 -0.03541334 1.0535924
-0.23501019 -0.034899704 1.0543751
-0.22489628 -0.034521323 1.053857
-0.21529062 -0.034769308 1.0545999
-0.20498247 -0.035168849 1.0544814
-0.19524702 -0.036245562 1.052913
-0.18512805 -0.036988124 1.0517777
-0.17493726 -0.035534937 1.0526426
-0.1651983 -0.034447487 1.0547085
-0.15762256 -0.031673618 1.0564001
-0.36313462 -0.021868156 1.054
-0.35543144 -0.026221419 1.0510911
-0.347949 -0.0285355 1.0500001
-0.27522948 -0.0285355 1.0500001
-0.26970649 -0.0285355 1.0500001
-0.2163175 -0.0285355 1.0500001
-0.2089535 -0.0285355 1.0500001
-0.16303077 -0.027633118 1.0506668
-0.15536715 -0.024599893 1.0540476
-0.14563641 -0.023011476 1.057
-0.37231967 -0.013293423 1.0527999
-0.3668564 -0.015306016 1.0516001
-0.15201794 -0.015559079 1.0517501
-0.14558788 -0.014963639 1.0563684
-0.38207674 -0.0023100167 1.054
-0.37560952 -0.0046990174 1.0517144
-0.3682 -0.0082844999 1.0500001
-0.15063833 -0.0060865209 1.0516001
-0.14504875 -0.0044361176 1.056
-0.13992214 -0.00092663668 1.057
-0.38177431 0.00092663668 1.057
-0.37485901 0.0046141888 1.0526667
-0.14322881 0.0029963371 1.0523751
-0.13684483 0.0058605894 1.0559168
-0.12787586 0.0046331831 1.057
-0.3736209 0.014252159 1.0537857
-0.36752498 0.015280303 1.0500001
-0.34725863 0.017719625 1.0500001
-0.13380788 0.014101809 1.0526667
-0.12834941 0.016349101 1.0558335
-0.37200707 0.024778824 1.0539091
-0.364981 0.024983399 1.0519133
-0.35434183 0.024706861 1.0508482
-0.34489208 0.025556587 1.0505002
-0.33855987 0.027430901 1.0500001
-0.13301225 0.025313752 1.0500001
-0.12881616 0.024913464 1.0526001
-0.37158129 0.03057901 1.057
-0.36441708 0.031559806 1.0553334
-0.35431531 0.034312502 1.0521333
-0.34490433 0.032401599 1.051
-0.33892807 0.031849302 1.0500001
-0.14251442 0.037989471 1.0505002
-0.13411851 0.035505168 1.0528847
-0.12832558 0.0349207 1.0550001
-0.36128661 0.043428313 1.054
-0.35783607 0.041501403 1.052
-0.16200799 0.048786499 1.0500001
-0.15428212 0.0462045 1.0519502
-0.1451322 0.045221638 1.0544782
-0.13551551 0.045225233 1.0563749
-0.12880249 0.04169865 1.057
-0.37559733 0.058136445 1.0526667
-0.1702925 0.054309499 1.0500001
-0.1646678 0.055043265 1.0508332
-0.15528527 0.054603182 1.0556397
-0.14555918 0.054517116 1.0569998
-0.13792631 0.053531084 1.057
-0.38172111 0.068815999 1.0560001
-0.37553844 0.065281577 1.0525002
-0.36838409 0.067564704 1.0500001
-0.16277508 0.06132897 1.052
-0.15536734 0.064551286 1.0554231
-0.14795299 0.063937932 1.057
-0.37322566 0.073880576 1.0552857
-0.36506963 0.075179681 1.0524763
-0.35537365 0.076122999 1.0514736
-0.34597731 0.07694231 1.0517778
-0.15260014 0.074104965 1.053375
-0.1491885 0.07413093 1.057
-0.36410406 0.08331506 1.0552353
-0.3551293 0.084199205 1.0545
-0.34467274 0.085033543 1.05564
-0.33510897 0.086111233 1.05275
-0.32609835 0.088303521 1.0504446
-0.15004151 0.080083497 1.0500001
-0.14574897 0.085536756 1.053
-0.13859837 0.088030472 1.057
-0.35165864 0.095906898 1.057
-0.34119302 0.095144443 1.056
-0.33495748 0.095227003 1.0536667
-0.32485232 0.093020596 1.0505716
-0.31389049 0.092049994 1.0500001
-0.1534318 0.096955031 1.0514545
-0.14593482 0.095310032 1.0543334
-0.1389955 0.093590312 1.057
-0.36128661 0.10810878 1.054
-0.35476145 0.10615985 1.0520002
-0.34677607 0.10358234 1.0513847
-0.33966449 0.1003345 1.0500001
-0.18447229 0.10686158 1.0503809
-0.17513804 0.10638278 1.0507997
-0.16501637 0.10729055 1.0508001
-0.15590446 0.10415833 1.0541999
-0.14779855 0.10146672 1.057
-0.36197218 0.11201521 1.0560001
-0.35418546 0.11495876 1.0528636
-0.34521529 0.11645876 1.0521876
-0.33624551 0.1179555 1.0500001
-0.1905435 0.112301 1.0500001
-0.18445513 0.11528023 1.0526297
-0.17457423 0.11575357 1.0562856
-0.16578804 0.11474665 1.0565
-0.15845487 0.11026976 1.057
-0.3534742 0.12121714 1.0555
-0.34385306 0.12281175 1.0561819
-0.33476245 0.12456226 1.0545909
-0.3255201 0.12605469 1.0533751
-0.31538513 0.1272396 1.050889
-0.30529919 0.12887001 1.0500001
-0.18223409 0.1222908 1.052
-0.17600556 0.12535396 1.0553125
-0.33266255 0.13065577 1.057
-0.3245545 0.13135074 1.057
-0.3143743 0.1327168 1.0558751
-0.30437398 0.13444224 1.0541766
-0.29511452 0.13665535 1.0528421
-0.28624132 0.13728689 1.0510001
-0.23564799 0.1389955 1.0500001
-0.18415514 0.13768131 1.050889
-0.17556705 0.13547091 1.0532857
-0.16895676 0.13806885 1.057
-0.29304886 0.14247039 1.057
-0.28520289 0.14260146 1.0562501
-0.27434856 0.14163056 1.0513334
-0.26407987 0.14332691 1.0537857
-0.25505954 0.14555548 1.0541501
-0.24487025 0.14442135 1.0533478
-0.23466215 0.1454778 1.0557272
-0.2248226 0.14547518 1.0537145
-0.21548848 0.14500988 1.0541364
-0.205038 0.14604592 1.0546669
-0.19540139 0.14498717 1.0547894
-0.18495792 0.14466044 1.056143
-0.17531519 0.14394642 1.0561175
-0.16864789 0.14270204 1.057
-0.23073253 0.15104178 1.057
-0.22517271 0.15104178 1.057
-0.30095339 -0.13417864 1.0628334
-0.29494923 -0.13511536 1.0600001
-0.3103216 -0.12021467 1.0630001
-0.30353159 -0.12559827 1.06125
-0.31318241 -0.11468972 1.0649232
-0.30655923 -0.11730684 1.0603001
-0.17253384 -0.11202826 1.0600001
-0.16810258 -0.11154998 1.0633334
-0.32084334 -0.10195896 1.067
-0.31542596 -0.10587742 1.0636363
-0.17246488 -0.105187 1.060706
-0.1669383 -0.10632417 1.0670002
-0.32205415 -0.093895383 1.0604286
-0.31686381 -0.096565172 1.0612
-0.17079921 -0.095528603 1.0600002
-0.1675088 -0.09410096 1.0645001
-0.32364923 -0.084604278 1.0639287
-0.31604373 -0.08483386 1.0634445
-0.181207 -0.084563263 1.0600001
-0.17348109 -0.082725532 1.0602728
-0.1659622 -0.084577575 1.0626316
-0.32389572 -0.074389167 1.067
-0.31553021 -0.074720018 1.0669999
-0.30577841 -0.072518378 1.067
-0.17273952 -0.076792963 1.0633079
-0.16627635 -0.075504892 1.0633683
-0.33183435 -0.062438168 1.067
-0.32455105 -0.064646401 1.0657142
-0.31461996 -0.064480163 1.0628332
-0.30467159 -0.06448707 1.0660665
-0.29685891 -0.064633563 1.0684999
-0.20204711 -0.060801215 1.067
-0.19509931 -0.064653598 1.0680385
-0.18758561 -0.061386827 1.0663334
-0.16696949 -0.063139722 1.067
-0.34104085 -0.0529682 1.0600001
-0.33428451 -0.055564258 1.0638572
-0.32518709 -0.056305211 1.0610589
-0.31436613 -0.057294957 1.0606925
-0.30421117 -0.055300817 1.0624073
-0.29551286 -0.054390106 1.0645908
-0.28568003 -0.05202793 1.0661112
-0.27462402 -0.054424696 1.0685
-0.26508549 -0.055179477 1.0685
-0.25625551 -0.053967115 1.0684999
-0.24975269 -0.051447183 1.067
-0.2145085 -0.053864591 1.0685
-0.20418318 -0.054281943 1.0665789
-0.19466694 -0.054956943 1.0624399
-0.1847378 -0.054952879 1.0623928
-0.17494538 -0.054190475 1.066619
-0.16546366 -0.05494903 1.0653332
-0.15808316 -0.051914886 1.067
-0.34624475 -0.045905776 1.0600001
-0.29457754 -0.049251132 1.0600001
-0.28448838 -0.048720125 1.0600001
-0.27506277 -0.048171356 1.0613847
-0.26493567 -0.046438001 1.0614998
-0.25569543 -0.046749819 1.0636522
-0.24524091 -0.045887817 1.0646399
-0.23415194 -0.044108972 1.0651177
-0.22451086 -0.045530599 1.0633749
-0.21499014 -0.046076559 1.0641153
-0.20580053 -0.045799389 1.0617499
-0.19607528 -0.048012111 1.0600002
-0.18376249 -0.048321869 1.0600001
-0.17464854 -0.045999646 1.061148
-0.16488935 -0.045474686 1.0635768
-0.15683761 -0.045013294 1.066826
-0.14872913 -0.04209315 1.067
-0.36154553 -0.032587454 1.0620002
-0.35776767 -0.034382865 1.0600001
-0.23510447 -0.039958466 1.0600001
-0.22705083 -0.039958466 1.0600001
-0.21280207 -0.039958466 1.0600001
-0.20536794 -0.039958466 1.0600001
-0.16417044 -0.039338954 1.0600001
-0.15500563 -0.034595571 1.0634737
-0.14685832 -0.030868312 1.067
-0.37322593 -0.021514276 1.067
-0.36488569 -0.025832735 1.061154
-0.15208997 -0.028187754 1.0600001
-0.1458751 -0.027485253 1.0610909
-0.37569001 -0.014879445 1.06075
-0.14116405 -0.014614832 1.0600002
-0.13722695 -0.012628862 1.0635456
-0.14069098 -0.0061331601 1.0600001
-0.13504045 -0.004497482 1.0611249
-0.12953363 -0.0018637934 1.0630001
-0.3900632 0.0084186299 1.067
-0.38466334 0.0053778617 1.0615555
-0.13377716 0.0032835838 1.0602002
-0.12804973 0.0046513015 1.061
-0.3900632 0.01403105 1.067
-0.38385615 0.014906182 1.06275
-0.37821153 0.016726799 1.0600001
-0.12597877 0.014450315 1.0635
-0.38407525 0.024881162 1.0642221
-0.37764838 0.025797343 1.0603751
-0.12308603 0.025342399 1.062421
-0.11879622 0.0280621 1.067
-0.38164455 0.031803712 1.067
-0.37491342 0.034703355 1.0636841
-0.36611015 0.03643211 1.0613847
-0.12308571 0.034707196 1.0617617
-0.11879621 0.034609921 1.067
-0.37285176 0.040970664 1.067
-0.36729997 0.042575497 1.0650001
-0.13164611 0.04863162 1.0600001
-0.12518892 0.044617228 1.063464
-0.14403634 0.058543801 1.0600001
-0.13346939 0.055889938 1.0605557
-0.12774624 0.053930193 1.0636667
-0.15147047 0.063190132 1.0600001
-0.14446211 0.065100573 1.0603101
-0.13541183 0.06318412 1.06455
-0.38384145 0.075886615 1.0636877
-0.37774265 0.077909216 1.0621667
-0.1444266 0.07517834 1.06292
-0.13937509 0.070155248 1.067
-0.38070914 0.081380092 1.067
-0.37432271 0.084485248 1.0643846
-0.36764085 0.087586895 1.0606
-0.34847501 0.087351069 1.0600001
-0.14209506 0.08255887 1.061125
-0.138146 0.084125809 1.0623335
-0.37135512 0.09166953 1.067
-0.36487874 0.094894312 1.0637916
-0.35524216 0.094694361 1.0608888
-0.34715632 0.09487018 1.0609376
-0.14124854 0.098502263 1.0600001
-0.1364406 0.097112842 1.0631001
-0.36494806 0.10354888 1.0654
-0.35776767 0.10268397 1.0600001
-0.15155515 0.10767062 1.0606
-0.14463581 0.10539874 1.0615833
-0.13702632 0.10281792 1.0662
-0.362414 0.1170876 1.0600001
-0.35869694 0.1198754 1.0600001
-0.16336507 0.11764517 1.0600002
-0.15529338 0.11415636 1.0623912
-0.14762691 0.11242297 1.0648571
-0.3631354 0.1243545 1.0645
-0.35455486 0.12552413 1.0625627
-0.34488583 0.12709729 1.0616667
-0.17175944 0.12576076 1.0600002
-0.16668572 0.12542962 1.0622309
-0.15901856 0.12066703 1.067
-0.35601449 0.1307694 1.067
-0.34462929 0.13135736 1.067
-0.33459911 0.13531026 1.0644287
-0.32540905 0.13647611 1.0632354
-0.316107 0.13790599 1.0636667
-0.30758727 0.13784121 1.0600001
-0.17052044 0.1324205 1.0600001
-0.16633071 0.13555686 1.0639445
-0.31460732 0.14155771 1.067
-0.30473131 0.14424653 1.0636842
-0.29538953 0.14653374 1.0612502
-0.28487769 0.14699392 1.0627692
-0.27579007 0.14755854 1.0664169
-0.26540324 0.14789192 1.061
-0.25926539 0.14961194 1.0600001
-0.24687517 0.14961194 1.0600001
-0.23789227 0.14961194 1.0600001
-0.21280207 0.14961194 1.0600001
-0.19328746 0.14961194 1.0600001
-0.18492407 0.14961194 1.0600001
-0.17410715 0.14807865 1.0604286
-0.16558149 0.14452435 1.0651112
-0.30026448 0.15059994 1.067
-0.2939505 0.15176919 1.067
-0.28605166 0.15050586 1.0663334
-0.27389777 0.15343711 1.0685
-0.26510423 0.15364373 1.0658573
-0.2552534 0.15473783 1.0635713
-0.24523325 0.15459415 1.0648499
-0.23491268 0.15581715 1.0642608
-0.22505818 0.15578432 1.0633684
-0.21520007 0.1543787 1.0631578
-0.20572579 0.15299182 1.0628002
-0.19569421 0.15283234 1.0630001
-0.18531786 0.15323138 1.0651819
-0.17464937 0.15225393 1.0646001
-0.16855969 0.15209658 1.067
-0.23291543 0.16182478 1.067
-0.22730301 0.16182478 1.067
-0.30486083 -0.13789091 1.0700001
-0.32219282 -0.11221713 1.0756668
-0.31752425 -0.11631612 1.0700001
-0.32370108 -0.10451305 1.0740001
-0.31986937 -0.10787383 1.0700001
-0.16419177 -0.10296147 1.0717058
-0.1589721 -0.10065097 1.0730001
-0.32762697 -0.09913785 1.077
-0.16313113 -0.094978996 1.0714999
-0.15865964 -0.094903745 1.0765556
-0.32362151 -0.081608899 1.0700001
-0.31248641 -0.085505128 1.0732499
-0.30567119 -0.083817326 1.07575
-0.29530519 -0.083970107 1.0762
-0.28693852 -0.083533615 1.0766666
-0.20205238 -0.08025445 1.077
-0.19733153 -0.08025445 1.077
-0.18600261 -0.081751414 1.0754286
-0.16163844 -0.085724853 1.0702727
-0.15879633 -0.085758165 1.075
-0.32455954 -0.075980701 1.0700001
-0.31198987 -0.078982413 1.0700001
-0.30401757 -0.077678137 1.0707499
-0.29516935 -0.07524877 1.0712187
-0.28497681 -0.074519359 1.0728573
-0.27561179 -0.07218609 1.0769999
-0.26573139 -0.071652018 1.077
-0.25501171 -0.072014421 1.0769999
-0.24671312 -0.072485954 1.0766
-0.21206057 -0.073078766 1.077
-0.20476824 -0.074188836 1.0741853
-0.19481893 -0.074354842 1.07356
-0.18528856 -0.074806347 1.074074
-0.17691949 -0.073452502 1.0717647
-0.16289426 -0.074122161 1.0718822
-0.33112577 -0.067538396 1.0700001
-0.32924971 -0.066600367 1.0700001
-0.28540066 -0.06478066 1.0709
-0.27521783 -0.06501326 1.0723077
-0.26537547 -0.064965092 1.0727407
-0.25505483 -0.064629056 1.0718147
-0.24502878 -0.064771511 1.0730369
-0.23820774 -0.062957063 1.0764287
-0.22353186 -0.062384982 1.0758573
-0.21504182 -0.064498439 1.0732726
-0.20577532 -0.065083742 1.0705216
-0.18444407 -0.065386213 1.0705713
-0.17547187 -0.064747341 1.0703598
-0.16500513 -0.065051593 1.0718075
-0.15956473 -0.061371051 1.077
-0.33675396 -0.059096098 1.0700001
-0.29285401 -0.057970457 1.0700001
-0.28510499 -0.056699537 1.0702856
-0.24496189 -0.055374995 1.0705999
-0.23537239 -0.055641502 1.0732069
-0.22481206 -0.055302367 1.071923
-0.20730537 -0.058158066 1.0700001
-0.18104044 -0.059096098 1.0700001
-0.17616266 -0.058720887 1.0700001
-0.16077891 -0.056844819 1.0700001
-0.15767038 -0.055786431 1.0732858
-0.24107456 -0.047839701 1.0700001
-0.23648864 -0.048673503 1.0700001
-0.22981817 -0.049715765 1.0700001
-0.1604037 -0.044087566 1.0700001
-0.15269098 -0.04387911 1.0700001
-0.1491473 -0.040335432 1.0700001
-0.1519614 -0.036583301 1.0700001
-0.14834328 -0.03524325 1.0700001
-0.12520255 0.0076966076 1.0706002
-0.39450729 0.017263027 1.0740001
-0.12256258 0.014693609 1.0735384
-0.11673762 0.016361522 1.0767777
-0.39308324 0.025213419 1.0741112
-0.38928384 0.027202966 1.0700001
-0.1210063 0.021574767 1.0700001
-0.11724514 0.024766834 1.0748571
-0.39290959 0.034664527 1.077
-0.38586417 0.035156742 1.072875
-0.3799035 0.038459368 1.0700001
-0.11573343 0.034815356 1.0733333
-0.39452818 0.042217888 1.077
-0.38394633 0.043227207 1.0766
-0.37609166 0.04454913 1.0713571
-0.12189244 0.048269618 1.0712001
-0.11715444 0.043450672 1.0745
-0.3937189 0.050041009 1.077
-0.38050047 0.051929351 1.077
-0.37861216 0.05098518 1.077
-0.12411595 0.055756874 1.0731333
-0.11990959 0.05098518 1.077
-0.13304968 0.067182392 1.0703
-0.12714653 0.064316094 1.0743572
-0.14164303 0.077856764 1.0700001
-0.13608034 0.074435301 1.0727407
-0.12911108 0.071625419 1.075
-0.39183053 0.08591947 1.077
-0.38594502 0.086118393 1.0751817
-0.37865281 0.087237097 1.0700001
-0.13830666 0.081855029 1.0732501
-0.39183053 0.092528656 1.077
-0.38501292 0.095168732 1.0765198
-0.37570539 0.09491501 1.0719334
-0.37320489 0.10347755 1.0741111
-0.14164303 0.1097499 1.0700001
-0.13456196 0.10638728 1.0713999
-0.12887087 0.10629495 1.0730001
-0.15252422 0.11837981 1.0700001
-0.14436299 0.1161453 1.0731362
-0.13709673 0.11238214 1.0752223
-0.37105882 0.12935129 1.077
-0.16295536 0.1255396 1.0709285
-0.15479751 0.12502022 1.0728749
-0.14736536 0.12265125 1.0741251
-0.36440876 0.13357227 1.0744666
-0.3543677 0.13495937 1.0731666
-0.34571055 0.13570045 1.070923
-0.33637875 0.13939175 1.0700001
-0.16271089 0.13424635 1.0728667
-0.15925001 0.13438685 1.077
-0.34398761 0.14161108 1.0758573
-0.33461598 0.1445646 1.0744705
-0.3253687 0.14482124 1.0726666
-0.31538376 0.14628972 1.0708823
-0.30767494 0.1491473 1.0700001
-0.16180901 0.14577189 1.0702727
-0.1577677 0.14517862 1.0726923
-0.32148987 0.15059511 1.077
-0.31464466 0.15248346 1.077
-0.30461425 0.15403448 1.0735334
-0.2953774 0.156616 1.0715715
-0.28490454 0.15547496 1.0704999
-0.26608881 0.15821494 1.0700001
-0.2504549 0.15852763 1.0700001
-0.2448267 0.15852763 1.0700001
-0.21293357 0.15805861 1.0700001
-0.20501241 0.15769383 1.0700001
-0.19520034 0.15766369 1.0705
-0.18505162 0.15781185 1.0715001
-0.17512269 0.15787691 1.0713636
-0.16465381 0.15509345 1.0715908
-0.15842901 0.15325843 1.0725001
-0.29174852 0.16145307 1.077
-0.28531885 0.1618605 1.075
-0.27505946 0.16263358 1.0742308
-0.26511842 0.1631519 1.0735294
-0.25502467 0.16204272 1.0722308
-0.24501432 0.16348821 1.0731111
-0.23539302 0.16441549 1.0724374
-0.22444163 0.16362615 1.0716842
-0.21513414 0.16344818 1.0731052
-0.20486575 0.16307569 1.073263
-0.1953401 0.16308975 1.0736667
-0.18464002 0.16267337 1.0761428
-0.17536013 0.16216902 1.0747778
-0.16806225 0.16145307 1.077
-0.32625413 -0.11382786 1.085
-0.33066902 -0.10291716 1.087
-0.32745254 -0.1072549 1.0826668
-0.30703619 -0.1008207 1.087
-0.29293272 -0.10120187 1.087
-0.28477234 -0.10286088 1.0864
-0.27615964 -0.10189387 1.0862501
-0.31214127 -0.095132358 1.0833334
-0.3050628 -0.095037289 1.0840499
-0.29539543 -0.094986252 1.08345
-0.28470424 -0.095420957 1.0835149
-0.27446368 -0.094782285 1.0833199
-0.26562247 -0.093257628 1.0859998
-0.25448474 -0.091813125 1.0864
-0.24557315 -0.091771133 1.0860769
-0.23855181 -0.091164269 1.087
-0.20382257 -0.091587797 1.087
-0.19598404 -0.092318729 1.0856153
-0.15715039 -0.094439968 1.0838001
-0.30450547 -0.08863505 1.08
-0.29445478 -0.088999212 1.08
-0.283898 -0.086213164 1.0806667
-0.27503416 -0.084750518 1.0813333
-0.26514232 -0.084582187 1.0840368
-0.2552706 -0.084352829 1.0831248
-0.24498545 -0.08451537 1.0831666
-0.23668565 -0.083858415 1.087
-0.22489308 -0.080999613 1.087
-0.21314698 -0.083826162 1.0857333
-0.20481677 -0.084935367 1.0829999
-0.19466653 -0.084856607 1.0822607
-0.18817404 -0.085465178 1.0807999
-0.15801711 -0.083916582 1.0836667
-0.2811996 -0.078584403 1.08
-0.2748425 -0.076690808 1.08
-0.26500565 -0.076506793 1.0802106
-0.25500551 -0.076583967 1.0802667
-0.24367967 -0.07598 1.0819999
-0.23528388 -0.075039595 1.0855768
-0.2254107 -0.075359508 1.0859615
-0.21623942 -0.075504102 1.0821176
-0.16000921 -0.074797198 1.08
-0.15796788 -0.075178109 1.0855
-0.2423808 -0.069116399 1.08
-0.23429121 -0.065927677 1.0819999
-0.2255937 -0.067105442 1.0821334
-0.2187108 -0.069116399 1.08
-0.16000921 -0.066275999 1.08
-0.15784799 -0.065129638 1.0852727
-0.1569847 -0.056913197 1.082
-0.40197971 0.019006133 1.0840001
-0.39860278 0.018936001 1.08
-0.11368438 0.018001473 1.0806667
-0.10928527 0.01995644 1.0840001
-0.40259835 0.025697144 1.0856667
-0.39784536 0.025563601 1.08
-0.11286563 0.025912324 1.0832142
-0.10784511 0.024046527 1.0862501
-0.40182161 0.032717492 1.087
-0.39553058 0.035989974 1.0804
-0.11242528 0.034469437 1.0845001
-0.39256111 0.045691863 1.0806153
-0.38681653 0.045653649 1.0804
-0.11508822 0.045843232 1.082
-0.39138034 0.052833989 1.0814545
-0.38549703 0.053299718 1.0812308
-0.3777732 0.050180398 1.08
-0.12109747 0.057546154 1.082
-0.11733431 0.053683627 1.0837499
-0.12303221 0.065919727 1.0834666
-0.11864062 0.061464414 1.087
-0.13184656 0.077781953 1.0820001
-0.1267933 0.074204072 1.0851429
-0.39481559 0.087105602 1.08
-0.14008169 0.088623106 1.087
-0.13511011 0.083322302 1.0847691
-0.38913479 0.098467201 1.08
-0.38534817 0.10452746 1.0833683
-0.37800637 0.10452964 1.0806667
-0.13019201 0.10928527 1.0840001
-0.37424812 0.11208139 1.0835
-0.1410732 0.11835 1.08
-0.13340175 0.11559556 1.0829046
-0.12864645 0.1172112 1.087
-0.15432841 0.1297116 1.08
-0.14356525 0.12591228 1.0837058
-0.13637328 0.12306186 1.0849999
-0.37276381 0.13613728 1.0825555
-0.36560157 0.13903582 1.0813333
-0.35599679 0.1391796 1.08
-0.15513748 0.13471578 1.0836999
-0.14724143 0.13086143 1.0864
-0.37450415 0.14084405 1.087
-0.3650631 0.14291517 1.086
-0.35469145 0.14381745 1.0835332
-0.34596074 0.14641823 1.0821667
-0.3380076 0.14864761 1.08
-0.15591998 0.14307813 1.0845001
-0.34274161 0.15264811 1.086
-0.33442011 0.1531567 1.0825624
-0.32559681 0.15437844 1.0828124
-0.31594095 0.15702459 1.0829
-0.30771002 0.1581156 1.08
-0.16125232 0.1584084 1.082
-0.15733132 0.15567288 1.084375
-0.31213322 0.16082406 1.0855
-0.30400208 0.16143905 1.0841428
-0.2941094 0.16490526 1.0837142
-0.28569645 0.16668934 1.0826923
-0.27600566 0.16705585 1.0806667
-0.26573518 0.16758358 1.08
-0.25510997 0.16674198 1.08
-0.24648361 0.168846 1.08
-0.2338596 0.16947719 1.08
-0.2234448 0.16900378 1.08
-0.21429241 0.1682148 1.08
-0.20498219 0.16805699 1.08
-0.19366305 0.16710459 1.0821428
-0.18503629 0.16702867 1.081
-0.17383657 0.16654664 1.0817692
-0.16476682 0.16432384 1.084941
-0.15850513 0.16168158 1.087
-0.28683394 0.17057566 1.087
-0.26502663 0.17105496 1.0855
-0.2544587 0.17228495 1.08575
-0.24572295 0.17153123 1.085
-0.22410494 0.1712932 1.0855
-0.21422309 0.1715703 1.08525
-0.20504194 0.1708169 1.0845001
-0.19916376 0.17057566 1.087
-0.18438607 0.17207967 1.0863076
-0.17597222 0.1713181 1.0863334
-0.28370246 -0.12021291 1.097
-0.27344429 -0.12252101 1.097
-0.26783437 -0.12165547 1.097
-0.33444461 -0.11244236 1.0962501
-0.32949895 -0.1160166 1.0936667
-0.30156064 -0.11044466 1.0955
-0.29421145 -0.11334949 1.0957143
-0.28494596 -0.11439673 1.0949999
-0.27479652 -0.11440502 1.0953448
-0.26471722 -0.11411075 1.0967602
-0.25475013 -0.11332915 1.097
-0.24908116 -0.11444269 1.097
-0.23946413 -0.11059588 1.097
-0.21325772 -0.111798 1.097
-0.20868962 -0.11059588 1.097
-0.3339999 -0.10597233 1.0940001
-0.30380628 -0.10439308 1.0924444
-0.29557142 -0.10522162 1.0911112
-0.28619218 -0.10750125 1.09
-0.27440768 -0.10544144 1.0914
-0.26528752 -0.10477588 1.0942222
-0.25499538 -0.10442827 1.0949643
-0.24493863 -0.10470224 1.09568
-0.2353583 -0.10471351 1.0958
-0.22589904 -0.10350964 1.097
-0.21354876 -0.10421827 1.097
-0.20592259 -0.10395245 1.0961177
-0.16016525 -0.10262085 1.0940001
-0.15846407 -0.10180248 1.0955
-0.33535597 -0.095587641 1.0940001
-0.26341787 -0.096936934 1.09
-0.25533867 -0.096674547 1.0902859
-0.24495269 -0.096999153 1.0908573
-0.23479894 -0.094981991 1.0918462
-0.22501764 -0.0952003 1.0969001
-0.21447235 -0.095319614 1.0953479
-0.20564725 -0.096236825 1.0918462
-0.19971344 -0.097467802 1.09
-0.15494533 -0.094423376 1.0958573
-0.23283929 -0.086590253 1.0909232
-0.22532997 -0.086301222 1.09375
-0.21748209 -0.087099165 1.0917778
-0.15427445 -0.085469477 1.0954349
-0.14537747 -0.085431308 1.097
-0.15355569 -0.075297087 1.0947728
-0.14569807 -0.078378819 1.097
-0.15508594 -0.065397017 1.0926365
-0.15625751 -0.057515033 1.0935
-0.4072625 0.025800299 1.09
-0.10836126 0.028858114 1.09
-0.11129868 0.038589116 1.0913334
-0.10737109 0.035193782 1.0918236
-0.11346714 0.045120455 1.095
-0.10705349 0.041287277 1.09525
-0.11440296 0.054807931 1.0925556
-0.12135696 0.069756366 1.09
-0.11741918 0.064194404 1.092889
-0.12391821 0.076479621 1.0920001
-0.11988416 0.070012353 1.0940001
-0.13330291 0.087044872 1.091091
-0.12768205 0.084486209 1.0950834
-0.13581806 0.092076689 1.0953333
-0.3927379 0.10989016 1.09
-0.38509336 0.10989016 1.09
-0.37935996 0.10989016 1.09
-0.39108998 0.11469014 1.09475
-0.38456786 0.1154801 1.0929048
-0.37868962 0.11590994 1.0926666
-0.39141324 0.12021291 1.097
-0.38660473 0.12069377 1.097
-0.13368605 0.12728827 1.0944167
-0.12947489 0.12276138 1.0940001
-0.15157449 0.13753614 1.0920001
-0.14535409 0.13554762 1.0948334
-0.3813915 0.14673823 1.0940001
-0.37581471 0.14581327 1.0921177
-0.36507857 0.14726806 1.0914546
-0.35642636 0.14811283 1.09
-0.15429471 0.14520766 1.0946316
-0.14842288 0.14201152 1.097
-0.38179621 0.15098742 1.097
-0.37339106 0.15266089 1.0964546
-0.36457866 0.15341374 1.0960001
-0.35459435 0.1539214 1.0955263
-0.34587139 0.15673056 1.0941001
-0.33349276 0.15830554 1.09
-0.32489264 0.15957963 1.09
-0.15579593 0.15098742 1.097
-0.3423664 0.16060446 1.097
-0.33431542 0.1618786 1.0952001
-0.32478678 0.1639844 1.0958462
-0.31526133 0.16510074 1.0940001
-0.30516481 0.1670118 1.0925
-0.29778159 0.16773053 1.0908
-0.16337852 0.16880625 1.092
-0.1587972 0.16599682 1.0945001
-0.31233987 0.1721449 1.097
-0.30492449 0.17473379 1.0965716
-0.29467139 0.17459169 1.0952941
-0.28508869 0.1754622 1.094238
-0.27582619 0.1757012 1.0942308
-0.26495665 0.17647134 1.0929412
-0.25552264 0.17795806 1.0923333
-0.24465974 0.17675723 1.0944445
-0.23552066 0.17637929 1.0961365
-0.2252986 0.17743471 1.0964
-0.21485856 0.17787811 1.0967693
-0.20474638 0.17541122 1.0955455
-0.19409823 0.17480053 1.0944706
-0.18509239 0.17774709 1.0930001
-0.17439799 0.17702943 1.0940001
-0.16485159 0.17420588 1.0946957
-0.15868105 0.17022149 1.097
-0.28370249 0.18176194 1.097
-0.27023864 0.18272364 1.097
-0.2644684 0.18272361 1.097
-0.25453082 0.18320449 1.097
-0.24908118 0.18368535 1.097
-0.23465562 0.18272364 1.097
-0.22696199 0.18240307 1.097
-0.19137897 0.18176194 1.097
-0.18588351 0.18231149 1.097
-0.34327388 -0.12180687 1.108
-0.33416003 -0.12313531 1.1073076
-0.32839495 -0.12302702 1.105
-0.29052821 -0.12065125 1.1010001
-0.28459859 -0.12385853 1.1023332
-0.27701527 -0.12506363 1.101
-0.26435277 -0.1229101 1.1023636
-0.2554726 -0.12232912 1.1034546
-0.24612854 -0.12276226 1.1026249
-0.23475365 -0.12269878 1.1032856
-0.22665735 -0.12243535 1.1049
-0.21989869 -0.12108959 1.105
-0.34445524 -0.11520336 1.1059543
-0.33667713 -0.116385 1.1032221
-0.26350233 -0.11872083 1.1010001
-0.25610241 -0.11839909 1.101
-0.24439625 -0.11503881 1.1011666
-0.23454604 -0.11485999 1.101
-0.22489391 -0.11485997 1.101
-0.21717222 -0.11550346 1.101
-0.1602722 -0.11170486 1.108
-0.1583295 -0.11170486 1.108
-0.35373208 -0.10231519 1.1079999
-0.34566835 -0.10529063 1.1052498
-0.33878872 -0.1052079 1.1010001
-0.23068519 -0.10906873 1.1010001
-0.22373566 -0.10733136 1.101
-0.21813746 -0.10713831 1.101
-0.20365931 -0.10520789 1.1010001
-0.16262121 -0.10744967 1.1041666
-0.15507282 -0.1052141 1.1044165
-0.14441505 -0.1023512 1.1056
-0.13825502 -0.10069627 1.108
-0.36036962 -0.098106012 1.108
-0.35289767 -0.095565565 1.1079999
-0.34430563 -0.094682075 1.1058517
-0.33843541 -0.098632015 1.103
-0.15264107 -0.097486205 1.101
-0.14525585 -0.095644586 1.1019999
-0.1353181 -0.094212227 1.1054735
-0.1291891 -0.090335242 1.108
-0.34392151 -0.086061306 1.1079999
-0.14188586 -0.089764528 1.1010001
-0.13533489 -0.084844194 1.1015716
-0.12883931 -0.082340918 1.105
-0.15153797 -0.070460327 1.1010001
-0.14542496 -0.073034219 1.101
-0.13520829 -0.074366175 1.1016666
-0.12656701 -0.074776627 1.1060587
-0.15221457 -0.064008377 1.1039286
-0.14498846 -0.064766243 1.1041738
-0.13534039 -0.065213487 1.1042219
-0.12540458 -0.065676302 1.1078124
-0.11872024 -0.061785419 1.107
-0.15515071 -0.057250619 1.1068889
-0.14500819 -0.058697093 1.1079999
-0.13657133 -0.05886361 1.108
-0.11221757 0.046437472 1.1035
-0.10797342 0.044391941 1.1056001
-0.11313471 0.054151699 1.103
-0.11629641 0.064932071 1.1055
-0.12144084 0.07602337 1.1023334
-0.1193139 0.073725037 1.1065
-0.13030335 0.089764528 1.1010001
-0.12343431 0.085419156 1.1035881
-0.11947564 0.086449854 1.108
-0.13411649 0.096188396 1.1037998
-0.12528186 0.094206706 1.1042104
-0.133803 0.10150573 1.1079999
-0.12716095 0.10216521 1.10725
-0.39214826 0.12401134 1.1034
-0.3855944 0.12385789 1.10375
-0.39533809 0.1311318 1.108
-0.14201298 0.13766778 1.102
-0.13708022 0.13515273 1.1027333
-0.15153797 0.14864233 1.1010001
-0.14520897 0.1449237 1.1042998
-0.38400367 0.15619355 1.1053635
-0.37631434 0.157188 1.1024544
-0.36503515 0.15874475 1.1018889
-0.35680595 0.15861617 1.1010001
-0.15312912 0.15313613 1.1045713
-0.14841485 0.15132625 1.1065
-0.38173923 0.1602722 1.108
-0.37445003 0.16333659 1.1076999
-0.36494094 0.16410775 1.1067141
-0.35475892 0.16565672 1.1044998
-0.34495029 0.16557717 1.1044736
-0.33466709 0.16773032 1.1024544
-0.32559749 0.16826828 1.101
-0.3194845 0.16891176 1.1010001
-0.15658256 0.16651745 1.1015713
-0.34094268 0.17192836 1.108
-0.33394039 0.17372742 1.1070768
-0.32496154 0.17564984 1.1053476
-0.31630638 0.17564389 1.1013076
-0.30018032 0.17856385 1.1010001
