# .PCD v0.7 - Point Cloud Data file format
VERSION 0.7
FIELDS x y z
SIZE 4 4 4
TYPE F F F
COUNT 1 1 1
WIDTH 1488
HEIGHT 1
VIEWPOINT 0 0 0 1 0 0 0
POINTS 1488
DATA ascii
-0.14525811 -0.084528498 1.0861109
-0.13720909 -0.085652895 1.0863999
-0.36314163 -0.07513921 1.0849332
-0.35641873 -0.07527519 1.0806154
-0.17526338 -0.076527566 1.0829999
-0.143307 -0.077481084 1.087
-0.13583012 -0.076601453 1.087
-0.36283675 -0.065565228 1.0856667
-0.35540253 -0.065393254 1.0810666
-0.1324582 -0.06956438 1.087
-0.36170751 -0.055134188 1.087
-0.35470709 -0.055005133 1.0818332
-0.34873798 -0.052389603 1.08
-0.17010489 -0.054167479 1.0840001
-0.16907349 -0.051292889 1.0835
-0.38670167 -0.04135745 1.087
-0.37420878 -0.041760765 1.0861429
-0.3639164 -0.043868013 1.085111
-0.35517496 -0.044779953 1.0818948
-0.34688383 -0.044736303 1.08
-0.33611402 -0.042606 1.08
-0.16695428 -0.045507889 1.0847143
-0.39165697 -0.031446911 1.087
-0.38560608 -0.035619993 1.0858332
-0.37565261 -0.035943568 1.0807999
-0.36451799 -0.038818799 1.08
-0.35883719 -0.038818799 1.08
-0.3351672 -0.0369252 1.08
-0.16147456 -0.035142064 1.0835
-0.39165697 -0.029541036 1.087
-0.38611543 -0.025145305 1.084318
-0.37871999 -0.021776401 1.08
-0.1610463 -0.025729289 1.087
-0.38435191 -0.015655162 1.0846666
-0.37694988 -0.014901672 1.0802106
-0.38022172 -0.0076234937 1.087
-0.37423337 -0.0044929166 1.0832666
-0.36767399 -0.001578 1.08
-0.37277374 0.0024771092 1.0864
-0.36521184 0.0056905164 1.0815834
-0.3578904 0.0085212002 1.08
-0.39372784 0.018475926 1.0863999
-0.38524354 0.018633112 1.0845001
-0.37705958 0.018947104 1.0806667
-0.36321333 0.014105348 1.0817499
-0.35694361 0.014638986 1.08
-0.1505412 0.0198828 1.08
-0.14424367 0.015850132 1.0824999
-0.13969508 0.013304293 1.0840001
-0.3937532 0.022928607 1.0863076
-0.38599253 0.025607843 1.0818
-0.15124153 0.0264052 1.0811428
-0.14543341 0.025471954 1.0853845
-0.38299677 0.035052713 1.0854167
-0.37655082 0.035367925 1.0819285
-0.15340468 0.0360693 1.0826874
-0.14687183 0.034575477 1.086647
-0.37408358 0.044351079 1.0844705
-0.3678318 0.046866596 1.08
-0.17052686 0.047772486 1.0826668
-0.16421409 0.045269158 1.0839089
-0.15547659 0.042713325 1.0861428
-0.37336057 0.051649164 1.087
-0.36553872 0.054585546 1.0833528
-0.35789037 0.058701597 1.08
-0.17291127 0.054809436 1.0841333
-0.1671451 0.051267993 1.087
-0.36210716 0.062669046 1.0864
-0.35496023 0.065736249 1.0833683
-0.34747562 0.068485193 1.08
-0.18237334 0.068247132 1.082889
-0.17705852 0.064664081 1.0847
-0.35258657 0.071470253 1.087
-0.34446108 0.073747613 1.0854167
-0.33578727 0.07564456 1.0824286
-0.18652841 0.073469989 1.0863571
-0.3401984 0.080999613 1.087
-0.333621 0.08423999 1.08575
-0.32690674 0.086227186 1.0808572
-0.19315216 0.087237783 1.0829999
-0.18914855 0.085905969 1.0863999
-0.33162194 0.091481917 1.087
-0.32446146 0.094543703 1.0849332
-0.31545359 0.097041458 1.0816666
-0.3096036 0.099413998 1.08
-0.19304125 0.095361069 1.0817777
-0.18805796 0.093900487 1.085909
-0.32266435 0.1008207 1.087
-0.31496814 0.10260792 1.0862501
-0.30624935 0.10461757 1.082375
-0.29737234 0.10861024 1.082
-0.21425499 0.10834042 1.080889
-0.20497878 0.10750945 1.0824999
-0.19673276 0.10372403 1.0841333
-0.29161441 0.1107756 1.08
-0.28533837 0.1138562 1.08225
-0.27512303 0.11651126 1.0834166
-0.26889122 0.11740319 1.08
-0.22128254 0.11618444 1.0833334
-0.21486232 0.11456844 1.084846
-0.20575492 0.11311156 1.08575
-0.26406407 0.12334076 1.0813334
-0.25506791 0.12933287 1.08
-0.2452212 0.1297116 1.08
-0.22132638 0.12534268 1.0804445
-0.21863613 0.12499426 1.0839092
-0.26169595 0.1313251 1.0855
-0.25431198 0.13414414 1.0829999
-0.24534211 0.1349728 1.0828182
-0.23560543 0.13570012 1.0824286
-0.22471043 0.13490273 1.0826875
-0.21819866 0.13183226 1.0849999
-0.23346949 0.14008169 1.087
-0.31749341 -0.18508945 1.0926666
-0.32120889 -0.17022149 1.097
-0.31394294 -0.17517123 1.0912632
-0.30864802 -0.17677984 1.09
-0.32152948 -0.16477184 1.097
-0.31545967 -0.16674443 1.0947895
-0.30793908 -0.16816689 1.0920001
-0.17176022 -0.14464018 1.097
-0.16541299 -0.14290912 1.097
-0.15868105 -0.14137039 1.097
-0.26227024 -0.13312721 1.097
-0.2548514 -0.1346385 1.097
-0.24574725 -0.13380499 1.097
-0.236002 -0.13348441 1.097
-0.22424512 -0.13390681 1.0962501
-0.2185763 -0.1353651 1.0928572
-0.17210428 -0.1382591 1.0926667
-0.1647709 -0.13695806 1.0941666
-0.15511672 -0.13530117 1.0918236
-0.14531945 -0.13239497 1.092375
-0.35198343 -0.12021291 1.097
-0.34525147 -0.12085405 1.097
-0.33499333 -0.12053349 1.097
-0.324094 -0.12106776 1.097
-0.3148267 -0.1214369 1.097
-0.30485994 -0.12232868 1.097
-0.29661679 -0.12103724 1.097
-0.28425202 -0.12103724 1.097
-0.27396524 -0.12249695 1.097
-0.26418349 -0.12571673 1.0961819
-0.25496507 -0.12578338 1.0965385
-0.24507539 -0.12560362 1.0956155
-0.23501962 -0.1259554 1.0938262
-0.22640219 -0.1275501 1.0939231
-0.14190704 -0.12743102 1.0905715
-0.13467692 -0.12511005 1.0916001
-0.12831272 -0.12127251 1.0950001
-0.36304578 -0.11207482 1.0926667
-0.35446927 -0.11454135 1.0957648
-0.34406647 -0.11526948 1.0935239
-0.33485308 -0.11522196 1.0937895
-0.32508314 -0.11507959 1.0938636
-0.31516626 -0.11488047 1.093421
-0.30534396 -0.11577765 1.0942308
-0.29546326 -0.11553765 1.0944706
-0.2854661 -0.11604407 1.0939333
-0.27520424 -0.11520953 1.0934545
-0.26542342 -0.11585385 1.0936667
-0.25540164 -0.11632685 1.0932592
-0.24518619 -0.11725974 1.0925
-0.23857313 -0.11817174 1.09
-0.13192043 -0.11688058 1.0915716
-0.12860489 -0.11783908 1.0964
-0.37444562 -0.10197262 1.09
-0.36587587 -0.10670494 1.09
-0.35515225 -0.10957164 1.09
-0.34527805 -0.10957164 1.09
-0.33693281 -0.10950794 1.09
-0.31151474 -0.10989016 1.09
-0.3041887 -0.10957164 1.09
-0.29909235 -0.10989016 1.09
-0.27615875 -0.10941238 1.09
-0.26660311 -0.10912571 1.09
-0.3819153 -0.094757877 1.0955
-0.37565753 -0.094742812 1.0916471
-0.36980429 -0.098423369 1.09
-0.164676 -0.091097355 1.09
-0.15957963 -0.090778835 1.09
-0.38204741 -0.084701143 1.0961429
-0.37527299 -0.085201479 1.092
-0.36916724 -0.083452821 1.09
-0.17204484 -0.083766498 1.0911429
-0.1653779 -0.085186765 1.0945001
-0.15680937 -0.084458657 1.0906668
-0.13391586 -0.083680339 1.09
-0.3819721 -0.077469632 1.0964
-0.37556529 -0.074959345 1.0932175
-0.36908764 -0.075250871 1.09
-0.17299001 -0.075552285 1.0953158
-0.16419481 -0.077641502 1.097
-0.15463939 -0.074682668 1.0946552
-0.14559679 -0.073342688 1.0905715
-0.13505341 -0.072941586 1.09
-0.37335259 -0.065067947 1.0955
-0.36825553 -0.064259857 1.0904446
-0.17535059 -0.066357531 1.097
-0.1533391 -0.06476257 1.0968237
-0.14463638 -0.065021098 1.0935862
-0.13605462 -0.064881027 1.0919131
-0.37216046 -0.054128613 1.0960001
-0.36679527 -0.054103144 1.0915385
-0.1707909 -0.057571575 1.0945001
-0.16789815 -0.052769721 1.0944002
-0.15162855 -0.056419928 1.097
-0.14504081 -0.054970693 1.0968751
-0.137951 -0.054603379 1.097
-0.38511324 -0.042508107 1.0936668
-0.37527689 -0.045834322 1.0937001
-0.36821172 -0.046822768 1.09
-0.16620788 -0.04742175 1.0927501
-0.14425549 -0.04904687 1.097
-0.13752358 -0.048566017 1.097
-0.39547536 -0.034844991 1.0911429
-0.16149077 -0.031533699 1.09
-0.40295368 -0.024523435 1.097
-0.39628264 -0.025030125 1.0922381
-0.16093782 -0.027784415 1.0927501
-0.15876871 -0.024868404 1.0910001
-0.39369038 -0.014735093 1.0940909
-0.38796008 -0.012422366 1.09
-0.39141324 -0.0076936269 1.097
-0.3852188 -0.0047876411 1.0930625
-0.37935996 -0.0019111333 1.09
-0.38370463 0.0037584298 1.0964546
-0.37614569 0.0061188638 1.0926154
-0.36980429 0.0086000999 1.09
-0.39495185 0.014505853 1.0936667
-0.38482141 0.013588282 1.0937059
-0.37647846 0.01342396 1.094125
-0.36980429 0.012422367 1.09
-0.1404683 0.0172002 1.09
-0.13855717 0.0172002 1.09
-0.40091169 0.023477791 1.0927501
-0.39679298 0.027220625 1.0921429
-0.1404683 0.024844734 1.09
-0.13789257 0.02432829 1.0923001
-0.39205992 0.034861237 1.0943333
-0.38755968 0.036654022 1.0906668
-0.1430975 0.036094923 1.0930834
-0.13944699 0.032697912 1.097
-0.38442189 0.044667613 1.0922353
-0.37935996 0.046822768 1.09
-0.1539264 0.046766717 1.0914376
-0.14629523 0.044288151 1.0951875
-0.38272962 0.053166911 1.0960001
-0.37614518 0.055485036 1.0926154
-0.36980429 0.058289565 1.09
-0.17104644 0.057333998 1.09
-0.16448466 0.054972075 1.0933479
-0.15588433 0.052710172 1.0965
-0.14906402 0.050970275 1.097
-0.37279987 0.064378016 1.0960001
-0.36587563 0.065217741 1.0917143
-0.17308359 0.064692266 1.09325
-0.16829808 0.060587309 1.097
-0.3638294 0.073108643 1.0956668
-0.35495734 0.076323509 1.0927619
-0.34647223 0.077233888 1.0910001
-0.33922616 0.079312034 1.09
-0.18382896 0.077072792 1.0925333
-0.17659526 0.073493652 1.0944
-0.35326174 0.084268004 1.0948001
-0.34424397 0.085132316 1.0924445
-0.3384769 0.085099787 1.0906668
-0.19015777 0.081223167 1.09
-0.18657663 0.084311604 1.0946429
-0.3423664 0.091361813 1.097
-0.3359277 0.093206108 1.09325
-0.32775936 0.096512236 1.09
-0.18771076 0.096015379 1.09525
-0.32217062 0.10578737 1.097
-0.31504899 0.10694106 1.0940001
-0.30673689 0.10797903 1.09
-0.19340506 0.10605948 1.0925333
-0.18779711 0.10278654 1.0957501
-0.30678335 0.11059588 1.097
-0.29354483 0.11668608 1.0964
-0.2861076 0.11841575 1.0915
-0.27902544 0.11944583 1.09
-0.21213579 0.11944583 1.09
-0.20424961 0.1168991 1.0930001
-0.19654159 0.11267789 1.0954167
-0.29139611 0.12021291 1.097
-0.28419501 0.12418985 1.0957143
-0.27531791 0.12594108 1.0952083
-0.26741198 0.12732472 1.092
-0.21510859 0.12352397 1.0947143
-0.2067662 0.12085405 1.097
-0.27248263 0.13239449 1.097
-0.26548973 0.13430665 1.0962501
-0.25894982 0.13810655 1.0940001
-0.22265558 0.13916098 1.0947502
-0.21922627 0.13594119 1.092
-0.25323525 0.14196609 1.0941668
-0.24523218 0.14292295 1.0941334
-0.2353992 0.14390641 1.0943125
-0.22503126 0.14256899 1.0956429
-0.32470691 -0.16326194 1.1034445
-0.31805882 -0.1624115 1.1027501
-0.23700859 -0.1602722 1.108
-0.3246612 -0.158933 1.1068001
-0.25313294 -0.15133581 1.108
-0.24479605 -0.15309057 1.107294
-0.23616159 -0.15351398 1.1072855
-0.22826646 -0.15055872 1.108
-0.33705729 -0.14278796 1.108
-0.32423553 -0.1412338 1.108
-0.31560272 -0.1417785 1.1077
-0.30493334 -0.14178483 1.1077499
-0.29348546 -0.14292672 1.1079999
-0.28546801 -0.14386724 1.1079999
-0.27561963 -0.14157377 1.1079999
-0.26413059 -0.14282186 1.1069999
-0.25495398 -0.14541155 1.1057776
-0.24514984 -0.14504638 1.1040474
-0.23497243 -0.14498207 1.1053911
-0.22661167 -0.14461648 1.1052499
-0.16466483 -0.14497454 1.1010001
-0.3351146 -0.13199523 1.1079999
-0.32511368 -0.13501553 1.1058694
-0.31526223 -0.13443899 1.1049998
-0.30485937 -0.13477746 1.104769
-0.29473391 -0.13476898 1.1059284
-0.28486854 -0.13496037 1.1075199
-0.27506539 -0.13490875 1.1064165
-0.26654005 -0.13512464 1.10225
-0.25578064 -0.13995545 1.1010001
-0.24419814 -0.13861899 1.101
-0.23440816 -0.13692193 1.101
-0.22706565 -0.13754243 1.101
-0.3546662 -0.12398527 1.1036427
-0.34454855 -0.12517822 1.104
-0.33487383 -0.12581009 1.1029444
-0.32547075 -0.12574776 1.1012499
-0.3154293 -0.12661371 1.1012857
-0.30442721 -0.12682858 1.101
-0.29396826 -0.12535317 1.1015999
-0.2851617 -0.12617953 1.1026469
-0.27638173 -0.12740411 1.1018889
-0.36133131 -0.11915215 1.105
-0.35680595 -0.11807736 1.1010001
-0.13166101 -0.11419079 1.107
-0.12502648 -0.11461682 1.1044999
-0.11947564 -0.1146189 1.108
-0.39272818 -0.092437103 1.1073333
-0.3871088 -0.092826724 1.103
-0.39349356 -0.08468888 1.1067142
-0.38713738 -0.084615521 1.1018
-0.39270177 -0.075822167 1.1064998
-0.38599688 -0.073717013 1.1030769
-0.17228998 -0.070942931 1.1010001
-0.16530828 -0.07264813 1.101
-0.3914527 -0.068965614 1.108
-0.3851862 -0.064886846 1.106227
-0.37759298 -0.063873306 1.1015713
-0.17229001 -0.065151669 1.101
-0.16505089 -0.064669065 1.101
-0.15853575 -0.063945167 1.101
-0.38360173 -0.05556275 1.1070623
-0.37714851 -0.055536345 1.1027777
-0.16428533 -0.055290755 1.1032174
-0.15627348 -0.054854792 1.1023529
-0.14960755 -0.05115613 1.1010001
-0.13663903 -0.05455935 1.1014999
-0.3914527 -0.045653295 1.108
-0.38523674 -0.0476611 1.1053637
-0.37836233 -0.048260503 1.1010001
-0.16443938 -0.04712132 1.1069999
-0.15343967 -0.046052936 1.1059998
-0.14504275 -0.044669848 1.1029999
-0.13842918 -0.044425961 1.1016666
-0.16181789 -0.033658888 1.1075
-0.15055872 -0.039825212 1.108
-0.14445314 -0.039270159 1.1079999
-0.13890257 -0.038853865 1.108
-0.41087964 -0.021369627 1.108
-0.40636969 -0.02196914 1.1032858
-0.1602722 -0.028169053 1.108
-0.15746719 -0.024472037 1.1053749
-0.41152719 -0.013275072 1.108
-0.40470409 -0.014906578 1.1043999
-0.39798823 -0.013834678 1.1010001
-0.15750355 -0.012905265 1.1044999
-0.40194327 -0.0071879649 1.108
-0.39583066 -0.0040650447 1.1046665
-0.39466596 0.0049877949 1.1064999
-0.3870492 0.0061129965 1.101
-0.40189207 0.011296142 1.1046667
-0.39534599 0.011018823 1.1026001
-0.38511878 0.01061731 1.1010001
-0.40056214 0.029921509 1.1010001
-0.13540761 0.028050413 1.1033334
-0.40305978 0.032409318 1.1068001
-0.39727914 0.036119983 1.1035
-0.14188586 0.03957361 1.1010001
-0.13687737 0.036019403 1.1038888
-0.39395297 0.043988679 1.1052001
-0.14277415 0.04705691 1.1029166
-0.13747917 0.044445809 1.1055
-0.3914527 0.051481374 1.108
-0.38577706 0.056803066 1.102875
-0.16215527 0.058877811 1.1010001
-0.15387164 0.057132199 1.1020665
-0.14565486 0.053830739 1.1052221
-0.38360935 0.064674392 1.1057856
-0.37771884 0.065312542 1.101
-0.17084217 0.068529911 1.1010001
-0.16522981 0.064919583 1.1038332
-0.15616176 0.062633321 1.1064284
-0.38167435 0.070716314 1.105
-0.37467796 0.073701538 1.1051332
-0.36748928 0.076372318 1.1027143
-0.17375973 0.075273231 1.1036001
-0.1687842 0.070812315 1.1065
-0.37105441 0.080621772 1.108
-0.36321327 0.081649229 1.1031429
-0.18291138 0.085698217 1.1021538
-0.17803216 0.083201185 1.1060998
-0.35454154 0.090335242 1.108
-0.34873801 0.090090647 1.105
-0.18513858 0.092857324 1.1056999
-0.32340801 0.10941545 1.1045001
-0.3194845 0.10906873 1.1010001
-0.19014637 0.10906873 1.1010001
-0.18791755 0.10702224 1.1038001
-0.32216331 0.11235243 1.108
-0.31497809 0.11443007 1.1067057
-0.30551085 0.11630913 1.1070524
-0.29857996 0.11759125 1.1040001
-0.20112662 0.11893649 1.103
-0.19380368 0.11545127 1.1023846
-0.18889976 0.11237113 1.105
-0.31180227 0.12141833 1.108
-0.30370772 0.12319913 1.1079999
-0.29510853 0.12527829 1.1048887
-0.28830382 0.12788491 1.1023334
-0.21444736 0.12671435 1.1033527
-0.20465831 0.12485369 1.1048498
-0.19704618 0.12152047 1.1045001
-0.29237536 0.13177936 1.108
-0.28431243 0.13370286 1.1046469
-0.27591634 0.1361379 1.1025383
-0.26607624 0.13834678 1.101
-0.2157215 0.13501008 1.1059581
-0.20689684 0.1311318 1.108
-0.27391976 0.14181663 1.1079999
-0.2643334 0.14388977 1.1065
-0.25593799 0.14614025 1.1025
-0.24419813 0.14815973 1.101
-0.23418309 0.14849944 1.1023334
-0.22444843 0.14797412 1.101
-0.21667425 0.14434293 1.1050475
-0.25463292 0.15189749 1.1074544
-0.24540268 0.15422761 1.1064284
-0.23558545 0.15393682 1.1058887
-0.22492294 0.15318269 1.1059
-0.21746682 0.1517709 1.1067144
-0.24590151 -0.17232724 1.1190001
-0.32118785 -0.16157404 1.1170001
-0.31909356 -0.16428412 1.1176667
-0.28398553 -0.16389796 1.1175716
-0.27571613 -0.16386598 1.11675
-0.26566991 -0.16311187 1.1190002
-0.25475907 -0.16456006 1.1183685
-0.24466269 -0.16539815 1.1163331
-0.23753598 -0.16336823 1.1132001
-0.33196121 -0.15276267 1.1170001
-0.32403609 -0.1550536 1.1152915
-0.31601456 -0.15423335 1.1180588
-0.30512851 -0.15234083 1.1171819
-0.29410028 -0.15431759 1.1150717
-0.28522345 -0.15500952 1.1126249
-0.27491716 -0.15496947 1.1127241
-0.26452777 -0.15520555 1.1134399
-0.25524613 -0.1563593 1.1131667
-0.24702783 -0.1581212 1.1120001
-0.23415975 -0.15656145 1.1120001
-0.34022382 -0.14135373 1.1120001
-0.33366761 -0.14477377 1.1127061
-0.32537085 -0.14638436 1.1127895
-0.31545955 -0.14720693 1.1130716
-0.30528456 -0.14720654 1.1130716
-0.29644403 -0.14755735 1.1120002
-0.28340378 -0.1474814 1.1120001
-0.27449086 -0.14664578 1.1120001
-0.26526842 -0.14806938 1.1120001
-0.34152365 -0.1348547 1.1120001
-0.33549434 -0.13718289 1.112231
-0.34509808 -0.12868065 1.1120001
-0.1332833 -0.11210039 1.1151667
-0.12478586 -0.11112137 1.1132858
-0.11925706 -0.11080834 1.1120001
-0.12378445 -0.10843315 1.1176667
-0.11652916 -0.10771429 1.1170001
-0.39871502 -0.090661362 1.1120001
-0.4030028 -0.084437907 1.1174001
-0.39871502 -0.085299663 1.1120001
-0.40351388 -0.075209238 1.1190001
-0.39789981 -0.073431686 1.113125
-0.40122494 -0.067688309 1.1190001
-0.39525473 -0.064886771 1.1136
-0.39571336 -0.055268053 1.1167727
-0.38896647 -0.05459179 1.1120001
-0.40318689 -0.048068509 1.1190001
-0.39610484 -0.0476785 1.115625
-0.16262327 -0.044577383 1.1120002
-0.15778698 -0.0438684 1.1120001
-0.16196491 -0.038019277 1.1120001
-0.15519273 -0.034938253 1.1124138
-0.14552487 -0.033821385 1.1134347
-0.13801676 -0.033401508 1.1152502
-0.16085079 -0.020471919 1.1120001
-0.15369155 -0.023936726 1.11455
-0.14573339 -0.025462434 1.1172
-0.13864161 -0.02772692 1.1163334
-0.41273203 -0.01073303 1.113
-0.4074887 -0.010723387 1.1120001
-0.15448979 -0.015948849 1.1161001
-0.41371104 -0.0045461357 1.1168823
-0.4066169 -0.0044296617 1.1139231
-0.15709078 -0.00878157 1.113
-0.41287255 0.0035966716 1.1186668
-0.40444547 0.0048829895 1.1143498
-0.39871502 0.0029245599 1.1120001
-0.40651384 0.010723387 1.1120001
-0.13550462 0.027295893 1.1120001
-0.41103479 0.034334648 1.1190001
-0.40609902 0.035959117 1.1146001
-0.1332123 0.034783099 1.1124002
-0.4030014 0.042908452 1.1173999
-0.3978357 0.046593372 1.115
-0.13299511 0.045503553 1.1138668
-0.39503607 0.056047712 1.11675
-0.14399572 0.058184072 1.1123334
-0.13621068 0.055074561 1.1157391
-0.39191973 0.064591698 1.11625
-0.38799161 0.067264885 1.1120001
-0.16182566 0.06921459 1.1120001
-0.15416241 0.067485802 1.1134667
-0.14535093 0.064406626 1.1161816
-0.13766558 0.062456366 1.1190001
-0.38024101 0.077221185 1.115
-0.37680227 0.077117294 1.1135001
-0.17241842 0.076134466 1.1162001
-0.16614059 0.072522126 1.1157143
-0.15563866 0.071458682 1.1166
-0.37473816 0.083384149 1.1190001
-0.17577623 0.085626662 1.1133637
-0.3529602 0.094763637 1.1190001
-0.34817958 0.096379861 1.115
-0.18286721 0.095830381 1.1137857
-0.17764471 0.09403 1.1161819
-0.35021344 0.10202296 1.1190001
-0.34432748 0.10468565 1.1190001
-0.33388591 0.10766331 1.115
-0.32852557 0.10820872 1.1120001
-0.18638217 0.10311376 1.1174999
-0.33289751 0.11350007 1.1185
-0.32586527 0.11522765 1.1131539
-0.3156575 0.11912708 1.1120001
-0.19214869 0.11802089 1.1126001
-0.18871069 0.11310228 1.1153334
-0.32441136 0.1219945 1.1172223
-0.31555051 0.12463389 1.1139375
-0.30601096 0.12757203 1.1122502
-0.20244455 0.1290056 1.1120001
-0.19472122 0.12529941 1.1147391
-0.31256291 0.13097019 1.1176667
-0.30406725 0.13349344 1.1159091
-0.29556295 0.13570769 1.1147859
-0.2877757 0.13852319 1.1127501
-0.21310294 0.13667443 1.1120001
-0.20507307 0.13592541 1.1141599
-0.19698773 0.13301386 1.1170001
-0.29282552 0.14175305 1.1190001
-0.28492126 0.14484984 1.1159412
-0.27536181 0.14597568 1.1129233
-0.2669054 0.14791983 1.1125001
-0.21246946 0.14587663 1.1138
-0.20555641 0.1418318 1.1183335
-0.27467719 0.15009147 1.1190001
-0.26407865 0.15293662 1.1140001
-0.2550326 0.15746993 1.1129
-0.24858759 0.1589011 1.1120001
-0.2338164 0.15824923 1.1132858
-0.22597775 0.15848143 1.1159002
-0.21497265 0.15584731 1.1143684
-0.25279385 0.16265146 1.1176667
-0.24447735 0.16233805 1.1155002
-0.23507103 0.16160634 1.1152858
-0.22464672 0.16186334 1.1190001
-0.21777979 0.16186334 1.1190001
-0.25566581 -0.18064418 1.126
-0.29251853 -0.17208908 1.126
-0.28495878 -0.17327887 1.1251667
-0.27526978 -0.17290862 1.1254376
-0.26490751 -0.17360966 1.1255263
-0.25514856 -0.1743699 1.1237197
-0.24907765 -0.1762249 1.123
-0.31458181 -0.1633403 1.1248947
-0.30502215 -0.16287588 1.1260002
-0.29502255 -0.16490312 1.1244284
-0.28780118 -0.16769259 1.123
-0.27303374 -0.16769259 1.123
-0.26482961 -0.16747381 1.123
-0.25892264 -0.16834892 1.123
-0.31233159 -0.15727335 1.123
-0.30420947 -0.15751949 1.123
-0.29731798 -0.15850396 1.123
-0.13586053 -0.11124812 1.123
-0.13282941 -0.10803652 1.1247143
-0.12517953 -0.10612195 1.1243335
-0.11693213 -0.10477686 1.124
-0.40659711 -0.082697719 1.123
-0.40758163 -0.071868256 1.123
-0.4105351 -0.063992284 1.123
-0.40603456 -0.064554848 1.1229998
-0.4105351 -0.058085304 1.123
-0.40551433 -0.054362748 1.1231579
-0.13457827 -0.031259011 1.126
-0.14275202 -0.022080855 1.123
-0.13679706 -0.024816759 1.124091
-0.15180938 -0.012010859 1.123
-0.14492139 -0.014784805 1.1245599
-0.13583125 -0.014583166 1.1248947
-0.15288742 -0.0074671959 1.1251429
-0.14839804 -0.0082260557 1.126
-0.1324724 -0.0076995878 1.126
-0.12931359 -0.0049356334 1.126
-0.41447309 0.0068914765 1.123
-0.41594189 0.035843391 1.1236924
-0.41408098 0.043086555 1.1255001
-0.40635315 0.045741923 1.1245
-0.13093805 0.04725584 1.123
-0.12773418 0.047184654 1.126
-0.40299445 0.052564491 1.126
-0.39872116 0.058085304 1.123
-0.13132451 0.054829512 1.1235001
-0.12898456 0.054621007 1.126
-0.39716846 0.065086253 1.1248749
-0.14373653 0.068914771 1.123
-0.13495433 0.064212814 1.1246876
-0.17152992 0.078864932 1.1245
-0.16416742 0.075021148 1.1243334
-0.1547422 0.073922537 1.1242858
-0.14466889 0.072498977 1.126
-0.13839516 0.071665399 1.126
-0.38100022 0.082697719 1.123
-0.37509829 0.085921422 1.1236668
-0.17398573 0.08551196 1.1255001
-0.36030123 0.09772554 1.126
-0.3569994 0.096513219 1.1233751
-0.17641321 0.096782774 1.1242001
-0.35324201 0.10602275 1.1250001
-0.34668347 0.10759141 1.123
-0.18434636 0.10548317 1.1245002
-0.17866993 0.10167404 1.126
-0.35077509 0.11210433 1.125
-0.34373668 0.11409769 1.1252002
-0.33686128 0.11649321 1.1242001
-0.19000785 0.1171551 1.123
-0.18749629 0.11495427 1.125
-0.33314463 0.12412275 1.1246667
-0.32636297 0.12712537 1.124091
-0.31799242 0.12896906 1.123
-0.19041392 0.12529722 1.1254001
-0.18854119 0.12404891 1.126
-0.32180327 0.13227497 1.126
-0.31447393 0.13446602 1.1245
-0.30631566 0.13789134 1.1235001
-0.1931075 0.13582367 1.1244999
-0.18651742 0.13587576 1.1279999
-0.30291423 0.14208357 1.1255001
-0.29594249 0.14600003 1.1243125
-0.21251334 0.14747696 1.1240001
-0.20510201 0.14638717 1.1251177
-0.19713826 0.14212999 1.125
-0.29186046 0.15168846 1.126
-0.28492922 0.1528181 1.1246156
-0.2750001 0.15467803 1.1250001
-0.26643866 0.15796937 1.1248
-0.21107261 0.15493242 1.1256667
-0.20762563 0.15333368 1.126
-0.26267242 0.16207404 1.125
-0.25559172 0.16645445 1.1235001
-0.24520412 0.16740939 1.1233001
-0.23560765 0.16561702 1.1245
-0.22337508 0.16509075 1.125182
-0.21494776 0.1638349 1.1251819
-0.2532967 0.17156261 1.126
-0.24615932 0.17159981 1.1256667
-0.30029166 -0.19055051 1.138
-0.30086178 -0.1837095 1.138
-0.29502428 -0.18486151 1.1377779
-0.28396618 -0.18408518 1.137273
-0.2752783 -0.18379843 1.1363333
-0.26468915 -0.18141425 1.1308
-0.25855529 -0.1812859 1.13
-0.31407109 -0.173696 1.1343333
-0.30475101 -0.17508371 1.1350527
-0.29547814 -0.17642975 1.1316668
-0.28493771 -0.17879967 1.1315
-0.27450907 -0.17863563 1.1313334
-0.26721328 -0.17896798 1.131
-0.31535161 -0.16873787 1.13
-0.30456468 -0.16851774 1.13
-0.1396793 -0.11194157 1.13
-0.13498464 -0.10418656 1.133111
-0.12532251 -0.10235482 1.132
-0.11474817 -0.10210938 1.1340001
-0.1067482 -0.10156043 1.138
-0.13069171 -0.09876702 1.138
-0.12570348 -0.09876702 1.138
-0.11672466 -0.09876702 1.138
-0.10375526 -0.096771725 1.138
-0.1396793 -0.010896967 1.13
-0.14457113 -0.005049441 1.1323636
-0.13552365 -0.0048189117 1.1331429
-0.12977296 -0.0029718999 1.13
-0.4221752 0.044174064 1.1366667
-0.41436195 0.046889897 1.1311429
-0.12581043 0.046559766 1.13
-0.41420588 0.054402955 1.1344001
-0.40676674 0.055774849 1.131
-0.12511238 0.054284371 1.1326666
-0.41103041 0.060856447 1.138
-0.40454572 0.063904613 1.1345
-0.13224955 0.066867746 1.13
-0.12847373 0.063989654 1.1316667
-0.40105397 0.070832916 1.138
-0.39215168 0.07664112 1.1353334
-0.38870874 0.076548778 1.1340001
-0.16543576 0.078260034 1.13
-0.15492138 0.07766144 1.1328
-0.14500941 0.076889507 1.1316667
-0.13534321 0.073930234 1.1324002
-0.12869641 0.071830556 1.138
-0.3845931 0.084254675 1.1306667
-0.3728025 0.088478461 1.1340001
-0.17267352 0.085343495 1.1320001
-0.16638608 0.081134997 1.1345714
-0.15263994 0.080809377 1.138
-0.14647989 0.080714695 1.1366667
-0.38098589 0.096329302 1.1366668
-0.37531784 0.094581641 1.1344001
-0.36693785 0.096381977 1.1334286
-0.17487089 0.095269561 1.135
-0.38110101 0.10076232 1.138
-0.37272081 0.10395478 1.1380001
-0.36478552 0.10419435 1.1331112
-0.35875076 0.10514866 1.13
-0.18220676 0.10726297 1.1308
-0.17782341 0.10470941 1.1332
-0.3701269 0.11073878 1.138
-0.3639746 0.11262727 1.1369091
-0.35577765 0.11588979 1.1346667
-0.34637344 0.11796882 1.1308
-0.18406503 0.11478548 1.1340001
-0.17925905 0.11054416 1.136
-0.35017398 0.12071525 1.138
-0.34414709 0.12402028 1.1372001
-0.33642083 0.12653017 1.1320001
-0.18670845 0.12616859 1.1320001
-0.33288142 0.1340172 1.138
-0.32530159 0.13576078 1.1340002
-0.31623715 0.13819179 1.1308
-0.32124221 0.14166583 1.138
-0.31437922 0.14347957 1.1358184
-0.30565685 0.14627919 1.1320001
-0.20208919 0.14958563 1.13
-0.19464254 0.14605491 1.1311429
-0.18715218 0.14343259 1.1335555
-0.30295205 0.15263994 1.138
-0.29514229 0.15491812 1.1335557
-0.28471854 0.15773371 1.1316
-0.27440542 0.15850133 1.13
-0.2042388 0.15544045 1.13025
-0.19753954 0.1538509 1.1361333
-0.28273377 0.1611934 1.1364
-0.27482495 0.16225459 1.1354545
-0.26599932 0.16635132 1.1325455
-0.23469768 0.16870661 1.132
-0.22680244 0.16843748 1.1311429
-0.21319394 0.16738255 1.132
-0.20547314 0.16253351 1.1354285
-0.26238108 0.17259288 1.138
-0.25549254 0.17576815 1.1340001
-0.24458581 0.17597467 1.1330769
-0.23530377 0.17348881 1.1373334
-0.22442842 0.1745998 1.1340001
-0.21526706 0.17435113 1.1358001
-0.22047991 0.18057404 1.138
-0.30508438 -0.19105284 1.141
-0.29408133 -0.19105284 1.141
-0.28431264 -0.19239369 1.146
-0.27607638 -0.19105284 1.141
-0.30575126 -0.18438433 1.1409999
-0.2910805 -0.18905228 1.141
-0.28582904 -0.1883021 1.1409999
-0.27807692 -0.18905228 1.141
-0.31208631 -0.17904952 1.141
-0.13403708 -0.099027388 1.141
-0.12490601 -0.095198229 1.1447334
-0.11526196 -0.094931148 1.1441307
-0.1063858 -0.094102152 1.1435002
-0.09784238 -0.09296988 1.1438572
-0.11382377 -0.089648813 1.149
-0.10531777 -0.088753447 1.149
-0.095470347 -0.085941672 1.1479335
-0.09166339 -0.079575911 1.149
-0.088194594 -0.077744022 1.1458001
-0.14504012 -0.0010002767 1.141
-0.1370379 -0.0010002767 1.141
-0.14415593 0.0053027179 1.1455457
-0.13503267 0.0045669563 1.1448184
-0.12889308 0.0046919198 1.1456667
-0.14303517 0.01108019 1.149
-0.13598415 0.011583835 1.149
-0.12103347 0.059016325 1.141
-0.42003992 0.06345927 1.149
-0.41460863 0.063909627 1.1467143
-0.4085398 0.067253485 1.1450001
-0.12308689 0.06567575 1.1443846
-0.11986751 0.065473847 1.149
-0.4019087 0.07453946 1.149
-0.39989412 0.076554038 1.149
-0.13192834 0.077476822 1.1418002
-0.12588297 0.075102329 1.1463335
-0.39476529 0.082572006 1.1458
-0.17104732 0.088024348 1.141
-0.16468319 0.086538672 1.1428951
-0.1554309 0.084397711 1.1450001
-0.14411061 0.083028212 1.1450001
-0.135426 0.081594877 1.1443334
-0.12893312 0.081590489 1.149
-0.17104732 0.095026284 1.141
-0.16732879 0.095103107 1.1461767
-0.37575188 0.10539491 1.145
-0.17245948 0.10551484 1.1447144
-0.16892841 0.10155921 1.1470001
-0.37210292 0.11203098 1.141
-0.36561617 0.1173094 1.1436667
-0.18105008 0.11803265 1.141
-0.17711252 0.11556876 1.1446667
-0.36186901 0.12241217 1.1476668
-0.35477439 0.12417399 1.1453334
-0.34710622 0.12807779 1.1443334
-0.18218082 0.12531735 1.1435455
-0.1788286 0.1225694 1.146
-0.34355 0.13319509 1.1472857
-0.336842 0.13551375 1.1450001
-0.32909101 0.13903846 1.141
-0.3332313 0.14234525 1.1475002
-0.32497114 0.14501247 1.1443849
-0.31664208 0.14796759 1.143
-0.18599145 0.14848042 1.1432858
-0.3223328 0.15008621 1.149
-0.31363541 0.15269481 1.1474
-0.3065905 0.1548077 1.1455715
-0.29508162 0.15904398 1.141
-0.19238654 0.15637659 1.1409999
-0.18629281 0.15456025 1.1456003
-0.29378414 0.1617973 1.1463333
-0.28557619 0.16589148 1.1456667
-0.27573094 0.16724257 1.1423334
-0.20379798 0.16756484 1.1417999
-0.19525367 0.16516221 1.1444288
-0.18859525 0.16246884 1.1463333
-0.28304848 0.17023201 1.149
-0.27566171 0.17090355 1.149
-0.26634169 0.17494707 1.1482
-0.25997987 0.17967722 1.1450001
-0.2357866 0.1783696 1.1423333
-0.22806308 0.17904952 1.141
-0.21205866 0.17904952 1.141
-0.20496736 0.1754304 1.1440911
-0.19642155 0.17090355 1.149
-0.25451168 0.18308875 1.1475002
-0.24475597 0.18343662 1.1453078
-0.23490557 0.18373807 1.1462309
-0.22573256 0.18359579 1.1443847
-0.21514188 0.18382996 1.1450002
-0.20826472 0.18210793 1.1476668
-0.13431194 -0.094197415 1.1553999
-0.12656875 -0.091127746 1.155
-0.121506 -0.089102641 1.155
-0.11399718 -0.087128796 1.1544545
-0.10371696 -0.083875433 1.1545999
-0.097373419 -0.082548387 1.153
-0.094394758 -0.077448003 1.1555455
-0.088090092 -0.073407248 1.155
-0.086215779 -0.069986932 1.1570001
-0.13443595 0.0090971701 1.153
-0.12736037 0.0090971701 1.153
-0.14223634 0.015407221 1.1543334
-0.1346062 0.013894608 1.1544545
-0.12837118 0.011118763 1.153
-0.14098816 0.02130037 1.1570001
-0.1207021 0.058829594 1.1570001
-0.11055906 0.059843898 1.1570001
-0.42158461 0.067901343 1.156
-0.41533956 0.068100639 1.1536666
-0.1202848 0.065701783 1.153
-0.11620654 0.0653909 1.1557691
-0.41294175 0.073588625 1.1562001
-0.40648088 0.075836748 1.1533999
-0.12266429 0.076634474 1.1539999
-0.11681746 0.073392399 1.1558571
-0.4041369 0.082787432 1.1563333
-0.39825386 0.086928517 1.153
-0.16071667 0.089960903 1.153
-0.15482838 0.088041 1.1543334
-0.14858711 0.085917719 1.153
-0.13446698 0.085460968 1.155
-0.12608208 0.083235621 1.1558571
-0.16301879 0.095179699 1.155
-0.15772417 0.090780146 1.1570001
-0.38218489 0.10490865 1.1543334
-0.37904873 0.10815524 1.153
-0.16640124 0.10436317 1.1557691
-0.37904873 0.11017684 1.153
-0.17297582 0.11458837 1.1549999
-0.16938865 0.11461627 1.1570001
-0.37022072 0.1207021 1.1570001
-0.36381429 0.12618701 1.1541427
-0.357822 0.12837118 1.153
-0.18156029 0.12881652 1.1570001
-0.17562427 0.12447166 1.1554998
-0.36007768 0.13084513 1.1570001
-0.35388708 0.13239223 1.155
-0.34647033 0.1371714 1.1541427
-0.18184046 0.13440615 1.1562001
-0.17778467 0.13156609 1.1562001
-0.34398997 0.14158313 1.1563333
-0.33576968 0.14650348 1.1545
-0.18184763 0.14542477 1.1539999
-0.17817929 0.14594698 1.1570001
-0.33197117 0.15163323 1.1556667
-0.32471088 0.15347366 1.1551818
-0.3159726 0.15757389 1.1555454
-0.30728218 0.15869507 1.153
-0.18286984 0.15657121 1.1538889
-0.17688942 0.15465187 1.153
-0.30382881 0.16289081 1.1556668
-0.29598808 0.16617815 1.1551818
-0.19137195 0.16808155 1.155
-0.18542628 0.16514622 1.1567142
-0.17770596 0.16370855 1.1569999
-0.29211938 0.17141727 1.1570001
-0.28401765 0.17314868 1.155
-0.27527675 0.17514612 1.1548181
-0.26809344 0.17805539 1.1539999
-0.20114855 0.17688942 1.153
-0.19492102 0.17583326 1.1549046
-0.18967472 0.17446017 1.1570001
-0.26450524 0.18343109 1.1559999
-0.25557804 0.18788983 1.1543334
-0.2457433 0.18853506 1.1535714
-0.23545526 0.18891753 1.1541427
-0.22416103 0.18967472 1.1570001
-0.21383318 0.18874581 1.1537999
-0.20525023 0.18605618 1.1557366
-0.19846536 0.18291271 1.1570001
-0.25289962 0.19237953 1.1570001
-0.24439433 0.19272165 1.1557999
-0.23623142 0.19314194 1.1565001
-0.22010382 0.19170333 1.1570001
-0.21477874 0.1929712 1.1570001
-0.2083379 0.19251476 1.1570001
-0.13401164 -0.09058509 1.161
-0.13479649 -0.085071765 1.1662632
-0.12569734 -0.084652819 1.1648097
-0.11574355 -0.082708545 1.1628667
-0.10646292 -0.080814116 1.161
-0.13322704 -0.078228176 1.169
-0.11413982 -0.076602697 1.1676666
-0.10511287 -0.074490473 1.1640403
-0.095493264 -0.072552055 1.1612667
-0.088549472 -0.07022889 1.161
-0.10431746 -0.06652423 1.1674614
-0.09480039 -0.064499296 1.1648337
-0.086313352 -0.063965365 1.1647649
-0.093258925 -0.056877691 1.169
-0.085174382 -0.055040684 1.1678573
-0.14351121 0.01933839 1.161
-0.13473752 0.018142967 1.1626002
-0.12970722 0.019405017 1.1650001
-0.14351121 0.02137401 1.161
-0.13536865 0.024523171 1.1654003
-0.12970722 0.023490282 1.1650001
-0.1162339 0.057608046 1.161
-0.11416743 0.064283706 1.1612858
-0.1096561 0.068663165 1.169
-0.42107964 0.071371183 1.1630001
-0.41692173 0.075775653 1.1627779
-0.12111939 0.078371368 1.161
-0.11377783 0.075561136 1.1636666
-0.10909328 0.075449437 1.1630001
-0.41332117 0.084405906 1.1670001
-0.4072369 0.086192116 1.1635001
-0.15165369 0.088549472 1.161
-0.14542252 0.087847367 1.1636667
-0.13536873 0.088549472 1.161
-0.12406849 0.086167939 1.164143
-0.11687282 0.082284287 1.1674
-0.40479398 0.09266033 1.1666001
-0.1618318 0.09770976 1.161
-0.15463248 0.095247194 1.16324
-0.14767782 0.092786573 1.1682001
-0.13511275 0.091369525 1.1658
-0.12970722 0.09089718 1.1650001
-0.38503638 0.10928088 1.1650001
-0.16214742 0.10577033 1.1632859
-0.15626599 0.10474864 1.1660668
-0.3822591 0.11648826 1.169
-0.37584454 0.11949405 1.1650001
-0.17200989 0.11908377 1.161
-0.16545482 0.11492242 1.1641999
-0.1581644 0.11238896 1.169
-0.3738564 0.12407269 1.1658001
-0.36844721 0.12722625 1.161
-0.17302769 0.12654771 1.1610001
-0.16750088 0.12529381 1.1639475
-0.37201086 0.13015257 1.169
-0.36435735 0.13379335 1.165
-0.35591605 0.13738504 1.1632859
-0.18081644 0.13701555 1.1620001
-0.17445025 0.13621373 1.1614445
-0.16791028 0.13496931 1.1652499
-0.35380504 0.14406601 1.1678573
-0.34592417 0.14628088 1.1632223
-0.33893073 0.14961807 1.161
-0.17390332 0.14516076 1.1628
-0.16712797 0.14496918 1.1682727
-0.34253502 0.15098625 1.1663333
-0.33517176 0.15595268 1.1642001
-0.32630989 0.15776055 1.161
-0.17315254 0.15477514 1.1646001
-0.16729139 0.15227115 1.1683334
-0.33278266 0.16178444 1.1680001
-0.32537809 0.16283041 1.1668181
-0.3142702 0.16516753 1.1650001
-0.30535328 0.16731909 1.1620001
-0.29821834 0.16997427 1.161
-0.18396917 0.16793865 1.1610001
-0.17367876 0.16574378 1.1638891
-0.16909584 0.16294691 1.169
-0.31154627 0.1711455 1.169
-0.30395454 0.17357439 1.1674
-0.29460007 0.1753151 1.1657273
-0.28621501 0.17786427 1.1660001
-0.27887994 0.17811675 1.161
-0.18422364 0.17506334 1.1609999
-0.17494136 0.17494604 1.1632224
-0.16909584 0.17319514 1.169
-0.28287974 0.18159579 1.1670001
-0.27471244 0.18435091 1.1660668
-0.26679191 0.18799818 1.1642001
-0.20050856 0.18625923 1.161
-0.19446161 0.18549402 1.1631999
-0.18488289 0.1848893 1.1651601
-0.1775697 0.18268448 1.1663333
-0.26292899 0.19285132 1.1670001
-0.25506511 0.19671032 1.1638
-0.24479914 0.19726783 1.161889
-0.23422723 0.19683506 1.1633335
-0.22559969 0.1959739 1.1633159
-0.21503687 0.19731997 1.1614001
-0.20468365 0.19478731 1.1624286
-0.19824618 0.1921066 1.1676668
-0.25108171 0.2018902 1.169
-0.2447215 0.2017175 1.1680001
-0.23468454 0.2018902 1.169
-0.22392391 0.2018902 1.169
-0.2137401 0.20050856 1.161
-0.20865105 0.20050856 1.161
-0.12854125 -0.082266398 1.1730001
-0.1305979 -0.077124752 1.1730001
-0.12448871 -0.075375803 1.1751667
-0.1160928 -0.072330914 1.1745001
-0.12072489 -0.06810122 1.177
-0.11314739 -0.066205531 1.1757693
-0.10575209 -0.062008608 1.1740001
-0.099748008 -0.060671471 1.1730001
-0.10329831 -0.057209611 1.177
-0.095736109 -0.053289797 1.1742309
-0.084323063 -0.050388169 1.1730001
-0.09342128 -0.04578058 1.1762002
-0.085526019 -0.044304457 1.1754001
-0.07918141 -0.04833151 1.1730001
-0.084438629 -0.036286253 1.177
-0.079316415 -0.035019327 1.1750001
-0.081515096 -0.029923264 1.177
-0.079451419 -0.028891426 1.177
-0.1278557 0.027079357 1.1730001
-0.10797465 0.068898112 1.1730001
-0.11015638 0.074472539 1.1743335
-0.10765496 0.071884625 1.177
-0.41626152 0.088195302 1.1743335
-0.12051974 0.088588923 1.1750001
-0.11457493 0.086061932 1.1756668
-0.10731101 0.085642442 1.177
-0.41284072 0.094021626 1.1756668
-0.4080255 0.097116835 1.1743335
-0.1511645 0.099748008 1.1730001
-0.14438188 0.094597451 1.1750002
-0.1344215 0.09373758 1.1750001
-0.12620205 0.092628725 1.1758573
-0.11866122 0.091833465 1.177
-0.40963915 0.10008816 1.177
-0.39416158 0.10834285 1.177
-0.38973707 0.10797465 1.1730001
-0.15226686 0.10548516 1.1747143
-0.14961632 0.1042155 1.177
-0.39312974 0.11143836 1.177
-0.38665208 0.11414463 1.1730001
-0.16144781 0.11825795 1.1730001
-0.15553951 0.11485385 1.1750002
-0.38168988 0.12402525 1.1756667
-0.37804058 0.12567192 1.1750001
-0.16264132 0.12455732 1.1742002
-0.1565935 0.1250488 1.177
-0.37455672 0.13310693 1.177
-0.36574268 0.13745345 1.1730001
-0.16361426 0.1355392 1.176077
-0.15642644 0.13228145 1.177
-0.36114281 0.14445713 1.177
-0.35692298 0.14678949 1.1750001
-0.16317499 0.14532723 1.1743335
-0.15905026 0.14696303 1.177
-0.34496465 0.15466276 1.1746
-0.17224528 0.15733449 1.1730001
-0.16486134 0.15609239 1.1734213
-0.1590175 0.15534873 1.177
-0.33485746 0.16500232 1.1752857
-0.32451156 0.16849923 1.1730002
-0.31912509 0.1689889 1.1730001
-0.17173111 0.16967446 1.1730001
-0.16633712 0.16514789 1.1746843
-0.15993468 0.16303019 1.177
-0.32475415 0.1716544 1.1760001
-0.31438109 0.17491026 1.1750002
-0.30685771 0.17719975 1.1738001
-0.2951307 0.17995775 1.1730001
-0.17173111 0.1763586 1.1730001
-0.16685984 0.17474087 1.1753531
-0.30232814 0.18125932 1.177
-0.29460734 0.18232474 1.1750001
-0.28520319 0.18598396 1.1744547
-0.27867743 0.1881844 1.1730001
-0.17399323 0.18598883 1.174412
-0.16739808 0.18389277 1.1758001
-0.2816914 0.19088978 1.177
-0.27465728 0.19202945 1.1745001
-0.26646826 0.19557889 1.1754
-0.20155267 0.19743936 1.1730001
-0.19445653 0.19575806 1.1742634
-0.18486677 0.1955221 1.1758889
-0.17584933 0.19172701 1.1758001
-0.25545892 0.20361547 1.1750001
-0.24568479 0.20540719 1.174778
-0.2357887 0.20567322 1.1745001
-0.22592986 0.2046438 1.1750002
-0.21647933 0.20657369 1.177
-0.20662528 0.20301387 1.177
-0.19536106 0.20155208 1.177
-0.18882611 0.20120814 1.177
-0.12941791 -0.071438693 1.1810001
-0.12445335 -0.069485478 1.1830001
-0.11630356 -0.063616104 1.1810001
-0.11358424 -0.05634816 1.1853079
-0.1056156 -0.053183571 1.1833999
-0.10282 -0.045945372 1.1866668
-0.096767701 -0.043098338 1.1818001
-0.1011086 -0.035440128 1.189
-0.094527289 -0.034274273 1.184826
-0.086229593 -0.031849518 1.1815001
-0.091832705 -0.026045391 1.1884286
-0.085171454 -0.024924291 1.1847501
-0.079901449 -0.023864329 1.1836667
-0.083786137 -0.01789205 1.1879092
-0.079991452 -0.019738151 1.1850001
-0.074702226 -0.0045168786 1.189
-0.071922608 0.0010423567 1.189
-0.10456967 0.069368005 1.1810001
-0.10531618 0.07497786 1.184077
-0.11147196 0.086623728 1.1810001
-0.10734893 0.08291316 1.1860001
-0.42073426 0.097651899 1.1850001
-0.41765752 0.095872797 1.1810001
-0.14299573 0.0984409 1.182
-0.135674 0.097575046 1.1854445
-0.12419364 0.095414653 1.183
-0.11556253 0.093494013 1.1859232
-0.10944745 0.090685032 1.189
-0.41435701 0.10312422 1.1834
-0.14555985 0.10439859 1.1864735
-0.13585381 0.10110859 1.189
-0.40293968 0.11661536 1.1876668
-0.39530614 0.11673407 1.1839334
-0.38774526 0.11795286 1.1836667
-0.15110157 0.11542806 1.1814445
-0.14683858 0.11559872 1.1879333
-0.40328297 0.1252825 1.1850001
-0.39540347 0.12401064 1.1887143
-0.38627696 0.12583819 1.1841111
-0.3779003 0.12941791 1.1810001
-0.15132755 0.12505211 1.1832223
-0.14713062 0.12441635 1.1886001
-0.38254488 0.13237929 1.189
-0.37522954 0.1359745 1.1840001
-0.36961758 0.13977134 1.1810001
-0.16047822 0.13770066 1.1810001
-0.15396707 0.13663402 1.1832857
-0.14780617 0.13237929 1.189
-0.37178573 0.1433485 1.1866
-0.36671403 0.14544074 1.1850001
-0.16047822 0.14184204 1.1810001
-0.15428877 0.14468643 1.1865237
-0.36296892 0.15149531 1.1863333
-0.35457098 0.15463802 1.1854001
-0.34693059 0.15807499 1.1836667
-0.1548201 0.15509897 1.1863333
-0.34455192 0.16310179 1.1850001
-0.3376286 0.16863997 1.1850001
-0.16151357 0.16772561 1.1810001
-0.15669055 0.16445807 1.1858
-0.33318007 0.17422698 1.1876668
-0.32514778 0.17635891 1.1841112
-0.31811953 0.1782307 1.1820002
-0.16231027 0.17538784 1.1838002
-0.15906362 0.17532438 1.189
-0.32250515 0.18199548 1.189
-0.31387383 0.18348524 1.1875001
-0.3048977 0.18571657 1.1856667
-0.29491153 0.18678071 1.1827143
-0.2888608 0.18946783 1.1810001
-0.16340014 0.18509161 1.1861429
-0.15948057 0.1803277 1.189
-0.32000348 0.19283599 1.189
-0.30124107 0.19075127 1.189
-0.29456362 0.1916665 1.1872857
-0.28551137 0.19484964 1.1856154
-0.27559307 0.19753091 1.1850001
-0.26815394 0.19775057 1.1810001
-0.17413892 0.1963664 1.1817273
-0.16674627 0.19462395 1.1863333
-0.27344489 0.20256464 1.189
-0.26550263 0.20491557 1.1865
-0.25607768 0.20755768 1.1826001
-0.24434102 0.20810401 1.1810001
-0.2319169 0.20810401 1.1810001
-0.22589859 0.20828022 1.1820002
-0.21535142 0.20741378 1.1810001
-0.20433189 0.20672926 1.183154
-0.19444299 0.20678048 1.1852667
-0.18516456 0.20474587 1.1879333
-0.17552128 0.2027224 1.1867144
-0.16841505 0.20296176 1.189
-0.25300863 0.21205603 1.1876668
-0.2453306 0.21207127 1.1858001
-0.23459035 0.21209301 1.1864547
-0.22464703 0.21320681 1.1863334
-0.21496813 0.21409665 1.1845789
-0.20469157 0.21301171 1.1852667
-0.19742234 0.2124323 1.189
-0.11399911 -0.051247302 1.1930001
-0.11258837 -0.045284044 1.1958001
-0.10740864 -0.044236362 1.1937274
-0.11018385 -0.03777732 1.197
-0.10518091 -0.035061207 1.1951537
-0.099357016 -0.030330036 1.1930001
-0.10237509 -0.025854068 1.1956667
-0.096833304 -0.024548888 1.1936154
-0.093645863 -0.017178688 1.196077
-0.085565291 -0.013441796 1.1936153
-0.07843975 -0.011504496 1.1930001
-0.083578676 -0.0058179493 1.1950002
-0.077393889 -0.003921988 1.193
-0.081501067 0.0017489501 1.197
-0.075429447 0.0035632993 1.1950001
-0.10312213 0.077184714 1.1930001
-0.099357016 0.076348014 1.1930001
-0.10435499 0.085045919 1.1943334
-0.098640777 0.081850857 1.197
-0.13073291 0.099357016 1.1930001
-0.12462746 0.09949027 1.1946001
-0.11327358 0.09799204 1.1942
-0.10578012 0.095852025 1.1959475
-0.099690147 0.097591408 1.197
-0.14223741 0.10772392 1.193
-0.13589379 0.10496391 1.1945384
-0.12344167 0.10403418 1.1966668
-0.11449482 0.10470445 1.1967336
-0.10724561 0.10472713 1.197
-0.41030368 0.11752944 1.197
-0.40684083 0.11609083 1.1930001
-0.14229658 0.11509274 1.1934999
-0.13863343 0.11438133 1.197
-0.11018385 0.11018385 1.197
-0.41030368 0.12067755 1.197
-0.40350616 0.12427092 1.1934445
-0.39638221 0.12864119 1.1930001
-0.14326526 0.12498853 1.1944546
-0.13816704 0.12312607 1.197
-0.40295807 0.13117126 1.197
-0.39466196 0.13190261 1.1965001
-0.38485998 0.13527966 1.1962001
-0.37964839 0.1370081 1.1930001
-0.14703348 0.13551494 1.1946
-0.3809213 0.14166495 1.197
-0.37582558 0.14581409 1.1941429
-0.1468702 0.14551795 1.1941767
-0.37252632 0.15145907 1.197
-0.36372814 0.15548238 1.1956667
-0.35888454 0.15845487 1.197
-0.15217312 0.15426484 1.1930001
-0.1459537 0.154548 1.1952002
-0.35281932 0.16251646 1.1960001
-0.34675762 0.16657457 1.1950001
-0.15197711 0.16568305 1.194091
-0.14818034 0.16243494 1.1954
-0.34257066 0.1718109 1.1950001
-0.33678395 0.17645249 1.1938001
-0.15447813 0.17488737 1.195316
-0.3316009 0.18259038 1.197
-0.32658198 0.1831795 1.194
-0.31481099 0.18783723 1.197
-0.30956414 0.18993597 1.197
-0.16001709 0.18616366 1.1930001
-0.15666077 0.1849575 1.1953334
-0.30472431 0.19336635 1.1954999
-0.29596031 0.19649459 1.1943334
-0.28447485 0.1997599 1.1930001
-0.16258202 0.19540228 1.1947777
-0.28335112 0.20323256 1.1962001
-0.27596173 0.20586084 1.1935
-0.18198022 0.2081268 1.1930001
-0.17465918 0.20812681 1.1930001
-0.16571042 0.20493074 1.1952858
-0.27178684 0.21092337 1.197
-0.26839006 0.21115308 1.1943334
-0.25604627 0.21512085 1.197
-0.24438339 0.21649371 1.1930001
-0.23511744 0.21766768 1.1943334
-0.22590649 0.21858543 1.1930001
-0.21021853 0.21858543 1.1930001
-0.20516016 0.21876866 1.194
-0.19526976 0.21586411 1.1943332
-0.18521699 0.21291979 1.1955715
-0.17500079 0.21220374 1.1953334
-0.16894858 0.21092337 1.197
-0.23296013 0.22141707 1.197
-0.22606282 0.22152023 1.1956668
-0.21468532 0.22097313 1.1946
-0.1127516 -0.041096378 1.202
-0.10221408 -0.020021314 1.202
-0.10103349 -0.017248709 1.2046667
-0.096632458 -0.014320476 1.2037144
-0.093612216 -0.0086632194 1.2052
-0.088793568 -0.0037679134 1.2037144
-0.084112376 0.0051051225 1.2043334
-0.076693431 0.008170533 1.2025
-0.075235687 0.013548645 1.2056365
-0.075065456 0.020087941 1.2060001
-0.097104862 0.098162115 1.204
-0.1318931 0.10741657 1.2036
-0.1272627 0.1064807 1.2025715
-0.1144376 0.10600759 1.202
-0.1030673 0.10517919 1.20275
-0.098325171 0.10255422 1.2060001
-0.41388193 0.11568903 1.2033334
-0.13343491 0.11502899 1.2037778
-0.1253382 0.11477775 1.2041335
-0.11490821 0.11279543 1.2043334
-0.10628811 0.11136156 1.2052
-0.14014919 0.12750416 1.202
-0.13383217 0.12433938 1.2034285
-0.12515017 0.12243351 1.2054287
-0.40493059 0.13532929 1.2060002
-0.39510897 0.13545786 1.2040001
-0.38813248 0.13733919 1.202
-0.14274441 0.13527089 1.2047694
-0.13723235 0.1325804 1.2060001
-0.39012894 0.14061558 1.2060001
-0.38428754 0.14329186 1.2036
-0.14253864 0.14423098 1.2043999
-0.37667096 0.15383922 1.2046667
-0.36701038 0.1576685 1.2030001
-0.14105611 0.15476455 1.2030001
-0.13850106 0.15647449 1.2060001
-0.36309427 0.16202115 1.204
-0.35566422 0.16517977 1.2026668
-0.34879234 0.16965428 1.202
-0.14431773 0.16552591 1.2033999
-0.13850106 0.16281804 1.2060001
-0.35206759 0.17021886 1.2060001
-0.34515333 0.175741 1.2040001
-0.15068673 0.17597681 1.202
-0.1464013 0.17420621 1.2043334
-0.34182227 0.18129641 1.2046667
-0.3365418 0.18446469 1.2046669
-0.32614282 0.18802397 1.2026668
-0.31823349 0.18862185 1.202
-0.15231062 0.1854783 1.2027272
-0.14855187 0.18320894 1.2052001
-0.33092237 0.1955931 1.2060001
-0.32432497 0.19280879 1.2038462
-0.31498018 0.19462149 1.2043334
-0.30527011 0.1985402 1.2037144
-0.16122426 0.19810563 1.202
-0.15718195 0.19520359 1.2046667
-0.30131909 0.20299393 1.2060001
-0.29489487 0.20342663 1.2048001
-0.2862137 0.20635857 1.2025
-0.27924463 0.20969692 1.202
-0.16304305 0.20594555 1.2033334
-0.15964626 0.20299393 1.2060001
-0.2833457 0.21198064 1.2060001
-0.2763896 0.21309547 1.2033335
-0.26463261 0.21638039 1.2040001
-0.25521785 0.2183084 1.2030001
-0.24845611 0.21885282 1.2060001
-0.19072935 0.21812694 1.202
-0.18440683 0.21812694 1.202
-0.17480162 0.21751809 1.2030001
-0.16645552 0.21335296 1.2048
-0.2553283 0.22096734 1.2060001
-0.24464996 0.22287039 1.2060002
-0.2359782 0.22518311 1.2046667
-0.22482292 0.22588015 1.2039999
-0.21493471 0.22620514 1.2051113
-0.20507756 0.22512822 1.2034999
-0.19602299 0.22398493 1.2048236
-0.18502046 0.22308184 1.2060001
-0.17562264 0.22214204 1.2060002
-0.10254077 -0.013789966 1.21
-0.098651297 -0.011668433 1.21
-0.10110597 -0.0085141864 1.2140001
-0.095893867 -0.0043995515 1.2115
-0.092900857 0.0046554841 1.2128124
-0.087195016 0.0078496737 1.21
-0.090463236 0.011707007 1.2140001
-0.084649183 0.014638581 1.2100002
-0.076223664 0.01742688 1.21
-0.083008498 0.023775933 1.214
-0.075077772 0.024354396 1.2124093
-0.067181885 0.025705913 1.2131666
-0.074164771 0.03141851 1.2190001
-0.066792712 0.03136766 1.217
-0.071599998 0.042746268 1.2190001
-0.065188058 0.043814924 1.2190001
-0.055827014 0.045870412 1.2167778
-0.093742698 0.096940778 1.2151667
-0.095178664 0.10569557 1.2135293
-0.13259584 0.11562356 1.21
-0.12304893 0.11562356 1.21
-0.1165328 0.11713894 1.21
-0.10458808 0.11563735 1.2115999
-0.096485347 0.11426065 1.2161666
-0.13153507 0.12729201 1.21
-0.12310657 0.12390719 1.2132499
-0.11397127 0.12215408 1.2169167
-0.10501982 0.1227012 1.219
-0.40362173 0.13843006 1.21
-0.39672673 0.13896044 1.21
-0.13639152 0.13639209 1.2123333
-0.40304226 0.14454928 1.2173333
-0.39496592 0.14495045 1.2139333
-0.38749981 0.14597727 1.2110001
-0.14108196 0.14214273 1.21
-0.13732113 0.1450126 1.2128462
-0.39326566 0.15228358 1.219
-0.38490438 0.15413484 1.2142
-0.37538424 0.1584461 1.2130001
-0.13632172 0.15390179 1.2122726
-0.38151044 0.16136716 1.2190001
-0.37338775 0.16395876 1.2176
-0.36557803 0.16748048 1.2148751
-0.3585391 0.16866189 1.21
-0.13475415 0.16547614 1.2140476
-0.12930745 0.16884775 1.2190001
-0.3647218 0.17340018 1.2184443
-0.35564527 0.17487405 1.2142726
-0.34899223 0.1782088 1.21
