# .PCD v0.7 - Point Cloud Data file format
VERSION 0.7
FIELDS x y z
SIZE 4 4 4
TYPE F F F
COUNT 1 1 1
WIDTH 1445
HEIGHT 1
VIEWPOINT 0 0 0 1 0 0 0
POINTS 1445
DATA ascii
-0.17629066 -0.21408249 1.1342857
-0.16702078 -0.2117974 1.13
-0.20085953 -0.20518266 1.138
-0.19473596 -0.20522308 1.1324762
-0.18524843 -0.208033 1.13
-0.17435145 -0.20763674 1.13
-0.16741703 -0.20675932 1.13
-0.15156689 -0.20208919 1.13
-0.14829636 -0.20138259 1.1353334
-0.20052698 -0.19055051 1.138
-0.19485667 -0.19534497 1.1340001
-0.18921097 -0.19416413 1.13
-0.15255752 -0.1991173 1.13
-0.14490518 -0.19646181 1.1337334
-0.13475132 -0.19456525 1.1350528
-0.12718013 -0.19305217 1.1316
-0.21050344 -0.18057404 1.138
-0.20433711 -0.18425579 1.1377336
-0.19488527 -0.18544093 1.1336001
-0.18846801 -0.18450546 1.13
-0.13175423 -0.18921097 1.13
-0.1277917 -0.18921097 1.13
-0.21050344 -0.17857875 1.138
-0.20434672 -0.17530508 1.1333333
-0.19659571 -0.17714323 1.13
-0.18921097 -0.17930463 1.13
-0.20442581 -0.16477302 1.1337779
-0.1991173 -0.16939829 1.13
-0.21050344 -0.15463524 1.138
-0.20475957 -0.15465716 1.1316001
-0.1991173 -0.15420859 1.13
-0.21050343 -0.14465876 1.138
-0.20461838 -0.14501382 1.1329998
-0.21050343 -0.1346823 1.138
-0.2045451 -0.13503489 1.1326001
-0.18822032 -0.13373549 1.13
-0.21283127 -0.1230431 1.1380001
-0.20461431 -0.1248056 1.1340001
-0.1955051 -0.12517753 1.1305215
-0.22133504 -0.11330415 1.138
-0.21509174 -0.11496852 1.1364002
-0.20567986 -0.11486385 1.1334001
-0.19504835 -0.11577347 1.1303331
-0.18439932 -0.11930055 1.13
-0.17930463 -0.11986663 1.13
-0.22081244 -0.10508544 1.138
-0.21448815 -0.1046158 1.1334287
-0.19713604 -0.1082267 1.13
-0.078260034 -0.10005397 1.13
-0.22047991 -0.096771725 1.138
-0.2144742 -0.094326355 1.1326001
-0.20657623 -0.093993604 1.13
-0.091732644 -0.090940133 1.13
-0.083414838 -0.09332668 1.1306314
-0.076751888 -0.094313018 1.1324615
-0.21379112 -0.086111136 1.136182
-0.20540747 -0.084179282 1.1309092
-0.1991173 -0.0802413 1.13
-0.10005397 -0.0802413 1.13
-0.093152106 -0.083758682 1.1310526
-0.084511288 -0.084510453 1.1341603
-0.077215485 -0.084187612 1.1365001
-0.20376521 -0.076126069 1.1358181
-0.19648628 -0.073237486 1.1311429
-0.18921097 -0.070334964 1.13
-0.11264524 -0.07300432 1.1304445
-0.10469956 -0.073576346 1.1308696
-0.094280034 -0.074432582 1.13208
-0.086037204 -0.075596206 1.1372943
-0.073825851 -0.078814089 1.138
-0.20052698 -0.06883762 1.138
-0.1939777 -0.065873899 1.1356666
-0.18705483 -0.063627653 1.1305335
-0.13769804 -0.060428634 1.13
-0.11341069 -0.064342566 1.1324762
-0.10448256 -0.065493591 1.1360954
-0.09451656 -0.065994106 1.134889
-0.08829172 -0.066842325 1.138
-0.19121559 -0.058196053 1.138
-0.1846628 -0.055045243 1.1340001
-0.17651331 -0.05164288 1.1304445
-0.13455132 -0.053902119 1.13
-0.12565802 -0.053113196 1.13
-0.11486394 -0.054409508 1.1312412
-0.10874349 -0.054870564 1.138
-0.18057404 -0.048884686 1.138
-0.17484416 -0.047440719 1.1353334
-0.16551292 -0.044823375 1.1335557
-0.15653685 -0.0417892 1.1311429
-0.14215589 -0.042101912 1.13
-0.12526526 -0.044398542 1.1308569
-0.11464559 -0.044907093 1.132815
-0.10874349 -0.044894099 1.138
-0.1533702 -0.037345998 1.136
-0.14510894 -0.036117792 1.1327499
-0.13529974 -0.034855392 1.1306664
-0.12499398 -0.034902766 1.1331725
-0.11435921 -0.034803603 1.1343203
-0.10780413 -0.034109786 1.136
-0.132687 -0.028931754 1.138
-0.12466872 -0.027260534 1.1376667
-0.11465506 -0.026667982 1.1372501
-0.10855237 -0.027883261 1.136
-0.21092653 -0.223014 1.149
-0.20492586 -0.22458737 1.1458575
-0.19554506 -0.22485563 1.143889
-0.18508826 -0.22331181 1.143
-0.17725819 -0.22232325 1.1423334
-0.21239021 -0.21480699 1.1482002
-0.20528816 -0.21602009 1.1435884
-0.19862081 -0.21864973 1.1423334
-0.17704897 -0.21906058 1.141
-0.14605047 -0.21179828 1.1450001
-0.13952588 -0.21179828 1.1450001
-0.21283235 -0.2046223 1.1480771
-0.20643473 -0.20572536 1.1440591
-0.15304233 -0.20705727 1.141
-0.14454274 -0.2061844 1.143737
-0.13604437 -0.20519145 1.1438574
-0.12703514 -0.20105562 1.141
-0.21399492 -0.19423513 1.1460001
-0.20564538 -0.19562246 1.1433337
-0.21404618 -0.18503752 1.1434002
-0.20705725 -0.188052 1.1409999
-0.2137654 -0.1759299 1.1456667
-0.20905782 -0.17204759 1.141
-0.21258529 -0.16435058 1.146143
-0.20905782 -0.16804647 1.141
-0.21527998 -0.15391417 1.1475002
-0.23268399 -0.14001331 1.149
-0.22059651 -0.14001331 1.149
-0.21560988 -0.14449899 1.1468184
-0.23268399 -0.13799873 1.149
-0.22203551 -0.13454518 1.149
-0.21599892 -0.13500836 1.1452669
-0.23416853 -0.12457215 1.1482501
-0.22515056 -0.12497959 1.1462635
-0.21677507 -0.1266773 1.1419231
-0.24074231 -0.11684564 1.149
-0.23489086 -0.11543404 1.1450002
-0.22668359 -0.11578955 1.1430002
-0.2336314 -0.10618025 1.1472857
-0.22630827 -0.10545974 1.1431178
-0.22505292 -0.095359415 1.1450002
-0.22270402 -0.087913714 1.1474001
-0.21728571 -0.083436742 1.1467143
-0.077021301 -0.081022412 1.141
-0.21235321 -0.075982012 1.1480001
-0.20728302 -0.073527128 1.1450001
-0.081522547 -0.072520055 1.141
-0.075277492 -0.074415445 1.1434765
-0.068447724 -0.074462533 1.1440001
-0.21406773 -0.06387569 1.1487143
-0.20527264 -0.065141819 1.1468949
-0.1979783 -0.063320979 1.142
-0.10602932 -0.061016876 1.141
-0.095026277 -0.061016876 1.141
-0.084168762 -0.064350449 1.1430001
-0.076096073 -0.066232339 1.1482002
-0.068064027 -0.067776226 1.149
-0.21371159 -0.055689987 1.1453078
-0.20568791 -0.055186335 1.1445203
-0.19600974 -0.054698899 1.1439093
-0.18838543 -0.051680963 1.141
-0.10411648 -0.055142749 1.143737
-0.095506281 -0.055286493 1.1467601
-0.085803144 -0.055697948 1.1479567
-0.078904383 -0.058758587 1.149
-0.20508771 -0.045483138 1.1437275
-0.19573776 -0.045170244 1.1450003
-0.1857065 -0.044961166 1.1440003
-0.17579439 -0.042771008 1.1428463
-0.1670462 -0.041011345 1.141
-0.1043726 -0.046054982 1.1470002
-0.20445956 -0.038650103 1.1472857
-0.19433118 -0.035309799 1.1472224
-0.18532352 -0.035136763 1.1451603
-0.17559743 -0.035621371 1.1473335
-0.16506658 -0.036119174 1.1462634
-0.15605024 -0.033775337 1.1444668
-0.14604829 -0.031414472 1.1436667
-0.13903846 -0.031008577 1.141
-0.10448201 -0.035156086 1.146
-0.19349124 -0.027196826 1.149
-0.18470292 -0.026080968 1.1466844
-0.17778908 -0.026929349 1.1472223
-0.14295277 -0.028187171 1.1483334
-0.12310475 -0.022018358 1.1416668
-0.11533404 -0.021765223 1.1415
-0.10568573 -0.024296466 1.1452669
-0.12212463 -0.018400356 1.1450001
-0.11503367 -0.016717922 1.1472502
-0.10748044 -0.017871069 1.1485001
-0.2130037 -0.24241848 1.1570001
-0.20793217 -0.24038988 1.1570001
-0.21416043 -0.23349401 1.1560767
-0.20572421 -0.23511691 1.1559998
-0.197282 -0.23227546 1.1570001
-0.18764612 -0.23227546 1.1570001
-0.22100544 -0.22371022 1.1570001
-0.21576203 -0.22510864 1.1554614
-0.20620252 -0.22945084 1.153
-0.18800819 -0.22945084 1.153
-0.22253814 -0.21462658 1.1569999
-0.21703248 -0.21501088 1.153
-0.23352383 -0.20481126 1.1569998
-0.22456674 -0.20529497 1.1569998
-0.21807936 -0.20594981 1.153
-0.23430407 -0.19778916 1.1570002
-0.22470921 -0.19598584 1.1563332
-0.21900594 -0.19575763 1.153
-0.22339793 -0.18590958 1.1556667
-0.21934287 -0.18564965 1.153
-0.22155285 -0.17605408 1.1570002
-0.21765822 -0.17419396 1.153
-0.22086456 -0.16457072 1.1570001
-0.21656319 -0.16551796 1.153
-0.2236539 -0.1548503 1.1569999
-0.21900593 -0.15532576 1.153
-0.2428693 -0.14256598 1.1570001
-0.23408903 -0.14448464 1.1553527
-0.22533092 -0.14451966 1.1551999
-0.21934287 -0.14656551 1.153
-0.24516737 -0.13474014 1.1555998
-0.23538572 -0.13429289 1.15316
-0.22727376 -0.13521348 1.153
-0.25053293 -0.1247593 1.1570001
-0.24495539 -0.12450089 1.1545999
-0.23888494 -0.1276973 1.153
-0.24500081 -0.11470231 1.1551331
-0.2418389 -0.10505284 1.1570002
-0.23677292 -0.10300394 1.1542
-0.23360418 -0.095743708 1.1562728
-0.22945084 -0.094004087 1.153
-0.23345883 -0.084018119 1.1569999
-0.22534639 -0.083570831 1.1551175
-0.23230891 -0.075520597 1.1563331
-0.22498207 -0.074994884 1.1559998
-0.21732128 -0.075087748 1.153
-0.23133159 -0.065849058 1.1556667
-0.22514068 -0.066057794 1.1544544
-0.21585101 -0.067723371 1.153
-0.073435031 -0.062510014 1.1537999
-0.068792909 -0.062722869 1.154
-0.22041899 -0.056749262 1.156
-0.21732128 -0.056604613 1.153
-0.081966877 -0.051610243 1.1543332
-0.075794339 -0.056702044 1.1549999
-0.067917995 -0.058795109 1.1563333
-0.10157245 -0.045103624 1.1547778
-0.095058329 -0.047164921 1.1552856
-0.085608743 -0.04801077 1.1547142
-0.2029389 -0.034961026 1.156
-0.19958748 -0.033431098 1.1556667
-0.17284624 -0.031334698 1.153
-0.16577065 -0.031334698 1.153
-0.10333854 -0.036132399 1.1556667
-0.18156029 -0.02130037 1.1570001
-0.17411084 -0.025448641 1.1551331
-0.16540639 -0.027100835 1.1557499
-0.15490368 -0.027333355 1.1548666
-0.14534126 -0.025318719 1.1553332
-0.10192945 -0.024641054 1.155
-0.1202848 -0.01516195 1.153
-0.11393123 -0.011985159 1.153
-0.10486975 -0.014753048 1.1549999
-0.11258766 -0.0081144264 1.1570001
-0.10751615 -0.0091287298 1.1570001
-0.24083348 -0.2418583 1.169
-0.2379054 -0.24346875 1.169
-0.2238507 -0.24259032 1.169
-0.2180272 -0.24301618 1.1635001
-0.19164196 -0.2418583 1.169
-0.24083348 -0.23365971 1.169
-0.23545414 -0.23477511 1.1674
-0.2249999 -0.23441209 1.1636666
-0.21760778 -0.23674262 1.161
-0.19439121 -0.23363499 1.1658001
-0.18422361 -0.23104286 1.161
-0.24325579 -0.22313198 1.1689999
-0.23465779 -0.22541329 1.1645792
-0.22671717 -0.22519046 1.161
-0.25108171 -0.21213843 1.169
-0.24461249 -0.21490327 1.1665241
-0.23460831 -0.21481232 1.1623333
-0.22717519 -0.21597929 1.1610001
-0.25108171 -0.20462306 1.169
-0.24531204 -0.20536494 1.1666844
-0.23647121 -0.20457982 1.1610001
-0.22697163 -0.20865105 1.161
-0.25108171 -0.19574125 1.169
-0.2447931 -0.19531988 1.1675004
-0.23417978 -0.19415863 1.161706
-0.22900724 -0.19236608 1.161
-0.25108171 -0.18959232 1.169
-0.24384768 -0.18657814 1.169
-0.23518565 -0.18507661 1.1664002
-0.22810252 -0.18377127 1.1610001
-0.24083348 -0.17524479 1.169
-0.23577899 -0.17532612 1.1687779
-0.22687964 -0.17469205 1.1626
-0.24083348 -0.16636299 1.169
-0.23551035 -0.16485541 1.1680002
-0.22643411 -0.16610216 1.1615
-0.25313136 -0.15064903 1.169
-0.24492264 -0.15195526 1.1667777
-0.23446763 -0.15495083 1.1650001
-0.22824389 -0.15623383 1.1610001
-0.26201317 -0.14279206 1.169
-0.25513345 -0.14535335 1.1671177
-0.24558099 -0.14600478 1.1614001
-0.23633549 -0.14880383 1.161
-0.22900724 -0.14961807 1.161
-0.26209855 -0.13502048 1.169
-0.25493866 -0.13562456 1.1632
-0.26132995 -0.12810291 1.169
-0.2559723 -0.12605907 1.1646924
-0.25298133 -0.11577153 1.1641111
-0.24868493 -0.11161983 1.161
-0.2518909 -0.10648783 1.1680001
-0.24669757 -0.10426524 1.165
-0.25108171 -0.093258925 1.169
-0.24453671 -0.09529908 1.1659414
-0.23653905 -0.092620715 1.1610001
-0.24265607 -0.087175295 1.1630001
-0.23529916 -0.085218459 1.1610001
-0.23206067 -0.065648742 1.161
-0.22697163 -0.060050789 1.161
-0.22515027 -0.057358019 1.1642001
-0.0731235 -0.052588064 1.162231
-0.067349039 -0.053060248 1.164
-0.10076319 -0.04173021 1.161
-0.094238654 -0.042650905 1.1614445
-0.083784848 -0.043653488 1.162231
-0.074865744 -0.04541954 1.1655457
-0.066613518 -0.048166696 1.169
-0.1013944 -0.035931684 1.1615715
-0.095018789 -0.035756603 1.1654803
-0.08467143 -0.036562808 1.1663336
-0.075406715 -0.03760146 1.1676667
-0.1740455 -0.02137401 1.161
-0.16545068 -0.02227873 1.1610001
-0.15572491 -0.022391822 1.1610001
-0.14622535 -0.021713279 1.1610001
-0.13943997 -0.02137401 1.161
-0.10084999 -0.026486728 1.1620001
-0.098080195 -0.026710572 1.1667778
-0.18077305 -0.019405017 1.1650001
-0.17312816 -0.019008411 1.1658
-0.16462064 -0.017379452 1.1663334
-0.15469971 -0.017527575 1.1664286
-0.14473426 -0.01830334 1.1672223
-0.13913576 -0.018413506 1.1670001
-0.10155744 -0.013584827 1.1623334
-0.099339828 -0.015359025 1.1682
-0.11453171 -0.003840677 1.164077
-0.10500138 -0.0049126004 1.1639091
-0.11170574 0.0010248233 1.169
-0.10760645 0.0010248233 1.169
-0.23408155 -0.25245553 1.1762729
-0.22863203 -0.25262639 1.1730001
-0.2507363 -0.24144977 1.177
-0.24511631 -0.24552809 1.1738001
-0.23437078 -0.2460869 1.1745001
-0.22623259 -0.24697058 1.1730002
-0.20155267 -0.24165756 1.1730001
-0.19510286 -0.24225076 1.1747779
-0.18882611 -0.24248162 1.177
-0.25108024 -0.23353903 1.177
-0.24556664 -0.23579396 1.1732502
-0.23445924 -0.23857255 1.1730001
-0.20052435 -0.23857255 1.1730001
-0.19503248 -0.23851797 1.1740001
-0.18779427 -0.23732243 1.177
-0.25352624 -0.22442812 1.1761112
-0.24707963 -0.22632608 1.1730002
-0.25564036 -0.21608754 1.1748668
-0.25607216 -0.20498429 1.1742501
-0.26105466 -0.19088978 1.177
-0.25607216 -0.19469003 1.1742501
-0.26105466 -0.18779427 1.177
-0.25569481 -0.18464912 1.1753159
-0.2480846 -0.18381399 1.1730002
-0.2533564 -0.17446569 1.1767647
-0.24638912 -0.17587656 1.1732224
-0.23548757 -0.1748161 1.1730001
-0.26518202 -0.16199836 1.177
-0.25464645 -0.16493094 1.177
-0.24533945 -0.16518722 1.1740003
-0.27280551 -0.15367924 1.1765001
-0.264534 -0.15542945 1.1741202
-0.25546163 -0.15616235 1.1741766
-0.24597813 -0.15752022 1.1732858
-0.23960088 -0.15836282 1.1730001
-0.27302581 -0.14564152 1.1758572
-0.26633745 -0.14572905 1.1730002
-0.25811082 -0.14910784 1.1730001
-0.2717858 -0.13682154 1.177
-0.26692787 -0.13423418 1.1733335
-0.26453295 -0.12496516 1.1746472
-0.25811082 -0.12031461 1.1730001
-0.26105466 -0.11866122 1.177
-0.25781626 -0.11438237 1.1754
-0.25575918 -0.103176 1.1740001
-0.25311354 -0.097746871 1.1736668
-0.24988419 -0.096663021 1.1730001
-0.066105746 -0.043041702 1.1746001
-0.086379722 -0.031878229 1.1730001
-0.074113749 -0.033351205 1.1742002
-0.068366848 -0.037446816 1.1756667
-0.094594531 -0.025922889 1.1750001
-0.085126519 -0.029923264 1.177
-0.076355912 -0.029923264 1.177
-0.17516474 -0.014938545 1.1753335
-0.16556112 -0.01233996 1.1730002
-0.15495075 -0.01262392 1.1733638
-0.14515747 -0.013381614 1.1743335
-0.13787179 -0.013805571 1.1754
-0.096859388 -0.015455107 1.1754001
-0.17107852 -0.0072228573 1.177
-0.16453779 -0.005759133 1.1760589
-0.15617062 -0.0058402279 1.1760477
-0.14617687 -0.0081400452 1.177
-0.10094641 -0.0010300833 1.1750001
-0.098790497 -0.0056084264 1.1752224
-0.11297463 0.0039185248 1.1758001
-0.10500593 0.0047689565 1.1757501
-0.24356401 -0.26302132 1.189
-0.23997435 -0.26179019 1.1850001
-0.26232639 -0.25259778 1.189
-0.25450501 -0.25395003 1.1868668
-0.2452496 -0.25580114 1.1850002
-0.2378138 -0.2575011 1.1820002
-0.26477844 -0.24446084 1.1884999
-0.25548035 -0.24551629 1.1836667
-0.18843248 -0.24123499 1.1810001
-0.26541176 -0.23551841 1.186818
-0.2563186 -0.23518354 1.1818
-0.27205509 -0.2282761 1.189
-0.26583347 -0.22525108 1.1852105
-0.25857699 -0.22648135 1.1810001
-0.26566398 -0.21562171 1.1861765
-0.25987118 -0.21328072 1.1810001
-0.26518622 -0.205346 1.1862308
-0.27257627 -0.1923148 1.189
-0.26574296 -0.19523315 1.1849999
-0.27409258 -0.18347068 1.1881429
-0.26555035 -0.18493855 1.1824118
-0.28325343 -0.1747258 1.1882728
-0.27519488 -0.17452717 1.1865555
-0.26547366 -0.17547023 1.1849999
-0.25883585 -0.17531812 1.1810001
-0.28399131 -0.16539924 1.1866001
-0.27533638 -0.16525453 1.1836085
-0.26519635 -0.16678554 1.1816666
-0.25987118 -0.16876096 1.1810001
-0.28449282 -0.15463588 1.1866471
-0.27733654 -0.15576506 1.1818891
-0.28478402 -0.14529794 1.1873529
-0.27831945 -0.14364652 1.1816669
-0.28108883 -0.13654873 1.189
-0.27627611 -0.13493273 1.1840001
-0.27470753 -0.12507634 1.18525
-0.26746371 -0.1218254 1.1810001
-0.28039393 -0.11987101 1.189
-0.27438927 -0.1166804 1.1876667
-0.26592395 -0.11500984 1.1841577
-0.25987118 -0.11181708 1.1810001
-0.26552743 -0.1062386 1.1864287
-0.25987118 -0.10508735 1.1810001
-0.26223379 -0.098857313 1.187
-0.25867364 -0.098690748 1.1850001
-0.061085258 -0.040378388 1.1810001
-0.05901457 -0.041413732 1.1810001
-0.088004179 -0.030024957 1.1810001
-0.071438693 -0.030024957 1.1810001
-0.065193966 -0.034367219 1.1843683
-0.058619484 -0.034681518 1.1870002
-0.091783062 -0.023850594 1.1830002
-0.084863447 -0.024737731 1.1847646
-0.075521193 -0.025060812 1.1835263
-0.068957023 -0.026456922 1.1882001
-0.17600837 -0.011388777 1.1810001
-0.13770066 -0.011388777 1.1810001
-0.092559807 -0.015599349 1.1863334
-0.085125782 -0.019457323 1.189
-0.076092035 -0.019804776 1.189
-0.17423749 -0.0072631827 1.1830001
-0.16807073 -0.0017255722 1.1810001
-0.15262532 -0.0017261566 1.1816667
-0.14417328 -0.0038032718 1.1841111
-0.1352703 -0.0052941898 1.1865237
-0.12820987 -0.0041694264 1.189
-0.094330646 -0.0054559349 1.18575
-0.15422596 0.0029621215 1.1856155
-0.14525455 0.0028055352 1.1880771
-0.13696566 0.0018762421 1.189
-0.11388776 0.0072474033 1.1810001
-0.10161155 0.0072474033 1.1810001
-0.096512884 0.0049446183 1.187
-0.11115695 0.01142735 1.1850001
-0.10480565 0.012995561 1.1856669
-0.098328978 0.012160827 1.189
-0.25414476 -0.26167503 1.1930001
-0.24856685 -0.26286033 1.193
-0.2801818 -0.25919437 1.197
-0.27423015 -0.25422058 1.1963847
-0.26585555 -0.25622141 1.1948668
-0.25728238 -0.25832823 1.1930001
-0.27279148 -0.24477784 1.1945
-0.26808962 -0.24926408 1.1930001
-0.27430987 -0.23520353 1.1947778
-0.27511114 -0.2262138 1.1952224
-0.27203229 -0.21511121 1.1950001
-0.27255657 -0.20423064 1.1964285
-0.26878688 -0.20394334 1.1930001
-0.2801818 -0.19203471 1.197
-0.2745091 -0.19600186 1.194
-0.29277423 -0.1820657 1.197
-0.2840001 -0.18465446 1.1954001
-0.27799049 -0.18679121 1.1930001
-0.29434979 -0.17493103 1.1948668
-0.28865826 -0.17596652 1.193
-0.29430059 -0.16570507 1.1970001
-0.28970414 -0.16420054 1.1930001
-0.29357901 -0.15439174 1.1960001
-0.28970414 -0.1568795 1.1930001
-0.29204047 -0.14654097 1.194
-0.28865826 -0.14223741 1.1930001
-0.28393832 -0.13569134 1.1936666
-0.28273946 -0.12461422 1.1945
-0.2815713 -0.11618464 1.194
-0.27733964 -0.11239936 1.1938
-0.2736252 -0.10784315 1.1943334
-0.26774102 -0.10249461 1.1930001
-0.2642177 -0.09803281 1.1960001
-0.06379766 -0.030330038 1.1930001
-0.058568347 -0.030330036 1.1930001
-0.070072845 -0.021963131 1.1930001
-0.064440139 -0.02481818 1.1938571
-0.058038663 -0.024930473 1.1950001
-0.084937803 -0.014841914 1.1944119
-0.073715582 -0.015493679 1.1944001
-0.066694349 -0.016777296 1.1962
-0.057715349 -0.019938029 1.197
-0.13177878 -0.0010458634 1.1930001
-0.12557432 -0.00174369 1.1936668
-0.090990111 -0.0041834535 1.1930001
-0.08822313 -0.0060229194 1.1945001
-0.070307791 -0.0094443299 1.197
-0.15352836 0.0081703579 1.1946001
-0.14485206 0.0078439759 1.193
-0.13439985 0.0060731955 1.1940001
-0.12655434 0.0033789657 1.1952223
-0.091919772 0.0056941453 1.193
-0.08819744 0.0050120982 1.1961112
-0.15110928 0.01154307 1.197
-0.14463291 0.012577974 1.1955
-0.13788721 0.012382565 1.197
-0.11215518 0.014328532 1.1956667
-0.10509456 0.017975889 1.1933635
-0.095056094 0.016020831 1.195286
-0.089196451 0.013641809 1.197
-0.10487913 0.022724077 1.1963334
-0.097591408 0.02203677 1.197
-0.27713713 -0.26027706 1.202
-0.26554585 -0.26238456 1.202
-0.284325 -0.25263759 1.2046666
-0.27713713 -0.25500831 1.202
-0.29145136 -0.24422705 1.2060001
-0.28494668 -0.24570951 1.2055
-0.27830797 -0.24599287 1.202
-0.28421563 -0.235614 1.2052001
-0.27924463 -0.23604074 1.202
-0.28284729 -0.2263286 1.2050002
-0.27819088 -0.22339571 1.202
-0.2801739 -0.21885282 1.2060001
-0.27692324 -0.21435684 1.2045001
-0.2801739 -0.20405118 1.2060001
-0.27674204 -0.20606224 1.2033334
-0.29180378 -0.19136406 1.2060001
-0.28428197 -0.19509603 1.204
-0.27924463 -0.19705187 1.202
-0.30401576 -0.18292972 1.2050771
-0.29541358 -0.18630233 1.2030909
-0.28907967 -0.18791933 1.202
-0.3118917 -0.17233337 1.2060001
-0.30528754 -0.17470708 1.203818
-0.3118917 -0.16598982 1.2060001
-0.30474818 -0.16533394 1.2039129
-0.29768533 -0.16280489 1.202
-0.30324823 -0.15602106 1.2041333
-0.29786095 -0.15525299 1.202
-0.30131909 -0.14907366 1.2060001
-0.29606611 -0.14443147 1.2041818
-0.2911694 -0.13427202 1.2060001
-0.28777021 -0.13425449 1.2035
-0.29165271 -0.12520979 1.2060002
-0.28725317 -0.12539664 1.202
-0.29074651 -0.11947038 1.2060001
-0.28447661 -0.11428051 1.2033334
-0.28228843 -0.10889778 1.2060001
-0.27451566 -0.10416628 1.2037144
-0.2671887 -0.096806794 1.2046667
-0.061117694 -0.020021314 1.202
-0.18486884 -0.012148847 1.2050002
-0.082192764 -0.011591286 1.202
-0.077977747 -0.011591286 1.202
-0.062705003 -0.014357235 1.2029231
-0.057264917 -0.014578265 1.2052
-0.18295507 -0.0080910493 1.2040001
-0.17838062 -0.0063312864 1.204
-0.084591903 -0.0058023646 1.2036668
-0.074744597 -0.0075603724 1.2036667
-0.065717965 -0.0075777466 1.2038183
-0.15858901 0.0095153395 1.2060001
-0.12518309 0.0050688861 1.2040002
-0.11841312 0.00740082 1.2060001
-0.08594197 0.0056346282 1.2053334
-0.1545714 0.012898574 1.2060001
-0.14354891 0.016889861 1.2040001
-0.13398167 0.015280302 1.2046667
-0.12961166 0.011591286 1.202
-0.11474339 0.015002573 1.2052002
-0.087508865 0.014758975 1.2026666
-0.1427301 0.02061657 1.2060001
-0.13850106 0.020087941 1.2060001
-0.11126478 0.021618601 1.2030001
-0.10385198 0.026535237 1.2026665
-0.095198989 0.025166763 1.2043334
-0.088809848 0.0211452 1.2060001
-0.1004397 0.03066054 1.2060001
-0.096210659 0.03066054 1.2060001
-0.30029252 -0.24044774 1.2190001
-0.2938523 -0.24123785 1.21225
-0.28958929 -0.2418548 1.21
-0.30029252 -0.23831044 1.2190001
-0.29479691 -0.23545465 1.2153076
-0.28958929 -0.23442943 1.21
-0.29300004 -0.22658134 1.2180001
-0.28699958 -0.2238065 1.2134
-0.28577128 -0.21497953 1.215579
-0.29054663 -0.20114766 1.2140001
-0.28573042 -0.20523721 1.2130001
-0.31169152 -0.19342685 1.2190001
-0.30535543 -0.19384502 1.2167274
-0.29505554 -0.19594164 1.2135834
-0.28852853 -0.19730259 1.21
-0.31514922 -0.18475342 1.2158333
-0.30534929 -0.18805878 1.21
-0.32166564 -0.17312238 1.2190001
-0.3162424 -0.17566788 1.213091
-0.31477946 -0.16482255 1.2110001
-0.31172669 -0.15479194 1.2177501
-0.30781695 -0.15316314 1.2116001
-0.30416182 -0.14544767 1.2142726
-0.29807544 -0.14108196 1.21
-0.30349848 -0.1357194 1.219
-0.29652721 -0.13460515 1.2117144
-0.30114743 -0.12631522 1.2190001
-0.29633075 -0.12410893 1.2126251
-0.29297271 -0.11671817 1.217
-0.28893739 -0.1139053 1.2144001
-0.28400007 -0.105711 1.2153333
-0.27772099 -0.10224272 1.2106668
-0.2810567 -0.099385068 1.2190001
-0.2747435 -0.097052954 1.2166001
-0.2675204 -0.093685567 1.2190001
-0.26182088 -0.086561188 1.2190001
-0.25487462 -0.082019396 1.219
-0.248997 -0.080149248 1.2190001
-0.25284418 -0.075019702 1.219
-0.24764581 -0.074220851 1.2168572
-0.25113431 -0.069462679 1.2190001
-0.24792835 -0.069462679 1.2190001
-0.22739264 -0.042703532 1.2177501
-0.22365235 -0.036828108 1.2177501
-0.2169373 -0.033128358 1.219
-0.21301889 -0.025647759 1.219
-0.20460334 -0.022804797 1.2121538
-0.19710009 -0.021250401 1.2120001
-0.20416582 -0.016488248 1.2178888
-0.19633314 -0.014596874 1.2142857
-0.18902861 -0.014214273 1.21
-0.057281397 -0.013789967 1.21
-0.19296244 -0.006937502 1.2177501
-0.18605259 -0.0040979153 1.2137144
-0.17804083 -0.0019135881 1.2132001
-0.082527652 -0.0027579933 1.21
-0.075888067 -0.0026525008 1.2106667
-0.063786209 -0.0034932035 1.2127857
-0.057838667 -0.0067342613 1.2143334
-0.18380895 0.0010686567 1.2190001
-0.17390631 0.0027258489 1.2153335
-0.16614172 0.0059132623 1.2139446
-0.12410971 0.008486134 1.21
-0.11880587 0.0095469002 1.21
-0.082297757 0.0058183018 1.2143846
-0.075369857 0.0030479822 1.2157857
-0.066889659 0.0040249792 1.2170769
-0.16321486 0.014257709 1.2168182
-0.15558369 0.016659297 1.2127779
-0.1495681 0.016972266 1.21
-0.1304743 0.018033033 1.21
-0.12482876 0.015081527 1.2148422
-0.11782295 0.015499117 1.2108001
-0.084232859 0.014766378 1.212889
-0.15256806 0.02326077 1.2169999
-0.14500421 0.025054771 1.2114705
-0.13502294 0.024245972 1.2119088
-0.12770447 0.020838806 1.2190001
-0.11483354 0.022681849 1.2128334
-0.10925896 0.028640701 1.21
-0.09122593 0.026519164 1.21
-0.086667947 0.024712749 1.2138889
-0.15068059 0.032059699 1.2190001
-0.1448935 0.030895706 1.2152501
-0.13840857 0.030876638 1.2145001
-0.10345388 0.033224691 1.2137779
-0.094491698 0.035250802 1.2122084
-0.08809974 0.035172161 1.2156668
-0.09404178 0.041677609 1.2190001
-0.30233866 -0.23399249 1.2235715
-0.29913357 -0.23158729 1.223
-0.30183297 -0.22739664 1.2270001
-0.29696041 -0.2239822 1.2241429
-0.29441646 -0.2159548 1.2244548
-0.31301996 -0.20115028 1.2270001
-0.30429262 -0.20179126 1.2252859
-0.29544646 -0.20548138 1.2246001
-0.32377669 -0.19111069 1.2270001
-0.31600985 -0.19475806 1.224
-0.30663872 -0.19835022 1.223
-0.32320589 -0.18545479 1.2240909
-0.31843251 -0.1897729 1.223
-0.32440186 -0.17592859 1.2247144
-0.32377666 -0.16888019 1.2270001
-0.31541538 -0.15308967 1.2246001
-0.31374934 -0.14558598 1.2261112
-0.30914044 -0.14295511 1.223
-0.31194431 -0.13553442 1.2270001
-0.30846733 -0.13500002 1.2235715
-0.30430356 -0.12551148 1.2236668
-0.29562294 -0.1140094 1.224
-0.29103142 -0.10738991 1.2250001
-0.28793013 -0.1028451 1.2246001
-0.28263667 -0.095642455 1.2258574
-0.27520722 -0.092879154 1.2233999
-0.26451802 -0.092359222 1.2230002
-0.27385965 -0.087065369 1.2261111
-0.26505953 -0.08465568 1.2236663
-0.25839135 -0.085415669 1.223
-0.26241195 -0.076008536 1.2255001
-0.2576766 -0.074694045 1.223
-0.25436109 -0.066492707 1.2251819
-0.2476107 -0.064016834 1.2238889
-0.23349153 -0.04369244 1.2241429
-0.23221214 -0.036649827 1.2256668
-0.22606732 -0.03408527 1.223923
-0.21979348 -0.031092737 1.223
-0.22437239 -0.026050281 1.2263849
-0.21729147 -0.023594256 1.2233999
-0.21389045 -0.015570915 1.225
-0.20692754 -0.013019127 1.2230002
-0.21190698 -0.0096810302 1.2270001
-0.20472366 -0.0058583645 1.2255452
-0.19640082 -0.0038013062 1.2229999
-0.058432899 -0.0026804085 1.223
-0.20115028 0.00107567 1.2270001
-0.19421819 0.0025098966 1.2270001
-0.18504819 0.0061314586 1.2251177
-0.17651707 0.0075051431 1.2229999
-0.075051434 0.0085773068 1.223
-0.0634863 0.0067965048 1.224
-0.057118271 0.0047147814 1.2257693
-0.18250535 0.012549482 1.2270001
-0.17450303 0.014601193 1.2255882
-0.16747192 0.016511315 1.223
-0.081214689 0.015743764 1.2243334
-0.075727172 0.013553442 1.2270001
-0.06669154 0.012549483 1.2270001
-0.16422004 0.022096191 1.2261113
-0.15658699 0.025165496 1.2243333
-0.13155216 0.028457915 1.2250001
-0.12494004 0.023702165 1.2245384
-0.11673991 0.025586218 1.2262002
-0.083659627 0.025181081 1.2252223
-0.15372053 0.033325434 1.2262002
-0.1484784 0.033990413 1.2243334
-0.13364345 0.034040287 1.2261113
-0.10524734 0.036509663 1.2250001
-0.086085536 0.034527518 1.2252858
-0.094673663 0.045011476 1.2256668
-0.088989556 0.041814368 1.223
-0.30781519 -0.23005135 1.2320001
-0.31098172 -0.22863115 1.2360001
-0.30530474 -0.22481972 1.2345456
-0.30275902 -0.21563676 1.2345001
-0.29917479 -0.21385056 1.2320001
-0.33048579 -0.20262572 1.2360001
-0.32528472 -0.20132546 1.2360001
-0.30507123 -0.20662594 1.2340001
-0.29917479 -0.20845029 1.2320001
-0.3312082 -0.1925125 1.2360001
-0.32455605 -0.19575965 1.2320002
-0.3175357 -0.19980986 1.2320001
-0.33265293 -0.18637232 1.2360001
-0.32941628 -0.18468912 1.2320001
-0.33048579 -0.17517553 1.2360001
-0.32833621 -0.17388859 1.2320001
-0.32725614 -0.16956837 1.2320001
-0.321578 -0.15186936 1.233
-0.31861573 -0.15012741 1.2320001
-0.32181731 -0.1462806 1.2360001
-0.31818372 -0.14407912 1.2320001
-0.31671736 -0.13508795 1.2345456
-0.31314883 -0.12822126 1.2360001
-0.308146 -0.12505825 1.2333335
-0.30236408 -0.11683162 1.2340001
-0.29917479 -0.11232555 1.2320001
-0.29447582 -0.10557871 1.234286
-0.29147765 -0.098603956 1.2360001
-0.28703997 -0.094837219 1.2340001
-0.26872289 -0.097520396 1.2360001
-0.28229544 -0.086997479 1.2353334
-0.27710074 -0.083803631 1.2335001
-0.27240252 -0.078292176 1.2346667
-0.2669189 -0.074149638 1.2337779
-0.26183578 -0.066486403 1.2352002
-0.25717193 -0.062940456 1.2336
-0.2451721 -0.061563041 1.2320001
-0.25297192 -0.058020305 1.2354287
-0.24765341 -0.058179807 1.2336
-0.23888554 -0.043234568 1.233
-0.23642881 -0.034960296 1.2333335
-0.23268355 -0.025972564 1.2345002
-0.22645772 -0.022277152 1.2336
-0.22333491 -0.016957069 1.2346668
-0.21888876 -0.01351031 1.233
-0.21543534 -0.0061799991 1.2340001
-0.20845029 -0.0010800533 1.2320001
-0.20348953 0.0032483421 1.2346668
-0.19513132 0.0071778283 1.2334547
-0.056162775 0.0097204801 1.2320001
-0.19179012 0.01191916 1.2360001
-0.18552347 0.015757207 1.2334288
-0.1782088 0.018360907 1.2320001
-0.073348939 0.017167471 1.2324446
-0.064455338 0.016007934 1.2336001
-0.05953151 0.014073423 1.2346667
-0.18203807 0.02058764 1.2360001
-0.17424144 0.021917105 1.2345002
-0.16470288 0.026506893 1.2340001
-0.15876783 0.028081387 1.2320001
-0.12354293 0.028386028 1.2335001
-0.11683688 0.028125219 1.2340001
-0.081004001 0.024841225 1.2320001
-0.075874403 0.023670658 1.2342502
-0.066530585 0.021454487 1.2360001
-0.16145045 0.034673922 1.2360001
-0.15786444 0.035473879 1.2355001
-0.13068645 0.034561709 1.2320001
-0.12646569 0.033954736 1.2349092
-0.11142609 0.032455955 1.2340001
-0.10715906 0.037881348 1.2346667
-0.083071761 0.035224468 1.2342224
-0.079099879 0.031423241 1.2360001
-0.10127369 0.044332448 1.2333335
-0.096124746 0.048062373 1.2320001
-0.087107062 0.045268442 1.2343335
-0.0944262 0.052219965 1.2345002
-0.088490747 0.052372064 1.2360001
-0.31073013 -0.2235053 1.2436666
-0.30788797 -0.22085249 1.2410001
-0.30729622 -0.2168514 1.243
-0.3230992 -0.20501605 1.2426
-0.3187674 -0.2034454 1.2410001
-0.33507514 -0.18227215 1.245
-0.32747093 -0.16863121 1.2410001
-0.32555544 -0.1448113 1.242
-0.32197773 -0.13643125 1.245
-0.3187674 -0.13164115 1.2410001
-0.31436363 -0.12610762 1.2436666
-0.30233166 -0.11023645 1.245
-0.30014876 -0.10805355 1.245
-0.29578295 -0.10150485 1.245
-0.29227453 -0.094879881 1.244
-0.28923425 -0.09059035 1.245
-0.28268555 -0.081858747 1.245
-0.28050265 -0.079675846 1.245
-0.27547613 -0.07631734 1.2436666
-0.26478577 -0.064395547 1.245
-0.25499076 -0.054484837 1.243
-0.24584275 -0.052602243 1.2414445
-0.23825958 -0.051133335 1.2410001
-0.2444692 -0.046667419 1.2437999
-0.24121045 -0.03601785 1.245
-0.23902754 -0.031652048 1.245
-0.23625867 -0.024653444 1.2442
-0.22955604 -0.020670922 1.2410001
-0.2311691 -0.016808329 1.245
-0.2259312 -0.013724918 1.2426001
-0.22334498 -0.0059361048 1.2441112
-0.21673568 -0.0010891123 1.2423334
-0.21404546 0.0030318054 1.245
-0.20550361 0.0064211935 1.2432222
-0.19973534 0.0098230503 1.245
-0.20264588 0.014188851 1.245
-0.19612972 0.01567491 1.2437501
-0.057720613 0.018514907 1.2423334
-0.19524682 0.020724224 1.2442
-0.18415348 0.021795686 1.243
-0.17472692 0.027452815 1.2435454
-0.16790591 0.028649174 1.2410001
-0.071804255 0.027198583 1.2410001
-0.06393484 0.026743339 1.2435883
-0.056488689 0.024762396 1.2446923
-0.1724491 0.031652048 1.245
-0.16622213 0.03311909 1.2415714
-0.12206724 0.036337309 1.2410001
-0.11556541 0.035377763 1.2428668
-0.074232303 0.035279583 1.243
-0.067202136 0.033523105 1.245
-0.12374633 0.042705204 1.2436668
-0.11596657 0.041475099 1.245
-0.1069621 0.041475099 1.245
-0.081727251 0.045770768 1.243
-0.076480113 0.043877743 1.2443336
-0.093715668 0.056664225 1.243
-0.083934352 0.055595219 1.2434
-0.078740321 0.054104734 1.245
-0.086224549 0.060029749 1.245
-0.31666195 -0.22469175 1.2563751
-0.3256247 -0.21142621 1.2574002
-0.31397709 -0.21514423 1.2556667
-0.3217735 -0.20827234 1.2570001
-0.31601903 -0.2088372 1.256
-0.33116522 -0.14192794 1.2550001
-0.3279818 -0.14259969 1.25125
-0.32516587 -0.13496429 1.2516667
-0.3211835 -0.12251329 1.2590001
-0.31597412 -0.12316785 1.2534546
-0.31341588 -0.1162883 1.2568183
-0.30765489 -0.11425096 1.2514286
-0.3123537 -0.10926861 1.2590001
-0.30436727 -0.10585348 1.2552001
-0.29916251 -0.10410417 1.25
-0.30131647 -0.097127654 1.2590001
-0.29657617 -0.094947524 1.2544999
-0.29213691 -0.086954109 1.2556001
-0.28783438 -0.084586203 1.2531667
-0.28263909 -0.07697659 1.2545
-0.27625093 -0.072711989 1.2539999
-0.27336481 -0.065536529 1.2565
-0.26715365 -0.062122356 1.2520001
-0.26472342 -0.056192029 1.256875
-0.25786421 -0.052303392 1.2516667
-0.2544699 -0.045476329 1.2565715
-0.24799001 -0.043891776 1.2516667
-0.2516489 -0.038630318 1.2590001
-0.245554 -0.035471577 1.254625
-0.25275263 -0.029800531 1.2590001
-0.24218741 -0.025287449 1.2545999
-0.23884344 -0.023040259 1.2516667
-0.2417154 -0.017659573 1.2590001
-0.23608641 -0.014948657 1.2537
-0.22902916 -0.012054167 1.25
-0.23152912 -0.0076781386 1.2516667
-0.22893712 -0.0071338746 1.2525001
-0.21149583 0.0076708333 1.25
-0.20857362 0.0091319447 1.25
-0.20505889 0.014620609 1.2508334
-0.18154305 0.02593472 1.25
-0.053695831 0.025204167 1.25
-0.063155413 0.035837121 1.2503847
-0.056295469 0.034903206 1.2546363
-0.1234259 0.048713446 1.2533334
-0.11463293 0.046567503 1.2523532
-0.10629065 0.047009651 1.2522727
-0.072522245 0.04714901 1.2507143
-0.065845974 0.044194054 1.2551578
-0.058497336 0.040837765 1.2590001
-0.11478722 0.051874995 1.2590001
-0.10376471 0.054025166 1.2576667
-0.097659208 0.056695491 1.2516667
-0.073983572 0.055217523 1.2539229
-0.093814962 0.061901871 1.25525
-0.084496781 0.065551341 1.255389
-0.075936541 0.064360119 1.2554212
-0.068430841 0.06953457 1.2590001
-0.082779251 0.071742013 1.2590001
-0.076156907 0.072845735 1.2589999
-0.06953457 0.072845742 1.2590001
-0.32401559 -0.22238071 1.2662222
-0.33014914 -0.21787621 1.268
-0.32360056 -0.2159923 1.2664615
-0.3180266 -0.21718889 1.2640001
-0.32024282 -0.11856741 1.2640001
-0.30472934 -0.10194582 1.2640001
-0.30378866 -0.096080035 1.267
-0.29902399 -0.090040676 1.268
-0.29509652 -0.084599741 1.2664001
-0.2825672 -0.072026931 1.2640001
-0.28035098 -0.068702608 1.2640001
-0.27768943 -0.063228704 1.2653333
-0.27242944 -0.056631494 1.2666667
-0.26636639 -0.052161667 1.266
-0.26178905 -0.045477957 1.2653333
-0.25818884 -0.043216158 1.2640001
-0.26122913 -0.038906466 1.268
-0.25488237 -0.035303079 1.265
-0.24821588 -0.032135092 1.2640001
-0.25154021 -0.028810773 1.2640001
-0.24710777 -0.025486453 1.2640001
-0.054297227 0.038783733 1.2640001
-0.062718831 0.048091829 1.2640001
-0.056192577 0.044201184 1.2668
-0.1220846 0.05327503 1.266
-0.11368333 0.056178905 1.2664001
-0.10663272 0.056883138 1.2651428
-0.06631019 0.054659288 1.2659999
-0.058915507 0.050022598 1.268
-0.10258579 0.062588744 1.2673334
-0.09573511 0.066657059 1.2648889
-0.088648528 0.069810718 1.2640001
-0.072026931 0.066855766 1.2640001
-0.068531662 0.063538171 1.266
-0.094561748 0.074686743 1.2673331
-0.084933102 0.075286075 1.2640001
-0.075033315 0.076513901 1.2648889
-0.091708101 0.081703581 1.268
-0.084433302 0.084434599 1.2672498
-0.077167712 0.083589584 1.2675556
-0.087817453 0.090040676 1.268
-0.31034526 -0.094111919 1.2780001
-0.30617496 -0.093451597 1.274111
-0.30362296 -0.087016188 1.2780001
-0.29761723 -0.082318418 1.2746667
-0.29427859 -0.079443246 1.2763335
-0.28681114 -0.07343258 1.273
-0.2839568 -0.064436167 1.2746665
-0.2821562 -0.057773065 1.2754999
-0.27553824 -0.053317271 1.2743635
-0.2689552 -0.050219849 1.273
-0.27203929 -0.045003332 1.2770001
-0.26698512 -0.044681508 1.2742499
-0.26488188 -0.036884326 1.2748749
-0.054683834 0.04798786 1.273
-0.12254689 0.057737265 1.2746667
-0.11773764 0.058589824 1.273
-0.062272616 0.057362229 1.273
-0.055643298 0.055506531 1.2758126
-0.048176341 0.05938014 1.2780001
-0.11405849 0.062619641 1.2754999
-0.1058652 0.065654248 1.274111
-0.064897299 0.064153291 1.2763333
-0.054814458 0.061524462 1.276
-0.048176341 0.061620899 1.2780001
-0.10306407 0.072702594 1.2758571
-0.099323712 0.07700377 1.273
-0.094581597 0.085272849 1.2742499
-0.074771777 0.087047741 1.273
-0.090573251 0.091693632 1.2755001
-0.08378084 0.092441864 1.2742499
-0.077949397 0.092124812 1.2763333
-0.31155944 -0.091105826 1.2830001
-0.31155944 -0.08773154 1.2830001
-0.30609989 -0.083350286 1.2848752
-0.30259758 -0.078560144 1.2863334
-0.29449543 -0.075492628 1.2852727
-0.27331749 -0.04386577 1.2830001
-0.2732535 -0.039520133 1.2880001
-0.12533528 0.059844773 1.2880001
-0.053185236 0.054792039 1.2830001
-0.048364822 0.057362929 1.2830001
-0.12153439 0.063811518 1.286
-0.11419591 0.067243107 1.2855
-0.10910204 0.068610564 1.2830001
-0.06348367 0.067243107 1.2855002
-0.056070484 0.065912895 1.2861819
-0.048459064 0.065365583 1.2855
-0.11178552 0.071136236 1.2880001
-0.10633002 0.075120442 1.2844286
-0.06661965 0.071136236 1.2880001
-0.101771 0.085071899 1.2870001
-0.097854413 0.088856302 1.2830001
-0.09388838 0.093883358 1.2858572
-0.086285412 0.096568964 1.2830001
-0.077757701 0.096353553 1.2855
-0.083943628 0.101771 1.2870001
-0.077911116 0.10162319 1.2880001
-0.12621106 0.062537014 1.2970001
-0.11666329 0.069091856 1.2920001
-0.053234708 0.06852553 1.2920001
-0.048704091 0.069091856 1.2920001
-0.11421056 0.073340356 1.2950001
-0.10873472 0.077020422 1.2920001
-0.061937552 0.07237725 1.294
-0.057988871 0.072770342 1.2970001
-0.10512829 0.08378531 1.2950001
-0.073907383 0.081866637 1.2970001
-0.10119626 0.093237013 1.2970001
-0.097028419 0.096120544 1.296
-0.075887769 0.096275531 1.2920001
-0.09257973 0.10280428 1.2957501
-0.085858718 0.10653262 1.2955
-0.086414784 0.11029255 1.2970001
-0.12898046 0.058212418 1.302
-0.13176738 0.063019186 1.307
-0.12694353 0.066558197 1.3045001
-0.1198491 0.069626622 1.302
-0.12253395 0.073783025 1.3062857
-0.11547565 0.077581868 1.3041428
-0.071909457 0.078757979 1.302
-0.065663271 0.076918736 1.3035386
-0.054669406 0.075801119 1.3054616
-0.049269542 0.073331416 1.307
-0.11275534 0.081847131 1.3057501
-0.10796829 0.086261593 1.3032501
-0.072549209 0.083976559 1.3032501
-0.066136718 0.082172483 1.306375
-0.054616626 0.081352033 1.307
-0.10568948 0.094854213 1.3056667
-0.098162115 0.099303536 1.302
-0.04812374 0.095101677 1.307
-0.1025494 0.1036952 1.307
-0.096925072 0.10568472 1.3032501
-0.077763401 0.1074995 1.3045001
-0.093656868 0.11426556 1.306
-0.084324308 0.11488668 1.3048573
-0.078411914 0.11275534 1.30575
-0.14893954 0.047337368 1.317
-0.15201838 0.058113355 1.317
-0.14514592 0.055914171 1.3170002
-0.13592422 0.055551674 1.3123572
-0.15309599 0.064194098 1.3170002
-0.14540842 0.064626336 1.3163751
-0.13667813 0.064752758 1.3135387
-0.15240324 0.070428766 1.317
-0.14504285 0.074036799 1.317
-0.13567056 0.073524401 1.3162858
-0.12569682 0.07666292 1.3130001
-0.051758401 0.077062503 1.312
-0.1420121 0.084283613 1.317
-0.13970298 0.085438177 1.317
-0.1232091 0.083623864 1.317
-0.11549414 0.085966095 1.3138183
-0.071109354 0.08802259 1.3153334
-0.064316273 0.08603055 1.3134288
-0.054972578 0.085547842 1.3138183
-0.047687858 0.085243568 1.3140001
-0.13970298 0.0923656 1.317
-0.12122985 0.093520172 1.317
-0.11416069 0.094554931 1.3153335
-0.073661558 0.093520164 1.317
-0.052434314 0.092765361 1.3145
-0.04830784 0.092014939 1.312
-0.11543574 0.10504679 1.3167498
-0.1070547 0.10557777 1.3130716
-0.075911969 0.10590974 1.316
-0.11199329 0.115457 1.317
-0.10491157 0.11528168 1.3150001
-0.097765863 0.11846922 1.312
-0.077178225 0.11588236 1.3139999
-0.11245511 0.12446265 1.317
-0.1049497 0.12455375 1.3154999
-0.094712779 0.12421427 1.3143333
-0.085248597 0.12326833 1.3140835
-0.078359529 0.12099972 1.3145001
-0.11199329 0.13046642 1.317
-0.10477723 0.13133234 1.317
-0.09736874 0.13123612 1.317
-0.16338244 0.045614544 1.3274001
-0.15538852 0.048703 1.3227501
-0.14834602 0.049834993 1.322
-0.17113936 0.05937488 1.3280001
-0.16476569 0.05528219 1.3251765
-0.15592381 0.055005707 1.3220003
-0.14834602 0.052152898 1.322
-0.17366183 0.065778047 1.3280001
-0.16457137 0.064901397 1.3220003
-0.15800399 0.065674022 1.322
-0.18045306 0.073345438 1.3280001
-0.17424338 0.074651554 1.3275716
-0.16461208 0.074891679 1.3233335
-0.15555727 0.075847059 1.3220003
-0.14776655 0.079388306 1.322
-0.13513397 0.077881671 1.3220001
-0.050061174 0.078002296 1.3280001
-0.049834993 0.079967782 1.322
-0.18045306 0.082659148 1.3280001
-0.17363474 0.084072962 1.3267144
-0.16503042 0.085148565 1.3262354
-0.15547727 0.085861169 1.3235003
-0.14625992 0.085839801 1.3220003
-0.1344386 0.085762538 1.3220003
-0.12632592 0.08717905 1.322
-0.11937219 0.089239404 1.322
-0.063742436 0.089239396 1.322
-0.057947665 0.089239404 1.322
-0.17113936 0.09197285 1.3280001
-0.16415407 0.093137063 1.3280001
-0.15544529 0.095032409 1.3251998
-0.14538425 0.095291704 1.3220003
-0.13451618 0.095090047 1.3227502
-0.12539878 0.095111422 1.3220003
-0.11937219 0.095034175 1.322
-0.072400637 0.095922865 1.3228571
-0.065029278 0.0952278 1.3246251
-0.056722671 0.095834583 1.325
-0.15544388 0.10478795 1.3252
-0.14486915 0.10430578 1.3220003
-0.13474892 0.10454248 1.3250002
-0.12516698 0.10430577 1.3220003
-0.073223025 0.1038662 1.3258182
-0.068688586 0.10245077 1.3280001
-0.15431699 0.11475809 1.32725
-0.14446603 0.114434 1.3220004
-0.13480943 0.1150504 1.3256
-0.12516697 0.11473634 1.3220003
-0.11705426 0.11589531 1.3220001
-0.07483533 0.11544078 1.3235
-0.15173581 0.12534696 1.3280001
-0.14375131 0.12520148 1.3223752
-0.13504876 0.12573503 1.3279998
-0.12531292 0.12530899 1.3235002
-0.11726499 0.12527233 1.3220001
-0.091557309 0.12864383 1.322
-0.084676184 0.12876061 1.3232
-0.079312623 0.12496824 1.324
-0.15118141 0.1345498 1.3280001
-0.1441596 0.13485973 1.3261251
-0.1348159 0.13481592 1.3279998
-0.12549013 0.13478476 1.3253751
-0.11541808 0.13491581 1.3220003
-0.10476939 0.13606113 1.3220001
-0.094442084 0.13511081 1.3224618
-0.086480148 0.13445839 1.3254287
-0.15095966 0.14513861 1.3280001
-0.14428027 0.14428225 1.32725
-0.13330242 0.14145191 1.3280001
-0.1255022 0.1413355 1.3280001
-0.11495942 0.14411052 1.3273684
-0.10448594 0.14395744 1.3242502
-0.095300451 0.14412113 1.3257501
-0.088713057 0.14273255 1.3280001
-0.15134773 0.15018351 1.3280001
-0.14552666 0.15018351 1.3280001
-0.1222424 0.15716881 1.3280001
-0.11504546 0.15494622 1.3279996
-0.10524489 0.15204625 1.3280001
-0.096629709 0.15134773 1.3280001
-0.11758555 0.16182566 1.3280001
-0.18298489 0.048092179 1.3380001
-0.17477402 0.046450004 1.3380002
-0.16859132 0.045656361 1.3355
-0.18415785 0.055967901 1.3380001
-0.17571926 0.054750692 1.3348421
-0.16944651 0.051418252 1.3330001
-0.19119574 0.069205821 1.3380001
-0.1852459 0.065655097 1.3373749
-0.178211 0.063688517 1.3330001
-0.043400262 0.069205821 1.3380001
-0.19166492 0.075774513 1.3380001
-0.18558903 0.075137153 1.3362143
-0.1776267 0.073621586 1.3330001
-0.048092179 0.078589663 1.3380001
-0.19220117 0.084957264 1.3380002
-0.18498896 0.084734976 1.3355001
-0.17723717 0.087255217 1.3330001
-0.16944651 0.089981943 1.3330001
-0.19207546 0.094131649 1.3380002
-0.18544452 0.095221423 1.3374735
-0.17561089 0.096108317 1.3336667
-0.16604696 0.097418457 1.3330001
-0.19119574 0.1055682 1.3380001
-0.18533082 0.10556819 1.3379999
-0.17477402 0.10556821 1.3379998
-0.164509 0.10496607 1.3337693
-0.06553784 0.10463034 1.3350002
-0.058965474 0.10270413 1.3363333
-0.18482813 0.11461691 1.3380001
-0.17477402 0.11495203 1.3379998
-0.16454646 0.11516506 1.3365716
-0.15776055 0.11685966 1.3330001
-0.072063461 0.11257482 1.3330001
-0.069205821 0.1114331 1.3380001
-0.18415786 0.12433589 1.3380002
-0.17477404 0.12433587 1.3379998
-0.16379774 0.12451534 1.3362353
-0.1568841 0.1259163 1.3330001
-0.078295976 0.12854564 1.3330001
-0.18415785 0.13489272 1.3379999
-0.17477402 0.13489272 1.3379998
-0.1641477 0.13492554 1.3358947
-0.15620242 0.13594675 1.3330001
-0.139063 0.139063 1.3330001
-0.081801772 0.1355572 1.3330001
-0.1839446 0.14512962 1.3380002
-0.17477402 0.14544953 1.3379998
-0.16395226 0.14521091 1.3358124
-0.15589079 0.14443856 1.3330001
-0.13572262 0.14616022 1.3337693
-0.12559271 0.14643887 1.3343638
-0.08658281 0.14508717 1.3346667
-0.1818119 0.15131442 1.3380001
-0.17506726 0.15424687 1.3379999
-0.16406597 0.15469091 1.33675
-0.15479811 0.15496442 1.3347858
-0.14476073 0.15520033 1.3341539
-0.13489269 0.15483335 1.3379998
-0.12457399 0.15371318 1.3337693
-0.10445819 0.1570801 1.3338333
-0.096097067 0.15525854 1.3344287
-0.089981943 0.15191756 1.3330001
-0.17336644 0.16304421 1.3380002
-0.1642172 0.16421722 1.3379999
-0.15479746 0.16417967 1.3376875
-0.14537133 0.16398261 1.3379999
-0.13196024 0.16392398 1.3380002
-0.12433867 0.16488902 1.3330001
-0.11407918 0.16478558 1.3346667
-0.10662597 0.16186723 1.3365716
-0.16351342 0.17367925 1.3379999
-0.15600634 0.17477402 1.3380001
-0.14505853 0.17477402 1.3379998
-0.13098277 0.17086409 1.3379999
-0.12483858 0.17343347 1.3380002
-0.11847098 0.17008209 1.3380001
-0.1918215 0.036188275 1.3490001
-0.1854199 0.038226802 1.3447143
-0.19369301 0.04487814 1.3472002
-0.18531698 0.044190366 1.3430003
-0.17601582 0.042973761 1.3430001
-0.19550036 0.054472383 1.3450004
-0.18877059 0.05337381 1.3430001
-0.2028199 0.068000838 1.3490001
-0.19590783 0.06459792 1.3448951
-0.045524716 0.068287075 1.3430001
-0.035435308 0.068515882 1.3475001
-0.21168958 0.076870516 1.3490001
-0.20560716 0.075622462 1.3478752
-0.19683374 0.075030148 1.3430003
-0.045087162 0.074849598 1.3453078
-0.037843946 0.073322646 1.3490001
-0.21287221 0.082783632 1.3490001
-0.20532411 0.084959514 1.3460002
-0.19740456 0.084377706 1.3430002
-0.047197104 0.081419542 1.3460001
-0.20440099 0.094078012 1.3453078
-0.19740456 0.094581515 1.3430002
-0.20443779 0.10487354 1.3460002
-0.19661967 0.10478533 1.3430003
-0.063455768 0.10874857 1.3454001
-0.054316517 0.10352234 1.3470001
-0.21287221 0.11471447 1.3490001
-0.20526657 0.11560747 1.3456253
-0.19544232 0.1153816 1.3430003
-0.1895555 0.11773633 1.3430001
-0.073606394 0.11769455 1.3470001
-0.06740953 0.11313763 1.3490001
-0.2050769 0.1252397 1.3477144
-0.19544232 0.12480051 1.3430003
-0.1895555 0.12480051 1.3430001
-0.20364773 0.13316338 1.3490001
-0.19544232 0.13421939 1.3430003
-0.1895555 0.13421941 1.3430001
-0.081238069 0.1377515 1.3430001
-0.079235762 0.13363643 1.3490001
-0.19506149 0.14419986 1.3437061
-0.18916304 0.1456006 1.3430001
-0.085148878 0.14664528 1.3490001
-0.19489807 0.15452264 1.3473638
-0.18587625 0.1557063 1.3430003
-0.17228751 0.15815915 1.3430001
-0.09439683 0.15811649 1.3460001
-0.19040236 0.16320202 1.3490001
-0.18345979 0.16475861 1.3451431
-0.17464225 0.16679315 1.3430001
-0.14151907 0.1655373 1.3430001
-0.13674234 0.16533545 1.3430002
-0.10395674 0.16606098 1.3450001
-0.097939447 0.16284171 1.3460001
-0.18156555 0.17306539 1.3466001
-0.1743484 0.17434907 1.3437502
-0.16836296 0.17660451 1.3430001
-0.15282175 0.17448525 1.3430001
-0.14199002 0.17354336 1.3430001
-0.13485338 0.17488374 1.3430003
-0.12420245 0.17746976 1.3442
-0.11568484 0.17307085 1.345
-0.10880134 0.17148039 1.3490001
-0.16483086 0.18072528 1.3430001
-0.15452172 0.18460409 1.3455
-0.14467783 0.18431529 1.3445003
-0.13525914 0.18330252 1.3475002
-0.12811752 0.18172979 1.3490001
-0.20134491 0.027401969 1.3590001
-0.19896212 0.02978475 1.3590001
-0.20344375 0.036053475 1.3585457
-0.19740801 0.035672665 1.3565001
-0.21147174 0.047059905 1.3590001
-0.2045465 0.04518953 1.3565
-0.1982301 0.043919247 1.3540001
-0.21246451 0.055201072 1.3590001
-0.20545627 0.05445246 1.3570769
-0.02263641 0.058378108 1.3590001
-0.01310529 0.058378108 1.3590001
-0.22040714 0.067909233 1.3590001
-0.2137727 0.064622544 1.3579286
-0.20605621 0.063691504 1.3555001
-0.024304589 0.064365573 1.3546668
-0.015047471 0.064156443 1.35525
-0.0083397301 0.063143671 1.3590001
-0.22146614 0.074528061 1.3590001
-0.21495381 0.074393407 1.3556668
-0.20772617 0.070033394 1.3540001
-0.041545235 0.078342438 1.3540001
-0.034457862 0.076588064 1.3553637
-0.024503622 0.07447581 1.357
-0.014606062 0.073687337 1.3576365
-0.0059569501 0.072674789 1.3590001
-0.22142832 0.085269488 1.3590001
-0.21544172 0.086651489 1.3540001
-0.043233112 0.083693616 1.3573335
-0.039315868 0.082205907 1.3590001
-0.014693809 0.085382946 1.3590001
-0.22040714 0.095311195 1.3590001
-0.21427116 0.095362447 1.3563334
-0.22040714 0.10841649 1.3590001
-0.21411252 0.10463858 1.3553334
-0.055789314 0.10564359 1.3540001
-0.2212014 0.11397631 1.3590001
-0.21529332 0.11499126 1.3540001
-0.07240741 0.11988767 1.3540001
-0.063949004 0.11540867 1.3571252
-0.057186719 0.11199066 1.3590001
-0.2208837 0.12318972 1.3590001
-0.21445574 0.12598959 1.3557856
-0.074263304 0.12668447 1.3590001
-0.067909233 0.12033039 1.3590001
-0.21237832 0.13536727 1.3584446
-0.20635919 0.13672182 1.356143
-0.077293508 0.13556641 1.3565001
-0.2120674 0.14534958 1.3590001
