# .PCD v0.7 - Point Cloud Data file format
VERSION 0.7
FIELDS x y z
SIZE 4 4 4
TYPE F F F
COUNT 1 1 1
WIDTH 1426
HEIGHT 1
VIEWPOINT 0 0 0 1 0 0 0
POINTS 1426
DATA ascii
-0.063908026 -0.17449622 1.1331112
-0.084744513 -0.16374372 1.1372384
-0.078148991 -0.16294895 1.138
-0.063351437 -0.16594642 1.1335
-0.083871916 -0.15478899 1.1362002
-0.076494165 -0.15356144 1.1374286
-0.06074949 -0.15535176 1.136
-0.058550812 -0.15084101 1.132
-0.083326191 -0.14473709 1.1360002
-0.07498832 -0.14413552 1.136609
-0.066842325 -0.14366111 1.138
-0.056564286 -0.14381859 1.1345334
-0.082598276 -0.13505377 1.1351429
-0.074560516 -0.1342089 1.1340003
-0.068505071 -0.13434975 1.138
-0.053083535 -0.13473743 1.1328887
-0.048541032 -0.13274486 1.13
0.0069344328 -0.13175423 1.13
0.01454799 -0.13124692 1.1313335
-0.07362967 -0.12743713 1.1366667
-0.06883762 -0.12869641 1.138
-0.051569391 -0.12683016 1.1356001
-0.046001229 -0.12365206 1.1324444
-0.034046702 -0.12510924 1.1301816
-0.025719278 -0.1236876 1.1306314
-0.013348936 -0.12289344 1.1312308
-0.0052202838 -0.12368964 1.1319129
0.005335134 -0.12466284 1.1329629
0.014506241 -0.12568402 1.1359133
-0.043485831 -0.11492119 1.1350001
-0.034892 -0.11501884 1.1327586
-0.024864301 -0.11516615 1.1344802
-0.015441149 -0.11555054 1.1350436
-0.0048165531 -0.11477453 1.1368337
0.0043577715 -0.11563095 1.1375791
0.010974113 -0.11871995 1.138
-0.042547602 -0.10509898 1.1367693
-0.034995511 -0.10465486 1.135167
-0.028113296 -0.1070708 1.1372001
-0.0039905864 -0.10874349 1.138
-0.040903512 -0.09876702 1.138
-0.036912926 -0.09876702 1.138
-0.054192197 -0.28264558 1.149
-0.045492031 -0.28317934 1.1471177
-0.037619345 -0.28144839 1.1474001
-0.055717476 -0.27507102 1.1466843
-0.0463246 -0.27644062 1.1425
-0.035149951 -0.27824223 1.1458
-0.062787741 -0.26223114 1.149
-0.058622997 -0.26597893 1.1463335
-0.0010002767 -0.26107222 1.141
0.0041364054 -0.26251328 1.1463333
-0.072189115 -0.25148675 1.149
-0.064675987 -0.25524947 1.146053
-0.059016325 -0.25907165 1.141
0.005590253 -0.25693342 1.1435716
0.012074622 -0.25354251 1.1476668
-0.081590489 -0.2417496 1.149
-0.074822076 -0.24420097 1.1475002
-0.067490049 -0.24612854 1.1437694
0.0080022132 -0.24906889 1.141
0.011726002 -0.24889238 1.1463333
-0.082166076 -0.23383515 1.149
-0.075332291 -0.23521395 1.1456404
-0.069019087 -0.23506501 1.141
-0.081590489 -0.22462568 1.149
-0.075351641 -0.2252339 1.1459602
-0.069019087 -0.22606254 1.141
-0.082166076 -0.21368937 1.149
-0.075719342 -0.21516696 1.1462176
0.01505675 -0.21179828 1.1450001
-0.082485847 -0.20403218 1.149
-0.075523518 -0.20503253 1.1460003
0.015745809 -0.20266224 1.1463333
-0.09166339 -0.1903778 1.149
-0.085165635 -0.19369991 1.148579
-0.075625733 -0.19574061 1.1456002
0.016090799 -0.19454782 1.143667
0.022455232 -0.19268325 1.1467779
-0.092782587 -0.18321484 1.149
-0.085174307 -0.18502848 1.1455717
-0.075622074 -0.1857596 1.1448264
-0.069019087 -0.1840509 1.141
0.01712393 -0.18785957 1.149
0.025182249 -0.18836322 1.149
-0.10173629 -0.17023201 1.149
-0.095323704 -0.17448422 1.1483685
-0.085204318 -0.17541996 1.1434003
-0.075135916 -0.17532261 1.1427603
-0.068233073 -0.17559931 1.1446002
-0.10173629 -0.16721013 1.149
-0.095444135 -0.16495757 1.1459602
-0.085690372 -0.16904676 1.141
-0.073436908 -0.16601875 1.1412666
-0.067335077 -0.16467677 1.1437694
-0.094004378 -0.15551162 1.1461112
-0.088411659 -0.15376434 1.1434
-0.071877025 -0.15647185 1.1409999
-0.065956652 -0.15548563 1.1426842
-0.093372084 -0.14511295 1.1468669
-0.088542208 -0.14432502 1.1421429
-0.071019642 -0.14904122 1.141
-0.063997447 -0.14560178 1.141706
-0.091557026 -0.13783626 1.1476668
-0.088017255 -0.13480958 1.1468183
-0.062889814 -0.13521507 1.1412857
-0.058291975 -0.13434631 1.1415
-0.083318152 -0.12597638 1.1470002
-0.075747177 -0.12356956 1.1425
-0.064424768 -0.12470104 1.1423335
-0.055915374 -0.12465112 1.1430001
0.017004704 -0.12103347 1.141
0.021005809 -0.12103347 1.141
-0.081590489 -0.11886021 1.149
-0.075250588 -0.11580198 1.1470002
-0.065245911 -0.11543509 1.1450003
-0.055208091 -0.11543506 1.1450003
-0.048737407 -0.11449587 1.1423334
-0.021005809 -0.11103071 1.141
-0.01200332 -0.11103071 1.141
-0.00900249 -0.11103071 1.141
0.0070019364 -0.11103072 1.141
0.015506961 -0.11490168 1.1442729
0.021997809 -0.11601096 1.1463335
-0.072966278 -0.10919541 1.1480001
-0.065137647 -0.10565484 1.1460003
-0.055208083 -0.10539726 1.1450003
-0.04762594 -0.10477263 1.1436667
-0.023680627 -0.10425451 1.1435002
-0.015052119 -0.10537805 1.1448404
-0.0052867788 -0.10472781 1.1437274
0.0050183572 -0.10530439 1.1440402
0.013667609 -0.10703324 1.1487143
-0.062565319 -0.097657539 1.1484287
-0.055091351 -0.095608532 1.1460003
-0.045313001 -0.095135421 1.1443337
-0.034881443 -0.094433315 1.1430956
-0.025595797 -0.095996432 1.147182
-0.01712393 -0.098714419 1.149
-0.0041207317 -0.098256566 1.149
0.0040291599 -0.097707145 1.149
-0.053718954 -0.086172499 1.1480001
-0.045215279 -0.085401677 1.1461203
-0.035358448 -0.085635871 1.1470002
-0.027868355 -0.088305764 1.149
-0.052043319 -0.078904383 1.149
-0.045328051 -0.078568615 1.149
-0.037672646 -0.078770079 1.149
-0.055927143 -0.29223478 1.1552222
-0.047170505 -0.29077253 1.153
-0.062886804 -0.28197631 1.1570001
-0.056868844 -0.28675753 1.1542
-0.044186044 -0.28773633 1.1543332
-0.036897022 -0.28633574 1.1552857
-0.062779859 -0.27516001 1.155
-0.059637003 -0.27999067 1.153
-0.072015539 -0.26067597 1.1570001
-0.065105654 -0.26547131 1.1543332
-0.074514039 -0.25450271 1.1552857
-0.069744967 -0.25775313 1.153
-0.083029106 -0.24402454 1.155
-0.077831343 -0.24764518 1.153
-0.086039044 -0.23482811 1.1545999
-0.085463159 -0.22486179 1.1536666
-0.086212717 -0.21577878 1.1546665
-0.091287293 -0.20387496 1.1570001
-0.086708307 -0.20569062 1.1537273
-0.093291432 -0.19588456 1.1555454
-0.087939307 -0.19811615 1.153
-0.10123584 -0.18407883 1.1564286
-0.096669152 -0.18607289 1.1540909
0.019205136 -0.18699738 1.153
0.024393249 -0.18669073 1.1538889
-0.10277587 -0.17534019 1.1549999
-0.1040919 -0.16504566 1.155
-0.10094602 -0.15597916 1.1564286
-0.098047279 -0.15263028 1.153
-0.097915068 -0.14494789 1.1562001
-0.093888953 -0.13504067 1.1543334
-0.088950105 -0.13039277 1.153
-0.091794454 -0.12628077 1.1570001
-0.087595999 -0.12400784 1.1538
-0.08306548 -0.11522578 1.1554999
-0.078842141 -0.11118764 1.153
0.019205136 -0.11017684 1.153
0.023922188 -0.11152456 1.153
-0.073487632 -0.10668665 1.1545999
-0.06885165 -0.10125324 1.155
-0.01212956 -0.10006887 1.153
0.0090971701 -0.10006887 1.153
0.015687805 -0.10322049 1.1543332
0.023279181 -0.1058745 1.1545999
-0.063680187 -0.095351815 1.153
-0.059637003 -0.091982499 1.153
-0.02175054 -0.092060521 1.1539999
-0.015192574 -0.095007926 1.1553998
-0.0054409225 -0.093491122 1.1544999
0.0060710418 -0.093205072 1.1538571
0.012621528 -0.095160171 1.1559089
-0.059637003 -0.089960903 1.153
-0.031334698 -0.081874527 1.153
-0.026325548 -0.084473349 1.1549999
-0.0015205783 -0.088166364 1.156
0.0035461169 -0.088634506 1.1555001
-0.045190014 -0.074639 1.1548181
-0.035721071 -0.075695194 1.1553998
-0.029414797 -0.078101359 1.1570001
-0.061760873 -0.30300286 1.1676668
-0.0542945 -0.30430669 1.1661112
-0.045393094 -0.30323642 1.1661999
-0.039284896 -0.30300608 1.169
-0.070712812 -0.290025 1.169
-0.063763805 -0.29477423 1.1659999
-0.054221615 -0.2965647 1.1615001
-0.045105759 -0.29640236 1.1618572
-0.036935665 -0.29475591 1.1639334
-0.071646899 -0.28453663 1.1675
-0.065894358 -0.28599554 1.1623334
-0.033587731 -0.28702241 1.161
-0.073417678 -0.27483639 1.1659414
-0.06691923 -0.27572781 1.1613637
-0.074689552 -0.2651642 1.1638001
-0.068193272 -0.26870185 1.161
-0.081551917 -0.25284263 1.1676668
-0.077312008 -0.25722259 1.1634001
-0.086814255 -0.24341147 1.165
-0.091131248 -0.23345897 1.168
-0.088549472 -0.23714973 1.161
-0.092202164 -0.22311704 1.1667144
-0.088549472 -0.22629309 1.161
-0.093468398 -0.21422291 1.1647334
-0.10423479 -0.20393458 1.1672857
-0.096170753 -0.20545202 1.1628667
-0.11203922 -0.1939704 1.1682001
-0.10505562 -0.1948055 1.1634003
-0.097855166 -0.19585574 1.1610001
-0.11338906 -0.18542166 1.1667143
-0.10670941 -0.18463764 1.1620001
-0.11283632 -0.1753449 1.1671818
-0.10803325 -0.17549953 1.1610001
-0.1123611 -0.16416624 1.1663334
-0.10827832 -0.16435046 1.1630001
-0.11247395 -0.15605707 1.1678572
-0.10645101 -0.15448265 1.164579
-0.1035184 -0.14556518 1.1650001
-0.098727569 -0.14147559 1.161
-0.10179634 -0.13555415 1.1670001
-0.097672261 -0.13433914 1.161889
-0.10145751 -0.12810291 1.169
-0.095530629 -0.12518577 1.1642942
-0.09292382 -0.11775213 1.168
-0.086752295 -0.11471323 1.1642001
-0.081847355 -0.10946849 1.1670001
-0.075256355 -0.1051027 1.164
0.018682061 -0.10155746 1.1623334
0.023443293 -0.1017163 1.1626
-0.066387922 -0.097027421 1.1650001
-0.014401254 -0.091211282 1.1615715
-0.0091602895 -0.091602899 1.161
0.017330823 -0.094068095 1.1627144
0.024206422 -0.094766885 1.1665558
-0.060050789 -0.088549472 1.161
-0.022513092 -0.083378106 1.1614445
-0.015781913 -0.085244186 1.165182
-0.005231482 -0.085330971 1.1661766
0.0054121008 -0.083858676 1.1652002
0.015342052 -0.084870398 1.1664404
0.02193122 -0.086700059 1.169
-0.045219842 -0.071101293 1.1610001
-0.03399485 -0.072060943 1.1610001
-0.025335813 -0.074319854 1.1640002
-0.018094108 -0.077499963 1.1683334
0.00614894 -0.078911394 1.169
0.015030743 -0.078228176 1.169
-0.044335563 -0.064609148 1.163353
-0.035718728 -0.064293161 1.1642003
-0.02850607 -0.066513829 1.1672858
-0.043284833 -0.056916412 1.1663333
-0.039239306 -0.057665084 1.1676668
-0.063174136 -0.31302962 1.1765001
-0.054601077 -0.3142134 1.1751333
-0.045162186 -0.31470403 1.1762002
-0.071196727 -0.30026448 1.177
-0.065892361 -0.30565664 1.1757693
-0.05347316 -0.30952734 1.1730001
-0.044264946 -0.3088485 1.1743335
-0.03609575 -0.30483264 1.1764287
-0.073408268 -0.2939696 1.1756668
-0.067527004 -0.2978729 1.1730001
-0.033934891 -0.29924402 1.1730001
-0.081515096 -0.28272325 1.177
-0.077442721 -0.28576812 1.1755716
-0.081459686 -0.27531451 1.1762002
-0.078883633 -0.27540806 1.1736668
-0.081946418 -0.26437423 1.1747143
-0.08417315 -0.2552605 1.1756668
-0.08760909 -0.24770071 1.1756667
-0.09487579 -0.23306358 1.1763334
-0.1029257 -0.22287671 1.177
-0.095940299 -0.22564034 1.1742002
-0.11099614 -0.21476944 1.177
-0.10510707 -0.21536246 1.1754
-0.098866582 -0.21639001 1.1730002
-0.11251593 -0.20527603 1.1756668
-0.10741183 -0.20830272 1.1743335
-0.11588613 -0.19545786 1.1750001
-0.12072489 -0.18779427 1.177
-0.11808858 -0.18486042 1.1754001
-0.11724901 -0.17535564 1.1743335
-0.11691622 -0.16507041 1.1750001
-0.11616033 -0.15472186 1.1744547
-0.11305308 -0.14569324 1.175889
-0.10746048 -0.1424237 1.1730001
-0.11099614 -0.13605504 1.177
-0.10645936 -0.13451768 1.1754616
-0.1120116 -0.12370576 1.177
-0.10533681 -0.12454495 1.176158
-0.099233843 -0.1218571 1.1730001
-0.11205746 -0.11597844 1.177
-0.10411724 -0.11502522 1.177
-0.095355026 -0.11404144 1.1750001
-0.087940015 -0.11100405 1.1746
-0.10077605 -0.10696707 1.177
-0.091833465 -0.10834285 1.177
-0.0840654 -0.106367 1.1759092
-0.076916903 -0.10202305 1.1755456
-0.072386548 -0.097956456 1.1762002
-0.066725954 -0.094290756 1.1755
-0.060671471 -0.087408051 1.1730001
-0.058614809 -0.087408051 1.1730001
-0.012010041 -0.082015961 1.1743335
-0.0067932894 -0.081704803 1.1738001
0.02626916 -0.086660184 1.1730002
-0.015963662 -0.07468193 1.1750002
-0.0042742509 -0.078823224 1.1764287
0.0056987428 -0.075322323 1.1748668
0.015153184 -0.075027891 1.1747144
0.021631751 -0.078284577 1.1750001
-0.024779191 -0.06428013 1.1748824
-0.018416137 -0.067035817 1.1764287
-0.040241629 -0.054687344 1.177
-0.034747161 -0.056473829 1.1751819
-0.029097795 -0.057163753 1.177
-0.071922608 -0.32208821 1.189
-0.065289751 -0.32463688 1.1871334
-0.055405568 -0.32420814 1.1842728
-0.044659395 -0.32393014 1.1846364
-0.036460858 -0.32086527 1.1883334
-0.074042916 -0.31384295 1.1862001
-0.066473693 -0.31664875 1.1816667
-0.054873191 -0.31992108 1.1810001
-0.043615844 -0.31663615 1.182091
-0.03410919 -0.31460267 1.1875882
-0.024932338 -0.31478766 1.1882
-0.019671524 -0.31267369 1.1810001
-0.081929237 -0.30207497 1.189
-0.074674472 -0.30490643 1.183
-0.069368005 -0.3085323 1.1810001
-0.031927165 -0.30486014 1.1817273
-0.02797794 -0.30465129 1.1820002
-0.08476378 -0.29481098 1.1852858
-0.077425666 -0.29675168 1.1815002
-0.031016175 -0.29527584 1.1836668
-0.027385605 -0.29293787 1.1863333
-0.085851379 -0.28557348 1.1845555
-0.030816877 -0.28914425 1.1850001
-0.027055686 -0.28928596 1.187
-0.08521691 -0.27538466 1.1854
-0.086685523 -0.26496109 1.1860909
-0.091447726 -0.25471339 1.1872858
-0.087354749 -0.25666645 1.1834
-0.10215095 -0.24078439 1.189
-0.094089203 -0.24480399 1.1864547
-0.11205333 -0.23348789 1.189
-0.10372539 -0.23468126 1.1855334
-0.097268537 -0.23614083 1.182143
-0.11451329 -0.22423361 1.1852666
-0.10549324 -0.22721446 1.1816666
-0.12359294 -0.21506609 1.1877694
-0.11664808 -0.21494099 1.1824117
-0.12265433 -0.20542376 1.1867778
-0.11802913 -0.20499799 1.1810001
-0.12243688 -0.19396915 1.1850001
-0.11906448 -0.19671524 1.1810001
-0.12404365 -0.18432617 1.1856668
-0.12279487 -0.17618684 1.1850001
-0.11906448 -0.17186698 1.1810001
-0.12356191 -0.16552025 1.1874617
-0.11906448 -0.16876096 1.1810001
-0.12303708 -0.1552245 1.1843334
-0.11906448 -0.15357593 1.1810001
-0.12265628 -0.14546032 1.1823335
-0.11837425 -0.14425784 1.1810001
-0.12154931 -0.13687238 1.1810001
-0.11630356 -0.13528484 1.181
-0.11616552 -0.12624286 1.181
-0.10664036 -0.11078174 1.1810001
-0.09732227 -0.11078174 1.1810001
-0.10353433 -0.10871105 1.1810001
-0.093905419 -0.10506763 1.1814444
-0.085992411 -0.102567 1.1818001
-0.090379946 -0.097651899 1.1850001
-0.084856778 -0.094625115 1.1861999
-0.076058805 -0.093900032 1.1835998
-0.066991359 -0.090815939 1.1816667
-0.08130382 -0.088600315 1.189
-0.073486142 -0.08807914 1.189
-0.065020762 -0.086344063 1.1866668
-0.058695026 -0.084143348 1.1850001
0.024586117 -0.082757041 1.1850001
-0.012281724 -0.074135564 1.1815716
-0.0055267015 -0.074266821 1.182111
0.0031060299 -0.072474033 1.1810001
0.016785886 -0.071901217 1.1818001
0.023347009 -0.075089879 1.1872857
-0.02174221 -0.061085258 1.1810001
-0.014661483 -0.065032117 1.1845
-0.0052030166 -0.068678074 1.1870002
0.0057922201 -0.066099629 1.1861427
0.015413552 -0.065624066 1.1851665
-0.040378388 -0.051767167 1.1810001
-0.034179304 -0.051784348 1.1814001
-0.024525139 -0.054576587 1.1821111
-0.017836159 -0.055447794 1.1870002
0.013550636 -0.059414331 1.189
-0.033102058 -0.04746554 1.1874001
-0.025088049 -0.047050621 1.1879091
-0.019804776 -0.047948405 1.189
-0.061912831 -0.34104526 1.197
-0.057715349 -0.34104526 1.197
-0.074011996 -0.33275998 1.1965556
-0.064653166 -0.33479136 1.1949999
-0.055757266 -0.3348912 1.1950002
-0.047663931 -0.3326174 1.1950001
-0.081640981 -0.32257631 1.197
-0.075056016 -0.32527238 1.1939412
-0.067981116 -0.32944694 1.1930001
-0.054384895 -0.32944694 1.1930001
-0.048109714 -0.32944694 1.1930001
-0.0313759 -0.32108003 1.1930001
-0.02823831 -0.32108003 1.1930001
-0.082810223 -0.31446037 1.1956669
-0.077603057 -0.31522319 1.1930001
-0.032421764 -0.31898832 1.1930001
-0.024577789 -0.31114435 1.1930001
-0.091653921 -0.30348641 1.1962001
-0.085852183 -0.30610669 1.19425
-0.026146583 -0.30852968 1.1930001
-0.092325568 -0.29489985 1.1952223
-0.088898383 -0.29807106 1.1930001
-0.019938029 -0.29067549 1.197
-0.094666235 -0.28461748 1.1958003
-0.023008995 -0.28970414 1.1930001
-0.019938029 -0.28752738 1.197
-0.093115143 -0.27498382 1.1954616
-0.088898383 -0.27506205 1.1930001
-0.094112486 -0.26495093 1.1951178
-0.11123322 -0.25079942 1.197
-0.10418744 -0.25229853 1.1969999
-0.097095624 -0.25518274 1.1948463
-0.11365048 -0.24443568 1.1966667
-0.10561033 -0.2449384 1.1943333
-0.097312875 -0.24798834 1.1935713
-0.12137713 -0.23261034 1.197
-0.11592035 -0.23562326 1.1945384
-0.10939731 -0.23699264 1.1930001
-0.13095209 -0.22209649 1.1950001
-0.12448967 -0.22503383 1.1947144
-0.11748531 -0.22834682 1.1930001
-0.13082059 -0.21454296 1.1938001
-0.12810518 -0.21450268 1.1935713
-0.12685354 -0.2047306 1.1958572
-0.12599365 -0.19614482 1.1943334
-0.13173823 -0.18464461 1.1950002
-0.12881371 -0.1853703 1.1946
-0.13166256 -0.17512399 1.193
-0.12755868 -0.17426451 1.1946
-0.12833391 -0.16447932 1.1950001
0.038826689 -0.15425739 1.197
0.044423331 -0.15332462 1.197
-0.12864119 -0.14955845 1.1930001
-0.088898383 -0.090990111 1.1930001
-0.082650907 -0.085370153 1.1933999
-0.074847169 -0.083656661 1.1936318
-0.065656982 -0.082158379 1.193
-0.057568945 -0.081121914 1.194
0.02656493 -0.081786521 1.1930001
0.030431731 -0.083949596 1.197
-0.073630795 -0.076953799 1.1970001
-0.065060943 -0.076604009 1.1970001
-0.055616613 -0.075122543 1.1970003
0.026336672 -0.073250175 1.1936667
-0.051419131 -0.066110313 1.197
-0.049320389 -0.066110313 1.197
-0.01255036 -0.061705936 1.1930001
-0.005230485 -0.063811451 1.1932666
0.0020917268 -0.0627518 1.1930001
0.019871403 -0.061705936 1.1930001
0.024109213 -0.064985551 1.1956668
-0.01285791 -0.055148635 1.195182
-0.0059842807 -0.056951106 1.1965297
0.0056077274 -0.057128705 1.195118
0.015530149 -0.055728186 1.195364
0.02273635 -0.059114505 1.197
-0.040788669 -0.049155578 1.1930001
-0.03472754 -0.043624979 1.1943332
-0.024984514 -0.042183157 1.193
-0.016956078 -0.04501234 1.1940668
-0.030956415 -0.037252635 1.197
-0.025163839 -0.035646144 1.1960001
-0.01853887 -0.03742753 1.197
-0.07247965 -0.34211427 1.2052
-0.065967999 -0.34295881 1.202889
-0.055848926 -0.34141606 1.202
-0.081409022 -0.3330369 1.2060001
-0.075793847 -0.33737114 1.203143
-0.084531963 -0.32411095 1.203143
-0.079031497 -0.32982481 1.202
-0.091879927 -0.3136614 1.2046667
-0.088564955 -0.31524813 1.2026668
-0.095426165 -0.30436689 1.2037144
-0.10114453 -0.29286101 1.2060001
-0.096934535 -0.29532069 1.2037144
-0.10166053 -0.28419456 1.2025715
-0.097999059 -0.28556716 1.202
-0.10154184 -0.27527577 1.204
-0.097999059 -0.2750296 1.202
-0.10221111 -0.26408666 1.2038462
-0.097999059 -0.2687071 1.202
-0.12211353 -0.2521565 1.2060001
-0.11564846 -0.25344747 1.2036002
-0.10596076 -0.25629625 1.202
-0.12254047 -0.24508356 1.2050002
-0.11756875 -0.24702989 1.202
-0.10642909 -0.24973954 1.202
-0.13155335 -0.23486273 1.2060002
-0.12512538 -0.23592578 1.2037143
-0.13310519 -0.22712241 1.2050002
-0.12890916 -0.22796197 1.202
-0.13382667 -0.21391192 1.202
-0.1318384 -0.20528552 1.2055001
-0.12961166 -0.20442814 1.202
-0.13397394 -0.19523031 1.2047694
-0.12961166 -0.19494437 1.202
-0.1354073 -0.18704122 1.202
0.046154395 -0.15152974 1.202
0.047403235 -0.14531007 1.2052001
0.051805738 -0.14378737 1.2060001
0.02845134 -0.085354023 1.202
0.033729751 -0.085025273 1.2023333
-0.073414817 -0.072207525 1.2037144
-0.06427896 -0.071655221 1.2019999
-0.057253931 -0.071303971 1.202
0.032563411 -0.074925698 1.2037143
-0.070836417 -0.068721898 1.2060001
-0.063572362 -0.066440068 1.2057145
-0.055094052 -0.065362282 1.2038666
-0.049526405 -0.063225202 1.202
0.028115869 -0.063609764 1.2026668
0.032390598 -0.065261774 1.2060002
-0.04334766 -0.051805738 1.2060001
-0.0040659797 -0.053163823 1.2025715
0.0044823969 -0.052488662 1.2035
0.017913807 -0.051633913 1.202
0.024719745 -0.05470901 1.2034285
0.03066054 -0.058149301 1.2060001
-0.04116476 -0.046440542 1.204
-0.037935119 -0.042150132 1.202
-0.012391244 -0.044556145 1.2029999
-0.0080951396 -0.048227772 1.2046667
0.0084422994 -0.049608812 1.204
0.01506193 -0.047680307 1.2038182
0.021486515 -0.048254069 1.2053335
-0.03339301 -0.035266351 1.2028888
-0.023533827 -0.030910099 1.202
-0.016063066 -0.034356173 1.2037779
-0.024694743 -0.027191807 1.2056365
-0.017268579 -0.027841181 1.2060001
-0.086561196 -0.35158804 1.2190001
-0.076095536 -0.35014594 1.2140001
-0.083454475 -0.34553108 1.2152221
-0.076905183 -0.34514987 1.2107273
-0.090835817 -0.33021492 1.2190001
-0.085166857 -0.33532736 1.2143
-0.093083411 -0.32439294 1.2148
-0.088140644 -0.32601658 1.2113334
-0.10152239 -0.3131164 1.2190001
-0.096470758 -0.31590918 1.2133077
-0.10198498 -0.303464 1.2160001
-0.098202445 -0.30734706 1.2110001
-0.10495421 -0.29433435 1.2153751
-0.098651297 -0.29807544 1.21
-0.11114029 -0.28426269 1.2190001
-0.10658845 -0.28434956 1.2117778
-0.12289552 -0.27037013 1.2190001
-0.11434627 -0.27330893 1.219
-0.10744327 -0.27482376 1.2117144
-0.13251343 -0.26182088 1.2190001
-0.12477859 -0.26448551 1.2165
-0.11480618 -0.26558545 1.2151538
-0.10768914 -0.26621306 1.210889
-0.13438337 -0.2545439 1.2165556
-0.1259685 -0.25593555 1.2121538
-0.11609501 -0.2589449 1.21
-0.13532606 -0.24484748 1.2135717
-0.12740988 -0.24550857 1.21
-0.13606492 -0.23546082 1.2131332
-0.13729125 -0.22881876 1.2140001
-0.1528179 -0.21479999 1.2190001
-0.14640597 -0.21123779 1.2190001
-0.13671748 -0.21341181 1.2151667
-0.14403117 -0.20530082 1.219
-0.13729148 -0.20531614 1.2124166
-0.14264944 -0.19885606 1.2173334
-0.13648531 -0.19659543 1.21
0.0445522 -0.14108196 1.21
0.046461582 -0.13773581 1.2137779
0.051452737 -0.13625914 1.2143334
-0.071966961 -0.06602107 1.2108001
-0.065905407 -0.062236484 1.2107273
-0.055159867 -0.0604637 1.21
-0.049856033 -0.0604637 1.21
0.034000643 -0.062685177 1.2120001
-0.063085124 -0.056929171 1.2151111
-0.054395415 -0.056527462 1.2166667
-0.046465863 -0.054263517 1.2137778
-0.0010607666 -0.051977567 1.21
0.028672261 -0.052032501 1.2113334
0.033008188 -0.054133695 1.2145383
-0.043154795 -0.046878874 1.2155001
-0.0044160928 -0.044795357 1.2121054
0.0050384314 -0.045360669 1.213261
0.014516626 -0.042845819 1.2117779
0.025203291 -0.0445971 1.2145555
0.033128358 -0.045524772 1.219
-0.035566367 -0.033973463 1.2110001
-0.012473652 -0.034236025 1.2110001
-0.0058112638 -0.035663042 1.216091
0.0049546808 -0.038180187 1.219
0.014944755 -0.037362438 1.21775
0.022659788 -0.037841901 1.217889
-0.031353764 -0.027102808 1.21225
-0.023805004 -0.02232641 1.212923
-0.014639457 -0.024095183 1.2148751
-0.0081930347 -0.027428852 1.219
-0.020989152 -0.017429886 1.2173334
-0.017079877 -0.017079877 1.2177501
-0.092356831 -0.35224292 1.2250001
-0.088989556 -0.35059741 1.223
-0.092507623 -0.34394547 1.2270001
-0.087953769 -0.34537816 1.2235
-0.10089783 -0.33195174 1.2270001
-0.094294474 -0.33510631 1.2254617
-0.088989556 -0.33773145 1.223
-0.10147154 -0.32556945 1.2270001
-0.09810295 -0.32593766 1.223
-0.10309775 -0.31680191 1.2250001
-0.10524559 -0.30283922 1.2250001
-0.11354128 -0.29262319 1.2256668
-0.10864267 -0.29796058 1.2270001
-0.12365724 -0.28303778 1.2265557
-0.11636233 -0.2857708 1.2241428
-0.13252255 -0.27537149 1.2270001
-0.12473413 -0.27489603 1.2234704
-0.1168658 -0.27691057 1.2229999
-0.14162989 -0.2621049 1.2270001
-0.13577153 -0.2663182 1.2245998
-0.12865961 -0.269113 1.223
-0.14315178 -0.25534362 1.2246667
-0.13830908 -0.25839135 1.223
-0.14376116 -0.24540421 1.2247778
-0.1424747 -0.23590605 1.2250001
-0.14306411 -0.22051235 1.2270001
-0.13753614 -0.22457074 1.2256668
-0.15260458 -0.21836394 1.223
-0.14446956 -0.21559872 1.2243333
-0.13830908 -0.21872133 1.223
-0.14259772 -0.20907184 1.223
0.04686806 -0.13344942 1.2243334
0.051547997 -0.13209 1.2250001
-0.062338892 -0.051589206 1.2260001
-0.054734685 -0.051513284 1.2242001
-0.048247349 -0.050391678 1.223
-0.06131319 -0.047329478 1.2270001
-0.054468013 -0.047036111 1.2270001
-0.046198975 -0.04443815 1.2255454
-0.039670043 -0.041814368 1.223
0.035381388 -0.042350452 1.223
-0.043026801 -0.039799791 1.2270001
-0.037568968 -0.033992749 1.2243334
-0.0017869389 -0.031807512 1.223
0.0056794225 -0.033151273 1.2255716
0.015039656 -0.032229334 1.2255001
0.025552085 -0.034137342 1.2246
0.034130856 -0.037103161 1.2254617
-0.011793797 -0.020371104 1.223
-0.0052244072 -0.024272969 1.2251334
0.00107567 -0.02904309 1.2270001
0.01613505 -0.029043088 1.2270001
0.022589071 -0.029043088 1.2270001
-0.022910805 -0.015391637 1.2250001
-0.014609476 -0.014823206 1.2254001
-0.0086053601 -0.01721072 1.2270001
-0.01613505 -0.0096810302 1.2270001
-0.10149345 -0.35287938 1.2360001
-0.096556768 -0.35188138 1.2320001
-0.10351289 -0.3449212 1.2342224
-0.096804693 -0.34594634 1.2324002
-0.10489141 -0.33589911 1.2334547
-0.098284855 -0.33805668 1.2320001
-0.10548153 -0.3257072 1.233143
-0.10476517 -0.31501555 1.2320001
-0.11485736 -0.30014613 1.2360001
-0.10701207 -0.30536318 1.233
-0.12362297 -0.29401124 1.2348001
-0.11628575 -0.29629463 1.2320002
-0.13491628 -0.28294826 1.2355556
-0.12722537 -0.28724506 1.2333335
-0.14266874 -0.27269593 1.2360001
-0.13766824 -0.276416 1.2337145
-0.14536391 -0.26601601 1.2343334
-0.15061484 -0.25788727 1.2360001
-0.14808741 -0.2551021 1.233
-0.14835164 -0.2458061 1.2352002
-0.14547694 -0.2343926 1.234182
-0.13932689 -0.23005135 1.2320001
-0.15061484 -0.22863115 1.2360001
-0.14494956 -0.22521968 1.2325716
0.048602398 -0.13284656 1.2320001
0.050762508 -0.13068645 1.2320001
-0.06319464 -0.044032209 1.2337143
-0.055310968 -0.042538419 1.2327275
-0.06317436 -0.037541788 1.2353334
-0.055152852 -0.039147023 1.2336
-0.044740286 -0.036871962 1.2338183
-0.039282847 -0.035675656 1.2333335
0.02916144 -0.031321548 1.2320001
0.03613542 -0.033492956 1.2324446
-0.03564176 -0.02916144 1.2320001
-0.0016200799 -0.022141093 1.2320001
0.0055880193 -0.024682403 1.2331668
0.01494624 -0.024103584 1.2334119
0.024201045 -0.025144337 1.2337502
0.033048581 -0.02871434 1.2360001
-0.024341527 -0.013521707 1.2340001
-0.012960641 -0.011880587 1.2320001
-0.0045930762 -0.01459365 1.2332501
0.0045837527 -0.01641147 1.2353847
0.014705458 -0.017491754 1.2360001
0.0216712 -0.018420519 1.2360001
-0.021874586 -0.0084454557 1.2352002
-0.015245074 -0.0071778283 1.234182
-0.0063465661 -0.0091328621 1.2360001
-0.11285593 -0.34620795 1.245
-0.10805355 -0.34817255 1.245
-0.10805355 -0.33289224 1.245
-0.11023645 -0.32852644 1.245
-0.10805354 -0.32416064 1.245
-0.13424835 -0.30014876 1.245
-0.12478911 -0.30087638 1.245
-0.11445357 -0.30412459 1.2434
-0.13516216 -0.29342917 1.2442727
-0.12915491 -0.29578295 1.245
-0.16153459 -0.28050265 1.245
-0.14370759 -0.28341317 1.245
-0.13564682 -0.28805566 1.2418001
-0.16216393 -0.27526268 1.2438571
-0.15594082 -0.27401119 1.2439334
-0.14715779 -0.27578336 1.2434
-0.15409462 -0.26675504 1.2436668
-0.14904824 -0.268722 1.2410001
-0.15146783 -0.2419109 1.243
-0.15146783 -0.23537624 1.243
-0.14920838 -0.23416145 1.2423334
0.049115248 -0.12769964 1.245
0.051298149 -0.12769964 1.245
0.057846848 -0.11241935 1.245
0.060029749 -0.11023645 1.245
-0.062012769 -0.033726241 1.2410001
-0.055072375 -0.033884864 1.2415333
-0.04587996 -0.032804377 1.2427778
-0.053481054 -0.029469149 1.245
-0.04474945 -0.029469151 1.245
-0.035963498 -0.028333865 1.243
0.028680732 -0.021418428 1.2423334
0.034228049 -0.025506264 1.2434
0.040253904 -0.029374469 1.2410001
0.0080570932 -0.012845446 1.2418001
0.01524348 -0.013064964 1.2420001
0.024922056 -0.014892404 1.2431334
-0.022608606 -0.00327435 1.245
-0.015237636 -0.0018138234 1.2416667
-0.0047663273 -0.0036753158 1.243
0.0029975425 -0.0070834667 1.2435
-0.022869019 0.0021782245 1.2423334
-0.015748063 0.0020269786 1.245
-0.0076401504 0.00109145 1.245
-0.111775 -0.3517625 1.25
-0.11330003 -0.34271592 1.2547144
-0.1117544 -0.33635259 1.2538334
-0.11196945 -0.32621697 1.2546
-0.1084875 -0.32107916 1.25
-0.14364171 -0.31077695 1.2589999
-0.13531648 -0.31102923 1.2590001
-0.11236662 -0.314156 1.2548572
-0.10859599 -0.31591231 1.25125
-0.14442199 -0.30397725 1.2575455
-0.13552061 -0.30471796 1.2542503
-0.12549642 -0.3066062 1.2527274
-0.11700519 -0.30798352 1.2520001
-0.16003989 -0.29910901 1.2590001
-0.15341754 -0.29509547 1.2589999
-0.14513814 -0.29467016 1.2541876
-0.13434917 -0.29828584 1.25
-0.1611436 -0.28586435 1.2590001
-0.15403107 -0.28425232 1.2535
-0.14662251 -0.28645083 1.25
-0.15378194 -0.27870694 1.25
-0.15743472 -0.26555696 1.25
0.048827704 -0.12408749 1.2563334
0.05238083 -0.12339083 1.25
0.049667548 -0.11809839 1.2590001
0.054080773 -0.11542167 1.2539001
0.057637621 -0.10830369 1.2563335
0.060270835 -0.1084875 1.25
-0.051504165 -0.027395833 1.25
-0.043761007 -0.024937097 1.2524999
-0.035810955 -0.023617061 1.2554615
-0.0295875 -0.020820834 1.25
0.036018338 -0.02258683 1.2533334
0.041647427 -0.023727108 1.2548572
-0.040837765 -0.018763296 1.2590001
-0.03366356 -0.016279919 1.2589999
-0.028776335 -0.014939027 1.2555715
0.0295875 -0.01315 1.25
0.03517976 -0.015639909 1.2564666
0.040837765 -0.018763296 1.2590001
-0.027263105 -0.0061598108 1.2538
0.0070010596 -0.0043884837 1.252125
0.015329625 -0.0057190508 1.2537371
0.02487771 -0.0062256688 1.2544762
0.032534413 -0.0082700346 1.2580001
0.04635638 -0.0099335099 1.2590001
-0.020862475 0.0065903417 1.2525001
-0.01512169 0.0073529403 1.2526155
-0.0052981162 0.0058755721 1.252174
0.0042307936 0.0052727349 1.2550529
-0.014716312 0.012876772 1.2589999
-0.0051992587 0.014179707 1.2578572
0.00257477 0.013606158 1.2583333
-0.12338908 -0.34182107 1.268
-0.11775597 -0.34217703 1.2648
-0.12227747 -0.33904207 1.268
-0.11627015 -0.33524203 1.2657777
-0.13450521 -0.32125625 1.268
-0.11383621 -0.32331187 1.2656
-0.14072955 -0.31581041 1.2640001
-0.13417733 -0.31703365 1.2666667
-0.1254538 -0.31418961 1.2664001
-0.1164751 -0.31651407 1.2653333
-0.15254936 -0.30177438 1.2640001
-0.16092971 -0.29300129 1.266
-0.15694787 -0.29409862 1.2645714
-0.16067547 -0.28921583 1.2640001
-0.15845925 -0.28921583 1.2640001
0.05438314 -0.11098424 1.266
0.057759184 -0.10551823 1.267
0.061138734 -0.10115682 1.268
-0.040999945 -0.016621599 1.2640001
-0.03656752 -0.014774755 1.2640001
0.03656752 -0.012189173 1.2640001
0.044324271 -0.01503859 1.2640001
-0.03299072 -0.0072053233 1.2650001
-0.029918879 -0.0055405335 1.2640001
0.016621599 -0.0011081067 1.2640001
0.027702667 -0.00166216 1.2640001
0.035410639 -0.0057493392 1.2658181
0.044188909 -0.0086579602 1.2664
-0.021054026 0.0099729598 1.2640001
0.0095297173 0.0055405335 1.2640001
0.015214174 0.0039647878 1.2654285
0.024642516 0.004221091 1.2661334
0.031125173 0.0033348401 1.268
-0.021076234 0.014422921 1.2653333
-0.015434753 0.017252482 1.2658181
-0.0055405335 0.018394571 1.2640001
0.0033348401 0.0166742 1.268
-0.014248863 0.023748102 1.2679999
-0.0049228589 0.022073463 1.268
-0.12196215 -0.33679166 1.2763335
-0.1189774 -0.332688 1.2763333
-0.12164363 -0.32029104 1.273
-0.11879851 -0.32462758 1.276
-0.12499162 -0.31805906 1.273
-0.16469586 -0.30138221 1.2780001
-0.16501224 -0.29538327 1.2746665
0.048176341 -0.11315838 1.2780001
0.051403057 -0.11286031 1.2746667
0.056051314 -0.10396241 1.2751428
0.058259759 -0.099713817 1.2780001
0.062659457 -0.09734302 1.2763333
0.038167082 -0.0029015914 1.273
0.043387022 -0.0037983339 1.2754999
0.017855946 0.0078119766 1.273
0.021203937 0.0078119766 1.273
0.035797734 0.0044731186 1.2759166
-0.021203937 0.018971942 1.273
0.0061456524 0.015638199 1.27425
0.014536448 0.011184074 1.2754999
0.024345307 0.012821719 1.2756922
0.030749083 0.012304455 1.2755001
-0.021266399 0.02462754 1.2767501
-0.014755956 0.025419926 1.2729999
-0.0040939357 0.026436275 1.274111
0.001865839 0.022006378 1.2763335
-0.014344099 0.031846829 1.2766362
-0.0067222798 0.03137064 1.2780001
-0.12626661 -0.3343606 1.2868462
-0.12587179 -0.32651314 1.2857779
0.048553307 -0.11178552 1.2880001
0.052407812 -0.10494547 1.2841111
0.057484064 -0.095395118 1.2857274
0.063811518 -0.092218675 1.286
0.064361356 -0.088638008 1.2880001
0.038318664 0.007888685 1.2855
0.042343002 0.0028228667 1.2880001
-0.02371208 0.019195493 1.2880001
0.0071337284 0.018395973 1.2846668
0.014644132 0.016900675 1.2850002
0.025226835 0.017835533 1.2830001
0.032996483 0.014324985 1.2851429
-0.023666056 0.024788626 1.2855
0.004138256 0.024945257 1.286889
0.019195493 0.022582933 1.2880001
0.024966687 0.022959314 1.2880001
0.030427784 0.022541292 1.2855
-0.021997537 0.032151092 1.2867501
-0.014461359 0.036978886 1.2841541
-0.0043210899 0.034751799 1.2855002
0.0011291467 0.031616107 1.2880001
-0.012420613 0.041778427 1.2880001
-0.0071512624 0.042531192 1.2880001
-0.1259678 -0.33477488 1.2945001
-0.12572452 -0.32733682 1.2920001
0.047208235 -0.10553708 1.2945
0.0509694 -0.1019388 1.2920001
0.048704091 -0.098540843 1.2920001
0.05368093 -0.094507597 1.2936667
0.069091856 -0.091744922 1.2920001
0.05699157 -0.087868132 1.2950001
0.06489484 -0.08559633 1.2926667
0.071357161 -0.088346958 1.2920001
0.064811088 -0.07845553 1.2970001
0.04484513 0.0050204196 1.2927142
0.035782687 0.013632385 1.29575
0.0073699174 0.02664475 1.2932501
0.014338656 0.025010785 1.2931767
0.024756566 0.02734549 1.2919999
0.032155402 0.025723884 1.2945
-0.023089061 0.035205763 1.2953334
-0.019255107 0.039642867 1.2920001
-0.0028327291 0.039114892 1.2932501
0.0036579403 0.033929244 1.2947778
0.026139241 0.032390751 1.296375
0.031999465 0.0336238 1.2970001
-0.013388102 0.045377143 1.2939999
-0.0060517765 0.04615109 1.2945
-0.1332951 -0.33190104 1.307
0.044686332 -0.1019765 1.307
0.049269542 -0.097393282 1.307
0.051899366 -0.093051851 1.3040001
0.056144368 -0.085935257 1.307
0.062265471 -0.081689335 1.3032501
0.058435969 -0.079060428 1.307
0.062913358 -0.075662091 1.3048571
0.063019186 -0.069894001 1.307
0.049081061 -0.00114142 1.302
0.048029497 0.0045810216 1.3045001
0.036595572 0.016010562 1.3045001
0.042786419 0.011671414 1.3050001
0.01255562 0.0285355 1.302
0.035384018 0.021686981 1.302
0.006045118 0.036749244 1.304143
0.014249738 0.032560278 1.305182
0.024332883 0.035768379 1.304143
0.03455241 0.035005473 1.3050001
-0.021770263 0.041248918 1.307
-0.017784184 0.047151268 1.3027143
-0.0022879539 0.045748118 1.3045
0.0025198909 0.043278925 1.3060001
0.027499281 0.040103115 1.307
0.032082494 0.040103115 1.307
-0.0139788 0.052019469 1.307
-0.0080206236 0.051561151 1.307
0.047337368 -0.10044759 1.317
0.04864746 -0.094761878 1.3150001
0.054509383 -0.085221939 1.3136668
0.058249898 -0.075550914 1.31575
0.060959894 -0.072461762 1.312
0.058883071 -0.065810487 1.317
0.060959894 -0.065560639 1.312
-0.032327957 -0.00115457 1.317
-0.02424597 0.01731855 1.317
0.03795616 0.018402986 1.312
0.043679431 0.015818017 1.3142729
-0.027016938 0.0247078 1.317
0.037052937 0.025852147 1.3148572
0.040409949 0.0230914 1.317
-0.02609328 0.035329841 1.317
0.015732855 0.036710314 1.3131112
0.021853546 0.03795616 1.312
0.038100809 0.032327957 1.317
-0.023348812 0.045826763 1.3151251
-0.0011501866 0.049458027 1.312
0.0055016675 0.044917181 1.3136668
0.013162099 0.041333605 1.317
0.025734989 0.042254601 1.3145001
0.033400711 0.041841254 1.3136667
-0.022514114 0.053687509 1.317
-0.015342747 0.055961814 1.3150769
-0.0051037031 0.053519245 1.3148572
-0.01500941 0.061192211 1.317
0.045257796 -0.094657712 1.3237144
0.047622286 -0.088859804 1.325
0.052048478 -0.083050929 1.326
0.055925682 -0.075816281 1.326
0.056917585 -0.067369208 1.325
-0.040747467 -0.0023284266 1.3280001
-0.036889426 -0.0030143305 1.3232
-0.034075897 0.0043841423 1.326154
-0.027235404 0.0057947673 1.322
-0.032915488 0.015558123 1.3280001
-0.027062299 0.014557793 1.3243077
0.04798067 0.016920719 1.322
0.050837319 0.019015484 1.3280001
-0.03371485 0.02557412 1.3260001
-0.028973833 0.026655927 1.322
0.044403974 0.025641147 1.3247694
0.052056964 0.025113747 1.3280001
-0.034871832 0.034867223 1.3257499
-0.028973833 0.0347686 1.322
0.038245458 0.037086505 1.322
0.041642018 0.033268098 1.3268001
-0.040747467 0.045404319 1.3280001
-0.034611292 0.044805363 1.3256669
-0.027814876 0.045199182 1.3220001
0.0057947668 0.049062356 1.322
0.0156458 0.044613022 1.3256924
0.024054231 0.045953866 1.3245715
0.033762187 0.044240106 1.3280001
-0.040747467 0.051225387 1.3280001
-0.034969822 0.054948334 1.3269414
-0.026462769 0.056209225 1.3220001
-0.015066394 0.059106618 1.322
-0.003769886 0.057757206 1.3242501
0.0044875317 0.052654602 1.3262857
0.011642134 0.050061174 1.3280001
-0.032209903 0.062479448 1.3280001
-0.025600201 0.065160438 1.3272499
-0.015353162 0.065035231 1.3246669
-0.0061446815 0.063286819 1.3262857
-0.022120053 0.071017012 1.3280001
-0.0174632 0.073345445 1.3280001
0.043238077 -0.092319138 1.3330001
0.044856135 -0.084228843 1.3330001
0.046648659 -0.077123351 1.3370001
0.052088417 -0.073910989 1.3335557
0.054121561 -0.0667037 1.3348751
0.040900882 -0.057261236 1.3330001
0.062167939 -0.058649 1.3380001
-0.05043814 -0.015248741 1.3379999
-0.045565762 -0.013805072 1.3380001
-0.045041818 -0.0050242394 1.3369286
-0.038563691 -0.0070115803 1.3330001
-0.043104298 0.003981119 1.3360002
-0.038563691 0.0058429833 1.3330001
-0.042096954 0.014988076 1.3380002
-0.037541017 0.014678712 1.3335557
-0.04173401 0.026523257 1.3346667
-0.038563691 0.025709128 1.3330001
0.047912464 0.029214917 1.3330001
0.056431673 0.026675213 1.3334546
0.065528147 0.02624784 1.3347857
0.074929357 0.02576118 1.3354999
0.083595283 0.026063433 1.3372308
-0.042550091 0.035000626 1.3357779
0.0454279 0.035594154 1.3355001
0.054498177 0.032645412 1.3352224
0.066468865 0.032452445 1.3380002
0.076243699 0.032608844 1.3380001
0.084665611 0.033688106 1.3367501
0.091492444 0.03870834 1.3380001
-0.04333714 0.045210399 1.3360001
0.016360354 0.047912464 1.3330001
0.029214917 0.047912464 1.3330001
0.036290057 0.04332355 1.3355
0.041054301 0.041054301 1.3380001
0.087973498 0.041054301 1.3380001
0.092665426 0.041054301 1.3379999
-0.043516856 0.055222545 1.3355001
-0.038563691 0.059598431 1.3330001
0.0035123655 0.057761077 1.3355001
0.015191756 0.051184535 1.3330001
0.023977052 0.050883267 1.3342501
-0.041992687 0.064044699 1.3380001
-0.035719849 0.06612967 1.334154
-0.01051737 0.068947203 1.3330001
-0.0042892378 0.06630376 1.3346667
0.0011729799 0.062167939 1.3380001
-0.033664376 0.073189266 1.3372859
-0.025997199 0.075176455 1.3356668
-0.013279506 0.075746305 1.3330001
-0.0076090284 0.073173173 1.3355
-0.023068607 0.08171761 1.3379999
-0.019903401 0.08195737 1.3355
0.045301497 -0.073929176 1.3447144
0.046093557 -0.065003604 1.3482002
0.053966723 -0.062335387 1.3462728
0.060045529 -0.060045529 1.3430001
0.046122309 -0.057948545 1.3490001
0.055110246 -0.057475496 1.3490001
0.061617833 -0.053364456 1.3452501
0.061890621 -0.046910722 1.3490001
-0.063861661 -0.03193083 1.3490001
-0.062940508 -0.024967795 1.3482503
-0.054647893 -0.023717778 1.3441253
-0.048271898 -0.022369903 1.3430001
-0.062656678 -0.014185783 1.3485001
-0.054973815 -0.013856662 1.3430003
-0.062464021 -0.0050530266 1.3490001
-0.054174826 -0.0047104391 1.3433752
-0.060786843 0.0040209191 1.3490001
-0.05429909 0.0047235894 1.3463753
-0.047094535 0.0058868169 1.3430001
-0.061890621 0.014585687 1.3490001
-0.054299749 0.014164853 1.3463753
-0.046702079 0.014520814 1.3430002
0.095388576 0.015126089 1.3462729
-0.062087726 0.025032194 1.3490001
-0.054319412 0.024797481 1.3469005
-0.04650585 0.024528405 1.3430003
0.088400878 0.023569621 1.3445001
0.094296649 0.024749089 1.3445003
0.10405298 0.02698805 1.3476155
0.11471447 0.025623506 1.3490001
-0.061327465 0.034971863 1.3490001
-0.054344129 0.035439249 1.3475003
-0.047262728 0.035489094 1.3430002
0.048271898 0.03885299 1.3430001
0.054251421 0.037740722 1.3452501
0.064298987 0.036913935 1.3448465
0.074816085 0.036498263 1.3430003
0.084475815 0.036792606 1.3430002
0.094525464 0.034816317 1.3430003
0.10355259 0.034154464 1.3434619
-0.060313791 0.044939686 1.3490001
-0.054357607 0.044901218 1.3478754
-0.046800189 0.043856785 1.3430002
0.036546357 0.046987955 1.3447144
0.044797745 0.044152673 1.3479091
0.0536911 0.041864865 1.3490001
0.06701532 0.042180229 1.3490001
0.075976193 0.044744439 1.3481432
0.084533833 0.044886339 1.347286
0.090656973 0.043562442 1.3430001
-0.060313791 0.050852802 1.3490001
-0.054358266 0.054356296 1.3478754
-0.048271898 0.054158714 1.3430001
0.0082599539 0.056642309 1.3460001
0.014624554 0.055910118 1.3454001
0.024950309 0.055125546 1.3460001
0.033704765 0.051444113 1.3490001
0.068934642 0.054751921 1.348
0.075305104 0.052958071 1.3479091
0.081601009 0.050852802 1.3490001
-0.053661529 0.064305142 1.3490003
-0.046131477 0.065707579 1.3439233
-0.0023547267 0.068287075 1.3430001
0.0047245757 0.063165806 1.3467501
0.015374104 0.060313791 1.3490001
0.024835089 0.060313791 1.3490001
-0.051444113 0.076279208 1.3490001
-0.044869337 0.075562961 1.3467503
-0.036498263 0.076790251 1.3430002
-0.0059065418 0.07560505 1.3475001
-0.050852802 0.088696748 1.3490001
-0.044939686 0.085148878 1.3490003
-0.035421498 0.085010797 1.3467503
-0.025706144 0.085764341 1.345
-0.014948775 0.084205724 1.3465
-0.033113454 0.091061994 1.3490001
-0.024046674 0.091456205 1.3490001
-0.01773935 0.091061994 1.3490001
0.046293262 -0.053415298 1.3540001
0.054278575 -0.053199474 1.3540001
0.048118703 -0.046927311 1.3552501
0.054858554 -0.04654688 1.3545001
0.061952278 -0.04169865 1.3590001
-0.067659378 -0.032049179 1.3540001
-0.070162699 -0.021407761 1.3565001
-0.067659378 -0.024333637 1.3540001
-0.07116542 -0.013756027 1.356143
-0.067659378 -0.01424408 1.3540001
-0.070768557 -0.0054803942 1.3590001
-0.067184582 -0.0040358226 1.3540001
-0.070292011 0.0047655599 1.3590001
-0.065569334 0.0050777332 1.3553637
-0.070292011 0.014296679 1.3590001
-0.066677637 0.013740999 1.3547144
0.10396209 0.014254674 1.35525
0.11318205 0.016509261 1.3590001
0.12033039 0.017870849 1.3590001
-0.070205808 0.023397066 1.3573335
-0.066769131 0.024630388 1.3540001
0.10564359 0.022553125 1.3540001
0.11396248 0.022314187 1.3556668
0.12033039 0.02025363 1.3590001
-0.070292011 0.035741702 1.3590001
-0.066076711 0.03600587 1.3540001
-0.070292011 0.046464209 1.3590001
-0.065327011 0.045134019 1.3548335
0.046293259 0.048073769 1.3540001
0.055077106 0.046293262 1.3540001
0.063795753 0.04587796 1.3544546
0.071813904 0.046886764 1.3540001
-0.071483403 0.051229771 1.3590001
-0.063625358 0.054117348 1.3553637
0.029675167 0.058163326 1.3540001
0.035610203 0.05578931 1.3540001
0.045020923 0.054342519 1.3573335
0.05400968 0.052024033 1.3590001
0.064475156 0.05353453 1.3570001
-0.061406117 0.063382998 1.3556668
-0.058163326 0.066472374 1.3540001
0.0059350333 0.066472374 1.3540001
0.01398634 0.06499701 1.3555385
0.024620872 0.063846566 1.355786
0.035678145 0.061840504 1.3565
0.044081431 0.060760889 1.3590001
-0.060760889 0.070292011 1.3590001
-0.055139787 0.073914662 1.3555001
-0.0027711436 0.07487347 1.3556668
0.0035741699 0.070292011 1.3590001
-0.052821796 0.085464485 1.3540001
-0.011487547 0.087552406 1.3556668
-0.0071329987 0.084435269 1.3565001
-0.05401196 0.093983039 1.3570001
-0.045490552 0.093902633 1.3558183
-0.035754371 0.09473443 1.3553637
-0.025887704 0.095471725 1.3545001
-0.016618093 0.092586517 1.3540001
0.055045899 -0.04188275 1.365
-0.068209052 -0.034702849 1.365
0.05384925 -0.039489448 1.3650001
0.061029151 -0.039489448 1.365
-0.07203833 -0.02417233 1.365
-0.075730853 -0.01418885 1.3649999
-0.075606532 -0.0044602412 1.3649999
-0.075388961 0.0047865999 1.3649999
0.10809738 0.0075787832 1.3650001
0.11128845 0.0083765499 1.365
-0.074192308 0.0143598 1.3649999
0.11547672 0.012863987 1.3649999
0.1220583 0.01555645 1.365
-0.073593982 0.025528533 1.3649999
-0.073474318 0.035899501 1.3649999
-0.073916152 0.045748852 1.3649999
-0.07428436 0.055506151 1.3649999
-0.067012399 0.057439197 1.365
0.049062651 0.05863585 1.365
0.055285227 0.055763889 1.365
0.062624685 0.057040315 1.3650001
-0.07395298 0.064379767 1.3649999
-0.066294409 0.065097757 1.3649999
0.02752295 0.068209052 1.3650001
0.034104526 0.066414073 1.365
0.0454727 0.0622258 1.365
-0.072995655 0.07060235 1.3650001
-0.06452705 0.07391616 1.3649999
-0.05863585 0.076585606 1.365
-0.00119665 0.077782251 1.365
0.0049575497 0.072653756 1.3649999
0.01507779 0.071081005 1.365
0.023135236 0.071400113 1.3649999
-0.061926633 0.084962144 1.3649999
-0.057572167 0.0844303 1.3649999
-0.0035899498 0.084164381 1.3650001
-0.062054846 0.096244857 1.3649999
-0.056242552 0.097726412 1.3649999
-0.0454727 0.099321947 1.365
-0.037096146 0.099321939 1.3650001
-0.025129652 0.099321939 1.3650001
-0.013163149 0.094535351 1.3650001
-0.061029151 0.10171525 1.365
-0.055045895 0.10171525 1.365
-0.045472704 0.10171525 1.365
-0.035899498 0.10171525 1.365
-0.029916249 0.10171525 1.365
-0.080821656 -0.042220265 1.376
-0.078409068 -0.042220265 1.376
-0.080821656 -0.038601387 1.376
-0.074830331 -0.034656297 1.373158
0.049458027 -0.033776212 1.376
0.055879392 -0.034187149 1.3745003
0.061386831 -0.036107272 1.3730001
-0.08214993 -0.022906797 1.3751429
-0.076503783 -0.024434455 1.3706667
0.054900054 -0.025311118 1.3749093
-0.090471998 -0.012062933 1.376
-0.083982922 -0.014198844 1.3724002
-0.078067169 -0.016814467 1.3700001
-0.090954505 -0.0050664316 1.376
-0.084168337 -0.004809394 1.3715001
-0.084238358 0.0048136674 1.3726252
0.10849335 0.0036031001 1.3700002
0.1157393 0.0045681354 1.3723999
0.1240121 0.0062901806 1.3733335
-0.090472005 0.015681813 1.376
-0.084168337 0.014428183 1.3715003
-0.078067169 0.014412399 1.3700001
0.1189023 0.0108093 1.3700001
0.12478573 0.011875576 1.3742858
-0.090471998 0.020506987 1.376
-0.084007822 0.023830606 1.3728002
-0.078067169 0.024020668 1.3700001
-0.083880059 0.034780096 1.3733336
-0.078067169 0.034829967 1.3700001
-0.083691739 0.046053432 1.372143
-0.078067169 0.043237198 1.3700001
-0.090471998 0.059108373 1.376
-0.08419168 0.055322818 1.3718752
-0.078067169 0.056448568 1.3700001
0.055968154 0.057889808 1.3700001
0.061252698 0.058850631 1.3700001
-0.09150596 0.064622857 1.3760002
-0.084167682 0.064928785 1.3715001
-0.078067169 0.0684589 1.3700001
0.037832551 0.067858383 1.3700001
0.045064393 0.065792739 1.3707501
0.054720484 0.061949827 1.3748001
0.061252698 0.061252698 1.3700001
-0.090471998 0.071171306 1.376
-0.084008522 0.074375004 1.3728002
-0.074741237 0.07529556 1.3700001
-0.067257866 0.078067169 1.3700001
0.0053188619 0.077037714 1.37
0.0141078 0.076007806 1.3721819
0.024543159 0.076282278 1.3724002
0.033974878 0.073229589 1.3727692
0.043426558 0.071171306 1.376
-0.08311677 0.084317803 1.3740001
-0.074567631 0.084189706 1.3718753
-0.066537254 0.084312543 1.37
-0.0018028652 0.08596988 1.3715
0.0043400256 0.082644947 1.3742001
0.014475519 0.080821656 1.376
0.024125867 0.080821656 1.376
-0.082027949 0.091678292 1.376
-0.074465469 0.093742326 1.3744
-0.066930324 0.09466327 1.37
-0.020417567 0.099685766 1.3700001
-0.014047123 0.097564243 1.3740001
-0.0060314666 0.091276191 1.376
-0.071975499 0.10092654 1.376
-0.064622462 0.10556193 1.3735
-0.055727951 0.10624851 1.372
-0.046510085 0.10544664 1.3720001
-0.03494779 0.10485599 1.3748
-0.024874831 0.10311559 1.373
-0.015681813 0.10012235 1.376
-0.08476752 -0.044053376 1.38625
-0.091681629 -0.033316664 1.3870001
-0.085110746 -0.034133457 1.3843753
0.049853403 -0.034046225 1.3870001
0.052059095 -0.032688271 1.381
-0.093796901 -0.023703314 1.3865
-0.086581446 -0.025180887 1.3823335
0.056901801 -0.021792181 1.381
-0.095161662 -0.014908216 1.3840001
-0.088379398 -0.018160149 1.381
-0.10092274 -0.0060796831 1.3870001
-0.096018523 -0.0047402959 1.383182
-0.094642513 0.0048551993 1.3840003
0.1246997 0.00363203 1.381
-0.095529884 0.014287575 1.3846924
-0.094899334 0.024511775 1.3842003
-0.088379398 0.027845563 1.381
-0.10173336 0.036883414 1.3870001
-0.094395772 0.034653369 1.3843335
-0.088379398 0.036320299 1.381
-0.10269138 0.046095051 1.3870001
-0.095002502 0.045472499 1.3853335
-0.088379398 0.043584362 1.381
-0.10196497 0.055411972 1.3870001
-0.094816238 0.055528592 1.3830001
-0.10092274 0.064444646 1.3870001
-0.096592598 0.065875359 1.3830001
0.049637742 0.066587217 1.381
-0.094035216 0.075225018 1.3840002
-0.088379398 0.078693986 1.381
0.035109624 0.077483311 1.381
-0.092213944 0.084931463 1.3840001
-0.088379398 0.084747367 1.381
0.0056542084 0.08763627 1.382
0.014232364 0.085944489 1.3842728
0.023505012 0.084095657 1.3822
0.03111787 0.082043432 1.383
-0.091940112 0.093966693 1.386
-0.085399523 0.095098332 1.3826365
-0.078693986 0.09806481 1.381
-0.0024239833 0.092208676 1.3840001
0.0036478098 0.091195248 1.3870001
-0.093144074 -0.050248779 1.3980001
-0.0881484 -0.051420443 1.3965001
-0.10172314 -0.041669719 1.3980001
-0.094869733 -0.043678664 1.3950002
-0.088107094 -0.045639969 1.3920001
-0.10271127 -0.033772204 1.397143
-0.096665889 -0.034516599 1.3925456
-0.10311354 -0.024046384 1.3946668
-0.098235764 -0.026236879 1.3920001
-0.10387973 -0.014664881 1.3940001
-0.10474413 -0.0044838572 1.3946668
-0.10506456 0.0048865401 1.3935001
-0.11152778 0.017158121 1.3980001
-0.10506455 0.01465962 1.3935002
