# .PCD v0.7 - Point Cloud Data file format
VERSION 0.7
FIELDS x y z
SIZE 4 4 4
TYPE F F F
COUNT 1 1 1
WIDTH 1362
HEIGHT 1
VIEWPOINT 0 0 0 1 0 0 0
POINTS 1362
DATA ascii
-0.1603511 -0.14226021 0.93800002
-0.15500607 -0.14205463 0.9379999
-0.14686516 -0.14094451 0.93800002
-0.12345227 -0.1418899 0.93638474
-0.1150974 -0.14270407 0.93582356
-0.1045623 -0.14166039 0.93619996
-0.095016964 -0.14290546 0.9363749
-0.086198077 -0.14293602 0.93728566
-0.16131048 -0.13458529 0.93799996
-0.15460463 -0.13462591 0.93493742
-0.14485517 -0.13427632 0.93435901
-0.13460669 -0.13396519 0.93572712
-0.12494533 -0.13499767 0.93325007
-0.11488575 -0.13485029 0.93223691
-0.10480884 -0.1344678 0.93358839
-0.094849989 -0.13431643 0.93339998
-0.085209638 -0.13437432 0.93461108
-0.078077242 -0.13478792 0.93749988
-0.16352519 -0.12490162 0.93733335
-0.15559393 -0.12447323 0.93411118
-0.14559156 -0.12432536 0.93300015
-0.13546742 -0.1248557 0.93121886
-0.12514856 -0.12759444 0.93000025
-0.11230757 -0.12779827 0.93000019
-0.10428695 -0.12684736 0.9301669
-0.094160907 -0.12577769 0.9306252
-0.084795259 -0.12463328 0.93251526
-0.077254288 -0.12416375 0.93568194
-0.16444086 -0.11496919 0.93699992
-0.15540527 -0.11470992 0.93368584
-0.14555365 -0.11448019 0.93275017
-0.13622221 -0.1154956 0.93009704
-0.084288433 -0.11520606 0.93116152
-0.075343087 -0.11465698 0.93419456
-0.068082169 -0.11307223 0.93772733
-0.16327488 -0.10827126 0.93800002
-0.15435991 -0.1058708 0.93619221
-0.14520715 -0.10490648 0.93290925
-0.13730615 -0.10390015 0.93042874
-0.081745133 -0.10589536 0.93060005
-0.075394057 -0.10490051 0.93483329
-0.068956845 -0.10725316 0.93800008
-0.14339516 -0.096069008 0.93578941
-0.13538778 -0.094884977 0.93206263
-0.12836446 -0.092310071 0.93000019
-0.075124368 -0.094995894 0.93297154
-0.068453439 -0.094117917 0.93730766
-0.14061558 -0.08798752 0.93800002
-0.13410003 -0.08556167 0.93493938
-0.12542032 -0.084131934 0.93100017
-0.11519023 -0.081180587 0.93000019
-0.1076196 -0.080714703 0.93000007
-0.073570453 -0.08636453 0.9313333
-0.067782722 -0.08518517 0.93610001
-0.18008661 -0.07236357 0.93800002
-0.17493209 -0.072920837 0.93740004
-0.16857423 -0.071541257 0.93800002
-0.1545949 -0.071541257 0.93800002
-0.13280167 -0.078397669 0.93740004
-0.12441691 -0.075617246 0.93490005
-0.11470316 -0.075348206 0.93213183
-0.1047753 -0.074772261 0.93172753
-0.095074087 -0.073161207 0.93110538
-0.084990732 -0.072266079 0.93040019
-0.076521732 -0.071862869 0.93000019
-0.065763801 -0.075048871 0.93388885
-0.18008661 -0.066607378 0.93800002
-0.17488971 -0.065266676 0.93574989
-0.16531011 -0.065471657 0.93349999
-0.1553269 -0.065528892 0.93517959
-0.14525996 -0.063986324 0.93570834
-0.13842274 -0.060577083 0.93800002
-0.12088006 -0.069074318 0.93800002
-0.11468308 -0.067943275 0.93615794
-0.10480564 -0.065861687 0.93570566
-0.094876342 -0.065115772 0.93482053
-0.085151061 -0.065498047 0.93394446
-0.075233586 -0.065416031 0.93277782
-0.065941192 -0.065605313 0.93479407
-0.17295823 -0.057440002 0.93707711
-0.16466777 -0.055609137 0.93627012
-0.15531357 -0.055560056 0.93397152
-0.14516683 -0.055747874 0.93221074
-0.1352499 -0.054576021 0.93434364
-0.12774619 -0.052283086 0.93769997
-0.091824986 -0.057836037 0.93800002
-0.085132658 -0.056407239 0.93693542
-0.075581089 -0.0561787 0.93618172
-0.068489291 -0.056981727 0.93749994
-0.1611734 -0.047694173 0.93800002
-0.1544966 -0.044562362 0.93497139
-0.14526077 -0.045147166 0.93217528
-0.13554446 -0.045418825 0.93069243
-0.12525079 -0.044168297 0.93348491
-0.11776825 -0.042378765 0.9368
-0.15306775 -0.038178831 0.93800008
-0.14409842 -0.035985254 0.93681806
-0.13434282 -0.034936134 0.93378961
-0.12465469 -0.034972452 0.9320488
-0.11514531 -0.034409668 0.93518198
-0.13192904 -0.027124835 0.93762505
-0.12442871 -0.025793063 0.93581474
-0.11559329 -0.025559895 0.93614811
-0.15327166 -0.27132183 0.94300002
-0.14915606 -0.27111793 0.94000006
-0.1711262 -0.26040944 0.94300002
-0.16422972 -0.26605505 0.94542855
-0.15670821 -0.26734462 0.9418
-0.18034436 -0.25015509 0.94800007
-0.17517528 -0.25324097 0.94314289
-0.18218534 -0.24496241 0.9472
-0.17535174 -0.24594204 0.94157153
-0.068397529 -0.22167394 0.94000006
-0.063971035 -0.21688659 0.94194108
-0.058602095 -0.21460055 0.94150007
-0.062917538 -0.20262872 0.94070613
-0.057661872 -0.20388533 0.94416666
-0.087263398 -0.19197948 0.94800007
-0.063948557 -0.19506018 0.94281262
-0.057474777 -0.19557266 0.94694114
-0.082498498 -0.18489447 0.94575006
-0.070457697 -0.18211874 0.94000006
-0.064462885 -0.1851408 0.94280583
-0.058478422 -0.18705988 0.9471429
-0.10056068 -0.17120248 0.94800007
-0.094563693 -0.17167716 0.94786668
-0.088371508 -0.17092545 0.94800013
-0.073537245 -0.17493591 0.94184417
-0.066526078 -0.17689416 0.94547361
-0.1205066 -0.16039844 0.94800007
-0.11385795 -0.16067545 0.94800001
-0.104012 -0.16379642 0.94713318
-0.094571829 -0.16425595 0.94627738
-0.085015662 -0.16406864 0.94668722
-0.074581914 -0.16403596 0.9461152
-0.20029028 -0.15208764 0.94800013
-0.19455421 -0.15270814 0.94742846
-0.18507722 -0.15188125 0.94670588
-0.17514357 -0.15281352 0.94615388
-0.16469026 -0.15257096 0.94623077
-0.15455875 -0.15482792 0.94643992
-0.14475907 -0.15367036 0.94642109
-0.13479164 -0.15410469 0.94645447
-0.12461285 -0.15496568 0.94600016
-0.11493412 -0.15500735 0.94583857
-0.10450078 -0.15471078 0.94435495
-0.094447993 -0.15481298 0.94362086
-0.08437407 -0.15464658 0.9430002
-0.07464315 -0.1546558 0.94499999
-0.20029028 -0.14876331 0.94800007
-0.19509129 -0.14467752 0.94751716
-0.1854828 -0.14443383 0.94346881
-0.17501248 -0.14529663 0.9416669
-0.16531621 -0.1453754 0.94072759
-0.15474324 -0.14732109 0.94090015
-0.1448987 -0.14586027 0.94135511
-0.13538729 -0.14529651 0.94166702
-0.12618597 -0.14671052 0.94130456
-0.11480558 -0.14781757 0.94131267
-0.10597909 -0.1472403 0.94128591
-0.096003763 -0.14819467 0.94000024
-0.083787233 -0.14747043 0.94142133
-0.074797109 -0.14466597 0.94480014
-0.20112137 -0.13214172 0.94800001
-0.19490649 -0.13429724 0.94662052
-0.18540026 -0.13490729 0.94410515
-0.1747814 -0.13520691 0.94041699
-0.16639279 -0.13528427 0.94000036
-0.13597099 -0.13885523 0.94000006
-0.073154144 -0.13461444 0.94371432
-0.068425581 -0.13103361 0.94800013
-0.20095515 -0.12748766 0.94800007
-0.19434305 -0.1258121 0.94699991
-0.18513465 -0.12505017 0.9446665
-0.17487577 -0.12538022 0.94091702
-0.1681096 -0.12525813 0.94000024
-0.0724454 -0.12579864 0.94266677
-0.065736398 -0.12447537 0.94631994
-0.18430792 -0.11563411 0.94634604
-0.17505886 -0.11537107 0.94129759
-0.16893366 -0.11454527 0.94000006
-0.07026922 -0.11904432 0.94300002
-0.064389773 -0.11518925 0.94475007
-0.05900668 -0.11136472 0.94800007
-0.18117544 -0.1080404 0.94800007
-0.17439795 -0.10557445 0.94469714
-0.16541487 -0.10369685 0.94145197
-0.1570863 -0.10212806 0.94033337
-0.070045665 -0.10383239 0.94000006
-0.064231403 -0.10453429 0.94370598
-0.058041766 -0.10307439 0.94733334
-0.22483911 -0.093656316 0.94800001
-0.21881354 -0.092544086 0.94760007
-0.20295374 -0.092617355 0.94749999
-0.19561632 -0.092009038 0.94549996
-0.186993 -0.09058772 0.94800007
-0.17149897 -0.096550629 0.94780004
-0.16438505 -0.094711162 0.9460665
-0.15495068 -0.095147632 0.94252658
-0.14749327 -0.093617424 0.9406001
-0.063678935 -0.095289163 0.9434287
-0.058251154 -0.094818667 0.94800001
-0.22384113 -0.085668258 0.94790912
-0.21486579 -0.084949046 0.94768745
-0.20469956 -0.084234513 0.94506657
-0.19495583 -0.085088134 0.94230026
-0.18535905 -0.08456929 0.94494611
-0.17527521 -0.084114842 0.9453941
-0.16440628 -0.084074542 0.94715613
-0.1549022 -0.084491305 0.94486672
-0.14551082 -0.084634632 0.94165814
-0.13871789 -0.082131982 0.94000006
-0.062539972 -0.084979638 0.94285721
-0.057847288 -0.083590023 0.94716668
-0.21214703 -0.076071523 0.94800001
-0.20463054 -0.074558854 0.94499993
-0.19483578 -0.075123928 0.94171441
-0.18501961 -0.074413292 0.94027305
-0.17418648 -0.077096753 0.94056261
-0.16497914 -0.075247303 0.94175887
-0.15505397 -0.075182036 0.94165552
-0.14540736 -0.074358799 0.94241703
-0.13599636 -0.073979191 0.94159406
-0.12718096 -0.071144417 0.94000012
-0.061407875 -0.075955749 0.94081819
-0.056499336 -0.074460261 0.94599992
-0.20358665 -0.066102214 0.94741184
-0.19509035 -0.064750858 0.94411784
-0.18536717 -0.06415914 0.94131285
-0.15080419 -0.068397529 0.94000006
-0.14286323 -0.067486927 0.94042861
-0.13510744 -0.06474144 0.94200039
-0.12558293 -0.064263016 0.94154328
-0.1157065 -0.062606648 0.94130468
-0.10634832 -0.060592905 0.94037503
-0.098063938 -0.060156867 0.94000006
-0.061473403 -0.063123725 0.94125003
-0.056647696 -0.06487193 0.94649988
-0.19284755 -0.056344103 0.94749999
-0.18512791 -0.054877602 0.94463634
-0.17573668 -0.05312461 0.9407503
-0.1669559 -0.05059769 0.94000006
-0.13185066 -0.058508731 0.94000006
-0.12422513 -0.055170022 0.94034642
-0.11550605 -0.054422967 0.94363165
-0.10491492 -0.05464863 0.94346189
-0.095209524 -0.054104526 0.94155204
-0.086197361 -0.051421754 0.94000018
-0.074560896 -0.050881971 0.94027275
-0.063821562 -0.054066896 0.94306672
-0.057975128 -0.055484522 0.94700003
-0.18237406 -0.047150865 0.94775003
-0.17449798 -0.045221131 0.9448334
-0.1651383 -0.044321146 0.94090039
-0.12196186 -0.047795862 0.94000006
-0.11395171 -0.045497838 0.9424001
-0.10491652 -0.044733465 0.94637823
-0.094400629 -0.044884812 0.94574291
-0.084592372 -0.044833537 0.94468582
-0.074726038 -0.045689747 0.94531035
-0.066683032 -0.046867352 0.94742858
-0.1710324 -0.036911927 0.94771427
-0.16421494 -0.035039429 0.94535726
-0.15527384 -0.033961225 0.94155574
-0.146222 -0.031780716 0.94069248
-0.13926727 -0.030490467 0.94000006
-0.111249 -0.034885485 0.94000006
-0.1058595 -0.034961231 0.9452433
-0.093912035 -0.038783733 0.94800001
-0.086432323 -0.03906076 0.94800007
-0.19696596 -0.021608081 0.94800007
-0.16039844 -0.029087801 0.94800007
-0.1537327 -0.02709163 0.94725001
-0.14446111 -0.025110332 0.94450015
-0.13593483 -0.024250386 0.94150025
-0.1260822 -0.021151045 0.94000012
-0.11334287 -0.02189816 0.94066674
-0.10519517 -0.02472309 0.9438293
-0.098898523 -0.024101321 0.94800007
-0.19364163 -0.016538491 0.94800007
-0.18565466 -0.013293373 0.94772726
-0.1753432 -0.01186443 0.94728577
-0.14045252 -0.019114841 0.94800007
-0.13411407 -0.016461724 0.9464736
-0.12498301 -0.015167632 0.94415158
-0.11519212 -0.014871368 0.94424337
-0.10487015 -0.015105862 0.9453845
-0.098815061 -0.015775792 0.9472
-0.18367687 -0.0065887924 0.94746667
-0.17471762 -0.0053449897 0.94381094
-0.16539347 -0.0043049259 0.94568753
-0.15770839 -0.0013841105 0.94683337
-0.1205066 -0.0091418801 0.94800007
-0.11552012 -0.0091418801 0.94800013
-0.10665527 -0.0091418801 0.94800013
-0.17341302 0.0020376123 0.94645458
-0.1645952 0.0038172174 0.94575983
-0.15623352 0.0035466349 0.94659078
-0.17180914 -0.27238032 0.95600003
-0.16624422 -0.27264926 0.95420015
-0.15840489 -0.27429059 0.95100003
-0.18159623 -0.26146495 0.95900005
-0.16424087 -0.26928833 0.95100003
-0.19229639 -0.25355405 0.95716667
-0.18509726 -0.25431332 0.9563334
-0.17924765 -0.25428155 0.95100003
-0.19349255 -0.24488688 0.95664304
-0.18694749 -0.24457699 0.95217413
-0.054340184 -0.20204039 0.95366669
-0.10130716 -0.19126455 0.95900005
-0.094498858 -0.19262786 0.95672226
-0.088825122 -0.19283085 0.95457143
-0.053186681 -0.19438474 0.9551053
-0.11069524 -0.181316 0.95900005
-0.10458436 -0.18441917 0.95691657
-0.095469072 -0.18507853 0.95526677
-0.086546801 -0.184874 0.95458341
-0.060860831 -0.18091507 0.95100003
-0.056338102 -0.18489017 0.95514286
-0.23312058 -0.17306891 0.95899993
-0.22481364 -0.17435363 0.9574998
-0.21536984 -0.17172655 0.95740002
-0.20458347 -0.17174879 0.95853835
-0.19588853 -0.17138745 0.95900005
-0.15067446 -0.17165965 0.95750004
-0.14515334 -0.17160983 0.95799994
-0.13695006 -0.17056005 0.95840007
-0.12375192 -0.17184794 0.95790905
-0.11481885 -0.17439388 0.95707673
-0.10526061 -0.17514411 0.95368981
-0.09533412 -0.17742519 0.95271444
-0.084897034 -0.17579558 0.9530912
-0.078070961 -0.17423955 0.95300007
-0.063992463 -0.17433159 0.95529175
-0.05898143 -0.17761686 0.95840007
-0.23497674 -0.16441166 0.95754266
-0.22532578 -0.16434427 0.95471436
-0.21562925 -0.16490208 0.95419377
-0.20530288 -0.164876 0.954355
-0.19521303 -0.16505884 0.95570976
-0.1850545 -0.16519983 0.95683861
-0.17521816 -0.16347961 0.9568333
-0.16479999 -0.16325286 0.95723081
-0.15450014 -0.16440766 0.9565714
-0.14521948 -0.16457571 0.95396441
-0.13531461 -0.1648922 0.95412928
-0.12537269 -0.16465804 0.95339298
-0.11530695 -0.16580112 0.95285213
-0.10816183 -0.16822051 0.95150012
-0.082537286 -0.16924314 0.95100003
-0.074200191 -0.16799256 0.95100009
-0.067235492 -0.16548924 0.9561305
-0.23498444 -0.15438111 0.95829391
-0.22521251 -0.15459661 0.95522583
-0.21577512 -0.1553513 0.95370287
-0.20564972 -0.15543249 0.95181835
-0.19513115 -0.15808347 0.95121443
-0.18531021 -0.15776624 0.95216686
-0.17519002 -0.15790474 0.95241201
-0.16533627 -0.15782149 0.95250022
-0.15465319 -0.15882176 0.95100003
-0.14529291 -0.15848069 0.95100015
-0.13526945 -0.15882173 0.95100009
-0.12922505 -0.15840489 0.95100003
-0.068536274 -0.15462478 0.95341676
-0.23420556 -0.14512825 0.95855534
-0.22521362 -0.14483736 0.95500004
-0.21573019 -0.14542091 0.95411456
-0.20526835 -0.1449862 0.95125735
-0.19925669 -0.14089699 0.95100003
-0.067846693 -0.14445217 0.95393342
-0.23246001 -0.13829899 0.95900005
-0.22483806 -0.13546412 0.95718735
-0.21567568 -0.13546583 0.95471442
-0.20578167 -0.135575 0.95110017
-0.19925669 -0.13922957 0.95100003
-0.070865348 -0.13756214 0.95100003
-0.065308824 -0.13538267 0.95386225
-0.059504624 -0.13325684 0.95600003
-0.22125164 -0.12641057 0.95857143
-0.21427488 -0.12562001 0.95759982
-0.20576194 -0.12500958 0.95262092
-0.19607344 -0.12179745 0.95100015
-0.061587878 -0.12624496 0.95366681
-0.059597991 -0.12758613 0.95750004
-0.21102156 -0.11770126 0.95900005
-0.20496941 -0.11571045 0.95596427
-0.19527844 -0.11516076 0.95191681
-0.18814056 -0.11199504 0.95100003
-0.060988825 -0.11613116 0.95300007
-0.056605119 -0.11369102 0.95557135
-0.25174436 -0.10384393 0.95857149
-0.24490102 -0.10453376 0.95729613
-0.23476319 -0.10450718 0.95554161
-0.22524866 -0.10434464 0.95470023
-0.21535054 -0.1021461 0.95718175
-0.20384732 -0.10489381 0.95719212
-0.1951099 -0.10555445 0.95438731
-0.18566248 -0.10485689 0.95227295
-0.1788308 -0.10212947 0.95100003
-0.055196688 -0.10537445 0.95566666
-0.049602676 -0.10172752 0.95900005
-0.25160003 -0.098286383 0.95825005
-0.24449572 -0.096064627 0.95653105
-0.23439723 -0.095092289 0.95150018
-0.22426799 -0.098655693 0.95100009
-0.2149013 -0.095399514 0.95243776
-0.2064655 -0.09659633 0.95209116
-0.19450781 -0.097131029 0.95265019
-0.18527974 -0.095468514 0.95276499
-0.17623346 -0.094337478 0.95100015
-0.1675757 -0.090874396 0.95100003
-0.054170281 -0.095172651 0.95347631
-0.048869785 -0.091877878 0.95566672
-0.241768 -0.087315127 0.95900005
-0.23518895 -0.085366853 0.95470005
-0.22682936 -0.082836449 0.95125014
-0.21493042 -0.085872129 0.95100003
-0.20926121 -0.089206971 0.95100003
-0.18258248 -0.089206971 0.95100003
-0.171911 -0.088206515 0.95100003
-0.16624177 -0.088206515 0.95100003
-0.053651165 -0.08584711 0.95379192
-0.047863372 -0.085758597 0.95787501
-0.23396401 -0.076749176 0.95763147
-0.22539422 -0.075507239 0.95443755
-0.21694309 -0.074192762 0.95195264
-0.051981952 -0.07550022 0.95284629
-0.047544755 -0.076353952 0.95711106
-0.22321402 -0.067734785 0.95818174
-0.21451315 -0.066067912 0.95496154
-0.20689742 -0.063358121 0.95192325
-0.052182894 -0.064960934 0.95350021
-0.048557177 -0.065910213 0.95775002
-0.21102156 -0.059691355 0.95900005
-0.2041758 -0.055892039 0.9553479
-0.19664076 -0.053999562 0.95205021
-0.053866629 -0.055162415 0.95472723
-0.049602676 -0.059691355 0.95900005
-0.20119609 -0.048302796 0.95825005
-0.19466917 -0.04546237 0.95535719
-0.1861679 -0.044243094 0.9522801
-0.17799708 -0.041268647 0.95100003
-0.10254633 -0.04085179 0.95100003
-0.099211492 -0.04085179 0.95100003
-0.080869868 -0.04085179 0.95100003
-0.074438393 -0.041089989 0.95100009
-0.063936412 -0.043813482 0.95281833
-0.057730731 -0.046664152 0.95626676
-0.23119892 -0.03531038 0.95900005
-0.22520022 -0.035145715 0.95816106
-0.21581632 -0.032211535 0.95743757
-0.20453033 -0.032251444 0.95728582
-0.19420709 -0.036711585 0.95900005
-0.18331219 -0.037308369 0.9579286
-0.17580558 -0.034710888 0.95416671
-0.16840941 -0.031680979 0.95100003
-0.1012124 -0.033848625 0.95100003
-0.095423788 -0.034312591 0.9531669
-0.085098252 -0.034598637 0.95400012
-0.075335771 -0.035152871 0.95483333
-0.066479646 -0.036851723 0.95647639
-0.22404175 -0.025844181 0.95752639
-0.21573023 -0.02530952 0.95488244
-0.20547113 -0.025060609 0.95275009
-0.19528811 -0.025237169 0.95422584
-0.1854654 -0.023525145 0.9556154
-0.17438258 -0.024440356 0.9569332
-0.16502985 -0.025141921 0.95306474
-0.15598224 -0.022959348 0.95147383
-0.14867829 -0.021398554 0.95100003
-0.10087891 -0.029179851 0.95100003
-0.094708331 -0.025238099 0.95445174
-0.087693781 -0.027175719 0.95874995
-0.076456904 -0.029406905 0.95840007
-0.21272877 -0.017291725 0.95759994
-0.20485553 -0.015592739 0.9543215
-0.19705386 -0.012754748 0.95185727
-0.18439981 -0.017734265 0.95120019
-0.17486508 -0.016849205 0.95287514
-0.16514665 -0.014893692 0.95473671
-0.1552836 -0.015138731 0.95463651
-0.1454428 -0.014910201 0.95268589
-0.1364335 -0.012391433 0.95142877
-0.12839134 -0.01083823 0.95100003
-0.094546266 -0.01490076 0.95280659
-0.089957394 -0.015973743 0.95900005
-0.20252061 -0.0079284767 0.9576667
-0.1941479 -0.0054684104 0.95488465
-0.18662462 -0.0033936936 0.95233351
-0.16218771 -0.00806884 0.95200008
-0.15428534 -0.0054959655 0.95440543
-0.14480212 -0.0053783506 0.9580369
-0.13520791 -0.005246317 0.95469701
-0.12549642 -0.0048907464 0.95342875
-0.11521643 -0.0045215366 0.9544118
-0.1049362 -0.004632147 0.9543637
-0.095982403 -0.0056402097 0.95596659
-0.19084419 0.00084072334 0.95900005
-0.1837184 0.0027571167 0.95628583
-0.17510141 0.0061539416 0.95405895
-0.16602635 0.0086214319 0.95166671
-0.15331596 0.0059252046 0.95184225
-0.14515434 0.0057170521 0.95647049
-0.13553728 0.0036027245 0.95857137
-0.1246839 0.0013446314 0.95839995
-0.11742102 0.0014012055 0.95900005
-0.10004608 0.00084072334 0.95900005
-0.098364629 0.00084072334 0.95900005
-0.17188919 0.012038971 0.958
-0.16466561 0.013288145 0.9565264
-0.15503494 0.014688468 0.95365638
-0.14518785 0.0149683 0.95286506
-0.13813709 0.01553216 0.95635313
-0.15270667 0.022482311 0.95766664
-0.14470771 0.024590906 0.95532161
-0.13805325 0.024265315 0.95440018
-0.17457414 -0.27240312 0.96200007
-0.18553053 -0.26259145 0.96244454
-0.20493487 -0.25047594 0.96200007
-0.19565423 -0.25375769 0.96257144
-0.18848947 -0.25848779 0.96200007
-0.20324887 -0.24440111 0.9634546
-0.19723095 -0.24435824 0.96226662
-0.20427743 -0.23780398 0.96580005
-0.19700277 -0.2381914 0.96280003
-0.095108755 -0.20164247 0.96574998
-0.052448336 -0.20261081 0.96500003
-0.22549796 -0.19074075 0.96700007
-0.21379919 -0.19175804 0.96700013
-0.1432675 -0.19074075 0.96700007
-0.13902882 -0.19074075 0.96700007
-0.11161866 -0.19130592 0.96700007
-0.1044395 -0.19450231 0.964625
-0.096079908 -0.19782387 0.9625715
-0.046968471 -0.19338708 0.9654001
-0.039278466 -0.19130592 0.96700007
-0.24315508 -0.18163589 0.96566677
-0.23474419 -0.18332113 0.96410543
-0.22474855 -0.18481213 0.964414
-0.21472783 -0.18432723 0.96485746
-0.20558213 -0.18358853 0.96503872
-0.19453831 -0.18199879 0.9650588
-0.18420257 -0.18409774 0.96512944
-0.17605044 -0.183097 0.9662106
-0.16530865 -0.18056791 0.96700007
-0.15280454 -0.18162759 0.96700007
-0.14474693 -0.18409494 0.96555203
-0.13562605 -0.18395752 0.96503162
-0.12588601 -0.18329524 0.96543503
-0.11486421 -0.1847247 0.96480018
-0.10823034 -0.18806779 0.96200007
-0.052862454 -0.18370032 0.96287495
-0.045824151 -0.18470722 0.96564895
-0.036318891 -0.18395846 0.96667898
-0.028540468 -0.18113308 0.96700007
-0.25143871 -0.17327741 0.96700013
-0.24412319 -0.1746055 0.96328008
-0.23606452 -0.17702189 0.96212494
-0.22236414 -0.17794757 0.96200007
-0.21466587 -0.17652033 0.96199995
-0.20601337 -0.17648938 0.96222222
-0.19516775 -0.17566843 0.96208
-0.18478276 -0.1748091 0.96247065
-0.1749489 -0.17495184 0.96407425
-0.16541083 -0.17505452 0.96463364
-0.15585397 -0.1750493 0.96348006
-0.14500439 -0.17659843 0.96329409
-0.13481751 -0.17527699 0.96300018
-0.12524383 -0.17656614 0.96221048
-0.11806947 -0.17879091 0.96200007
-0.062408149 -0.17120072 0.96200007
-0.054857846 -0.17447512 0.96457607
-0.045378335 -0.17643313 0.9667275
-0.035366565 -0.17498559 0.96681869
-0.02769273 -0.17388022 0.96700013
-0.2522622 -0.16397648 0.96700007
-0.24537709 -0.16543193 0.96278578
-0.23866899 -0.16951402 0.96200007
-0.17494477 -0.16845474 0.96261531
-0.16540518 -0.16814828 0.96262497
-0.15722516 -0.16879115 0.96200001
-0.062327839 -0.16508152 0.9647001
-0.057440776 -0.16740704 0.96640003
-0.031366255 -0.16700412 0.96700007
-0.250853 -0.154211 0.96700007
-0.24448426 -0.15558569 0.96292311
-0.065888576 -0.15512839 0.96453851
-0.25064749 -0.14778876 0.96700007
-0.2443471 -0.14520487 0.96396571
-0.23824732 -0.14210503 0.96200007
-0.064154387 -0.14529324 0.96409094
-0.24322599 -0.13699266 0.96579999
-0.23544669 -0.13427091 0.96285719
-0.22798651 -0.13128202 0.96200007
-0.061819028 -0.1397319 0.96600008
-0.2336532 -0.12804894 0.96625
-0.22521178 -0.12452546 0.96313804
-0.2167418 -0.12144288 0.96200007
-0.061564792 -0.12059952 0.96200007
-0.05759396 -0.12402608 0.962421
-0.26161155 -0.11173169 0.96700013
-0.25422737 -0.11192317 0.96518189
-0.24483216 -0.11230204 0.96400005
-0.23507591 -0.11225612 0.96456248
-0.22448933 -0.11466563 0.96409118
-0.21552086 -0.11457232 0.96300012
-0.20965762 -0.11250333 0.96200007
-0.055416979 -0.11578675 0.96414286
-0.26365387 -0.10504571 0.96633339
-0.25655293 -0.10513734 0.96278256
-0.24429135 -0.10879258 0.96200007
-0.23782563 -0.10879258 0.96200007
-0.22131029 -0.10787033 0.96280003
-0.21560264 -0.10693292 0.96400005
-0.20915163 -0.10710587 0.96200007
-0.052505318 -0.10755297 0.96600008
-0.26025516 -0.099185191 0.96700007
-0.25439277 -0.094064191 0.96404999
-0.24743989 -0.090913489 0.96200007
-0.25220832 -0.086611077 0.96670008
-0.24577431 -0.084456235 0.96340001
-0.045822192 -0.08236751 0.96200007
-0.24279881 -0.076674938 0.96499997
-0.23717092 -0.072908126 0.96333331
-0.043907735 -0.073219851 0.96446669
-0.039843623 -0.070362143 0.96700007
-0.23341069 -0.067034543 0.96410519
-0.22497475 -0.063724354 0.96365225
-0.21745484 -0.061325166 0.96266669
-0.044115406 -0.064265907 0.96408021
-0.039076343 -0.0656294 0.96666676
-0.22210699 -0.05849383 0.96700007
-0.21416336 -0.055104453 0.96462518
-0.20866156 -0.053711321 0.96233338
-0.051444553 -0.052287906 0.96200007
-0.047445122 -0.055133972 0.96490932
-0.24441302 -0.044333439 0.96628588
-0.2351128 -0.044539917 0.9637143
-0.22524011 -0.043666929 0.96400017
-0.21401884 -0.044360086 0.96631837
-0.20572855 -0.045160778 0.96357703
-0.19931251 -0.041886549 0.96200007
-0.053536162 -0.044661745 0.96429181
-0.049091142 -0.048244718 0.96550006
-0.2438141 -0.03617397 0.96552199
-0.23589078 -0.035431221 0.96230763
-0.223554 -0.037962671 0.9622857
-0.21445151 -0.037557885 0.96270001
-0.20559001 -0.037204064 0.9623
-0.19527213 -0.035156883 0.96291906
-0.18600719 -0.03388698 0.96211761
-0.063628122 -0.033693071 0.96350002
-0.057138611 -0.03893923 0.96562505
-0.24160495 -0.029670782 0.96700007
-0.23416153 -0.027459415 0.96463174
-0.22764893 -0.022558261 0.9632858
-0.19397126 -0.029517366 0.96200007
-0.18483491 -0.028533453 0.96199995
-0.17895958 -0.027493319 0.96200007
-0.084509097 -0.02450484 0.96400023
-0.074623741 -0.025777925 0.96491325
-0.066588603 -0.028214863 0.96558338
-0.22377279 -0.01764508 0.96466666
-0.21603361 -0.014061784 0.96370584
-0.20943274 -0.011525828 0.96200007
-0.090395153 -0.017173024 0.96366674
-0.088355146 -0.018912623 0.96600008
-0.21309887 -0.0077715707 0.96563643
-0.20533963 -0.004045032 0.96389478
-0.19852538 -0.0021927184 0.96200007
-0.14561902 -0.0022489422 0.96200007
-0.091551572 -0.0037679137 0.96454549
-0.20176134 0.00084773666 0.96700007
-0.19365774 0.0032645192 0.96464288
-0.18558486 0.0072068181 0.96352935
-0.1787909 0.0084335329 0.96200007
-0.14365119 0.0022489422 0.96200007
-0.13445346 0.0062273401 0.96228564
-0.12514086 0.0062931031 0.96377802
-0.11470032 0.0054109725 0.96439415
-0.10493824 0.0051978813 0.96422869
-0.095939189 0.0045149792 0.96491688
-0.18226458 0.012066768 0.96587509
-0.17508957 0.015577072 0.96395254
-0.16582926 0.018198097 0.9622857
-0.15939377 0.019397127 0.96200007
-0.13428032 0.014723199 0.96400011
-0.12558612 0.011262788 0.96700007
-0.11953087 0.011020577 0.96700007
-0.17039508 0.021193417 0.96700007
-0.16462836 0.022223102 0.96481824
-0.15554827 0.025536276 0.96372223
-0.14724274 0.029111031 0.9625001
-0.1342665 0.025866961 0.96479183
-0.15004939 0.031366255 0.96700007
-0.14435509 0.032324634 0.96520007
-0.1363529 0.03263972 0.96607697
-0.21166079 -0.23276712 0.97616673
-0.20572531 -0.23452854 0.97495002
-0.1989858 -0.2372523 0.97000003
-0.21005809 -0.22720569 0.97799999
-0.20650077 -0.22706422 0.97740012
-0.19548264 -0.22103257 0.97800004
-0.18311186 -0.22108157 0.9780001
-0.1764978 -0.22083661 0.9780001
-0.13632341 -0.22034664 0.97799999
-0.22549094 -0.21005809 0.97800004
-0.21272549 -0.21196339 0.9780001
-0.20448513 -0.21355908 0.97800016
-0.19524455 -0.21494077 0.97680026
-0.18473993 -0.21467604 0.97560024
-0.17498264 -0.21435978 0.9763931
-0.16699857 -0.21139179 0.9780001
-0.15118468 -0.21120127 0.9780001
-0.14444157 -0.21379387 0.97665006
-0.1352977 -0.21494046 0.97680014
-0.12537535 -0.2136195 0.97800022
-0.11231678 -0.21005809 0.97800004
-0.10392348 -0.21285586 0.97800004
-0.098598696 -0.21091548 0.97800004
-0.054927763 -0.2148827 0.97716022
-0.045686107 -0.2116504 0.97799999
-0.23406474 -0.20182726 0.97800004
-0.22456442 -0.20442477 0.97696006
-0.21477906 -0.20427921 0.97525018
-0.20506984 -0.20424974 0.97537947
-0.19489962 -0.20515738 0.97508347
-0.18462597 -0.20513995 0.97500008
-0.17474343 -0.20505592 0.97521234
-0.16487816 -0.2044697 0.97557169
-0.15531087 -0.20417191 0.97532159
-0.14502785 -0.20477889 0.97447062
-0.13505051 -0.20513994 0.97500008
-0.12515177 -0.20481618 0.97674215
-0.11296266 -0.20399751 0.97747064
-0.10486516 -0.20495789 0.9744584
-0.098194554 -0.20663822 0.97400004
-0.052057099 -0.20706677 0.97345454
-0.044470549 -0.20440732 0.97557157
-0.036377408 -0.2022192 0.9780001
-0.02657878 -0.20148429 0.97800004
-0.25121233 -0.19119574 0.97800004
-0.24435791 -0.19346066 0.97621065
-0.23509729 -0.19514278 0.97359234
-0.22486494 -0.19580981 0.9727307
-0.21447174 -0.19540539 0.97095984
-0.20440061 -0.19479337 0.97260582
-0.19486849 -0.19487016 0.97431421
-0.1848827 -0.19570033 0.97385204
-0.17494562 -0.19495381 0.97399998
-0.16519701 -0.19437224 0.97360599
-0.15533234 -0.19456023 0.97277111
-0.14508085 -0.19551697 0.97199976
-0.13458596 -0.19540069 0.97272402
-0.12478857 -0.1952441 0.97412515
-0.11541878 -0.19601114 0.97463989
-0.10663495 -0.19795412 0.97049999
-0.043327902 -0.19725019 0.97207701
-0.034698494 -0.19591217 0.97425926
-0.025449771 -0.19454107 0.97506475
-0.018126678 -0.19300352 0.97609085
-0.2625508 -0.18205597 0.97680008
-0.25493875 -0.18508773 0.97495461
-0.2462182 -0.18608184 0.97182351
-0.23498467 -0.18887588 0.97000015
-0.22109532 -0.18793103 0.97000003
-0.2033149 -0.18800369 0.97037506
-0.19536351 -0.18716188 0.97081834
-0.18708067 -0.18920659 0.97000003
-0.17361432 -0.18658386 0.97115386
-0.16520341 -0.18527794 0.9719258
-0.15552832 -0.18602876 0.97136348
-0.14796379 -0.18963176 0.97000003
-0.13316742 -0.18929161 0.97000009
-0.12436613 -0.18835622 0.97000015
-0.11763406 -0.18878138 0.97000009
-0.0331643 -0.18814363 0.97000015
-0.025269369 -0.18544513 0.97327572
-0.017220508 -0.18649435 0.97683322
-0.2700747 -0.17233337 0.97800004
-0.26472634 -0.1749424 0.97496009
-0.25635409 -0.17562866 0.9706521
-0.24915743 -0.17942737 0.97000003
-0.051022001 -0.17092369 0.97000003
-0.045096781 -0.1718798 0.97060013
-0.038266499 -0.17092369 0.97000003
-0.024676999 -0.17766099 0.97066677
-0.26394266 -0.16501778 0.97530776
-0.257007 -0.16529821 0.97000021
-0.060942944 -0.16128622 0.97000003
-0.05363258 -0.1643163 0.97403115
-0.044490561 -0.16511767 0.97592872
-0.035339825 -0.16512978 0.97262949
-0.026420163 -0.16484939 0.97224122
-0.26291531 -0.15531728 0.97560006
-0.25578132 -0.15481149 0.97000009
-0.062251814 -0.15520865 0.9727779
-0.05723558 -0.1559207 0.97752631
-0.043726381 -0.15861531 0.97799999
-0.034226183 -0.15571058 0.97686231
-0.025714833 -0.15532377 0.97510815
-0.26213071 -0.14632319 0.97608346
-0.25505394 -0.14442098 0.97181469
-0.24915743 -0.1403105 0.97000003
-0.061598692 -0.14664589 0.97444451
-0.059159219 -0.14832674 0.97800004
-0.027436161 -0.14746936 0.97800004
-0.2615009 -0.13975294 0.97800004
-0.25451139 -0.13544194 0.97434789
-0.24666694 -0.13303486 0.97090006
-0.27423912 -0.12138051 0.9780001
-0.2649447 -0.12127455 0.97714287
-0.25426018 -0.12449838 0.97576946
-0.24505232 -0.12428284 0.9726873
-0.23654947 -0.12371826 0.97059995
-0.2822209 -0.1151747 0.97799999
-0.27508426 -0.11450778 0.9749679
-0.26550299 -0.11582675 0.97300005
-0.25533402 -0.11673441 0.97193336
-0.24522229 -0.11750293 0.97125006
-0.23479471 -0.11772227 0.97017658
-0.22874863 -0.11820097 0.97000003
-0.28070623 -0.10682955 0.97800004
-0.27491218 -0.10433534 0.97487503
-0.26832935 -0.105832 0.97000021
-0.27233225 -0.095379829 0.97642851
-0.26512983 -0.095288895 0.97199976
-0.25936183 -0.093540333 0.97000003
-0.2700747 -0.087452754 0.97800004
-0.26390073 -0.08572647 0.97492307
-0.25590175 -0.084042057 0.97147381
-0.24915743 -0.080784835 0.97000003
-0.25382653 -0.076381423 0.9764117
-0.24641952 -0.073717818 0.97182363
-0.041667968 -0.072281167 0.97000003
-0.24415974 -0.06629727 0.97584999
-0.23510143 -0.06206644 0.97192311
-0.22789827 -0.060376033 0.97000003
-0.037972637 -0.061131019 0.97119999
-0.2706463 -0.054967582 0.9780001
-0.26461688 -0.05395389 0.9768402
-0.25519082 -0.054043945 0.97499996
-0.24520688 -0.05362355 0.97410709
-0.23500252 -0.054353971 0.97284836
-0.22489813 -0.054077096 0.97072703
-0.21833928 -0.052243549 0.97060001
-0.042330172 -0.053733394 0.97294748
-0.037355807 -0.054800816 0.97681242
-0.26298931 -0.046074808 0.97556257
-0.25496098 -0.044611342 0.97196418
-0.24788189 -0.048045717 0.97000003
-0.23215009 -0.048470899 0.97000003
-0.22358584 -0.047442172 0.97109103
-0.21763571 -0.04710272 0.97100002
-0.050171632 -0.041667968 0.97000003
-0.045340285 -0.045122117 0.97434801
-0.2544702 -0.035555918 0.97350001
-0.24842855 -0.033650223 0.97000015
-0.060376033 -0.032313935 0.97000003
-0.054828335 -0.035594039 0.97391313
-0.04887066 -0.038582101 0.97800004
-0.25282496 -0.028249266 0.97650003
-0.24495649 -0.025961047 0.9730401
-0.23638295 -0.023113022 0.97050017
-0.080784835 -0.021259166 0.97000003
-0.074009188 -0.021692567 0.97037506
-0.064841814 -0.024723712 0.97257894
-0.24097113 -0.017638884 0.97680008
-0.2344716 -0.015660053 0.97332144
-0.22525266 -0.012766793 0.97088253
-0.09127064 -0.011941953 0.97300005
-0.085262075 -0.015284568 0.97416127
-0.075656146 -0.016850553 0.97491992
-0.068162844 -0.018232662 0.97714293
-0.2323982 -0.0077076536 0.97700006
-0.22448234 -0.0060360115 0.97362965
-0.21573219 -0.0033662333 0.97228569
-0.20833983 -0.00085036666 0.97000003
-0.088034928 -0.0058731735 0.97381252
-0.22120404 0.00085737999 0.97800004
-0.21333231 0.0028322404 0.97607684
-0.20475182 0.005022984 0.97363985
-0.19647513 0.0069206255 0.97125006
-0.092651911 0.0064852289 0.97320014
-0.088359579 0.0015387253 0.97479999
-0.20205589 0.011717525 0.97799999
-0.19434534 0.013916884 0.97540927
-0.18588354 0.016290527 0.97321737
-0.17922866 0.019031849 0.97200006
-0.1310772 0.016172484 0.97090006
-0.12463721 0.016510688 0.97207385
-0.11552593 0.013904073 0.97383994
-0.10502408 0.013003013 0.9740001
-0.097030975 0.012355023 0.97481817
-0.18281524 0.021995127 0.97750014
-0.17443685 0.024362568 0.97490013
-0.16500078 0.026988244 0.97331256
-0.15791923 0.029131632 0.97160006
-0.13053128 0.025085814 0.97000015
-0.12592553 0.025329091 0.97311527
-0.16461696 0.030865679 0.9780001
-0.15364985 0.033639599 0.97550005
-0.14483146 0.036453303 0.97342867
-0.1337913 0.036026664 0.97145003
-0.1274121 0.034451246 0.97542864
-0.14303781 0.040255658 0.97700006
-0.13517953 0.041711312 0.97593755
-0.128607 0.04029686 0.97800004
-0.19488125 -0.24078789 0.98800004
-0.17210414 -0.24059896 0.98900002
-0.16490784 -0.24207291 0.98900002
-0.15779825 -0.24016546 0.98900002
-0.14565992 -0.24103248 0.98900008
-0.13463634 -0.24202336 0.98900014
-0.12537426 -0.2440799 0.98695004
-0.11990696 -0.24412711 0.98400003
-0.21414249 -0.23134269 0.98100013
-0.20265648 -0.23284099 0.9837001
-0.19637048 -0.23520505 0.9879033
-0.1845839 -0.23181172 0.98849994
-0.17443378 -0.23425016 0.98715997
-0.16470329 -0.23480797 0.98576456
-0.15524039 -0.23423199 0.9870801
-0.14544381 -0.23461649 0.98753327
-0.13484755 -0.2346639 0.98703212
-0.12506866 -0.2352211 0.98643732
-0.11624796 -0.2348564 0.98679298
-0.10931244 -0.23160392 0.98700005
-0.2254899 -0.22135237 0.98400003
-0.21508346 -0.22546864 0.98122257
-0.20502639 -0.22482169 0.98162526
-0.19453809 -0.22643448 0.98457146
-0.18510562 -0.22631522 0.98352641
-0.1749507 -0.2263879 0.98364717
-0.16569555 -0.2252613 0.98367834
-0.15530604 -0.22519551 0.98419976
-0.1451447 -0.22549681 0.98550016
-0.13442425 -0.22565453 0.98388457
-0.12519327 -0.2248604 0.98330748
-0.11542471 -0.22522406 0.9837932
-0.10818802 -0.22347471 0.98137504
-0.24016546 -0.21068667 0.98900002
-0.23299435 -0.21276912 0.98580009
-0.22503796 -0.2153284 0.98232001
-0.21558331 -0.21571541 0.98123103
-0.20726241 -0.21815586 0.98100001
-0.17114198 -0.21672252 0.98100007
-0.16450891 -0.21609373 0.98204345
-0.15562136 -0.21590149 0.98224151
-0.14677504 -0.21872921 0.98100001
-0.12451034 -0.21758254 0.98100007
-0.11531507 -0.21512531 0.9810003
-0.10797035 -0.21664433 0.98100001
-0.04902057 -0.21586251 0.98100007
-0.25102824 -0.20099512 0.98400003
-0.24430527 -0.20296656 0.98240006
-0.23562123 -0.20604321 0.9814288
-0.22732931 -0.2072624 0.98100013
-0.11756472 -0.20659856 0.98125005
-0.040420469 -0.20898242 0.98100007
-0.034113731 -0.20439571 0.98100007
-0.027806992 -0.20324904 0.98100013
-0.26058304 -0.19006221 0.98100007
-0.25436652 -0.1945156 0.98231256
-0.24682288 -0.19722895 0.98100001
-0.27282581 -0.18407938 0.98507702
-0.26637012 -0.18642876 0.98450005
-0.015083852 -0.18399604 0.98308331
-0.0079876389 -0.18718663 0.98512501
-0.28004858 -0.17513871 0.98900002
-0.27421248 -0.17530587 0.98331827
-0.28048208 -0.16560145 0.98899996
-0.27425817 -0.16490763 0.98364013
-0.26918313 -0.16254188 0.98100013
-0.27420527 -0.15564981 0.98668438
-0.26841867 -0.15451512 0.98100007
-0.053086028 -0.15409626 0.98200011
-0.044805992 -0.15471554 0.98287529
-0.037224364 -0.15212183 0.98175001
-0.02236026 -0.15136176 0.98100007
-0.019840719 -0.150962 0.98400003
-0.27153742 -0.14854372 0.98800004
-0.26695648 -0.14411516 0.98441672
-0.054543961 -0.1459903 0.98637503
-0.044408254 -0.14615582 0.98806679
-0.034557298 -0.14511847 0.98536122
-0.024725087 -0.1440388 0.98439127
-0.019017093 -0.14521678 0.98600012
-0.26322269 -0.13489971 0.98692316
-0.258863 -0.13244155 0.98100007
-0.04190613 -0.13901274 0.98900002
-0.033865497 -0.13625789 0.98853868
-0.02512176 -0.13513464 0.98813343
-0.01890678 -0.13504173 0.98533344
-0.28251591 -0.12230815 0.98250002
-0.27431852 -0.12460111 0.98330772
-0.26487997 -0.12619053 0.98418748
-0.25855353 -0.12769876 0.98200005
-0.023265129 -0.1264409 0.98900008
-0.01990121 -0.12805995 0.98700005
-0.29384115 -0.11433159 0.98800015
-0.28663206 -0.11529244 0.98142862
-0.29045281 -0.10577685 0.98900002
-0.28534964 -0.10485744 0.98365003
-0.27950326 -0.10062117 0.98100007
-0.28302673 -0.096399151 0.9868573
-0.27698961 -0.09414456 0.98225003
-0.2737107 -0.085253403 0.9853847
-0.26852763 -0.081762098 0.98175007
-0.27101246 -0.077059872 0.98766667
-0.2641618 -0.075458325 0.98493344
-0.25730133 -0.073390149 0.98233342
-0.28291446 -0.063197933 0.98750007
-0.27441224 -0.06430199 0.98473936
-0.26467294 -0.064592838 0.98547995
-0.25508344 -0.065106437 0.98409998
-0.2467162 -0.062419839 0.98133332
-0.28213143 -0.056706622 0.98690915
-0.27575716 -0.055268265 0.98205024
-0.26488307 -0.059340689 0.98100001
-0.25456294 -0.059340689 0.98100001
-0.24584 -0.058603536 0.98100001
-0.035260409 -0.052460611 0.98100007
-0.28004855 -0.049420331 0.98900002
-0.27352202 -0.045943309 0.98656261
-0.26705259 -0.043135826 0.9823637
-0.041789714 -0.04286341 0.98287505
-0.036192264 -0.045257345 0.98535001
-0.26466912 -0.035554867 0.98641193
-0.258863 -0.030960359 0.98100007
-0.053003266 -0.03172306 0.98400009
-0.045384616 -0.035231974 0.98656541
-0.038438037 -0.038438033 0.98900002
-0.26071015 -0.027715817 0.98800004
-0.25443986 -0.024345107 0.98608333
-0.24768287 -0.02236026 0.98100007
-0.061758537 -0.023837442 0.9830001
-0.056376442 -0.026968736 0.9866364
-0.25056973 -0.019941537 0.98900002
-0.24514334 -0.016575312 0.98459995
-0.23908278 -0.01118013 0.98100007
-0.082560956 -0.01118013 0.98100007
-0.074414536 -0.012057235 0.98250008
-0.065414555 -0.014589578 0.98526335
-0.23636073 -0.0077585001 0.98400009
-0.083110988 -0.0047676358 0.98489469
-0.074951015 -0.0076956707 0.98777795
-0.067194305 -0.0091037452 0.98900002
-0.22109094 0.0026010701 0.98900002
-0.21515651 0.006053383 0.98566669
-0.20812242 0.0086000999 0.98100007
-0.091161057 0.0068800803 0.98100007
-0.086108431 0.0062408927 0.98555565
-0.20362382 0.014255697 0.98525
-0.19604008 0.018853469 0.98385721
-0.11416256 0.018545803 0.9818182
-0.10471904 0.018190393 0.98212504
-0.094151609 0.016949631 0.98454565
-0.086331956 0.015187488 0.98865235
-0.19336887 0.022365019 0.98657143
-0.18579291 0.025761623 0.98517662
-0.17773539 0.027806992 0.98100001
-0.12202358 0.024956597 0.98160011
-0.11536007 0.025377627 0.98634475
-0.10564591 0.024867091 0.9877857
-0.09573222 0.023176 0.98825014
-0.08843638 0.021675583 0.98900002
-0.18281919 0.031192383 0.98833328
-0.17471603 0.032618508 0.98584223
-0.16483973 0.035341069 0.98550016
-0.15614857 0.037033029 0.98238468
-0.14878173 0.03870045 0.98100007
-0.12272807 0.035930362 0.98360008
-0.11664979 0.03316123 0.98831826
-0.10751089 0.030345816 0.98900002
-0.16039932 0.040750097 0.98900002
-0.15442751 0.043719806 0.98659098
-0.14532472 0.044838607 0.98492312
-0.13483065 0.047444608 0.98588914
-0.12510411 0.044418097 0.98622239
-0.13092053 0.051154375 0.98900002
-0.16403486 -0.26458836 0.99739999
-0.19160601 -0.25197506 0.99800003
-0.18373179 -0.25241247 0.99800009
-0.17417963 -0.25322342 0.99739999
-0.16459447 -0.25525168 0.99668771
-0.15541859 -0.2535142 0.9962002
-0.1446663 -0.25282118 0.99650013
-0.13579383 -0.25257689 0.99638462
-0.1284834 -0.25259838 0.99700004
-0.19356012 -0.24540752 0.99535292
-0.18529509 -0.24560696 0.99699992
-0.17569622 -0.24562454 0.99471438
-0.1646906 -0.24622057 0.99199986
-0.15499052 -0.24504207 0.99280781
-0.144605 -0.24652712 0.99366665
-0.13542672 -0.24655244 0.99269223
-0.12783904 -0.24785119 0.99200004
-0.19128178 -0.23702171 0.99242866
-0.18522736 -0.23730521 0.99335003
-0.17827894 -0.23828501 0.99200004
-0.15218933 -0.23915467 0.99200004
-0.24263328 -0.21132576 0.99200004
-0.2739408 -0.18871477 0.99200004
-0.012649423 -0.18404914 0.99500006
-0.0051649828 -0.18530475 0.99453837
-0.29134613 -0.17235793 0.99800003
-0.28567639 -0.1738452 0.99483323
-0.28634033 -0.164506 0.99563158
-0.28363743 -0.15582716 0.99550003
-0.27813902 -0.15255505 0.99250007
-0.28163767 -0.1464155 0.9977001
-0.27522221 -0.14407088 0.99400014
-0.26872289 -0.14001419 0.99200004
-0.060006078 -0.14175349 0.99200004
-0.054904144 -0.14118077 0.99410009
-0.04788984 -0.14192393 0.9932
-0.27464965 -0.13529323 0.99565214
-0.26729983 -0.13495438 0.99199998
-0.054150023 -0.13764153 0.99772733
-0.045116421 -0.13503103 0.99551725
-0.036885135 -0.13292274 0.99230003
-0.27427536 -0.12938619 0.9932
-0.04179614 -0.12818393 0.9974001
-0.034431823 -0.1260926 0.99584383
-0.027104614 -0.12463138 0.99331236
-0.30139142 -0.11181927 0.99650002
-0.29743633 -0.1110478 0.99350005
-0.031205242 -0.11927985 0.99799997
-0.026217943 -0.11831967 0.99680012
-0.30009526 -0.10848925 0.99800003
-0.2951082 -0.1051297 0.99518746
-0.28959456 -0.10001013 0.99200004
-0.29169574 -0.09734752 0.99680007
-0.28659683 -0.093463868 0.99433339
-0.28188911 -0.087851495 0.99550009
-0.27768883 -0.083361648 0.99400002
-0.28114906 -0.07138025 0.99700004
-0.2750515 -0.074306116 0.99408698
-0.26814312 -0.071021684 0.99200004
-0.29409409 -0.061814766 0.99714291
-0.28674316 -0.064702459 0.99363637
-0.27437562 -0.068702616 0.99200004
-0.26698357 -0.068702616 0.99200004
-0.29209581 -0.05582137 0.99714285
-0.28686112 -0.054258656 0.99371421
-0.28377879 -0.045610137 0.99599999
-0.27708945 -0.043280706 0.99237502
-0.032454588 -0.042339299 0.99466664
-0.02878535 -0.042738378 0.99500006
-0.28084719 -0.039371099 0.99800003
-0.27407819 -0.035923876 0.99469995
-0.26783338 -0.031628087 0.99300003
-0.042891014 -0.031853195 0.99400002
-0.036931336 -0.035558354 0.99628574
-0.27034822 -0.02887214 0.99800003
-0.26381722 -0.025179455 0.99481243
-0.25688174 -0.021022592 0.99328578
-0.060096815 -0.020901926 0.99350005
-0.054758836 -0.023451511 0.995
-0.046634559 -0.026975635 0.99668753
-0.25358877 -0.016258819 0.9952727
-0.24827875 -0.013562032 0.99371433
-0.061233234 -0.016920192 0.995
-0.058619194 -0.017498266 0.99800003
-0.24244772 -0.0078558102 0.99600005
-0.23571788 -0.003115298 0.99585718
-0.22941051 -0.0008722833 0.99500006
-0.080877759 -0.0008696533 0.99200004
-0.074664049 -0.0028166787 0.99376464
-0.066584319 -0.006270709 0.99409997
-0.23156039 0.0034996532 0.99800009
-0.22509982 0.0056578536 0.99539149
-0.21632889 0.0088324174 0.99328572
-0.081910908 0.0052271248 0.99399996
-0.079119824 0.0034989957 0.99725008
-0.22222799 0.011373873 0.99800003
-0.21433216 0.013656713 0.99687505
-0.20683126 0.016381044 0.99380004
-0.082505345 0.014991682 0.99300003
-0.079617113 0.0131237 0.99800003
-0.20374545 0.023488758 0.99610537
-0.19574134 0.026365656 0.99373686
-0.1005899 0.028118791 0.99200004
-0.094227165 0.027432449 0.99453843
-0.087750651 0.022157047 0.99500006
-0.20035516 0.030621966 0.99800003
-0.1943785 0.031887434 0.99650002
-0.18562481 0.033720717 0.99407685
-0.17478865 0.037544213 0.99589998
-0.16773219 0.039311923 0.99650002
-0.11359609 0.035876207 0.99457139
-0.10558987 0.032664478 0.99542856
-0.097115375 0.030621966 0.99799997
-0.1644837 0.041120928 0.99800003
-0.15295817 0.049820092 0.99700004
-0.14621419 0.04960772 0.99275005
-0.12292182 0.048597772 0.99242866
-0.1185945 0.044129383 0.99470007
-0.14404477 0.052517906 0.99690914
-0.13497873 0.053797532 0.99574995
-0.12586334 0.053446349 0.99594748
-0.15755102 -0.27021322 1.0040001
-0.17112094 -0.26063037 1.001
-0.16410059 -0.26366189 1.0010002
-0.15630017 -0.2639958 1.0043157
-0.14648588 -0.26400065 1.0057143
-0.1904269 -0.25448757 1.001
-0.18613668 -0.25419506 1.001
-0.17638621 -0.25755897 1.001
-0.15225597 -0.25867945 1.0016
-0.14561751 -0.25850806 1.002125
-0.13309407 -0.25478008 1.001
-0.020304477 -0.18362309 1.0070001
-0.013916733 -0.18212612 1.0046002
-0.0057529565 -0.18314174 1.0039999
0.0017642917 -0.18511122 1.0055001
-0.29222193 -0.17112094 1.001
-0.29233053 -0.16484675 1.0028751
-0.29296178 -0.15443954 1.0049231
-0.28822014 -0.15333231 1.0020001
-0.29161939 -0.14625108 1.0070001
-0.28663188 -0.14452825 1.0034705
-0.28434482 -0.13535666 1.0045294
-0.27993631 -0.13426413 1.001
-0.054351829 -0.13405785 1.0022858
-0.047679853 -0.13133897 1.001
-0.29044229 -0.12800649 1.0070001
-0.28501239 -0.12852773 1.0028001
-0.051946267 -0.12521702 1.0062941
-0.045244694 -0.12429528 1.0028461
-0.037953746 -0.12175913 1.001
-0.30633277 -0.11035042 1.0070001
-0.051202595 -0.11675075 1.0070001
-0.04457904 -0.11566518 1.0064286
-0.035309829 -0.11421295 1.0033141
-0.026586452 -0.1133691 1.0025001
-0.30385652 -0.1050569 1.0046428
-0.29836476 -0.10179503 1.001
-0.047082841 -0.1050536 1.0070001
-0.30304903 -0.097276434 1.0061429
-0.29565209 -0.094175659 1.0039999
-0.28783423 -0.090386964 1.001
-0.29256102 -0.086867839 1.0070001
-0.28592065 -0.084063523 1.0038422
-0.28522903 -0.075627789 1.0045625
-0.27993631 -0.074591182 1.001
-0.29441839 -0.066111624 1.0055001
-0.28826684 -0.068549633 1.0025001
-0.30058753 -0.056413937 1.0055001
-0.29580092 -0.053904291 1.0033572
-0.29192093 -0.046399627 1.005
-0.28752825 -0.042496998 1.0030001
-0.2827467 -0.036994237 1.0047501
-0.27762634 -0.032525383 1.0028
-0.033414531 -0.034621157 1.0030626
-0.028647713 -0.037461281 1.0055001
-0.27271917 -0.026978396 1.0035001
-0.26758724 -0.022692164 1.0034001
-0.052156053 -0.020546611 1.0016
-0.044374354 -0.023269126 1.003
-0.038249452 -0.027097668 1.0043334
-0.26265216 -0.015954066 1.0050001
-0.25692225 -0.013016507 1.0020909
-0.061196011 -0.013761329 1.002
-0.054809261 -0.016717846 1.0037857
-0.048409533 -0.018483641 1.0040001
-0.26042697 -0.0097108362 1.0070001
-0.25398475 -0.0062486408 1.0056363
-0.246023 -0.0041407477 1.0024285
-0.23956932 -0.00087754335 1.001
-0.071081012 -0.00087754335 1.001
-0.06701868 -0.0020480396 1.0015
-0.25336456 0.00088280329 1.0070001
-0.24380608 0.0036166012 1.0058
-0.23532651 0.0058998419 1.0021428
-0.22728372 0.0087754335 1.001
-0.076310709 0.0044029965 1.0038571
-0.067975856 0.0013242051 1.0070001
-0.23442048 0.013220352 1.0052501
-0.22506659 0.014691925 1.0032499
-0.21692026 0.017093442 1.0026668
-0.080973312 0.015835229 1.0040001
-0.079427458 0.015526059 1.0030001
-0.21376222 0.02181848 1.0055001
-0.20845346 0.024410959 1.0016
-0.090386964 0.02895893 1.001
-0.086148985 0.024842981 1.0048
-0.18375619 0.038453963 1.0045
-0.17539412 0.039528899 1.002
-0.11169587 0.039139438 1.00325
-0.10480988 0.036735732 1.003625
-0.096277438 0.033170287 1.0045
-0.087397531 0.030898117 1.0070001
-0.18097468 0.041491758 1.0070001
-0.17395452 0.041417591 1.0052001
-0.1658833 0.043531027 1.0065
-0.11580227 0.04488809 1.0039999
-0.15271895 0.053977631 1.0056667
-0.14516735 0.057120211 1.0044
-0.13575357 0.058150664 1.0033333
-0.12356567 0.057139508 1.0027144
-0.11789808 0.052230485 1.0055001
-0.14213133 0.060913429 1.0070001
-0.13430817 0.061530165 1.00625
-0.12605283 0.0617055 1.0055001
-0.15207669 -0.26691258 1.0115
-0.021361517 -0.18156533 1.01525
-0.015986018 -0.18086803 1.013
-0.0045843823 -0.18122174 1.0125002
0.0028297207 -0.18235813 1.0138181
-0.021439761 -0.17866467 1.0190001
-0.014794451 -0.17859803 1.0165999
-0.0053496384 -0.17835675 1.0172499
0.0035732933 -0.17955799 1.0190001
-0.29662016 -0.16291973 1.01
-0.30016366 -0.15052718 1.016
-0.29794875 -0.15163398 1.0115
-0.30144855 -0.14432359 1.0183333
-0.29572895 -0.14428072 1.012647
-0.29443142 -0.13529392 1.0146501
-0.28953668 -0.13476294 1.01
-0.055892762 -0.13218905 1.012
-0.31503543 -0.11155584 1.018
-0.0504697 -0.11067916 1.01
-0.046140913 -0.11284355 1.0100001
-0.025677567 -0.11067916 1.01
-0.31298023 -0.1061125 1.0171251
-0.30918005 -0.10375219 1.0115
-0.0504697 -0.1089083 1.01
-0.044331677 -0.10453692 1.0113639
-0.035475336 -0.10464829 1.0116668
-0.026753739 -0.10544675 1.0124289
-0.31234729 -0.091236167 1.0170001
-0.3061325 -0.093534082 1.011
-0.042368505 -0.096971922 1.0165454
-0.03456106 -0.097136714 1.0178
-0.028468383 -0.095719233 1.0183333
-0.31175756 -0.088307515 1.0175
-0.30465525 -0.086232245 1.0158752
-0.29597896 -0.083915554 1.0111668
-0.027693024 -0.086652368 1.0190001
-0.30164552 -0.075039171 1.0190001
-0.29571646 -0.074981563 1.0156089
-0.28953668 -0.076147266 1.01
-0.29505992 -0.068874218 1.0137501
-0.30328265 -0.052524164 1.0155001
-0.29839104 -0.0504697 1.01
-0.30230203 -0.047675587 1.0184
-0.29606625 -0.044680189 1.0154002
-0.29033008 -0.036626257 1.0190001
-0.28580329 -0.034501363 1.0135001
-0.031611141 -0.031611141 1.011
-0.02841715 -0.032855716 1.0129999
-0.2829541 -0.02557122 1.0166923
-0.27624211 -0.023575855 1.0128334
-0.26828629 -0.020364966 1.01
-0.043470394 -0.020405293 1.012
-0.034912817 -0.024460755 1.0147501
-0.028989615 -0.028097603 1.0175
-0.28199241 -0.017568693 1.0190001
