# .PCD v0.7 - Point Cloud Data file format
VERSION 0.7
FIELDS x y z
SIZE 4 4 4
TYPE F F F
COUNT 1 1 1
WIDTH 1483
HEIGHT 1
VIEWPOINT 0 0 0 1 0 0 0
POINTS 1483
DATA ascii
-0.21477206 0.18696214 1.1750001
-0.20559311 0.18515557 1.1748464
-0.1945115 0.18626951 1.1755002
-0.18522376 0.18432397 1.1762501
-0.17644407 0.18057142 1.177
-0.34153792 0.19088978 1.177
-0.33431506 0.19088978 1.177
-0.32812405 0.19088978 1.177
-0.31366578 0.19136143 1.1756667
-0.30580458 0.19383255 1.1745001
-0.29448438 0.19366597 1.1735002
-0.28596702 0.19373564 1.1747779
-0.27411455 0.1937975 1.1746001
-0.26475379 0.19474846 1.1743335
-0.25575516 0.19602394 1.174778
-0.24581246 0.19378853 1.1740911
-0.23576236 0.19099824 1.1758573
-0.22494039 0.19088978 1.177
-0.21978121 0.19088978 1.177
-0.19700541 -0.080261461 1.189
-0.23661496 -0.071922608 1.189
-0.20189194 -0.07558006 1.1810001
-0.19903708 -0.074638084 1.1825
-0.36378247 -0.063583754 1.189
-0.34502006 -0.064278662 1.189
-0.32000348 -0.061499044 1.189
-0.31687641 -0.061499044 1.189
-0.30957994 -0.061499044 1.189
-0.24465598 -0.062988125 1.189
-0.23151901 -0.065205202 1.189
-0.22605015 -0.064462334 1.1842729
-0.20127243 -0.065786533 1.1827779
-0.19825318 -0.064393014 1.1867778
-0.35131064 -0.053152591 1.1836667
-0.34585348 -0.05438333 1.1878887
-0.33431002 -0.053568624 1.1871176
-0.32421607 -0.054281007 1.1883998
-0.31498861 -0.05503818 1.1888093
-0.30569476 -0.05467635 1.1889997
-0.29486433 -0.053650714 1.1889999
-0.28456342 -0.05488234 1.1889997
-0.27518219 -0.054202542 1.1889999
-0.26606154 -0.053420778 1.1889999
-0.25508896 -0.054001056 1.1881577
-0.24492164 -0.055160299 1.1870868
-0.235036 -0.055094842 1.1877271
-0.22487392 -0.054900225 1.1835454
-0.20189194 -0.05901457 1.1810001
-0.1980454 -0.055525299 1.1846923
-0.3634055 -0.040378388 1.1810001
-0.35122833 -0.047361914 1.1830001
-0.34493902 -0.046543114 1.1837695
-0.33479422 -0.047795769 1.1823335
-0.3239789 -0.045758203 1.1832223
-0.31496745 -0.044508439 1.184846
-0.30479401 -0.044735059 1.1865997
-0.29516479 -0.044930201 1.1865237
-0.28515485 -0.044800892 1.1863332
-0.27514878 -0.044459593 1.186818
-0.26533708 -0.044746853 1.1869198
-0.25499374 -0.044963654 1.1855216
-0.24695849 -0.044911232 1.1813636
-0.23626538 -0.047211654 1.181
-0.22674018 -0.048661131 1.1810001
-0.19685334 -0.044236679 1.1835456
-0.31468347 -0.035018962 1.181
-0.30551094 -0.03470562 1.1816665
-0.29467186 -0.036247 1.1813077
-0.28497517 -0.036271151 1.1820666
-0.27467573 -0.036280267 1.1823334
-0.26481935 -0.036457565 1.1832857
-0.25625017 -0.03673964 1.1823334
-0.24951774 -0.038307704 1.1810001
-0.19419329 -0.036298379 1.183
-0.18946783 -0.030024957 1.1810001
-0.30749696 -0.027954269 1.1810001
-0.13430226 0.037078399 1.1830002
-0.13589859 0.043868225 1.1858
-0.1366542 0.055320568 1.1871541
-0.13745473 0.065227561 1.1860667
-0.14196038 0.07771299 1.1820002
-0.13858755 0.073453568 1.1856667
-0.14458795 0.085371055 1.1827778
-0.41241178 0.092490673 1.1810001
-0.40619969 0.093180895 1.1810001
-0.1511575 0.095789485 1.182143
-0.14722238 0.093897775 1.1864547
-0.15429352 0.10452467 1.1856666
-0.15517876 0.11508485 1.1880001
-0.15063325 0.12154545 1.1850001
-0.14656277 0.12729487 1.1832858
-0.41310197 0.13770066 1.1810001
-0.40896061 0.13770066 1.1810001
-0.15218407 0.13863343 1.189
-0.14607108 0.13591422 1.1854445
-0.41413733 0.14184204 1.1810001
-0.40326622 0.14701876 1.1810001
-0.39446577 0.14727759 1.1810001
-0.38825375 0.14805409 1.1810001
-0.16289403 0.14736389 1.1810001
-0.15630421 0.14495459 1.1856154
-0.41173089 0.15114172 1.189
-0.40497434 0.15299067 1.1886364
-0.39539343 0.15474306 1.1861428
-0.38722467 0.15351366 1.1824547
-0.17112094 0.15764046 1.1830001
-0.16513991 0.15509738 1.1859999
-0.15882526 0.15257815 1.1880001
-0.39380968 0.16395704 1.1845555
-0.17196706 0.16337647 1.1827143
-0.16769695 0.1648722 1.1881429
-0.39374602 0.17456602 1.1835001
-0.17083165 0.1791144 1.1810001
-0.16840677 0.17510238 1.1850001
-0.39069733 0.18408801 1.1863333
-0.38487524 0.18517129 1.1847144
-0.37630761 0.18466698 1.1820667
-0.36573499 0.18662062 1.1810001
-0.35546342 0.18757847 1.182143
-0.34684002 0.18946783 1.1810001
-0.21017469 0.18946783 1.1810001
-0.20396264 0.18946783 1.1810001
-0.18284163 0.18781129 1.1810001
-0.17471094 0.18495125 1.1817058
-0.16857599 0.18418767 1.187
-0.38046017 0.19179362 1.189
-0.37458989 0.19309936 1.1878573
-0.36521861 0.19188523 1.1863335
-0.35398409 0.19185431 1.1872224
-0.34481579 0.19399317 1.1865001
-0.33495858 0.19556959 1.1866001
-0.32450199 0.19512095 1.1876667
-0.31508771 0.19661881 1.1854001
-0.3049086 0.19826823 1.1810001
-0.29546982 0.19801848 1.1826001
-0.28408623 0.19724587 1.1832858
-0.27367577 0.19844079 1.1810001
-0.26504788 0.19982126 1.1810001
-0.25469446 0.1993036 1.1810001
-0.2426777 0.19739522 1.1830002
-0.23477659 0.19634703 1.1849998
-0.22496676 0.196339 1.1859231
-0.21551447 0.19573496 1.1875999
-0.2052297 0.19563676 1.1869999
-0.19520187 0.19553807 1.1860527
-0.18500419 0.1947834 1.1855999
-0.17656203 0.19209179 1.1879091
-0.31374934 0.20117484 1.189
-0.30424148 0.2021326 1.1885
-0.29445896 0.20461853 1.1873157
-0.28508398 0.20497446 1.1868331
-0.27554902 0.20501955 1.1865237
-0.26531368 0.20600583 1.1858422
-0.25477758 0.20532019 1.1862173
-0.24514651 0.20474978 1.1871816
-0.23499352 0.20210138 1.189
-0.22514904 0.20117484 1.189
-0.19387834 0.20117484 1.189
-0.29185987 0.2115984 1.189
-0.28482398 0.21238017 1.189
-0.27830923 0.2115984 1.189
-0.26580095 0.2115984 1.189
-0.25850445 0.2115984 1.189
-0.24495383 0.2115984 1.189
-0.36666584 -0.071236178 1.1950001
-0.32110721 -0.070307791 1.197
-0.31411141 -0.071007371 1.197
-0.30851477 -0.070307791 1.197
-0.2833299 -0.070307791 1.197
-0.24447446 -0.072871894 1.196
-0.23741096 -0.072396979 1.193
-0.19721252 -0.073595509 1.1950002
-0.36742532 -0.065723702 1.1963334
-0.34331074 -0.063507661 1.1954001
-0.33464733 -0.06361118 1.1966363
-0.32458776 -0.064892098 1.1951333
-0.31454372 -0.065264218 1.1935
-0.30576566 -0.064352922 1.1960002
-0.2943134 -0.064157099 1.1966925
-0.28442636 -0.064955398 1.1950003
-0.27612528 -0.063529752 1.1958001
-0.2661902 -0.062262621 1.197
-0.25489777 -0.064430609 1.1957693
-0.24560356 -0.065540768 1.193
-0.23741098 -0.064843528 1.193
-0.19438432 -0.064969473 1.1953334
-0.36832887 -0.057715349 1.197
-0.34468666 -0.058717754 1.193
-0.33650655 -0.058829814 1.193
-0.32651854 -0.059195865 1.1930001
-0.30267286 -0.059195865 1.1930001
-0.29493347 -0.058916967 1.193
-0.28552067 -0.059614211 1.1930001
-0.27506205 -0.059614211 1.1930001
-0.26516759 -0.05870676 1.1934444
-0.25581816 -0.059195865 1.1930001
-0.24159443 -0.059614211 1.1930001
-0.23741098 -0.059614211 1.1930001
-0.19459854 -0.05591372 1.1951818
-0.19463061 -0.04548955 1.1943333
-0.19219637 -0.036260512 1.1954
-0.13219711 0.046227161 1.193
-0.12806188 0.046741582 1.1954
-0.13241188 0.055305835 1.1940001
-0.1290725 0.054217447 1.197
-0.1328373 0.065080911 1.1952224
-0.14119154 0.07843975 1.1930001
-0.13696456 0.075120687 1.1956667
-0.14192446 0.085695542 1.1941427
-0.13956621 0.081850857 1.197
-0.14413987 0.095043615 1.1943334
-0.15085503 0.10790277 1.1950001
-0.14783581 0.10380171 1.196
-0.15263802 0.11390319 1.1942
-0.14796117 0.11018385 1.197
-0.14704838 0.1248761 1.1930001
-0.15232785 0.14605196 1.1933999
-0.14872177 0.14286493 1.1930001
-0.4110243 0.15583363 1.1930001
-0.40684083 0.1568795 1.193
-0.16001709 0.15792537 1.1930001
-0.15510453 0.15462288 1.1948463
-0.41072339 0.16349185 1.197
-0.40472996 0.1648268 1.1950002
-0.39847389 0.16489778 1.1930001
-0.16223314 0.16545659 1.1939231
-0.15717995 0.16257571 1.1964285
-0.4039084 0.17155637 1.1956667
-0.39847392 0.17047572 1.1930001
-0.16494782 0.17165677 1.1954
-0.39708993 0.18753229 1.1962727
-0.16681519 0.18773246 1.1930001
-0.39385715 0.19463056 1.1960771
-0.38578707 0.19506559 1.1944286
-0.374942 0.19766816 1.1930001
-0.36452523 0.19704945 1.194
-0.35592556 0.19669221 1.1950001
-0.34542683 0.19835678 1.194
-0.33572215 0.1997599 1.1930001
-0.32630935 0.1997599 1.1930001
-0.20603508 0.1997599 1.1930001
-0.18198022 0.1997599 1.1930001
-0.17324246 0.19588709 1.1937273
-0.16780509 0.19402649 1.1963334
-0.38176078 0.2033679 1.197
-0.37538823 0.20195602 1.1970001
-0.36581039 0.20084941 1.197
-0.35993391 0.20042966 1.197
-0.34524274 0.20126915 1.197
-0.33378133 0.20422095 1.1966668
-0.32378936 0.20528725 1.1962502
-0.31533465 0.20608781 1.1963335
-0.30515352 0.20742975 1.1943333
-0.24159443 0.20708093 1.1930001
-0.23507982 0.20692195 1.1937274
-0.22531389 0.20603305 1.1954001
-0.21580288 0.20345399 1.1938
-0.20521832 0.20277679 1.1943334
-0.19537231 0.20314458 1.1935714
-0.18679118 0.20226996 1.1930001
-0.17786822 0.20095435 1.197
-0.3144612 0.21162295 1.197
-0.30506334 0.2117599 1.1958001
-0.2950078 0.21434519 1.1949999
-0.28420764 0.21714053 1.1954
-0.27530739 0.21546112 1.1947143
-0.26626149 0.21596654 1.1952221
-0.25507578 0.21483538 1.1954
-0.24517752 0.21446846 1.1943332
-0.2368385 0.21231973 1.1954001
-0.32457882 -0.081409022 1.2060001
-0.31569785 -0.081831925 1.2060001
-0.30871993 -0.081409022 1.2060001
-0.29074651 -0.081409022 1.2060001
-0.28418219 -0.084826984 1.2050588
-0.27465528 -0.084732808 1.2035998
-0.26520962 -0.085439056 1.2056664
-0.25601202 -0.084492311 1.2057335
-0.24823417 -0.082945444 1.202
-0.18079145 -0.082466282 1.2060001
-0.17761967 -0.081409022 1.2060001
-0.37268415 -0.07347957 1.2060001
-0.34156659 -0.072708979 1.202
-0.33486915 -0.074838363 1.2039046
-0.32546967 -0.075228922 1.2037141
-0.31519416 -0.076118082 1.2029411
-0.30490711 -0.075131357 1.2041664
-0.29510659 -0.075244457 1.2041818
-0.28539568 -0.075384922 1.2022104
-0.27502957 -0.074816473 1.2019998
-0.26452672 -0.074826993 1.2021598
-0.25500834 -0.07481648 1.2019999
-0.24789546 -0.077187434 1.202
-0.19396797 -0.073106788 1.2046667
-0.18606637 -0.073604934 1.2079999
-0.17480032 -0.078589655 1.2060002
-0.16598982 -0.070836417 1.2060001
-0.37568825 -0.064081013 1.2048888
-0.36986741 -0.06006394 1.202
-0.34289131 -0.068072468 1.202
-0.33544481 -0.067791462 1.202
-0.32982481 -0.067440212 1.202
-0.30277845 -0.067791462 1.202
-0.29663154 -0.067967087 1.202
-0.27385876 -0.067088962 1.202
-0.26479316 -0.066537 1.2019999
-0.25711581 -0.06849397 1.202
-0.19108061 -0.064981461 1.202
-0.18487152 -0.064442635 1.2050399
-0.17502457 -0.064204521 1.2059999
-0.16458012 -0.062378339 1.2060002
-0.15964626 -0.06132108 1.2060001
-0.37464395 -0.056539301 1.2055001
-0.36986741 -0.055848926 1.202
-0.1919418 -0.054839004 1.2030001
-0.18524306 -0.055144448 1.206
-0.17444789 -0.057092033 1.2060002
-0.16450964 -0.056457687 1.2060002
-0.15695956 -0.05460903 1.2056669
-0.19184659 -0.045327872 1.2024
-0.18766363 -0.045990814 1.2060002
-0.15400754 -0.048986379 1.2060001
-0.19072935 -0.034773856 1.202
-0.18889713 -0.035594419 1.2060002
-0.19072935 -0.02845134 1.202
-0.18924955 -0.026431499 1.2060001
-0.12792847 0.049691219 1.2060001
-0.12961166 0.055848926 1.202
-0.1306017 0.067941077 1.2046667
-0.12961166 0.062171448 1.202
-0.13421486 0.07491748 1.2036
-0.14030465 0.087560885 1.2033334
-0.13764308 0.083784789 1.2046667
-0.14161998 0.095770821 1.2042857
-0.14419749 0.10467289 1.2038182
-0.1512136 0.1174935 1.202
-0.14639618 0.11375929 1.2045455
-0.1519912 0.12138326 1.204
-0.14804153 0.12272105 1.2033334
-0.15199356 0.15621792 1.2040001
-0.14907366 0.15435997 1.2060001
-0.15524422 0.1647502 1.2046667
-0.16477001 0.17562564 1.2037144
-0.15964626 0.17021886 1.2060001
-0.40406707 0.18301688 1.205
-0.39937252 0.18229933 1.202
-0.16773264 0.18249922 1.2033334
-0.40148002 0.19705188 1.202
-0.39884567 0.19652501 1.202
-0.35932988 0.19915938 1.202
-0.1670341 0.19659671 1.2044001
-0.40140638 0.20475602 1.2060001
-0.39495558 0.20452456 1.2036469
-0.38620058 0.2047794 1.2019999
-0.37421921 0.20649531 1.2024446
-0.36424032 0.20565331 1.2029999
-0.35539868 0.20489873 1.2047501
-0.34470904 0.2069308 1.2019999
-0.33572581 0.20927541 1.202
-0.3284198 0.2089944 1.202
-0.31296474 0.20969692 1.202
-0.2212882 0.20969692 1.202
-0.2144388 0.20785284 1.202
-0.20531978 0.20791364 1.2019999
-0.19541271 0.20852607 1.202
-0.18460384 0.2066866 1.2045455
-0.17442845 0.20419079 1.2045455
-0.1688793 0.20160177 1.204
-0.39224347 0.21145201 1.2060002
-0.38642853 0.21092337 1.2060001
-0.37567973 0.21109958 1.2060002
-0.36545953 0.21039474 1.2060001
-0.35312486 0.21039474 1.2060001
-0.34561077 0.21307313 1.2056001
-0.33493531 0.21532817 1.2047501
-0.32537198 0.21478632 1.2034116
-0.31542349 0.2165463 1.2019999
-0.30453473 0.21707317 1.2019999
-0.29505092 0.21812694 1.202
-0.26238456 0.21812694 1.202
-0.25184706 0.21812694 1.202
-0.24236327 0.21812694 1.202
-0.23373045 0.21614565 1.2036666
-0.22521514 0.21478754 1.2041178
-0.21504669 0.21335506 1.2060002
-0.20499095 0.21391895 1.2060002
-0.1958577 0.21334228 1.2052728
-0.18766364 0.21092337 1.2060001
-0.32246429 0.22096734 1.2060001
-0.31506348 0.22096734 1.2060001
-0.30476794 0.22236998 1.2050002
-0.29559404 0.22417352 1.2047501
-0.28499413 0.22448204 1.2048235
-0.27456346 0.2244304 1.204
-0.2657401 0.22412857 1.2047999
-0.25485924 0.22302349 1.2048572
-0.24629048 0.22125737 1.2042857
-0.23365445 0.22096734 1.2060001
-0.32431015 -0.092373967 1.2173333
-0.31632239 -0.091904469 1.219
-0.30544645 -0.090463236 1.2140001
-0.29540205 -0.09064953 1.2165
-0.28322485 -0.09240374 1.2115
-0.27564782 -0.091680542 1.21
-0.26837397 -0.091225937 1.21
-0.33419847 -0.084930457 1.2143846
-0.324844 -0.085892156 1.2118461
-0.31503364 -0.086099058 1.2124615
-0.30495751 -0.085238472 1.2129475
-0.29549709 -0.085188031 1.2115999
-0.28958929 -0.086982861 1.21
-0.19414717 -0.082833506 1.2131113
-0.18563417 -0.08319442 1.21
-0.38292557 -0.07343486 1.2140001
-0.37784511 -0.072768591 1.21
-0.33732378 -0.079557501 1.21
-0.19416821 -0.078495763 1.2117779
-0.17540088 -0.073692076 1.21
-0.16866189 -0.072132133 1.21
-0.39342639 -0.061373096 1.2140001
-0.38501155 -0.064483322 1.210222
-0.17078345 -0.066828303 1.21
-0.16654037 -0.066121124 1.21
-0.40194058 -0.053213667 1.2140001
-0.39502278 -0.054100562 1.2140003
-0.38518456 -0.054202549 1.2123998
-0.37685794 -0.052256346 1.2116001
-0.18139111 -0.051977567 1.21
-0.17502649 -0.053038336 1.21
-0.16618678 -0.052684743 1.21
-0.15805423 -0.051977567 1.21
-0.40369183 -0.044766415 1.2176471
-0.39413825 -0.044586174 1.2160589
-0.38526452 -0.044935122 1.2146666
-0.37642208 -0.045175076 1.2124999
-0.18318622 -0.045123391 1.21
-0.17535503 -0.045694005 1.2122799
-0.16464381 -0.045670442 1.2116398
-0.15641633 -0.04476377 1.2110001
-0.4114328 -0.036334328 1.2190001
-0.40312108 -0.037165504 1.219
-0.39444539 -0.035080802 1.2187916
-0.38506323 -0.035441879 1.215875
-0.37914738 -0.035919227 1.2140001
-0.18423024 -0.03461913 1.2134999
-0.17571335 -0.035729051 1.2175715
-0.16562356 -0.035397578 1.2175418
-0.15662509 -0.034949463 1.2174375
-0.40074626 -0.028853729 1.2190001
-0.39326563 -0.026930148 1.219
-0.38563952 -0.027293263 1.2175715
-0.185975 -0.025837217 1.2168889
-0.17675582 -0.027998805 1.2190001
-0.165998 -0.027428852 1.219
-0.15592672 -0.026522117 1.219
-0.12632971 0.05581357 1.2126666
-0.12580289 0.063876919 1.2155294
-0.13150677 0.075689636 1.2111429
-0.12841822 0.072214536 1.2173334
-0.13446358 0.084678546 1.2135
-0.13785797 0.09374731 1.213909
-0.14169283 0.10515617 1.2116001
-0.13999403 0.10259104 1.2190001
-0.14563099 0.11628826 1.2126
-0.14671513 0.12184995 1.2156668
-0.1495681 0.15805423 1.21
-0.15227853 0.16640258 1.2131819
-0.14860056 0.16315059 1.2136668
-0.16231669 0.17720051 1.2124287
-0.15634376 0.17341712 1.2168889
-0.16453929 0.18497895 1.2140669
-0.1652707 0.19452181 1.2162858
-0.1744134 0.20873259 1.2106668
-0.16651538 0.20463757 1.2145001
-0.3912583 0.21831563 1.2177501
-0.38430148 0.21531062 1.2130909
-0.37476704 0.21569407 1.212
-0.36466977 0.21561784 1.2135557
-0.35549331 0.21492565 1.2116667
-0.3452206 0.2186358 1.21
-0.33838457 0.2195787 1.21
-0.32989842 0.2195787 1.21
-0.22382176 0.2195787 1.21
-0.21503256 0.2171541 1.21
-0.20472796 0.21866949 1.21
-0.19472915 0.21781223 1.2105001
-0.18479086 0.21537538 1.2131877
-0.17648482 0.21336761 1.2156999
-0.16884775 0.21052536 1.2190001
-0.39433432 0.22121193 1.2190001
-0.38436019 0.22121193 1.2190001
-0.37429699 0.22201341 1.219
-0.36496529 0.22252658 1.2180001
-0.35443237 0.22258697 1.2177501
-0.34472603 0.22487502 1.2167274
-0.33479038 0.22584224 1.2145002
-0.32563126 0.22635135 1.2152001
-0.31594923 0.22685111 1.2148334
-0.30620795 0.22735767 1.21
-0.29171082 0.22806484 1.21
-0.26307011 0.22806484 1.21
-0.25472134 0.2281905 1.2106668
-0.24401158 0.22670737 1.2140666
-0.23486777 0.22551116 1.2137334
-0.22510195 0.22465146 1.2152857
-0.21539541 0.22286868 1.2173332
-0.20546325 0.22313233 1.2161429
-0.1950309 0.22217402 1.2175715
-0.18701492 0.22121193 1.2190001
-0.33555818 0.2318985 1.2190001
-0.32451537 0.2318985 1.2190001
-0.31525373 0.2318985 1.2190001
-0.30449498 0.23364212 1.216077
-0.29467866 0.23418508 1.2145296
-0.28530225 0.23421147 1.2143334
-0.27536923 0.23446897 1.2138331
-0.26499447 0.23251495 1.2130909
-0.25503099 0.23273896 1.2162728
-0.248997 0.2318985 1.2190001
-0.28426266 0.24044774 1.2190001
-0.33201325 -0.091848664 1.223
-0.29484493 -0.091133885 1.223
-0.41063854 -0.043958697 1.223
-0.41180101 -0.033629518 1.2243334
-0.40646061 -0.034318283 1.2233332
-0.1726183 -0.031092737 1.223
-0.16189666 -0.031092737 1.223
-0.41305727 -0.027967419 1.2270001
-0.40609947 -0.024284188 1.2257998
-0.39636353 -0.023295535 1.223857
-0.1830719 -0.022247387 1.223
-0.17431121 -0.023644021 1.2229998
-0.16489872 -0.023659071 1.2229998
-0.15496884 -0.022680381 1.2229998
-0.1490307 -0.020371104 1.223
-0.40429828 -0.017364388 1.2270001
-0.39735252 -0.017425854 1.2270001
-0.18471248 -0.016106414 1.2250003
-0.17485492 -0.015618332 1.2262942
-0.16484617 -0.014798328 1.2254443
-0.15532266 -0.015279327 1.2256666
-0.14951813 -0.01505938 1.2270001
-0.1638604 -0.0082468037 1.2270001
-0.1539589 -0.0069898092 1.2266668
-0.1490795 -0.0046606525 1.2263335
-0.14951813 0.00107567 1.2270001
-0.12323062 0.067926541 1.2250001
-0.11901013 0.065401964 1.223
-0.13015607 0.078523912 1.2270001
-0.12589787 0.074915551 1.2255454
-0.13194682 0.085818075 1.2236668
-0.12886825 0.080543749 1.2250001
-0.13531175 0.09486147 1.225
-0.1404534 0.10614417 1.223
-0.13789354 0.1020776 1.2256668
-0.14474204 0.11793797 1.223
-0.14521545 0.12262638 1.2270001
-0.14688638 0.16832964 1.223
-0.1542346 0.17726097 1.2240909
-0.14754885 0.17565805 1.2257693
-0.16149122 0.187782 1.2240001
-0.15758985 0.1839716 1.2259094
-0.16281091 0.19472857 1.2252858
-0.16388594 0.20620289 1.2241429
-0.39455611 0.21764916 1.223
-0.1811956 0.21979348 1.223
-0.17399622 0.21740915 1.2243333
-0.16591924 0.21344227 1.2250001
-0.3927938 0.22380932 1.2262001
-0.38489044 0.22520719 1.2252222
-0.37602642 0.22718944 1.2243333
-0.36498705 0.22701916 1.2238001
-0.35569018 0.22756667 1.223
-0.34845307 0.22837079 1.223
-0.22193781 0.22837079 1.223
-0.21458586 0.22775812 1.2230002
-0.20451516 0.22756666 1.223
-0.19477633 0.22694124 1.223
-0.18561345 0.22588097 1.22475
-0.17676844 0.22230512 1.2270001
-0.37182328 0.23198617 1.2270001
-0.36570239 0.23240907 1.2262001
-0.35475594 0.23169932 1.2270001
-0.3452625 0.23175922 1.2247144
-0.33529329 0.23432361 1.2252858
-0.3245911 0.23637871 1.2246667
-0.31561735 0.23685826 1.2242309
-0.30556655 0.23909242 1.223
-0.26453874 0.23831317 1.2238889
-0.25420484 0.23838606 1.2235
-0.24567592 0.23539774 1.2252858
-0.23511085 0.2339562 1.2254617
-0.22523139 0.23408404 1.2258235
-0.21565171 0.23214142 1.2265557
-0.20453097 0.23188372 1.2270001
-0.19469626 0.23234472 1.2270001
-0.18824224 0.23234472 1.2270001
-0.31373706 0.24202575 1.2270001
-0.30443886 0.24247985 1.2256668
-0.29504886 0.24348974 1.2253333
-0.28566289 0.24421075 1.2250001
-0.27584484 0.24245511 1.2243334
-0.26627809 0.24263524 1.2260001
-0.25493377 0.24202576 1.2270001
-0.4208228 -0.024878047 1.2340001
-0.41644368 -0.023135234 1.2332002
-0.42367196 -0.01191916 1.2360001
-0.41567793 -0.01493045 1.2341334
-0.40718007 -0.014040694 1.2320002
-0.18360907 -0.011880587 1.2320001
-0.17712875 -0.011880587 1.2320001
-0.41211399 -0.0090296669 1.2360001
-0.40850213 -0.0097520398 1.2360001
-0.18296193 -0.0069871931 1.2349092
-0.17490068 -0.0051963795 1.2333335
-0.16549806 -0.0039608972 1.2328001
-0.15687774 -0.0029701467 1.2320002
-0.17120248 0.0010835599 1.2360001
-0.16397874 0.0018059333 1.2360001
-0.15382189 0.0032479526 1.2346668
-0.11880587 0.068043359 1.2320001
-0.12230903 0.076489754 1.2346667
-0.11815784 0.071067512 1.2320001
-0.13082789 0.087581336 1.2333335
-0.12752944 0.084558763 1.2342857
-0.13414404 0.096282542 1.2340001
-0.14194636 0.10943956 1.2360001
-0.13630763 0.10277339 1.2340001
-0.14302993 0.1137738 1.2360001
-0.14411348 0.12135872 1.2360001
-0.1532273 0.185918 1.2337779
-0.14688724 0.18252902 1.2320001
-0.16159859 0.19673014 1.233
-0.15744653 0.19253284 1.2352002
-0.16264482 0.2046589 1.2352002
-0.16421476 0.21679159 1.2340001
-0.39421949 0.22789125 1.2320001
-0.1803689 0.22789125 1.2320001
-0.17404957 0.22560839 1.2345456
-0.16767828 0.22231214 1.2340001
-0.39447767 0.23241439 1.2345001
-0.3853251 0.23409212 1.2341053
-0.37570193 0.23612086 1.2326669
-0.3655389 0.2364604 1.2338668
-0.35595217 0.23641948 1.2334548
-0.34590024 0.23672366 1.233
-0.33481655 0.23869179 1.2320001
-0.23545164 0.23869179 1.2320001
-0.22249098 0.23869179 1.2320001
-0.2147263 0.23752855 1.2330911
-0.20553564 0.23761271 1.2345456
-0.19529015 0.23783618 1.233778
-0.18535443 0.23412897 1.2338183
-0.37339476 0.24250074 1.2360001
-0.36624327 0.24163388 1.2360001
-0.3330141 0.24307863 1.2360001
-0.32498416 0.24415995 1.2338183
-0.31545585 0.24642515 1.2346668
-0.30534649 0.24671504 1.2320002
-0.29377449 0.2489523 1.2320001
-0.28428108 0.24861303 1.233
-0.27534065 0.2472214 1.2336
-0.26423085 0.24692367 1.2340001
-0.25430557 0.24629983 1.2344
-0.24486664 0.24198726 1.2328891
-0.23482955 0.24240465 1.2344002
-0.22552216 0.24305478 1.2344002
-0.21887912 0.24163388 1.2360001
-0.20262572 0.24163388 1.2360001
-0.19612436 0.24163388 1.2360001
-0.31260705 0.25084412 1.2360001
-0.30448034 0.2513859 1.2360001
-0.29472834 0.2519277 1.2360001
-0.2844345 0.25084412 1.2360001
-0.27522424 0.25030234 1.2360001
-0.2654722 0.25030234 1.2360001
-0.25463659 0.25030234 1.2360001
-0.41494161 -0.0071804263 1.2410001
-0.40797874 -0.0076156035 1.2410001
-0.17286961 0.0052119782 1.2436668
-0.1657947 0.0069991811 1.2418573
-0.15619758 0.0074601839 1.2410001
-0.14832294 0.0090661943 1.2410001
-0.17135765 0.01200595 1.245
-0.1641304 0.015269342 1.244
-0.15537491 0.014858953 1.2437499
-0.14791441 0.013812176 1.2436666
-0.1646301 0.020715341 1.2436666
-0.15826026 0.020737549 1.245
-0.12076171 0.079419866 1.2410001
-0.11579602 0.076522864 1.2444286
-0.12262862 0.085830435 1.2427778
-0.11896805 0.082950197 1.245
-0.13164115 0.099002846 1.2410001
-0.12735136 0.094252422 1.2435454
-0.13424972 0.10640931 1.2427778
-0.14130552 0.11648639 1.2418001
-0.13744847 0.11345061 1.2443334
-0.14137156 0.12319943 1.2436666
-0.14775544 0.18769111 1.2423334
-0.15366256 0.19648014 1.2416667
-0.14936851 0.19298209 1.2436666
-0.15656677 0.20466734 1.2431333
-0.15752298 0.21393713 1.2435
-0.17189506 0.22955604 1.2410001
-0.16386521 0.22647455 1.2420001
-0.15992767 0.22194043 1.2410001
-0.39446843 0.23864356 1.243
-0.1818794 0.23851557 1.2423334
-0.17566662 0.23416628 1.2433333
-0.16655526 0.23160568 1.245
-0.39292198 0.24121045 1.245
-0.38537201 0.24243753 1.2432858
-0.37466541 0.24707669 1.2427778
-0.36389789 0.2454723 1.2424545
-0.35429743 0.24356343 1.2428182
-0.3447949 0.24293955 1.2426667
-0.3363086 0.2477335 1.2435
-0.32747093 0.24913903 1.2410001
-0.24430373 0.24817197 1.2410001
-0.2347272 0.24852885 1.2427778
-0.22429955 0.24825184 1.242
-0.2151154 0.24513946 1.2427778
-0.20543075 0.24489771 1.2427778
-0.19496021 0.24561022 1.2434616
-0.1862143 0.24319874 1.244
-0.33507514 0.25212494 1.245
-0.32486963 0.25243723 1.2425001
-0.3155618 0.25552404 1.2431818
-0.30457717 0.25695539 1.2427143
-0.29476991 0.25700313 1.2427778
-0.2846972 0.25637561 1.2426666
-0.27557099 0.25458169 1.2424546
-0.26488078 0.25507244 1.2434
-0.2551738 0.25458232 1.2424546
-0.24630387 0.25248873 1.245
-0.23434989 0.25274861 1.245
-0.22811306 0.25212494 1.245
-0.151225 0.018629167 1.25
-0.14684168 0.017533334 1.25
-0.16178358 0.023931246 1.2520001
-0.15566978 0.024460364 1.2554446
-0.14884485 0.023155982 1.2576667
-0.11448244 0.078638464 1.2516667
-0.11531775 0.085441589 1.2542353
-0.12328248 0.096216291 1.2519166
-0.11729022 0.092418946 1.2571429
-0.13053456 0.10530848 1.25125
-0.12572861 0.10444958 1.2558666
-0.13494505 0.1149698 1.2533636
-0.13848811 0.12310264 1.2537501
-0.14632882 0.18813705 1.2550001
-0.15012917 0.19834583 1.25
-0.147265 0.19517481 1.2546667
-0.15149897 0.20574269 1.25
-0.14772141 0.20504928 1.2575001
-0.15353955 0.21476036 1.2550908
-0.14900266 0.21081115 1.2590001
-0.1610875 0.22902916 1.25
-0.15801917 0.22201583 1.25
-0.17496805 0.23852639 1.25
-0.16490658 0.23558719 1.2540714
-0.39438656 0.24663208 1.2531251
-0.38642403 0.24733083 1.2507143
-0.36052915 0.24875416 1.25
-0.35505 0.24875416 1.25
-0.34781751 0.24787751 1.25
-0.21368749 0.24875416 1.25
-0.20820834 0.24875416 1.25
-0.18402678 0.24683733 1.2525001
-0.17521246 0.24464025 1.2570003
-0.16776595 0.24281913 1.2590001
-0.39734042 0.2505452 1.2590001
-0.38470426 0.25291848 1.2561668
-0.37493229 0.25421196 1.2542
-0.36504811 0.25474483 1.2551875
-0.35530829 0.25533551 1.2557061
-0.34525308 0.25509834 1.2542224
-0.33501244 0.25728461 1.2547778
-0.32436666 0.25861666 1.25
-0.27505416 0.25971249 1.25
-0.26519167 0.25971249 1.25
-0.25423333 0.25916457 1.25
-0.24507506 0.25677565 1.2511111
-0.23542695 0.25672868 1.2507143
-0.22490953 0.25468987 1.2543076
-0.21451388 0.25379235 1.2571818
-0.20471019 0.25423899 1.2554166
-0.19473718 0.25415474 1.255
-0.18596783 0.25259203 1.2582
-0.17880318 0.2505452 1.2590001
-0.35503101 0.26158243 1.2590001
-0.34546542 0.26202393 1.2590001
-0.33454189 0.26293603 1.2566668
-0.32463148 0.26373476 1.2568183
-0.31374726 0.26439664 1.2557501
-0.30485424 0.26490441 1.2566001
-0.29443353 0.26532686 1.255
-0.28480059 0.26514921 1.2557144
-0.27476773 0.26579478 1.2572858
-0.2654112 0.26541507 1.2571819
-0.25509632 0.26391637 1.2567272
-0.24529062 0.26219413 1.2572223
-0.23573326 0.26220244 1.258
-0.16176535 -0.063686684 1.2656
-0.1561209 -0.0617822 1.266
-0.15181062 0.025486453 1.2640001
-0.11227295 0.078924544 1.268
-0.11191877 0.086062945 1.2640001
-0.11352007 0.095447704 1.2659999
-0.12195543 0.1056962 1.2646667
-0.11585404 0.10253181 1.2666667
-0.13203022 0.11649849 1.2656
-0.12678353 0.11213128 1.2664001
-0.14294577 0.12743227 1.2640001
-0.135509 0.12218191 1.2670001
-0.14562134 0.19675557 1.268
-0.14516197 0.20389163 1.2640001
-0.15093921 0.21864241 1.266
-0.14733171 0.21364717 1.266
-0.16067547 0.22937807 1.2640001
-0.15493472 0.22441439 1.266
-0.16067547 0.23602672 1.2640001
-0.1589607 0.23010395 1.268
-0.17175654 0.24932399 1.2640001
-0.16565143 0.24590883 1.2650908
-0.4000265 0.25375643 1.2640001
-0.39418319 0.25656471 1.2659999
-0.38532653 0.25873354 1.2666668
-0.37564817 0.25818884 1.2640001
-0.22051322 0.25818884 1.2640001
-0.21608078 0.25818884 1.2640001
-0.18475419 0.25648966 1.2653333
-0.17507997 0.25332686 1.2659999
-0.166742 0.25122464 1.268
-0.39351115 0.26289654 1.268
-0.38265008 0.26157892 1.2670001
-0.37422135 0.2626828 1.2666668
-0.36501735 0.26323217 1.2648
-0.35496938 0.26502684 1.2666668
-0.3446165 0.26659667 1.2653333
-0.33427882 0.26853117 1.2640001
-0.32467526 0.26926991 1.2640001
-0.31691849 0.26926991 1.2640001
-0.26262128 0.26926991 1.2640001
-0.25597262 0.26853117 1.2640001
-0.24489157 0.26705369 1.2640001
-0.23425165 0.26622823 1.2664001
-0.22548567 0.26248392 1.2659999
-0.2148858 0.26228109 1.2671112
-0.204794 0.2617594 1.2657777
-0.19505744 0.2616508 1.2659999
-0.18786265 0.26122913 1.268
-0.39017627 0.27012205 1.268
-0.34126529 0.27012205 1.268
-0.33904207 0.27012205 1.268
-0.32236785 0.27234527 1.268
-0.31384549 0.27271584 1.268
-0.30434448 0.27213049 1.2670001
-0.29399413 0.27291906 1.2654999
-0.28510854 0.27273503 1.2668571
-0.27387971 0.27292988 1.2662857
-0.26550514 0.27217346 1.2672001
-0.25400364 0.27067786 1.268
-0.24492545 0.27012205 1.268
-0.16021433 -0.05938014 1.2780001
-0.15626356 -0.057896294 1.275
-0.11159967 0.099323705 1.273
-0.1155454 0.10622936 1.2754999
-0.13082802 0.11853015 1.2755001
-0.12472187 0.11450344 1.2751428
-0.11988066 0.11091762 1.2780001
-0.14228825 0.12884369 1.2780001
-0.1328036 0.12164363 1.273
-0.14619556 0.19195142 1.273
-0.1442463 0.20574227 1.2755001
-0.14435378 0.21631074 1.2744999
-0.15140355 0.22617531 1.2729999
-0.14575747 0.22487195 1.277
-0.16021433 0.23752055 1.2780001
-0.15543771 0.23491019 1.27675
-0.14826362 0.23266558 1.2780001
-0.16131318 0.24636564 1.2765714
-0.15710177 0.24527597 1.2775455
-0.17357649 0.25738874 1.2746667
-0.16456699 0.25323272 1.2770001
-0.39171484 0.26672319 1.273
-0.38650683 0.26635119 1.2729999
-0.37646237 0.26698512 1.27425
-0.36493093 0.2689552 1.273
-0.35488695 0.2689552 1.273
-0.23435929 0.2689552 1.273
-0.22375733 0.26783919 1.273
-0.21538737 0.26672322 1.273
-0.20534338 0.26672322 1.273
-0.19455825 0.26638481 1.2744285
-0.18437535 0.26379523 1.2759166
-0.17690241 0.26162526 1.2771667
-0.39101261 0.27225235 1.2780001
-0.3858909 0.27225235 1.278
-0.37364674 0.27169216 1.2780001
-0.36506581 0.27323955 1.277375
-0.35516047 0.27225235 1.2780001
-0.3435939 0.27340409 1.275
-0.33508158 0.27563524 1.2754999
-0.32504028 0.27653417 1.2749999
-0.31520188 0.27772835 1.276125
-0.304701 0.27712828 1.2752222
-0.29373416 0.27810147 1.2739999
-0.28409788 0.27739438 1.2751428
-0.27469867 0.27805692 1.2754999
-0.26445496 0.27712828 1.2752222
-0.25566065 0.27522126 1.2748749
-0.24728401 0.27339113 1.2763335
-0.23683298 0.27115035 1.2763335
-0.22487627 0.271292 1.278
-0.21559313 0.27097189 1.278
-0.20502953 0.27001157 1.2780001
-0.19718689 0.27001157 1.2780001
-0.30138221 0.28233576 1.2780001
-0.29802108 0.28121537 1.2780001
-0.27561349 0.28121537 1.2780001
-0.26553008 0.28121537 1.2780001
-0.15520184 -0.053178191 1.2864616
-0.14959352 -0.052863877 1.2830001
-0.11472586 0.10910204 1.2830001
-0.12216642 0.11690583 1.2863334
-0.11589873 0.11364727 1.2863334
-0.13497159 0.12484873 1.2830001
-0.12893109 0.12141512 1.2863334
-0.14678907 0.13211016 1.2880001
-0.14565992 0.17953432 1.2880001
-0.14565992 0.1863092 1.2880001
-0.14453034 0.1952433 1.2855
-0.14340618 0.20418899 1.284
-0.1413947 0.21410117 1.2844286
-0.13875024 0.21658248 1.2867501
-0.14104533 0.22562751 1.2830001
-0.13804242 0.22417988 1.2871667
-0.15296781 0.23957458 1.2830001
-0.14551461 0.23489343 1.2850834
-0.15246873 0.24548641 1.2845001
-0.14777248 0.24140179 1.2867501
-0.16473499 0.25738484 1.284875
-0.15592881 0.25412253 1.2857778
-0.18446118 0.26881844 1.2830001
-0.17521566 0.26614529 1.2857778
-0.16824286 0.26083288 1.2880001
-0.3829399 0.27443209 1.2840002
-0.37454617 0.27519208 1.2830001
-0.36339119 0.2778025 1.2846667
-0.35546795 0.2770367 1.2863334
-0.34789047 0.27696246 1.2842501
-0.33180517 0.27781653 1.2830001
-0.25194699 0.27781653 1.2830001
-0.24508269 0.27703574 1.2863334
-0.23440665 0.27554268 1.2855
-0.22471353 0.27679807 1.2852223
-0.21470006 0.27604628 1.2852223
-0.20564483 0.27489397 1.2858572
-0.19374986 0.27305529 1.2841111
-0.18499924 0.27298939 1.2867501
-0.17953432 0.27212435 1.2880001
-0.37261841 0.28115752 1.2880001
-0.36697268 0.28115752 1.2880001
-0.34372348 0.28117639 1.2855
-0.33347464 0.2837922 1.2880001
-0.32498536 0.28549072 1.2871667
-0.31509584 0.28542021 1.2868462
-0.30508694 0.28506091 1.2852223
-0.29413629 0.28549483 1.2863334
-0.28443721 0.2844407 1.2865001
-0.27466002 0.28543407 1.2857778
-0.26516151 0.28590888 1.286
-0.25694138 0.28117418 1.2855
-0.33196911 0.292449 1.2880001
-0.32632339 0.2901907 1.2880001
-0.15532145 -0.045347996 1.29325
-0.14731517 -0.044561293 1.295125
-0.16032217 -0.036385171 1.2970001
-0.15618913 -0.038620893 1.29575
-0.1489518 -0.039796282 1.2970001
-0.1166633 0.11741839 1.2920001
-0.13373953 0.12692608 1.2950001
-0.12483075 0.12256399 1.2945
-0.14469135 0.13370728 1.2961668
-0.13891776 0.13134921 1.2953334
-0.15227173 0.14578566 1.2948571
-0.14819378 0.14629871 1.2970001
-0.15359157 0.15510543 1.2961667
-0.14688446 0.15494709 1.2970001
-0.15304515 0.16350588 1.2970001
-0.14857279 0.1641123 1.2970001
-0.15220048 0.17461632 1.2970001
-0.14584617 0.17555842 1.2958462
-0.1398555 0.17851475 1.2970001
-0.15064289 0.18122452 1.2920001
-0.14486769 0.1847042 1.2935625
-0.13947649 0.186095 1.2970001
-0.14335629 0.19454636 1.2934285
-0.13888089 0.19508301 1.2970001
-0.14158167 0.20501025 1.2920001
-0.13963985 0.20548102 1.2950001
-0.13815974 0.21614276 1.2953334
-0.13705105 0.22766332 1.2920001
-0.14228497 0.2375221 1.2932501
-0.13891777 0.23544462 1.2953334
-0.14525709 0.24512608 1.2945
-0.1398555 0.24218881 1.2970001
-0.15305394 0.25622731 1.29325
-0.14838329 0.25299063 1.2970001
-0.17200638 0.26803002 1.2936667
-0.16517621 0.26482716 1.293923
-0.156893 0.26225048 1.295
-0.38471246 0.27690437 1.2945001
-0.37830621 0.2786327 1.2920001
-0.24352045 0.27976537 1.2920001
-0.23672454 0.27976537 1.2920001
-0.22992863 0.27976537 1.2920001
-0.21293883 0.27976537 1.2920001
-0.20425515 0.27901027 1.2919999
-0.19519393 0.27750006 1.2920001
-0.18476364 0.27726179 1.293
-0.17642197 0.27315024 1.2950001
-0.38318133 0.28084806 1.2970001
-0.37222695 0.28484607 1.2945001
-0.36426312 0.28443462 1.2955714
-0.35520428 0.28399771 1.2945
-0.34567028 0.28598315 1.2945
-0.33658528 0.2876918 1.2927142
-0.31601027 0.28882658 1.2920001
-0.30921435 0.28882658 1.2920001
-0.29788783 0.28882658 1.2920001
-0.28656128 0.28882658 1.2920001
-0.27523476 0.28882658 1.2920001
-0.26080191 0.28881374 1.2953334
-0.25475422 0.28602394 1.295077
-0.24544469 0.28489175 1.2956363
-0.23522933 0.28427738 1.295
-0.22528034 0.28352645 1.2942222
-0.21464877 0.2839317 1.2955
-0.20443919 0.28266731 1.2970001
-0.1960576 0.28182265 1.2970001
-0.18874809 0.28084806 1.2970001
-0.34224802 0.29221842 1.2970001
-0.33601442 0.29199734 1.294
-0.32509646 0.29260269 1.2931111
-0.31369069 0.29408124 1.2951818
-0.30457473 0.29496402 1.2949413
-0.2952027 0.29520598 1.295125
-0.28638533 0.29465818 1.2948571
-0.27565908 0.29267868 1.2939999
-0.26555374 0.2927922 1.2945
-0.15405551 -0.033429813 1.3030001
-0.14515881 -0.034977015 1.3048947
-0.13864221 -0.032082494 1.307
-0.1540287 -0.027662966 1.307
-0.14666283 -0.028645083 1.307
-0.13354614 0.12898046 1.302
-0.12479351 0.1261702 1.306
-0.11893342 0.12236644 1.3045001
-0.15295027 0.13582897 1.302
-0.14476104 0.13752621 1.3036667
-0.1367909 0.13335788 1.3057501
-0.15256982 0.14115562 1.302
-0.14526238 0.14385757 1.303154
-0.1422631 0.15461585 1.3045001
-0.15637454 0.16504934 1.302
-0.14377093 0.16480345 1.3036667
-0.13864221 0.16843309 1.307
-0.15523311 0.17007157 1.302
-0.14295971 0.17241976 1.3025
-0.13723122 0.1772598 1.3045001
-0.1350722 0.18544263 1.3057499
-0.12947577 0.18905754 1.307
-0.13433062 0.19511057 1.3062308
-0.12947577 0.19364077 1.307
-0.13682595 0.2047832 1.3050001
-0.13811181 0.21344554 1.302
-0.13532591 0.22643292 1.3045001
-0.13571139 0.23506162 1.306375
-0.14222094 0.2481447 1.302
-0.13837701 0.24473727 1.3045001
-0.14560206 0.25476661 1.3048573
-0.16094021 0.26823369 1.302
-0.15543182 0.26591229 1.3036667
-0.14780863 0.26009735 1.307
-0.18148577 0.27964789 1.302
-0.17402939 0.27605015 1.3038751
-0.16553614 0.27246714 1.3045001
-0.15926667 0.27155539 1.307
-0.37353188 0.28988823 1.307
-0.3652544 0.28877926 1.302
-0.35726449 0.28877926 1.302
-0.24312246 0.28877926 1.302
-0.23551299 0.28877926 1.302
-0.22485974 0.28877926 1.302
-0.21458696 0.28877926 1.302
-0.20628479 0.28795007 1.304143
-0.1945232 0.28631571 1.304143
-0.18623009 0.28334501 1.3032501
-0.17759952 0.28072181 1.307
-0.34561157 0.29305583 1.3032501
-0.32555279 0.29813942 1.3030001
-0.31810287 0.29753104 1.3036667
-0.28132629 0.29848266 1.3045001
-0.27447116 0.29848266 1.3045001
-0.26330131 0.29725912 1.3034286
-0.25524148 0.29467526 1.3036667
-0.24595395 0.29292527 1.3038182
-0.2354088 0.29262003 1.305125
-0.22572327 0.29217985 1.307
-0.21655683 0.29217985 1.307
-0.29106209 0.30247629 1.302
-0.2864964 0.30095437 1.302
-0.26582637 0.30134627 1.307
-0.15340702 -0.023599647 1.3132501
-0.14474955 -0.024836842 1.3134288
-0.139029 -0.026052956 1.3150001
-0.15355781 -0.018704034 1.317
-0.14597063 -0.018638058 1.317
-0.13970298 -0.01847312 1.317
-0.12460355 0.1284375 1.312
-0.11846922 0.12767072 1.312
-0.14147297 0.13917258 1.312
-0.13610667 0.13552937 1.31575
-0.12815727 0.13046642 1.317
-0.14147297 0.14492351 1.312
-0.13970298 0.14547582 1.317
-0.14147297 0.15067445 1.312
-0.13896452 0.15585439 1.3136667
-0.13782628 0.16648425 1.3148572
-0.13573469 0.17535573 1.315182
-0.13227147 0.1805793 1.312
-0.12898308 0.18656695 1.3136667
-0.12779017 0.19513965 1.3132501
-0.13280517 0.20555155 1.3147779
-0.12906417 0.20166621 1.3145001
-0.13523529 0.21472092 1.3140001
-0.13487956 0.22387382 1.3150001
-0.13303399 0.23586734 1.3149999
-0.13544889 0.24374552 1.3141431
-0.14364025 0.25753999 1.3150001
-0.13875647 0.25253084 1.3153334
-0.15211394 0.26620159 1.3145
-0.14778496 0.26324195 1.317
-0.172528 0.27949536 1.312
-0.16429785 0.27754712 1.3136667
-0.15781578 0.27439526 1.3140001
-0.18446743 0.28739467 1.3142223
-0.17603934 0.28404963 1.3153334
-0.16741265 0.28171507 1.317
-0.37408069 0.29441535 1.317
-0.36575934 0.29329759 1.312
-0.35262558 0.29501104 1.3145001
-0.24383956 0.29789835 1.312
-0.23416644 0.29751 1.3136667
-0.2249801 0.29608202 1.3141429
-0.21472795 0.29501104 1.3145
-0.20550893 0.29347456 1.3145
-0.19579074 0.29229069 1.3148571
-0.28558174 0.30403444 1.3153334
-0.27630889 0.30278727 1.3132501
-0.26560429 0.30480707 1.3153334
-0.25479671 0.30235696 1.3151251
-0.2461174 0.30183908 1.3162857
-0.23784143 0.30134276 1.317
-0.13637017 -0.023565384 1.322
-0.15409999 -0.01298694 1.3252728
-0.14440559 -0.01321207 1.3220003
-0.13493997 -0.015102337 1.3256667
-0.15134773 -0.0081494935 1.3280001
-0.14383061 -0.0065890271 1.3266667
-0.13504875 -0.0081494935 1.3280001
-0.118004 0.12419561 1.324
-0.13376677 0.13647451 1.3230001
-0.12631831 0.13290851 1.3260001
-0.13745406 0.14377259 1.327143
-0.13685271 0.15544724 1.3257501
-0.13440219 0.16476828 1.3243078
-0.12736495 0.16787958 1.3280001
-0.13183095 0.17413275 1.322
-0.12631701 0.17519778 1.3275386
-0.13096173 0.18195567 1.322
-0.12757809 0.18303017 1.327
-0.12493517 0.19586311 1.322
-0.13096173 0.20977055 1.322
-0.12495019 0.20477316 1.3250002
-0.11991397 0.20606576 1.3280001
-0.13173436 0.21633796 1.322
-0.12845154 0.21149875 1.3280001
-0.13249348 0.2254767 1.32575
-0.12922768 0.22120053 1.3280001
-0.1310806 0.23547688 1.3232
-0.12789614 0.23638739 1.3245715
-0.13260606 0.24588485 1.3230001
-0.12864558 0.24448478 1.3280001
-0.14023335 0.2584466 1.322
-0.13489358 0.25292972 1.3265001
-0.12922768 0.25030586 1.3280001
-0.11913783 0.25341043 1.3280001
-0.14404739 0.26532954 1.3243078
-0.11991397 0.26194799 1.3280001
-0.15352997 0.27397913 1.32425
-0.14678802 0.27148229 1.3268001
-0.17334631 0.28758597 1.3219999
-0.16452692 0.28568223 1.324182
-0.15873498 0.28374851 1.3265001
-0.37371248 0.29920283 1.3280001
-0.36614507 0.2986207 1.3280001
-0.35695761 0.29669204 1.322
-0.21208847 0.297851 1.322
-0.20411429 0.29792815 1.3244001
-0.19471243 0.29763007 1.3254286
-0.1849014 0.29554379 1.3252308
-0.1760484 0.29238555 1.327
-0.16881093 0.29221755 1.3280001
-0.35116285 0.3001689 1.322
-0.34884495 0.3001689 1.322
-0.28342631 0.30781958 1.325
-0.27467194 0.30712262 1.322
-0.26308241 0.30712262 1.322
-0.25496972 0.30712262 1.322
-0.24467526 0.3070071 1.32275
-0.23522894 0.3051284 1.3244001
-0.22508942 0.30167109 1.3235002
-0.21476579 0.30180731 1.3262857
-0.20839418 0.30153126 1.3280001
-0.28290385 0.31084496 1.3280001
-0.25496271 0.31084496 1.3280001
-0.24564902 0.3116211 1.3280001
-0.13672581 -0.01051737 1.3330001
-0.1547007 -0.0044114538 1.336077
-0.14548634 -0.0021708771 1.3337144
-0.1350093 -0.0033432313 1.3358573
-0.12971424 -0.0058429833 1.3330001
-0.15319118 0.0021113639 1.3380001
-0.14521495 0.0044573243 1.3379999
-0.13254674 0.0035189402 1.3380001
-0.14193058 0.01055682 1.3380001
-0.12433589 0.01524874 1.3380001
-0.11802826 0.12737703 1.3330001
-0.13205142 0.139063 1.3330001
-0.1253297 0.13645986 1.3361251
-0.11847098 0.13137376 1.3380001
-0.13346767 0.14517906 1.3355001
-0.13500929 0.15441845 1.3358573
-0.13159965 0.16127716 1.3363334
-0.12714384 0.16380662 1.3346667
-0.12668183 0.18650381 1.3380002
-0.12081694 0.20996343 1.3380001
-0.1263154 0.21570908 1.3352729
-0.12724055 0.22542843 1.3365002
-0.12685952 0.23381536 1.3357779
-0.12545489 0.2466225 1.3346667
-0.13285819 0.25753373 1.3344287
-0.12478385 0.25457355 1.3348184
-0.11802826 0.25358549 1.3330001
-0.1414002 0.26994583 1.3330001
-0.13497724 0.26459777 1.336421
-0.12550886 0.2629821 1.3380001
-0.15250187 0.27871031 1.3330001
-0.14472531 0.27636015 1.3335001
-0.13864623 0.27283517 1.3380001
-0.15440269 0.28608495 1.3363335
-0.14662248 0.28399149 1.3380002
-0.3821311 0.29799214 1.3330001
-0.36343357 0.29799214 1.3330001
-0.18113248 0.29799214 1.3330001
-0.17478868 0.29699048 1.3330001
-0.16422808 0.29522949 1.3341765
-0.15776581 0.2938315 1.3380001
-0.38121849 0.30145586 1.3380001
-0.37511951 0.30032933 1.3330001
-0.36519164 0.30241281 1.3360001
-0.35642198 0.30266654 1.3330001
-0.23196644 0.3090938 1.3330001
-0.22450864 0.30753306 1.3338333
-0.21542431 0.30713826 1.3355001
-0.20563485 0.30563542 1.3348184
-0.1954467 0.30382445 1.3350002
-0.18509705 0.30342337 1.3363334
-0.17477402 0.30233559 1.3380002
-0.16539018 0.30145586 1.3379999
-0.29207203 0.31083971 1.3380001
-0.28274208 0.31377345 1.3355
-0.27623031 0.31271857 1.334
-0.26638219 0.31240544 1.3346667
-0.25219071 0.31553161 1.3380001
-0.24189951 0.3120153 1.3330001
-0.23541129 0.3127175 1.3360001
-0.22544675 0.3117781 1.3380001
-0.21582831 0.31083971 1.3380001
-0.15622574 0.0058901636 1.3435457
-0.14199002 0.0054158708 1.3430001
-0.13475457 0.0052446183 1.3430003
-0.15345483 0.014170002 1.3465
-0.14466406 0.014088501 1.3454708
-0.13437131 0.01414743 1.3445003
-0.12631427 0.015978502 1.3430002
-0.14309742 0.02128722 1.3490001
-0.13393208 0.021582877 1.3490001
-0.12504949 0.024778981 1.3456671
-0.11891369 0.027079357 1.3430001
-0.12181021 0.03193083 1.3490001
-0.11865655 0.03508449 1.3490001
-0.11327936 0.11800197 1.3460001
-0.10704783 0.11744861 1.3478
-0.11497922 0.124662 1.3466001
-0.12126842 0.13657415 1.3430001
-0.11734025 0.13481152 1.3466001
-0.13068733 0.14717041 1.3430001
-0.12493534 0.14430651 1.3470002
-0.11885364 0.14309742 1.3490001
-0.13169649 0.15490738 1.3430002
-0.12552649 0.15428382 1.3480004
-0.1158614 0.153185 1.3485717
-0.1088443 0.15275584 1.3466001
-0.12743664 0.16165909 1.3460001
-0.11826234 0.20932433 1.3490001
-0.1218571 0.21604617 1.3430001
-0.11809339 0.2150685 1.3490001
-0.1227572 0.22468799 1.3450001
-0.11944496 0.22469842 1.3490001
-0.12300843 0.23350629 1.3466001
-0.12417545 0.24322619 1.3490001
-0.12480052 0.25784257 1.3430001
-0.13068733 0.26961622 1.3430001
-0.12597787 0.26667282 1.3430002
-0.14010623 0.27903512 1.3430001
-0.13395141 0.27508023 1.3435457
-0.12721647 0.27521333 1.3490001
-0.14320612 0.28612056 1.3445001
-0.13600168 0.28146434 1.3490001
-0.15367587 0.29648507 1.3450001
-0.1464833 0.29362947 1.3463334
-0.38435256 0.30511683 1.3490001
-0.37670103 0.30584535 1.3470001
-0.36262792 0.30493709 1.3430001
-0.35596958 0.30866468 1.3490001
-0.20132913 0.30964655 1.3430001
-0.19583476 0.30886164 1.3430001
-0.18328628 0.30737001 1.3454001
-0.17416616 0.30791917 1.3478
-0.16483086 0.30434841 1.3430001
-0.15811649 0.30089831 1.3460001
-0.34177813 0.31102994 1.3490001
-0.33704764 0.31221256 1.3490001
-0.32876927 0.31221256 1.3490001
-0.31339517 0.31339517 1.3490001
-0.30511683 0.31339517 1.3490001
-0.2924633 0.31608072 1.3470001
-0.28556365 0.31859556 1.3460001
-0.27580678 0.31765315 1.3445001
-0.26578915 0.31718326 1.3475001
-0.25724119 0.31741822 1.3460001
-0.24516904 0.31706446 1.3445001
-0.23547268 0.31671074 1.3430001
-0.22436617 0.31635833 1.3452501
-0.21475877 0.31565085 1.3460002
-0.20649882 0.31388083 1.3460001
-0.19276761 0.31102994 1.3490001
-0.2838296 0.32226485 1.3490001
-0.27673388 0.32049093 1.3490001
-0.24007253 0.32049093 1.3490001
-0.23415941 0.32049093 1.3490001
-0.2282463 0.32049093 1.3490001
-0.15356365 0.023414109 1.3578891
-0.14514902 0.02513798 1.357125
-0.13578156 0.026897008 1.3553637
-0.12938373 0.029675167 1.3540001
-0.14415818 0.032167532 1.3590001
-0.13175774 0.032049179 1.3540001
-0.1253415 0.034726784 1.3565001
-0.11988767 0.036797207 1.3540001
-0.11426495 0.045234464 1.3577502
-0.11751366 0.11988767 1.3540001
-0.10801761 0.11988767 1.3540001
-0.11157863 0.12582271 1.3540001
-0.10636437 0.12462357 1.3581667
-0.11349028 0.13585687 1.3570001
-0.10841649 0.13224429 1.3590001
-0.11450326 0.14557637 1.3551539
-0.10828353 0.14635833 1.3573335
-0.11988767 0.15787189 1.3540001
-0.12248304 0.16054177 1.3565001
-0.11794761 0.16083765 1.3590001
-0.11672232 0.21643089 1.3540001
-0.11751366 0.22553128 1.3540001
-0.12033039 0.238278 1.3590001
-0.11988767 0.23146629 1.3540001
-0.12119146 0.24548316 1.3580002
-0.11794761 0.24502921 1.3590001
-0.12129603 0.25211224 1.3565001
-0.11794761 0.25138327 1.3590001
-0.1412538 0.28844261 1.3540001
-0.134848 0.28574032 1.3552501
-0.12938373 0.28132057 1.3540001
-0.1424408 0.29437765 1.3540001
-0.13700984 0.29268482 1.3590001
-0.39052519 0.30149969 1.3540001
-0.37509412 0.30980873 1.3540001
-0.36559805 0.30980873 1.3540001
-0.35135397 0.30980873 1.3540001
-0.34541893 0.30980873 1.3540001
-0.16974196 0.30980873 1.3540001
-0.3800534 0.31333557 1.3590001
-0.37409648 0.31333557 1.3590001
-0.36456537 0.31333557 1.3590001
-0.3578141 0.31412983 1.3590001
-0.34329653 0.31574047 1.3550001
-0.33565912 0.31508431 1.3540001
-0.32548317 0.31738874 1.3580002
-0.31533816 0.31613389 1.3556668
-0.30404329 0.31726995 1.3540001
-0.29675168 0.31930479 1.3540001
-0.27182454 0.31930479 1.3540001
-0.26707649 0.31930479 1.3540001
-0.21128719 0.31930479 1.3540001
-0.20216152 0.31632894 1.3565001
-0.19580063 0.31602365 1.3577502
-0.18873405 0.31218275 1.3540001
-0.17870849 0.31333557 1.3590001
-0.15376952 0.0287196 1.365
-0.14479464 0.029916249 1.365
-0.15197454 0.032309551 1.365
-0.14513655 0.036070447 1.3649999
-0.13442369 0.036298383 1.3649999
-0.12624657 0.038891122 1.365
-0.14319912 0.044674933 1.3649999
-0.12325495 0.04188275 1.3650001
-0.11655371 0.047148012 1.365
-0.11208621 0.052253712 1.3650001
-0.10809738 0.055444781 1.3650001
-0.10490632 0.12724377 1.3650001
-0.11308342 0.13701642 1.365
-0.10650185 0.13163149 1.365
-0.1076985 0.14359799 1.365
-0.12325495 0.16394106 1.365
-0.11846835 0.16394106 1.365
-0.11607505 0.20781821 1.3650001
-0.11308343 0.22556852 1.365
-0.11647394 0.23534118 1.3649999
-0.11703237 0.24483459 1.365
-0.11667337 0.25309145 1.365
-0.12804155 0.28599936 1.365
-0.13442369 0.29317924 1.3650001
-0.38891125 0.30993235 1.365
-0.15436785 0.30594352 1.3650001
-0.1459913 0.30275244 1.365
-0.1405209 0.038433068 1.3700001
-0.13811883 0.039634101 1.3700001
-0.14067475 0.045693178 1.3715
-0.13470016 0.045706004 1.371875
-0.1253121 0.046520524 1.3713845
-0.1189023 0.049242366 1.3700001
-0.12424821 0.053318165 1.376
-0.11606528 0.055952914 1.3713847
-0.108093 0.058850631 1.3700001
-0.11443481 0.061431538 1.3740001
-0.1078487 0.062146317 1.3720001
-0.10208783 0.12490746 1.3700001
-0.10496477 0.13541637 1.3710002
-0.10430143 0.14278053 1.3715
-0.11241891 0.20620471 1.3715
-0.11459786 0.21110134 1.376
-0.11282291 0.22685386 1.3740001
-0.10977269 0.22798944 1.376
-0.11272556 0.23591726 1.37
-0.10929403 0.23179944 1.3700001
-0.11457858 0.24429016 1.3700001
-0.13091263 0.28944904 1.3700001
-0.1405209 0.2990573 1.3700001
-0.13402656 0.29621202 1.3724
-0.13631114 0.30036703 1.376
-0.13456996 0.054844413 1.3850001
-0.12595879 0.056448467 1.383
-0.13010523 0.064444639 1.3870001
-0.12447077 0.065968923 1.386143
-0.11484385 0.066174686 1.3831431
-0.10821836 0.06809245 1.3870001
-0.12307981 0.073901929 1.3870001
-0.11429805 0.074866958 1.3870002
