# .PCD v0.7 - Point Cloud Data file format
VERSION 0.7
FIELDS x y z
SIZE 4 4 4
TYPE F F F
COUNT 1 1 1
WIDTH 1441
HEIGHT 1
VIEWPOINT 0 0 0 1 0 0 0
POINTS 1441
DATA ascii
-0.11525823 -0.054374315 1.1250001
-0.10729306 -0.055203162 1.1260002
-0.094110161 -0.05448484 1.1299996
-0.084153861 -0.05567009 1.128
-0.079957262 -0.058240473 1.126
-0.1626164 -0.23045638 1.138
-0.18123914 -0.2231403 1.138
-0.17522843 -0.22401141 1.1356667
-0.16523694 -0.22426291 1.1334001
-0.1545939 -0.22476721 1.1344447
-0.14839688 -0.22249624 1.13
-0.18171421 -0.21420901 1.138
-0.17503032 -0.21533513 1.1314546
-0.16656792 -0.21779783 1.13
-0.15442875 -0.21782929 1.13
-0.1473567 -0.21670106 1.13
-0.12253404 -0.21295168 1.1333333
-0.11429327 -0.21329187 1.1354545
-0.10736712 -0.21175182 1.1340001
-0.18057404 -0.20451756 1.138
-0.17463252 -0.20538774 1.1317998
-0.16906808 -0.20440067 1.13
-0.1218479 -0.20902362 1.13
-0.11535075 -0.20750386 1.1310668
-0.10463619 -0.20592158 1.1305711
-0.0980727 -0.20109856 1.13
-0.18290421 -0.19587013 1.1376001
-0.17497262 -0.19507423 1.1310909
-0.16840766 -0.19515477 1.13
-0.18363625 -0.18578844 1.1353332
-0.17692709 -0.18617299 1.13
-0.16840766 -0.18921097 1.13
-0.18400757 -0.17589991 1.1354287
-0.17831399 -0.1753421 1.13
-0.077269405 -0.17137957 1.13
-0.18384692 -0.16495985 1.1335558
-0.17831399 -0.16543576 1.13
-0.1828644 -0.15525441 1.1362858
-0.17812827 -0.15539077 1.1312308
-0.18223679 -0.14465876 1.138
-0.17718901 -0.14506993 1.1314999
-0.19296002 -0.13238017 1.1375
-0.18512629 -0.13367394 1.1360002
-0.17741455 -0.13529138 1.1315385
-0.19417873 -0.12447158 1.1358666
-0.1853154 -0.12486327 1.1303999
-0.17811586 -0.12660293 1.13
-0.19457057 -0.11481971 1.1354119
-0.1870773 -0.11681853 1.13
-0.041276384 -0.11458325 1.13
-0.19381657 -0.10498407 1.1355386
-0.18726908 -0.10427043 1.1302352
-0.050522301 -0.10005397 1.13
-0.045569137 -0.1010446 1.13
-0.19134861 -0.097170785 1.138
-0.18458529 -0.094561234 1.1329476
-0.178314 -0.090147629 1.13
-0.060428634 -0.090147629 1.13
-0.054327186 -0.093958348 1.1301664
-0.045819119 -0.094089307 1.1323156
-0.18212985 -0.086078145 1.1373334
-0.17572413 -0.084051482 1.1324445
-0.16873787 -0.08090172 1.13
-0.11348256 -0.085084401 1.13
-0.10929988 -0.08090172 1.13
-0.073504992 -0.081430063 1.13
-0.0637419 -0.083567552 1.1307998
-0.054840472 -0.084664375 1.1340003
-0.047221944 -0.087460361 1.138
-0.17254417 -0.07580965 1.1362224
-0.16590524 -0.073774792 1.1315001
-0.15949197 -0.070334964 1.13
-0.11194157 -0.078260034 1.13
-0.10491707 -0.073757157 1.13
-0.0802413 -0.070334964 1.13
-0.074429788 -0.074432582 1.13208
-0.06507346 -0.075308599 1.1353334
-0.056807749 -0.077594772 1.1368572
-0.17259288 -0.064447984 1.1380001
-0.16510104 -0.064149641 1.1345003
-0.15592994 -0.064216748 1.1306314
-0.14958563 -0.060428634 1.13
-0.10203523 -0.064391166 1.13
-0.094440378 -0.060758848 1.13
-0.0802413 -0.067363068 1.13
-0.075029925 -0.065093294 1.1343638
-0.17234346 -0.055618804 1.138
-0.16492338 -0.055047076 1.1371114
-0.15496518 -0.055005264 1.1370912
-0.14524283 -0.054074205 1.1339998
-0.13584238 -0.052437901 1.1325455
-0.12581043 -0.050522305 1.13
-0.11590409 -0.050522305 1.13
-0.10296761 -0.053785566 1.13
-0.076473974 -0.054625332 1.1329334
-0.1626164 -0.047388218 1.138
-0.15762818 -0.046889395 1.138
-0.14266346 -0.048884686 1.138
-0.13369492 -0.048265509 1.1368572
-0.12429765 -0.046733692 1.1342666
-0.11436897 -0.045145996 1.1333333
-0.10474466 -0.044828229 1.1309996
-0.094390005 -0.044708803 1.1333603
-0.084370181 -0.044662662 1.1322399
-0.076765433 -0.04506442 1.1351429
-0.10395951 -0.038142886 1.1375
-0.094444297 -0.037035905 1.1374289
-0.084621124 -0.034839787 1.1356001
-0.077533804 -0.035477299 1.1368001
-0.19336277 -0.23407009 1.1481112
-0.18535845 -0.23509307 1.1460001
-0.17560434 -0.23447859 1.1461766
-0.16593866 -0.23325692 1.1441112
-0.15789381 -0.23300456 1.1423333
-0.19409348 -0.22492948 1.1471335
-0.18634756 -0.22577448 1.1424739
-0.17504843 -0.22906336 1.141
-0.15804371 -0.22906336 1.141
-0.11986751 -0.22059651 1.149
-0.20112222 -0.21287394 1.149
-0.19500183 -0.21510126 1.1465558
-0.1870088 -0.21504501 1.1422501
-0.12103347 -0.21706003 1.141
-0.11630329 -0.21857111 1.1436667
-0.20095435 -0.20699809 1.149
-0.19501135 -0.20524774 1.1463335
-0.18615089 -0.20516558 1.1416003
-0.19378328 -0.19535963 1.1470001
-0.18811829 -0.19512092 1.1414
-0.19324721 -0.18482323 1.1486365
-0.18871629 -0.18545663 1.1435001
-0.19328776 -0.17381349 1.149
-0.18971504 -0.17566209 1.1450001
-0.19328776 -0.16463596 1.149
-0.18971504 -0.16562425 1.1450001
-0.19158657 -0.15351099 1.149
-0.18726134 -0.15536335 1.1450001
-0.21228638 -0.14227971 1.149
-0.20457162 -0.14457518 1.1470001
-0.19522099 -0.14452104 1.1465558
-0.1872988 -0.1450087 1.1443849
-0.21276204 -0.13531262 1.149
-0.20510639 -0.13503274 1.1450002
-0.19627228 -0.13656066 1.1422501
-0.18838543 -0.1383716 1.141
-0.21253818 -0.1264149 1.149
-0.20527261 -0.12564099 1.1441306
-0.19905506 -0.1250346 1.141
-0.21052361 -0.11886021 1.149
-0.20463257 -0.11535092 1.1442002
-0.19905506 -0.11303126 1.141
-0.20327044 -0.10671712 1.1472224
-0.19888124 -0.10437705 1.1432858
-0.20112224 -0.099050187 1.149
-0.19547334 -0.094555452 1.1450002
-0.18905228 -0.091025174 1.141
-0.039147548 -0.091344282 1.1450001
-0.2004507 -0.087634228 1.149
-0.19462807 -0.085754767 1.1463336
-0.18680897 -0.084407277 1.1438237
-0.043605525 -0.083635129 1.1415714
-0.038812954 -0.084652394 1.1450001
-0.19181679 -0.077849127 1.149
-0.18457857 -0.075703278 1.1463336
-0.17707551 -0.074006572 1.143
-0.06201715 -0.071019642 1.141
-0.053872041 -0.073306002 1.1409999
-0.045347769 -0.075469755 1.1453336
-0.037789721 -0.077730402 1.1472857
-0.18244369 -0.066065893 1.1476668
-0.17763525 -0.065945767 1.1437694
-0.071019642 -0.061016876 1.141
-0.064683251 -0.064958289 1.1448184
-0.055278074 -0.065324046 1.1464403
-0.048114795 -0.066231295 1.1482002
-0.18030493 -0.05741553 1.149
-0.17620438 -0.053983551 1.1446002
-0.15104178 -0.05101411 1.141
-0.071019642 -0.055015218 1.141
-0.067421123 -0.055996142 1.1453078
-0.053386372 -0.059430111 1.149
-0.17342566 -0.045540333 1.1465386
-0.1660891 -0.044087563 1.1430001
-0.15357581 -0.043945488 1.1409999
-0.14544998 -0.044506691 1.1420912
-0.13560826 -0.043752197 1.1430001
-0.12529901 -0.042098586 1.1434
-0.11784022 -0.041619312 1.1440001
-0.07139457 -0.04436956 1.1416668
-0.068255164 -0.04516815 1.1450001
-0.1631183 -0.038645659 1.1450001
-0.15463182 -0.036340557 1.1445557
-0.14439015 -0.036397267 1.1470002
-0.1356471 -0.037217133 1.1474617
-0.12616257 -0.038328163 1.1472223
-0.11487613 -0.038021561 1.1474001
-0.10539655 -0.034928851 1.1450001
-0.095846847 -0.032433722 1.1464547
-0.072319567 -0.034457907 1.1426001
-0.068398938 -0.035204656 1.1474001
-0.09166339 -0.029211409 1.149
-0.084943883 -0.027641736 1.1466668
-0.075526297 -0.02528248 1.1461669
-0.069100097 -0.026793916 1.149
-0.076218277 -0.018466981 1.149
-0.19170333 -0.25154722 1.1570001
-0.18899852 -0.25120914 1.1570001
-0.20329535 -0.2424185 1.1570002
-0.19472177 -0.24385005 1.1563843
-0.18552597 -0.24490243 1.1551051
-0.17656749 -0.24265659 1.1562001
-0.16634575 -0.24038988 1.1570001
-0.20416811 -0.23470956 1.1564999
-0.19732997 -0.23596488 1.153
-0.17587861 -0.2395588 1.153
-0.16610758 -0.23753722 1.153
-0.21198939 -0.22010382 1.1570001
-0.20513435 -0.22365245 1.1564666
-0.19912694 -0.22540765 1.153
-0.2128588 -0.21459758 1.1570002
-0.20610914 -0.21550728 1.1534705
-0.2130037 -0.2089465 1.1570001
-0.20630959 -0.20514774 1.155476
-0.20373008 -0.19605033 1.1569998
-0.19854935 -0.19479497 1.153
-0.20286067 -0.18561752 1.1569999
-0.19839248 -0.18523106 1.1545999
-0.20184636 -0.17547449 1.1570001
-0.19821666 -0.17556755 1.1551818
-0.20260708 -0.16533145 1.1570001
-0.19827881 -0.16475414 1.1555455
-0.21482944 -0.15397124 1.1569998
-0.2054223 -0.15467599 1.1557825
-0.19729111 -0.15530893 1.1548666
-0.22348484 -0.14491014 1.1569998
-0.21617319 -0.14522 1.1540666
-0.20923491 -0.14858711 1.153
-0.19710535 -0.14858711 1.153
-0.22358143 -0.13504723 1.1569998
-0.21792777 -0.13504243 1.153
-0.22126304 -0.1267879 1.1570002
-0.21626097 -0.12364116 1.1551818
-0.21400322 -0.11536071 1.156
-0.20923491 -0.11017684 1.153
-0.21198939 -0.10650185 1.1570001
-0.20774661 -0.10375344 1.1542307
-0.20553823 -0.094743162 1.1555262
-0.20209675 -0.087593198 1.1537999
-0.19912694 -0.082885325 1.153
-0.19542216 -0.075601399 1.1549999
-0.18901898 -0.072777361 1.153
-0.041442662 -0.071766563 1.153
-0.036930084 -0.073717773 1.1564286
-0.19170333 -0.069986932 1.1570001
-0.18691812 -0.066422239 1.155
-0.044363368 -0.066243567 1.1553999
-0.038543526 -0.069986932 1.1570001
-0.028062394 -0.068634532 1.1570001
-0.18293071 -0.056519575 1.1554
-0.06339673 -0.054797951 1.1539999
-0.056236241 -0.056503911 1.1551331
-0.048311051 -0.05709311 1.1561112
-0.18156029 -0.047672257 1.1570001
-0.17844404 -0.048236247 1.1543332
-0.064779356 -0.045549668 1.1545999
-0.17141727 -0.039557829 1.1570001
-0.16938865 -0.039557829 1.1570001
-0.1511312 -0.031443402 1.1570001
-0.14613418 -0.032232154 1.154143
-0.13364105 -0.032835234 1.1540909
-0.12506157 -0.034360006 1.1554615
-0.11425429 -0.033234354 1.1551818
-0.1069152 -0.031921625 1.156
-0.065188304 -0.036278345 1.1541427
-0.14237489 -0.026263738 1.1562728
-0.13633417 -0.026102755 1.1562499
-0.10041603 -0.029414797 1.1570001
-0.094087131 -0.026446246 1.1562728
-0.085868783 -0.023098649 1.1548182
-0.071766563 -0.02122673 1.153
-0.067800529 -0.024625273 1.1543332
-0.13794525 -0.019271763 1.1570001
-0.083961777 -0.017468557 1.1570001
-0.075558886 -0.016417067 1.153923
-0.069865949 -0.018227654 1.155
-0.21281311 -0.25172976 1.1682001
-0.20445924 -0.25356188 1.1667778
-0.19666527 -0.25372574 1.1623334
-0.17421997 -0.25108171 1.169
-0.22147572 -0.24379407 1.169
-0.21431351 -0.24442162 1.1631176
-0.20512265 -0.24637787 1.161
-0.19745515 -0.24732782 1.1610001
-0.17382495 -0.24616347 1.1644286
-0.16745672 -0.24492489 1.1665
-0.22351404 -0.23457792 1.1684667
-0.21429344 -0.23485921 1.1621428
-0.20814215 -0.23307848 1.161
-0.22449306 -0.22492926 1.1670001
-0.21556133 -0.22575217 1.1628182
-0.20763324 -0.22798944 1.161
-0.22337204 -0.21552499 1.1669999
-0.21753377 -0.21512803 1.1610001
-0.22227795 -0.20559399 1.1684285
-0.21575819 -0.20432208 1.162111
-0.20865105 -0.20050856 1.161
-0.22341147 -0.19574127 1.1689999
-0.21505806 -0.19466963 1.1626
-0.20806944 -0.19352932 1.1610001
-0.22264287 -0.18677406 1.169
-0.21490933 -0.1851045 1.1648184
-0.20742102 -0.18390994 1.1613637
-0.23878384 -0.1711455 1.169
-0.21403041 -0.17603311 1.1689999
-0.20704851 -0.1749025 1.1625386
-0.24160211 -0.16422793 1.169
-0.23550551 -0.16413711 1.1685557
-0.2253774 -0.16321716 1.16725
-0.21469842 -0.16514485 1.1655002
-0.20705089 -0.16558489 1.1613637
-0.24261901 -0.1543804 1.1684284
-0.23510496 -0.15435329 1.1660002
-0.22493601 -0.15470713 1.1609999
-0.21543646 -0.15945689 1.1610001
-0.20865105 -0.15979616 1.161
-0.24213782 -0.14487274 1.1689999
-0.23499106 -0.14466511 1.1645294
-0.22813484 -0.14671004 1.1610001
-0.24083348 -0.13732633 1.169
-0.23457554 -0.13602428 1.1666472
-0.22842564 -0.13449632 1.1610001
-0.23161007 -0.12605327 1.169
-0.22599304 -0.12484083 1.1625
-0.22350831 -0.1166291 1.166091
-0.21777365 -0.11303151 1.1615715
-0.22238664 -0.1055568 1.169
-0.21662417 -0.10462393 1.1626471
-0.22102022 -0.098724641 1.169
-0.21445107 -0.09601035 1.163
-0.20254418 -0.080406986 1.161
-0.2021755 -0.074882485 1.1655715
-0.19756912 -0.072304837 1.1616668
-0.033296924 -0.071682893 1.1610001
-0.029007584 -0.072264507 1.161
-0.19383977 -0.064608581 1.1652502
-0.18829484 -0.061068602 1.161
-0.042602617 -0.062668011 1.1610001
-0.035694465 -0.064252064 1.1634002
-0.02870019 -0.06366466 1.1632856
-0.19266678 -0.058414929 1.169
-0.18649241 -0.056578137 1.1650001
-0.060050789 -0.051908311 1.161
-0.054842889 -0.052223656 1.1615715
-0.044311121 -0.053988203 1.1619999
-0.036141876 -0.054459337 1.1663916
-0.029618183 -0.057193734 1.1650001
-0.18218799 -0.049872689 1.161
-0.061130665 -0.045846689 1.1622001
-0.054587677 -0.04640976 1.1656319
-0.045956556 -0.047211401 1.1650001
-0.037918463 -0.048166696 1.169
-0.1221372 -0.032569923 1.161
-0.11908377 -0.032569923 1.161
-0.10279881 -0.03155211 1.161
-0.062942035 -0.036408845 1.1643333
-0.14860027 -0.028498679 1.161
-0.13265456 -0.02408817 1.1610001
-0.12542798 -0.025490975 1.1632401
-0.11608207 -0.026357159 1.1656001
-0.10519724 -0.027572853 1.1650001
-0.096135922 -0.023712736 1.1635001
-0.065248452 -0.025076661 1.165
-0.1333331 -0.01933839 1.161
-0.12707791 -0.018969839 1.1634001
-0.081085533 -0.011874449 1.161
-0.073250666 -0.012340447 1.1623334
-0.067544147 -0.015321698 1.1654446
-0.080961041 -0.0071737631 1.169
-0.07469967 -0.0069046267 1.16725
-0.068663165 -0.0081985863 1.169
-0.22184488 -0.26105466 1.177
-0.21529092 -0.26138407 1.1750001
-0.20566601 -0.26016748 1.1730001
-0.24041794 -0.25486365 1.177
-0.2336373 -0.25442147 1.177
-0.22440909 -0.25485021 1.1754616
-0.21581504 -0.25624228 1.1738573
-0.20720848 -0.25759667 1.1730001
-0.23138937 -0.2450612 1.177
-0.22606121 -0.24645643 1.1730002
-0.24041794 -0.2311314 1.177
-0.23441292 -0.23355187 1.1753334
-0.22872996 -0.23636898 1.1730002
-0.24041794 -0.22700407 1.177
-0.23465945 -0.22522846 1.1742634
-0.22931759 -0.22417594 1.1730001
-0.23490159 -0.21532515 1.1752002
-0.22840351 -0.21446393 1.1730002
-0.24041793 -0.2053355 1.177
-0.23466 -0.20481214 1.1740001
-0.22757731 -0.20463766 1.1730002
-0.24041793 -0.19501713 1.177
-0.23474029 -0.19458599 1.1744001
-0.22828928 -0.19435439 1.1730002
-0.24144977 -0.18160325 1.177
-0.23501261 -0.18493693 1.1763334
-0.2264699 -0.18422927 1.1730002
-0.25228405 -0.17076898 1.177
-0.24390866 -0.17463031 1.1754616
-0.23420726 -0.1750475 1.1763685
-0.22478649 -0.17632315 1.1749048
-0.21815287 -0.1743754 1.1730002
-0.2537244 -0.16502504 1.1765001
-0.24718481 -0.16568965 1.1730002
-0.23343091 -0.16864611 1.1730002
-0.22443302 -0.1689032 1.1730002
-0.21903428 -0.16967446 1.1730001
-0.25421518 -0.15607831 1.1754616
-0.2485754 -0.15565176 1.1730002
-0.25238246 -0.14571114 1.1764287
-0.24765615 -0.14516591 1.1730002
-0.2507363 -0.13929795 1.177
-0.24440444 -0.1355876 1.1746668
-0.23754422 -0.13224323 1.1730001
-0.23503214 -0.12481087 1.1750001
-0.22931759 -0.12031461 1.1730001
-0.23113142 -0.11453387 1.177
-0.22700384 -0.11337338 1.1730002
-0.23009957 -0.10731101 1.177
-0.22637589 -0.10443409 1.1743335
-0.22371832 -0.096909359 1.1760001
-0.20629318 -0.073983476 1.1754001
-0.20212573 -0.067602985 1.1743335
-0.19846769 -0.065813117 1.1730001
-0.19092661 -0.055872593 1.1730001
-0.18731473 -0.052487787 1.174
-0.031878229 -0.051416501 1.1730001
-0.02879324 -0.052444827 1.1730002
-0.054125499 -0.041079722 1.1747779
-0.043557558 -0.042230904 1.1750001
-0.03493477 -0.045609221 1.175182
-0.028272325 -0.047258116 1.177
-0.061641566 -0.034572102 1.1747143
-0.056751013 -0.038177956 1.177
-0.044368971 -0.038177956 1.177
-0.11243973 -0.02289875 1.1740001
-0.10451513 -0.02254991 1.1752224
-0.09802448 -0.02166857 1.177
-0.061803244 -0.025752086 1.1750002
-0.12138484 -0.017927308 1.1754001
-0.11580341 -0.016942086 1.1764287
-0.10765496 -0.018917007 1.177
-0.063746087 -0.01632251 1.1760001
-0.074620545 -0.0020584133 1.1740001
-0.066964507 -0.0051499386 1.1751819
-0.074208081 0.0017185588 1.1756668
-0.06810122 0.0010318366 1.177
-0.24387355 -0.2633467 1.1850002
-0.2355032 -0.26537967 1.1856315
-0.22553121 -0.26532122 1.1846924
-0.21919735 -0.26698446 1.1850001
-0.25120795 -0.25329268 1.189
-0.24545187 -0.25525737 1.1852221
-0.23585121 -0.25593686 1.181
-0.2267402 -0.25987118 1.1810001
-0.25120795 -0.2449538 1.189
-0.24498749 -0.2453078 1.1843684
-0.23720074 -0.24548577 1.1815333
-0.25225028 -0.23453024 1.189
-0.24511077 -0.23570703 1.1838236
-0.23766835 -0.23849805 1.1818001
-0.25204185 -0.22660835 1.189
-0.24547222 -0.22504036 1.1847777
-0.24390565 -0.21611771 1.1857272
-0.25120795 -0.20117484 1.189
-0.24612573 -0.20430505 1.1866001
-0.26163152 -0.19075127 1.189
-0.25426224 -0.19373496 1.1881109
-0.24593276 -0.19473659 1.1836667
-0.27205509 -0.18241243 1.189
-0.26548824 -0.18397593 1.1889998
-0.25490695 -0.18519881 1.1867999
-0.24460205 -0.18539363 1.18225
-0.23709363 -0.18222043 1.1810001
-0.27205509 -0.17511591 1.189
-0.26530802 -0.17516787 1.1876665
-0.2552636 -0.17642282 1.1833528
-0.24744706 -0.17807904 1.1810001
-0.23709363 -0.17807905 1.1810001
-0.27205509 -0.16990414 1.189
-0.26604325 -0.16558845 1.1865237
-0.25883585 -0.16461958 1.1810001
-0.26452464 -0.15494058 1.1871176
-0.25862876 -0.15426615 1.1810001
-0.26163152 -0.14801463 1.189
-0.25727463 -0.14416376 1.1846365
-0.25372794 -0.13480276 1.1871333
-0.24720053 -0.13323422 1.1818001
-0.25190285 -0.12577771 1.189
-0.24513158 -0.12567577 1.1847999
-0.23812896 -0.12217051 1.1810001
-0.25120795 -0.11987101 1.189
-0.24468099 -0.11640385 1.1876667
-0.23679787 -0.11496092 1.1827501
-0.24078439 -0.10944745 1.189
-0.23348504 -0.10570474 1.1850001
-0.22881088 -0.10042831 1.1810001
-0.23036082 -0.099023886 1.189
-0.2282761 -0.096939169 1.189
-0.20951369 -0.071922608 1.189
-0.033372067 -0.041661832 1.1822
-0.028017389 -0.042540252 1.1836667
-0.054894488 -0.033844382 1.1836666
-0.044651575 -0.033693884 1.1844544
-0.035758905 -0.035372842 1.1867501
-0.057782557 -0.025261538 1.1841111
-0.04065191 -0.028143629 1.189
-0.037524842 -0.028143629 1.189
-0.12113517 -0.011388777 1.1810001
-0.11322892 -0.013647708 1.181
-0.10495458 -0.015350387 1.184158
-0.097898245 -0.018745765 1.1880001
-0.061602928 -0.012941793 1.1810001
-0.057637181 -0.015055436 1.1846668
-0.11431493 -0.0068491632 1.1847333
-0.10770603 -0.006665471 1.1882001
-0.079721436 -0.0010353433 1.1810001
-0.062707238 -0.0046637203 1.1823334
-0.0583327 -0.0052054711 1.1882001
-0.075361378 0.0048152111 1.1835455
-0.065526895 0.0041632899 1.1865001
-0.059414331 0.0010423567 1.189
-0.23218167 -0.27192447 1.1930001
-0.22904406 -0.27087861 1.1930001
-0.25278902 -0.26220709 1.194
-0.24996133 -0.26355755 1.1930001
-0.25509638 -0.25483143 1.1950002
-0.25613591 -0.24489182 1.195182
-0.26129314 -0.23610824 1.197
-0.25755113 -0.23520353 1.194778
-0.25562018 -0.22523756 1.1950001
-0.24996133 -0.22067717 1.1930001
-0.2522985 -0.21632014 1.1969999
-0.24828796 -0.21440199 1.1930001
-0.25517926 -0.20393437 1.1956668
-0.24996133 -0.20603508 1.1930001
-0.27283621 -0.19203471 1.197
-0.2650086 -0.19416118 1.1948181
-0.25693378 -0.19836541 1.1930001
-0.2801818 -0.18259038 1.197
-0.27509713 -0.18600014 1.1945385
-0.26774102 -0.18930127 1.1930001
-0.2801818 -0.17734353 1.197
-0.27657256 -0.17495199 1.1950001
-0.27417588 -0.16504899 1.1945999
-0.27185741 -0.15661782 1.1950001
-0.26923749 -0.15085503 1.1950001
-0.26483786 -0.14561591 1.1950001
-0.26183784 -0.13516769 1.1952224
-0.25780529 -0.13282464 1.1930001
-0.26129314 -0.12802313 1.197
-0.25662678 -0.12438601 1.194
-0.2526567 -0.11516857 1.1958572
-0.24849527 -0.11307713 1.1943333
-0.24367213 -0.10768557 1.1955001
-0.23798852 -0.10611998 1.1938
-0.2340095 -0.099690147 1.197
-0.17390437 -0.038761817 1.1950001
-0.051247302 -0.030330036 1.1930001
-0.031968232 -0.032665476 1.1934444
-0.027510459 -0.033796158 1.1955001
-0.053180113 -0.024829509 1.1937273
-0.045601223 -0.025765875 1.1948667
-0.034251757 -0.024815608 1.1961114
-0.026425045 -0.024898689 1.1970001
-0.10144874 -0.013596223 1.1930001
-0.095664605 -0.015178824 1.1942501
-0.053862691 -0.016171869 1.1943333
-0.034629211 -0.019938029 1.197
-0.026234249 -0.019938029 1.197
-0.12067755 -0.0041974802 1.197
-0.11587312 -0.0017442744 1.1943334
-0.10405 -0.0042555155 1.1940666
-0.09839759 -0.00608319 1.1966002
-0.085698552 -0.0080451695 1.197
-0.054474317 -0.0052380832 1.1950001
-0.11228258 0.0037477498 1.1969999
-0.10619759 0.00298505 1.1957694
-0.099690147 0.00104937 1.197
-0.073210433 0.0094127702 1.1930001
-0.06414628 0.0087155281 1.193
-0.056407452 0.0054587265 1.1951056
-0.07236737 0.012586012 1.1963334
-0.064913325 0.013952826 1.1957692
-0.058286436 0.01333648 1.1964285
-0.26114321 -0.26114321 1.2060001
-0.25816956 -0.26027706 1.202
-0.2648097 -0.25524539 1.2049474
-0.25816956 -0.25816956 1.202
-0.27213874 -0.24507287 1.2060001
-0.26486501 -0.24545245 1.2031999
-0.27171582 -0.23894075 1.2060001
-0.26628986 -0.23545668 1.2043999
-0.26279166 -0.22512126 1.2046667
-0.25816956 -0.22234195 1.202
-0.26174736 -0.21553001 1.2060002
-0.25652406 -0.21432365 1.2033333
-0.26345551 -0.20455858 1.2040001
-0.25606206 -0.20864317 1.202
-0.282947 -0.19208293 1.2052001
-0.27548549 -0.19527137 1.204
-0.26735002 -0.19879819 1.2030001
-0.28557643 -0.18510444 1.2041177
-0.28564933 -0.17428902 1.204
-0.28369835 -0.16618538 1.2050771
-0.27840164 -0.16417477 1.202
-0.2801739 -0.15858901 1.2060001
-0.27563629 -0.1550924 1.2034999
-0.2719585 -0.14643736 1.2052
-0.26846442 -0.14277147 1.2028
-0.26704434 -0.13580911 1.2040001
-0.26317355 -0.12490044 1.2040001
-0.26114321 -0.11841312 1.2060001
-0.25664592 -0.1142095 1.2035
-0.25404009 -0.1079075 1.2044001
-0.24563852 -0.10445764 1.2036002
-0.23854451 -0.10132688 1.204
-0.23304488 -0.096103109 1.2046667
-0.22846693 -0.095399447 1.2046667
-0.21285993 -0.072360069 1.205
-0.20665078 -0.065719612 1.2026666
-0.19488828 -0.052510578 1.2060001
-0.19182765 -0.047902118 1.2036
-0.18513517 -0.043696571 1.204
-0.18163726 -0.037427001 1.2060001
-0.17498958 -0.033603247 1.2045882
-0.16643317 -0.033194609 1.2048572
-0.15894143 -0.03136538 1.2060001
-0.17021886 -0.02854602 1.2060001
-0.16368307 -0.025854815 1.2060002
-0.15554442 -0.023716541 1.2047272
-0.14787672 -0.020723814 1.202
-0.051633913 -0.020021314 1.202
-0.044893317 -0.020980192 1.2033334
-0.15390684 -0.017067198 1.2060002
-0.14611913 -0.014485244 1.2038182
-0.092730299 -0.011591286 1.202
-0.088866532 -0.012293789 1.202
-0.051633913 -0.015103797 1.202
-0.049650017 -0.014790243 1.205
-0.035243049 -0.01666964 1.2035999
-0.027488761 -0.017973419 1.2060001
-0.14132042 -0.0088104997 1.2060001
-0.13480888 -0.0060529844 1.2056365
-0.12490163 -0.0031665198 1.204
-0.094006382 -0.0047091022 1.2030666
-0.086833082 -0.004519592 1.2037143
-0.051702641 -0.0052799881 1.2036
-0.1156089 0.0056624697 1.2038182
-0.10334268 0.0073886816 1.2038461
-0.096861146 0.0024663555 1.2053334
-0.084580801 0.00105726 1.2060001
-0.051633913 0.0052687665 1.202
-0.049691219 0.0042290399 1.2060001
-0.1110123 0.01162986 1.2060001
-0.10784052 0.01162986 1.2060001
-0.071382292 0.016528673 1.2033334
-0.064278953 0.017913807 1.202
-0.0539749 0.015297542 1.2033334
-0.063620575 0.020855902 1.2045
-0.056515194 0.020599915 1.205
-0.27155626 -0.25564477 1.21
-0.26837397 -0.25458401 1.21
-0.27473855 -0.2418548 1.21
-0.2810567 -0.23831044 1.2190001
-0.27480873 -0.2347635 1.2138126
-0.26837397 -0.23018636 1.21
-0.27263489 -0.225637 1.218375
-0.26796249 -0.22442083 1.2113334
-0.27072635 -0.21408756 1.219
-0.26578695 -0.21480438 1.2115
-0.29054663 -0.20114766 1.2140001
-0.28212535 -0.20197611 1.2190001
-0.27480671 -0.20404692 1.2162726
-0.26796249 -0.20707743 1.2113334
-0.30670446 -0.19877014 1.2190001
-0.29416987 -0.19569378 1.2164999
-0.28636688 -0.19665073 1.2135834
-0.27898163 -0.19836336 1.21
-0.30124244 -0.18535258 1.219
-0.29436314 -0.18541655 1.2128462
-0.30029252 -0.17739701 1.2190001
-0.29418585 -0.17562747 1.2120714
-0.29204604 -0.16713445 1.2143334
-0.2867226 -0.16282855 1.2113334
-0.28402343 -0.15510005 1.2164445
-0.27891237 -0.15193862 1.2120001
-0.28248158 -0.14604974 1.219
-0.27658156 -0.14510259 1.2130001
-0.2810567 -0.13892537 1.2190001
-0.27493912 -0.13533325 1.2155555
-0.26837397 -0.1304743 1.21
-0.27189678 -0.12655948 1.219
-0.26755831 -0.12451998 1.2140001
-0.26479936 -0.1161443 1.2155001
-0.25988784 -0.11244127 1.21
-0.26128393 -0.10877724 1.2165
-0.25348145 -0.10396731 1.2143334
-0.24601664 -0.10159105 1.2113334
-0.25113431 -0.099385068 1.2190001
-0.24441585 -0.096967697 1.2155455
-0.23553158 -0.093276255 1.2123077
-0.22806484 -0.091225937 1.21
-0.23296715 -0.088698506 1.2190001
-0.22762387 -0.085492536 1.2190001
-0.22233434 -0.077192836 1.2173334
-0.21807741 -0.07454823 1.2105001
-0.21448191 -0.067822002 1.2151667
-0.20767562 -0.062338304 1.2190001
-0.20197611 -0.053432833 1.2190001
-0.19926502 -0.053284675 1.2155001
-0.19592173 -0.044566594 1.2145714
-0.18881646 -0.042430669 1.21
-0.19228669 -0.037357897 1.2175714
-0.18551636 -0.034185212 1.2110667
-0.18481258 -0.026141055 1.2153077
-0.17529102 -0.024429275 1.211826
-0.1670118 -0.022511827 1.21
-0.17253093 -0.017429886 1.2173334
-0.16434036 -0.015334755 1.214
-0.15528359 -0.013087075 1.2104446
-0.1495681 -0.011668433 1.21
-0.044588145 -0.014860815 1.211
-0.034591161 -0.012945211 1.2104001
-0.025212433 -0.014429684 1.2128571
-0.16243581 -0.0096179098 1.2190001
-0.1541153 -0.0068889628 1.2157333
-0.14521216 -0.0054454152 1.2135001
-0.13562691 -0.0018572183 1.2110001
-0.1276456 -0.0017679444 1.21
-0.090165168 -0.0010607666 1.21
-0.046168804 -0.0056022434 1.2150871
-0.035878241 -0.0070656054 1.2171249
-0.025072332 -0.006987371 1.219
-0.14213133 0.0010686567 1.2190001
-0.13452441 0.0039531477 1.2161177
-0.12489265 0.0052230051 1.2144998
-0.11858203 0.0074358862 1.2113334
-0.09357845 0.0062030167 1.2108421
-0.086377747 0.0055049551 1.2139167
-0.048093408 0.0048914491 1.2138
-0.12075821 0.011755223 1.2190001
-0.11465076 0.014557487 1.2146667
-0.10483954 0.015233789 1.2120557
-0.096133567 0.014171879 1.2165
-0.088698506 0.011755223 1.2190001
-0.050020847 0.0159641 1.2140001
-0.048403397 0.014292998 1.2162001
-0.11007164 0.021373134 1.2190001
-0.10461767 0.020283656 1.2177501
-0.071306311 0.020221192 1.2140001
-0.064227432 0.025774676 1.2132308
-0.053721301 0.025169268 1.2129524
-0.048089549 0.023510449 1.2190001
-0.062453952 0.031493593 1.2177501
-0.055798244 0.032899383 1.2176363
-0.28342697 -0.23493326 1.2252858
-0.27876246 -0.23158729 1.223
-0.28074986 -0.22804204 1.2270001
-0.27695784 -0.22435433 1.2245001
-0.27547902 -0.21514209 1.2246001
-0.30449438 -0.20049454 1.223
-0.29561856 -0.20226847 1.2240001
-0.28434697 -0.20578159 1.2252858
-0.27769029 -0.20835705 1.223
-0.30504614 -0.19534573 1.2239411
-0.29913357 -0.1962059 1.223
-0.30630979 -0.18554352 1.2234
-0.30255476 -0.176267 1.2260001
-0.29796058 -0.17103153 1.2270001
-0.2915878 -0.16207083 1.2243334
-0.29174677 -0.15415218 1.2262001
-0.28798309 -0.15374823 1.223
-0.29234469 -0.14643906 1.2260001
-0.28662497 -0.14384855 1.2229999
-0.28537765 -0.13494281 1.2244285
-0.27983463 -0.1318761 1.223
-0.2826367 -0.12788351 1.2258574
-0.27605474 -0.12497482 1.2236665
-0.27125731 -0.11901013 1.223
-0.2683503 -0.1136544 1.2254001
-0.26182088 -0.10565849 1.2256669
-0.25773999 -0.10202033 1.2250001
-0.25250658 -0.095985651 1.2256668
-0.2456146 -0.092834815 1.2234445
-0.24417709 -0.088742778 1.2270001
-0.23483518 -0.085008219 1.2254001
-0.22751305 -0.082127705 1.223
-0.23126905 -0.078523912 1.2270001
-0.22539978 -0.075132087 1.2243334
-0.22122945 -0.066332988 1.2270001
-0.21550278 -0.063898243 1.2240909
-0.20585537 -0.061113309 1.223
-0.21262412 -0.05665195 1.2270001
-0.20640191 -0.054846797 1.2241111
-0.20482145 -0.045809094 1.2255456
-0.20164882 -0.039039429 1.2256669
-0.19596954 -0.034985133 1.2242
-0.19284357 -0.028265193 1.2243334
-0.18572831 -0.021685753 1.2246001
-0.18178824 -0.01828639 1.2270001
-0.1745417 -0.014912976 1.2247779
-0.16832964 -0.011793797 1.223
-0.17174864 -0.0089639165 1.2270001
-0.1648646 -0.0055096159 1.2248666
-0.15626781 -0.0024123674 1.223
-0.14795855 -0.0010721633 1.223
-0.041814368 -0.0021443267 1.223
-0.034201395 -0.0022638454 1.2234445
-0.026816608 -0.0022979937 1.2235715
-0.15402792 0.0024198191 1.2265002
-0.14517021 0.0054794298 1.2247999
-0.13668407 0.0087980507 1.2238001
-0.12865961 0.0096494695 1.223
-0.082556568 0.0085773068 1.223
-0.043704055 0.0058677997 1.225154
-0.036628421 0.0042391992 1.2267647
-0.026891751 0.00215134 1.2270001
-0.14198844 0.011832369 1.2270001
-0.13411394 0.014552257 1.2264668
-0.12464388 0.014506935 1.2256668
-0.1184251 0.017531872 1.2243334
-0.092663966 0.016817098 1.2243334
-0.086348265 0.013974358 1.2261112
-0.044769321 0.014684849 1.2256669
-0.039799791 0.011832369 1.2270001
-0.13230741 0.02043773 1.2270001
-0.11341465 0.021110425 1.2243334
-0.10327236 0.02434328 1.225
-0.096191809 0.021496745 1.2260002
-0.073028088 0.02147658 1.2250001
-0.068618454 0.026804082 1.223
-0.045908622 0.024432044 1.2250001
-0.063719638 0.034365918 1.2250001
-0.054375947 0.036538765 1.2258002
-0.048405148 0.0322701 1.2270001
-0.059161849 0.041951131 1.2270001
-0.29053435 -0.23437157 1.2320001
-0.28661337 -0.23253356 1.2337143
-0.28330991 -0.22530544 1.2344
-0.27973381 -0.22141093 1.2320001
-0.28391674 -0.214601 1.2354287
-0.27973381 -0.21817078 1.2320001
-0.28837425 -0.20629019 1.2320001
-0.3121354 -0.19440959 1.2320001
-0.3121354 -0.18900934 1.2320001
-0.30925524 -0.18108894 1.2320001
-0.31098172 -0.17770383 1.2360001
-0.30494455 -0.17409767 1.2335001
-0.30014613 -0.16686824 1.2360001
-0.29713565 -0.16515289 1.2340001
-0.30014613 -0.15386552 1.2360001
-0.29683626 -0.15544833 1.2335001
-0.30086851 -0.14700298 1.2360001
-0.2963644 -0.14439651 1.233143
-0.2932893 -0.13636155 1.2345002
-0.28280917 -0.1246094 1.2360001
-0.27973381 -0.12204602 1.2320001
-0.27447098 -0.11700906 1.2336
-0.26980644 -0.11160668 1.2360001
-0.26432261 -0.10421404 1.2340002
-0.26113796 -0.098603956 1.2360001
-0.25651866 -0.094976567 1.233143
-0.25226521 -0.088237382 1.2350001
-0.24479879 -0.085594222 1.2330911
-0.23823006 -0.081811696 1.2333335
-0.23359425 -0.076581322 1.2342223
-0.2275362 -0.071880527 1.233
-0.22429633 -0.06563019 1.2340001
-0.21925083 -0.061563041 1.2320001
-0.22212979 -0.059595801 1.2360001
-0.21701899 -0.055162732 1.2338183
-0.21250986 -0.046180461 1.2346667
-0.20824866 -0.042188708 1.2340001
-0.20392057 -0.035697866 1.2340001
-0.19872981 -0.032401599 1.2320001
-0.19514449 -0.025492966 1.2337143
-0.189623 -0.02058764 1.2360001
-0.18364649 -0.016595883 1.2346667
-0.17768162 -0.01261348 1.2333335
-0.17417087 -0.0064890869 1.2340001
-0.16758943 -0.0018012576 1.2333335
-0.16286923 0.0019469013 1.2336
-0.15417001 0.0068455976 1.2326669
-0.14796731 0.0097204801 1.2320001
-0.033224355 0.0078343321 1.2325002
-0.025183877 0.0068014301 1.2337143
-0.15117474 0.012628675 1.2346667
-0.1451086 0.014308368 1.2342224
-0.13587071 0.01663282 1.2320001
-0.12636624 0.018360907 1.2320001
-0.083703436 0.016439954 1.2336003
-0.077609546 0.016200799 1.2320002
-0.042122081 0.016200801 1.2320001
-0.037068333 0.014454798 1.2338184
-0.023115948 0.013002721 1.2360001
-0.13208473 0.022196323 1.2350001
-0.1254589 0.022712389 1.2336668
-0.11689999 0.023337219 1.2324002
-0.10908539 0.024841227 1.2320001
-0.094628483 0.026552208 1.234154
-0.088635288 0.023694936 1.2346668
-0.073966116 0.024171455 1.2346667
-0.042934459 0.02417496 1.2346668
-0.065061994 0.036962371 1.2328001
-0.052922618 0.039241936 1.2320001
-0.047366653 0.034822606 1.2336
-0.062846482 0.04117528 1.2360001
-0.054899868 0.042529356 1.2348573
-0.29094902 -0.23101392 1.243
-0.29141715 -0.22811306 1.245
-0.28791046 -0.22683662 1.2440001
-0.28705135 -0.21719855 1.245
-0.31006384 -0.17515887 1.2410001
-0.30778891 -0.17135765 1.245
-0.30353618 -0.16863121 1.2410001
-0.29918441 -0.16210355 1.2410001
-0.30233166 -0.15826026 1.245
-0.27177104 -0.11023645 1.245
-0.27177104 -0.10805355 1.245
-0.26849669 -0.1047792 1.245
-0.26348537 -0.097035013 1.2436666
-0.25784257 -0.092475183 1.2410001
-0.25321639 -0.085133098 1.245
-0.24771813 -0.082571313 1.2426001
-0.24295676 -0.077929534 1.245
-0.23622602 -0.074136779 1.2436666
-0.23084167 -0.067124173 1.245
-0.22684014 -0.062162675 1.244
-0.22383083 -0.054411482 1.2441111
-0.21867661 -0.051133335 1.2410001
-0.22156435 -0.049115248 1.245
-0.21657488 -0.04506129 1.245
-0.21064985 -0.0371093 1.245
-0.20666583 -0.033263803 1.244
-0.20284751 -0.02835403 1.244
-0.19728343 -0.021955365 1.2432858
-0.19372265 -0.017610606 1.2444285
-0.18592961 -0.013558651 1.2444285
-0.18096241 -0.0067669898 1.245
-0.17571166 -0.0035771758 1.2427143
-0.17190337 0.0027286252 1.245
-0.16503093 0.0050164619 1.2434
-0.15663783 0.0083596008 1.2436666
-0.15607736 0.01200595 1.245
-0.032441046 0.01676625 1.2418001
-0.025741836 0.016521594 1.2434616
-0.018495036 0.018495036 1.2410001
-0.12511349 0.027198583 1.2410001
-0.083299033 0.026052224 1.2428182
-0.076950356 0.026771177 1.2443846
-0.040340398 0.027259365 1.2436666
-0.035991356 0.023874262 1.2441112
-0.022920448 0.022647586 1.245
-0.018509941 0.023956671 1.2420001
-0.091947436 0.033801053 1.2436666
-0.086904846 0.033090368 1.2443333
-0.0720357 0.031652048 1.245
-0.041792545 0.035252418 1.2436666
-0.062212646 0.04474945 1.245
-0.054065783 0.047310017 1.2434001
-0.045046866 0.044706255 1.243737
-0.30194154 -0.23141193 1.2570001
-0.29550973 -0.2319514 1.25
-0.30208483 -0.22561066 1.2581111
-0.29485878 -0.22486292 1.2539446
-0.28820416 -0.22135833 1.25
-0.30175796 -0.21610904 1.2590001
-0.29566866 -0.21531646 1.2555002
-0.30792916 -0.16985416 1.25
-0.29027924 -0.12251329 1.2590001
-0.28706503 -0.12296039 1.2546
-0.28298226 -0.11561193 1.256
-0.27779594 -0.11440572 1.2508334
-0.28232962 -0.10587153 1.258
-0.27520874 -0.10405743 1.2544377
-0.26847917 -0.1019125 1.25
-0.27240312 -0.097049624 1.2580001
-0.26634043 -0.095372237 1.254125
-0.25971249 -0.09095417 1.25
-0.26204121 -0.088571094 1.2576667
-0.25677294 -0.083712898 1.2546668
-0.25223064 -0.07775788 1.2564001
-0.24612382 -0.075285681 1.2556
-0.23779583 -0.071959727 1.25
-0.2417154 -0.068430841 1.2590001
-0.2357035 -0.06491036 1.2549999
-0.22902916 -0.060270835 1.25
-0.23288564 -0.055186167 1.2589999
-0.22893931 -0.05490125 1.2525001
-0.23067817 -0.049667548 1.2590001
-0.22450979 -0.045117836 1.2553571
-0.21763104 -0.041330453 1.2516667
-0.21514851 -0.035591401 1.2556666
-0.20930417 -0.031779166 1.25
-0.21132369 -0.025726661 1.2576667
-0.2061194 -0.02452592 1.2528334
-0.20324945 -0.017580526 1.2531667
-0.19505832 -0.013697918 1.25
-0.18957916 -0.012054167 1.25
-0.19220792 -0.0076858625 1.2528572
-0.18561758 -0.0053266892 1.2517859
-0.17862083 -0.0010958334 1.25
-0.18263596 0.0011002166 1.2550001
-0.1755289 0.0053302688 1.2532308
-0.16552591 0.0091569293 1.2531667
-0.15889584 0.0098625002 1.25
-0.165299 0.01212167 1.2570001
-0.15702195 0.013174108 1.2525001
-0.033777092 0.026761126 1.251
-0.026261326 0.026391793 1.2511765
-0.018629167 0.0295875 1.25
-0.09095417 0.038354166 1.25
-0.083729334 0.036382761 1.25125
-0.075606741 0.035269123 1.2521877
-0.069037497 0.037258334 1.25
-0.035358772 0.034925353 1.2528001
-0.025372887 0.033594903 1.2582726
-0.01737619 0.036134228 1.2585
-0.084986702 0.040837765 1.2590001
-0.074832439 0.041279253 1.2590001
-0.065435998 0.045452293 1.2534546
-0.041093752 0.046572916 1.25
-0.037148397 0.044186629 1.2538
-0.061302815 0.054332439 1.2561668
-0.055010229 0.055014275 1.2549376
-0.045049004 0.054945696 1.2534001
-0.038568951 0.054000035 1.2570001
-0.051874995 0.060704783 1.2590001
-0.045726445 0.061664443 1.2585555
-0.30472934 -0.22051322 1.2640001
-0.30472934 -0.218297 1.2640001
-0.29254016 -0.12078363 1.2640001
-0.29189143 -0.1170876 1.266
-0.28810772 -0.11524309 1.2640001
-0.2825672 -0.10083771 1.2640001
-0.27467602 -0.094352327 1.2662222
-0.26807415 -0.091328792 1.2653333
-0.26404998 -0.0845287 1.2662858
-0.26122913 -0.078924544 1.268
-0.25445917 -0.073937371 1.2664
-0.24810718 -0.071361832 1.2653333
-0.25011301 -0.067808412 1.268
-0.24389216 -0.065479986 1.266
-0.23824294 -0.060945865 1.2640001
-0.24122009 -0.058915507 1.268
-0.2370626 -0.055659913 1.2648
-0.23290502 -0.044752862 1.2657778
-0.22826996 -0.042108051 1.2640001
-0.22298445 -0.035395656 1.2654545
-0.218297 -0.033243202 1.2640001
-0.22121105 -0.027790334 1.268
-0.21673127 -0.02617551 1.2651999
-0.17618895 0.0099729598 1.2640001
-0.17175654 0.012189173 1.2640001
-0.032135092 0.038783733 1.2640001
-0.025486453 0.037552502 1.2640001
-0.090040676 0.043352921 1.268
-0.083893493 0.044247124 1.2662857
-0.074944042 0.04496906 1.2665
-0.068702608 0.04654048 1.2640001
-0.032906558 0.04474156 1.2653333
-0.02490109 0.043306082 1.2665713
-0.017379429 0.044249851 1.2653333
-0.06410303 0.055951204 1.268
-0.037733484 0.055491246 1.266
-0.017785814 0.050022598 1.268
-0.061074447 0.063297667 1.2666668
-0.055687968 0.06456124 1.2653333
-0.045599941 0.066976592 1.2642858
-0.038824644 0.063231044 1.2653333
-0.053054273 0.072659083 1.2679999
-0.045329124 0.073737025 1.268
-0.29241917 -0.11315838 1.2780001
-0.28290164 -0.096907467 1.2754999
-0.27648205 -0.091042489 1.27425
-0.27297959 -0.085360795 1.2766362
-0.2674672 -0.08369974 1.273
-0.26406631 -0.077205397 1.2763333
-0.25738874 -0.071143836 1.2746667
-0.25399458 -0.067507133 1.2763335
-0.24743763 -0.063674271 1.27425
-0.24288467 -0.055402923 1.2767501
-0.23929012 -0.052550469 1.2755001
-0.23705812 -0.048082098 1.2755001
-0.090395726 0.045755863 1.273
-0.0855546 0.047579151 1.2739999
-0.075887777 0.047987856 1.273
-0.032921899 0.04742986 1.273
-0.025667924 0.04742986 1.273
-0.082908124 0.050417099 1.2780001
-0.074130058 0.050657596 1.2746667
-0.06750714 0.05259211 1.2763335
-0.034358319 0.053031322 1.278
-0.026889119 0.050417099 1.2780001
-0.063315317 0.065552577 1.276
-0.037719462 0.064608581 1.2780001
-0.061540533 0.07273265 1.2763335
-0.056282002 0.076731533 1.2741538
-0.043332856 0.076611511 1.2746665
-0.03909824 0.075959004 1.27425
-0.052048355 0.082267933 1.2767501
-0.047366589 0.082428001 1.2763335
-0.29751831 -0.11720551 1.2855
-0.28455722 -0.092972696 1.2855
-0.28136456 -0.086400606 1.2855
-0.27752483 -0.082185522 1.2842501
-0.27385005 -0.078884654 1.2855
-0.26613382 -0.074425787 1.2863334
-0.26158562 -0.06661965 1.2880001
-0.25612596 -0.064499289 1.2857778
-0.24857269 -0.061861984 1.2830001
-0.2517997 -0.059844773 1.2880001
-0.24687298 -0.055880111 1.2858572
-0.24294889 -0.048364822 1.2830001
-0.084315166 0.053364329 1.2872858
-0.074882992 0.055882614 1.2858573
-0.067764223 0.057859302 1.284
-0.032946993 0.055759612 1.2848752
-0.025174748 0.053482123 1.2857778
-0.0169372 0.053069893 1.2880001
-0.071136236 0.065490499 1.2880001
-0.067651816 0.065396808 1.2861251
-0.036132693 0.064361356 1.2880001
-0.064689845 0.07528016 1.2855
-0.039366715 0.070860088 1.2830001
-0.064361364 0.08129856 1.2880001
-0.055817019 0.086165577 1.2853334
-0.044461764 0.086243428 1.2853078
-0.039520133 0.085815147 1.2880001
-0.053041715 0.092700608 1.2872858
-0.047124691 0.092673823 1.286
-0.31571719 -0.12772711 1.2970001
-0.30586287 -0.12317897 1.2970001
-0.30283073 -0.1178728 1.2970001
-0.29448986 -0.11213268 1.2920001
-0.29524967 -0.10787676 1.2953334
-0.29221842 -0.09778516 1.2970001
-0.28882658 -0.094010226 1.2920001
-0.2854239 -0.085467815 1.293
-0.28199735 -0.074564584 1.2953334
-0.27572569 -0.074099787 1.2943077
-0.26768374 -0.072112262 1.2920001
-0.27440485 -0.068601213 1.2970001
-0.26697505 -0.066671595 1.2945
-0.25597966 -0.060030628 1.2920001
-0.25258169 -0.056632668 1.2920001
-0.09428528 0.046571381 1.29575
-0.092099972 0.052303687 1.2970001
-0.086167127 0.056121126 1.29325
-0.03058164 0.05776532 1.2920001
-0.023265418 0.056744441 1.2945001
-0.081487626 0.06102097 1.2970001
-0.074711718 0.064310804 1.2945
-0.033565562 0.063729405 1.2948571
-0.026115315 0.060943529 1.2953334
-0.073369727 0.074956313 1.2955
-0.069091856 0.074755117 1.2920001
-0.037522208 0.072770342 1.2970001
-0.072770342 0.081866637 1.2970001
-0.065822318 0.08511512 1.2945
-0.05776532 0.08947961 1.2920001
-0.060717762 0.095738493 1.2970001
-0.055346694 0.096945494 1.2942222
-0.045065705 0.095519185 1.29325
-0.039642867 0.091744922 1.2920001
-0.060262945 0.10119626 1.2970001
-0.054310899 0.10157305 1.296
-0.048892576 0.10119626 1.2970001
-0.31430653 -0.12493192 1.3047779
-0.30819598 -0.1230463 1.3036667
-0.3022601 -0.11417935 1.3050001
-0.30134627 -0.10770551 1.307
-0.29608434 -0.10249952 1.302
-0.29791063 -0.099303536 1.302
-0.11228873 0.033801198 1.307
-0.10604627 0.036997963 1.3053335
-0.098162115 0.0399497 1.302
-0.10512329 0.044764891 1.305125
-0.097876757 0.045942154 1.302
-0.10340875 0.054139204 1.307
-0.096129827 0.055422224 1.3043332
-0.02396982 0.058212418 1.302
-0.09235175 0.061644219 1.307
-0.084847368 0.065332063 1.3043333
-0.078187265 0.067914493 1.302
-0.032500915 0.067783237 1.304143
-0.024948748 0.065840907 1.3040588
-0.018281348 0.068552047 1.3032501
-0.082334153 0.07513196 1.307
-0.077997036 0.075333722 1.302
-0.034756035 0.072949477 1.307
-0.016412223 0.074813128 1.3061668
-0.081810355 0.08547692 1.307
-0.076145075 0.085281551 1.3028334
-0.0684852 0.087889336 1.302
-0.082727 0.09235175 1.307
-0.075208947 0.094681263 1.3064443
-0.066756703 0.095107712 1.3053333
-0.043047547 0.098669708 1.3036667
-0.074018896 0.10289314 1.307
-0.064942949 0.10518122 1.3049411
-0.054968439 0.106511 1.3038182
-0.046495926 0.10495797 1.305182
-0.060727578 0.11114293 1.307
-0.054998562 0.11114293 1.307
-0.32212502 -0.12353899 1.317
-0.3158651 -0.1218756 1.3140001
-0.31218904 -0.11605944 1.316
-0.30709982 -0.11425187 1.3120002
-0.30538291 -0.10532825 1.3145001
-0.27397448 -0.063720331 1.312
-0.26684332 -0.063260265 1.312
-0.11510734 0.035402305 1.3148572
-0.13970298 0.049646508 1.317
-0.12122985 0.045028228 1.317
-0.11526392 0.044952173 1.3147501
-0.10926773 0.04830784 1.312
-0.11353271 0.0550345 1.317
-0.1079341 0.05612639 1.3132502
-0.11353271 0.064527638 1.317
-0.10496877 0.064596966 1.3157499
-0.095213413 0.0656766 1.3142729
-0.11265305 0.074057408 1.317
-0.10638539 0.071418397 1.317
-0.091788314 0.072160617 1.317
-0.087222435 0.075287178 1.3138183
-0.034465469 0.077004649 1.3153334
-0.024900137 0.074474767 1.3150002
-0.019553173 0.075912319 1.312
-0.091211028 0.086592749 1.317
-0.086060837 0.084908456 1.3132502
-0.0923656 0.094674736 1.317
-0.086116247 0.095114201 1.3129092
-0.079362877 0.097765863 1.312
-0.040409949 0.09698388 1.317
-0.091211028 0.10160216 1.317
-0.084464088 0.10398733 1.3150002
-0.076019093 0.10678495 1.3137858
-0.042556908 0.10581717 1.312
-0.083129041 0.11199329 1.317
-0.074223273 0.11467863 1.3160001
-0.064859621 0.11431749 1.3147274
-0.055356681 0.11463583 1.3155001
-0.046735365 0.11537891 1.3150771
-0.077356189 0.12353899 1.317
-0.072737902 0.13277555 1.317
-0.065810487 0.13369921 1.317
-0.32291752 -0.12196625 1.325
-0.32248709 -0.11816765 1.3280001
-0.3161408 -0.11521479 1.3237144
-0.31223753 -0.1046569 1.3265001
-0.30828157 -0.10198789 1.322
-0.12457082 0.029105334 1.3280001
-0.11937219 0.028973833 1.322
-0.14425637 0.036062561 1.3270001
-0.1346772 0.036286507 1.3274547
-0.12520133 0.035070173 1.3248001
-0.11937219 0.034768596 1.322
-0.15064919 0.044938635 1.3280001
-0.14399867 0.044985913 1.3229476
-0.13456324 0.045237571 1.3232002
-0.12578051 0.045199174 1.3220003
-0.15215372 0.054897137 1.3279999
-0.14387524 0.055692218 1.3235002
-0.13470849 0.055743165 1.3246253
-0.12516697 0.055629745 1.3220003
-0.1183788 0.056126453 1.3219999
-0.1517358 0.063255586 1.3280001
-0.14420137 0.0651256 1.3264999
-0.1345066 0.064842656 1.3275716
-0.12534614 0.064996399 1.3238752
-0.1183788 0.065066949 1.3219999
-0.14396918 0.074750274 1.3262353
-0.13486753 0.074708186 1.3255292
-0.12564437 0.075025238 1.3256667
-0.11647227 0.076281928 1.3224003
-0.10430578 0.076490916 1.3220003
-0.095758505 0.076056316 1.3220003
-0.031291738 0.078808829 1.322
-0.028201198 0.078422509 1.322
-0.018543255 0.079967782 1.322
-0.14357905 0.085402064 1.3272001
-0.13466965 0.085027792 1.3248421
-0.1252293 0.085243158 1.3240001
-0.11476292 0.085781731 1.3223003
-0.10430579 0.085762538 1.3220003
-0.09553086 0.085596979 1.3220003
-0.088466763 0.085376225 1.322
-0.036024339 0.084837139 1.3256
-0.025612693 0.080912828 1.3280001
-0.14268082 0.095853567 1.3280001
-0.13424276 0.09537594 1.3279999
-0.12569985 0.095439523 1.327625
-0.11492232 0.095188022 1.3241003
-0.10430577 0.09503416 1.3220003
-0.096424922 0.095034175 1.3220001
-0.1434311 0.10547773 1.3280001
-0.13233225 0.10477921 1.3280001
-0.12573506 0.10477919 1.3279998
-0.11525712 0.1047792 1.3279997
-0.10448727 0.1044853 1.32425
-0.09553086 0.10463691 1.3220003
-0.088466763 0.10701003 1.322
-0.040624734 0.10485518 1.324
-0.14506099 0.11292869 1.3280001
-0.13155611 0.11176448 1.3280001
-0.12612312 0.11215255 1.3280001
-0.11396357 0.11499841 1.3279997
-0.10471056 0.1151806 1.3271
-0.095165126 0.11489733 1.3238002
-0.086342014 0.11560556 1.3220003
-0.077649876 0.11798145 1.322
-0.064901389 0.11937219 1.322
-0.05562976 0.11937219 1.322
-0.043718785 0.11413381 1.324
-0.11443532 0.12566654 1.3279998
-0.1047792 0.12573506 1.3279998
-0.095465489 0.12573504 1.3279998
-0.085863143 0.12531096 1.3235002
-0.075209968 0.12522796 1.3220003
-0.064901397 0.12516695 1.3220003
-0.055629745 0.12516697 1.3220003
-0.046982184 0.12454292 1.3220003
-0.11504545 0.13367285 1.3280001
-0.1047792 0.13155611 1.3280001
-0.09406843 0.13435021 1.3280001
-0.086033762 0.13486038 1.3261251
-0.075741008 0.13464312 1.3220003
-0.064374596 0.13454396 1.3220001
-0.055861536 0.13420682 1.3220003
-0.049062356 0.13173437 1.322
-0.093137063 0.14319824 1.3280001
-0.084987566 0.14436245 1.3279997
-0.074281178 0.14391701 1.3238752
-0.064900674 0.14420517 1.3234119
-0.057930879 0.14292096 1.3254286
-0.083657041 0.15118141 1.3280001
-0.076339126 0.15217932 1.3280001
-0.06597209 0.15134773 1.3280001
-0.32475337 -0.11332418 1.3361251
-0.31824782 -0.11179575 1.3330001
-0.32139653 -0.10674118 1.3380002
-0.31669742 -0.10462683 1.335
-0.3151415 -0.099579096 1.3363333
-0.15336713 0.027271785 1.3380002
-0.1462315 0.028542513 1.3380002
-0.16163664 0.036831573 1.3380001
-0.15461966 0.035138443 1.336125
-0.14490598 0.03155211 1.3330001
-0.13636269 0.032043215 1.3340001
-0.12971424 0.03155211 1.3330001
-0.16277635 0.044876806 1.3375456
-0.15563582 0.044087965 1.3330001
-0.16311173 0.055345502 1.336125
-0.15709278 0.054590158 1.3330001
-0.16414213 0.065657288 1.3373749
-0.15548255 0.066635869 1.3335001
-0.139063 0.067778602 1.3330001
-0.17008209 0.077416681 1.3380001
-0.16421719 0.075070724 1.3379999
-0.15447448 0.07489758 1.334875
-0.17125507 0.084454559 1.3380002
-0.16421719 0.084454551 1.3379999
-0.15442574 0.0846861 1.3362353
-0.14841178 0.084723264 1.3330001
-0.033421867 0.08811219 1.3330001
-0.025742549 0.084842153 1.3348751
-0.019903401 0.084298953 1.3355
-0.17066859 0.092078924 1.3380001
-0.1644242 0.094597399 1.3379999
-0.15483908 0.095143892 1.336421
-0.14707623 0.095324099 1.3330001
-0.139063 0.096214451 1.3330001
-0.035948008 0.094953656 1.3371668
-0.0293245 0.090319462 1.3380001
-0.16304423 0.10569853 1.3380002
-0.154512 0.10534547 1.3351876
-0.14646412 0.10400511 1.3330001
-0.13719323 0.10517369 1.3330001
-0.03870834 0.10204926 1.3380001
-0.16187124 0.11377906 1.3380002
-0.1546898 0.11484465 1.33675
-0.14373739 0.11647014 1.3330001
-0.13605803 0.11485635 1.3330001
-0.12503985 0.11569107 1.3330001
-0.11802826 0.11413294 1.3330001
-0.043400262 0.11612502 1.3380001
-0.16069826 0.1231629 1.3380001
-0.15476158 0.12427836 1.3373749
-0.14472146 0.12479381 1.3330001
-0.13590762 0.1241937 1.3364376
-0.12527369 0.12507783 1.3334168
-0.11802826 0.12036546 1.3330001
-0.15366036 0.13297328 1.3380002
-0.1456248 0.13569051 1.3377059
-0.1357864 0.13489269 1.3379998
-0.12506638 0.13584492 1.3332779
-0.11374342 0.13750488 1.3330001
-0.1051737 0.1367258 1.3330001
-0.098162115 0.13672581 1.3330001
-0.14447203 0.14564502 1.3380002
-0.13313322 0.14447205 1.3380002
-0.12334613 0.14497417 1.336077
-0.11468519 0.14511256 1.334875
-0.10527178 0.14504458 1.3342501
-0.097227238 0.14560714 1.3330001
-0.14369005 0.15190092 1.3380001
-0.13020077 0.15131442 1.3380001
-0.1231629 0.15483336 1.3380002
-0.11492547 0.15479802 1.3376875
-0.10556819 0.15483335 1.3379999
-0.095315069 0.1539093 1.3367501
-0.086101882 0.15573899 1.334154
-0.074101709 0.15483716 1.3346667
-0.069076508 0.15688783 1.3355
-0.1231629 0.16187124 1.3380002
-0.11659421 0.16163664 1.3380001
-0.10674118 0.16069826 1.3380001
-0.091492444 0.16304421 1.3380001
-0.085560039 0.16057816 1.3370001
-0.077127382 0.16009775 1.3330001
-0.33201647 -0.11184952 1.3430001
-0.33231714 -0.10998397 1.3490001
-0.32600603 -0.10426302 1.3454001
-0.16438465 0.01773935 1.3490001
-0.16431735 0.025072228 1.3460003
-0.1568034 0.02322617 1.3430003
-0.14609738 0.025531456 1.344
-0.13421971 0.029521748 1.3470001
-0.17214169 0.036238186 1.348
