# .PCD v0.7 - Point Cloud Data file format
VERSION 0.7
FIELDS x y z
SIZE 4 4 4
TYPE F F F
COUNT 1 1 1
WIDTH 1414
HEIGHT 1
VIEWPOINT 0 0 0 1 0 0 0
POINTS 1414
DATA ascii
-0.14388992 -0.026220227 0.98875016
-0.13497122 -0.025087951 0.98689997
-0.12516056 -0.025030339 0.98459989
-0.11574569 -0.025048036 0.98529983
-0.10554074 -0.024665311 0.98288918
-0.098901153 -0.023220271 0.98100013
-0.042373389 -0.025924202 0.98200011
-0.034875181 -0.02489575 0.98703837
-0.027744748 -0.021675583 0.98900002
-0.18328872 -0.011618113 0.98900002
-0.1755328 -0.012059506 0.98900008
-0.13339585 -0.018973699 0.98877782
-0.12431502 -0.016071655 0.98775005
-0.11451535 -0.016119268 0.98860013
-0.10492478 -0.01572095 0.98754847
-0.095525816 -0.014996959 0.98340005
-0.087205015 -0.011868138 0.98100007
-0.064500749 -0.01118013 0.98100007
-0.034302652 -0.01551849 0.98330009
-0.026967024 -0.01495716 0.98806679
-0.19161215 -0.0052021397 0.98900002
-0.18525271 -0.0051939571 0.98744434
-0.17478919 -0.0051925215 0.9870277
-0.16463102 -0.0053986949 0.98685288
-0.15507931 -0.0049763438 0.9861874
-0.14602329 -0.0039957459 0.98650002
-0.13626197 -0.0017323811 0.98750007
-0.12381859 -0.0027163224 0.98860013
-0.11878219 -0.0034680932 0.98900002
-0.10382659 -0.0059856717 0.98890495
-0.095279664 -0.0051942263 0.98802769
-0.085164621 -0.0048002708 0.9855938
-0.075412318 -0.0043673175 0.98180795
-0.06500873 -0.004367217 0.98169237
-0.055815168 -0.0030579595 0.98116672
-0.043881401 -0.0034407703 0.98150009
-0.034167647 -0.0049568932 0.98362494
-0.025237055 -0.0050474843 0.98806906
-0.18331391 0.0030010999 0.98884624
-0.17468168 0.0050688121 0.98711419
-0.16483226 0.0051793475 0.98439974
-0.15505332 0.0051652472 0.98258328
-0.14460555 0.0051077059 0.98184413
-0.13476585 0.0049907756 0.98250026
-0.12502562 0.00495377 0.98399997
-0.11513872 0.0053130258 0.98711419
-0.10503705 0.0058853659 0.9885174
-0.095355906 0.0059953048 0.98883349
-0.083219402 0.0044924389 0.98881835
-0.074567996 0.0053200875 0.98739994
-0.065034695 0.0050536157 0.98658061
-0.055327117 0.0051909378 0.98611093
-0.044901036 0.0053170831 0.98659992
-0.034617182 0.0051960042 0.98722237
-0.026593687 0.0031335438 0.98838466
-0.17377624 0.013129207 0.98900014
-0.16439936 0.015444547 0.98748386
-0.15492497 0.015459312 0.98477393
-0.14483936 0.015676936 0.98306245
-0.13532665 0.015734537 0.98142874
-0.12590545 0.018404214 0.98100007
-0.11473911 0.015441031 0.98296154
-0.10556593 0.014607292 0.98451698
-0.094897687 0.015172905 0.98581249
-0.084719136 0.016180519 0.98880017
-0.075431041 0.014739395 0.9890002
-0.065150611 0.012881487 0.98900014
-0.055540487 0.012903344 0.98900008
-0.044796206 0.013101685 0.98900008
-0.036662698 0.013500792 0.98900014
-0.16183552 0.023181478 0.9885
-0.15467818 0.024883958 0.98760879
-0.1452343 0.025072228 0.9860999
-0.13470669 0.025133276 0.98389637
-0.12493005 0.024814449 0.98123103
-0.11477824 0.024874132 0.9810003
-0.091660105 0.022376698 0.98175001
-0.084037915 0.023921927 0.98400027
-0.075294994 0.025649516 0.98633343
-0.068494841 0.027744748 0.98900002
-0.15172908 0.030345816 0.98900002
-0.14407989 0.032165896 0.98806679
-0.13457146 0.034119043 0.98674983
-0.12499893 0.034674089 0.98464519
-0.11524262 0.034571107 0.98345482
-0.10569694 0.036595482 0.98273677
-0.095238134 0.037530664 0.98250008
-0.08378391 0.0380149 0.98300004
-0.074611634 0.034507498 0.98399991
-0.065910585 0.035357796 0.98809105
-0.12313993 0.041740727 0.98780012
-0.1146806 0.043092269 0.98826331
-0.10507787 0.04384587 0.98807693
-0.095073119 0.044787046 0.98799998
-0.084785968 0.044991642 0.98686099
-0.074395843 0.044985715 0.98677772
-0.064985663 0.04505711 0.98840016
-0.05866858 0.048264299 0.98900002
-0.16097733 0.057801556 0.98900002
-0.15520677 0.057328969 0.98847389
-0.14717391 0.058349621 0.98850006
-0.082945235 0.052310407 0.98900002
-0.073967509 0.053886864 0.98875004
-0.065412089 0.053562775 0.98900008
-0.16126634 0.063292705 0.98900002
-0.15480083 0.064388119 0.98804772
-0.14548413 0.064949125 0.98780018
-0.1349833 0.06575875 0.98699999
-0.12772207 0.066507727 0.98811108
-0.14363743 0.072482735 0.98820013
-0.13490371 0.074245609 0.9866128
-0.12474066 0.074631259 0.98652929
-0.11872214 0.076258168 0.98850006
-0.10664387 0.078899123 0.98900002
-0.13178754 0.080633171 0.98900002
-0.12382441 0.081889555 0.98771441
-0.11722724 0.081824683 0.98842859
-0.10722188 0.081211187 0.98900002
-0.15457602 -0.19288014 0.99718189
-0.14740625 -0.19175856 0.99200004
-0.16150901 -0.18250692 0.99800003
-0.15519822 -0.18604426 0.99484211
-0.14871071 -0.18871477 0.99200004
-0.17119138 -0.17119138 0.99799997
-0.16532572 -0.17483278 0.99515009
-0.17142266 -0.16474678 0.99718183
-0.16563891 -0.16592441 0.9938333
-0.060875732 -0.16262518 0.99200004
-0.05739712 -0.16088587 0.99200004
-0.17465633 -0.15523137 0.99666679
-0.16835068 -0.15962785 0.99500006
-0.060006078 -0.15914656 0.99200004
-0.055656906 -0.15432696 0.99408716
-0.049870059 -0.15136001 0.99800003
-0.054960337 -0.1448285 0.9952001
-0.046750285 -0.14398457 0.99759096
-0.053455878 -0.13620231 0.99499995
-0.04870351 -0.13546574 0.99800009
-0.051335409 -0.12529539 0.99250007
-0.048920713 -0.12492667 0.99650002
-0.060369018 -0.11898822 0.99800003
-0.054383811 -0.11563489 0.99476022
-0.048246585 -0.11570773 0.99612498
-0.05295663 -0.10853274 0.99680007
-0.048920192 -0.10919979 0.99650002
-0.075242549 -0.090116076 0.99800003
-0.060369018 -0.09099099 0.99800003
-0.055119537 -0.09099099 0.99800003
-0.049870059 -0.090116076 0.99800003
-0.20210499 -0.081366941 0.99800003
-0.19248092 -0.081366941 0.99800003
-0.18548162 -0.081366941 0.99800003
-0.12773734 -0.081366941 0.99800003
-0.090116076 -0.081366941 0.99800003
-0.083262585 -0.083700038 0.99800009
-0.075107723 -0.084716685 0.99620014
-0.064716406 -0.084833816 0.99759972
-0.055596765 -0.085105211 0.99799991
-0.049870059 -0.086616419 0.99799997
-0.20143196 -0.075444452 0.99800009
-0.19497077 -0.075191088 0.99729991
-0.18518697 -0.075127035 0.99641675
-0.17446806 -0.074572943 0.99631244
-0.16456319 -0.07519421 0.99584401
-0.15511946 -0.074040964 0.9960714
-0.1449451 -0.07422246 0.99599975
-0.13506122 -0.075178102 0.99519384
-0.12586091 -0.0758176 0.99488473
-0.11552146 -0.073395081 0.99554533
-0.10453903 -0.073200554 0.99552172
-0.094494522 -0.074743919 0.99542838
-0.08556141 -0.075747542 0.99477792
-0.075019039 -0.077216059 0.99199998
-0.064305872 -0.076724805 0.99304354
-0.054901842 -0.075222284 0.9953602
-0.048776422 -0.073055267 0.99800009
-0.20256546 -0.063776575 0.99799997
-0.19483498 -0.064653642 0.99660003
-0.18492407 -0.064548969 0.99500018
-0.17477417 -0.064439766 0.99454582
-0.16488481 -0.06445007 0.99227291
-0.15575489 -0.065832764 0.99199998
-0.14523213 -0.068122841 0.99200004
-0.11327235 -0.06805037 0.99200004
-0.10522805 -0.068267785 0.99200004
-0.051941037 -0.068192102 0.99300003
-0.045348573 -0.064937212 0.99486357
-0.039371099 -0.060369018 0.99800003
-0.20337754 -0.055199075 0.99799991
-0.19508266 -0.055112485 0.99787986
-0.18496212 -0.054964375 0.99520028
-0.17460707 -0.054953862 0.9950003
-0.16479638 -0.054865226 0.99338478
-0.15827692 -0.054788161 0.99199998
-0.041339435 -0.057006344 0.99275005
-0.037371963 -0.053882699 0.99499995
-0.20185502 -0.048620187 0.99800009
-0.19492148 -0.047383465 0.99799997
-0.18491006 -0.045938414 0.99696881
-0.17510231 -0.04529991 0.99370027
-0.16504411 -0.04532871 0.99208844
-0.15827692 -0.046961278 0.99200004
-0.03315099 -0.043595921 0.99281812
-0.026422381 -0.042170826 0.99800003
-0.18176325 -0.036527634 0.99800009
-0.17504665 -0.034687549 0.99609107
-0.16512597 -0.035079658 0.99372762
-0.15615861 -0.033162199 0.99290007
-0.032644741 -0.035434209 0.99304998
-0.026976494 -0.035725627 0.99800009
-0.20472972 -0.020123007 0.99800003
-0.18460672 -0.020123007 0.99800003
-0.1736878 -0.024532573 0.99799979
-0.16482207 -0.024248756 0.99763602
-0.15477264 -0.024644371 0.99436396
-0.14587185 -0.021981657 0.99239993
-0.031017633 -0.028118791 0.99200004
-0.026021374 -0.024383141 0.99535292
-0.2247031 -0.012338402 0.99733341
-0.21438359 -0.013010063 0.99762511
-0.20482147 -0.01504786 0.99692827
-0.19512969 -0.013810251 0.995682
-0.1855136 -0.015751606 0.99552196
-0.17416035 -0.016232362 0.99529982
-0.16485958 -0.014833882 0.9950003
-0.1549705 -0.014697344 0.99406928
-0.144756 -0.014823296 0.99470031
-0.13542517 -0.014224251 0.99357152
-0.12827387 -0.01174032 0.99200004
-0.11496817 -0.011653354 0.99199998
-0.022895528 -0.014933514 0.99371427
-0.23010221 -0.0096240463 0.99800003
-0.22445594 -0.0069457833 0.99705255
-0.21499895 -0.0056437403 0.99754518
-0.20504925 -0.005234139 0.99530023
-0.1963919 -0.0052229771 0.9929232
-0.14342308 -0.0082403971 0.9933846
-0.13485321 -0.0064065289 0.99408704
-0.1259709 -0.0070011429 0.99228579
-0.11429444 -0.0054379627 0.99237525
-0.10774038 -0.0033819855 0.99200004
-0.020285066 -0.0058503724 0.99371433
-0.01837318 -0.0026247399 0.99800003
-0.21085411 0.0034996532 0.99800003
-0.2053158 0.005095548 0.9971723
-0.19522971 0.0052316557 0.99416691
-0.18607022 0.0070607224 0.99283326
-0.11305493 0.0008696533 0.99200004
-0.10418447 0.0012175145 0.99199998
-0.094792217 0.0040004053 0.99199998
-0.087959215 0.0063360459 0.99199992
-0.023077905 0.0064062988 0.99434793
-0.01837318 0.0026247399 0.99799997
-0.20160504 0.012873724 0.99800009
-0.19461818 0.014704916 0.99624997
-0.18479685 0.014819959 0.99430025
-0.17548133 0.016844673 0.99227273
-0.1695824 0.01826272 0.99200004
-0.086385556 0.012754916 0.99200004
-0.072181225 0.017393067 0.99200004
-0.064332969 0.017205123 0.99269223
-0.054788161 0.017155888 0.99199998
-0.0456568 0.017248126 0.99199992
-0.033064414 0.015881199 0.99256235
-0.025481192 0.014319929 0.99643481
-0.19248092 0.020123007 0.99800003
-0.1846129 0.022056881 0.9975
-0.17467272 0.024257082 0.99606478
-0.16611943 0.025353068 0.99364996
-0.15914656 0.027828906 0.99200004
-0.071818382 0.021941895 0.99233341
-0.064363502 0.024247384 0.99614704
-0.055194147 0.024329489 0.99717212
-0.045676172 0.023933081 0.99715626
-0.035381846 0.022951903 0.99608004
-0.028434683 0.021435376 0.99800003
-0.1633409 0.032494161 0.99725008
-0.15488002 0.034821227 0.99541366
-0.14576931 0.037098296 0.99433339
-0.13740522 0.039134398 0.99200004
-0.061628036 0.033738263 0.99414283
-0.057294182 0.03494807 0.99671429
-0.19423077 0.049870059 0.99800003
-0.18508393 0.049074687 0.99800009
-0.17560761 0.049620084 0.99800009
-0.16462953 0.048557695 0.99800009
-0.15521735 0.047074523 0.9975
-0.14458923 0.044675741 0.99764001
-0.13520706 0.045561951 0.99625784
-0.125927 0.046461441 0.99392021
-0.1150618 0.048218418 0.99279982
-0.10497958 0.049321763 0.99200004
-0.098270826 0.04957024 0.99200004
-0.060006075 0.044700183 0.99199998
-0.056466371 0.044913877 0.99481249
-0.1939391 0.054827902 0.99800003
-0.18531427 0.055069469 0.99709994
-0.17470407 0.055029593 0.99640006
-0.16527861 0.054482751 0.99400014
-0.15483841 0.052415695 0.99269223
-0.14450027 0.054886483 0.99511999
-0.13474691 0.054939009 0.99696541
-0.12522732 0.055216298 0.99730754
-0.11515433 0.054410543 0.99700016
-0.10480181 0.05502433 0.99619973
-0.094797567 0.055214308 0.99611098
-0.085854508 0.055692464 0.99342108
-0.077109255 0.057687003 0.99200004
-0.0625159 0.056426138 0.99274993
-0.055881232 0.055013679 0.99605006
-0.19160601 0.060369018 0.99800003
-0.18427862 0.062228203 0.99800009
-0.17451222 0.064353816 0.99727249
-0.16556582 0.065086395 0.99350011
-0.15697242 0.068267785 0.99200004
-0.14001419 0.060006078 0.99200004
-0.13454387 0.060839593 0.99300003
-0.12459141 0.063730493 0.99488908
-0.11696389 0.066448994 0.99733329
-0.10936417 0.064743586 0.99800003
-0.091165975 0.061418913 0.99800003
-0.084804401 0.062947869 0.9972499
-0.075102612 0.062879235 0.99612516
-0.065420926 0.062391169 0.9964211
-0.056869369 0.060369018 0.99799997
-0.17148301 0.070867978 0.99800003
-0.16348609 0.073876396 0.9972499
-0.15476637 0.074825324 0.99528122
-0.1462422 0.077156141 0.99443746
-0.13740522 0.07913845 0.99200004
-0.12175146 0.070441917 0.99200004
-0.11460567 0.074799865 0.99509382
-0.10616472 0.076055132 0.99614286
-0.15136001 0.081366941 0.99800003
-0.14368591 0.082617313 0.99772739
-0.13505913 0.084832139 0.99568182
-0.1254608 0.086837783 0.9938333
-0.11416066 0.085980602 0.99350017
-0.10422814 0.085702747 0.99354577
-0.09658283 0.086609669 0.99676466
-0.12511261 0.091165975 0.99800003
-0.11597463 0.09206032 0.99800003
-0.10436033 0.09317372 0.99700004
-0.094233453 0.094235785 0.99699986
-0.16260789 -0.19283485 1.0057144
-0.15907335 -0.19159243 1.0025001
-0.17038104 -0.18362309 1.0070001
-0.16541654 -0.18616557 1.0048333
-0.1744241 -0.17442103 1.0040001
-0.16848832 -0.17901884 1.001
-0.18295234 -0.16433235 1.006
-0.17676391 -0.16465251 1.00115
-0.19267786 -0.1569618 1.0058751
-0.18569534 -0.15561923 1.0061429
-0.17794628 -0.15747027 1.001
-0.050019968 -0.15005991 1.001
-0.048264883 -0.15005991 1.001
-0.044065282 -0.13490951 1.0019999
-0.039647248 -0.13655573 1.0050001
-0.044112489 -0.1254735 1.0035715
-0.039284747 -0.12844788 1.0070001
-0.058094069 -0.11221816 1.0040001
-0.044954587 -0.1145926 1.0055
-0.083868414 -0.10336564 1.0058333
-0.07492651 -0.10401823 1.0055
-0.065476716 -0.10334592 1.0057368
-0.054271698 -0.1044084 1.003423
-0.046994254 -0.10531335 1.0056154
-0.21216707 -0.092105813 1.0070001
-0.20434298 -0.092694364 1.0070001
-0.19500145 -0.093282908 1.0070001
-0.18538871 -0.092694372 1.0070001
-0.17587405 -0.091713458 1.0070001
-0.16155301 -0.090928741 1.0070001
-0.12359245 -0.092164665 1.0070001
-0.11564723 -0.090928741 1.0070001
-0.10152239 -0.090928741 1.0070001
-0.093113177 -0.09296605 1.00675
-0.084899269 -0.095301323 1.0039999
-0.075058863 -0.094822146 1.0011934
-0.065218583 -0.095016129 1.0013527
-0.054252062 -0.09638992 1.0013598
-0.046758763 -0.094819501 1.0041765
-0.23217727 -0.082605168 1.0070001
-0.22509862 -0.082781933 1.0055
-0.21540596 -0.08480487 1.0046427
-0.20541029 -0.085399024 1.0034641
-0.19521889 -0.08551269 1.0023844
-0.1851353 -0.085649826 1.0033332
-0.17513391 -0.085373655 1.0038964
-0.16526251 -0.085248157 1.0046427
-0.15522356 -0.085300326 1.0060357
-0.1449908 -0.08445245 1.0062106
-0.13478716 -0.084315881 1.0042857
-0.12493141 -0.08576908 1.005607
-0.11494283 -0.082175538 1.0063572
-0.10427243 -0.084227972 1.0057368
-0.095135756 -0.085431479 1.0031723
-0.086606778 -0.086201757 1.0010002
-0.051073022 -0.083015598 1.001
-0.044731203 -0.084668569 1.0020384
-0.039607801 -0.081856117 1.0040001
-0.23306008 -0.075038292 1.0070001
-0.22530152 -0.074806407 1.0038998
-0.21499248 -0.075032137 1.0027142
-0.20712854 -0.075478889 1.0011363
-0.17726374 -0.07985644 1.001
-0.1641006 -0.07985644 1.001
-0.15444763 -0.079856448 1.001
-0.14479466 -0.07985644 1.001
-0.12110098 -0.07985644 1.001
-0.11372536 -0.077721104 1.00175
-0.10442765 -0.078491375 1.001
-0.097407311 -0.079417668 1.001
-0.050897513 -0.078540131 1.001
-0.04448301 -0.075652249 1.0015
-0.038528226 -0.074576437 1.0050908
-0.23121423 -0.065728731 1.0070001
-0.22484575 -0.065247677 1.0057999
-0.21537192 -0.065129064 1.003516
-0.20764868 -0.066035137 1.0010002
-0.041829567 -0.067278318 1.001
-0.037762001 -0.065430537 1.0045295
-0.23041166 -0.059147824 1.0070001
-0.22516249 -0.055225123 1.0068696
-0.21570481 -0.054484356 1.0050645
-0.2086798 -0.054056667 1.0010002
-0.035537183 -0.057390232 1.0027143
-0.22511485 -0.047671378 1.0070001
-0.2134535 -0.046289165 1.0064
-0.20541373 -0.044278882 1.0035713
-0.19537769 -0.042372134 1.0021539
-0.18779427 -0.041244537 1.001
-0.02895893 -0.041244537 1.001
-0.20333903 -0.039431881 1.0070001
-0.19449022 -0.035570301 1.0066539
-0.18668398 -0.034629967 1.0035908
-0.025346521 -0.034810744 1.0023847
-0.24277091 -0.020304477 1.0070001
-0.23473333 -0.022256143 1.0059412
-0.22592199 -0.022373684 1.0056875
-0.21495834 -0.02203946 1.0055
-0.20518661 -0.0239332 1.0041362
-0.19496655 -0.023958504 1.0044999
-0.18569797 -0.025525548 1.0038799
-0.17846042 -0.024491435 1.0010002
-0.022574168 -0.0247257 1.0033334
-0.01853887 -0.021187279 1.0070001
-0.24257906 -0.014997486 1.0062
-0.23483986 -0.014953061 1.0032799
-0.22494408 -0.016415169 1.0021052
-0.21591449 -0.017162027 1.0015454
-0.19569217 -0.018428409 1.001
-0.020203659 -0.016691735 1.002
-0.017234709 -0.014189807 1.0059091
-0.24211718 -0.0061755776 1.0065385
-0.23534852 -0.0051306458 1.004931
-0.22549635 -0.0021942966 1.0015001
-0.21587566 -0.00087754335 1.001
-0.016727427 -0.0061653466 1.0044286
-0.23331234 0.0036573282 1.0070001
-0.22532909 0.0046531046 1.0052413
-0.21580434 0.0054082819 1.0035714
-0.20973286 0.0096529769 1.001
-0.017375205 0.0057168528 1.003625
-0.22599766 0.011476443 1.0070001
-0.21248546 0.012469957 1.0057143
-0.20534696 0.015301866 1.003
-0.19920233 0.018428409 1.001
-0.021212326 0.016696241 1.0022857
-0.018483639 0.013206107 1.0040001
-0.20283259 0.021809211 1.0065715
-0.19483738 0.024179222 1.004409
-0.18610895 0.027251938 1.0027144
-0.1781413 0.02895893 1.001
-0.051775057 0.02895893 1.001
-0.043877169 0.02895893 1.001
-0.034091175 0.028025283 1.0018182
-0.025437916 0.023866743 1.0043157
-0.22536707 0.038969465 1.0070001
-0.21584539 0.039284751 1.0070001
-0.20569317 0.039726149 1.0070001
-0.19333392 0.039726149 1.0070001
-0.18451369 0.034309223 1.0064707
-0.17436895 0.03466659 1.0055599
-0.16576147 0.036708664 1.0032104
-0.15883534 0.039489448 1.001
-0.052448288 0.03512815 1.0016818
-0.045500454 0.033868428 1.0027143
-0.036635343 0.031987734 1.0059091
-0.02913251 0.030898117 1.0070001
-0.22387891 0.043257359 1.0070001
-0.21534117 0.045009024 1.0067
-0.205066 0.044791263 1.004923
-0.19510552 0.044972967 1.0032758
-0.18514632 0.043918222 1.0046521
-0.1748894 0.045064043 1.005111
-0.1648498 0.044068806 1.0034001
-0.15460719 0.045073815 1.0009999
-0.14604828 0.047512706 1.001
-0.051887099 0.044850968 1.0031999
-0.048259914 0.045611504 1.0070001
-0.21428579 0.051967688 1.0070001
-0.20522633 0.054611854 1.0046999
-0.19876355 0.055285227 1.001
-0.14420962 0.05119003 1.001
-0.11671326 0.057917859 1.001
-0.051123086 0.054096874 1.0014617
-0.046717122 0.054650966 1.0055
-0.2035352 0.062090509 1.0070001
-0.1945747 0.063996553 1.0038571
-0.1862382 0.06747324 1.0030001
-0.17931135 0.068740897 1.001
-0.11427564 0.063183121 1.001
-0.10511934 0.064986005 1.0017059
-0.095414415 0.065548599 1.0020643
-0.085121706 0.06844838 1.0010002
-0.075468726 0.068448372 1.0010002
-0.064104602 0.067515865 1.001706
-0.055209536 0.064970888 1.0045769
-0.047671378 0.060913429 1.0070001
-0.18351589 0.071920224 1.0057143
-0.17530659 0.07501027 1.0044092
-0.16679142 0.077366956 1.0018182
-0.10309224 0.073744074 1.0014287
-0.095233306 0.075108737 1.0035311
-0.085035987 0.074244067 1.0045217
-0.075384162 0.073212095 1.0047059
-0.066163525 0.072680265 1.0063077
-0.17249978 0.081394471 1.0070001
-0.16467495 0.083269559 1.0044999
-0.15483047 0.084820777 1.0039999
-0.14590508 0.086702161 1.0030001
-0.13886094 0.08876469 1.0025001
-0.09309648 0.083425619 1.0028
-0.087699987 0.083917663 1.0061429
-0.1444014 0.091433205 1.0070001
-0.13481677 0.092557967 1.004353
-0.12496372 0.095632792 1.0038334
-0.11507394 0.097044326 1.0035498
-0.1056923 0.097785033 1.0022858
-0.094189651 0.097699821 1.001
-0.087417997 0.095836878 1.0029286
-0.12094405 0.10152239 1.0070001
-0.10240519 0.10152239 1.0070001
-0.094858117 0.10373568 1.0038697
-0.08739043 0.10373469 1.0050908
-0.17348123 -0.19180124 1.0113333
-0.16793717 -0.19272931 1.0100001
-0.1814063 -0.18288727 1.016
-0.17561847 -0.18538256 1.0130004
-0.16911776 -0.18682644 1.01
-0.18307073 -0.17527056 1.0148462
-0.17736948 -0.17736948 1.0106001
-0.18662335 -0.16477342 1.0105001
-0.1947296 -0.15237884 1.0137061
-0.18788895 -0.15565917 1.01
-0.19515067 -0.14874081 1.018
-0.18799064 -0.14897241 1.0115
-0.037984699 -0.13369936 1.013
-0.083565906 -0.12222633 1.0176667
-0.074913546 -0.12426639 1.0155715
-0.06601271 -0.12225672 1.013
-0.041615367 -0.1221898 1.01
-0.036368936 -0.12419981 1.014174
-0.19027787 -0.11166541 1.0190001
-0.18447128 -0.11401037 1.0190001
-0.17955799 -0.11166541 1.0190001
-0.13489182 -0.11255874 1.0190001
-0.1281919 -0.11211208 1.0190001
-0.093208238 -0.11374365 1.0184
-0.08487644 -0.11466783 1.0139314
-0.074786186 -0.11554975 1.0120296
-0.065182023 -0.11489214 1.0113552
-0.059324034 -0.11510633 1.01
-0.042233124 -0.11429454 1.0106667
-0.037556715 -0.11535204 1.0157274
-0.23137075 -0.10094553 1.0190001
-0.22481972 -0.10237486 1.0190001
-0.21500342 -0.10344242 1.0171667
-0.20492013 -0.10434356 1.0153574
-0.19494544 -0.10505149 1.0154167
-0.1850892 -0.10499579 1.0172731
-0.17622495 -0.10385556 1.0180458
-0.16402851 -0.10176456 1.01825
-0.15498993 -0.10311916 1.0184
-0.14476086 -0.10335486 1.0187275
-0.1348004 -0.10534246 1.0183005
-0.12515396 -0.10506132 1.0175886
-0.11532658 -0.10376669 1.0182859
-0.1047295 -0.10387393 1.015889
-0.09497869 -0.10474546 1.0125003
-0.086226016 -0.10778164 1.0105001
-0.075261831 -0.1089083 1.01
-0.065119594 -0.10810336 1.0100001
-0.059324037 -0.10713743 1.01
-0.04238113 -0.10467436 1.0136001
-0.03796624 -0.10853878 1.0190001
-0.24280527 -0.090940319 1.0190001
-0.23392673 -0.094678685 1.0169002
-0.22480151 -0.095445246 1.0153334
-0.21591717 -0.095414586 1.0115883
-0.20603353 -0.097057104 1.0100001
-0.19469695 -0.097692817 1.0100001
-0.18462114 -0.097504705 1.0102729
-0.17454167 -0.096032895 1.011143
-0.16481999 -0.094855301 1.0111787
-0.15447646 -0.094998851 1.0127003
-0.14482418 -0.095072225 1.0134802
-0.1349895 -0.095026776 1.0130002
-0.12515819 -0.096474528 1.0107502
-0.11512278 -0.0949158 1.0118216
-0.10491221 -0.095158525 1.0117146
-0.096259244 -0.09575329 1.0100001
-0.042864226 -0.095535137 1.0163333
-0.25142875 -0.08406581 1.0185715
-0.24522103 -0.084840566 1.0158699
-0.23613988 -0.085987695 1.0120002
-0.22525422 -0.088366255 1.0100001
-0.21870203 -0.089428768 1.01
-0.15583625 -0.089428768 1.01
-0.1455062 -0.088838488 1.0100001
-0.13694704 -0.08883848 1.0100001
-0.11494534 -0.086611487 1.0100001
-0.10758016 -0.087657914 1.0100001
-0.2525672 -0.075827293 1.0175883
-0.24470201 -0.074743196 1.0150002
-0.23750524 -0.074817121 1.0105456
-0.25138119 -0.066641927 1.0190001
-0.24526162 -0.065103829 1.0173203
-0.23650683 -0.065136522 1.0116668
-0.033286221 -0.06459523 1.0136923
-0.029436275 -0.0624419 1.0175
-0.24394505 -0.055789858 1.0178573
-0.23531678 -0.055053081 1.0128931
-0.22553252 -0.053252488 1.0100001
-0.032026563 -0.056051604 1.0148
-0.029067053 -0.056061078 1.015
-0.24101862 -0.047703467 1.0190001
-0.23426704 -0.044726163 1.0163602
-0.22437844 -0.045171931 1.0103602
-0.21657701 -0.043209143 1.0100001
-0.23272531 -0.034952965 1.0183077
-0.22506638 -0.035462271 1.0155165
-0.21516357 -0.03546292 1.0114003
-0.20559433 -0.034718271 1.0101036
-0.19922251 -0.033646468 1.01
-0.021362225 -0.03416058 1.0106667
-0.018283058 -0.033193052 1.0123999
-0.2621904 -0.021886421 1.0190001
-0.25517267 -0.023777109 1.0175654
-0.24501833 -0.024373544 1.0131307
-0.23468876 -0.027438188 1.0135624
-0.22381954 -0.026774172 1.0119413
-0.21588427 -0.027153378 1.0113126
-0.20512538 -0.028629012 1.0100001
-0.19745164 -0.0292193 1.01
-0.020975418 -0.027181342 1.011
-0.01631652 -0.024311393 1.0130001
-0.0097976262 -0.020485947 1.016
-0.26253784 -0.014789464 1.0190001
-0.25560403 -0.015140628 1.0158802
-0.24792132 -0.015052366 1.0100001
-0.013325647 -0.015740238 1.0136429
-0.0097976262 -0.012469707 1.016
-0.26233926 -0.0092310077 1.0190001
-0.2546832 -0.0061669848 1.0172502
-0.24691924 -0.0050643156 1.0110714
-0.012827011 -0.0048273024 1.0142858
-0.0093036871 -0.0070088245 1.0177144
-0.25102386 0.0017866467 1.0190001
-0.24472314 0.0045421766 1.016143
-0.23652013 0.0067601404 1.0109377
-0.22342433 0.0091494778 1.01
-0.013894236 0.0051140897 1.0146875
-0.2411973 0.012506526 1.0190001
-0.23415515 0.014451946 1.016
-0.22457796 0.015372092 1.0134448
-0.21593368 0.015861146 1.0120627
-0.20925741 0.018003812 1.01
-0.016190281 0.015238354 1.0132308
-0.23137075 0.025013052 1.0190001
-0.22610383 0.023072479 1.0187501
-0.21461068 0.024745122 1.0173337
-0.20570552 0.026165953 1.0124288
-0.19804192 0.02803872 1.0100001
-0.022432353 0.026935311 1.0111541
-0.01721043 0.023298586 1.0154999
-0.24312332 0.036601707 1.0183333
-0.23469186 0.035590354 1.0151433
-0.22450994 0.034468878 1.0139645
-0.21455979 0.034455854 1.0145001
-0.20543064 0.035601512 1.0130002
-0.19516206 0.035294969 1.0103638
-0.18564586 0.036538884 1.0100001
-0.17752938 0.038294993 1.0100001
-0.04361105 0.038493462 1.0106667
-0.03510236 0.036372274 1.0118574
-0.025855731 0.034429207 1.0139548
-0.24283083 0.044001963 1.0183572
-0.2352488 0.045176022 1.0149617
-0.22619414 0.046110637 1.0100001
-0.17708667 0.041615367 1.01
-0.043806203 0.045162689 1.0120002
-0.036173023 0.042472161 1.0164
-0.028117986 0.040616624 1.01825
-0.23335226 0.052272208 1.0175
-0.22466363 0.054400407 1.0143045
-0.21583451 0.057254165 1.0105627
-0.042552296 0.054964151 1.01125
-0.039962851 0.059500244 1.013
-0.22102988 0.062174369 1.018
-0.21446519 0.064619973 1.0155264
-0.20604262 0.065936103 1.0122942
-0.19643971 0.068937309 1.0100001
-0.051481623 0.068178371 1.0100001
-0.044853333 0.065218583 1.0132502
-0.039575364 0.064039186 1.0145
-0.21171764 0.07057254 1.0190001
-0.20429589 0.07212425 1.0176154
-0.19481352 0.075232938 1.0143203
-0.18553625 0.076519266 1.0110002
-0.17974296 0.078803569 1.01
-0.083821021 0.078213274 1.0100001
-0.074418485 0.078142025 1.0106001
-0.064679645 0.077110231 1.0124377
-0.055068869 0.075504474 1.0132003
-0.04703404 0.073565058 1.017125
-0.19192316 0.082572579 1.01825
-0.18465589 0.084207259 1.0155003
-0.17545518 0.085217804 1.0130002
-0.16547999 0.088260651 1.0113636
-0.15583627 0.089428768 1.01
-0.083201714 0.085625373 1.0116366
-0.075201578 0.084256873 1.0165771
-0.065148607 0.082999296 1.018
-0.055435695 0.08206103 1.0184546
-0.049132783 0.081292421 1.0190001
-0.17330472 0.090672322 1.0190001
-0.16398241 0.093514182 1.0175
-0.15530026 0.09550108 1.0160004
-0.14531714 0.096055761 1.0130001
-0.13533551 0.097603962 1.0103002
-0.12838784 0.098283097 1.01
-0.083362706 0.094481587 1.0122106
-0.078651115 0.094883777 1.0184546
-0.14280412 0.10247695 1.0190001
-0.13458653 0.10366999 1.0150002
-0.12553327 0.10418931 1.0149567
-0.1145483 0.10429988 1.0147648
-0.1052748 0.10561337 1.0131431
-0.094741367 0.1089083 1.01
-0.083636247 0.10538869 1.0134287
-0.079505779 0.10362551 1.0190001
-0.10183886 0.11166541 1.0190001
-0.095168367 0.11284684 1.0159999
-0.088532813 0.11205027 1.016
-0.18842766 -0.1722742 1.0235001
-0.20237547 -0.14475101 1.027
-0.19585472 -0.145713 1.0253333
-0.18960108 -0.14826626 1.0250001
-0.20435011 -0.13405548 1.028
-0.19516477 -0.13233277 1.0278
-0.18432559 -0.13320717 1.0266498
-0.17516953 -0.13354978 1.0267999
-0.16852689 -0.13247836 1.028
-0.13608322 -0.13067593 1.028
-0.091623358 -0.13127674 1.028
-0.084186353 -0.13280946 1.0270624
-0.07707715 -0.13331112 1.0246999
-0.034310397 -0.13485326 1.0255001
-0.026455013 -0.13178825 1.0277272
-0.20317511 -0.12426003 1.0275999
-0.19474356 -0.12474434 1.0236799
-0.18458475 -0.12455004 1.0220999
-0.17493361 -0.12469836 1.02332
-0.16614287 -0.1244751 1.0261998
-0.15511073 -0.12258141 1.0263846
-0.14445595 -0.12361635 1.0257059
-0.13495612 -0.12504399 1.0251033
-0.12626034 -0.12497842 1.027
-0.10063549 -0.12226462 1.028
-0.094032094 -0.12461359 1.0259544
-0.086139634 -0.12595153 1.0228001
-0.076198645 -0.12927167 1.0226002
-0.032041837 -0.12592846 1.0223752
-0.025169104 -0.12495307 1.0253998
-0.018024266 -0.12436745 1.028
-0.22312577 -0.11237438 1.0271
-0.21401998 -0.11297 1.02575
-0.20529795 -0.11544239 1.0249997
-0.19504029 -0.1155488 1.022346
-0.18435962 -0.1173699 1.0220002
-0.17488007 -0.11479652 1.0229996
-0.16511175 -0.11486167 1.0235833
-0.15492907 -0.11490486 1.0226773
-0.14504094 -0.11457401 1.0221713
-0.13528895 -0.11684285 1.0220002
-0.12492251 -0.11595868 1.0229999
-0.11506266 -0.11416986 1.0253998
-0.10508237 -0.11503548 1.025107
-0.096690096 -0.1168391 1.0228825
-0.032482725 -0.11441249 1.0226924
-0.025842866 -0.11600555 1.0263447
-0.017123055 -0.11681109 1.028
-0.2433276 -0.1018371 1.028
-0.23480874 -0.10375302 1.0250001
-0.22519994 -0.10714597 1.0227503
-0.21541278 -0.10815436 1.0220002
-0.20875713 -0.10841035 1.0220001
-0.17291899 -0.10681755 1.0220002
-0.16539297 -0.10617048 1.0220001
-0.15499993 -0.10789838 1.0220002
-0.14492045 -0.10796238 1.0220002
-0.1209537 -0.10841035 1.0220001
-0.11378608 -0.10841034 1.0220001
-0.10661844 -0.10841035 1.0220001
-0.0403179 -0.10124273 1.0220001
-0.035036977 -0.10487234 1.0248636
-0.02913923 -0.108446 1.028
-0.2532959 -0.091534816 1.0270001
-0.24521548 -0.095352307 1.0250001
-0.23792538 -0.098792441 1.0226002
-0.040863689 -0.094921209 1.0228573
-0.037901416 -0.096702375 1.0266666
-0.26311469 -0.082110494 1.0255001
-0.25662753 -0.085268028 1.0254614
-0.26404643 -0.075884387 1.0252856
-0.25778559 -0.074153587 1.0229234
-0.26135185 -0.065788567 1.028
-0.25600904 -0.06433595 1.0249999
-0.24997097 -0.060028873 1.0220001
-0.027774554 -0.060028873 1.0220001
-0.26045066 -0.057677653 1.028
-0.25476211 -0.054912146 1.026857
-0.24817906 -0.053757202 1.0220002
-0.027774554 -0.058236968 1.0220001
-0.25188911 -0.048214912 1.028
-0.24591433 -0.044502992 1.0256249
-0.23862223 -0.040915202 1.0220001
-0.24415506 -0.03511839 1.0271428
-0.23810971 -0.034827922 1.0230001
-0.25233972 -0.029740039 1.028
-0.24696681 -0.029277509 1.0244001
-0.27126521 -0.0135182 1.028
-0.26717818 -0.015582352 1.0236366
-0.0057015475 -0.012904242 1.027
-0.27126521 -0.0099133467 1.028
-0.26505414 -0.0053395703 1.0257059
-0.25786257 -0.0020909964 1.0225002
-0.0074905325 -0.0032971432 1.0256667
-0.26180246 0.00135182 1.028
-0.25474775 0.0051004472 1.0259999
-0.24775267 0.0087919142 1.0232
-0.011647393 0.0080635799 1.0220001
-0.0077178227 0.0052070492 1.0240998
-0.25143853 0.011715773 1.028
-0.24517669 0.014463247 1.0261538
-0.23825902 0.017637948 1.0230001
-0.012470973 0.015666522 1.0243334
-0.0083957631 0.014545727 1.0262499
-0.24152517 0.026135188 1.028
-0.23500156 0.025404146 1.0237305
-0.22454293 0.026067976 1.022
-0.21891125 0.02717725 1.0220001
-0.01477296 0.024537275 1.0258572
-0.0099133467 0.020727906 1.028
-0.25215629 0.03692279 1.0272501
-0.24576111 0.034251001 1.0237502
-0.23921953 0.031358365 1.0220001
-0.022442667 0.036807727 1.024
-0.25179476 0.044517618 1.027
-0.24707621 0.046189815 1.0230002
-0.034474872 0.047042347 1.0237646
-0.026474416 0.045468278 1.0245713
-0.25143853 0.05136916 1.028
-0.24356936 0.053921536 1.0263846
-0.23618107 0.056192394 1.0243572
-0.22757214 0.058236968 1.0220001
-0.040436249 0.053918943 1.0250001
-0.035729282 0.051644579 1.0275
-0.027937612 0.05136916 1.028
-0.23321095 0.062130332 1.0271
-0.22575822 0.064890742 1.0251501
-0.21771665 0.068391107 1.0220001
-0.0403179 0.068988405 1.0220001
-0.037740499 0.069190919 1.0250001
-0.22079727 0.071195856 1.028
-0.21446958 0.073965676 1.02575
-0.20581873 0.077071078 1.0239286
-0.19979759 0.079739846 1.0220001
-0.043017436 0.07626386 1.0234212
-0.038235467 0.073061571 1.0238001
-0.20367423 0.081559807 1.028
-0.19480349 0.085406698 1.0254616
-0.18780391 0.088959746 1.0250001
-0.073020197 0.087803431 1.0220001
-0.064177588 0.087616712 1.022231
-0.054998677 0.086721279 1.024
-0.046423301 0.083368562 1.0250001
-0.18289165 0.091446273 1.026
-0.17506181 0.093699649 1.025
-0.166307 0.097414151 1.0232
-0.073810987 0.094732352 1.022625
-0.065567948 0.093824089 1.0257498
-0.05797806 0.091623358 1.028
-0.16360363 0.10276943 1.0265
-0.15484647 0.10357001 1.0251764
-0.14552774 0.10563424 1.024
-0.13528895 0.10841035 1.0220001
-0.12274561 0.10781305 1.0220001
-0.11781786 0.10796237 1.0220001
-0.074935749 0.10484565 1.0249997
-0.14209129 0.11145005 1.028
-0.1352763 0.11248823 1.0244375
-0.12557951 0.11244538 1.0243684
-0.11461284 0.11298808 1.0255713
-0.1052175 0.11462771 1.0241429
-0.094807439 0.11789958 1.0243572
-0.084678829 0.11588473 1.0233041
-0.076066829 0.11475194 1.0261248
-0.091623358 0.12226462 1.028
-0.0850797 0.12258239 1.0274545
-0.078327529 0.12154546 1.027
-0.19071095 -0.17444175 1.031
-0.17162223 -0.15160267 1.0380001
-0.16394103 -0.15394442 1.0367502
-0.15503095 -0.15430647 1.0372002
-0.14529347 -0.15045004 1.0380001
-0.13012713 -0.15014669 1.0380001
-0.12575924 -0.15123868 1.0380001
-0.11665943 -0.15087469 1.0380001
-0.090088017 -0.15287665 1.0380001
-0.08702144 -0.15138105 1.034
-0.20366603 -0.14069827 1.031
-0.19400732 -0.14232874 1.031
-0.18538068 -0.14424852 1.0329645
-0.17522629 -0.14383015 1.0332594
-0.16488379 -0.14495604 1.033417
-0.1550069 -0.14503574 1.0340003
-0.14528874 -0.14441489 1.0347744
-0.13494654 -0.14452498 1.0363079
-0.12489538 -0.14408661 1.0350716
-0.1152579 -0.1440827 1.0378401
-0.10550413 -0.14361626 1.0380001
-0.094834365 -0.14423586 1.0373602
-0.085276872 -0.14438048 1.0352801
-0.078562483 -0.14214011 1.036
-0.035197727 -0.14317995 1.0361252
-0.02551296 -0.14319874 1.0372943
-0.21171047 -0.13348754 1.0335
-0.20527881 -0.13477899 1.031
-0.19497192 -0.13699682 1.031
-0.18679428 -0.1370829 1.031
-0.17263408 -0.13756496 1.031
-0.1643746 -0.13508163 1.0313601
-0.15527402 -0.1348161 1.0331113
-0.14482631 -0.13487157 1.0325001
-0.13469617 -0.13492344 1.0317501
-0.12484784 -0.1348033 1.0320002
-0.11474214 -0.13550511 1.0358573
-0.1047833 -0.13504039 1.0353335
-0.095509648 -0.1353599 1.0330911
-0.086381704 -0.13703243 1.0317501
-0.078634366 -0.13828804 1.031
-0.032267764 -0.1378196 1.0320001
-0.024626816 -0.13629633 1.0324739
-0.01589239 -0.13388708 1.0361001
-0.0049138917 -0.13049112 1.0380001
-0.2215945 -0.12194135 1.0333999
-0.21400855 -0.12404934 1.0316924
-0.20716091 -0.12708035 1.031
-0.16323411 -0.12852652 1.031
-0.15519522 -0.12754823 1.031
-0.14619666 -0.1285717 1.031
-0.12116051 -0.12527655 1.032091
-0.11504345 -0.12501116 1.0333003
-0.10560364 -0.12597467 1.0327145
-0.097916365 -0.12864704 1.031
-0.013494355 -0.12529284 1.0334002
-0.0055820285 -0.12502947 1.0366669
-0.23434131 -0.11405601 1.0360715
-0.22636388 -0.11595236 1.0323126
-0.21762539 -0.11699751 1.031
-0.022604723 -0.11225192 1.0314287
-0.014170382 -0.11391236 1.0318002
-0.0072433711 -0.11498745 1.0328002
-0.25212449 -0.10066719 1.0345001
-0.24501896 -0.10408876 1.0324286
-0.23631968 -0.10760952 1.0315001
-0.032086439 -0.10168237 1.031
-0.025011007 -0.104744 1.0335456
-0.015069543 -0.10494173 1.0342189
-0.0055951127 -0.105367 1.0364518
-0.2524305 -0.096194752 1.031
-0.04067295 -0.091288179 1.031
-0.033712942 -0.094127469 1.0346088
-0.024976369 -0.095854059 1.0375385
-0.015028302 -0.095283687 1.0378622
-0.0045498996 -0.095547885 1.0380001
-0.040732123 -0.088706829 1.0325
-0.037917148 -0.087642126 1.036
-0.01546966 -0.088268057 1.0380001
-0.27166164 -0.072766311 1.0350001
-0.26783893 -0.072006188 1.031
-0.27208403 -0.064608581 1.0380001
-0.26640218 -0.064606361 1.0324287
-0.27099204 -0.056600757 1.0380001
-0.26499382 -0.054861188 1.0327002
-0.25940302 -0.052422911 1.031
-0.262721 -0.046564016 1.0353078
-0.25574374 -0.044804148 1.0320871
-0.25443193 -0.035197172 1.0340871
-0.24765305 -0.035249889 1.031
-0.27570421 -0.011789852 1.0345001
-0.0045192167 -0.011749963 1.031
-0.27462247 -0.0053988188 1.0344349
-0.26783893 -0.0015064055 1.031
-0.0049856035 -0.00407913 1.034
-0.27358028 0.0032877699 1.0367693
-0.26499727 0.0053895381 1.0323335
-0.2581979 0.0087371515 1.031
-0.0028667003 0.0063432679 1.0336667
-0.26387492 0.012365909 1.0372002
-0.2548632 0.015665948 1.0335239
-0.24747233 0.017784791 1.0315
-0.0043102414 0.01430205 1.0361251
-0.25128448 0.023789477 1.0380001
-0.24583359 0.024642428 1.032059
-0.013400338 0.0267058 1.0346667
-0.0087652057 0.022066576 1.0343333
-0.26234424 0.037260089 1.0366668
-0.25535911 0.034972746 1.0336668
-0.24855691 0.031634517 1.031
-0.020858968 0.034465712 1.0345001
-0.017761642 0.033323981 1.0352857
-0.26205495 0.042009514 1.0372001
-0.25664371 0.044714969 1.0338334
-0.022661833 0.042604245 1.034
-0.25252923 0.054806132 1.0361668
-0.24698976 0.056394797 1.0320001
-0.04067295 0.058749817 1.031
-0.034910135 0.05640661 1.0343502
-0.027869781 0.055065293 1.033875
-0.24248855 0.063425474 1.0351111
-0.23599777 0.066197507 1.0324668
-0.22748294 0.069194637 1.0317501
-0.038219161 0.06096866 1.0380001
-0.23264752 0.072929785 1.0366251
-0.22456932 0.074925922 1.0338335
-0.21752496 0.077429242 1.031
-0.22112514 0.082808182 1.0380001
-0.21434869 0.083385952 1.0344212
-0.20533782 0.0856359 1.0327896
-0.1976404 0.088275366 1.031
-0.05151907 0.089480489 1.031
-0.045925792 0.087023623 1.034
-0.20328954 0.091543987 1.0380001
-0.19415213 0.09516716 1.035522
-0.18518896 0.096053652 1.0331055
-0.1759264 0.097686745 1.0317501
-0.061851609 0.097456254 1.0325
-0.0549776 0.095408566 1.0345716
-0.049042486 0.092639118 1.036
-0.19434573 0.10126777 1.0380001
-0.18424161 0.1017734 1.0375557
-0.17444332 0.10387415 1.0345715
-0.16625595 0.1067884 1.0322859
-0.15591374 0.10857229 1.0312728
-0.14913414 0.10936505 1.031
-0.071403623 0.1084612 1.031
-0.066292137 0.10396405 1.0348002
-0.05778373 0.10146277 1.0380001
-0.16432975 0.11130476 1.0356001
-0.15399155 0.11348928 1.0356156
-0.14507765 0.11482146 1.0343126
-0.13430054 0.11780306 1.0327778
-0.12416685 0.11742017 1.0324546
-0.11514593 0.11815962 1.0315001
-0.10936505 0.11840348 1.031
-0.071403623 0.11749963 1.031
-0.068800978 0.1136416 1.0354002
-0.13376705 0.12102734 1.0380001
-0.12418684 0.12056095 1.034
-0.11192754 0.12102733 1.0380001
-0.10427126 0.12243214 1.0357502
-0.095191315 0.12549058 1.0353751
-0.084820762 0.12685901 1.0342729
-0.0758081 0.1235309 1.0335556
-0.091907978 0.13012713 1.0380001
-0.15512003 -0.18082039 1.0470001
-0.19628413 -0.17610416 1.04625
-0.17164169 -0.17255956 1.0470001
-0.16521659 -0.17295292 1.0470001
-0.15525115 -0.17439529 1.0470001
-0.14474411 -0.1743554 1.0470003
-0.13712978 -0.17237599 1.0470001
-0.12445818 -0.17491999 1.0485001
-0.11506753 -0.17297676 1.0470001
-0.10702363 -0.17329386 1.0470001
-0.18213277 -0.16108225 1.044
-0.17436682 -0.16406442 1.0450002
-0.16519128 -0.16574426 1.0449003
-0.15492076 -0.16555871 1.0442309
-0.14452466 -0.16492951 1.0443429
-0.1346944 -0.16493624 1.0452002
-0.12478754 -0.16487738 1.0462064
-0.11453844 -0.16493501 1.0452002
-0.10550079 -0.16423844 1.0444447
-0.098282658 -0.16146578 1.0445001
-0.19128516 -0.15376031 1.044
-0.1849377 -0.15447642 1.0441201
-0.1756711 -0.15479417 1.0418574
-0.16586687 -0.15856597 1.041
-0.15423107 -0.15842907 1.0410001
-0.14455187 -0.15575731 1.0421741
-0.13489531 -0.15436827 1.0423849
-0.12487911 -0.15502866 1.0420501
-0.11465495 -0.15490597 1.0416001
-0.10497414 -0.15426749 1.0412402
-0.095751025 -0.15393905 1.0410002
-0.042406123 -0.15162475 1.044
-0.034860212 -0.15137623 1.0465001
-0.18160939 -0.14875543 1.041
-0.13597889 -0.14875543 1.041
-0.11188599 -0.14802535 1.041
-0.10312492 -0.14738652 1.041
-0.09445513 -0.14829913 1.041
-0.041980058 -0.14784282 1.041
-0.034117077 -0.1478378 1.0415454
-0.024348976 -0.14578398 1.0415
-0.017173899 -0.14299195 1.0433334
-0.012320236 -0.13597888 1.041
-0.0068445751 -0.13278475 1.041
-0.0036504399 -0.12411496 1.041
-0.24074653 -0.11188599 1.041
-0.03102874 -0.090348393 1.041
-0.024640471 -0.090652592 1.041
-0.012646168 -0.092173614 1.041
-0.0045630499 -0.090348393 1.041
-0.033719115 -0.084678218 1.044522
-0.024749665 -0.085240714 1.0455602
-0.014605932 -0.084952988 1.0435865
-0.0045718863 -0.085044004 1.0431603
-0.27646428 -0.070828527 1.0425
-0.021845307 -0.078386106 1.0470001
-0.014831722 -0.075611338 1.0485001
-0.0046466258 -0.07588017 1.0485001
0.00091786997 -0.078936815 1.0470001
-0.28146312 -0.065097235 1.0458
-0.27705383 -0.064919792 1.0429999
-0.28138238 -0.058660835 1.0455
-0.27622136 -0.054297339 1.0438751
-0.27402213 -0.045893095 1.0453846
-0.26735526 -0.043709848 1.0418572
-0.27168953 -0.0367148 1.0470001
-0.264898 -0.035003055 1.043667
-0.25826862 -0.033766571 1.041
-0.28275636 -0.0034072846 1.0431819
-0.27834606 -0.0027378299 1.041
-0.28262997 0.0032102435 1.0458751
-0.27626836 0.0070066121 1.0423332
-0.274627 0.013377497 1.0449002
-0.26619095 0.016722159 1.0425882
-0.0029745298 0.016019987 1.044
0.00091348664 0.011877079 1.0419999
-0.26376793 0.023790982 1.0464
-0.25621209 0.025208084 1.0422354
-0.010656759 0.02770968 1.0419999
-0.0064131352 0.024744237 1.0453635
-0.2648415 0.033842318 1.0434
-0.25717583 0.031347409 1.0415
-0.02105052 0.038440078 1.044
-0.014483564 0.034736421 1.044353
-0.0082608303 0.03120758 1.0470001
-0.27191898 0.046352435 1.0470001
-0.26550078 0.045532569 1.0424119
-0.021701006 0.04309693 1.046
-0.01927527 0.041304149 1.0470001
-0.27260739 0.052318584 1.0470001
-0.26410794 0.053025618 1.0448334
-0.25647607 0.055861857 1.0417501
-0.03011613 0.059319649 1.041
-0.0273783 0.059319649 1.041
-0.25299436 0.063281931 1.0461428
-0.24718405 0.065683372 1.0430001
-0.034620333 0.06467291 1.0438753
-0.026587278 0.064251296 1.0458461
-0.24236414 0.072580107 1.045
-0.23582578 0.07670062 1.044
-0.22867675 0.078864932 1.0419999
-0.035796929 0.070675991 1.0470001
-0.23038536 0.081690431 1.0470001
-0.22485252 0.084723912 1.04475
-0.21700919 0.088084839 1.0430001
-0.21398678 0.091132134 1.0458
-0.20506072 0.095278509 1.0435715
-0.19925319 0.097649276 1.041
-0.051179796 0.09870521 1.0425
-0.04579246 0.093727715 1.0447501
-0.19443655 0.10418876 1.0425
-0.18525051 0.10631008 1.0433078
-0.17917575 0.10677537 1.041
-0.062480032 0.10759155 1.0430001
-0.054870564 0.10419499 1.0444
-0.048647109 0.10004783 1.0470001
-0.17357585 0.11157548 1.0444286
-0.16441973 0.11471421 1.0444286
-0.15567364 0.11667863 1.0425
-0.14784282 0.11772669 1.041
-0.13962933 0.11955191 1.041
-0.066123456 0.11417487 1.044
-0.1447175 0.12085289 1.0470001
-0.13344796 0.12275963 1.0450001
-0.12538788 0.12264478 1.044
-0.11481319 0.12434079 1.0444
-0.10507166 0.12740299 1.044
-0.098561883 0.12867801 1.041
-0.074068479 0.12645501 1.0452501
-0.06884025 0.12024097 1.0470001
-0.10341335 0.13247924 1.0470001
-0.095558591 0.13242368 1.0437858
-0.085426949 0.13201189 1.0437272
-0.077674858 0.13180463 1.0465001
-0.20108016 -0.18069415 1.057
-0.19894415 -0.18136436 1.0555
-0.1534079 -0.18151121 1.0510001
-0.14583527 -0.18206613 1.0506667
-0.13806887 -0.18069415 1.057
-0.20131743 -0.17788649 1.0549999
-0.19830024 -0.17513433 1.057
-0.1739745 -0.17213351 1.0500001
-0.16323708 -0.17751098 1.0505
-0.15457319 -0.17723165 1.0500001
-0.14589925 -0.17903724 1.0500001
-0.13492331 -0.17582579 1.0508001
-0.1153255 -0.1763415 1.0500001
-0.1242675 -0.1684515 1.0500001
-0.041422501 -0.15372349 1.0500001
-0.038660999 -0.15372349 1.0500001
-0.0138075 -0.1426775 1.0500001
-0.0340585 -0.080083497 1.0500001
-0.026694499 -0.080083497 1.0500001
-0.033336125 -0.075141899 1.0504
-0.025285775 -0.074178904 1.0505452
0.00092049997 -0.074560501 1.0500001
-0.28551805 -0.067452483 1.054
-0.030990167 -0.06842383 1.0500001
-0.023752665 -0.066357844 1.0539412
-0.014820697 -0.064817764 1.0527941
-0.0048842016 -0.064722292 1.0520002
-0.28313178 -0.055333447 1.052
-0.015289504 -0.057914786 1.057
-0.0074130935 -0.058378108 1.057
-0.28200704 -0.045482092 1.0527143
-0.27816308 -0.043309588 1.0511429
-0.28173906 -0.035794884 1.0560001
-0.27654567 -0.03471595 1.05325
-0.26970649 -0.0303765 1.0500001
-0.27393356 -0.027740583 1.0547501
-0.26673985 -0.028100673 1.0510001
-0.28848234 -0.0027626688 1.0513334
-0.28599495 0.0059924549 1.0515001
-0.28268269 0.014102561 1.0522858
-0.27759939 0.017830817 1.052
-0.0015341666 0.018716833 1.0500001
0.0016618094 0.017900482 1.0524
-0.27277288 0.024618315 1.054091
-0.2673395 0.026168499 1.0500001
-0.002581608 0.024910308 1.0524
0.002161714 0.024391351 1.0565001
-0.27119595 0.031878233 1.054
-0.26878601 0.033137999 1.0500001
-0.01157687 0.037602175 1.0517778
-0.0056952653 0.034037311 1.054
-0.277991 0.048786499 1.0500001
-0.021687198 0.04707152 1.0527501
-0.016057905 0.043203708 1.0530001
-0.0083397301 0.04169865 1.057
-0.27542919 0.053323947 1.0522001
-0.26756892 0.05634892 1.0536667
-0.2586605 0.059832498 1.0500001
-0.26271272 0.062010646 1.0557144
-0.25582087 0.065876827 1.0517778
-0.032217499 0.069037497 1.0500001
-0.024393249 0.067196503 1.0500001
-0.25168881 0.072173774 1.0555
-0.24614553 0.075171016 1.0508001
-0.032536056 0.072459899 1.052875
-0.028122809 0.072383516 1.0517501
-0.24271706 0.081699193 1.0538571
-0.23516569 0.083755858 1.0531429
-0.22687608 0.088534564 1.052
-0.22284406 0.09246707 1.05475
-0.21530832 0.095256604 1.0534286
-0.208033 0.097572997 1.0500001
-0.04295982 0.09624888 1.0516001
-0.039732285 0.098868713 1.054
-0.1942255 0.1076985 1.0500001
-0.185941 0.1095395 1.0500001
-0.055282604 0.1084932 1.0510001
-0.046107505 0.1030096 1.0543334
-0.038918741 0.10100339 1.057
-0.19274043 0.11026976 1.057
-0.18398051 0.11292268 1.0545715
-0.17588913 0.11449266 1.0520002
-0.1658226 0.11778301 1.05375
-0.1592465 0.1187445 1.0500001
-0.062368259 0.11519632 1.054
-0.053853635 0.11234232 1.0565715
-0.049111743 0.11026976 1.057
-0.15422693 0.12185469 1.0550001
-0.14554459 0.12397313 1.0544446
-0.13475627 0.12643407 1.054625
-0.12427356 0.12661983 1.0514547
-0.1150625 0.12868591 1.0500001
-0.108619 0.1297905 1.0500001
-0.07133875 0.12840974 1.0500001
-0.067806892 0.12497178 1.0517274
-0.13065577 0.13065577 1.057
-0.12531149 0.13113229 1.0565716
-0.11468554 0.1319503 1.0549999
-0.10531417 0.1357697 1.0526251
-0.094552331 0.13784899 1.0527273
-0.084814578 0.13766366 1.0538667
-0.074601866 0.13536856 1.0521876
-0.068360321 0.13497646 1.0553334
-0.10100339 0.14177541 1.057
-0.098223485 0.14177541 1.057
-0.21233656 -0.18053284 1.067
-0.20634699 -0.18178384 1.0612
-0.14217676 -0.18429497 1.0628
-0.13846073 -0.18306553 1.0600001
-0.21163501 -0.17421888 1.067
-0.20542839 -0.17474343 1.0618399
-0.19979233 -0.17377287 1.0600001
-0.21046574 -0.16930801 1.067
-0.20680609 -0.16852294 1.0650001
-0.00093365001 -0.12137274 1.0650001
0.0038732383 -0.12587592 1.0658573
-0.024780445 -0.062260866 1.0600001
0.00093189668 -0.060573284 1.0630001
-0.024041656 -0.055143621 1.0619411
-0.01482767 -0.054440722 1.0623076
-0.0044111195 -0.054583136 1.0616086
0.0017621975 -0.054635134 1.0643334
-0.28609228 -0.040071558 1.0630001
-0.02147395 -0.047612645 1.0650001
-0.015891336 -0.048298199 1.0663334
-0.0040895403 -0.047298037 1.0657501
0.0018651958 -0.045694496 1.0638001
-0.28716883 -0.038351536 1.067
-0.27785072 -0.028807266 1.0600001
0.0065048668 0.0195146 1.0600001
-0.28209361 0.024864193 1.0662
-0.27810565 0.025857283 1.0627501
0.0058118952 0.025606219 1.0635386
-0.27684635 0.03300884 1.0656667
-0.0021717956 0.035990674 1.0616667
0.0014015707 0.032220788 1.06525
-0.014275055 0.047179569 1.0621667
-0.0056080366 0.041587751 1.0660001
-0.27423799 0.057831068 1.064
-0.26855806 0.058543801 1.0600001
-0.02257785 0.053928852 1.0642
-0.017370448 0.0517442 1.0654
-0.27229685 0.064100988 1.0665555
-0.2659269 0.065585248 1.0622143
-0.25889048 0.069141239 1.061
-0.27220237 0.072026059 1.067
-0.26492703 0.071610332 1.067
-0.25496945 0.075236335 1.0635386
-0.25162348 0.081380092 1.067
-0.24493317 0.086514562 1.0652728
-0.23568253 0.088125154 1.0626
-0.24320488 0.09135773 1.067
-0.23269889 0.092050441 1.066
-0.22525848 0.095632344 1.0625001
-0.21574438 0.099501885 1.0607501
-0.222626 0.10102355 1.067
-0.21484506 0.10314646 1.06475
-0.20596009 0.10568169 1.0653077
-0.043454949 0.10717352 1.0616155
-0.037770309 0.10568671 1.0612
-0.20204711 0.11131299 1.067
-0.19560497 0.11570287 1.0670834
-0.18629366 0.11632147 1.0630001
-0.17444877 0.11887998 1.0603334
-0.16633873 0.1198754 1.0600001
-0.0613316 0.1198754 1.0600001
-0.054584336 0.11677096 1.0613334
-0.046004836 0.11290597 1.0643846
-0.036480729 0.11131299 1.067
-0.18301521 0.12132487 1.0662
-0.17481966 0.12341531 1.0648667
-0.16479993 0.12469108 1.0640554
-0.15499707 0.1269546 1.061875
-0.1449656 0.1282388 1.0600002
-0.1362305 0.12842464 1.0600001
-0.062450863 0.12533209 1.0632727
-0.057609569 0.12176228 1.0656667
-0.16182478 0.13002107 1.067
-0.15467808 0.13285668 1.0667335
-0.14459015 0.1341169 1.0648333
-0.13514319 0.1351466 1.0631304
-0.12528789 0.13636553 1.0619472
-0.1163066 0.13643266 1.0613751
-0.1087242 0.13846073 1.0600001
-0.064524084 0.13580914 1.062875
-0.13095647 0.1412459 1.067
-0.12721485 0.1412459 1.067
-0.11131299 0.1412459 1.067
-0.10452469 0.14370239 1.0638462
-0.094275944 0.14556979 1.0637
