# .PCD v0.7 - Point Cloud Data file format
VERSION 0.7
FIELDS x y z
SIZE 4 4 4
TYPE F F F
COUNT 1 1 1
WIDTH 1467
HEIGHT 1
VIEWPOINT 0 0 0 1 0 0 0
POINTS 1467
DATA ascii
-0.037178908 -0.037555523 1.0550001
-0.28453478 -0.025202569 1.0555882
-0.27590445 -0.024914656 1.0525602
-0.26933831 -0.026326299 1.0500001
-0.244853 -0.0285355 1.0500001
-0.089288503 -0.0285355 1.0500001
-0.2836577 -0.016248697 1.0564547
-0.27640569 -0.015044006 1.0523078
-0.2807709 -0.0083397301 1.057
-0.2743865 -0.0051615555 1.0538235
-0.2677483 -0.0030250009 1.0505716
-0.27196786 0.0023165916 1.057
-0.26605365 0.0049438844 1.0535294
-0.26312739 0.013590019 1.0548462
-0.25668731 0.016442657 1.0521176
-0.28308749 0.026718022 1.057
-0.27558175 0.026748912 1.057
-0.26421496 0.026131153 1.057
-0.25479808 0.025415735 1.0550474
-0.24807854 0.02609895 1.0506667
-0.28384995 0.03457306 1.056842
-0.27491638 0.035172723 1.0540941
-0.26485163 0.034769066 1.0523846
-0.25470138 0.034177005 1.0537504
-0.24631611 0.035188019 1.0518948
-0.080083497 0.038660999 1.0500001
-0.074168339 0.038237862 1.0510001
-0.06847249 0.038864825 1.0555
-0.28138867 0.042316407 1.057
-0.27420047 0.044959333 1.0544091
-0.26647955 0.045868143 1.0512309
-0.2476145 0.041422501 1.0500001
-0.091743171 0.048172832 1.0500001
-0.084378488 0.045953251 1.0516316
-0.075713538 0.043643024 1.0554167
-0.2728945 0.051428333 1.057
-0.26497152 0.053820681 1.0531176
-0.10270149 0.058517497 1.0500001
-0.094538897 0.054661788 1.0531499
-0.086738855 0.052992061 1.0563334
-0.26158878 0.062968552 1.0562501
-0.25694063 0.065177932 1.0525454
-0.1144386 0.067590423 1.0513334
-0.10543314 0.064217821 1.0535263
-0.097611226 0.062050473 1.0564001
-0.25225383 0.072534524 1.054
-0.24547113 0.076295525 1.0513334
-0.13028494 0.078540564 1.054
-0.1251277 0.075117715 1.0526001
-0.11612524 0.072175756 1.0555
-0.242726 0.080907784 1.0547501
-0.23506171 0.083933324 1.0533334
-0.22680032 0.088251926 1.0508001
-0.13028494 0.080388576 1.054
-0.12913184 0.085361034 1.0546666
-0.22351132 0.093613863 1.054625
-0.21781373 0.096852504 1.052143
-0.171213 0.097573005 1.0500001
-0.16483158 0.097610526 1.0504001
-0.15494733 0.098080158 1.0505
-0.14396487 0.097896934 1.0510001
-0.1343984 0.098420002 1.0525
-0.12847769 0.095595963 1.0518334
-0.21348938 0.10279424 1.0542222
-0.20641223 0.10671611 1.0530001
-0.17148446 0.10490656 1.0521818
-0.16513464 0.1037472 1.0547
-0.15532073 0.10231581 1.0555
-0.14506973 0.1026219 1.0559286
-0.13614984 0.10234556 1.0565001
-0.12756698 0.10162115 1.057
-0.20293343 0.11212303 1.057
-0.19357015 0.11463508 1.0537273
-0.18606994 0.11715291 1.0522144
-0.17456421 0.11634108 1.0521876
-0.16778976 0.11549509 1.0565385
-0.18347406 0.1213894 1.057
-0.17606097 0.1213894 1.057
-0.21280207 -0.18492407 1.0600001
-0.22408906 -0.1625053 1.0614547
-0.21621157 -0.16488656 1.0626365
-0.20874485 -0.16494571 1.0630001
-0.23323287 -0.15617697 1.0638461
-0.22781059 -0.15871873 1.0650001
-0.24226946 -0.12066703 1.067
-0.23435451 -0.12225003 1.0670002
-0.22842547 -0.12216368 1.067
-0.20542929 -0.12475844 1.0699998
-0.17211421 -0.12066703 1.067
-0.16494437 -0.12303486 1.0665295
-0.15502343 -0.1242105 1.0652665
-0.1450472 -0.12387785 1.0668181
-0.13489281 -0.12441204 1.0682143
-0.12721485 -0.12066703 1.067
-0.081635371 -0.12403519 1.0606
-0.075461276 -0.12334736 1.0626999
-0.067821369 -0.12166429 1.0630001
-0.30774769 -0.11131299 1.067
-0.27273691 -0.11211477 1.067
-0.26477373 -0.11322802 1.0661432
-0.25521389 -0.11402358 1.0651999
-0.24480841 -0.11448531 1.0636538
-0.23461892 -0.11506772 1.0625652
-0.22474289 -0.11544134 1.0671765
-0.21484119 -0.11468174 1.0678333
-0.20693396 -0.11342372 1.0684999
-0.19451401 -0.11363417 1.0684999
-0.18427445 -0.1117807 1.067
-0.17413743 -0.1143598 1.0654762
-0.16522047 -0.11481617 1.0647599
-0.15514302 -0.11456861 1.0611538
-0.14504418 -0.11436362 1.0617585
-0.13539414 -0.11541778 1.0612633
-0.1264191 -0.11674105 1.0619001
-0.075038284 -0.11627448 1.0600002
-0.065060943 -0.11432206 1.0601999
-0.05629421 -0.11294603 1.0606923
-0.2815564 -0.10289437 1.067
-0.27548996 -0.10523328 1.0646249
-0.2657747 -0.10697482 1.0610715
-0.25554833 -0.1087242 1.0600001
-0.22297616 -0.10699301 1.0612502
-0.2147678 -0.10565269 1.0613637
-0.2053677 -0.10552095 1.063107
-0.19525987 -0.10514743 1.0634444
-0.18525302 -0.10564084 1.0642591
-0.17466007 -0.10498414 1.0617498
-0.16481921 -0.10556973 1.0605454
-0.15518752 -0.10593641 1.0600001
-0.14646672 -0.1071516 1.0600002
-0.062570624 -0.10810468 1.0600001
-0.054710574 -0.10663335 1.0600002
-0.047658108 -0.10633465 1.0600001
-0.28441358 -0.094724819 1.0685
-0.27553222 -0.094782375 1.0622607
-0.20165086 -0.09943153 1.0600001
-0.19384503 -0.098502256 1.0600002
-0.18463813 -0.097858921 1.0600002
-0.17497544 -0.097682327 1.0600002
-0.16726799 -0.098502263 1.0600001
-0.2815564 -0.085121706 1.067
-0.27521214 -0.084923245 1.0635415
-0.26855806 -0.086421803 1.0600001
-0.2815564 -0.076703072 1.067
-0.27521947 -0.075094461 1.0633702
-0.26855806 -0.077129133 1.0600001
-0.077129133 -0.071553536 1.0600001
-0.27417344 -0.065099932 1.0642173
-0.26785147 -0.06465783 1.0605454
-0.090138867 -0.062260866 1.0600001
-0.084040292 -0.063401878 1.0604501
-0.075363442 -0.065124676 1.0612998
-0.057304781 -0.061641354 1.0600001
-0.27401319 -0.054845657 1.0667647
-0.26629069 -0.054680794 1.0614119
-0.090138867 -0.057614535 1.0600001
-0.085066304 -0.056634806 1.0634375
-0.07465034 -0.055972155 1.0651053
-0.064905584 -0.055183541 1.0630713
-0.055192262 -0.054622967 1.0607826
-0.046153575 -0.051109668 1.0600001
-0.30026448 -0.040222343 1.067
-0.29442108 -0.042037681 1.0655454
-0.28500158 -0.044582274 1.0638
-0.2752541 -0.045702323 1.0637599
-0.26517352 -0.045591827 1.0613198
-0.063062437 -0.04602237 1.0665555
-0.054996479 -0.044738073 1.0632331
-0.045594651 -0.044527739 1.0613928
-0.039493833 -0.044604797 1.0600001
-0.30026448 -0.034609921 1.067
-0.2944701 -0.034479868 1.06295
-0.28737572 -0.03833225 1.0600001
-0.26669952 -0.039958466 1.0600001
-0.054814637 -0.03722905 1.0670002
-0.043701924 -0.037534393 1.0651001
-0.039338958 -0.038719445 1.0600001
-0.30026448 -0.025255889 1.067
-0.29451177 -0.025163051 1.0631
-0.28900194 -0.023851177 1.0600001
-0.29437679 -0.0162351 1.0660001
-0.28772542 -0.013951273 1.061
-0.29091042 -0.0084186299 1.067
-0.2845507 -0.0049089822 1.0637335
-0.27804732 -0.0018591909 1.06075
-0.28255498 0.0043355944 1.0662729
-0.27598125 0.0054263598 1.0624706
-0.29315537 0.019269308 1.067
-0.28589877 0.014588319 1.0681667
-0.2751905 0.014925424 1.0640665
-0.26758215 0.01631899 1.0608182
-0.29410231 0.025205158 1.0650001
-0.28675908 0.023531552 1.0606925
-0.27479225 0.022472402 1.0607502
-0.26598471 0.024232415 1.0600002
-0.29358447 0.033745456 1.0642501
-0.28805679 0.036787812 1.0604285
-0.29215762 0.042093147 1.067
-0.28547806 0.045349531 1.0637501
-0.27970928 0.047392599 1.0600001
-0.074712798 0.047978297 1.0617274
-0.06767799 0.044621523 1.0620002
-0.28217998 0.052070785 1.067
-0.27540353 0.055402134 1.0633572
-0.2681919 0.05797952 1.061
-0.084299006 0.056065068 1.0618889
-0.077299058 0.05366281 1.0645
-0.27033156 0.06454283 1.067
-0.2651777 0.065627672 1.0623333
-0.25926539 0.069694996 1.0600001
-0.103303 0.068871044 1.0616251
-0.094216853 0.063267693 1.0624616
-0.086551711 0.06112979 1.0662
-0.26440179 0.072827525 1.0665555
-0.25616267 0.07583987 1.0642143
-0.24997273 0.077129133 1.0600001
-0.12396417 0.078244254 1.0600001
-0.1147612 0.076789856 1.0617001
-0.10602149 0.073690742 1.064
-0.2522471 0.08200369 1.067
-0.24548759 0.085250951 1.0635716
-0.23842733 0.087744109 1.061
-0.13002107 0.08699251 1.067
-0.12398127 0.082925089 1.0645001
-0.11505461 0.081380092 1.067
-0.24196672 0.09124434 1.0656667
-0.23422177 0.093441993 1.0639412
-0.22654317 0.096914984 1.0612501
-0.1265578 0.096784443 1.0615001
-0.23198003 0.10102356 1.067
-0.22422996 0.10346331 1.0646925
-0.2157909 0.1068726 1.0619
-0.16224995 0.10798079 1.0600001
-0.15487777 0.1073303 1.0600002
-0.14532301 0.10758049 1.0600002
-0.13440707 0.10687134 1.0612668
-0.12695773 0.10477718 1.0633
-0.21207123 0.1117975 1.0656667
-0.2046347 0.11414691 1.062
-0.19707456 0.11712868 1.0603751
-0.16343653 0.11467841 1.0624706
-0.15568434 0.11277172 1.0641875
-0.14449799 0.11187212 1.0634
-0.1362801 0.1116037 1.0662
-0.19364779 0.12319202 1.0636668
-0.18526535 0.1256516 1.0625883
-0.17431848 0.12514466 1.0615263
-0.16598724 0.12360777 1.0633334
-0.17492042 0.13048877 1.067
-0.2229708 -0.16127892 1.0716668
-0.21756326 -0.16356409 1.0743333
-0.25114921 -0.15012303 1.077
-0.24364862 -0.1512185 1.0714
-0.23459372 -0.1523741 1.0713845
-0.22714214 -0.15570574 1.074
-0.19166651 -0.15012303 1.077
-0.188834 -0.15012303 1.077
-0.15075247 -0.15075247 1.077
-0.14596869 -0.1505007 1.077
-0.24337824 -0.14561103 1.076238
-0.23446447 -0.14504783 1.0732582
-0.22663148 -0.14385836 1.0756665
-0.21592258 -0.14185314 1.0763333
-0.20478801 -0.14309996 1.0759999
-0.19509505 -0.14420184 1.0750799
-0.18554911 -0.14404424 1.0760767
-0.17655979 -0.14068133 1.077
-0.16428557 -0.14162549 1.077
-0.15475556 -0.14414711 1.0758332
-0.14476691 -0.14365441 1.0735927
-0.13827752 -0.1410995 1.0730001
-0.25272283 -0.13123962 1.077
-0.24380028 -0.13454179 1.0763683
-0.23466493 -0.13437487 1.0725
-0.2250942 -0.13436218 1.0723333
-0.21519676 -0.13438115 1.0719199
-0.20511277 -0.13446401 1.0714999
-0.1950939 -0.13434799 1.0727777
-0.18487491 -0.13484378 1.074
-0.17512883 -0.13431416 1.0745
-0.16482718 -0.13437036 1.0729614
-0.15500158 -0.13433748 1.0715599
-0.14546186 -0.13420001 1.0704799
-0.13610867 -0.13376404 1.0701249
-0.12887087 -0.13075221 1.0730001
-0.27412403 -0.12211265 1.077
-0.26459211 -0.12335353 1.0740768
-0.25482136 -0.12471298 1.0729165
-0.24533333 -0.12540017 1.0710908
-0.23597127 -0.12713353 1.0702499
-0.22464071 -0.12537891 1.07144
-0.21493176 -0.12482966 1.0705999
-0.19529119 -0.12487715 1.0709999
-0.18526922 -0.12508108 1.07276
-0.17578661 -0.12517802 1.0707825
-0.16720445 -0.12757254 1.0700001
-0.1447698 -0.12851056 1.0700001
-0.12721036 -0.12470778 1.0713334
-0.30440897 -0.1127759 1.0745714
-0.29174852 -0.11141206 1.077
-0.28460285 -0.11367855 1.0747647
-0.27531496 -0.11646824 1.071375
-0.26561385 -0.11825899 1.0706
-0.25577042 -0.11881756 1.0700001
-0.24857883 -0.11913023 1.0700001
-0.18513402 -0.11664738 1.0701666
-0.17822632 -0.1181922 1.0700001
-0.31242087 -0.10935978 1.0723333
-0.29349235 -0.10475238 1.0764667
-0.28546029 -0.10498882 1.0703332
-0.29346612 -0.094993182 1.0754999
-0.29329783 -0.08593601 1.0757499
-0.28631544 -0.08542414 1.0708001
-0.29174852 -0.078366108 1.077
-0.28597304 -0.075262129 1.0725237
-0.28400639 -0.064887628 1.0726999
-0.3049669 -0.050041009 1.077
-0.29615465 -0.050670456 1.077
-0.28453737 -0.055222869 1.0723912
-0.27859589 -0.056281999 1.0700001
-0.085049324 -0.052489929 1.0713334
-0.076973967 -0.052566029 1.0707501
-0.31181213 -0.042723693 1.077
-0.30486831 -0.044618256 1.0736499
-0.2953642 -0.047170941 1.0711539
-0.28610018 -0.049340554 1.0700001
-0.085153297 -0.045076862 1.0755311
-0.074886069 -0.045438778 1.0738485
-0.066976614 -0.043344881 1.071
-0.31289795 -0.03531196 1.0769999
-0.30586925 -0.034750476 1.0713333
-0.08025445 -0.03493429 1.077
-0.07354036 -0.035458826 1.0769999
-0.064896971 -0.034794409 1.0728
-0.055667572 -0.032997441 1.0714
-0.046327304 -0.033490863 1.0711665
-0.31214261 -0.027758598 1.077
-0.30561492 -0.025485411 1.0718125
-0.063939027 -0.028311513 1.0765001
-0.054978706 -0.027237877 1.0758234
-0.047218647 -0.028113572 1.0741428
-0.30263293 -0.017025257 1.0724444
-0.29720765 -0.012466575 1.0704286
-0.087069653 -0.019175915 1.0756668
-0.294525 -0.0053337137 1.0739166
-0.28891426 -0.0028141001 1.0700001
-0.29243639 0.0055550467 1.0756667
-0.28714243 0.0051070703 1.0700001
-0.30312735 0.016018454 1.0749334
-0.29571384 0.01436168 1.0721427
-0.31063193 0.02549259 1.077
-0.30467856 0.025388572 1.07265
-0.29923263 0.025326902 1.0700001
-0.31063193 0.031157609 1.077
-0.30360132 0.033785179 1.0726923
-0.29816058 0.035511263 1.0700001
-0.30194795 0.042462517 1.0763334
-0.2952759 0.045750067 1.0722777
-0.28922692 0.047839701 1.0700001
-0.070352502 0.049715765 1.0700001
-0.063863091 0.047277998 1.0727273
-0.29414591 0.053166814 1.0765556
-0.28580162 0.054634023 1.0727272
-0.27671981 0.059096098 1.0700001
-0.073608443 0.056247342 1.0724705
-0.06611225 0.052493725 1.0756667
-0.27469331 0.063861184 1.0727273
-0.093852036 0.067547366 1.0717778
-0.085266404 0.065287448 1.0740554
-0.076904789 0.062395085 1.0750999
-0.27312046 0.072585076 1.0722222
-0.26566407 0.076552846 1.0708182
-0.25889719 0.0787948 1.0700001
-0.10387161 0.076688722 1.0727272
-0.096576788 0.072414577 1.0752727
-0.26153508 0.082142793 1.077
-0.25493374 0.086116329 1.0720625
-0.24764079 0.089113168 1.0700001
-0.12502295 0.087987453 1.0708182
-0.11560643 0.085611954 1.0731111
-0.10706248 0.08159443 1.0760001
-0.25154722 0.09264496 1.0746666
-0.24515085 0.094891921 1.0730666
-0.23805957 0.09728881 1.0705
-0.12540647 0.091465436 1.0756
-0.23563428 0.1037885 1.0720713
-0.22624789 0.10742422 1.0708573
-0.21856177 0.1097499 1.0700001
-0.13038664 0.1097499 1.0700001
-0.12441729 0.1079866 1.071125
-0.22429867 0.11073308 1.075
-0.21524669 0.11426405 1.0732223
-0.20604362 0.11733636 1.0707501
-0.1604037 0.11913023 1.0700001
-0.15454164 0.11769615 1.0713847
-0.14476079 0.11750534 1.0722778
-0.13467684 0.11587308 1.0727999
-0.12519167 0.11414848 1.0744544
-0.11968692 0.11120342 1.075
-0.1955575 0.12679775 1.0714
-0.16317473 0.12538455 1.0717778
-0.15588625 0.12238587 1.0747778
-0.14725772 0.12199465 1.0754001
-0.19237101 0.13207877 1.0746
-0.18474214 0.13337767 1.0725789
-0.17510369 0.1337419 1.0724374
-0.16729441 0.13235475 1.0741112
-0.19154027 -0.17057566 1.087
-0.18455207 -0.17168741 1.087
-0.17819916 -0.17438741 1.087
-0.16771686 -0.17152861 1.087
-0.22123562 -0.1606404 1.08
-0.21558668 -0.16269152 1.0852666
-0.19238731 -0.16464628 1.087
-0.18526715 -0.16495399 1.0862222
-0.17475784 -0.16442969 1.0854999
-0.16476601 -0.16476876 1.0863999
-0.15713987 -0.1628534 1.0863334
-0.22359909 -0.15405449 1.0817777
-0.21500495 -0.15507357 1.0851998
-0.20490947 -0.15498315 1.0857726
-0.19523542 -0.15502255 1.0837082
-0.18469702 -0.15468052 1.0813333
-0.17468111 -0.1547485 1.0829332
-0.16437934 -0.15487766 1.0838398
-0.15575895 -0.15486272 1.0823157
-0.25386375 -0.14436457 1.0829333
-0.24819686 -0.14350782 1.08
-0.22350267 -0.14691916 1.0812
-0.21491504 -0.14711279 1.0817499
-0.20545559 -0.14826888 1.08
-0.1813122 -0.146754 1.08
-0.17457986 -0.14568461 1.0808333
-0.16512996 -0.14629422 1.0807059
-0.1581156 -0.14864761 1.08
-0.28034046 -0.13019201 1.0840001
-0.27478042 -0.13108556 1.0855
-0.26541406 -0.13299377 1.0851332
-0.25512183 -0.13604718 1.0810908
-0.24825096 -0.13766472 1.08
-0.17231759 -0.1391796 1.08
-0.29337409 -0.1212476 1.0847501
-0.28498843 -0.12325285 1.0818946
-0.2757304 -0.12633468 1.0813334
-0.26428127 -0.12811387 1.0805
-0.30191749 -0.11245929 1.0805714
-0.29546225 -0.11529002 1.0817142
-0.28782719 -0.11740319 1.08
-0.3208442 -0.10567691 1.086
-0.31438756 -0.10530433 1.0849999
-0.3046205 -0.1054027 1.0816922
-0.298242 -0.10509481 1.08
-0.30520624 -0.095353305 1.0838213
-0.298242 -0.096573599 1.08
-0.30453673 -0.085116714 1.0834614
-0.29743329 -0.08311896 1.0805
-0.033352785 -0.08481136 1.087
-0.30343851 -0.075873978 1.0863999
-0.2954694 -0.074814737 1.0817778
-0.30017504 -0.06670557 1.087
-0.2947354 -0.065042011 1.0838635
-0.3325749 -0.050505642 1.087
-0.32487795 -0.05246792 1.0829333
-0.31539392 -0.052485313 1.0815294
-0.30424404 -0.054372899 1.084
-0.29498509 -0.055725925 1.0819374
-0.3321937 -0.044788022 1.087
-0.32549933 -0.044781595 1.0829998
-0.31650966 -0.045279313 1.08
-0.32364544 -0.035913866 1.0843889
-0.31696761 -0.033979602 1.08
-0.084582247 -0.035093844 1.0819999
-0.077502348 -0.033679031 1.08
-0.32213718 -0.027307663 1.0848572
-0.31554523 -0.024850985 1.0821999
-0.084505603 -0.025276439 1.0857776
-0.075065404 -0.024698559 1.0838666
-0.066135392 -0.02345576 1.082857
-0.055016089 -0.022763528 1.082
-0.31118029 -0.019031119 1.0855
-0.30642539 -0.013183703 1.082889
-0.083462171 -0.017029738 1.086
-0.076308236 -0.016199924 1.087
-0.064020254 -0.017719099 1.0867
-0.054608826 -0.018201081 1.0856874
-0.30378065 -0.004156277 1.0841249
-0.29729521 -0.0018936 1.08
-0.31440061 0.0074263313 1.0861
-0.30462274 0.0049943314 1.0836521
-0.29696524 0.004045737 1.0803636
-0.31504491 0.014709238 1.0841199
-0.30753785 0.01385771 1.08
-0.31612179 0.024462109 1.0846363
-0.3067632 0.036925197 1.08
-0.3039228 0.044878319 1.08
-0.30172136 0.053680055 1.0826666
-0.29551908 0.057562687 1.0814285
-0.28692013 0.059090842 1.0813333
-0.071010001 0.059648398 1.08
-0.064330325 0.056237984 1.0823333
-0.057240564 0.05565935 1.08525
-0.29445744 0.061940886 1.087
-0.28450477 0.06526652 1.0841666
-0.27835917 0.067222796 1.08
-0.082809933 0.068788879 1.0808001
-0.074860945 0.066440694 1.0848571
-0.065004833 0.061487928 1.0867692
-0.058129136 0.060035009 1.087
-0.28250146 0.073239364 1.085
-0.27741238 0.074418478 1.08
-0.26983801 0.078584403 1.08
-0.1013076 0.078584403 1.08
-0.094584286 0.075733192 1.0843333
-0.086363934 0.072482273 1.085
-0.27149993 0.082260042 1.0847501
-0.26527828 0.084386036 1.0833846
-0.11321343 0.088561572 1.0816
-0.10524186 0.083150737 1.084
-0.24898034 0.098831892 1.0840001
-0.12437056 0.095682189 1.0819374
-0.1164194 0.093159087 1.0855556
-0.2450691 0.10163591 1.0835
-0.2338596 0.108882 1.08
-0.12543571 0.10178675 1.0851429
-0.2310192 0.1107756 1.08
-0.22594383 0.11382446 1.0838001
-0.21696842 0.1180024 1.0855
-0.12094143 0.11714897 1.082
-0.11849611 0.11660251 1.0813333
-0.21250488 0.12102295 1.087
-0.16164401 0.12753396 1.0807999
-0.15413962 0.1266339 1.0819999
-0.14431554 0.12625496 1.0846111
-0.13485025 0.12367719 1.0837058
-0.12521103 0.1224279 1.0848
-0.19514234 0.13517278 1.0858333
-0.18490092 0.13900708 1.0816
-0.17389649 0.13883507 1.081
-0.16374531 0.13545452 1.0826665
-0.15677093 0.13265441 1.086
-0.19154027 0.14008169 1.087
-0.18391678 0.14198756 1.087
-0.17433682 0.14255399 1.0855
-0.16467564 0.14269045 1.0867692
-0.15914042 0.14008169 1.087
-0.18222393 -0.18126486 1.0940001
-0.17869097 -0.1806021 1.09
-0.20482239 -0.17393152 1.0961429
-0.19543588 -0.17555563 1.09325
-0.18494001 -0.17690286 1.0915334
-0.1749797 -0.17481592 1.0906956
-0.16616243 -0.17401931 1.09
-0.21203469 -0.1669296 1.0922223
-0.20547472 -0.1651839 1.092
-0.19756341 -0.16543247 1.09
-0.15957963 -0.16817974 1.09
-0.20449127 -0.15957963 1.09
-0.26278085 -0.1404683 1.09
-0.27711433 -0.13282377 1.09
-0.26278085 -0.13855717 1.09
-0.32359597 -0.10179448 1.092875
-0.31705698 -0.10186341 1.09
-0.32354915 -0.094963409 1.0965263
-0.31537771 -0.095102966 1.0918823
-0.32473513 -0.085484736 1.097
-0.31560761 -0.084995188 1.0917144
-0.034676377 -0.083907872 1.0926001
-0.028241819 -0.081849985 1.092
-0.32396582 -0.077256836 1.097
-0.31490305 -0.075088985 1.0938462
-0.30787575 -0.072632216 1.0917778
-0.03173621 -0.079821378 1.097
-0.024981493 -0.078786902 1.0960001
-0.31492406 -0.06428279 1.0960001
-0.30528992 -0.064671695 1.09192
-0.32079598 -0.057140257 1.0923333
-0.31439906 -0.05751273 1.0933751
-0.30838856 -0.05772382 1.0913334
-0.34118396 -0.042707033 1.09475
-0.33634502 -0.043297689 1.0915
-0.34189692 -0.039375924 1.0955
-0.33496177 -0.035521161 1.0951875
-0.3291927 -0.0344004 1.09
-0.34117126 -0.026907312 1.0962501
-0.335161 -0.026392728 1.096591
-0.32589325 -0.023610385 1.09375
-0.31724811 -0.0200669 1.09
-0.32265148 -0.01610853 1.097
-0.31557947 -0.014167224 1.0937778
-0.085257523 -0.012863017 1.0926429
-0.074123509 -0.012143184 1.0915385
-0.064978532 -0.013091263 1.09
-0.054740317 -0.012558877 1.09
-0.314852 -0.0048026862 1.09495
-0.30864802 -0.0066889669 1.09
-0.084371075 -0.0059161079 1.0928824
-0.074953154 -0.0050036074 1.0951786
-0.064222924 -0.005128576 1.0947826
-0.056413908 -0.0052954755 1.0931334
-0.34140468 0.0076936269 1.097
-0.33532441 0.0065993122 1.0963999
-0.32457837 0.0056480709 1.0946667
-0.31473273 0.0026958298 1.0918183
-0.081521235 0.00095907331 1.0940001
-0.079748608 0.0028842334 1.0960001
-0.33276746 0.011850487 1.0960001
-0.32514757 0.013609258 1.0932001
-0.32255897 0.023219394 1.0944002
-0.29490271 0.065712959 1.0915834
-0.28858113 0.0688008 1.09
-0.072304547 0.069119327 1.09
-0.065007463 0.066323556 1.0905001
-0.054815054 0.064408734 1.0935
-0.048035525 0.065331064 1.0958751
-0.292615 0.070896909 1.0958
-0.28759354 0.071897626 1.0935
-0.093162335 0.078808382 1.0918335
-0.084837608 0.077041246 1.0938667
-0.075237833 0.074239768 1.0943334
-0.067228496 0.071070053 1.0955
-0.26813933 0.087890215 1.0936667
-0.10486977 0.086449385 1.0928462
-0.095785148 0.082344972 1.0953751
-0.087515004 0.081744783 1.097
-0.12135696 0.098423369 1.09
-0.11378168 0.095820867 1.0930001
-0.10852388 0.092195958 1.0955
-0.25100458 0.10290226 1.097
-0.24478726 0.10655445 1.0950001
-0.23793609 0.10989016 1.09
-0.12252843 0.10491236 1.0942727
-0.11728035 0.10191939 1.0952858
-0.24138753 0.11059588 1.097
-0.23518775 0.11359467 1.095
-0.22518149 0.11747456 1.0930001
-0.21691363 0.11944583 1.09
-0.22311518 0.12069377 1.097
-0.21343844 0.12498803 1.0967001
-0.20648558 0.12773111 1.0955
-0.13492645 0.12885553 1.0941668
-0.12683088 0.12843108 1.0960001
-0.20410918 0.13297558 1.0965
-0.19864127 0.13594295 1.092
-0.15390781 0.13594697 1.0930001
-0.14504683 0.13313468 1.093643
-0.13848528 0.13367677 1.097
-0.19333322 0.14265032 1.095
-0.18503493 0.14612736 1.0946364
-0.17578624 0.1473778 1.0935456
-0.16480824 0.1475637 1.0930001
-0.15788975 0.14277492 1.0948751
-0.18176194 0.15098742 1.097
-0.17022149 0.15098742 1.097
-0.23895128 -0.18941259 1.108
-0.21202445 -0.17341606 1.1010001
-0.32913661 -0.093625367 1.1010001
-0.33166844 -0.083160602 1.103
-0.32913661 -0.086868897 1.1010001
-0.036195375 -0.080595031 1.1010001
-0.33189681 -0.073930033 1.1048334
-0.32643944 -0.072895296 1.101923
-0.034227319 -0.076486789 1.1064285
-0.024720926 -0.074417002 1.1037725
-0.018338989 -0.071425542 1.1010001
-0.33093026 -0.06696067 1.107
-0.32522425 -0.06561143 1.1060665
-0.021369627 -0.068965614 1.108
-0.018405616 -0.06877888 1.105
-0.32431054 -0.058877811 1.1010001
-0.34251246 -0.035158895 1.1018
-0.33878872 -0.035712771 1.1010001
-0.34133804 -0.021271441 1.103
-0.33637962 -0.021117773 1.1021429
-0.32913661 -0.020269411 1.1010001
-0.34159026 -0.017808022 1.108
-0.33424994 -0.016342416 1.1066152
-0.32603139 -0.013087996 1.1023636
-0.091377154 -0.014990561 1.103
-0.089764528 -0.01061731 1.1010001
-0.32505658 -0.004735705 1.1046109
-0.074321173 -0.0019304199 1.1010001
-0.06563428 -0.00096520997 1.1010001
-0.054051757 -0.00096520997 1.1010001
-0.33414426 0.0020754461 1.1057142
-0.32667178 0.0017380792 1.1018
-0.074462101 0.0048403214 1.1031199
-0.064807475 0.00468677 1.1047081
-0.055992741 0.0050360332 1.1057618
-0.34295541 0.012849193 1.1058749
-0.33483076 0.015855597 1.1036154
-0.32913661 0.01640857 1.1010001
-0.076665379 0.01067517 1.107
-0.33187678 0.021045843 1.108
-0.32717305 0.024216339 1.1048
-0.06080823 0.068529911 1.1010001
-0.05115613 0.068529911 1.1010001
-0.071908139 0.077216804 1.1010001
-0.064436197 0.075006001 1.1045454
-0.055208217 0.073464014 1.1048419
-0.048424877 0.07361041 1.10475
-0.10199052 0.087834112 1.1010001
-0.094434276 0.086568706 1.1024286
-0.083957076 0.084074661 1.102294
-0.074910425 0.081906907 1.1031537
-0.066051573 0.080621772 1.108
-0.27220938 0.090090647 1.105
-0.26809168 0.092277929 1.108
-0.11099915 0.098451421 1.1010001
-0.10557941 0.09409833 1.1049286
-0.096216924 0.090679131 1.1054286
-0.26129225 0.10004871 1.108
-0.25484183 0.10540569 1.1068748
-0.24771591 0.10855734 1.1023334
-0.12065125 0.10713831 1.1010001
-0.11464163 0.1053799 1.1042143
-0.10946498 0.10171525 1.105
-0.25157878 0.11170486 1.108
-0.24403997 0.11426052 1.1063999
-0.2359643 0.11788274 1.1040001
-0.23451293 0.12308041 1.1069165
-0.22536087 0.12492845 1.1046427
-0.21590057 0.12629609 1.1014
-0.20655493 0.1254773 1.1010001
-0.12258167 0.12837292 1.1010001
-0.22049569 0.13210315 1.108
-0.21406174 0.13420178 1.1042498
-0.20661445 0.13620605 1.1018889
-0.19979846 0.13995545 1.1010001
-0.15153797 0.13899024 1.1010001
-0.14515974 0.13829523 1.1014445
-0.13479391 0.1344123 1.1029999
-0.12572205 0.13329135 1.103909
-0.20318624 0.14273964 1.1076249
-0.19436371 0.14687021 1.1029999
-0.18725073 0.14960755 1.1010001
-0.15462087 0.14553347 1.1049998
-0.14561959 0.14239115 1.1061667
-0.19299892 0.15226698 1.1062857
-0.18523836 0.15346058 1.1050999
-0.17516705 0.1545919 1.1046873
-0.16591144 0.154405 1.1046109
-0.16804297 0.1602722 1.108
-0.24082418 -0.18634742 1.1176001
-0.23853339 -0.18566632 1.1166668
-0.034202799 -0.072306059 1.1146002
-0.028270746 -0.071164295 1.1120001
-0.332425 -0.066290021 1.1120001
-0.32755071 -0.063365467 1.1120001
-0.031980272 -0.0688655 1.1190001
-0.024356136 -0.066103488 1.1162221
-0.017943176 -0.064597622 1.1165
-0.34283003 -0.013078553 1.1135001
-0.33619475 -0.01194557 1.112375
-0.3431223 -0.0054298346 1.1168182
-0.33531862 -0.0049695852 1.1133636
-0.34022382 0.00097485335 1.1120001
-0.33827409 0.00097485335 1.1120001
-0.067264877 0.0087736798 1.1120001
-0.34537026 0.016954815 1.1137275
-0.073556371 0.014951316 1.1167334
-0.06585779 0.014351566 1.1168696
-0.05647729 0.013880366 1.1164118
-0.35021344 0.02354376 1.1190001
-0.34360856 0.023751583 1.1170624
-0.33550611 0.024998508 1.1142354
-0.32852557 0.028270746 1.1120001
-0.071612269 0.02060079 1.1190001
-0.33386359 0.03041069 1.1190001
-0.32615879 0.031344119 1.1172501
-0.055566642 0.078638166 1.1120001
-0.048008893 0.079365507 1.1176667
-0.2758835 0.088711649 1.1120001
-0.084365144 0.089270093 1.1190001
-0.074956752 0.086369194 1.1153334
-0.065304056 0.084658638 1.1153158
-0.056388829 0.083118267 1.1172857
-0.045125537 0.081422172 1.1190001
-0.27424937 0.095738135 1.1157501
-0.26505953 0.096966274 1.1137694
-0.10395995 0.096151926 1.1135
-0.27448225 0.10489299 1.1181999
-0.26502448 0.10487746 1.1144347
-0.25833613 0.10820872 1.1120001
-0.11281385 0.10888989 1.1190001
-0.10820872 0.1004099 1.1120001
-0.27397627 0.1115775 1.1178571
-0.26372743 0.11182584 1.115
-0.25504783 0.11472562 1.1146667
-0.24696544 0.1175096 1.112375
-0.12151162 0.11486296 1.1159999
-0.11623467 0.11249029 1.1157502
-0.25309542 0.12066177 1.1190001
-0.24446608 0.12467697 1.1147858
-0.23518336 0.12721837 1.1120001
-0.22714083 0.1296555 1.1120001
-0.24230453 0.13047168 1.1190001
-0.23512909 0.13266651 1.1162144
-0.22578436 0.13514651 1.1143888
-0.21801786 0.13877457 1.1131999
-0.13355491 0.13940403 1.1120001
-0.1268997 0.13861547 1.1135
-0.2259547 0.14028157 1.1190001
-0.21480612 0.1446915 1.1159999
-0.20575669 0.14645654 1.1131539
-0.19984493 0.14720285 1.1120001
-0.15305197 0.14866515 1.1120001
-0.14459166 0.14744529 1.1126924
-0.13549519 0.14429234 1.11435
-0.12777032 0.14264558 1.1159999
-0.21091285 0.15009147 1.1190001
-0.20062371 0.15365075 1.1163334
-0.19533555 0.15696725 1.1140715
-0.18467806 0.15833071 1.1131251
-0.1774233 0.1589011 1.1120001
-0.1618799 0.15602881 1.112375
-0.1555209 0.15520242 1.1151665
-0.14587933 0.15264751 1.1168182
-0.19423601 0.16186334 1.1190001
-0.18442409 0.16190104 1.117
-0.1749915 0.16307282 1.1162729
-0.16469727 0.16349772 1.1146923
-0.15860987 0.16292481 1.1182001
-0.2475505 -0.19034624 1.125
-0.24597029 -0.18430704 1.1248947
-0.23856643 -0.18237385 1.1245
-0.03849794 -0.070085995 1.126
-0.034498882 -0.066914707 1.1243334
-0.025427366 -0.061299868 1.1242001
-0.01425221 -0.062128734 1.1249093
-0.020729659 -0.058240473 1.126
-0.015464984 -0.05758239 1.126
-0.34687099 -0.0042661522 1.123
-0.062023293 0.018705437 1.123
-0.055131815 0.018705437 1.123
-0.35146531 0.02658141 1.123
-0.34837121 0.026581408 1.123
-0.073385887 0.022397459 1.1247143
-0.065399915 0.021363199 1.1246667
-0.055230875 0.021369332 1.1250001
-0.35042995 0.030600926 1.126
-0.34461585 0.032373469 1.125182
-0.33508441 0.033820301 1.1251431
-0.32627016 0.036169581 1.1243848
-0.32213232 0.041788366 1.126
-0.31996143 0.040364362 1.123
-0.29653308 0.077257417 1.125
-0.28824097 0.079957262 1.126
-0.29712513 0.084892891 1.126
-0.28587946 0.086265981 1.124263
-0.081713222 0.089589193 1.123
-0.075214781 0.089340806 1.1240001
-0.065205768 0.089637056 1.1236001
-0.053368058 0.086243637 1.1250001
-0.046715636 0.083772689 1.1242001
-0.29416373 0.094171882 1.1260002
-0.28503886 0.095669448 1.1250398
-0.10456376 0.098646261 1.12525
-0.099699795 0.095751286 1.126
-0.07304737 0.091802776 1.126
-0.28366324 0.10432474 1.1248001
-0.11154531 0.10660968 1.126
-0.10832918 0.10398897 1.1253999
-0.27260211 0.11531024 1.1242001
-0.26561797 0.11728682 1.1242501
-0.25793815 0.1191241 1.123
-0.11682066 0.11682066 1.1245
-0.26158857 0.12141658 1.126
-0.25414842 0.12348651 1.1242857
-0.24941035 0.12815683 1.1245
-0.24344982 0.13446788 1.1242858
-0.23692924 0.13767612 1.12375
-0.23428807 0.14155866 1.1252501
-0.22453567 0.14476056 1.125
-0.13314199 0.14892374 1.125
-0.12608798 0.1446365 1.1254001
-0.21687987 0.15082918 1.1245
-0.20455723 0.15575823 1.1245
-0.15161249 0.15850396 1.123
-0.14416432 0.15658952 1.1248001
-0.1377217 0.15266512 1.1255714
-0.20137385 0.16188878 1.126
-0.19425987 0.16467448 1.1248001
-0.18459295 0.16572656 1.1242858
-0.17506391 0.16718619 1.1240001
-0.1652326 0.16868621 1.12525
-0.15530173 0.16450526 1.1247501
-0.14905612 0.16090165 1.126
-0.25481087 -0.18265526 1.1336
-0.24864897 -0.1812859 1.13
-0.26325402 -0.17396465 1.1380002
-0.25494748 -0.1758205 1.137158
-0.24776527 -0.17861661 1.1332
-0.040615965 -0.070334964 1.13
-0.040995266 -0.063802049 1.1313334
-0.035234168 -0.062599018 1.1310667
-0.012878234 -0.0624099 1.13
-0.041789822 -0.057710093 1.135
-0.033954892 -0.05731599 1.136182
-0.024497882 -0.055713613 1.1337647
-0.014803234 -0.054151222 1.1325455
-0.0089472597 -0.05169528 1.1340001
-0.02095058 -0.048884686 1.138
-0.014061928 -0.047718916 1.1366667
-0.0089788204 -0.047887042 1.138
-0.073210433 0.026787778 1.1316
-0.064242646 0.026368588 1.1335294
-0.054715246 0.026339088 1.1323528
-0.048884686 0.028931754 1.138
-0.34457824 0.037348628 1.1359999
-0.33693701 0.037922848 1.1324
-0.073694348 0.030872693 1.136
-0.054870564 0.030927047 1.138
-0.048884686 0.030927047 1.138
-0.3401975 0.040903512 1.138
-0.3338989 0.043155111 1.1350908
-0.32661563 0.043873657 1.1330001
-0.30563578 0.076656088 1.1356001
-0.303992 0.083968475 1.1347059
-0.29474553 0.084337503 1.1302352
-0.050522301 0.088166364 1.13
-0.047880609 0.087505937 1.13
-0.30281782 0.091260657 1.1340001
-0.29487851 0.093229599 1.13
-0.10076232 0.09876702 1.138
-0.082153305 0.094075978 1.1325002
-0.074670829 0.0947017 1.1333847
-0.06417343 0.09360297 1.1325454
-0.054826461 0.093193263 1.1327369
-0.047388844 0.092359327 1.1362857
-0.29355675 0.10308687 1.1328
-0.28678834 0.10748371 1.13
-0.11194157 0.1099603 1.13
-0.1055121 0.10419009 1.1336668
-0.27143353 0.118876 1.13
-0.1218479 0.11986663 1.13
-0.11441815 0.11590935 1.135
-0.27435282 0.12071525 1.138
-0.26457185 0.12396768 1.1335
-0.25733089 0.12651527 1.1333333
-0.12128508 0.12227922 1.1340001
-0.1177223 0.12171289 1.138
-0.25380611 0.13104822 1.1353334
-0.24732432 0.13558 1.133
-0.23488919 0.14508931 1.1326667
-0.22645879 0.14760436 1.13
-0.12581044 0.14785202 1.13
-0.23045638 0.15064465 1.138
-0.22706543 0.1503799 1.136
-0.21274711 0.15442659 1.1340001
-0.20902364 0.15552944 1.13
-0.1426512 0.15949197 1.13
-0.13453686 0.15590549 1.1318824
-0.12716952 0.15331924 1.1345714
-0.20365211 0.16392019 1.1332
-0.1941224 0.1682888 1.1332
-0.18602048 0.16916804 1.1306667
-0.17648789 0.16954821 1.131
-0.1634545 0.16939829 1.13
-0.15302372 0.16759197 1.1326667
-0.14514294 0.16366544 1.1346153
-0.13678841 0.1618772 1.1356001
-0.19354345 0.17159523 1.138
-0.18443629 0.17247155 1.1372001
-0.17408934 0.17309169 1.138
-0.16429177 0.17362517 1.1336924
-0.15643975 0.17336397 1.1352001
-0.25507054 -0.18905228 1.141
-0.25607082 -0.17104732 1.141
-0.2639378 -0.16599192 1.1415
-0.25716192 -0.16710337 1.1414
-0.034938756 -0.052816693 1.1446366
-0.026490988 -0.051974688 1.1432858
-0.034406688 -0.047496196 1.1486667
-0.025136344 -0.045420334 1.1468183
-0.015577605 -0.0432535 1.1439335
-0.0070019364 -0.042440314 1.1409999
-0.022160381 -0.039284311 1.149
-0.014954679 -0.037240427 1.1481429
-0.0050299382 -0.035210561 1.1476668
-0.071268618 0.036141459 1.145
-0.065191776 0.035109412 1.1440403
-0.055158813 0.036109377 1.1440003
-0.047035523 0.035765506 1.1453078
-0.34366423 0.042836815 1.1438571
-0.33445683 0.048210237 1.1456667
-0.32508993 0.049013555 1.141
-0.06345927 0.041298889 1.149
-0.059430111 0.041298889 1.149
-0.33168533 0.051983703 1.1476668
-0.32481435 0.054735273 1.1443335
-0.32334009 0.062451981 1.149
-0.31628907 0.069503009 1.149
-0.31443527 0.075375676 1.1464287
-0.3140862 0.083123296 1.1454446
-0.30708495 0.089024626 1.141
-0.094247803 0.097266167 1.1462001
-0.086913027 0.095972784 1.1483334
-0.074153729 0.099200971 1.1430001
-0.065130197 0.098450758 1.143
-0.055056594 0.09909682 1.1418002
-0.10259894 0.1079501 1.1436667
-0.096863247 0.10370091 1.1462001
-0.11182278 0.11784373 1.1440001
-0.10713042 0.11349472 1.1456667
-0.27001771 0.12547292 1.1450001
-0.26542082 0.12899607 1.1442
-0.1225182 0.128152 1.1474001
-0.11558574 0.12547345 1.1450002
-0.26592457 0.13195498 1.149
-0.25652274 0.13530561 1.1475
-0.24994205 0.13952588 1.1450001
-0.25081521 0.14202788 1.149
-0.24554409 0.14370817 1.1463333
-0.23990421 0.14755616 1.1450001
-0.23671314 0.15210079 1.149
-0.2242422 0.15480468 1.1455715
-0.21740544 0.15710831 1.1463333
-0.12539402 0.15816791 1.1443335
-0.21116094 0.16289869 1.1470001
-0.20649445 0.16821744 1.149
-0.14353897 0.16857745 1.1423334
-0.13452373 0.16629741 1.1427144
-0.1263434 0.16348144 1.1468667
-0.2004507 0.17224659 1.149
-0.19603281 0.17477688 1.1467143
-0.18496701 0.1762816 1.1432223
-0.17528908 0.17729779 1.1436667
-0.16615401 0.17874695 1.1427144
-0.15392579 0.17745508 1.142
-0.14598417 0.17398351 1.1455002
-0.13623868 0.17181088 1.1483334
-0.18332678 0.18030491 1.149
-0.174513 0.18282314 1.149
-0.1645169 0.18262306 1.1472858
-0.15531839 0.18175969 1.1472857
-0.033933885 -0.042886656 1.153
-0.02729151 -0.041442662 1.153
-0.032964855 -0.039050676 1.1570001
-0.024956232 -0.037295714 1.1555454
-0.015357844 -0.032825351 1.1537272
-0.0090971701 -0.032345496 1.153
-0.01412351 -0.026824888 1.1561999
-0.0052749035 -0.02647575 1.1546841
-0.35135484 0.04455395 1.155
-0.34490436 0.047580082 1.1547143
-0.33861688 0.049529035 1.153
-0.066028498 0.042632785 1.1547778
-0.055047363 0.04221471 1.1556667
-0.04813645 0.042057645 1.156
-0.3430374 0.052946635 1.1570001
-0.33579564 0.055677976 1.1547142
-0.32850891 0.059637003 1.153
-0.33248863 0.06349539 1.1570001
-0.32461554 0.064430028 1.1543334
-0.31950554 0.066944018 1.1570001
-0.043562442 0.069906272 1.1556667
-0.037433669 0.069300063 1.154
-0.3224054 0.076086044 1.1546665
-0.31840095 0.075809747 1.153
-0.043998048 0.07415811 1.1552222
-0.036875483 0.07303147 1.1547143
-0.32251367 0.083416291 1.1556667
-0.31849122 0.086215779 1.1570001
-0.092993289 0.098047279 1.153
-0.089102641 0.098217353 1.155
-0.047672257 0.09838742 1.1570001
-0.093887396 0.10625795 1.1543334
-0.086971469 0.10188453 1.1548181
-0.29110506 0.11461627 1.1570001
-0.28907645 0.11461627 1.1570001
-0.10429265 0.1146224 1.155
-0.09838742 0.11157337 1.1570001
-0.27190429 0.12837118 1.153
-0.11107827 0.12525046 1.1545
-0.10853045 0.1217164 1.1570001
-0.28807706 0.13746834 1.153
-0.27159745 0.13377495 1.156
-0.26521298 0.13665655 1.1546665
-0.25876394 0.13847914 1.153
-0.26270455 0.14301677 1.1570002
-0.25508749 0.14323725 1.1546665
-0.24706279 0.14749594 1.155
-0.12323786 0.14656682 1.1570001
-0.24213912 0.15163325 1.1556667
-0.23389642 0.15542993 1.155
-0.22540765 0.15829074 1.153
-0.12132316 0.15460221 1.1543334
-0.22445083 0.16214362 1.1570002
-0.21533827 0.16507418 1.1551818
-0.20923491 0.16779225 1.153
-0.12268701 0.1665671 1.1549999
-0.20487854 0.17347457 1.1554999
-0.19407296 0.17891102 1.153
-0.14331183 0.17831062 1.1547143
-0.13382392 0.17500387 1.1549999
-0.12663947 0.17223285 1.1556667
-0.19373195 0.18156029 1.1570001
-0.18516971 0.18375251 1.1542
-0.1759952 0.18669783 1.1547143
-0.1658752 0.18664475 1.1554999
-0.15409108 0.18505469 1.1552857
-0.1469277 0.18254016 1.1558572
-0.032779444 -0.034233455 1.1632859
-0.02630979 -0.033266574 1.1616669
-0.031697053 -0.027604774 1.1663333
-0.02527106 -0.02588572 1.1650003
-0.016902309 -0.023213435 1.1614001
-0.0061094901 -0.02139242 1.1620001
-0.02272092 -0.016170466 1.1674
-0.015336864 -0.015332934 1.1662804
-0.0065614372 -0.015229916 1.1675882
-0.022505786 -0.0092076305 1.1670001
-0.017421996 -0.0092234099 1.169
-0.0033018189 -0.0069456347 1.1685556
-0.0051241168 0.0010248233 1.169
-0.35358378 0.047451772 1.164
-0.34910882 0.047837071 1.161
-0.064298764 0.045927688 1.1642001
-0.054125953 0.045963071 1.1650001
-0.044635359 0.045369882 1.1647142
-0.038333565 0.047532428 1.166
-0.35353169 0.052606776 1.1682726
-0.34548509 0.056562535 1.1625
-0.34464917 0.064432442 1.1665655
-0.33648625 0.065484218 1.1653637
-0.32598233 0.067233317 1.1620001
-0.043765828 0.068193272 1.161
-0.039694589 0.068193272 1.161
-0.33478981 0.074539021 1.1687499
-0.32811236 0.073705748 1.1623335
-0.042408749 0.077692829 1.161
-0.036088564 0.077496648 1.1614445
-0.33358002 0.082498275 1.169
-0.32770106 0.083715096 1.1645
-0.042997122 0.082650505 1.1638572
-0.03577536 0.08382459 1.1660001
-0.028678104 0.083989345 1.1683334
-0.091602899 0.10890567 1.161
-0.084123373 0.10698075 1.1636666
-0.075438052 0.10518011 1.1665384
-0.053108469 0.10315298 1.1650001
-0.047919475 0.10144918 1.163
-0.2943106 0.11860002 1.1689999
-0.28797534 0.11990433 1.169
-0.10279881 0.11792056 1.1610001
-0.094483905 0.1155066 1.1632611
-0.087156005 0.11444897 1.1673332
-0.2944659 0.12229559 1.169
-0.28490087 0.12502846 1.169
-0.27714327 0.12819701 1.1636667
-0.10498057 0.12518862 1.1638
-0.09646292 0.12282144 1.1675
-0.29617393 0.13015257 1.169
-0.28387606 0.13015257 1.169
-0.27658266 0.13572912 1.1657271
-0.12332427 0.13635816 1.1640769
-0.11507288 0.13581392 1.1633335
-0.10698114 0.13431397 1.1669999
-0.27486378 0.1441789 1.167909
-0.26668227 0.14573093 1.1639091
-0.25648811 0.14758244 1.161
-0.12256997 0.14429805 1.1618891
-0.11540878 0.14502695 1.1650003
-0.10676806 0.14399044 1.1685557
-0.26337957 0.15064903 1.169
-0.25423202 0.15192765 1.1670001
-0.24495842 0.15627277 1.1664544
-0.23664083 0.15776055 1.161
-0.11635434 0.15392861 1.1657622
-0.10801639 0.1518788 1.169
-0.24000941 0.16034672 1.1650001
-0.23428684 0.16421776 1.1660908
-0.2247614 0.16627946 1.1622001
-0.21747208 0.16861719 1.161
-0.11819036 0.16572864 1.1650001
-0.22341149 0.1711455 1.169
-0.2138609 0.1738323 1.1650001
-0.20730869 0.17673232 1.1626002
-0.13129748 0.17811675 1.161
-0.12444044 0.17611107 1.1621429
-0.11760382 0.1748763 1.1665384
-0.2028363 0.18159011 1.165
-0.19447953 0.18530871 1.163
-0.1854036 0.18845703 1.1620001
-0.15470712 0.18829484 1.161
-0.14417489 0.1869116 1.1642001
-0.1354014 0.18368168 1.1650001
-0.12598956 0.18189013 1.1663333
-0.11922112 0.18207695 1.169
-0.18400094 0.19115016 1.1660001
-0.17471746 0.19209301 1.1655
-0.16505443 0.19293483 1.1652857
-0.15432239 0.19269422 1.1647145
-0.1460381 0.19192073 1.1682001
-0.028793238 -0.02159493 1.1730001
-0.027859589 -0.019604897 1.177
-0.0051416499 -0.01131163 1.1730001
-0.022508917 -0.0045575392 1.1747143
-0.015253456 -0.0047542476 1.1749049
-0.0061811577 -0.0041179224 1.1747501
-0.0048129 0.0017185588 1.1756667
-0.0616998 0.04833151 1.1730001
-0.05758648 0.04833151 1.1730001
-0.35600495 0.056591466 1.1736668
-0.061910197 0.051591836 1.177
-0.054777175 0.05307892 1.1762942
-0.044787209 0.052240089 1.1754616
-0.037083 0.05150592 1.1750001
-0.35318381 0.063933924 1.1735716
-0.34372506 0.07311102 1.1746001
-0.3362639 0.074039757 1.1730001
-0.33278704 0.087057725 1.1738001
-0.32495227 0.089464709 1.1730001
-0.041201577 0.089617252 1.1750001
-0.034992151 0.089540988 1.174
-0.026896009 0.08833307 1.1735716
-0.041273467 0.091833465 1.177
-0.035770338 0.092521362 1.177
-0.028891426 0.091833465 1.177
-0.074292243 0.10834285 1.177
-0.05154888 0.10722072 1.1760001
-0.046405181 0.10484319 1.1763334
-0.082993157 0.11619369 1.1752223
-0.076954968 0.11165606 1.1756668
-0.30130067 0.12648459 1.1730001
-0.2949838 0.12663151 1.1730002
-0.28621849 0.12682736 1.1730002
-0.094937302 0.12704477 1.1750002
-0.087433629 0.12385327 1.1756667
-0.29255089 0.1330265 1.1740001
-0.28530443 0.13528252 1.1730002
-0.10190933 0.13501024 1.1742309
-0.09515845 0.13524666 1.1768095
-0.28237942 0.14252654 1.1730001
-0.27867743 0.14293787 1.1730001
-0.10236135 0.14660057 1.1735002
-0.09639205 0.14505719 1.1760001
-0.2704508 0.1511645 1.1730001
-0.26473141 0.15296826 1.1750001
-0.25502583 0.15527783 1.1730001
-0.24988419 0.15836282 1.1730001
-0.11238177 0.15821591 1.1730002
-0.10400334 0.15568334 1.1746365
-0.096845232 0.15433328 1.177
-0.2507363 0.16199836 1.177
-0.24404244 0.16331896 1.1746
-0.23672156 0.16844046 1.1730001
-0.22931759 0.16967446 1.1730001
-0.11332999 0.16484907 1.1752502
-0.10696706 0.16337414 1.177
-0.23422691 0.17231672 1.177
-0.22455817 0.17356992 1.1750001
-0.21671566 0.17596436 1.1738001
-0.11447728 0.17458752 1.1764287
-0.20946284 0.18263508 1.177
-0.19641103 0.1881844 1.1730001
-0.13334012 0.1881844 1.1730001
-0.1246208 0.18716727 1.1748183
-0.1168051 0.18462029 1.1765001
-0.19295345 0.19192162 1.177
-0.18345886 0.19582807 1.1756668
-0.17552143 0.19724697 1.173889
-0.16590391 0.1981249 1.1730002
-0.15586545 0.19758627 1.1730002
-0.14464153 0.19654369 1.1746002
-0.1357148 0.19276071 1.1748463
-0.17150624 0.20241401 1.1750001
-0.16563015 0.2023354 1.1748183
-0.15538514 0.20066111 1.1738001
-0.14652081 0.20120814 1.177
-0.023812896 -0.0010353433 1.1810001
-0.013459464 -0.0010353433 1.1810001
-0.022739273 0.0047356561 1.1850001
-0.015564935 0.0051910239 1.1835599
-0.0065078721 0.0066557783 1.181
-0.021889489 0.011465923 1.189
-0.014728052 0.014482377 1.1850001
-0.0055883322 0.015678015 1.1846189
-0.013550637 0.021889489 1.189
-0.0038211951 0.023492234 1.1881112
-0.0010423567 0.030228343 1.189
0.0022903793 0.031855438 1.1874001
-0.062120602 0.054873195 1.1810001
-0.05403585 0.058184244 1.182143
-0.04406492 0.057544842 1.1826667
-0.036020581 0.056505937 1.1814446
-0.053053986 0.062572084 1.1867143
-0.044589777 0.063314117 1.1867144
-0.037052315 0.062677287 1.1850001
-0.33331215 0.092166878 1.1856668
-0.32620311 0.092724748 1.1854445
-0.042684197 0.09552528 1.1818
-0.03379098 0.096910842 1.1846924
-0.024982806 0.094215371 1.1875001
-0.019771464 0.095737264 1.187
-0.071438693 0.10871105 1.1810001
-0.065801054 0.10680814 1.1828461
-0.057461556 0.1076757 1.1810001
-0.043068197 0.10427063 1.1854446
-0.036460858 0.10209426 1.1883334
-0.075412728 0.1161762 1.1845
-0.06685482 0.11238603 1.187
-0.056943882 0.11078174 1.1810001
-0.08371333 0.12652096 1.1813334
-0.078692429 0.12445715 1.1863334
-0.090074867 0.13562998 1.1810001
-0.084074646 0.13494577 1.1840907
-0.078176752 0.13237929 1.189
-0.090765096 0.14425784 1.1810001
-0.084779456 0.14442381 1.1851999
-0.27205509 0.15531114 1.189
-0.26503247 0.15724079 1.1855714
-0.25741476 0.15829225 1.1840001
-0.092533812 0.15452498 1.181
-0.086199656 0.15444265 1.1866001
-0.25644591 0.16297571 1.1884286
-0.2457933 0.1668407 1.1850002
-0.10323504 0.16607623 1.1815333
-0.094637334 0.16489254 1.1841666
-0.087806053 0.16207902 1.1876668
-0.24123499 0.17083165 1.1810001
-0.2327024 0.17556565 1.1850001
-0.22665778 0.17727558 1.1860001
-0.2174221 0.1791144 1.1810001
-0.11200644 0.17527284 1.1830001
-0.10584348 0.17378378 1.1870002
-0.097981527 0.17198884 1.189
-0.22202197 0.1803277 1.189
-0.21576782 0.18310733 1.189
-0.11309414 0.18572398 1.1835716
-0.10944745 0.18658185 1.189
-0.19389908 0.19632775 1.187
-0.18739714 0.19775057 1.1810001
-0.1348166 0.19829182 1.1830001
-0.12567383 0.19472061 1.1847645
-0.11585008 0.19372924 1.1856154
-0.19179362 0.20117484 1.189
-0.18574332 0.20135587 1.187
-0.17685318 0.20534426 1.189
-0.16521354 0.20742898 1.189
-0.15612893 0.2058412 1.1884286
-0.1443011 0.20430744 1.1870002
-0.13486277 0.2026697 1.1872857
-0.12404044 0.20117484 1.189
-0.01255036 0.019871403 1.1930001
-0.0094127702 0.019871403 1.1930001
-0.01310003 0.025417855 1.1955
-0.0063759969 0.026353318 1.1937271
-0.01154307 0.030431731 1.197
-0.0046295733 0.033765022 1.1970003
0.0018839568 0.037071254 1.1946
-0.0017489501 0.042324591 1.197
0.0020969866 0.043001372 1.1963334
-0.053339031 0.065889388 1.1930001
-0.044553779 0.067562774 1.1930001
-0.33492979 0.097882107 1.1954001
-0.32663912 0.096598767 1.1958572
-0.024652492 0.098460563 1.193
-0.018476918 0.098659776 1.1930001
-0.040788669 0.10667805 1.1930001
-0.033681158 0.10568716 1.1952858
-0.025157919 0.10483027 1.1957501
-0.018210644 0.10507692 1.1938
-0.071118712 0.11818255 1.1930001
-0.064695686 0.11653125 1.1955456
-0.054737139 0.11472464 1.1962
-0.045542657 0.11144309 1.197
-0.03582849 0.11108331 1.1969999
-0.026234249 0.11018386 1.197
-0.01783929 0.11018386 1.197
-0.072821252 0.12514701 1.193706
-0.065847971 0.1250062 1.1970003
-0.074118659 0.13505208 1.1942003
-0.066410132 0.13267036 1.1969999
-0.080531478 0.14642087 1.1930001
-0.076926619 0.14373152 1.1947778
-0.27297032 0.15792537 1.1930001
-0.081543647 0.15545991 1.1947144
-0.078702748 0.15215865 1.197
-0.27178684 0.1605536 1.197
-0.26587108 0.16119884 1.194
-0.25583324 0.16723514 1.1960001
-0.24996133 0.168384 1.1930001
-0.085303172 0.16522387 1.1950001
-0.24723929 0.17180738 1.1950001
-0.23218167 0.17884263 1.1930001
-0.10394578 0.17824535 1.1936667
-0.095484026 0.17525432 1.1949999
-0.087547876 0.17142911 1.1960001
-0.23191077 0.18154101 1.197
-0.22511424 0.18218361 1.1943333
-0.21399522 0.18716781 1.1954
-0.20742986 0.18961862 1.1950001
-0.10568619 0.18453036 1.1948949
-0.099690147 0.18154101 1.197
-0.20219001 0.19276321 1.1950001
-0.19695368 0.19904542 1.1950001
-0.12306326 0.1997599 1.1930001
-0.11330675 0.19809446 1.194
-0.10835757 0.19261612 1.1954
-0.1954961 0.2042529 1.1948183
-0.18462513 0.20486851 1.1943334
-0.17714833 0.20719285 1.1956667
-0.16210881 0.2081268 1.1930001
-0.15374191 0.2081268 1.1930001
-0.14491798 0.2081271 1.1950001
-0.13418698 0.20634443 1.1947778
-0.12496164 0.2034533 1.1938
-0.11471641 0.20253521 1.1956668
-0.16441935 0.21050045 1.1946001
-0.1541912 0.2116223 1.1965001
-0.1469118 0.21092337 1.197
-0.011610573 0.035890732 1.204
-0.0073762732 0.03748351 1.202
-0.01162986 0.04440492 1.2060001
-0.0059794509 0.045564704 1.2033331
0.0021075066 0.0474189 1.202
-0.0069747595 0.053690225 1.2056001
-0.32455602 0.097999059 1.202
-0.34036231 0.10010657 1.202
-0.33453265 0.10422659 1.203091
-0.32469821 0.1044842 1.203833
-0.31805757 0.10520351 1.2040001
-0.06006394 0.11907413 1.202
-0.055482484 0.11729274 1.2032001
-0.044975534 0.11649108 1.2055556
-0.034341753 0.11627795 1.2033333
-0.024915962 0.11495685 1.2029999
-0.016888106 0.11399648 1.2040001
-0.061000604 0.12516247 1.202
-0.054849178 0.12551938 1.2031999
-0.046949703 0.12620808 1.2043999
-0.036596052 0.12381449 1.2052728
-0.027488761 0.1215849 1.2060001
-0.070601471 0.13804169 1.202
-0.063259102 0.13565888 1.2026666
-0.055043098 0.13476154 1.2027999
-0.046279233 0.13228334 1.202889
-0.073844559 0.14522801 1.2033334
-0.066607378 0.14061558 1.2060001
-0.076151177 0.15562898 1.2026154
-0.26238456 0.16754678 1.202
-0.25606206 0.16965428 1.202
-0.081668518 0.16523938 1.2036
-0.077444293 0.16361099 1.2060002
-0.26114321 0.17021886 1.2060001
-0.25381428 0.17284769 1.2046667
-0.24739884 0.17656241 1.2060001
-0.092730299 0.17808431 1.202
-0.084898427 0.17491995 1.2047693
-0.079294503 0.17021886 1.2060001
-0.23317012 0.1856942 1.2035002
-0.22574201 0.18773325 1.2044002
-0.21743613 0.1889357 1.204
-0.10071672 0.18719815 1.2030001
-0.095345676 0.18330748 1.204
-0.0898671 0.1818487 1.2060001
-0.21399647 0.19310182 1.2051111
-0.20521985 0.1967739 1.2038182
-0.19915938 0.19705187 1.202
-0.10466897 0.19575745 1.2044002
-0.20336927 0.20432533 1.2030909
-0.18637116 0.20711718 1.2033334
-0.17808431 0.20969692 1.202
-0.13804169 0.20969692 1.202
-0.12434289 0.2075894 1.202
-0.11417431 0.20677885 1.2042857
