# .PCD v0.7 - Point Cloud Data file format
VERSION 0.7
FIELDS x y z
SIZE 4 4 4
TYPE F F F
COUNT 1 1 1
WIDTH 1417
HEIGHT 1
VIEWPOINT 0 0 0 1 0 0 0
POINTS 1417
DATA ascii
-0.30513847 -0.055162802 0.9701032
-0.28560674 -0.055071745 0.9706856
-0.27500609 -0.054850545 0.97299999
-0.26497981 -0.05393951 0.97351599
-0.25514996 -0.054487053 0.9744516
-0.24533167 -0.054378174 0.97267634
-0.23510461 -0.05601158 0.97095978
-0.22432633 -0.055837661 0.97147995
-0.21475053 -0.05469789 0.97262859
-0.20516001 -0.054958023 0.97281224
-0.19508441 -0.056086127 0.97174984
-0.18469246 -0.054960672 0.97085696
-0.17541572 -0.054501925 0.97133321
-0.16538422 -0.054563783 0.9724443
-0.15547501 -0.054674678 0.97444451
-0.14619908 -0.05404786 0.97644848
-0.3513543 -0.041668668 0.97800004
-0.34407216 -0.044027925 0.97477794
-0.33488312 -0.044590864 0.97146422
-0.31548604 -0.043368701 0.97000015
-0.30446824 -0.044182088 0.96999997
-0.29762834 -0.045069434 0.97000015
-0.28147137 -0.041667968 0.97000003
-0.27126697 -0.047620535 0.97000003
-0.26453799 -0.045808885 0.96999997
-0.25627923 -0.045812342 0.97028571
-0.2474567 -0.048045717 0.97000003
-0.18282884 -0.047620535 0.97000009
-0.17697075 -0.047148108 0.97000015
-0.16126874 -0.047232829 0.97075003
-0.15499915 -0.045265988 0.97165495
-0.14531201 -0.044450413 0.97505558
-0.13975294 -0.04029686 0.97800004
-0.35152578 -0.034466676 0.97800004
-0.34482267 -0.034421209 0.9752
-0.33435139 -0.035277162 0.97099984
-0.32506147 -0.035738342 0.97066659
-0.31479943 -0.03573221 0.97049987
-0.29553074 -0.035772093 0.97000021
-0.28519171 -0.034333553 0.97000021
-0.27806988 -0.036990948 0.97000015
-0.26394075 -0.037612371 0.97000021
-0.25814703 -0.038509458 0.97000015
-0.15425651 -0.036225624 0.97000015
-0.1446242 -0.03506422 0.97207129
-0.13600393 -0.034217495 0.97572732
-0.12946437 -0.030008299 0.97800004
-0.35066843 -0.028293541 0.97800004
-0.3445577 -0.025586518 0.97757149
-0.33502126 -0.025445929 0.97287101
-0.32511723 -0.025663143 0.97119981
-0.31507027 -0.025544314 0.97133321
-0.30562711 -0.024669209 0.97039121
-0.29457703 -0.02496076 0.97000021
-0.28929472 -0.026361367 0.97000009
-0.25085816 -0.022959899 0.97000003
-0.24575599 -0.022109529 0.97000015
-0.19600952 -0.023385083 0.97000003
-0.16287628 -0.023920672 0.97018766
-0.15551993 -0.025229728 0.97009981
-0.14409859 -0.025228936 0.97077394
-0.13480338 -0.025596136 0.97322202
-0.12739842 -0.024361691 0.97620004
-0.34166592 -0.01800498 0.9780001
-0.33422151 -0.016145539 0.9773463
-0.32481486 -0.015413976 0.97545183
-0.31521833 -0.015354516 0.97488558
-0.30491588 -0.015386178 0.97379977
-0.29496557 -0.015341448 0.97243732
-0.28573135 -0.014843429 0.97077751
-0.27512199 -0.012528735 0.97000021
-0.26450467 -0.013352466 0.97015011
-0.24490558 -0.015306602 0.96999997
-0.22211578 -0.012925575 0.97000015
-0.21429239 -0.012944471 0.97000015
-0.20467478 -0.013462371 0.97095448
-0.19545363 -0.015052367 0.97093725
-0.18754217 -0.014564666 0.97018766
-0.17432517 -0.011905135 0.97000015
-0.16508123 -0.015204055 0.97137123
-0.1550469 -0.015331368 0.97174984
-0.14494839 -0.015345369 0.97261101
-0.1350942 -0.015387401 0.97533345
-0.12622859 -0.016124748 0.97675014
-0.32837653 -0.0094311796 0.97800004
-0.31465846 -0.0085738003 0.97800004
-0.3055838 -0.0082025956 0.97757143
-0.2945694 -0.0061473865 0.9767729
-0.28532282 -0.0052454728 0.97485709
-0.27494141 -0.0049959975 0.97354269
-0.26470736 -0.0052329651 0.97343218
-0.25498661 -0.0051139756 0.97276652
-0.24532694 -0.0051071676 0.97166646
-0.23533921 -0.0043128193 0.97169977
-0.22492194 -0.0049896599 0.97237134
-0.21481419 -0.005111428 0.97236091
-0.20500582 -0.0051223869 0.97436112
-0.19463913 -0.0051196357 0.97377765
-0.18490474 -0.0049051414 0.97365624
-0.17514263 -0.0051144985 0.97297192
-0.16530977 -0.0053194063 0.97347033
-0.15544866 -0.0051224115 0.97427773
-0.14524892 -0.0051249433 0.97461116
-0.13771097 -0.0060952571 0.97711766
-0.31376863 0.0094215358 0.97700006
-0.30447823 0.0080958828 0.97623092
-0.29456511 0.0061182212 0.97552019
-0.28526756 0.0052869855 0.97571898
-0.27502117 0.0052373572 0.97365725
-0.26495433 0.0049129687 0.97308809
-0.2551083 0.0039629526 0.97239119
-0.24546227 0.0047249408 0.97251499
-0.23528025 0.0045832954 0.97328115
-0.225609 0.0051247743 0.97480553
-0.21495777 0.0049301703 0.97510254
-0.20494141 0.0056468737 0.97650021
-0.19496727 0.0051304731 0.97541684
-0.18479729 0.0051350021 0.97591686
-0.17539997 0.0044035269 0.97696584
-0.16483979 0.0030459783 0.97649997
-0.15556936 0.0029131197 0.97665012
-0.14574875 0.0014283821 0.97733337
-0.13975294 0.00085737999 0.97800004
-0.33361131 0.016880816 0.97589475
-0.32478738 0.015817303 0.9746896
-0.31525427 0.01544166 0.97406042
-0.30506229 0.01511324 0.9714998
-0.29533908 0.012078625 0.97030008
-0.28572321 0.011905133 0.97000003
-0.2755188 0.011054766 0.97000003
-0.26786551 0.011054766 0.97000003
-0.22410195 0.012480591 0.97075015
-0.2143212 0.012120185 0.97161525
-0.20471886 0.014094035 0.97238469
-0.19532624 0.014171251 0.97233319
-0.1849279 0.01526374 0.97361112
-0.17519115 0.016195489 0.97569716
-0.16663133 0.017847398 0.97724992
-0.34209463 0.025721399 0.97800004
-0.33452636 0.025439357 0.97328115
-0.32474536 0.025440209 0.97131222
-0.31487748 0.025597714 0.97051412
-0.30599031 0.027495189 0.97000021
-0.1811281 0.021259166 0.97000003
-0.17374805 0.021763876 0.97085714
-0.1649407 0.025075974 0.9731428
-0.15665887 0.026894648 0.97604346
-0.34111476 0.032212991 0.9780001
-0.33452111 0.034530293 0.97721756
-0.32503074 0.034950037 0.97577786
-0.31515327 0.034866039 0.97361529
-0.30520588 0.03510455 0.97149974
-0.29575416 0.036743231 0.97142857
-0.28578359 0.03726184 0.97040009
-0.27504638 0.039211351 0.97000015
-0.25085816 0.039967231 0.97000003
-0.2474567 0.039967231 0.97000003
-0.22109532 0.039967231 0.97000003
-0.2168435 0.039967231 0.97000003
-0.19558434 0.039116871 0.97000021
-0.18509649 0.039400324 0.97000015
-0.17470054 0.037594099 0.97020024
-0.16464521 0.035640273 0.97091287
-0.1550713 0.034685045 0.97393745
-0.14825235 0.035351332 0.97671431
-0.3300913 0.04029686 0.97800004
-0.324947 0.04029686 0.97800004
-0.31379777 0.04281101 0.97664994
-0.3050504 0.043177895 0.97596169
-0.2942442 0.04251235 0.97552949
-0.28471047 0.044068586 0.97464275
-0.27523419 0.045416784 0.97333324
-0.26498502 0.045507476 0.97122198
-0.25519723 0.045118429 0.97224122
-0.24541979 0.045167591 0.97203559
-0.23527543 0.046123572 0.97191286
-0.22477749 0.045528062 0.97299981
-0.21524118 0.045463089 0.97317857
-0.20484948 0.046443351 0.972
-0.1948473 0.045017261 0.97212118
-0.1849311 0.045351308 0.97315365
-0.17510843 0.044834327 0.97352928
-0.16526397 0.04433874 0.97417134
-0.15542898 0.043418251 0.97584397
-0.14746936 0.042011619 0.9780001
-0.28093484 0.051157009 0.97799999
-0.27452248 0.051634312 0.97718179
-0.26550695 0.051709365 0.97607166
-0.25552294 0.051105279 0.977
-0.24434562 0.051732283 0.97650009
-0.23519245 0.052440435 0.97682345
-0.22555669 0.05159688 0.97715378
-0.21401492 0.052329108 0.97650009
-0.20453846 0.054042432 0.97621447
-0.19579571 0.053593222 0.97626942
-0.18491048 0.052221712 0.97650009
-0.17512496 0.052056737 0.97743756
-0.16620615 0.050546627 0.9772501
-0.28485924 0.068965837 0.97725004
-0.27397192 0.068668358 0.97800004
-0.26452407 0.068483882 0.97650015
-0.25456697 0.067153804 0.97694105
-0.24615085 0.066988334 0.97595006
-0.23468103 0.069090985 0.97700006
-0.22579907 0.06811437 0.97592312
-0.21863189 0.069447778 0.97800004
-0.20319907 0.064303502 0.97800004
-0.19976954 0.069447778 0.97800004
-0.29298943 0.075265348 0.97736853
-0.28461081 0.075092569 0.97439402
-0.2749311 0.075287975 0.97437131
-0.26467326 0.07490959 0.97297031
-0.25525111 0.075187705 0.97256237
-0.24515057 0.074653573 0.97097039
-0.23479204 0.074737094 0.97141165
-0.22486131 0.074870244 0.97211415
-0.2149879 0.075011738 0.97389179
-0.2049447 0.075308993 0.97465724
-0.19567868 0.076094627 0.97532159
-0.18702945 0.078896619 0.97671431
-0.29236656 0.081451103 0.97799999
-0.28347671 0.082606867 0.9769091
-0.27435371 0.084187686 0.97491688
-0.26487964 0.084678225 0.97353566
-0.25497323 0.084544472 0.97272414
-0.24489535 0.084628537 0.97176647
-0.23479721 0.085138835 0.97199976
-0.22503392 0.085244745 0.97233325
-0.21515113 0.085380107 0.9738887
-0.20485952 0.085360348 0.97366649
-0.1945945 0.085350424 0.97355533
-0.18451926 0.085425235 0.97444439
-0.17638111 0.086478181 0.97668755
-0.27178946 0.090024896 0.97799999
-0.2649304 0.090882279 0.97800004
-0.25588897 0.09096022 0.97800004
-0.24484323 0.090514831 0.9780001
-0.23439699 0.092407972 0.977
-0.22525775 0.092503242 0.977
-0.21464959 0.092416763 0.97690904
-0.20476876 0.092861861 0.97730768
-0.19584575 0.092904173 0.97735727
-0.18433832 0.092796922 0.97661555
-0.17719677 0.092540756 0.9774
-0.29670346 -0.16196856 0.98100013
-0.31063193 -0.15142225 0.98700005
-0.30494982 -0.15311202 0.98400009
-0.17549583 -0.15200515 0.98263645
-0.16968103 -0.15159452 0.98250008
-0.31317595 -0.14494115 0.98411113
-0.30729261 -0.14768314 0.98185718
-0.17457539 -0.14527607 0.98308694
-0.16754876 -0.14471297 0.98539126
-0.31360763 -0.13363276 0.9834376
-0.3087436 -0.13158153 0.98100007
-0.17206742 -0.13571949 0.98137498
-0.16597906 -0.1345742 0.98612499
-0.32003945 -0.12335751 0.98400003
-0.31469044 -0.1242179 0.98467726
-0.30667073 -0.1251258 0.98235017
-0.17114198 -0.12556146 0.98100001
-0.16435203 -0.12505677 0.98503017
-0.15866528 -0.12485137 0.98900002
-0.31472945 -0.11878219 0.98900002
-0.30952734 -0.11878219 0.98900002
-0.17131644 -0.11793971 0.98200005
-0.1647626 -0.1153848 0.98614693
-0.19161215 -0.10144173 0.98900002
-0.18641002 -0.10144173 0.98900002
-0.30519223 -0.091037452 0.98900002
-0.20375049 -0.091731071 0.98900002
-0.19447543 -0.094554491 0.98804009
-0.18531378 -0.095257133 0.98777783
-0.17522629 -0.094456904 0.98786664
-0.16480599 -0.093460932 0.98830456
-0.15779825 -0.091904476 0.98900002
-0.31334221 -0.08340764 0.98900014
-0.30483314 -0.08486858 0.98783326
-0.29596308 -0.083660603 0.98845464
-0.28351662 -0.080633171 0.98900002
-0.27355638 -0.081438601 0.98825002
-0.26635483 -0.081647389 0.98790914
-0.25923997 -0.080633171 0.98900002
-0.24378917 -0.08147981 0.98874998
-0.23580898 -0.08159551 0.9872728
-0.22470981 -0.081519715 0.98827273
-0.21433818 -0.082706094 0.98785019
-0.20486368 -0.084831864 0.98740005
-0.19519056 -0.084573068 0.98579985
-0.18474633 -0.084605843 0.98474979
-0.17499165 -0.084854975 0.98512483
-0.16477413 -0.084508322 0.98562479
-0.15719245 -0.084865592 0.98846686
-0.34074017 -0.07022889 0.98900002
-0.33377942 -0.072938375 0.98850006
-0.32493544 -0.073429652 0.98784226
-0.31520256 -0.075364634 0.98725921
-0.30509391 -0.075089313 0.98528558
-0.29540411 -0.075238541 0.98643315
-0.28518799 -0.075256012 0.9866429
-0.27468017 -0.074993037 0.98475844
-0.26418373 -0.07471098 0.98521852
-0.2553947 -0.074609667 0.98728007
-0.2452255 -0.074999809 0.98680753
-0.23473631 -0.074911788 0.98443323
-0.2254338 -0.074672759 0.98730284
-0.2149332 -0.075282395 0.98544812
-0.20515363 -0.07497897 0.98555541
-0.19509134 -0.0753759 0.98322219
-0.1848267 -0.076752774 0.98231256
-0.17526783 -0.076261342 0.98258835
-0.16486751 -0.075712107 0.98282617
-0.15558212 -0.075252295 0.9857778
-0.14873789 -0.071337 0.9883334
-0.13785671 -0.071962938 0.98900002
-0.34353432 -0.064391375 0.987059
-0.33442795 -0.065441243 0.98268008
-0.325313 -0.066841587 0.98210543
-0.31502032 -0.068459548 0.98225003
-0.30444354 -0.069374144 0.98100001
-0.29572058 -0.068677939 0.98100001
-0.28616834 -0.069015801 0.98100001
-0.27308181 -0.066335432 0.98100001
-0.26508766 -0.065211788 0.98335725
-0.25490418 -0.065290086 0.9823125
-0.24510877 -0.066557415 0.98275024
-0.23573357 -0.068193026 0.9823637
-0.2248058 -0.067184664 0.98250008
-0.21551718 -0.068486407 0.98123074
-0.20468237 -0.0688008 0.98100001
-0.16082187 -0.069660813 0.98100007
-0.15349428 -0.06750825 0.98238468
-0.14636241 -0.064420745 0.98668432
-0.13352159 -0.063292705 0.98900002
-0.35172245 -0.052888423 0.98900002
-0.34541804 -0.055878423 0.98354995
-0.33769727 -0.058767349 0.98100001
-0.26402307 -0.059340693 0.98100007
-0.25714299 -0.059340689 0.98100007
-0.14194557 -0.056506865 0.98250008
-0.13521515 -0.054199044 0.98700011
-0.12918648 -0.051154375 0.98900002
-0.36291546 -0.041575916 0.98800004
-0.3554768 -0.044544585 0.9841876
-0.34830403 -0.04902057 0.98100007
-0.14018163 -0.045580529 0.98100007
-0.13408957 -0.044872962 0.98429984
-0.12564412 -0.044564359 0.98842865
-0.37021896 -0.03121284 0.98900002
-0.36403215 -0.033938527 0.98514998
-0.35689592 -0.034188896 0.9814738
-0.13285707 -0.037683956 0.98250008
-0.12546529 -0.0347488 0.98658627
-0.37021896 -0.02861177 0.98900002
-0.36406657 -0.025644869 0.98830014
-0.35469675 -0.024607116 0.98331839
-0.34830403 -0.02236026 0.98100007
-0.12275538 -0.02567062 0.98346168
-0.11809207 -0.023722777 0.98760003
-0.3619822 -0.016473444 0.98899996
-0.35522237 -0.015552418 0.98586661
-0.34574237 -0.014545095 0.98127294
-0.33700106 -0.011671565 0.98100001
-0.12317152 -0.014310547 0.98127276
-0.11546778 -0.015131596 0.98727584
-0.35330281 -0.0075337361 0.9886924
-0.34479749 -0.0051041231 0.9871614
-0.33511251 -0.0052873227 0.98503339
-0.32501179 -0.0051113782 0.98321873
-0.31476367 -0.0034400397 0.98100019
-0.30444357 -0.0032054917 0.98100019
-0.29727679 -0.00200669 0.98100001
-0.13340659 -0.0043018498 0.98178965
-0.12473682 -0.0048351074 0.98460597
-0.11663846 -0.007312763 0.98800015
-0.34247422 0.00086702331 0.98900002
-0.3345814 0.0052948911 0.98740011
-0.32501671 0.0051019997 0.98474276
-0.31473559 0.0046856855 0.98200035
-0.30504555 0.0030100353 0.98100013
-0.29670346 0.00172002 0.98100001
-0.28896335 0.00172002 0.98100007
-0.2072624 0.0025800299 0.98100013
-0.17261629 0.0082315244 0.98100001
-0.16512193 0.007955092 0.98100001
-0.15453222 0.0076230546 0.9816429
-0.14467175 0.0065000439 0.98319238
-0.13455117 0.0053849258 0.98461747
-0.12577425 0.0043311724 0.98788464
-0.3429049 0.016095361 0.98572731
-0.33587599 0.013338703 0.98175001
-0.3259438 0.01118013 0.98100013
-0.17320602 0.011524134 0.98100007
-0.1642005 0.014364402 0.98115015
-0.15507111 0.015441685 0.98354536
-0.1452885 0.015568139 0.98650002
-0.13550316 0.013089512 0.98800021
-0.12875298 0.012571838 0.98900002
-0.35526472 0.026715718 0.98726678
-0.34631097 0.024945728 0.98119998
-0.15285762 0.024029702 0.98169231
-0.14470634 0.024856389 0.98537022
-0.13901609 0.027283182 0.98800004
-0.36270475 0.034391925 0.98900002
-0.35511762 0.033866275 0.9883045
-0.34622705 0.034852255 0.98323822
-0.33841392 0.038270444 0.98100007
-0.32766381 0.03870045 0.98100007
-0.14376581 0.033900198 0.98199987
-0.13580295 0.035261188 0.98624992
-0.12918648 0.039016049 0.98900002
-0.35114443 0.040750097 0.98900002
-0.34405905 0.04417941 0.9880954
-0.33492777 0.045110438 0.98475873
-0.32500607 0.044967674 0.98414826
-0.31598979 0.047502533 0.98160011
-0.30342716 0.047769643 0.98100001
-0.29577729 0.047300544 0.98100001
-0.28925002 0.048447233 0.98100013
-0.15369608 0.0480377 0.98100001
-0.1442557 0.04567885 0.98307693
-0.13499619 0.044838097 0.98622841
-0.12918648 0.043351166 0.98900002
-0.33322597 0.051154375 0.98900002
-0.31443346 0.052529328 0.9872309
-0.30452088 0.054237615 0.98642838
-0.29510689 0.055338018 0.98619992
-0.28538841 0.055622127 0.98309988
-0.27510986 0.056832187 0.98219997
-0.26452333 0.056900315 0.98189992
-0.25441307 0.056130569 0.98125029
-0.24538952 0.057047334 0.98100007
-0.23533083 0.057428978 0.9811765
-0.22540638 0.056804966 0.98175001
-0.21587096 0.057413194 0.98233348
-0.20812242 0.05848068 0.98100007
-0.19355071 0.057922456 0.98125005
-0.18455166 0.057843164 0.98280013
-0.17470258 0.057601701 0.98526335
-0.16470438 0.055780299 0.98399997
-0.15511429 0.055337034 0.98481798
-0.14528047 0.055350106 0.98644423
-0.13777237 0.052857041 0.9884001
-0.31354508 0.067558564 0.98800004
-0.30490863 0.066417843 0.98780012
-0.29521561 0.065599181 0.98513788
-0.2849879 0.064358935 0.98277766
-0.27530876 0.064043358 0.9820438
-0.26483226 0.063840017 0.98168188
-0.25576699 0.062895402 0.98100001
-0.24441485 0.063583411 0.98100001
-0.23579167 0.064578675 0.98122245
-0.22499204 0.063976586 0.98220015
-0.21529368 0.065360248 0.98288584
-0.20519313 0.065351158 0.98131073
-0.19477753 0.065426767 0.98369998
-0.1853475 0.064960785 0.98796666
-0.17572747 0.0641535 0.98890018
-0.16405711 0.063248351 0.98829424
-0.15502977 0.063225605 0.98793352
-0.14706478 0.062162247 0.98825002
-0.33033589 0.077165075 0.98900002
-0.3238202 0.075541496 0.98805279
-0.3149811 0.074281707 0.98526651
-0.30524775 0.074432187 0.98391175
-0.29765901 0.075776435 0.98100007
-0.19253415 0.072909646 0.98310006
-0.18464144 0.074195482 0.98555881
-0.17552318 0.07494846 0.98726672
-0.16773324 0.077367708 0.98842859
-0.32209915 0.081933707 0.98900002
-0.31483141 0.083870314 0.98795849
-0.30527714 0.084755458 0.98647052
-0.29544511 0.085908316 0.98436379
-0.28638789 0.086474225 0.98180002
-0.27864325 0.088581033 0.98100007
-0.17419028 0.08258076 0.98289472
-0.16504206 0.085010707 0.9853822
-0.15808725 0.088725388 0.98900002
-0.30172414 0.091037452 0.98900002
-0.29472885 0.092059456 0.98880005
-0.28491944 0.092927948 0.98695022
-0.27469718 0.09358345 0.98381251
-0.26461849 0.095968537 0.98511773
-0.25477132 0.096688367 0.98541689
-0.24519765 0.096005067 0.98347831
-0.23562813 0.09673667 0.98133343
-0.22539787 0.097517967 0.98335314
-0.21551004 0.097223781 0.98447073
-0.20557551 0.097705908 0.98280013
-0.19437607 0.097514153 0.98325008
-0.18543252 0.097516537 0.98320013
-0.17410901 0.095868006 0.98342884
-0.1648093 0.095060505 0.9864102
-0.1569829 0.094814368 0.98860013
-0.25056973 0.10230875 0.98900002
-0.24416982 0.1026862 0.98684627
-0.23562667 0.10250132 0.98607165
-0.22831336 0.10118531 0.98650002
-0.2118807 0.10182396 0.9885
-0.20434105 0.10130497 0.98766667
-0.19423361 0.10198942 0.98800004
-0.18551628 0.10271908 0.98793346
-0.17501831 0.10137334 0.9883334
-0.16906954 0.10144173 0.98900002
-0.1628339 -0.14188918 0.99566674
-0.15835932 -0.14086105 0.99800003
-0.16199827 -0.13639627 0.99350005
-0.15746018 -0.13496128 0.99623537
-0.18442349 -0.12265677 0.99700004
-0.15756483 -0.12526603 0.99575007
-0.32250744 -0.11456532 0.99659997
-0.31656644 -0.11515669 0.99599999
-0.29134613 -0.111114 0.99800003
-0.28872138 -0.111114 0.99800003
-0.20035516 -0.1119889 0.99800003
-0.19462024 -0.11239854 0.99775004
-0.18519771 -0.11505183 0.99718165
-0.17731714 -0.1133122 0.99636364
-0.1611757 -0.11168996 0.99380004
-0.15862712 -0.11657045 0.99529999
-0.32343736 -0.10411907 0.99410033
-0.31501469 -0.10495458 0.99659377
-0.30504349 -0.10441384 0.99612516
-0.2948083 -0.10458772 0.99534321
-0.28541595 -0.10450006 0.99696875
-0.27909735 -0.10236486 0.99800003
-0.20420539 -0.10428966 0.99747813
-0.19537936 -0.10494719 0.99386233
-0.18447344 -0.10577127 0.99344468
-0.17479789 -0.10454598 0.99500018
-0.16463308 -0.10421395 0.99567771
-0.15878217 -0.10109749 0.99700004
-0.33159214 -0.09099099 0.99800003
-0.32440284 -0.095006794 0.99427611
-0.31440017 -0.094737813 0.99280792
-0.30425328 -0.095373102 0.99246174
-0.29414749 -0.094859265 0.99270022
-0.28459036 -0.095156208 0.99580014
-0.27508309 -0.094319008 0.99786353
-0.26626527 -0.091865897 0.99800003
-0.25179395 -0.094362751 0.99766678
-0.24514812 -0.094544835 0.99772716
-0.2349834 -0.094449073 0.99644005
-0.22549795 -0.092064619 0.99700004
-0.21449666 -0.094255999 0.99718165
-0.20480275 -0.095692791 0.99409997
-0.19828096 -0.098270826 0.99200004
-0.1713217 -0.098270826 0.99200004
-0.16468246 -0.098064803 0.9924286
-0.15647559 -0.095003136 0.99419987
-0.33309108 -0.084247269 0.99619997
-0.32504159 -0.085281692 0.99437958
-0.31707561 -0.086791404 0.99199986
-0.29336345 -0.087389238 0.9921999
-0.28508952 -0.085765481 0.99288255
-0.27539957 -0.086578891 0.99317402
-0.26491338 -0.086109303 0.99473906
-0.2549406 -0.084667929 0.99562496
-0.2454392 -0.086234517 0.99356538
-0.23465225 -0.086791016 0.99356008
-0.22544435 -0.086501077 0.99452621
-0.21522085 -0.088382237 0.99324989
-0.20958646 -0.089574292 0.99200004
-0.15329331 -0.084831089 0.99416649
-0.14727341 -0.083179735 0.99700004
-0.34095702 -0.072835512 0.99300003
-0.33519372 -0.077477962 0.99499995
-0.32592672 -0.078172177 0.99200004
-0.28785524 -0.07913845 0.99200004
-0.25422868 -0.077978916 0.99200004
-0.15088484 -0.077833973 0.99200004
-0.14484343 -0.074933402 0.99427611
-0.13740522 -0.070441917 0.99200004
-0.35443783 -0.061354462 0.99336362
-0.14215395 -0.06629058 0.99307138
-0.13557066 -0.063947223 0.99213052
-0.36133921 -0.055119544 0.99800003
-0.35630557 -0.055479303 0.99462497
-0.13334684 -0.057687003 0.99200004
-0.12776318 -0.054123171 0.99453837
-0.37008834 -0.041120928 0.99800003
-0.36381611 -0.04657219 0.99600011
-0.35829717 -0.047830932 0.99200004
-0.12262112 -0.046381515 0.99200004
-0.37221164 -0.032177173 0.99200004
-0.36902288 -0.037395094 0.99200004
-0.12094274 -0.034804981 0.99250007
-0.11920875 -0.03332999 0.99671429
-0.37358844 -0.023103675 0.99449998
-0.36851561 -0.021958746 0.99200004
-0.11477944 -0.024578793 0.99499995
-0.37291741 -0.01506694 0.99650002
-0.36646599 -0.014797053 0.99292302
-0.11051278 -0.014795152 0.99260008
-0.10852031 -0.013611628 0.99714285
-0.37008834 -0.0096240463 0.99800003
-0.36366135 -0.0054383809 0.995
-0.35590565 -0.0034786132 0.99199986
-0.34177375 -0.0008696533 0.99200004
-0.11375339 -0.0038064874 0.99452633
-0.10936417 -0.0069993064 0.99800003
-0.36150512 0.0021866257 0.99725008
-0.35456467 0.0041384385 0.99500018
-0.34467724 0.0050034658 0.99237525
-0.12244719 0.0074790195 0.99199998
-0.11652412 0.0049980958 0.9972499
-0.35084024 0.01443607 0.99800003
-0.34687832 0.014028613 0.99333328
-0.14001419 0.01826272 0.99200004
-0.13474788 0.017170953 0.99281812
-0.12516794 0.0150429 0.99512011
-0.11916319 0.012773735 0.99800003
-0.14001419 0.021741332 0.99200004
-0.13490084 0.023919674 0.99580002
-0.12773734 0.020123007 0.99800003
-0.36215249 0.035371825 0.99281812
-0.35655785 0.038699571 0.99200004
-0.1324878 0.032660995 0.995
-0.12858383 0.037040543 0.99585718
-0.36186695 0.041720916 0.99560004
-0.35482258 0.044994291 0.99514288
-0.3472091 0.048048344 0.99200004
-0.32872897 0.04957024 0.99200004
-0.13131765 0.04957024 0.99200004
-0.12515289 0.04561083 0.99575001
-0.11986312 0.046370406 0.99799997
-0.35259008 0.052494802 0.99800003
-0.34415942 0.054706067 0.9954803
-0.33444253 0.05527249 0.99412507
-0.32526094 0.055146441 0.99488914
-0.31531298 0.057049405 0.99281812
-0.30872694 0.058266774 0.99200004
-0.14001419 0.058266774 0.99200004
-0.13392165 0.055820584 0.99414301
-0.12616907 0.054248016 0.99734777
-0.34121621 0.060369018 0.99800003
-0.33561677 0.061768878 0.99800003
-0.32437518 0.064900085 0.9966799
-0.31497139 0.063059129 0.9931429
-0.3053821 0.061477806 0.99199992
-0.17450427 0.066983558 0.99230003
-0.16604646 0.067530446 0.99246144
-0.15471488 0.067743741 0.99361527
-0.14430602 0.065653145 0.99499995
-0.13582192 0.062892109 0.99634999
-0.12861226 0.060369018 0.99800003
-0.33315909 0.074320823 0.99384606
-0.32701296 0.073093481 0.99259996
-0.17219134 0.072181225 0.99200004
-0.164336 0.074573673 0.99415642
-0.15575318 0.07435292 0.99692851
-0.14821032 0.071567908 0.99800003
-0.33321223 0.083742581 0.99499995
-0.32556051 0.0849998 0.9938333
-0.31713361 0.088414751 0.99200004
-0.16127406 0.082117014 0.99440002
-0.15622458 0.085607909 0.9960435
-0.32209888 0.092111506 0.99750012
-0.31460035 0.094405137 0.99485725
-0.30519083 0.095318869 0.99465382
-0.29488516 0.096803211 0.99349988
-0.28504768 0.097662903 0.99366665
-0.27481046 0.098270826 0.99200004
-0.15268959 0.094667666 0.99394113
-0.14895397 0.095803007 0.99800009
-0.29834545 0.10061503 0.99800003
-0.28374779 0.10202546 0.99730778
-0.2747007 0.10226465 0.99593747
-0.26474923 0.1036825 0.99526101
-0.25559026 0.10496546 0.99468422
-0.2453621 0.10735799 0.99424988
-0.23433135 0.1069923 0.99411762
-0.22474335 0.10472097 0.99540901
-0.21517797 0.1055496 0.99499995
-0.20492946 0.10639416 0.99472737
-0.19546609 0.10680157 0.99468434
-0.18476096 0.10712401 0.9959231
-0.17486374 0.10445455 0.99566662
-0.1641667 0.10434286 0.99550015
-0.15504381 0.10320345 0.99578261
-0.14891024 0.10201488 0.99800003
-0.23593496 0.11169726 0.99799997
-0.18635654 0.111114 0.99800003
-0.16234551 -0.14303957 1.001
-0.28337988 -0.13153769 1.0070001
-0.27808306 -0.13153769 1.0070001
-0.19509953 -0.13153769 1.0070001
-0.15563551 -0.13277555 1.0030001
-0.31160414 -0.1220881 1.0055001
-0.30633277 -0.12222812 1.0070001
-0.29359514 -0.12308799 1.0070001
-0.28482378 -0.12476262 1.005862
-0.27666476 -0.12482546 1.0065385
-0.25159895 -0.12094405 1.0070001
-0.24387442 -0.12160614 1.0070001
-0.23696963 -0.12170073 1.0070001
-0.20376971 -0.12327416 1.0068001
-0.19516316 -0.12473939 1.0049677
-0.18867181 -0.12373361 1.001
-0.15575729 -0.12448878 1.00475
-0.31303197 -0.11478246 1.0023125
-0.30534303 -0.11535089 1.0048708
-0.29511568 -0.11538157 1.0033751
-0.2846705 -0.11528389 1.0027585
-0.27511394 -0.11463441 1.0058333
-0.26483178 -0.11430292 1.0064546
-0.25531429 -0.11445487 1.0066539
-0.24535443 -0.11447579 1.0067353
-0.23583461 -0.11425997 1.0070001
-0.21251182 -0.1135801 1.0064
-0.20541589 -0.11555051 1.0041304
-0.19577669 -0.1171397 1.0014287
-0.17322704 -0.11215004 1.001
-0.16107172 -0.11002167 1.0040001
-0.15643278 -0.11477034 1.00475
-0.31328297 -0.10969292 1.001
-0.30714017 -0.10969292 1.001
-0.28213018 -0.10837659 1.001
-0.27502057 -0.10476417 1.0022857
-0.26477513 -0.10468056 1.0033998
-0.25492123 -0.10460781 1.0026999
-0.24463716 -0.1047786 1.0031723
-0.23473093 -0.10485872 1.0050999
-0.22397269 -0.1033847 1.0065
-0.21568787 -0.10468784 1.0048749
-0.20819716 -0.10749906 1.001
-0.17199849 -0.10969292 1.001
-0.16453937 -0.10837661 1.001
-0.15785125 -0.10461751 1.0046668
-0.27445167 -0.098504238 1.001
-0.26414058 -0.095854729 1.0009999
-0.25652546 -0.095261142 1.0012858
-0.2469407 -0.098460361 1.001
-0.23605917 -0.098869883 1.001
-0.22521384 -0.096642643 1.0025713
-0.21678726 -0.09872508 1.0025001
-0.15479413 -0.095867224 1.0032501
-0.33785418 -0.081611529 1.001
-0.25799775 -0.087754332 1.001
-0.22552864 -0.088631876 1.001
-0.15272498 -0.089163139 1.0070001
-0.33960927 -0.07985644 1.001
-0.36613965 -0.053917687 1.0012144
-0.37327096 -0.043759987 1.0050001
-0.36874372 -0.046860814 1.001
-0.12022343 -0.042999625 1.001
-0.11799992 -0.041870769 1.002
-0.12022343 -0.039489448 1.001
-0.11616233 -0.034682885 1.0029999
-0.37822118 -0.024571214 1.001
-0.11169589 -0.02609274 1.0032501
-0.10913886 -0.020243987 1.0040001
-0.38111505 -0.011442253 1.0040001
-0.37809688 -0.013521005 1.0016
-0.10656994 -0.01438493 1.0046668
-0.38141224 -0.0051940554 1.0063334
-0.37517691 -0.0051382435 1.0029614
-0.36909473 -0.0029836474 1.001
-0.111448 -0.00087754335 1.001
-0.10692712 -0.0051404038 1.0036843
-0.38048825 0.00088280335 1.0070001
-0.37394825 0.0026469938 1.0058461
-0.36545861 0.0055725328 1.0031667
-0.35686764 0.009067948 1.001
-0.11154716 0.0066774832 1.0019001
-0.1082818 0.0042779455 1.0042144
-0.36265203 0.014119155 1.0065
-0.3567034 0.014655236 1.0029999
-0.12092856 0.017861791 1.002
-0.11513276 0.014226316 1.0041579
-0.35628259 0.020183496 1.001
-0.13145599 0.026852826 1.001
-0.12612878 0.024436094 1.004375
-0.13075395 0.031591561 1.001
-0.12663367 0.03489776 1.0036
-0.36433649 0.04629302 1.0031819
-0.35891521 0.048264883 1.001
-0.36286756 0.052249227 1.0058751
-0.35563478 0.055503018 1.0032105
-0.34838471 0.058795404 1.001
-0.12237872 0.056464344 1.0025001
-0.11838332 0.051930226 1.0040001
-0.35273489 0.061583377 1.0064
-0.34482726 0.064482801 1.0046315
-0.33472043 0.065944001 1.0016
-0.32849371 0.063183114 1.001
-0.14216202 0.069325924 1.001
-0.13379478 0.067285925 1.0032501
-0.12668407 0.064018719 1.0046315
-0.33852923 0.073564894 1.0030001
-0.15162852 0.077382617 1.0014285
-0.14444442 0.07478936 1.0046817
-0.13661812 0.072942913 1.0065
-0.33648908 0.087851845 1.001
-0.32907873 0.088631876 1.001
-0.15173522 0.084217861 1.0028001
-0.14835081 0.084644705 1.0067273
-0.34264919 0.093643256 1.0058
-0.33518749 0.092698731 1.0042856
-0.32606372 0.094822019 1.0040001
-0.31591561 0.099162392 1.001
-0.30450752 0.099162392 1.001
-0.15005991 0.090386964 1.001
-0.14667109 0.094848938 1.0044286
-0.31400394 0.10189722 1.0057144
-0.30402166 0.10331242 1.0041765
-0.29441914 0.10425036 1.0038637
-0.28547758 0.1068363 1.0029999
-0.27545002 0.10709815 1.0020909
-0.26560315 0.10881537 1.001
-0.25448754 0.10969292 1.001
-0.23167144 0.10969292 1.001
-0.2246511 0.10969292 1.001
-0.21543689 0.10969292 1.001
-0.18428409 0.10969292 1.001
-0.1753906 0.10746063 1.0020001
-0.16550466 0.10828884 1.001
-0.15382083 0.10793782 1.001
-0.14775756 0.10547966 1.00475
-0.29044229 0.11123322 1.0070001
-0.28463843 0.11103493 1.0052
-0.27509251 0.11109623 1.0057501
-0.26510552 0.11181683 1.0065715
-0.25500262 0.11235463 1.0065001
-0.24405085 0.11287366 1.0050001
-0.23409691 0.11510521 1.0044286
-0.2256562 0.11283096 1.0055
-0.21492353 0.11350972 1.0059286
-0.20507854 0.11354606 1.0039999
-0.19610314 0.11248772 1.0040001
-0.18350092 0.11168788 1.005125
-0.17504352 0.11116748 1.0064
-0.1657185 0.11106884 1.0055001
-0.15544207 0.11176697 1.0065
-0.14919376 0.11123322 1.0070001
-0.27425027 -0.16169152 1.0190001
-0.2919004 -0.1513072 1.01825
-0.28359261 -0.15362176 1.0180625
-0.27498978 -0.15509589 1.0188241
-0.26598704 -0.15476829 1.0190004
-0.25487202 -0.1527583 1.0190001
-0.24477059 -0.1527583 1.0190002
-0.23535633 -0.15317059 1.0190001
-0.16496705 -0.15156719 1.0190001
-0.32503116 -0.14297819 1.013
-0.30207393 -0.14244267 1.0164286
-0.29458711 -0.14487323 1.0160002
-0.28518894 -0.14527102 1.0166003
-0.27484438 -0.14545661 1.0179003
-0.26525083 -0.14521466 1.0190004
-0.25534004 -0.14552809 1.0184004
-0.24490938 -0.14569822 1.0182503
-0.23532498 -0.14476547 1.0175604
-0.22481973 -0.14213765 1.0190002
-0.21518584 -0.14245878 1.0190001
-0.207921 -0.1420384 1.0190001
-0.19981425 -0.14120206 1.013
-0.16400659 -0.14796621 1.0167501
-0.3039169 -0.13487907 1.0160003
-0.29465351 -0.13517396 1.0144002
-0.28485605 -0.13534078 1.0110387
-0.27484873 -0.13528991 1.0126365
-0.26546109 -0.13508886 1.0157355
-0.25495631 -0.13551985 1.0158238
-0.2449353 -0.13503487 1.014594
-0.23518747 -0.13521457 1.0156573
-0.22505185 -0.13485318 1.0187004
-0.21488783 -0.13464123 1.0170801
-0.20508091 -0.13449557 1.0130002
-0.19818968 -0.13419411 1.010375
-0.15319149 -0.13418399 1.0150527
-0.1468486 -0.13338006 1.0190001
-0.30482942 -0.12595126 1.011435
-0.29591146 -0.12722448 1.0106001
-0.27158585 -0.12538283 1.0107502
-0.26468772 -0.12528974 1.0125865
-0.25482666 -0.12505628 1.0116802
-0.24570672 -0.12626757 1.0105295
-0.23422076 -0.12560458 1.0121727
-0.22483473 -0.12497349 1.0165297
-0.21494444 -0.12494408 1.0121431
-0.20725952 -0.12661697 1.0100001
-0.15224493 -0.1256312 1.0121177
-0.14576894 -0.12537935 1.0181924
-0.26415429 -0.1195335 1.01
-0.25411937 -0.1168772 1.01
-0.24615046 -0.1195335 1.01
-0.23144485 -0.11672969 1.0108184
-0.22470452 -0.11417786 1.0113336
-0.21709253 -0.11625157 1.0102001
-0.15214035 -0.11416944 1.011412
-0.14698143 -0.11631978 1.016158
-0.22661188 -0.10666521 1.0100001
-0.1545262 -0.10615006 1.015182
-0.149185 -0.10987877 1.0190001
-0.15408702 -0.095301263 1.0160002
-0.15230855 -0.089960024 1.016
-0.11216266 -0.03313572 1.0106001
-0.10834373 -0.031082217 1.013
-0.11067916 -0.027448433 1.01
-0.1056846 -0.024532896 1.0149289
-0.10323074 -0.015856409 1.0137895
-0.099158891 -0.017866466 1.0190001
-0.10234194 -0.0050968938 1.013316
-0.38151276 0.0077237249 1.0160002
-0.37589109 0.0074456641 1.0125386
-0.36922571 0.0088543333 1.01
-0.10412715 0.0054600053 1.0135716
-0.38189575 0.013846512 1.0190001
-0.3746542 0.014815874 1.0167143
-0.36679822 0.016055115 1.0121818
-0.11283178 0.017246272 1.0116668
-0.10690317 0.014626794 1.0143334
-0.37328607 0.021580026 1.0172001
-0.36521155 0.022180546 1.0120771
-0.3586005 0.022135833 1.01
-0.12227213 0.026520526 1.0113637
-0.11544424 0.024771294 1.0141144
-0.10847377 0.022884797 1.0169998
-0.1229526 0.033910017 1.0145001
-0.11692618 0.032260958 1.0181429
-0.37195596 0.048156757 1.011
-0.36922571 0.048698831 1.01
-0.12417194 0.040199548 1.0190001
-0.37251243 0.055126004 1.0141251
-0.36596295 0.056654528 1.0116876
-0.12077398 0.058612183 1.013
-0.37251583 0.061639309 1.0190001
-0.36477178 0.064361602 1.0165
-0.35597068 0.065516956 1.0122943
-0.34866261 0.068313375 1.012
-0.12316475 0.066159867 1.0142355
-0.36090261 0.071465865 1.0190001
-0.35344982 0.073167846 1.0170588
-0.34586763 0.073680975 1.0142
-0.14344019 0.078803569 1.01
-0.13355476 0.076514684 1.011737
-0.12701277 0.073947273 1.0162143
-0.14380191 0.085150525 1.0113202
-0.13618043 0.084167026 1.0174402
-0.12953188 0.081292421 1.0190001
-0.35093319 0.098866962 1.016
-0.34440988 0.097658224 1.0116668
-0.33519459 0.097786814 1.013
-0.32809818 0.098429061 1.0115
-0.14313126 0.094597451 1.0148335
-0.13893309 0.095235452 1.0172
-0.34283966 0.10128544 1.0172857
-0.33408102 0.10310423 1.01825
-0.32490352 0.10504007 1.0161366
-0.31510988 0.10711536 1.0139375
-0.30607766 0.10813955 1.012
-0.29691562 0.10901613 1.011
-0.14324476 0.10527147 1.0130002
-0.13843837 0.10329614 1.0175
-0.31365302 0.11301851 1.0186667
-0.30504632 0.11421525 1.0167826
-0.29519388 0.1142024 1.0144119
-0.28476155 0.1164237 1.0146877
-0.27509913 0.11637932 1.0143125
-0.26510093 0.11640719 1.0126251
-0.25467622 0.11668068 1.0111054
-0.24627374 0.11765085 1.0118752
-0.23605184 0.1193567 1.011
-0.2252323 0.11705208 1.0115001
-0.21592474 0.11838201 1.0115
-0.20547028 0.11867723 1.0102501
-0.19476254 0.11664804 1.0126002
-0.18555306 0.11669005 1.0140001
-0.17499073 0.11639489 1.0112859
-0.16519101 0.11645113 1.0109003
-0.15560155 0.11603976 1.0142499
-0.14545062 0.11284447 1.0146
-0.27395248 0.12089642 1.0190001
-0.26492649 0.12131443 1.0175
-0.25518218 0.1235311 1.017579
-0.244911 0.12372147 1.0165
-0.23449774 0.12369575 1.0136001
-0.22543107 0.12336341 1.017435
-0.21480863 0.12366054 1.016
-0.2048223 0.12346761 1.0154002
-0.19466642 0.12213087 1.0179285
-0.18497974 0.12209545 1.0174999
-0.17643926 0.12238486 1.0174999
-0.16425927 0.12074295 1.0172001
-0.15990488 0.12059865 1.0190001
-0.28043339 -0.1612716 1.0220001
-0.27864149 -0.1612716 1.0220001
-0.29118484 -0.15320802 1.0220001
-0.28867617 -0.15535831 1.0220001
-0.27864149 -0.15858375 1.0220001
-0.26206633 -0.15723981 1.0220001
-0.25831893 -0.15494917 1.0231251
-0.23331508 -0.15475732 1.0225457
-0.22630943 -0.15312831 1.0225457
-0.16174369 -0.15096068 1.0250001
-0.15636051 -0.15050262 1.028
-0.34336227 -0.14329292 1.028
-0.33398712 -0.1440279 1.0273076
-0.32978007 -0.14287475 1.0250001
-0.23115598 -0.14783232 1.0220002
-0.22524264 -0.14771284 1.0220002
-0.21831395 -0.14753364 1.0220002
-0.16295567 -0.14765258 1.027
-0.15459354 -0.14459035 1.0264399
-0.14544003 -0.1440223 1.026421
-0.13568221 -0.14243867 1.0272499
-0.12887351 -0.14329292 1.028
-0.34413478 -0.1365982 1.028
-0.33531144 -0.13692436 1.028
-0.15141611 -0.13887277 1.0220001
-0.14351064 -0.13644844 1.0220002
-0.13465232 -0.1355553 1.0239998
-0.12809065 -0.13631603 1.0258572
-0.33525136 -0.12526865 1.028
-0.14126198 -0.12473661 1.0220002
-0.13473192 -0.12550244 1.0236285
-0.12695719 -0.12417927 1.0244546
-0.14338003 -0.11370995 1.0238948
-0.13534811 -0.1155953 1.027
-0.1270293 -0.11822036 1.0276666
-0.15141015 -0.10309424 1.0244
-0.14670263 -0.10727932 1.0256923
-0.13788565 -0.10904681 1.028
-0.11877991 -0.10688391 1.028
-0.15150633 -0.095446274 1.0243571
-0.14870019 -0.098232254 1.028
-0.150962 -0.088959746 1.0250001
-0.10213868 -0.024190739 1.0220001
-0.098211095 -0.022408227 1.0224286
-0.10003468 -0.011715773 1.028
-0.098853521 -0.015828507 1.0220001
-0.10003468 -0.0099133467 1.028
-0.38172048 0.016674727 1.0226002
-0.37898827 0.017023113 1.0220001
-0.1038458 0.016517526 1.0224288
-0.38078016 0.020606926 1.0220001
-0.37809229 0.020606926 1.0220001
-0.11020226 0.028670507 1.0220001
-0.10644679 0.025132978 1.0238001
-0.121551 0.037928689 1.0220001
-0.11458021 0.035298616 1.0240526
-0.10798648 0.032396339 1.0265
-0.12211725 0.041305244 1.02425
-0.11788537 0.040946033 1.0265
-0.11736988 0.05778899 1.0220001
-0.37228689 0.066002615 1.0232857
-0.36799982 0.068458609 1.0230001
-0.1209537 0.068988405 1.0220001
-0.11676658 0.064493746 1.0252498
-0.37099949 0.071796663 1.028
-0.36500323 0.074321456 1.0254999
-0.35586101 0.07781107 1.0231252
-0.12425868 0.075532153 1.0239286
-0.11986137 0.072097063 1.028
-0.35958412 0.080207989 1.028
-0.13266464 0.088145465 1.0225002
-0.12760647 0.083805084 1.0245385
-0.13474786 0.09372586 1.0243684
-0.35361952 0.10417234 1.0263846
-0.34484002 0.10638691 1.0248235
-0.33588243 0.1073302 1.0223752
-0.1362834 0.10512958 1.0250001
-0.34336227 0.11129984 1.028
-0.33494994 0.11159664 1.0258181
-0.32487631 0.1126535 1.0250001
-0.31666565 0.11673453 1.0242501
-0.30462417 0.11916179 1.0220002
-0.29476863 0.1191618 1.0220001
-0.1525763 0.1191532 1.025
-0.14383845 0.11639811 1.0229001
-0.1383985 0.11183304 1.0238001
-0.3109186 0.1216638 1.028
-0.30381614 0.12226763 1.0263333
-0.2945222 0.12202791 1.026
-0.28415725 0.1231995 1.02575
-0.27516669 0.12533474 1.02575
-0.26521546 0.1266543 1.0246001
-0.25482684 0.12830937 1.0235001
-0.24618874 0.12773296 1.0236669
-0.23669942 0.12837206 1.024
-0.22362603 0.12777053 1.0232857
-0.21562219 0.12803918 1.0254285
-0.2043751 0.12818401 1.0225
-0.19543442 0.12661858 1.0232859
-0.18483727 0.12741341 1.0235
-0.17464405 0.12600981 1.02425
-0.16465369 0.12389641 1.0241001
-0.15718006 0.12208708 1.0265
-0.25143853 0.13067593 1.028
-0.23494318 0.13052338 1.0267999
-0.22800697 0.13067593 1.028
-0.15455721 -0.15184568 1.031
-0.3432377 -0.14319392 1.0316001
-0.33705652 -0.14767197 1.0320001
-0.15546106 -0.14823031 1.031
-0.14290982 -0.14833879 1.0317501
-0.13609686 -0.14677592 1.0322001
-0.12834576 -0.1419034 1.031
-0.35451323 -0.13312592 1.0349334
-0.34494859 -0.13446082 1.0312728
-0.33713356 -0.13316624 1.031
-0.36126205 -0.12648723 1.0380001
-0.35408801 -0.12539259 1.0370771
-0.34506261 -0.12566935 1.0347694
-0.33842796 -0.12554523 1.0333
-0.35112229 -0.11686743 1.0380001
-0.34531373 -0.11544122 1.0377779
-0.33865952 -0.11712354 1.0356668
-0.13226241 -0.11177529 1.031
-0.12459707 -0.11390619 1.0319546
-0.11840348 -0.11659579 1.031
-0.3448824 -0.10828761 1.0380001
-0.14390729 -0.10342523 1.0318751
-0.13463406 -0.10463941 1.0321788
-0.12520377 -0.10491377 1.0327353
-0.11813627 -0.1021641 1.0350001
-0.14590083 -0.096237838 1.0351053
-0.13430254 -0.096568957 1.0363531
-0.1260691 -0.097105488 1.0363531
-0.1177514 -0.098095849 1.0380001
-0.1495681 -0.089740857 1.034
-0.097827449 -0.012680763 1.03325
-0.10087155 -0.0045388537 1.0366001
-0.097227156 -0.0051063644 1.0365002
-0.10282775 0.0057632066 1.0380001
-0.10701251 0.029018104 1.0345001
-0.11252849 0.038413342 1.031
-0.10710709 0.036025874 1.0333847
-0.12176779 0.0455813 1.0346251
-0.11490902 0.044091322 1.0357224
-0.10774715 0.042420585 1.0350001
-0.12102734 0.050048899 1.0380001
-0.11920738 0.050048899 1.0380001
-0.37509498 0.069595933 1.031
-0.11358298 0.068993367 1.031
-0.37316486 0.074632965 1.034
-0.36460391 0.078710638 1.0320001
-0.1216521 0.077580906 1.033
-0.117222 0.074638113 1.0353078
-0.36533219 0.082468413 1.0370001
-0.12430108 0.084638663 1.0350001
-0.13271143 0.096978247 1.0338572
-0.12807734 0.092047811 1.0361668
-0.35509983 0.1081193 1.0314286
-0.1348062 0.10148469 1.0366668
-0.35515657 0.11322252 1.0361177
-0.34522709 0.11522063 1.0348462
-0.33427235 0.11626724 1.0347501
-0.32683012 0.11689941 1.0336667
-0.1405713 0.11790159 1.0345001
-0.13735689 0.1153528 1.0337144
-0.32356381 0.12140413 1.0350001
-0.31517345 0.12380717 1.0345834
-0.30467859 0.12636591 1.035125
-0.29404256 0.12671496 1.0330001
-0.28543103 0.12770832 1.0318183
-0.27747989 0.1292496 1.031
-0.26663378 0.1292496 1.031
-0.17297071 0.12889777 1.033
-0.16481149 0.12821104 1.0323334
-0.1544919 0.12569419 1.0339446
-0.14681086 0.12240405 1.0342309
-0.29028362 0.13012713 1.0380001
-0.28293955 0.13245468 1.0358572
-0.27411136 0.13323604 1.0348574
-0.264999 0.13411753 1.0360001
-0.25475895 0.13349172 1.0341766
-0.24481988 0.13329567 1.0343127
-0.2350035 0.13392696 1.0350001
-0.22452842 0.13251095 1.0346364
-0.21473277 0.13228223 1.0335001
-0.2047179 0.13272651 1.0339288
-0.1960326 0.13267414 1.0357778
-0.18597221 0.13154033 1.0348001
-0.17107624 0.13103712 1.0380001
-0.16416167 0.13163188 1.0371112
-0.15863985 0.13073379 1.0380001
-0.34040353 -0.15240587 1.041
-0.33788356 -0.15383527 1.0445
-0.12819584 -0.14104603 1.0470001
-0.3617847 -0.1229416 1.041
-0.35865572 -0.12228974 1.041
-0.34527078 -0.12198553 1.041
-0.36469698 -0.11547843 1.0458573
-0.3561472 -0.11439871 1.0417827
-0.34556216 -0.1141341 1.0415455
-0.37173736 -0.10616696 1.0470001
-0.36485329 -0.10509611 1.0470003
-0.3551535 -0.10483757 1.0441157
-0.34824121 -0.10545364 1.0420001
-0.3552157 -0.098212086 1.0470001
-0.1443211 -0.092483446 1.0419376
-0.13593559 -0.092347346 1.0416001
-0.12443219 -0.092695333 1.0417501
-0.11798515 -0.09307427 1.0418181
-0.1510146 -0.08877828 1.044
-0.14438038 -0.085921563 1.0458002
-0.13471082 -0.08522179 1.0453202
-0.1250302 -0.085418403 1.0459203
-0.11765735 -0.084845953 1.0448183
-0.14043412 -0.07985469 1.0470001
-0.13446794 -0.07985469 1.0470001
-0.12819584 -0.079242773 1.0470001
-0.094615571 -0.0033554416 1.0445
-0.10121497 0.0051924968 1.0443333
-0.097506292 0.003250919 1.0448182
-0.10329272 0.012293672 1.0464
-0.10555505 0.02111101 1.0470001
-0.11343265 0.047906581 1.0422857
-0.10677689 0.047559794 1.0461428
-0.12024097 0.05599007 1.0470001
-0.11662143 0.052207034 1.0447501
-0.37288272 0.079511479 1.0425
-0.37291121 0.083142191 1.046
-0.36778182 0.085785344 1.041
-0.12343641 0.087779753 1.043
-0.11826225 0.08447583 1.0442728
-0.13136412 0.099057198 1.0430001
-0.12671578 0.095098883 1.0439999
-0.13399149 0.10514828 1.0444999
-0.1285018 0.10188357 1.0470001
-0.36169776 0.11529306 1.041
-0.35500529 0.11863931 1.0410001
-0.34496656 0.1195519 1.041
-0.336023 0.11918686 1.041
-0.13539729 0.11501103 1.0435714
-0.35331452 0.12367809 1.045
-0.34546891 0.12331881 1.0452856
-0.33497104 0.12337743 1.0435714
-0.32470337 0.12586334 1.0424999
-0.31524009 0.1282095 1.0414286
-0.30435544 0.12867801 1.041
-0.15058064 0.12867801 1.041
-0.14325257 0.12632243 1.0441501
-0.13676263 0.12238267 1.0470001
-0.32262737 0.13198523 1.0455
-0.31545058 0.13194884 1.0440001
-0.30429408 0.13229118 1.0454999
-0.29456601 0.13420589 1.0444286
-0.28538573 0.13633312 1.0426153
-0.27543771 0.13756607 1.0415
-0.2642006 0.1373478 1.041
-0.25439003 0.13871673 1.041
-0.24530959 0.1385342 1.0410001
-0.23473243 0.13782351 1.0428751
-0.22550602 0.13733359 1.0437273
-0.21513113 0.13691685 1.0418181
-0.20548585 0.13721894 1.0417501
-0.19487344 0.13662417 1.0429287
-0.18713383 0.13612187 1.045909
-0.17499781 0.13401429 1.0450908
-0.16492063 0.13626836 1.0431999
-0.15486602 0.1345122 1.0437503
-0.14703034 0.13353354 1.046357
-0.28178608 0.14043412 1.0470001
-0.27522904 0.14036705 1.0465
-0.26479474 0.14164324 1.0457499
-0.25507531 0.14358306 1.0456876
-0.24485092 0.14272238 1.0454999
-0.23480956 0.14225703 1.0459999
-0.22525354 0.14262588 1.0460527
-0.21433204 0.14169145 1.0458462
-0.20480831 0.14200421 1.045875
-0.19599995 0.1416789 1.0467
-0.18999909 0.14043412 1.0470001
-0.16429873 0.14043412 1.0470001
-0.15879151 0.14043412 1.0470001
-0.12447819 -0.14301093 1.057
-0.37096152 -0.1132215 1.0500001
-0.3672795 -0.114142 1.0500001
-0.37096146 -0.10493701 1.0500001
-0.36451799 -0.1003345 1.0500001
-0.3543925 -0.1003345 1.0500001
-0.36550367 -0.09520679 1.0516366
-0.3563244 -0.094934523 1.0504998
-0.36344263 -0.089012645 1.054
-0.35807449 -0.089288503 1.0500001
-0.15004151 -0.083765499 1.0500001
-0.14599381 -0.080959663 1.0511429
-0.1371545 -0.080083497 1.0500001
-0.1242675 -0.081135496 1.0500001
-0.11690349 -0.080083497 1.0500001
-0.14278796 -0.076812655 1.0525
-0.13502961 -0.07494089 1.0544232
-0.12514347 -0.075694203 1.0543
-0.11665867 -0.075367212 1.0544667
-0.13176772 -0.068385787 1.057
-0.12787586 -0.068571113 1.057
-0.094278008 0.0050290469 1.0532223
-0.08988376 0.0027799099 1.057
-0.10187235 0.015136001 1.0526001
-0.097944073 0.014382273 1.0549092
-0.10356972 0.023580249 1.054875
-0.099150121 0.021312643 1.057
-0.11302403 0.055286322 1.0539168
-0.10743474 0.054050505 1.0525714
-0.1111964 0.065791205 1.057
-0.10748985 0.062702417 1.057
-0.1205855 0.089288503 1.0500001
-0.11728704 0.089586131 1.0535001
-0.12331221 0.095177375 1.0523334
-0.11723333 0.095414639 1.0566669
-0.13240227 0.10802813 1.0532
-0.12510107 0.10391286 1.0546924
-0.1321466 0.11419372 1.054143
-0.12880249 0.11026976 1.057
-0.35495925 0.12738098 1.0510001
-0.34554473 0.12756376 1.0525
-0.33570197 0.12788637 1.0520002
-0.3286185 0.12794951 1.0500001
-0.13415042 0.12536055 1.0528235
-0.12880249 0.12694922 1.057
-0.35363054 0.13081293 1.054
-0.34376627 0.13225237 1.056077
-0.33450314 0.13247718 1.0555
-0.326525 0.13428204 1.0542858
-0.31371909 0.13675754 1.0533637
-0.30487034 0.13754977 1.0520002
-0.29666859 0.1384709 1.0516001
-0.18278849 0.13741717 1.052
-0.17598383 0.13826534 1.0522223
-0.1518825 0.1389955 1.0500001
-0.14375423 0.13617106 1.0552
-0.13775645 0.13338365 1.0559092
-0.31042328 0.14177541 1.057
-0.30334213 0.14225905 1.0560001
-0.29506022 0.14336953 1.055077
-0.28546154 0.14465122 1.0534761
-0.27523535 0.14593551 1.05355
-0.26541081 0.1470108 1.0526154
-0.25500757 0.14826012 1.0522858
-0.24458122 0.1475623 1.052
-0.23487611 0.14723504 1.0523001
-0.22445866 0.14772096 1.0515001
-0.21595274 0.14696334 1.0533572
-0.20533557 0.14777301 1.052909
-0.1945087 0.14600779 1.0521177
-0.1856364 0.14452766 1.0545238
-0.17489657 0.14341009 1.0563571
-0.16472566 0.14471883 1.0536667
-0.15622102 0.14307882 1.0544446
-0.1491885 0.14177541 1.057
-0.26223817 0.15104178 1.057
-0.25427598 0.15151663 1.0560001
-0.24555869 0.15104178 1.057
-0.23391104 0.15120776 1.0560001
-0.22562607 0.15180765 1.0558751
-0.21636966 0.15104178 1.057
-0.2047867 0.15104178 1.057
-0.1961381 0.15104178 1.057
-0.12321331 -0.14134783 1.06075
-0.11758161 -0.14184599 1.0645001
-0.12485355 -0.13744773 1.0641668
-0.13846073 -0.071553536 1.0600001
-0.1240571 -0.072018169 1.0600001
-0.11374398 -0.073304608 1.0622858
-0.1344754 -0.065170914 1.0603334
-0.12457563 -0.064427227 1.0620666
-0.11500704 -0.065481119 1.0633436
-0.10944219 -0.061736621 1.067
-0.13070925 -0.057884548 1.0650001
-0.12640844 -0.058332771 1.0658572
-0.11764166 -0.038279649 1.0650001
-0.091035344 0.0068876194 1.0618001
-0.088863313 0.0065478231 1.067
-0.093292549 0.015194429 1.06315
-0.10202701 0.027720965 1.062875
-0.097873695 0.023305431 1.0632857
-0.10333942 0.032238245 1.0641112
-0.11615834 0.058543801 1.0600001
-0.11244126 0.062260866 1.0600001
-0.1087242 0.062260866 1.0600001
-0.11503326 0.094977878 1.0606431
-0.12332546 0.10763036 1.0622858
-0.11833519 0.10342893 1.0628889
-0.13069142 0.11889616 1.0623335
-0.12752764 0.11336108 1.0634
-0.13035624 0.12474791 1.0646667
-0.12935084 0.12562326 1.0615001
-0.35354152 0.13631465 1.0649999
-0.3446686 0.13744833 1.0639091
-0.33498186 0.13776202 1.0632001
-0.32579178 0.13840251 1.0624001
-0.31873846 0.13846073 1.0600001
-0.13408291 0.13568358 1.0621431
-0.12851034 0.13223661 1.06225
-0.34329304 0.1412459 1.067
-0.33487439 0.1412459 1.067
-0.32427317 0.1418695 1.067
-0.31507108 0.14378312 1.0638334
-0.3053633 0.14624245 1.0625001
-0.29388058 0.14845034 1.0600001
-0.28404585 0.14961194 1.0600001
-0.1839948 0.1491473 1.0600001
-0.17510037 0.14748789 1.0600001
-0.16509971 0.14899243 1.0600001
-0.15394458 0.14668073 1.0630001
-0.14427902 0.14362565 1.0625883
-0.137419 0.14222088 1.0642858
-0.30213526 0.15122354 1.067
-0.29516971 0.15225816 1.0655
-0.28522295 0.15300933 1.0648183
-0.27475613 0.15399109 1.06375
-0.2651687 0.1551934 1.0631877
-0.25601885 0.15593991 1.063154
-0.24539712 0.15563086 1.063
-0.23570313 0.15542091 1.0632669
-0.22407117 0.15535937 1.0627501
-0.21451689 0.15431713 1.0628463
-0.2063563 0.1544008 1.0637143
-0.19509566 0.15307914 1.0625556
-0.18531594 0.15247408 1.0644001
-0.17533806 0.15106598 1.0650002
-0.16440313 0.15264617 1.0643001
-0.15794398 0.15188053 1.0645001
