# .PCD v0.7 - Point Cloud Data file format
VERSION 0.7
FIELDS x y z
SIZE 4 4 4
TYPE F F F
COUNT 1 1 1
WIDTH 1427
HEIGHT 1
VIEWPOINT 0 0 0 1 0 0 0
POINTS 1427
DATA ascii
-0.036695585 -0.21369766 1.0825833
-0.084775172 -0.20478959 1.08652
-0.075198673 -0.20465223 1.0857998
-0.065525576 -0.20454389 1.0831999
-0.058070395 -0.20608681 1.08
-0.041974802 -0.20703359 1.08
-0.036872536 -0.20443986 1.0824999
-0.084479906 -0.1956006 1.087
-0.075282 -0.19535203 1.087
-0.065320045 -0.19517381 1.0856295
-0.055777799 -0.19404231 1.0815651
-0.043394066 -0.19309974 1.0807999
-0.03563007 -0.1947958 1.0839165
-0.02887857 -0.1919976 1.086
-0.082524315 -0.18887204 1.087
-0.074588954 -0.18608256 1.087
-0.064799696 -0.18486971 1.0870004
-0.054237075 -0.18498003 1.0866896
-0.044738404 -0.18466301 1.0857999
-0.035255067 -0.18485259 1.0869
-0.02850147 -0.18374349 1.087
-0.042500973 -0.17667446 1.087
-0.031446911 -0.17534035 1.087
-0.027635163 -0.17819916 1.087
-0.081744783 -0.27120036 1.097
-0.076165773 -0.27207935 1.0966667
-0.063438222 -0.27155328 1.0930001
-0.057181239 -0.27197599 1.0962501
-0.083593674 -0.26337191 1.0960001
-0.074989773 -0.26510099 1.092
-0.064663187 -0.26466095 1.0904287
-0.054879133 -0.26493195 1.0931364
-0.04904687 -0.26062161 1.097
-0.091361813 -0.2519663 1.097
-0.085039899 -0.25502256 1.0932273
-0.07670594 -0.25687373 1.09
-0.064978532 -0.25656968 1.09
-0.054350816 -0.25571534 1.0910435
-0.046574987 -0.25332725 1.0964546
-0.091361813 -0.24523434 1.097
-0.085669123 -0.24588455 1.0909525
-0.079312034 -0.2494029 1.09
-0.069756366 -0.2494029 1.09
-0.052556168 -0.24892512 1.09
-0.044226192 -0.24603383 1.0920001
-0.036534615 -0.24501398 1.0948666
-0.093621857 -0.23399031 1.0938751
-0.08815103 -0.23554717 1.09
-0.041089367 -0.23889166 1.09
-0.037601657 -0.23568568 1.0928751
-0.10097885 -0.22311518 1.097
-0.094744176 -0.22488779 1.0916001
-0.088867702 -0.22646929 1.09
-0.035651941 -0.22596629 1.0946923
-0.10097885 -0.21830666 1.097
-0.094852917 -0.2154329 1.0936924
-0.034431081 -0.21806996 1.0910001
-0.093887284 -0.20500478 1.0927501
-0.092559136 -0.19515805 1.0912501
-0.088389918 -0.19159111 1.09
-0.093072496 -0.18517873 1.0944668
-0.085308895 -0.18412085 1.0901741
-0.0774009 -0.18203545 1.09
-0.056378432 -0.1806021 1.09
-0.027711432 -0.18824664 1.09
-0.091875672 -0.17647099 1.0965716
-0.085258499 -0.17477855 1.0944139
-0.075020701 -0.17415936 1.0930001
-0.064688981 -0.17477524 1.0929357
-0.054516673 -0.17501988 1.09096
-0.045484971 -0.17429538 1.09
-0.036084015 -0.17468669 1.09
-0.027870692 -0.17455018 1.09
-0.083475851 -0.16599001 1.097
-0.075854354 -0.16649489 1.097
-0.062477581 -0.16647446 1.0964
-0.054753177 -0.16521369 1.0956999
-0.045072183 -0.16493389 1.0938666
-0.035497051 -0.16501451 1.0944
-0.027474208 -0.16631775 1.0958
-0.060587309 -0.15868105 1.097
-0.054817088 -0.15868105 1.097
-0.045520622 -0.15836047 1.097
-0.038147565 -0.15803991 1.097
-0.084026366 -0.2919836 1.1073333
-0.074274264 -0.29289097 1.1075
-0.066126294 -0.29401916 1.1079999
-0.090335242 -0.28363323 1.108
-0.084030166 -0.28529203 1.1051816
-0.074578837 -0.28539011 1.1048259
-0.064916857 -0.28511086 1.1037389
-0.057964325 -0.28209645 1.102
-0.090659022 -0.27424356 1.1079999
-0.084804825 -0.27575505 1.1026362
-0.07406418 -0.27708766 1.1012856
-0.06492646 -0.27688658 1.101
-0.054758593 -0.27586541 1.1035999
-0.045184072 -0.27332127 1.1048822
-0.036793754 -0.27307045 1.1045623
-0.10102005 -0.26129225 1.108
-0.094231091 -0.26446787 1.1068332
-0.086868905 -0.26601186 1.101
-0.045194801 -0.26509288 1.1030868
-0.036852896 -0.26450816 1.1047894
-0.10193004 -0.2553122 1.1073333
-0.095990829 -0.25507569 1.1033528
-0.089764528 -0.2596415 1.1010001
-0.044192526 -0.25717276 1.1024544
-0.036478873 -0.25524515 1.1035881
-0.10307655 -0.24503551 1.1063634
-0.096586674 -0.24532528 1.1017272
-0.032513518 -0.24482685 1.1016666
-0.028956298 -0.24612854 1.101
-0.10338578 -0.23531626 1.1053077
-0.098129682 -0.23711993 1.101
-0.032141667 -0.23479864 1.1027498
-0.026739562 -0.23388676 1.1052001
-0.10424557 -0.2257314 1.1050999
-0.030993676 -0.22470385 1.1048332
-0.026998557 -0.22569139 1.1064998
-0.10347605 -0.21514247 1.1044667
-0.099416628 -0.2123462 1.1010001
-0.10189936 -0.2054141 1.107
-0.099274307 -0.20499097 1.103
-0.1000487 -0.19718337 1.108
-0.098039165 -0.19365609 1.1045001
-0.10004871 -0.18358453 1.108
-0.098113507 -0.18494405 1.1032224
-0.12336103 -0.17192836 1.108
-0.095342249 -0.17551343 1.1040832
-0.089764528 -0.17084217 1.1010001
-0.12336103 -0.16998567 1.108
-0.091402486 -0.16572507 1.1067998
-0.085930288 -0.16381277 1.1013333
-0.073875681 -0.1628235 1.101
-0.06563428 -0.16408569 1.101
-0.026348969 -0.16237681 1.1015714
-0.083795168 -0.15576451 1.1047199
-0.07456699 -0.15494296 1.1046665
-0.0650305 -0.15480191 1.1048619
-0.055155348 -0.15384215 1.1037198
-0.045344517 -0.15350656 1.1024581
-0.034785565 -0.15409388 1.1032902
-0.027219914 -0.15741874 1.1046666
-0.080621772 -0.145702 1.108
-0.07604257 -0.1461183 1.1079999
-0.052776501 -0.14732093 1.1079999
-0.045636754 -0.14675462 1.1075714
-0.038512114 -0.14725386 1.1075
-0.088289097 -0.31097382 1.1190001
-0.078479201 -0.31097382 1.1190001
-0.092310719 -0.30397943 1.1178
-0.085198849 -0.30456865 1.1170799
-0.076130427 -0.30405983 1.1171051
-0.067264877 -0.30122969 1.1120001
-0.094699837 -0.29458943 1.1160001
-0.085969925 -0.29651451 1.1130002
-0.075458795 -0.29759765 1.113
-0.067264877 -0.29927996 1.1120001
-0.10104197 -0.28154412 1.1190001
-0.095513083 -0.28549665 1.1143808
-0.052996907 -0.28456169 1.1160834
-0.045303643 -0.28471017 1.114421
-0.035756607 -0.28431809 1.1134545
-0.027958214 -0.2835061 1.1190001
-0.11085187 -0.27271521 1.1190001
-0.10427521 -0.27416214 1.1171052
-0.095742211 -0.27512211 1.11325
-0.044843253 -0.27929547 1.1120001
-0.032915771 -0.27604273 1.1137857
-0.02757672 -0.27609417 1.1190001
-0.11219127 -0.26520571 1.1176667
-0.10503582 -0.26516283 1.1137618
-0.098460183 -0.26808468 1.1120001
-0.11244658 -0.25513986 1.1179334
-0.10684374 -0.25515294 1.113
-0.11289737 -0.24442255 1.1184288
-0.10758705 -0.24566884 1.1131251
-0.11191019 -0.23557577 1.1178
-0.10755056 -0.23534116 1.1127501
-0.12445493 -0.22412354 1.1190002
-0.11389197 -0.2244442 1.1179999
-0.1083255 -0.22543308 1.1132001
-0.022775194 -0.22396088 1.1148463
-0.01863881 -0.22268473 1.1190001
-0.13079868 -0.21483679 1.1190001
-0.1247514 -0.21483907 1.1180909
-0.11438265 -0.21499573 1.1181999
-0.10794024 -0.21441425 1.1142501
-0.030748645 -0.21817164 1.1135001
-0.024627985 -0.21579605 1.1166799
-0.01863881 -0.21679878 1.1190001
-0.13346882 -0.20422158 1.1178
-0.12509149 -0.2042464 1.1173999
-0.11461234 -0.20486338 1.119
-0.10636396 -0.20460868 1.1154706
-0.024132354 -0.20816608 1.1190001
-0.14028157 -0.19521701 1.1190001
-0.13431762 -0.19459711 1.113909
-0.12488658 -0.19450346 1.116107
-0.11477584 -0.19521701 1.119
-0.10556775 -0.19504577 1.1164285
-0.14093556 -0.18573411 1.1190001
-0.13501935 -0.18477912 1.1140951
-0.12504163 -0.18464239 1.1143667
-0.11461172 -0.18514621 1.1173998
-0.10522438 -0.18464369 1.1160001
-0.13350436 -0.17529896 1.1162144
-0.1247937 -0.17503417 1.113111
-0.11436554 -0.17496954 1.1149999
-0.10485284 -0.17540024 1.1177598
-0.097785503 -0.17234321 1.1131999
-0.13084558 -0.16808811 1.118
-0.12394935 -0.16531734 1.1147498
-0.11436553 -0.16519466 1.1149999
-0.10476688 -0.16548026 1.1169199
-0.096472725 -0.16512017 1.1168237
-0.12262375 -0.15815741 1.1190001
-0.11437662 -0.15508494 1.1171428
-0.1054659 -0.15514626 1.1179229
-0.094370261 -0.15539406 1.11708
-0.087199755 -0.15196368 1.1126001
-0.026955621 -0.1535017 1.1152858
-0.11085187 -0.14812949 1.1190001
-0.10391954 -0.14433631 1.1190002
-0.093717232 -0.14342073 1.1190002
-0.085845955 -0.14505209 1.1138635
-0.073503882 -0.14355002 1.1125456
-0.065243408 -0.14492759 1.1143569
-0.056607295 -0.14434016 1.11325
-0.045359392 -0.14258638 1.1127502
-0.033847552 -0.14475167 1.1137916
-0.026435364 -0.14485097 1.1168823
-0.10202296 -0.13831958 1.1190001
-0.091232069 -0.13831958 1.1190001
-0.084220335 -0.13562097 1.1164782
-0.075227939 -0.13482472 1.1144665
-0.066437125 -0.13591531 1.1178
-0.054929662 -0.1362043 1.1170454
-0.044724077 -0.13526703 1.1162353
-0.03509663 -0.136199 1.1177272
-0.02844871 -0.13831958 1.1190001
-0.082263015 -0.12598716 1.1190001
-0.076096795 -0.12654771 1.1190002
-0.04335976 -0.12811729 1.1190001
-0.086538106 -0.32081616 1.126
-0.093071684 -0.31300682 1.1242858
-0.085423857 -0.3157438 1.1243333
-0.078730106 -0.31551528 1.1253999
-0.097348571 -0.30387872 1.1245
-0.073965244 -0.30803815 1.125
-0.06811174 -0.30699641 1.126
-0.10236536 -0.29329282 1.1242858
-0.09943416 -0.2983025 1.123
-0.10421605 -0.28461829 1.1245002
-0.032488391 -0.28845751 1.123
-0.02369104 -0.28133109 1.126
-0.11412676 -0.27477223 1.1242001
-0.10829464 -0.27861255 1.123
-0.02221035 -0.27886328 1.126
-0.018097321 -0.27804068 1.126
-0.12141658 -0.26158857 1.126
-0.11777994 -0.26545256 1.1242501
-0.12273274 -0.25434965 1.126
-0.11737999 -0.25499159 1.1236924
-0.12339081 -0.24579453 1.1260002
-0.1181396 -0.24513967 1.123
-0.13128784 -0.23000051 1.126
-0.12490692 -0.23519118 1.1249564
-0.11702382 -0.23503217 1.123
-0.13455349 -0.22371967 1.1254376
-0.12481228 -0.2258873 1.123
-0.1183365 -0.22741874 1.123
-0.14155397 -0.21262708 1.126
-0.13591138 -0.21531057 1.1238824
-0.12306208 -0.21429209 1.123
-0.1191241 -0.21363577 1.123
-0.02067443 -0.21265128 1.123
-0.017524043 -0.21324198 1.123
-0.14258757 -0.20431539 1.1248001
-0.13802645 -0.20812258 1.123
-0.12227448 -0.20772879 1.123
-0.1191241 -0.20969778 1.123
-0.02067443 -0.2077288 1.123
-0.017732119 -0.20688105 1.1237501
-0.14389117 -0.19513865 1.1242001
-0.14347951 -0.18459293 1.1242858
-0.13881403 -0.18016289 1.123
-0.14115912 -0.1776828 1.126
-0.13756503 -0.17389059 1.1242858
-0.13288283 -0.16542381 1.1248751
-0.12896906 -0.16145745 1.123
-0.13128784 -0.1589274 1.126
-0.12551004 -0.15431076 1.1243333
-0.1181396 -0.15062799 1.123
-0.10140315 -0.15358147 1.123
-0.098646566 -0.15220317 1.123
-0.12339082 -0.14905612 1.126
-0.11447854 -0.14577542 1.1245
-0.10691635 -0.14452413 1.123
-0.097662069 -0.14590241 1.123
-0.024612416 -0.14078303 1.123
-0.11154531 -0.13918486 1.126
-0.10557255 -0.13487504 1.1244998
-0.095799319 -0.13490404 1.1246248
-0.088604696 -0.13290705 1.123
-0.06364736 -0.13200808 1.1246667
-0.055640157 -0.13198254 1.1247144
-0.032512434 -0.13216314 1.1238573
-0.026618434 -0.13506885 1.1246156
-0.10562255 -0.12931359 1.126
-0.093777031 -0.12536508 1.1260002
-0.086854488 -0.12448414 1.1229999
-0.074963607 -0.12297273 1.1238183
-0.069005504 -0.1281555 1.1245
-0.051637273 -0.12794 1.1255
-0.044660296 -0.1256384 1.1243848
-0.035612635 -0.12810254 1.1250001
-0.093283467 -0.11894877 1.126
-0.08547812 -0.11566877 1.1252173
-0.077691726 -0.1162411 1.1256002
-0.081931517 -0.10957106 1.126
-0.079957262 -0.10957106 1.126
-0.08380232 -0.33022106 1.138
-0.093961954 -0.32451108 1.1329334
-0.08445181 -0.32491571 1.1314286
-0.077110723 -0.32312751 1.1350001
-0.10187656 -0.31384447 1.1365001
-0.09629903 -0.31648159 1.1324
-0.073972262 -0.31493631 1.1326667
-0.11073878 -0.30029166 1.138
-0.10416399 -0.30464646 1.13425
-0.0980727 -0.30808696 1.13
-0.11233845 -0.29392293 1.1358181
-0.10682183 -0.29486555 1.131091
-0.11400381 -0.28504753 1.1343635
-0.10916779 -0.28550053 1.13
-0.12228062 -0.27378616 1.1340001
-0.11796882 -0.27578986 1.1308
-0.023350643 -0.27638671 1.13
-0.12461369 -0.26410607 1.1321819
-0.13023233 -0.25350571 1.1340001
-0.12657137 -0.25611624 1.1308889
-0.13270278 -0.2436765 1.1364
-0.12818795 -0.24468641 1.13
-0.14251444 -0.23360257 1.1368001
-0.13533922 -0.23471069 1.1334667
-0.12977296 -0.23775199 1.13
-0.14484045 -0.22452617 1.1345
-0.13835846 -0.22751546 1.13
-0.15064465 -0.21349639 1.138
-0.14563762 -0.21568631 1.1322857
-0.012716925 -0.21326563 1.1336
-0.0083032027 -0.21224977 1.1366667
-0.15051228 -0.2053355 1.1370001
-0.14699201 -0.20598817 1.131
-0.012904128 -0.20550779 1.1324615
-0.0083952108 -0.2064838 1.1362858
-0.16999795 -0.19584557 1.1340001
-0.15020339 -0.19496308 1.1346666
-0.14760436 -0.19515476 1.13
-0.010896967 -0.1991173 1.13
-0.15064465 -0.18855523 1.138
-0.14676976 -0.18477201 1.1322857
-0.14375195 -0.17575765 1.1340001
-0.1396793 -0.1723702 1.13
-0.14042096 -0.16730657 1.136
-0.13670099 -0.16383556 1.1326667
-0.1336347 -0.15532079 1.1333333
-0.12977296 -0.15255752 1.13
-0.13120368 -0.14781009 1.1366667
-0.12454508 -0.14576025 1.1327367
-0.11766194 -0.14314638 1.1305715
-0.02087694 -0.14017373 1.1340001
-0.11457639 -0.1357972 1.1327499
-0.1099603 -0.13175423 1.13
-0.022155412 -0.1342618 1.1316668
-0.018844241 -0.13190736 1.1313334
-0.11154181 -0.12847024 1.136
-0.1035769 -0.12547807 1.1310908
-0.096940555 -0.12581043 1.13
-0.07099539 -0.12250832 1.13
-0.064275555 -0.12486148 1.1329998
-0.055317521 -0.12428939 1.1335
-0.044651501 -0.12168117 1.1318183
-0.034246191 -0.12333139 1.131524
-0.025504479 -0.12546411 1.1348003
-0.018921973 -0.12747259 1.136
-0.10063782 -0.11749087 1.131
-0.094980545 -0.11459021 1.130421
-0.072662428 -0.11445195 1.1320001
-0.068091862 -0.11625419 1.1366667
-0.05154508 -0.11805486 1.138
-0.044041201 -0.11607301 1.136
-0.035339434 -0.11521696 1.136286
-0.028266655 -0.11805486 1.138
-0.092603855 -0.10595549 1.133111
-0.084586933 -0.10486024 1.1322856
-0.076295137 -0.10555339 1.1335557
-0.090785846 -0.094776429 1.138
-0.085655093 -0.097626857 1.138
-0.093677968 -0.3424786 1.149
-0.086507626 -0.34282836 1.1486365
-0.10215139 -0.33262092 1.1480001
-0.095752642 -0.33534944 1.145667
-0.085281372 -0.33611363 1.1444668
-0.076163575 -0.33340493 1.1461999
-0.10399565 -0.32388496 1.1465386
-0.098360538 -0.32642362 1.141
-0.071912587 -0.32468012 1.1415713
-0.068552002 -0.32346636 1.1466
-0.11248072 -0.31427449 1.149
-0.10789749 -0.31548151 1.1466669
-0.067506254 -0.31648922 1.1436667
-0.11342616 -0.30518278 1.1472224
-0.10822099 -0.30862349 1.1430001
-0.11734928 -0.29614326 1.149
-0.11986751 -0.28506306 1.149
-0.12748048 -0.27001771 1.1450001
-0.14001331 -0.25081521 1.149
-0.13489848 -0.25511721 1.1466001
-0.15008621 -0.24074231 1.149
-0.14340521 -0.24467425 1.1468183
-0.13634628 -0.2467352 1.1428182
-0.15159714 -0.23419493 1.149
-0.14705247 -0.23639371 1.1439092
-0.15416534 -0.22464268 1.146143
-0.14930247 -0.2284646 1.1430001
-0.15379496 -0.21553932 1.1453334
-0.15430774 -0.20626877 1.146143
-0.002823743 -0.2035047 1.1435456
0.00100729 -0.2004507 1.149
-0.16692084 -0.19507937 1.1470001
-0.15375768 -0.19797325 1.1463333
-0.0040151333 -0.19975288 1.1450001
-0.15075773 -0.18366253 1.149
-0.14956371 -0.18369235 1.1450001
-0.15008621 -0.17426117 1.149
-0.14720348 -0.17362472 1.1467143
-0.16015911 -0.16418827 1.149
-0.15372746 -0.16356252 1.1487647
-0.14526261 -0.16441388 1.1468949
-0.15257481 -0.15423387 1.149
-0.14441592 -0.15404356 1.1484784
-0.1382111 -0.15476564 1.1445001
-0.1512374 -0.14605705 1.149
-0.1449582 -0.14660649 1.149
-0.13487993 -0.14717023 1.1472224
-0.12630443 -0.14215435 1.148
-0.12166993 -0.1387623 1.1470001
-0.11785293 -0.13329804 1.149
-0.10778003 -0.12389667 1.149
-0.021005809 -0.12103347 1.141
-0.018036541 -0.12224591 1.1430001
-0.063111104 -0.11448615 1.1427144
-0.055601392 -0.11484729 1.1437275
-0.046826493 -0.1124279 1.1424999
-0.032008853 -0.11103071 1.141
-0.024594368 -0.11472354 1.1438236
-0.018306028 -0.11809033 1.1474001
-0.071519785 -0.10252836 1.141
-0.065277331 -0.10545281 1.1456403
-0.056018017 -0.10737839 1.1487501
-0.04452667 -0.10684621 1.1466472
-0.03514139 -0.10542051 1.1453202
-0.027702583 -0.1065087 1.147182
-0.084168471 -0.09417779 1.1420667
-0.075080357 -0.095146976 1.1445001
-0.067649573 -0.097126149 1.1486365
-0.03424786 -0.099721707 1.149
-0.082988895 -0.087589636 1.1484287
-0.075994432 -0.088753432 1.149
-0.10113565 -0.34392098 1.1552857
-0.095462859 -0.34710574 1.1543334
-0.08469779 -0.34768784 1.1547778
-0.076178148 -0.34264585 1.1552222
-0.069986932 -0.34182021 1.1570001
-0.11055906 -0.3316772 1.1570001
-0.10596819 -0.33520678 1.1551818
-0.074134216 -0.33779126 1.1545
-0.069890149 -0.33527434 1.1554
-0.055786684 -0.33370578 1.1570001
-0.11406562 -0.32421356 1.1552498
-0.10742165 -0.32711959 1.1537999
-0.067840852 -0.32806796 1.155
-0.057815291 -0.32843143 1.1570001
-0.1207021 -0.31747693 1.1570001
-0.11679439 -0.31540358 1.1548181
-0.065701783 -0.31840095 1.153
-0.11799729 -0.30699581 1.1570001
-0.1207021 -0.29719087 1.1570001
-0.11826321 -0.29110944 1.153
-0.12425216 -0.28400493 1.1570001
-0.12769264 -0.27616009 1.156
-0.1438282 -0.2610817 1.1570001
-0.13516271 -0.26390561 1.1563333
-0.12837118 -0.26988271 1.153
-0.1511312 -0.25256154 1.1570001
-0.14512917 -0.2551063 1.1559472
-0.13780528 -0.25910088 1.153
-0.15338549 -0.24421662 1.1559089
-0.14696983 -0.2480495 1.153
-0.15633082 -0.23543212 1.1547142
-0.15869507 -0.22675538 1.153
-0.15795955 -0.21263374 1.155
-0.16370854 -0.20225208 1.1570001
-0.15821224 -0.20479131 1.155
-0.1649379 -0.19643718 1.1555454
-0.15727933 -0.19497895 1.1551538
-0.00101255 -0.1954169 1.155
0.0018222394 -0.19697174 1.1545999
-0.16303852 -0.18601596 1.1563333
-0.15613846 -0.18513413 1.1553158
-0.16212055 -0.17529598 1.1558001
-0.15577245 -0.17499092 1.1537999
-0.16172746 -0.16880304 1.153
-0.15547705 -0.16609479 1.1535
-0.15667348 -0.15869507 1.153
-0.1506087 -0.14050074 1.153
-0.1439627 -0.14266209 1.1541427
-0.13532753 -0.14269741 1.1544285
-0.12837118 -0.14050074 1.153
-0.14504537 -0.13837995 1.1570002
-0.13373296 -0.1360134 1.1567498
-0.12513706 -0.13445672 1.1557997
-0.11786053 -0.13204207 1.1556667
-0.12678792 -0.12780222 1.1570001
-0.02175054 -0.11178859 1.1539999
-0.017735405 -0.11502261 1.156
-0.061658595 -0.10006887 1.153
-0.055313919 -0.10280152 1.1548181
-0.046141069 -0.10280249 1.1542
-0.03942107 -0.10006887 1.153
-0.025291914 -0.10329166 1.1540909
-0.064818732 -0.09418793 1.1552857
-0.059843898 -0.097373113 1.1570001
-0.034500945 -0.096177272 1.1548461
-0.027615219 -0.096527345 1.1560001
-0.082062729 -0.083075859 1.1556667
-0.075456008 -0.084907651 1.1553332
-0.069906272 -0.088140361 1.1556667
-0.093258925 -0.37611017 1.169
-0.088854551 -0.37278059 1.1650001
-0.080961041 -0.36176264 1.169
-0.11151463 -0.35193783 1.1670001
-0.10513206 -0.35482877 1.1654001
-0.094695792 -0.35533646 1.1632856
-0.083890863 -0.35480922 1.1637692
-0.075826846 -0.35241669 1.1610001
-0.066988148 -0.35058925 1.1636667
-0.11367567 -0.34416741 1.1665385
-0.1066718 -0.34540385 1.1622308
-0.080406986 -0.34910882 1.161
-0.073374838 -0.34762833 1.1610001
-0.064662866 -0.34419367 1.164091
-0.056997359 -0.34096634 1.161
-0.12393407 -0.33321926 1.1683334
-0.11548371 -0.3350513 1.1635263
-0.10890567 -0.33893073 1.161
-0.064122036 -0.33465585 1.1609999
-0.056851957 -0.3360227 1.1610001
-0.13015257 -0.32281935 1.169
-0.12432926 -0.32522377 1.1645555
-0.11854199 -0.32845163 1.1623334
-0.062883392 -0.32502213 1.1626003
-0.05728453 -0.32285216 1.1638572
-0.13015257 -0.31667042 1.169
-0.12486845 -0.31496504 1.1646001
-0.11908377 -0.31246766 1.161
-0.063887432 -0.31822842 1.1642001
-0.13015257 -0.30437255 1.169
-0.12462781 -0.30491477 1.1652001
-0.11908377 -0.30228958 1.161
-0.13015257 -0.29412431 1.169
-0.12439004 -0.29420063 1.163
-0.1341379 -0.28389031 1.1680001
-0.12764683 -0.28586522 1.1625001
-0.15154499 -0.2723707 1.168
-0.14493057 -0.27428359 1.1666472
-0.13529195 -0.27526751 1.1638001
-0.12926187 -0.27989775 1.161
-0.1544935 -0.26465905 1.1650001
-0.14569221 -0.26535758 1.1610001
-0.13689543 -0.26793846 1.1610001
-0.16138974 -0.25398019 1.1670001
-0.15515511 -0.25551063 1.1618
-0.14961807 -0.25954154 1.161
-0.16326678 -0.24467827 1.165
-0.15816766 -0.2459029 1.1610001
-0.16201764 -0.23435928 1.1623334
-0.16226369 -0.22306986 1.169
-0.15979616 -0.22290039 1.161
-0.16447182 -0.21380314 1.1679091
-0.15979616 -0.2147579 1.161
-0.16515319 -0.20686461 1.1636667
-0.1627042 -0.19585574 1.1610001
-0.00101781 -0.19033048 1.161
0.0040914034 -0.19308229 1.1653333
-0.16386741 -0.18524142 1.161
-0.0016014194 -0.18429349 1.1632859
0.0045361654 -0.18589528 1.1678574
-0.14402011 -0.13536872 1.1610001
-0.13791326 -0.13485983 1.161
-0.12519063 -0.13333312 1.161
-0.12477101 -0.12535195 1.1625239
-0.11528153 -0.12512679 1.1620001
-0.10822713 -0.12179793 1.161
-0.12400363 -0.11990433 1.169
-0.11545491 -0.11724135 1.1667501
-0.10636477 -0.11730222 1.1635455
-0.015308592 -0.11295874 1.1646364
-0.053943932 -0.10076318 1.161
-0.047837067 -0.10076318 1.161
-0.021713279 -0.10415589 1.1610001
-0.016553804 -0.10570204 1.1643333
-0.061407868 -0.091942169 1.1610001
-0.054066945 -0.094875 1.1637201
-0.044931799 -0.094961606 1.1648003
-0.036663949 -0.092503674 1.1616668
-0.024393974 -0.093691289 1.1624118
-0.018166507 -0.096975327 1.1675
-0.081424803 -0.080406986 1.161
-0.073196106 -0.081568666 1.1614445
-0.064269461 -0.084672794 1.1637203
-0.056308676 -0.085706688 1.1678571
-0.04475062 -0.08915963 1.169
-0.0348294 -0.085950933 1.1664118
-0.027072694 -0.085994035 1.1668667
-0.081334934 -0.077240907 1.1670001
-0.074626438 -0.075987034 1.1661114
-0.065413922 -0.077322558 1.1675454
-0.058414929 -0.078911394 1.169
-0.10112 -0.37868404 1.177
-0.095359683 -0.37485707 1.1754616
-0.089617252 -0.3728919 1.1750001
-0.11143836 -0.36114281 1.177
-0.10407313 -0.36477432 1.1754
-0.095402122 -0.36527127 1.1755716
-0.086820357 -0.36439118 1.1737502
-0.11577991 -0.35443547 1.1756667
-0.12415037 -0.34316242 1.1762002
-0.1178446 -0.34735855 1.174
-0.13150564 -0.33413988 1.1758573
-0.12695909 -0.3370961 1.1750002
-0.14136162 -0.32502854 1.177
-0.13520263 -0.32526445 1.1748669
-0.055670962 -0.32165864 1.1760001
-0.14136162 -0.31264651 1.177
-0.1355212 -0.3151316 1.1745654
-0.062266853 -0.31527683 1.1740001
-0.05689742 -0.31706789 1.1758001
-0.13526894 -0.30477351 1.1748334
-0.06149729 -0.30885521 1.1756667
-0.058714747 -0.30902326 1.1750001
-0.15333094 -0.29283524 1.177
-0.14445713 -0.29304165 1.177
-0.13580623 -0.29493642 1.1751179
-0.15487806 -0.28500745 1.1762002
-0.14519146 -0.28523982 1.1746001
-0.13748977 -0.2874794 1.174143
-0.16234231 -0.27481249 1.177
-0.15648657 -0.27579185 1.1743335
-0.16348535 -0.26466921 1.1755456
-0.15939115 -0.26736581 1.1730001
-0.16560146 -0.25633854 1.1762002
-0.17025305 -0.24660897 1.177
-0.16713808 -0.24627373 1.1754001
-0.16617855 -0.23506102 1.1752857
-0.17025305 -0.22287673 1.177
-0.16643721 -0.2247747 1.1743335
-0.17164342 -0.21496154 1.1764287
-0.1676178 -0.21656629 1.1730001
-0.17275944 -0.20875099 1.1730001
0.0092549697 -0.19229771 1.1730001
0.0082345298 -0.1831979 1.174
-0.12272207 -0.1147962 1.1748463
-0.11393841 -0.11203348 1.1757693
-0.10536649 -0.11229391 1.175182
-0.10627918 -0.10834285 1.177
-0.01336829 -0.10591799 1.1730001
-0.01547755 -0.09802448 1.177
-0.051931418 -0.084492743 1.1740911
-0.044431549 -0.085770875 1.1752502
-0.03534691 -0.082015961 1.1743335
-0.023694839 -0.084138863 1.1752224
-0.082404912 -0.075192578 1.1750001
-0.075106665 -0.071576953 1.1735716
-0.064159214 -0.073133402 1.1750002
-0.056149278 -0.075665735 1.1759335
-0.032638595 -0.078673519 1.1756667
-0.027330961 -0.078127876 1.1765001
-0.073604353 -0.068445161 1.177
-0.065464303 -0.068215862 1.177
-0.05881469 -0.069133058 1.177
-0.11456367 -0.37180835 1.188
-0.10448347 -0.37536386 1.1838889
-0.09525159 -0.37375894 1.1810001
-0.08731395 -0.37237847 1.1810001
-0.12237434 -0.36295709 1.188
-0.11524702 -0.36550075 1.1828668
-0.10456967 -0.36961758 1.1810001
-0.13133693 -0.35335889 1.189
-0.12459601 -0.35383368 1.1850001
-0.11837425 -0.35857391 1.1810001
-0.13245514 -0.34541938 1.1850001
-0.12596677 -0.34684002 1.1810001
-0.14280286 -0.33042705 1.189
-0.14490707 -0.32388735 1.187
-0.13977134 -0.32613313 1.1810001
-0.054873195 -0.32613316 1.1810001
-0.14461686 -0.3153168 1.1844667
-0.053909566 -0.31386462 1.1842
-0.16156529 -0.30124107 1.189
-0.15461721 -0.30171719 1.1872224
-0.14515272 -0.30472571 1.1854444
-0.061085258 -0.30646163 1.1810001
-0.055733908 -0.30822477 1.1862001
-0.17407356 -0.2908175 1.189
-0.16411234 -0.29343837 1.1878002
-0.15540881 -0.29568759 1.1818001
-0.14545916 -0.29713389 1.1823335
-0.17303121 -0.28456333 1.189
-0.16548827 -0.28530198 1.1838889
-0.15840752 -0.2888608 1.1810001
-0.1731858 -0.27452728 1.1876667
-0.16714072 -0.27505881 1.181923
-0.17258449 -0.2666944 1.189
-0.16826127 -0.26603737 1.1823335
-0.17198884 -0.25954682 1.189
-0.16910392 -0.25624949 1.1834
-0.17515011 -0.24366565 1.1878002
-0.16904676 -0.24268237 1.1830001
-0.17369321 -0.23552535 1.1855
-0.16876096 -0.23450527 1.1810001
-0.17309755 -0.22584735 1.1823335
-0.17290233 -0.21845745 1.1810001
-0.1150307 -0.10466603 1.1821198
-0.10456967 -0.10409908 1.1809999
-0.097943477 -0.10332726 1.1810001
-0.013459464 -0.10249899 1.1810001
-0.11281911 -0.097859666 1.1850001
-0.10461877 -0.095944934 1.1867777
-0.095227458 -0.094671063 1.1884667
-0.016550433 -0.093355037 1.1868182
-0.090685032 -0.088600315 1.189
-0.088600315 -0.088600315 1.189
-0.044519763 -0.081792124 1.1810001
-0.038307704 -0.081792124 1.1810001
-0.02174221 -0.081792124 1.1810001
-0.01753003 -0.084939629 1.1871539
-0.083267264 -0.073592372 1.1823335
-0.051940262 -0.074511126 1.1823334
-0.045736793 -0.077308521 1.18575
-0.034667015 -0.075427398 1.18475
-0.024509437 -0.074491829 1.1812667
-0.018723147 -0.075937048 1.1866001
-0.082069151 -0.069602951 1.1850001
-0.075247049 -0.064726688 1.1827143
-0.064967796 -0.06341479 1.181
-0.054817822 -0.065200187 1.1836666
-0.048990764 -0.068795539 1.189
-0.030923247 -0.06914299 1.189
-0.024299119 -0.066132553 1.18575
-0.019098768 -0.06736657 1.1883334
-0.072453864 -0.058586169 1.1863333
-0.065163031 -0.056493089 1.186111
-0.057033692 -0.057726257 1.1876668
-0.11752944 -0.3809213 1.197
-0.13117126 -0.37882257 1.197
-0.12343106 -0.37308764 1.1965556
-0.11533339 -0.37718162 1.1938001
-0.13117126 -0.36308202 1.197
-0.12651211 -0.36507607 1.1946001
-0.1343025 -0.35525402 1.1945
-0.12864119 -0.35768527 1.1930001
-0.13596223 -0.3482725 1.1930001
-0.15215865 -0.32110721 1.197
-0.14903551 -0.32421765 1.1930001
-0.15465437 -0.31367502 1.1960002
-0.14955845 -0.31480485 1.1930001
-0.048801754 -0.31354809 1.1946001
-0.17419542 -0.30116919 1.197
-0.16424926 -0.304113 1.1944286
-0.15478776 -0.30748382 1.193
-0.14955845 -0.30852968 1.1930001
-0.051247302 -0.30852968 1.1930001
-0.17515418 -0.29525754 1.194778
-0.16708362 -0.29684314 1.1936666
-0.17794707 -0.284547 1.1947778
-0.17744815 -0.27436483 1.193
-0.1762412 -0.26435971 1.1938
-0.17380852 -0.25652406 1.1943333
-0.10354047 -0.090990104 1.1930001
-0.097788222 -0.091513038 1.1930001
-0.012201739 -0.093430459 1.193
-0.00873423 -0.093636177 1.1956668
-0.10381126 -0.087031469 1.1961112
-0.095019959 -0.085817389 1.1954447
-0.088299334 -0.083061829 1.1943334
-0.012584025 -0.084941454 1.1962
-0.0094443299 -0.086048335 1.197
-0.086906016 -0.076435685 1.1943334
-0.043384679 -0.072683431 1.1936153
-0.037324082 -0.071506485 1.1936668
-0.014997136 -0.074997365 1.1936666
-0.081850857 -0.067159683 1.197
-0.045618523 -0.065322831 1.1954001
-0.033998512 -0.065596461 1.1958573
-0.027739048 -0.063326456 1.194
-0.017205585 -0.064486973 1.1947143
-0.070307791 -0.053517871 1.197
-0.065516636 -0.051700015 1.1938
-0.054664668 -0.054247726 1.1946002
-0.048271019 -0.059814088 1.197
-0.023684902 -0.058894642 1.1954
-0.019938029 -0.058764718 1.197
-0.06419801 -0.047651418 1.1961111
-0.057977695 -0.047483996 1.197
-0.13427202 -0.38167086 1.2060001
-0.12585163 -0.38265625 1.2029999
-0.13125128 -0.37472314 1.2060002
-0.12518567 -0.37801456 1.2033334
-0.13553326 -0.36482054 1.2046667
-0.13804169 -0.35616863 1.202
-0.15541722 -0.33092237 1.2060001
-0.15542555 -0.32456741 1.204
-0.17021886 -0.3118917 1.2060001
-0.16468398 -0.31450012 1.2047694
-0.15700924 -0.31858477 1.202
-0.18039168 -0.30276501 1.2033334
-0.17395423 -0.30580413 1.2042223
-0.16860053 -0.30769598 1.202
-0.17808431 -0.26027706 1.202
-0.18124557 -0.25816956 1.202
-0.17808431 -0.25816956 1.202
-0.10286582 -0.082381882 1.2025715
-0.096418425 -0.081665881 1.202
-0.0060842014 -0.084627062 1.2032306
-0.10255422 -0.079294503 1.2060001
-0.094262511 -0.077591427 1.2051113
-0.087930925 -0.074053533 1.2042857
-0.012762124 -0.074348144 1.202
-0.0087145045 -0.074738026 1.205
-0.085638061 -0.068721898 1.2060001
-0.079163 -0.063328646 1.204
-0.042601738 -0.061870374 1.202
-0.036051337 -0.061559182 1.2024
-0.02845134 -0.06006394 1.202
-0.014973816 -0.063897431 1.2028
-0.051633913 -0.051633913 1.202
-0.046062913 -0.055567734 1.2045
-0.034889579 -0.058149301 1.2060001
-0.02501208 -0.056013353 1.2055557
-0.01691616 -0.058149301 1.2060001
-0.063279554 -0.042712077 1.2029999
-0.054268681 -0.044771366 1.2037144
-0.049691219 -0.049691219 1.2060001
-0.06132108 -0.039118621 1.2060001
-0.058149301 -0.039118621 1.2060001
-0.13471736 -0.38081524 1.21
-0.13429306 -0.37529922 1.21
-0.14213133 -0.36013728 1.2190001
-0.13896044 -0.36702526 1.21
-0.16472067 -0.33200219 1.2184999
-0.15650472 -0.33325475 1.2145001
-0.17374633 -0.32400635 1.2177501
-0.16481246 -0.32472831 1.2128669
-0.15805423 -0.32777688 1.21
-0.046922266 -0.32100594 1.2165
-0.18274581 -0.31657073 1.217
-0.17505895 -0.31558135 1.2131332
-0.16760114 -0.31929076 1.21
-0.045711156 -0.31786823 1.2126667
-0.18139111 -0.3086831 1.21
-0.17714804 -0.3086831 1.21
-0.10496869 -0.074731633 1.2133157
-0.095298924 -0.073084459 1.2109231
-0.0044905567 -0.075226225 1.2112308
0.0010642733 -0.071306311 1.2140001
-0.1036597 -0.069462679 1.2190001
-0.09422949 -0.068149626 1.2167777
-0.085412368 -0.065798208 1.2127779
-0.078628227 -0.060563639 1.2120001
-0.012744541 -0.063721836 1.2115
-0.0057025636 -0.065267563 1.217087
0.0010686567 -0.06839402 1.2190001
-0.04296105 -0.052507952 1.21
-0.035034232 -0.053079538 1.2110001
-0.024643101 -0.052467331 1.2104445
-0.015612776 -0.054660525 1.2145834
-0.0080149248 -0.058241792 1.2190001
-0.06704922 -0.041506659 1.2140001
-0.051977567 -0.0413699 1.21
-0.045483515 -0.045484096 1.2113332
-0.036709946 -0.045577899 1.2178462
-0.023496363 -0.04720049 1.2145998
-0.017098505 -0.047020894 1.2190001
-0.07370273 -0.033114228 1.2184443
-0.065172888 -0.034734719 1.213522
-0.054392066 -0.035322729 1.2144545
-0.045468234 -0.037568059 1.2175
-0.072668657 -0.028853729 1.2190001
-0.066256709 -0.028853729 1.2190001
-0.058776118 -0.028853729 1.2190001
-0.14521545 -0.37110615 1.2270001
-0.14528254 -0.36491528 1.2259092
-0.14433227 -0.35753083 1.2247143
-0.18178825 -0.33238205 1.2270001
-0.17498761 -0.33439416 1.2255
-0.16645707 -0.33721158 1.2250001
-0.15975234 -0.33773145 1.223
-0.18454358 -0.32448053 1.2238569
-0.17762172 -0.32665241 1.223
-0.046103023 -0.32486549 1.223
-0.18441209 -0.31628817 1.223
0.020371104 -0.13830908 1.223
-0.10327221 -0.065828525 1.2252858
-0.095447198 -0.063987024 1.2252858
-0.086314723 -0.062089413 1.2241429
-0.0010721633 -0.065401964 1.223
-0.10003731 -0.059161849 1.2270001
-0.094812624 -0.058239844 1.2270001
-0.084709674 -0.058184266 1.2265557
-0.075842716 -0.055859096 1.2254002
-0.01287239 -0.052563474 1.2236668
-0.0075105974 -0.054002956 1.2238889
-0.032638926 -0.043671902 1.2235715
-0.026109569 -0.043274306 1.2238889
-0.015495835 -0.044963855 1.2252858
-0.051463842 -0.031092737 1.223
-0.044429287 -0.033053841 1.2242
-0.036617216 -0.037609067 1.2257693
-0.023583675 -0.037057459 1.2264668
-0.017364388 -0.037033785 1.2270001
-0.072907105 -0.026804084 1.223
-0.06499441 -0.026355231 1.2243334
-0.054803412 -0.027509451 1.2258002
-0.046253804 -0.027967421 1.2270001
-0.14796731 -0.3704583 1.2320001
-0.15061484 -0.36515972 1.2360001
-0.18095452 -0.34348851 1.2360001
-0.17629565 -0.34285527 1.2337143
-0.16719225 -0.34368843 1.2336
-0.1803689 -0.33805668 1.2320001
0.016765373 -0.13901302 1.2340001
-0.10152501 -0.061563041 1.2320001
-0.092884585 -0.05508272 1.2320001
-0.085492536 -0.053213224 1.2325002
-0.076366432 -0.05151001 1.2326669
-0.0064803199 -0.050762508 1.2320001
-0.084517673 -0.048760198 1.2360001
-0.076499335 -0.047893353 1.2360001
-0.012988694 -0.043293308 1.2346668
-0.0072143823 -0.047985226 1.2346667
-0.07236357 -0.037801865 1.2320001
-0.034408875 -0.033327069 1.2330002
-0.02657878 -0.033275817 1.2324002
-0.015503558 -0.033899531 1.2340001
-0.063756458 -0.022692224 1.2326669
-0.054813959 -0.022541104 1.2328573
-0.044462197 -0.023997756 1.2330669
-0.038943283 -0.029208779 1.2340001
-0.022475541 -0.027348055 1.2355001
-0.017678276 -0.028502187 1.2346667
-0.053594545 -0.015753293 1.2360001
-0.047786348 -0.015618192 1.2348573
-0.17381026 -0.35380483 1.2443334
-0.1680833 -0.35035545 1.245
-0.18008925 -0.34817255 1.245
-0.17451575 -0.34793654 1.2426001
0.0174632 -0.1375227 1.245
0.021465182 -0.13352071 1.245
0.022898408 -0.12571238 1.2438571
0.025103349 -0.11896805 1.245
-0.082083531 -0.044196449 1.2418001
-0.075098209 -0.043469407 1.2414705
-0.0054460289 -0.043572437 1.2426001
-0.0774123 -0.03815984 1.2436666
-0.011967377 -0.031550355 1.2410001
-0.0098020099 -0.035938367 1.2423334
-0.064188659 -0.020670922 1.2410001
-0.040253904 -0.020670922 1.2410001
-0.034409542 -0.024911862 1.2432855
-0.026039084 -0.024128169 1.2440001
-0.01516195 -0.02408243 1.2435454
-0.060757384 -0.014916484 1.245
-0.058170516 -0.014595273 1.2426001
-0.04215702 -0.015400654 1.2421428
-0.038200751 -0.0174632 1.245
-0.020737549 -0.01855465 1.245
-0.017099382 -0.017827017 1.245
-0.053686187 -0.0081182253 1.2441111
-0.047608551 -0.0083572632 1.2436666
-0.17292249 -0.3557075 1.25
-0.16875833 -0.35614583 1.25
0.012054167 -0.1413625 1.25
0.015644319 -0.135252 1.2543076
0.018355645 -0.12519003 1.2563334
0.020820834 -0.124925 1.25
0.023098152 -0.11659044 1.2546999
-0.0024141646 -0.041989353 1.2538
0.0011037233 -0.044148933 1.2590001
-0.0047221906 -0.035029493 1.255706
0.0011037233 -0.036422871 1.2590001
-0.032875001 -0.020820834 1.25
-0.0295875 -0.020820834 1.25
-0.012070239 -0.023040259 1.2516667
-0.0073060598 -0.027341085 1.2566364
-0.063644536 -0.014263366 1.2516667
-0.040545832 -0.01315 1.25
-0.035054248 -0.015597653 1.2561667
-0.025276883 -0.015379414 1.253389
-0.015175831 -0.014996844 1.2516667
-0.0099335099 -0.018763296 1.2590001
-0.0624942 -0.0055074892 1.2573847
-0.055531252 -0.003289094 1.2509091
-0.044535849 -0.0048468839 1.2535883
-0.038630318 -0.0099335099 1.2590001
-0.023155982 -0.0099229896 1.2576667
-0.017079659 -0.0093658678 1.2570001
-0.062912226 0.0026804709 1.2589999
-0.055401325 0.0039378619 1.2567145
-0.047125876 0.0024811858 1.2575001
0.0073205172 -0.14179558 1.2656001
0.0077812932 -0.13895166 1.268
0.012220149 -0.1348062 1.2673334
0.015906824 -0.12504365 1.2660002
0.018877557 -0.11659432 1.2666668
0.022994716 -0.11148494 1.2662858
0.0011081067 -0.040999945 1.2640001
0.0022214735 -0.0388451 1.266
-0.0044362256 -0.024409613 1.2656666
0.0019973975 -0.028179575 1.2656
-0.067808412 -0.011116133 1.268
-0.033243202 -0.012189173 1.2640001
-0.029918879 -0.012189173 1.2640001
-0.011473813 -0.012214888 1.2666668
-0.0077651627 -0.017085882 1.2656
-0.066793583 -0.0042164163 1.2656
-0.040999945 -0.0022162134 1.2640001
-0.035604265 -0.0069137984 1.2661538
-0.024521161 -0.0067589404 1.2661818
-0.016651656 -0.0055485484 1.2662858
-0.065378301 0.00649034 1.2640001
-0.054666594 0.0092342226 1.2640001
-0.045512527 0.0052329483 1.2662858
-0.063806608 0.012227747 1.268
-0.054623932 0.013518199 1.2673331
0.0033523731 -0.14191422 1.2746667
0.0064833006 -0.13703336 1.275
0.011169829 -0.132934 1.27425
0.012294122 -0.12568219 1.2751428
0.017673951 -0.11521679 1.276
0.019046459 -0.1064361 1.2780001
0.023449814 -0.10497089 1.2738332
0.02352798 -0.099713825 1.2780001
-0.0022319932 -0.021203937 1.273
0.0040919879 -0.02318793 1.2729999
-0.010063695 -0.011179691 1.2755001
-0.00448152 -0.016805699 1.2780001
0.0033611401 -0.019046459 1.2780001
-0.070307791 -0.0022319932 1.273
-0.068075798 -0.0078119766 1.273
-0.033150271 -0.0031024257 1.2746665
-0.025713636 -0.0023945521 1.2751428
-0.015421793 -0.0029086047 1.275
-0.070307791 0.0011159966 1.273
-0.043006416 0.0061434605 1.27425
-0.038415242 0.0018658388 1.2763335
-0.02128722 0.00112038 1.2780001
-0.017253852 0.002016684 1.2780001
-0.062204178 0.016764788 1.2746667
-0.053961754 0.017740227 1.2735554
-0.046371672 0.012559029 1.2763333
-0.05489862 0.02128722 1.2780001
0.0047895587 -0.13473631 1.2861251
0.01012287 -0.13159731 1.2830001
0.006988436 -0.12784536 1.286
0.011940025 -0.12233865 1.2850001
0.01577737 -0.11494721 1.2855
0.018405469 -0.10555812 1.2855
0.022582933 -0.098235756 1.2880001
-0.0041255932 -0.01464384 1.2846668
0.0022495266 -0.01687145 1.2830001
-0.070860088 -0.0056238165 1.2830001
-0.032618135 -0.0011247633 1.2830001
-0.011110747 -0.0040232735 1.2858572
-0.0079040267 -0.0079040267 1.2880001
-0.041616242 0.0078733433 1.2830001
-0.034637276 0.0045851422 1.2856668
-0.024719639 0.004251631 1.286077
-0.015638759 0.0053792265 1.2846668
-0.066116884 0.016527941 1.2855
-0.044152729 0.015886271 1.2841111
-0.038390987 0.01016232 1.2880001
-0.021453787 0.01016232 1.2880001
-0.0169372 0.01016232 1.2880001
-0.06277547 0.02217879 1.2863334
-0.055875052 0.023884432 1.2850001
-0.04742416 0.021453787 1.2880001
0.0020396528 -0.1321682 1.293
0.0056632669 -0.12572452 1.2920001
0.01019388 -0.12119391 1.2920001
0.01324132 -0.11537153 1.2945
0.015871393 -0.10543867 1.2932501
0.019329622 -0.09778516 1.2970001
0.02378572 -0.096275531 1.2920001
-0.071633309 -0.01023333 1.2970001
-0.0034028301 -0.012477693 1.2942222
0.001134845 -0.013615948 1.2945001
-0.073057301 -0.0041589066 1.2953334
-0.0068068784 -0.0037835473 1.2945
-0.031714294 0.0079285735 1.2920001
-0.02718368 0.0079285735 1.2920001
-0.010962132 0.0052944818 1.2936667
-0.0079439152 0.0045437636 1.2945001
-0.071633309 0.013265428 1.2970001
-0.069270112 0.017033633 1.2953334
-0.041989267 0.01815971 1.2945001
-0.036569186 0.013176037 1.2955
-0.023387888 0.012035055 1.2950001
-0.015127613 0.012104283 1.2945
-0.064915322 0.025420967 1.2945
-0.054264437 0.027474206 1.2950001
-0.048892576 0.02387777 1.2970001
0.01201888 -0.11389676 1.30575
0.01486476 -0.10407086 1.3045001
0.018138483 -0.094617128 1.3048573
0.02227851 -0.093112297 1.3032501
0.019478656 -0.088226855 1.307
-0.07387495 -0.013860879 1.3053335
-0.069254257 -0.017745705 1.30575
0.004948589 -0.012560003 1.3025556
-0.076624177 -0.0057202503 1.3045001
-0.0026642876 -0.0046944525 1.3031112
0.0038189793 -0.005344525 1.3065834
0.018562015 -0.0029790888 1.307
0.025207674 -0.0034374101 1.307
0.03408765 -0.0045832135 1.307
-0.076239586 0.0048368401 1.3039231
-0.0041939733 0.0026706189 1.3053335
-0.076179333 0.015156534 1.3061175
-0.033842031 0.016792346 1.3035386
-0.025771709 0.015923772 1.3043078
-0.015611825 0.014849418 1.3028334
-0.0080052819 0.011438308 1.3045001
-0.073583342 0.024337912 1.3063751
-0.069055915 0.02682337 1.302
-0.0513639 0.0285355 1.302
-0.045531083 0.024940815 1.3050001
-0.03781151 0.021770263 1.307
-0.072185613 0.033228297 1.307
-0.064979821 0.034148198 1.3051578
-0.054905694 0.034320679 1.3048126
-0.04881122 0.033686616 1.307
-0.054998562 0.040866986 1.307
-0.049269542 0.040103115 1.307
0.0080513069 -0.1127183 1.312
0.01035168 -0.1127183 1.312
0.0080666486 -0.10832137 1.3145001
0.011747684 -0.10390464 1.3140001
0.013831168 -0.094530962 1.3150002
0.017860768 -0.087003462 1.3145001
0.021853546 -0.088564374 1.312
-0.091211028 -0.042719088 1.317
-0.08813218 -0.041179661 1.317
-0.085753053 -0.034742057 1.3170002
-0.083513893 -0.025785396 1.317
-0.076151967 -0.023778306 1.3142729
-0.084221363 -0.014999766 1.3160001
-0.077752605 -0.016332649 1.3120002
-0.084017098 -0.0049283807 1.3160911
-0.079362877 -0.0023003733 1.312
0.0069011203 -0.0023003733 1.312
0.012861178 -0.0042870599 1.3120002
0.035684716 -0.0025312875 1.313
0.042118769 -0.0042222212 1.3142223
-0.082875185 0.0047757044 1.3155714
-0.0026874216 0.006531605 1.3145001
0.004227092 0.0026896135 1.3142225
0.015857803 0.0020194016 1.3157501
0.025785219 0.0029948687 1.3130002
0.034278378 0.0032498033 1.315182
-0.084179871 0.014990415 1.3153335
-0.028754666 0.019553173 1.312
-0.01498048 0.017282609 1.3140001
-0.00577285 0.01039113 1.317
0.054998707 0.012307377 1.3161668
-0.083203807 0.024222177 1.3155714
-0.078000754 0.026193045 1.3132502
-0.041991081 0.026844284 1.3148572
-0.034706939 0.023951409 1.3147779
-0.025867803 0.022902668 1.3155715
-0.075868189 0.034763772 1.3145002
-0.045610964 0.034084048 1.3148572
-0.072039954 0.042367298 1.3162857
-0.064202003 0.042950932 1.313154
-0.055663951 0.045172777 1.3136668
-0.048399888 0.042640191 1.3145001
0.0049109515 -0.10429204 1.3252308
0.0075673866 -0.096629709 1.3280001
0.010430579 -0.093875222 1.322
0.014883887 -0.085410289 1.3247272
0.019015484 -0.077226155 1.3280001
-0.10245078 -0.052389596 1.3280001
-0.098181993 -0.053165745 1.3280001
-0.10314929 -0.043774419 1.3280001
-0.095217146 -0.045321167 1.3220003
-0.089239404 -0.046358131 1.322
-0.10361499 -0.0349264 1.3280001
-0.095089391 -0.034786355 1.3227503
-0.089239404 -0.032450691 1.322
-0.10428025 -0.025612695 1.3279999
-0.095254429 -0.025552861 1.325
-0.088246025 -0.02500028 1.3219999
-0.10195183 -0.016132671 1.3280001
-0.095361605 -0.015117678 1.3265002
-0.089239404 -0.015066393 1.322
0.045271069 -0.010446359 1.324
0.050061174 -0.01047792 1.3280001
-0.10128656 -0.0069852797 1.3280001
-0.095255092 -0.0046463329 1.3250002
-0.088775828 -0.0039404416 1.322
0.047001999 -0.0045070406 1.322
0.054517895 -0.0041564018 1.327143
0.061703306 -0.0023284266 1.3280001
-0.10128656 0.0034926399 1.3280001
-0.095308349 0.004650278 1.3257501
-0.087694138 0.0045070406 1.322
0.0051437789 0.0071350648 1.3245715
0.014524173 0.0063939677 1.3255001
0.024779567 0.0073584481 1.325
0.03546397 0.0076490915 1.322
0.045209952 0.0046376535 1.3223003
0.055708319 0.0046387715 1.3238752
0.06422732 0.0029693672 1.3266667
-0.10361499 0.01047792 1.3280001
-0.095444709 0.015132408 1.3276999
-0.089239404 0.015066395 1.322
-0.012305945 0.018810812 1.3244001
-0.0043316898 0.014056314 1.3258183
0.0034917633 0.011634243 1.327
0.015134772 0.01047792 1.3280001
0.026776904 0.012418277 1.3280001
0.035166413 0.014870799 1.3273335
0.044794247 0.013878 1.3245264
0.053311855 0.01043058 1.322
-0.094197392 0.02558508 1.3265001
-0.087436594 0.026398383 1.322
-0.033995964 0.028201198 1.322
-0.025173193 0.027500451 1.3253332
-0.01767027 0.024883132 1.3262001
0.029039584 0.023229036 1.325
0.032597974 0.022120053 1.3280001
-0.092970744 0.034427453 1.3280001
-0.085886471 0.034821525 1.3238751
-0.079967782 0.037086505 1.322
-0.04249344 0.034599926 1.3244001
-0.035590209 0.031871043 1.3268001
-0.026776906 0.031433761 1.3280001
-0.09197285 0.045404319 1.3280001
-0.086058423 0.044190142 1.3264999
-0.076201186 0.045778651 1.3220003
-0.065398082 0.048841603 1.3219999
-0.05562976 0.049255516 1.322
-0.047585469 0.044487908 1.324
-0.084987566 0.052389603 1.3279998
-0.074897729 0.053165738 1.3280001
-0.066360153 0.053553808 1.3280001
-0.055882238 0.051807493 1.3280001
0.003703478 -0.095552273 1.3346667
0.0074149929 -0.087415218 1.3355001
0.01186418 -0.083058022 1.3344287
0.01503861 -0.074851014 1.3356923
0.017594701 -0.069205821 1.3380001
-0.11201958 -0.052197609 1.3380001
-0.1066782 -0.055725113 1.334923
-0.1129508 -0.044165201 1.3374447
-0.10790042 -0.045185734 1.3330001
-0.11367496 -0.03515543 1.3367501
-0.10867949 -0.035057902 1.3330001
-0.11346236 -0.025733603 1.3342501
-0.10867949 -0.025709126 1.3330001
-0.11315713 -0.015829021 1.3375835
-0.10673322 -0.014656788 1.3333848
0.055614639 -0.012002224 1.3355001
0.062167939 -0.01055682 1.3380001
-0.11190228 -0.0053957081 1.3380001
-0.10590496 -0.0043505207 1.3358573
0.057845533 -0.0075958786 1.3330001
0.065849379 -0.0041519729 1.3348184
0.072063461 -0.0027267255 1.3330001
-0.11260608 0.0035189402 1.3380002
-0.1055959 0.0047607673 1.3353333
-0.11221508 0.014857747 1.3380002
-0.10534156 0.015453693 1.3343159
-0.0038960529 0.019099498 1.3338333
0.0049974783 0.015847901 1.3343638
0.015604421 0.015997851 1.3349444
0.025208304 0.016360354 1.3330001
0.032720707 0.017528949 1.3330001
-0.1114331 0.024632581 1.3380001
-0.10523074 0.025547592 1.3366667
-0.099330716 0.025709128 1.3330001
-0.012869661 0.026133239 1.3346667
-0.006641773 0.023836711 1.3371668
0.018730421 0.022244979 1.3355
0.024230441 0.023900315 1.3344287
-0.10342014 0.034278981 1.3367501
-0.097813986 0.035463504 1.3335557
-0.041731089 0.037832841 1.3346667
-0.034797769 0.036503918 1.3352729
-0.025460552 0.034836423 1.3366365
-0.017919192 0.033329237 1.3372859
-0.10305468 0.045075949 1.3380002
-0.096158013 0.044373192 1.3343333
-0.045658551 0.044487763 1.3355001
-0.034016419 0.041054301 1.3380001
-0.10204926 0.0527841 1.3379999
-0.095794067 0.054767076 1.3351053
-0.085372426 0.058474541 1.3340001
-0.074790195 0.058429837 1.3330001
-0.06523966 0.057050727 1.3348751
-0.055986036 0.054112781 1.3360001
-0.048092179 0.05043814 1.3380001
-0.082108602 0.062167939 1.3380001
-0.074416287 0.063576087 1.3367501
-0.068337627 0.062872492 1.3363333
0.0023547267 -0.090656973 1.3430001
0.0037353307 -0.084433965 1.3470001
0.0074776742 -0.076360583 1.3470001
0.010596271 -0.07417389 1.3430001
-0.12181021 -0.061496414 1.3490001
-0.1155322 -0.062894434 1.3457694
-0.10949479 -0.062400255 1.3430001
0.0082783634 -0.069774777 1.3490001
0.014502539 -0.06692306 1.3479091
0.020104596 -0.062679037 1.3490001
-0.12316178 -0.053218048 1.3490001
-0.11645129 -0.054789484 1.3440002
-0.12413029 -0.044924345 1.3485001
-0.11790454 -0.045244392 1.3430002
-0.12482977 -0.035158016 1.3458004
-0.1189137 -0.0353209 1.3430001
-0.12454014 -0.025073128 1.3468827
-0.1189137 -0.024724629 1.3430001
0.057948545 -0.020104596 1.3490001
0.06315209 -0.021050695 1.3490001
-0.12417544 -0.014191481 1.3490001
-0.11790453 -0.013623775 1.3430002
0.056905895 -0.016875541 1.3430001
0.06459672 -0.014085638 1.3462002
0.07489948 -0.011432026 1.3490001
-0.12408514 -0.0047287396 1.3480002
-0.11677304 -0.0043883543 1.3430003
0.067109711 -0.0082415435 1.3430001
0.073901772 -0.0073217442 1.3466001
-0.12399483 0.0047234795 1.3470001
-0.11679444 0.0054158708 1.3430002
-0.12497706 0.014411175 1.3474002
-0.11655898 0.014235392 1.3430003
-0.1252221 0.024808526 1.3475003
-0.11577407 0.024986265 1.3430003
-0.10949479 0.029434083 1.3430001
-0.01059627 0.029434083 1.3430001
-0.0038330057 0.026551167 1.3460001
0.0049908631 0.023328166 1.3457694
0.01352191 0.02423545 1.3457694
0.020015176 0.025901994 1.3430001
-0.12338703 0.035084493 1.3490001
-0.11544802 0.035341945 1.3437502
-0.10802309 0.036203921 1.3430002
-0.024724629 0.03885299 1.3430001
-0.013369751 0.03618734 1.3460002
-0.0074899476 0.032719243 1.3490001
-0.12181021 0.041391816 1.3490001
-0.11518262 0.044274565 1.3480771
-0.10792498 0.044347353 1.3430002
-0.042874843 0.044844132 1.3460001
-0.035373501 0.044220384 1.3450001
-0.025249226 0.043814458 1.3458004
-0.015024939 0.043054976 1.3481429
-0.11294053 0.052626736 1.3490001
-0.10696513 0.054524686 1.3453078
-0.054490965 0.055908013 1.3454001
-0.048487555 0.053218048 1.3490001
-0.10462733 0.061305404 1.3476667
-0.093862556 0.06353341 1.3455715
-0.085069299 0.065148696 1.3456669
-0.076108254 0.068147898 1.3460001
-0.064915791 0.062894449 1.3464288
-0.057948545 0.060313791 1.3490001
-0.12033039 -0.070292011 1.3590001
-0.11794761 -0.070292011 1.3590001
0.0059350333 -0.073594414 1.3540001
-0.12505485 -0.06431061 1.3556668
-0.11870067 -0.067659378 1.3540001
0.0083090467 -0.065285362 1.3540001
0.013358756 -0.062049046 1.3546251
-0.12700972 -0.055111021 1.3540001
0.015463414 -0.056513768 1.3571252
-0.13175774 -0.041545235 1.3540001
-0.12938373 -0.045106255 1.3540001
-0.13175774 -0.035610199 1.3540001
-0.12938373 -0.039171219 1.3540001
-0.13185504 -0.024943797 1.3550001
-0.12938373 -0.023344465 1.3540001
0.067659378 -0.021366119 1.3540001
0.076289281 -0.022344869 1.3573335
0.08411213 -0.021206742 1.3590001
-0.13224429 -0.015488069 1.3590001
-0.12938373 -0.01424408 1.3540001
0.067659378 -0.017805099 1.3540001
0.075239748 -0.015868701 1.3544546
0.082650378 -0.016057465 1.3565001
-0.13224429 -0.0035741699 1.3590001
-0.12938373 -0.0047480268 1.3540001
-0.1327142 0.0055481307 1.3556668
-0.12938373 0.0047480268 1.3540001
-0.13319241 0.01427038 1.3565001
-0.12938373 0.01068306 1.3540001
-0.13314287 0.024964835 1.3560002
-0.0023740134 0.029675167 1.3540001
0.0049898112 0.028747479 1.3550001
0.01424408 0.029675167 1.3540001
-0.13319598 0.03589499 1.3582859
-0.12843455 0.036139581 1.3547144
