# .PCD v0.7 - Point Cloud Data file format
VERSION 0.7
FIELDS x y z
SIZE 4 4 4
TYPE F F F
COUNT 1 1 1
WIDTH 1454
HEIGHT 1
VIEWPOINT 0 0 0 1 0 0 0
POINTS 1454
DATA ascii
-0.088762499 -0.0010958334 1.25
-0.02429097 -0.0029222223 1.25
-0.01706369 -0.0029744047 1.25
-0.0053027384 -0.0053016418 1.2520837
0.0048892181 -0.0068395091 1.2549444
0.013174108 -0.0087820087 1.2525001
-0.11112189 0.0011002166 1.2550001
-0.10299256 0.004685564 1.2565001
-0.094951071 0.0052823783 1.2571054
-0.085416913 0.0056255697 1.2551054
-0.075811774 0.0073577282 1.2533078
-0.068010703 0.0087765297 1.25125
-0.032186817 0.0062214117 1.2516667
-0.025517365 0.0051279287 1.2561306
-0.015394179 0.0055034505 1.2540001
-0.006006123 0.0050087953 1.2562732
0.0011037233 0.00331117 1.2590001
-0.10264627 0.012140957 1.2590001
-0.097127654 0.012140957 1.2590001
-0.072845742 0.012140957 1.2590001
-0.06401968 0.014494151 1.2554166
-0.058311485 0.018703682 1.2550001
-0.033617273 0.015822519 1.2533001
-0.028328901 0.014348404 1.2589999
-0.01433876 0.012683175 1.2580001
-0.0099335099 0.012140957 1.2590001
-0.060704783 0.020970743 1.2590001
-0.054640822 0.024966151 1.2536429
-0.044945382 0.028503502 1.2505
-0.035563108 0.025024576 1.2565715
-0.052217603 0.03459169 1.2566
-0.045370173 0.03506298 1.2558949
-0.038630318 0.032007977 1.2590001
-0.11449618 -0.223249 1.2679999
-0.10501853 -0.22300558 1.2676666
-0.09522821 -0.22387889 1.2679999
-0.12215396 -0.21404731 1.268
-0.11559232 -0.21492669 1.2656469
-0.10590357 -0.21654654 1.2643636
-0.094632402 -0.21653466 1.2657143
-0.085849933 -0.21389121 1.2663332
-0.1411749 -0.20120201 1.268
-0.13422368 -0.20324337 1.266857
-0.12442726 -0.20441782 1.2672499
-0.11593299 -0.20504345 1.2642667
-0.14147122 -0.19443007 1.2673334
-0.13422163 -0.19465005 1.2662607
-0.12423265 -0.19522119 1.26525
-0.11745931 -0.19724298 1.2640001
-0.1411749 -0.18675104 1.268
-0.13378543 -0.18510158 1.2667366
-0.12538652 -0.18556525 1.2640001
-0.13228199 -0.17563489 1.2679999
-0.12648247 -0.17555574 1.2640001
-0.13293341 -0.16405214 1.2676923
-0.12660119 -0.16538492 1.2640001
-0.1411749 -0.15006781 1.268
-0.13561249 -0.15506913 1.2661177
-0.12826334 -0.15596601 1.2640001
-0.1626661 -0.14265704 1.268
-0.155026 -0.14481784 1.2661332
-0.14460605 -0.14416514 1.2656
-0.13518901 -0.14627008 1.2640001
-0.12964848 -0.1495944 1.2640001
-0.17096612 -0.13317128 1.268
-0.16407585 -0.135066 1.2652308
-0.15698177 -0.13703585 1.2640001
-0.17118844 -0.12450069 1.268
-0.1666909 -0.12553264 1.2640001
-0.16583416 -0.11478644 1.2657777
-0.16327004 -0.10470521 1.2651999
-0.16243371 -0.094971754 1.2656
-0.15845925 -0.093080953 1.2640001
-0.16216055 -0.08451663 1.2651999
-0.15845925 -0.085324213 1.2640001
-0.16141421 -0.077936836 1.2640001
-0.15845925 -0.077567473 1.2640001
-0.15006781 -0.043352921 1.268
-0.14737819 -0.042108051 1.2640001
-0.14594747 -0.037179433 1.266
0.0071235434 -0.0020579123 1.2640001
-0.10762241 0.0059921918 1.2656
-0.09197285 0.0099729598 1.2640001
-0.086432323 0.0099729598 1.2640001
-0.023270238 0.0099729598 1.2640001
-0.0018468444 0.0092342226 1.2640001
0.0055506146 0.00499437 1.2659999
0.011643009 0.0027711433 1.265
-0.1034667 0.013783203 1.2651428
-0.094179012 0.016205242 1.2658666
-0.08498054 0.015297249 1.2662221
-0.075403616 0.016208751 1.2661332
-0.067260787 0.017370272 1.2646667
-0.024220046 0.015988396 1.2640001
-0.015445247 0.016472971 1.2655385
-0.0057695187 0.013985639 1.266
0.0028901945 0.011783102 1.268
-0.093375519 0.021120653 1.268
-0.083371006 0.021120653 1.268
-0.072254866 0.021120653 1.268
-0.063305855 0.023323843 1.2668571
-0.057990912 0.027702667 1.2640001
-0.032689147 0.02825672 1.2640001
-0.026449548 0.024100911 1.2665882
-0.015562586 0.021120653 1.268
-0.055864122 0.03440566 1.266
-0.040999945 0.038783733 1.2640001
-0.034407798 0.035645261 1.2662221
-0.027790334 0.030013559 1.268
-0.052561428 0.043308508 1.2666668
-0.044994239 0.044135496 1.2655555
-0.036665704 0.042381577 1.2674285
-0.13556598 -0.23191866 1.2780001
-0.12615478 -0.23281495 1.2780001
-0.11571925 -0.23287901 1.278
-0.10414438 -0.23348582 1.277375
-0.09870974 -0.23206067 1.2746667
-0.13556598 -0.22855753 1.2780001
-0.1245668 -0.22565076 1.2751428
-0.11558537 -0.22814159 1.2729999
-0.10468049 -0.22833291 1.273
-0.093185723 -0.22710532 1.273
-0.085258856 -0.2232682 1.274111
-0.14116788 -0.21175182 1.2780001
-0.13509683 -0.21279557 1.2765714
-0.12701964 -0.21517335 1.2746665
-0.084210142 -0.21868309 1.2739999
-0.077788606 -0.21546385 1.2767501
-0.14483441 -0.20488448 1.2770909
-0.1354076 -0.20794737 1.2729999
-0.1512513 -0.19158497 1.2780001
-0.14643773 -0.1948743 1.2750832
-0.15224721 -0.18436477 1.278
-0.14604349 -0.18447356 1.2762353
-0.13949959 -0.18413945 1.273
-0.15237169 -0.17477928 1.278
-0.14485353 -0.17503698 1.2777368
-0.13606575 -0.17452472 1.2729999
-0.1624551 -0.16021433 1.2780001
-0.15423898 -0.16365017 1.278
-0.1458263 -0.16493171 1.278
-0.13790531 -0.16596463 1.2729999
-0.17253852 -0.1512513 1.2780001
-0.16512269 -0.15479568 1.2774444
-0.15499648 -0.15413237 1.2760557
-0.14533244 -0.15483101 1.2751875
-0.17446519 -0.14430541 1.2773334
-0.16648118 -0.14636958 1.2744999
-0.15512353 -0.14842756 1.273
-0.14619556 -0.14842756 1.273
-0.18038118 -0.13556598 1.2780001
-0.17525779 -0.13539691 1.2746665
-0.1673995 -0.13949959 1.273
-0.17555775 -0.12523709 1.2754999
-0.17237085 -0.11668345 1.27675
-0.16851549 -0.11159967 1.273
-0.17141815 -0.10531572 1.2780001
-0.16833386 -0.1043954 1.275
-0.17141815 -0.099713817 1.2780001
-0.16789122 -0.094818704 1.2757777
-0.17074749 -0.085931741 1.273
-0.16750979 -0.085989453 1.2738333
-0.15289155 -0.041291878 1.273
-0.15065955 -0.039059885 1.273
-0.14901054 -0.036972541 1.2780001
-0.11091762 0.0067222798 1.2780001
0.012275964 0.0078119766 1.273
-0.10825168 0.01004397 1.273
-0.01004397 0.018971942 1.273
-0.0033486157 0.017707163 1.2737142
0.0046972674 0.014985475 1.2754999
0.011197225 0.012317605 1.2771667
-0.093145132 0.023902493 1.2739999
-0.085335813 0.024224736 1.2752222
-0.075478077 0.023670875 1.2754999
-0.06602978 0.02574119 1.2765714
-0.022898752 0.027369313 1.27425
-0.014536448 0.02326051 1.2754999
-0.0049191518 0.023044761 1.2759999
0.0018672999 0.022781059 1.2780001
-0.062367816 0.030997179 1.2780001
-0.05843737 0.036050811 1.2770001
-0.03013191 0.036827888 1.273
-0.025982162 0.033444539 1.2763333
-0.053623725 0.045796409 1.27425
-0.033463847 0.045855336 1.2756922
-0.0280095 0.042574439 1.2780001
-0.050417099 0.050417099 1.2780001
-0.04416734 0.05171895 1.2754999
-0.03611308 0.051512826 1.277375
-0.13662674 -0.24201377 1.2880001
-0.1248778 -0.24185669 1.2871667
-0.1163021 -0.24126101 1.2880001
-0.14187635 -0.23398973 1.2858572
-0.13496558 -0.23474893 1.2836668
-0.12550567 -0.23720461 1.2834547
-0.11435094 -0.23682517 1.2830001
-0.10797729 -0.23732507 1.2830001
-0.14389193 -0.22436242 1.285143
-0.13489661 -0.22472769 1.2830002
-0.12934779 -0.22495267 1.2830001
-0.079858199 -0.22270313 1.2830001
-0.15130565 -0.21453786 1.2880001
-0.14498976 -0.21530445 1.2833128
-0.13434674 -0.21757923 1.2830001
-0.077608667 -0.21932884 1.2830001
-0.15228686 -0.20530853 1.2867501
-0.14903115 -0.20639408 1.2830001
-0.16146797 -0.19082579 1.2880001
-0.15472065 -0.19452508 1.2850834
-0.16272271 -0.18415567 1.2867501
-0.15754412 -0.18455268 1.283625
-0.17243682 -0.17211421 1.2880001
-0.16424997 -0.17506 1.2850001
-0.15746686 -0.17546308 1.2830001
-0.18179262 -0.16146797 1.2880001
-0.17420521 -0.16405256 1.2870001
-0.16517216 -0.1655269 1.2835267
-0.1563421 -0.16848955 1.2830001
-0.18358821 -0.15468083 1.2861819
-0.17583422 -0.15574351 1.2833574
-0.18403055 -0.14516538 1.2848753
-0.17808753 -0.14884368 1.2830001
-0.1838039 -0.13506061 1.2848182
-0.18271005 -0.1251867 1.2865001
-0.17883737 -0.12259921 1.2830001
-0.18179262 -0.11517295 1.2880001
-0.17685571 -0.11445855 1.2834547
-0.17628874 -0.10581319 1.2852727
-0.17267457 -0.09523125 1.2840002
-0.17208879 -0.088856302 1.2830001
-0.15409258 -0.04386577 1.2830001
-0.11389624 0.0056413501 1.2863334
-0.11135157 0.01012287 1.2830001
0.006769401 0.018049909 1.2867501
0.011291467 0.0169372 1.2880001
-0.095124342 0.027200714 1.2851429
-0.085482009 0.028119083 1.2830001
-0.074984223 0.027744165 1.2830001
-0.068610564 0.028119083 1.2830001
-0.014340732 0.02727551 1.2830001
-0.0037499415 0.027387505 1.2838334
0.0033830567 0.024961831 1.2858573
-0.09197402 0.031160824 1.2846668
-0.08446157 0.033421379 1.2867502
-0.074536391 0.033952858 1.2860558
-0.065685064 0.034778681 1.2855002
-0.059612457 0.039366715 1.2830001
-0.023213517 0.036515538 1.2855
-0.015325836 0.033506971 1.2865297
-0.0049629854 0.032269921 1.2870001
0.0011291467 0.03048696 1.2880001
-0.077911116 0.04403672 1.2880001
-0.05744037 0.044669673 1.2846667
-0.025410574 0.044691592 1.2852223
-0.051839929 0.052969076 1.2855
-0.045172878 0.057057932 1.2852727
-0.0344867 0.056590859 1.2845627
-0.027636699 0.052456006 1.2867501
-0.042531192 0.062855832 1.2880001
-0.037010919 0.063859507 1.2880001
-0.14212959 -0.25128511 1.2970001
-0.13606538 -0.25128511 1.2970001
-0.14352387 -0.24501246 1.2958889
-0.13441823 -0.24681306 1.295
-0.1252967 -0.24566479 1.2953334
-0.11756889 -0.24459262 1.2936667
-0.14730552 -0.23581906 1.2945
-0.16032217 -0.22399622 1.2970001
-0.15410267 -0.22433817 1.2952143
-0.14724493 -0.22879598 1.2920001
-0.16032217 -0.21603698 1.2970001
-0.15617746 -0.21563075 1.2951818
-0.16032217 -0.20239252 1.2970001
-0.15653464 -0.20530777 1.293875
-0.16414399 -0.19481549 1.29575
-0.15894902 -0.19594903 1.2920001
-0.17363952 -0.1835556 1.296091
-0.16772358 -0.18612403 1.2936666
-0.1838209 -0.17415611 1.2970001
-0.17571419 -0.17596492 1.2931111
-0.16876535 -0.17782657 1.2920001
-0.19291721 -0.1610802 1.2970001
-0.18540089 -0.16559803 1.2947779
-0.17726025 -0.16706637 1.2920001
-0.1938303 -0.1540647 1.296
-0.188398 -0.15555106 1.2919999
-0.19376332 -0.14629842 1.2958889
-0.18915311 -0.14271432 1.2920001
-0.19215919 -0.13758142 1.2970001
-0.18914157 -0.13428707 1.2945
-0.18838647 -0.12483294 1.2945
-0.1863928 -0.1150087 1.2942727
-0.18214372 -0.1055384 1.2945
-0.17782657 -0.10080615 1.2920001
-0.17703657 -0.095324792 1.2945
-0.15734957 -0.046097063 1.2950001
-0.15244605 -0.035175811 1.2945
-0.1478139 -0.031379115 1.2936667
-0.14781477 -0.028425917 1.2970001
-0.11796854 0.0045388322 1.293875
-0.11473002 0.011360504 1.29575
0.011326533 0.019255107 1.2920001
0.0071785846 0.02569174 1.2928333
0.011189773 0.024490561 1.2948571
-0.093376398 0.035915572 1.2936667
-0.085841782 0.038812552 1.292625
-0.075887769 0.039642867 1.2920001
-0.066826545 0.039642867 1.2920001
-0.013321825 0.038265407 1.29325
-0.0040793056 0.03786131 1.293
0.0036350109 0.033605438 1.295
-0.084129319 0.043663654 1.2951818
-0.074551411 0.044238832 1.2938181
-0.064734384 0.043613549 1.2955
-0.057877094 0.047665682 1.2945001
-0.022443192 0.046929542 1.293
-0.016591091 0.042492736 1.296
-0.00682222 0.042070355 1.2970001
-0.053906232 0.054472562 1.2945001
-0.02572242 0.054852303 1.2945
-0.05116665 0.061399981 1.2970001
-0.045349963 0.064624801 1.29325
-0.033244956 0.066493563 1.2928332
-0.028028639 0.064391896 1.2961668
-0.042070355 0.071633309 1.2970001
-0.036612578 0.072088122 1.2970001
-0.13506803 -0.25301477 1.302
-0.12783903 -0.25225383 1.302
-0.16322307 -0.24997097 1.302
-0.15441447 -0.24612688 1.3047274
-0.14854765 -0.24703591 1.302
-0.13582897 -0.24997097 1.302
-0.12532791 -0.24905784 1.302
-0.1198491 -0.24768814 1.302
-0.16413632 -0.23317099 1.307
-0.15553504 -0.23558564 1.3045
-0.16448632 -0.22457606 1.3034706
-0.15751596 -0.22942542 1.302
-0.16416214 -0.21514487 1.304
-0.16468371 -0.2054667 1.3045001
-0.17451599 -0.19372956 1.3045001
-0.16664732 -0.19746566 1.302
-0.19211303 -0.18294661 1.307
-0.18469365 -0.18431537 1.3045001
-0.17768104 -0.1868124 1.302
-0.2009739 -0.17347464 1.307
-0.19441792 -0.17497434 1.3044999
-0.18605146 -0.17863223 1.302
-0.20204331 -0.16575955 1.307
-0.19649695 -0.16473435 1.3024546
-0.20346193 -0.15370134 1.307
-0.19898756 -0.15599407 1.302
-0.20108847 -0.14437121 1.307
-0.19746566 -0.14398198 1.302
-0.1958558 -0.13484758 1.3047779
-0.19419956 -0.12625389 1.304143
-0.19212785 -0.11550259 1.3045001
-0.18690909 -0.10463417 1.3034286
-0.18336053 -0.09796793 1.3045001
-0.17889786 -0.091163985 1.3053334
-0.17007157 -0.081040822 1.302
-0.17113432 -0.077266112 1.30575
-0.1664425 -0.074514359 1.3026251
-0.1661415 -0.068366259 1.307
-0.16152215 -0.045921024 1.3030001
-0.15667589 -0.034879062 1.3045001
-0.1522461 -0.027471885 1.3057501
-0.14473645 -0.023739805 1.305125
-0.13864221 -0.01031223 1.307
-0.12443425 -0.002062446 1.307
-0.12424576 0.0041205087 1.3050001
-0.12202806 0.012030935 1.307
-0.11691876 0.013502946 1.3050001
-0.10274037 0.027881214 1.307
-0.1031223 0.03093669 1.307
-0.097591683 0.035652194 1.3035001
0.0057114838 0.037035283 1.3027143
0.010302368 0.034344513 1.30575
-0.093963988 0.044432174 1.3056364
-0.085337065 0.048382942 1.3036667
-0.075333714 0.049081061 1.302
-0.065568238 0.048066467 1.302
-0.014234962 0.046670578 1.3026665
-0.0042461352 0.046237715 1.3045
0.0040099467 0.043908942 1.3065834
-0.082497835 0.052706953 1.307
-0.075144172 0.053023133 1.3053335
-0.06524533 0.053800154 1.3056667
-0.057002492 0.056024134 1.304143
-0.022475688 0.05562216 1.3036667
-0.015798056 0.05335499 1.306
-0.0045832135 0.051561151 1.307
-0.053751938 0.062325742 1.3045001
-0.047328424 0.067905553 1.3040001
-0.023856232 0.065366775 1.3048571
-0.042978708 0.075991973 1.3048573
-0.034614746 0.076256402 1.3037857
-0.02682717 0.074638814 1.3053335
-0.033228297 0.081352033 1.307
-0.16907744 -0.25189087 1.312
-0.17408618 -0.24449587 1.3150769
-0.1659129 -0.24540727 1.3142501
-0.15889008 -0.245647 1.3120002
-0.18126749 -0.23668686 1.317
-0.17524807 -0.23519862 1.3151251
-0.16765125 -0.23670627 1.3128334
-0.17475913 -0.22576053 1.3143334
-0.17283851 -0.21613963 1.3153334
-0.16861737 -0.21370468 1.312
-0.17236212 -0.2046673 1.316
-0.16907744 -0.2070336 1.312
-0.20204975 -0.19050404 1.317
-0.19512233 -0.19050404 1.317
-0.18265307 -0.19417685 1.3145001
-0.17689116 -0.19878635 1.3145001
-0.20358935 -0.18399146 1.3150001
-0.1965096 -0.18577063 1.3125558
-0.1874804 -0.189014 1.312
-0.20627835 -0.17516193 1.3145001
-0.20760216 -0.16533613 1.3147779
-0.2071209 -0.15550664 1.3140001
-0.20570171 -0.14519967 1.3145001
-0.20345019 -0.13594621 1.315182
-0.1989823 -0.13227147 1.312
-0.20204975 -0.12584813 1.317
-0.19843337 -0.12445022 1.3127145
-0.19754843 -0.1154967 1.3155715
-0.19385105 -0.10621089 1.3153335
-0.1897808 -0.10121642 1.312
-0.19142771 -0.09629114 1.317
-0.18600588 -0.093575589 1.3142223
-0.18253866 -0.086220816 1.3157501
-0.17656523 -0.084254779 1.3125558
-0.17517614 -0.074517809 1.3139231
-0.1734615 -0.066537105 1.3161666
-0.16907744 -0.064410448 1.312
-0.16775863 -0.056433663 1.3136667
-0.16463339 -0.044322729 1.3132501
-0.16206257 -0.034600936 1.31575
-0.15987594 -0.034505598 1.312
-0.15488271 -0.02443086 1.3145001
-0.14837408 -0.021853546 1.312
-0.15298052 -0.019050404 1.317
-0.14509228 -0.014967327 1.3135002
-0.13616143 -0.012912034 1.3125558
-0.14474869 -0.0049393908 1.3148574
-0.13615777 -0.0045328345 1.314
-0.12997109 -0.0011501866 1.312
-0.14316668 0.0023091401 1.317
-0.1352464 0.003883156 1.3165456
-0.12905094 0.0048307842 1.312
-0.13046642 0.0115457 1.317
-0.12435487 0.014730435 1.3147779
-0.11483008 0.01805271 1.3142223
-0.10852958 0.01847312 1.317
-0.12122985 0.02193683 1.317
-0.11402899 0.024696842 1.3165001
-0.10730696 0.025891801 1.3126252
-0.11246428 0.032875657 1.31575
-0.10637937 0.035076804 1.3148572
-0.10292856 0.04293865 1.3158889
-0.096072845 0.048613273 1.314
0.0057509332 0.047732748 1.312
0.01035168 0.041406721 1.312
-0.093058333 0.052879304 1.317
-0.086426184 0.053588882 1.3145001
-0.075737104 0.057879616 1.3138751
-0.064410448 0.05865952 1.312
-0.014441232 0.056614742 1.3120002
-0.0042192992 0.055641063 1.3131112
0.0029931155 0.052719753 1.3130001
-0.074157961 0.063249186 1.3160911
-0.065044917 0.062412154 1.3148572
-0.055822123 0.065047421 1.3148572
-0.016363041 0.064312503 1.3146667
-0.00346371 0.062346779 1.317
-0.048007235 0.07540191 1.3142223
-0.023430234 0.076825954 1.3145
-0.01962769 0.073892474 1.317
-0.042330179 0.083798267 1.3138751
-0.034397017 0.085256584 1.3141429
-0.027393641 0.084493354 1.31575
-0.18473716 -0.24314842 1.322
-0.17963776 -0.24222125 1.322
-0.19209521 -0.23866373 1.3280001
-0.18562186 -0.23563129 1.3233336
-0.18392709 -0.2263459 1.32575
-0.17963775 -0.22367799 1.322
-0.18045306 -0.21654367 1.3280001
-0.17754981 -0.21501103 1.3237144
-0.18120436 -0.20328234 1.325
-0.17677258 -0.2059315 1.3228571
-0.21188682 -0.19209521 1.3280001
-0.20406993 -0.19432843 1.3226
-0.19514601 -0.19514863 1.325
-0.18701492 -0.19669741 1.325
-0.21351671 -0.1851099 1.3280001
-0.20899791 -0.18620516 1.322
-0.21263696 -0.1755224 1.3230001
-0.20977055 -0.17963776 1.322
-0.2128104 -0.16513288 1.3265001
-0.21305104 -0.15600458 1.3280001
-0.20977055 -0.15761766 1.322
-0.212666 -0.14525735 1.3256
-0.20977055 -0.14371021 1.322
-0.21227489 -0.13621296 1.3280001
-0.20783895 -0.13405226 1.322
-0.20632583 -0.12503313 1.3246667
-0.20323715 -0.11497116 1.3247273
-0.20188172 -0.10733264 1.3260001
-0.19755828 -0.10360944 1.3230001
-0.19572943 -0.095249832 1.325
-0.19258206 -0.088733278 1.3260001
-0.18738887 -0.084469371 1.3240001
-0.18261902 -0.075830504 1.324
-0.17963775 -0.073014058 1.322
-0.18045306 -0.068688586 1.3280001
-0.17578533 -0.063392468 1.3244001
-0.17169392 -0.054906387 1.3245715
-0.17113936 -0.046568535 1.3280001
-0.16785011 -0.044142798 1.325
-0.16520491 -0.035202254 1.324
-0.16185266 -0.025307264 1.3244001
-0.15877661 -0.022020113 1.322
-0.16182566 -0.019791627 1.3280001
-0.15600328 -0.014074666 1.3242502
-0.16182566 -0.0034926396 1.3280001
-0.15552229 -0.0054547545 1.326154
-0.14950497 -0.0023179066 1.322
-0.13154121 -0.0057947668 1.322
-0.12864383 -0.0057947668 1.322
-0.15095966 0.0034926396 1.3280001
-0.1455321 0.00557297 1.3238001
-0.13698828 0.0062583485 1.322
-0.14208509 0.013078333 1.32575
-0.13450083 0.014780725 1.3258573
-0.12709855 0.018156936 1.322
-0.13272032 0.023284266 1.3280001
-0.12541343 0.025548819 1.3245716
-0.11821324 0.026655927 1.322
-0.1230036 0.034362074 1.3254286
-0.11690626 0.035362545 1.3225002
-0.12478252 0.043287568 1.3280001
-0.11512452 0.044005625 1.326421
-0.10526156 0.047283504 1.3226668
-0.11259606 0.053387493 1.3280001
-0.10438043 0.05485053 1.327143
-0.096008874 0.05693312 1.3252728
-0.086342029 0.057657927 1.322
-0.01043058 0.059106618 1.322
-0.0057947668 0.059106618 1.322
0.0034891332 0.057346854 1.3260001
-0.1020627 0.063255586 1.3280001
-0.094301283 0.061703306 1.3280001
-0.084943965 0.062908068 1.3227501
-0.076362155 0.066575438 1.322
-0.064611509 0.066678882 1.324
-0.058423404 0.067709059 1.324
-0.010913098 0.065718785 1.3244001
-0.0048100194 0.065342613 1.3241432
0.0023266734 0.063937053 1.3260001
-0.074105874 0.072486483 1.3250002
-0.066308431 0.072127752 1.327
-0.055136371 0.071418524 1.3268001
-0.049834993 0.079967782 1.322
-0.022020113 0.079967782 1.322
-0.015427446 0.074645877 1.3224616
-0.0073733511 0.071793154 1.3280001
-0.044356178 0.087540783 1.3244001
-0.038245458 0.089239404 1.322
-0.023481298 0.086682394 1.3227501
-0.017696043 0.084056199 1.3280001
-0.04191168 0.093137063 1.3280001
-0.034858346 0.09528172 1.3253748
-0.026560955 0.094813257 1.327
-0.032597974 0.10128656 1.3280001
-0.029105334 0.10128656 1.3280001
-0.192792 -0.23298688 1.3355001
-0.19119574 -0.22755811 1.3380001
-0.18693733 -0.22401011 1.3355001
-0.1835303 -0.21531573 1.3358573
-0.20175256 -0.20057958 1.3380001
-0.19471468 -0.20175257 1.3380001
-0.18541403 -0.20597322 1.3357779
-0.2163422 -0.19525485 1.3363334
-0.19164985 -0.19983003 1.3330001
-0.2230559 -0.18436618 1.3373752
-0.21787719 -0.1854378 1.335143
-0.22224514 -0.17568363 1.3372859
-0.21764301 -0.17488196 1.3337144
-0.22286621 -0.16656317 1.3380001
-0.217604 -0.16495404 1.3345001
-0.2177688 -0.15454406 1.3355001
-0.2177688 -0.14517775 1.3355001
-0.22169322 -0.13723867 1.3379999
-0.2165377 -0.1347232 1.3363334
-0.21279243 -0.12527215 1.3355001
-0.20917881 -0.12036546 1.3330001
-0.21230938 -0.11847098 1.3380001
-0.20879205 -0.113956 1.3355001
-0.20483443 -0.10484006 1.335143
-0.20262222 -0.096740864 1.3360001
-0.19851883 -0.092431642 1.3346667
-0.1938386 -0.085411288 1.3346667
-0.18814406 -0.080633171 1.3330001
-0.18744449 -0.074977212 1.3363334
-0.18247677 -0.065819778 1.3360001
-0.17879529 -0.061935622 1.3330001
-0.17664845 -0.055985812 1.3344287
-0.17327666 -0.044487767 1.3355
-0.16944651 -0.040900882 1.3330001
-0.17008209 -0.034016419 1.3380001
-0.16843463 -0.035087489 1.3342501
-0.16646586 -0.025931176 1.3358573
-0.17125508 -0.01055682 1.3380001
-0.16483708 -0.014631202 1.3350835
-0.17008209 -0.0082108602 1.3380001
-0.16430356 -0.0058568642 1.3355001
-0.15659195 -0.0011685967 1.3330001
-0.1615666 0.0023415766 1.3355001
-0.15496914 0.0045537967 1.3357779
-0.15190092 0.01348927 1.3380001
-0.14654623 0.016587263 1.3355001
-0.13860911 0.018131878 1.33425
-0.14544952 0.02228662 1.3380001
-0.13550666 0.025383884 1.3363334
-0.12971424 0.029214917 1.3330001
-0.13020077 0.034016419 1.3379999
-0.12700514 0.035787988 1.334
-0.11569107 0.047912464 1.3330001
-0.12036546 0.050249655 1.3330001
-0.11510677 0.053463303 1.3330001
-0.10790042 0.058819365 1.3330001
-0.10517369 0.06310422 1.3330001
-0.097772591 0.064662345 1.3330001
0.0023371933 0.068947203 1.3330001
-0.072452992 0.078295976 1.3330001
-0.064812586 0.076280609 1.3345001
-0.056487862 0.076278053 1.3348184
-0.01051737 0.074790187 1.3330001
-0.0043588663 0.074998431 1.3348184
0.0025097714 0.074490368 1.3365716
-0.071551777 0.08093562 1.3380001
-0.066077873 0.08093562 1.3379999
-0.05043814 0.084454559 1.3380001
-0.048092179 0.086800516 1.3380001
-0.01379733 0.085602641 1.3340001
-0.0081801768 0.080633171 1.3330001
-0.044333812 0.096333779 1.3346667
-0.022787638 0.097577818 1.3330001
-0.017310172 0.094112992 1.3363335
-0.042397004 0.10330429 1.3360001
-0.035235863 0.10507178 1.3357275
-0.026920931 0.1041748 1.335143
-0.031670459 0.1114331 1.3380001
-0.20222859 -0.23297679 1.3490001
-0.19809282 -0.23303325 1.3466001
-0.19312382 -0.22537345 1.3460001
-0.1895555 -0.22252166 1.3430001
-0.19040236 -0.21523745 1.3490001
-0.18720077 -0.21428013 1.3430001
-0.19508097 -0.20593794 1.3454001
-0.1895555 -0.20839331 1.3430001
-0.22723112 -0.18249132 1.3430001
-0.22605376 -0.17424977 1.3430001
-0.22369903 -0.16247614 1.3430001
-0.23061155 -0.15255843 1.3490001
-0.2254979 -0.15465784 1.3466924
-0.23061155 -0.14309742 1.3490001
-0.22502956 -0.14440875 1.3451819
-0.22435313 -0.13382697 1.3430002
-0.21781221 -0.13068733 1.3430001
-0.22230577 -0.1261863 1.3452501
-0.21734127 -0.12409409 1.3430001
-0.22115056 -0.11944496 1.3490001
-0.21574941 -0.11553784 1.3448002
-0.21263611 -0.10741057 1.3464286
-0.20870364 -0.10257965 1.3450001
-0.20589332 -0.09459921 1.3464286
-0.20222859 -0.088696748 1.3490001
-0.19666643 -0.084564425 1.3460001
-0.19337074 -0.077204704 1.3466001
-0.1895555 -0.071819164 1.3430001
-0.19040234 -0.06740953 1.3490001
-0.18604138 -0.063976504 1.3452501
-0.18112767 -0.054274432 1.3460001
-0.17778187 -0.051803987 1.3430001
-0.17621206 -0.04434735 1.3430001
-0.17385365 -0.035579268 1.3464288
-0.17136614 -0.025546359 1.3450001
-0.172663 -0.013008856 1.3490001
-0.16836296 -0.016483087 1.3430001
-0.1671856 -0.0035320898 1.3430001
-0.1633288 0.0058941804 1.3442
-0.15815915 0.0074566342 1.3430001
-0.16129878 0.01059627 1.3430001
-0.15555294 0.014139933 1.3442003
-0.14349079 0.026901156 1.3446366
-0.1369666 0.028649174 1.3430001
-0.13458131 0.035417683 1.3466001
-0.0023547267 0.078883342 1.3430001
0.0011773633 0.078883342 1.3430001
-0.072140023 0.083966255 1.3490001
-0.063680939 0.085076988 1.3451431
-0.055012658 0.085102551 1.3439233
-0.01059627 0.087124884 1.3430001
-0.0044788895 0.085160613 1.3454001
0.0023566992 0.084914148 1.3452501
-0.053153429 0.092296347 1.3472859
-0.048343781 0.095511951 1.3450001
-0.013264405 0.095526196 1.3452501
-0.0038106751 0.092901625 1.3490001
0.0011826233 0.092244618 1.3490001
-0.045971081 0.10647482 1.3445001
-0.036498263 0.10949478 1.3430001
-0.022991022 0.10710602 1.3450001
-0.016241347 0.1030708 1.3475001
-0.044665638 0.11555994 1.3478004
-0.035601255 0.11575736 1.3446003
-0.026469696 0.11533979 1.3464289
-0.041983128 0.12358414 1.3490001
-0.035705049 0.12508541 1.3486003
-0.027791649 0.12240151 1.3490001
-0.20179114 -0.23146629 1.3540001
-0.20156802 -0.22772819 1.3565001
-0.19711016 -0.2241606 1.3565001
-0.19530681 -0.21458414 1.3556668
-0.2045465 -0.20632482 1.3565001
-0.19823012 -0.20772617 1.3540001
-0.23146629 -0.14837584 1.3540001
-0.22909229 -0.14837584 1.3540001
-0.22513561 -0.12384436 1.3540001
-0.22315726 -0.11870067 1.3540001
-0.21484821 -0.10445659 1.3540001
-0.21128719 -0.096147537 1.3540001
-0.20772617 -0.092586517 1.3540001
-0.20275721 -0.08562009 1.3565001
-0.19823012 -0.081903458 1.3540001
-0.19681561 -0.076113075 1.3565001
-0.19229507 -0.064098358 1.3540001
-0.18873405 -0.060537338 1.3540001
-0.18457955 -0.054602306 1.3540001
-0.18161201 -0.048667274 1.3540001
-0.17923801 -0.043919247 1.3540001
-0.176864 -0.033236187 1.3540001
-0.17496479 -0.024927139 1.3540001
-0.17211597 -0.016618093 1.3540001
-0.14295335 0.03550851 1.3551112
-0.13887978 0.036797207 1.3540001
-0.067659378 0.089025497 1.3540001
-0.062157273 0.09304136 1.3548335
-0.055298813 0.096624009 1.3565001
-0.01068306 0.098521553 1.3540001
-0.0059350333 0.097164974 1.3540001
-0.051555537 0.10381891 1.3550001
-0.013066936 0.10633682 1.3552501
-0.0047589852 0.10346244 1.3565001
0.0011891983 0.10465164 1.3565001
-0.051041286 0.11751366 1.3540001
-0.048667274 0.11988767 1.3540001
-0.022553127 0.11751366 1.3540001
-0.017054671 0.11225191 1.3573335
-0.045924582 0.12675102 1.3558183
-0.032049179 0.12938373 1.3540001
-0.026861418 0.12672076 1.3560002
-0.04169865 0.13224429 1.3590001
-0.036093533 0.13420014 1.3573335
-0.02899049 0.13303855 1.3590001
-0.20489305 -0.22483724 1.3649999
-0.19984055 -0.22138025 1.365
-0.20271251 -0.214679 1.365
-0.19984055 -0.21659364 1.3650001
-0.20462714 -0.20941375 1.365
-0.21659365 -0.10171525 1.365
-0.21340258 -0.094535351 1.3650001
-0.2065853 -0.083874278 1.3649999
-0.2034305 -0.077782251 1.365
-0.1979259 -0.072516993 1.365
-0.19553261 -0.065337084 1.365
-0.19026735 -0.05863585 1.365
-0.18787403 -0.05384925 1.3650001
-0.18388522 -0.046669349 1.3650001
-0.18069415 -0.039489448 1.365
-0.18069415 -0.026326299 1.365
-0.17830084 -0.023933001 1.365
-0.18069415 -0.017949751 1.365
-0.1771042 -0.0167531 1.365
-0.063422449 0.096928649 1.3650001
-0.05863585 0.099321947 1.365
-0.055045899 0.10410855 1.365
-0.0059832502 0.10889515 1.3650001
-0.013163151 0.11320309 1.365
-0.051455949 0.12405271 1.3650001
-0.049062651 0.12564825 1.365
-0.051455949 0.13163149 1.365
-0.0454727 0.13462313 1.3649999
-0.035899498 0.13761474 1.365
-0.026924625 0.1340248 1.365
-0.04188275 0.14000805 1.365
-0.036138825 0.1404867 1.365
-0.21064109 -0.22147143 1.3730001
-0.20777877 -0.22219117 1.3700001
-0.21110134 -0.21592648 1.376
-0.20687801 -0.21588576 1.37
-0.21594258 -0.094146691 1.3709999
-0.21277328 -0.08376801 1.3734286
-0.21079451 -0.075882517 1.3740001
-0.20540556 -0.073567964 1.3716363
-0.20291299 -0.067100354 1.375
-0.19736981 -0.062053386 1.3700002
-0.1941189 -0.055875223 1.3736001
-0.19180064 -0.047045439 1.376
-0.18747254 -0.044834487 1.373
-0.18427311 -0.035583105 1.3738183
-0.18424307 -0.022883806 1.3736
-0.066807255 0.096287809 1.3730001
-0.063751198 0.10143267 1.3720001
-0.057376374 0.10672569 1.3730001
-0.0012010334 0.10929403 1.3700001
0.0024020667 0.10929403 1.3700001
-0.053536065 0.11458845 1.3722501
-0.013915707 0.11802162 1.3717144
-0.0045695375 0.11519717 1.3716003
0.0036118669 0.1145328 1.372
0.01085664 0.11459786 1.376
-0.054739729 0.12571509 1.3722501
-0.021218255 0.12450712 1.3700002
-0.018054951 0.12277628 1.3730001
-0.0016888108 0.12473073 1.376
0.0044230758 0.12826918 1.376
-0.054890733 0.13456853 1.373
-0.046840299 0.13811883 1.3700002
-0.025291832 0.13530532 1.3740001
-0.051870614 0.14234261 1.376
-0.045342367 0.14403751 1.3730001
-0.034688827 0.14511979 1.3712857
-0.027744746 0.14113632 1.376
-0.043426558 0.15078667 1.376
-0.039003488 0.15159087 1.376
-0.21428977 -0.21671112 1.381
-0.22155383 -0.10048616 1.381
-0.22300617 -0.094702788 1.3850001
-0.21913247 -0.092011422 1.381
-0.22130047 -0.087547436 1.3870001
-0.21731646 -0.084747359 1.381
-0.21485025 -0.0759243 1.382
-0.20624498 -0.06424401 1.3827144
-0.20420012 -0.05707689 1.3852857
-0.1987931 -0.053996183 1.381
-0.2018455 -0.044989653 1.3870001
-0.19634308 -0.045041084 1.3825001
-0.20062955 -0.035262164 1.3870001
-0.19386379 -0.034644317 1.3840003
-0.18765488 -0.031477593 1.381
-0.19284755 -0.026993793 1.3870001
-0.18684776 -0.026231328 1.381
-0.072801031 0.088571385 1.3840001
-0.073041238 0.093512908 1.3852857
-0.069008566 0.09806481 1.381
-0.071740262 0.10335462 1.3870001
-0.06625504 0.10549624 1.383182
-0.063843451 0.11324595 1.3856667
-0.058322255 0.11543308 1.3818572
-0.0084747365 0.11985699 1.381
0.0066745016 0.11587473 1.3840001
-0.062012773 0.12524147 1.3870001
-0.05900551 0.12447148 1.383
-0.020581502 0.12712105 1.381
-0.013861677 0.12426873 1.3870001
-0.0053705848 0.12554631 1.3827144
0.0012106766 0.12591037 1.381
-0.071740262 0.13983272 1.3870001
-0.064734578 0.13623276 1.3857144
-0.058717817 0.1374118 1.381
-0.023050196 0.13527974 1.3840001
-0.0036451798 0.13103449 1.3840001
0.0024213532 0.13196376 1.381
-0.071740262 0.14226459 1.3870001
-0.06474863 0.14378451 1.3870001
-0.056140039 0.14581415 1.3851539
-0.048830628 0.14810611 1.381
-0.030266916 0.14891323 1.381
-0.027328329 0.14575592 1.3855001
-0.053501211 0.15199208 1.3870001
-0.045616556 0.15518776 1.3859092
-0.033211995 0.15395632 1.3828001
-0.22575919 -0.10128656 1.3920001
-0.22575919 -0.095184959 1.3920001
-0.20623408 -0.052473765 1.3920001
-0.083990365 0.087042488 1.3935001
-0.078100473 0.08664272 1.3920001
-0.083590172 0.095007867 1.3953334
-0.077422522 0.096134089 1.3920001
-0.083339438 0.10294872 1.3980001
-0.076016471 0.1051821 1.3940002
-0.074987866 0.11294009 1.3965
-0.068249255 0.11607467 1.3937143
-0.06687887 0.12443865 1.3947694
-0.013911648 0.12715735 1.3920001
-0.0085422397 0.12691328 1.3920001
0.0053055864 0.12361 1.396
-0.074892461 0.13632225 1.3953334
-0.067981116 0.13229513 1.3930001
-0.020775246 0.13565364 1.3940001
-0.015086265 0.13251986 1.3953334
-0.0054253144 0.13420664 1.397143
0.00122558 0.13603938 1.3980001
-0.076096013 0.14437972 1.3947694
-0.067727759 0.14704855 1.3920001
-0.023734173 0.14363691 1.3956001
-0.073315382 0.15380539 1.397143
-0.065751247 0.15427767 1.3934119
-0.055919375 0.15655987 1.3920001
-0.043524746 0.15986192 1.3920001
-0.037829921 0.15742128 1.3920001
-0.027330959 0.15297835 1.396
-0.073534802 0.16300213 1.3980001
-0.065660894 0.16469119 1.3976473
-0.054286841 0.16494104 1.395231
-0.044021815 0.16509999 1.395
-0.03799298 0.16055098 1.3980001
-0.062504575 0.17158119 1.3980001
-0.054170642 0.17395064 1.3980001
-0.04639696 0.17280677 1.398
-0.087389641 0.077542916 1.404
-0.085543394 0.0830817 1.4040002
-0.092928417 0.09662094 1.404
-0.088796318 0.096533015 1.4040002
-0.092928417 0.10400598 1.404
-0.086569086 0.10598901 1.4040002
-0.081762947 0.11517145 1.4040002
-0.075573571 0.11840679 1.404
-0.074857444 0.12543377 1.4040002
0.0086158803 0.12185316 1.404
-0.081235439 0.13662323 1.404
-0.075696662 0.13231529 1.404
-0.014242576 0.13802992 1.4040002
-0.0061542001 0.13785407 1.404
-0.081850864 0.14708537 1.404
-0.022155121 0.14523911 1.404
-0.0184626 0.14154659 1.404
-0.080496937 0.155332 1.404
-0.077050582 0.15582433 1.404
-0.0266682 0.15631668 1.4039999
-0.080989271 0.16320938 1.404
-0.076312073 0.16616338 1.4040002
-0.036309779 0.1630863 1.404
-0.071799003 0.17272788 1.4040002
-0.064413957 0.17601013 1.4040002
-0.05046444 0.17601012 1.404
-0.043694817 0.1753947 1.404
-0.060311161 0.18216431 1.404
-0.054293714 0.18257459 1.4040002
-0.048002761 0.18093348 1.404
-0.095179699 0.067985497 1.4100001
-0.11288399 0.078150451 1.4150001
-0.10291573 0.075016916 1.4143751
-0.094296776 0.074695759 1.41
-0.087763101 0.075402096 1.4100001
-0.1116435 0.084352866 1.4150001
-0.10415623 0.084315598 1.4143752
-0.094473362 0.083701625 1.41
-0.12032688 0.095517218 1.4150001
-0.11412447 0.094276726 1.4150003
-0.10410964 0.094192348 1.4137501
-0.095729075 0.093256876 1.41
-0.12032688 0.10171963 1.4150001
-0.11410008 0.10417841 1.4146878
-0.10394774 0.10394937 1.4115626
-0.096592382 0.10400898 1.41
-0.087763101 0.1075407 1.4100001
-0.1123878 0.11362828 1.4150001
-0.10417841 0.11410008 1.4146878
-0.093766645 0.1147185 1.4102632
-0.086389661 0.11633076 1.41
-0.11164349 0.12342809 1.4150001
-0.1039525 0.12396564 1.4150003
-0.094021037 0.12538117 1.4123336
-0.084054798 0.1260822 1.41
-0.077874303 0.12731829 1.4100001
0.0056921965 0.12592351 1.411
-0.11288399 0.1343105 1.4150001
-0.10420059 0.1339722 1.4150003
-0.094608299 0.13447033 1.414643
-0.085319191 0.13522862 1.4104545
-0.0074166004 0.1396793 1.4100001
-0.11326567 0.1439915 1.4150002
-0.1042006 0.14389609 1.4150003
-0.094276741 0.14389609 1.4150003
-0.086114973 0.14544778 1.41
-0.021837765 0.14874403 1.4100002
-0.014517203 0.14508396 1.4122727
-0.004961933 0.14203534 1.4150001
-0.12032688 0.1563009 1.4150001
-0.11412446 0.15381993 1.4150003
-0.1042006 0.1538199 1.4150003
-0.094276726 0.1538199 1.4150003
-0.085572235 0.15573503 1.4109091
-0.023112586 0.15519848 1.4125
-0.016126283 0.15009849 1.4150001
-0.12032688 0.16374381 1.4150001
-0.11412448 0.16498426 1.4150004
-0.1042006 0.16498426 1.4150004
-0.094260737 0.16495554 1.4147503
-0.085319191 0.16647859 1.4104545
-0.034689698 0.16602752 1.4133334
-0.023569183 0.16002235 1.4150001
-0.11226375 0.17490815 1.4150001
-0.1041179 0.17639674 1.4150003
-0.094194032 0.17639674 1.4150003
-0.084093705 0.17560291 1.410625
-0.075402096 0.1767623 1.41
-0.067985497 0.1792345 1.4100001
-0.04206356 0.17630096 1.4112501
-0.038454983 0.17366767 1.4150001
-0.11040302 0.1860725 1.4150001
-0.1041179 0.18582442 1.4150003
-0.094276741 0.18607253 1.4150003
-0.084170416 0.18566155 1.4118751
-0.074165992 0.18541498 1.41
-0.064806953 0.18576816 1.41
-0.054211814 0.18806377 1.41
-0.046295017 0.18444189 1.4120001
-0.11123001 0.19723685 1.4150001
-0.10047915 0.1947559 1.4150001
-0.094276734 0.19599634 1.4150003
-0.084148221 0.19552325 1.4115626
-0.074329823 0.19574048 1.4131253
-0.064462125 0.19586895 1.4140627
-0.055731293 0.19489655 1.4127272
-0.09055528 0.20343927 1.4150001
-0.084352866 0.20343927 1.4150001
-0.076289728 0.20281903 1.4150001
-0.12134732 0.06880518 1.427
-0.1160207 0.068612315 1.423
-0.12284525 0.074817747 1.4250001
-0.11469144 0.07449545 1.4210001
-0.10713392 0.077236086 1.4210001
-0.12460922 0.085149057 1.4242001
-0.11709987 0.084710553 1.4210002
-0.13218935 0.097995259 1.427
-0.12556177 0.094480865 1.4223847
-0.13218935 0.10299927 1.427
-0.1253389 0.10518923 1.4235715
-0.13385735 0.1138413 1.427
-0.12459712 0.11477534 1.4252857
-0.11751512 0.11543888 1.4210001
0.017440407 0.11834562 1.4210001
0.027939074 0.11801132 1.427
0.033151586 0.11603055 1.427
-0.1513714 0.12885334 1.427
-0.1488694 0.12885334 1.427
-0.13385735 0.12635134 1.427
-0.12497278 0.12496882 1.4255
-0.11543889 0.12478194 1.4210004
-0.10837967 0.12582007 1.4210001
0.0087202033 0.12831156 1.4210001
0.015223315 0.1225403 1.4234
0.031275082 0.12134732 1.427
-0.13278507 0.13564451 1.427
-0.12477552 0.13475133 1.4232501
-0.11734903 0.13379283 1.4210001
-0.13218935 0.14428239 1.427
-0.12470976 0.14465876 1.4225001
-0.11834562 0.14409098 1.4210001
-0.0074902396 0.14731067 1.424
-0.1513714 0.15887742 1.427
-0.1488694 0.15887742 1.427
-0.13218935 0.15595841 1.427
-0.12522431 0.15425563 1.4222859
-0.021267056 0.15887742 1.427
-0.015800456 0.15385909 1.423
-0.0075060199 0.1513714 1.427
-0.1513714 0.16388144 1.427
-0.1488694 0.16513245 1.427
-0.13385735 0.16513246 1.427
-0.12582006 0.16443811 1.4210004
-0.031143583 0.16568387 1.4210001
-0.028712586 0.16478792 1.424
-0.1488694 0.17472346 1.427
-0.13449256 0.17468007 1.4261429
-0.12464204 0.17449744 1.4217501
-0.11685072 0.17664641 1.4210001
-0.10588818 0.17315832 1.4210001
-0.095922239 0.17315832 1.4210001
-0.036248587 0.17424573 1.4258001
-0.13335694 0.1846481 1.427
-0.12490768 0.18485788 1.4247501
-0.11593742 0.18450151 1.4220003
-0.044895414 0.18581432 1.4225
-0.13135535 0.19515651 1.427
-0.12470976 0.1945411 1.4225
-0.11521368 0.19480909 1.4218572
-0.10588819 0.19508339 1.4210002
-0.052321218 0.19682744 1.4210001
-0.13135535 0.20141153 1.427
-0.12425872 0.20376742 1.4245001
-0.11507064 0.20502329 1.4222859
-0.10469832 0.20441101 1.4217501
-0.095465496 0.20588465 1.4216002
-0.084710546 0.20803913 1.4210001
-0.074343704 0.20663448 1.4235716
-0.065583959 0.20372804 1.4222
-0.05613384 0.20250796 1.423
-0.1130073 0.21308757 1.427
-0.10626991 0.2127223 1.4261428
-0.094980255 0.21119733 1.4255
-0.08488939 0.2109751 1.424
-0.07881321 0.21141957 1.427
-0.13245995 0.059291597 1.439
-0.12867537 0.059291597 1.439
-0.14002909 0.069383785 1.439
-0.13296457 0.066356137 1.439
-0.12639393 0.065442167 1.4355716
-0.11934502 0.066581957 1.4330001
-0.15012127 0.079475969 1.439
-0.14160599 0.076637536 1.439
-0.13484491 0.075611174 1.4375001
-0.12831834 0.075555265 1.433
-0.15169723 0.085723102 1.4380001
-0.14463417 0.085476793 1.4375882
-0.13489492 0.085769221 1.4339231
-0.12939513 0.081657119 1.4330001
-0.16021346 0.097137295 1.439
-0.15495521 0.095742516 1.4369999
-0.14603098 0.095674582 1.436
-0.13635288 0.094799563 1.4330003
-0.16021346 0.10596795 1.439
-0.15495519 0.10582068 1.4370002
-0.14588042 0.10563657 1.4345001
-0.13635288 0.10600929 1.4330003
0.036966752 0.10837932 1.4342
0.041630268 0.108491 1.439
-0.16147499 0.11606015 1.439
-0.15457518 0.11561525 1.4335003
-0.14572656 0.11557623 1.4330003
-0.1358559 0.1157557 1.4330003
-0.12813887 0.11683249 1.4330001
0.013818896 0.11934502 1.4330001
0.022612739 0.11934502 1.4330001
0.037059769 0.11463403 1.4330001
0.041543476 0.11581555 1.436
-0.16431342 0.12709849 1.439
-0.1560279 0.12537508 1.4330003
-0.1454753 0.12537508 1.4330003
-0.13596633 0.12533642 1.4330003
0.014968127 0.12670152 1.4335456
0.025197918 0.12599091 1.4371251
0.035610575 0.12589346 1.4360001
0.042891789 0.12741385 1.439
-0.16399802 0.13498299 1.439
-0.15577665 0.13567643 1.4330003
-0.14572655 0.13567643 1.4330003
-0.13749105 0.13525768 1.4330001
0.0088122524 0.13344532 1.4360001
0.015895193 0.13296457 1.439
0.025987381 0.13296457 1.439
0.034902144 0.13498299 1.439
0.044153318 0.13245995 1.439
-0.16357751 0.14381365 1.439
-0.15577663 0.14572655 1.4330003
-0.14576502 0.14576435 1.4333754
-0.13743521 0.14622906 1.4330002
-0.0025125267 0.14572655 1.4330001
0.02817402 0.14507519 1.439
0.033025615 0.14192654 1.4378
-0.16359784 0.15413773 1.4382501
-0.1560279 0.1555254 1.4330003
-0.14547531 0.1555254 1.4330003
-0.1374352 0.15527414 1.4330002
-0.01433087 0.15766691 1.4342
-0.0075691398 0.15516737 1.439
-0.16345738 0.1645387 1.439
-0.15535791 0.16519862 1.4330002
-0.14447029 0.16582675 1.4330002
-0.13944523 0.16582677 1.4330001
-0.031406581 0.16959555 1.4330001
-0.024217919 0.16608779 1.4352502
-0.01566766 0.16263959 1.4381428
-0.16105448 0.17114668 1.439
-0.15473954 0.17528133 1.4350003
-0.14485683 0.17597349 1.4330003
-0.13944523 0.1783894 1.4330001
-0.033149105 0.17624593 1.436
-0.026892332 0.17270859 1.4380001
-0.15445158 0.18401584 1.4352503
-0.14576589 0.18583034 1.4342002
-0.13860773 0.18676446 1.4330001
-0.041456688 0.18592697 1.4330001
-0.038211852 0.18350767 1.4370002
-0.15201356 0.1942746 1.439
-0.14487706 0.19442335 1.437
-0.13621482 0.19597708 1.4330003
-0.046607982 0.19274129 1.4370002
-0.13492267 0.20527342 1.4330002
-0.071607009 0.20979598 1.4330001
-0.065390132 0.20812856 1.4345001
-0.05508652 0.2047873 1.439
-0.066860735 0.21067439 1.439
-0.13554582 0.059538815 1.4450001
-0.15074721 0.069673084 1.4450001
-0.14314651 0.068406299 1.4450001
-0.13655925 0.066126093 1.4450001
-0.15384381 0.076992273 1.4449999
-0.14652461 0.076007001 1.4450001
-0.16151488 0.08804144 1.4450001
-0.1572621 0.086322241 1.4449999
-0.16383731 0.095008753 1.4450001
-0.16468184 0.10387623 1.4449999
0.038256854 0.10311617 1.4450001
0.041803848 0.10387623 1.4450001
-0.16631055 0.11419147 1.4449999
0.044337418 0.1140105 1.4450001
-0.17101575 0.12414477 1.4450001
-0.16763766 0.12330025 1.4450001
0.046237595 0.12541156 1.4449999
0.051938117 0.12541156 1.4450001
-0.17101575 0.13301225 1.4450001
-0.16848218 0.13554582 1.4450001
0.0152014 0.13681261 1.4450001
0.024792761 0.13699357 1.4449999
0.035650901 0.13482194 1.4449999
0.042648371 0.13639034 1.4450001
-0.16763766 0.14441331 1.4450001
0.00380035 0.14061294 1.4450001
0.01900175 0.14061294 1.4450001
0.025878573 0.14387038 1.4449999
0.034203149 0.14061294 1.4450001
-0.16797547 0.15530764 1.4450001
-0.0057005249 0.15518096 1.4450001
-0.17101575 0.16341504 1.4450001
-0.1678488 0.16468184 1.4450001
-0.015201399 0.166582 1.4450001
-0.0088674836 0.16088149 1.4450001
-0.16341504 0.17456274 1.4450001
-0.024491144 0.17523836 1.4450001
-0.15834792 0.18748394 1.4450001
-0.035047669 0.18368359 1.4450001
-0.029136017 0.18115002 1.4450001
-0.045604199 0.19508463 1.4450001
-0.16488522 0.049849018 1.4580001
-0.15657705 0.04920993 1.4580001
-0.1725543 0.057518099 1.4580001
-0.1661634 0.054961741 1.4580001
-0.15561709 0.056118939 1.4549999
-0.14473894 0.056522045 1.4563637
-0.13708203 0.055707496 1.4553332
-0.17415202 0.064867638 1.4580001
-0.16607925 0.063874148 1.4572501
-0.15529622 0.064918928 1.4519998
-0.14616574 0.063731037 1.454
-0.13874827 0.063646004 1.452
-0.18277974 0.076690793 1.4580001
-0.17487825 0.074250638 1.4580001
-0.16578107 0.073961839 1.454625
-0.15685202 0.072839305 1.4519999
-0.14808303 0.071707822 1.452
-0.18277974 0.085173264 1.4580001
-0.17457283 0.084098198 1.4534999
-0.16602516 0.083649032 1.4519998
-0.15656915 0.085285641 1.452
-0.18405792 0.094585314 1.4580001
-0.17457284 0.094293825 1.4534999
-0.16844976 0.093347467 1.452
-0.19044882 0.1086453 1.4580001
-0.18460572 0.10517596 1.4580001
-0.1751689 0.10404541 1.4524285
-0.16929837 0.10437944 1.452
0.045527052 0.10466347 1.456
-0.18375215 0.11474863 1.4576
-0.17445099 0.11460268 1.4524999
-0.16929837 0.11201696 1.452
0.048396602 0.11462 1.45275
0.053296424 0.11551382 1.4544001
-0.18423717 0.12488899 1.457077
-0.17642672 0.12500075 1.4519999
0.048370957 0.12220032 1.452
0.052189719 0.12220033 1.452
-0.18448398 0.13534506 1.4580001
-0.17654422 0.13522328 1.4519998
0.0076375199 0.13874827 1.452
0.01145628 0.13874827 1.452
-0.18314494 0.14552991 1.4580001
-0.17540839 0.1448583 1.4519998
-0.00127818 0.14954706 1.4580001
0.0048565576 0.14514181 1.4574001
0.015399661 0.14509749 1.4547693
0.022148807 0.14434913 1.452
-0.18150157 0.15593795 1.4580001
-0.17439006 0.15529622 1.4519998
-0.0025471549 0.15672565 1.4535
0.017894521 0.15210342 1.4580001
-0.18086246 0.16424613 1.4580001
-0.17488641 0.16584687 1.4541818
-0.16929837 0.16929837 1.452
-0.0127292 0.16802543 1.452
-0.0076375199 0.16293377 1.452
-0.17343482 0.17445736 1.4568001
-0.16711621 0.1765722 1.4519999
-0.02291256 0.1782088 1.452
-0.016939456 0.1739715 1.4545715
-0.034414425 0.18695267 1.454
-0.026159953 0.18441232 1.45575
-0.035362981 0.19130094 1.4580001
-0.17069753 0.046203841 1.4640001
-0.16556376 0.046460532 1.4640001
-0.15786313 0.046203841 1.4640001
-0.14417309 0.046631653 1.4640001
-0.17412002 0.053904485 1.4640001
-0.16556376 0.050054159 1.4640001
-0.1510181 0.050909787 1.4640001
-0.1455421 0.051080912 1.4640001
-0.18096504 0.068022318 1.4640001
-0.17754252 0.062888563 1.4640001
-0.18279853 0.074989565 1.464
-0.17839816 0.073156081 1.4640001
-0.18763892 0.082910225 1.4640001
-0.19123256 0.094974563 1.4640001
-0.19123256 0.1026752 1.4640001
0.047487281 0.10524208 1.4640001
0.052254342 0.10725892 1.464
-0.192516 0.11807647 1.4640001
-0.18866567 0.11935992 1.4640001
0.053904481 0.11165928 1.4640001
-0.192516 0.12577711 1.464
-0.18866567 0.12706056 1.4640001
-0.19208819 0.13304995 1.4640001
-0.18866567 0.13647246 1.4640001
-0.18802395 0.14567043 1.4640001
0.0089840796 0.1475956 1.4640001
-0.18695442 0.15315717 1.4640001
-0.00128344 0.15657967 1.4640001
0.0051337602 0.15208764 1.464
0.0128344 0.15144591 1.4640001
-0.18438755 0.16470814 1.4640001
-0.0089840796 0.16813064 1.4640001
-0.013262213 0.17412002 1.4640001
-0.02181848 0.18353193 1.4640001
-0.0192516 0.18096504 1.4640001
-0.02951912 0.19123256 1.4640001
-0.17553014 0.017680759 1.4758334
-0.17480294 0.025896734 1.4770001
-0.16777384 0.026451662 1.4770001
-0.17532088 0.035219561 1.4770001
-0.16738449 0.037478931 1.4743751
-0.18429841 0.044456061 1.4770001
-0.17647432 0.043607593 1.4755
-0.16521133 0.044073537 1.47
-0.19085893 0.055160038 1.4770001
-0.18465382 0.054231256 1.4729167
-0.17798276 0.052876592 1.4711667
-0.19293068 0.064741828 1.4770001
-0.18492174 0.06422133 1.473182
-0.1791293 0.060568899 1.47
-0.20156293 0.078121811 1.4770001
-0.19438364 0.074944273 1.4759231
-0.18737698 0.073971376 1.47
-0.20156293 0.084596001 1.4770001
-0.1949839 0.085221432 1.4729167
-0.20242614 0.096249528 1.4770001
-0.19623448 0.095531791 1.4726251
0.047681898 0.097941205 1.47
0.053636767 0.097582981 1.4743751
-0.20296565 0.10520548 1.4770001
-0.19559014 0.10553763 1.4726251
0.053352177 0.10283826 1.47
-0.20293406 0.11414753 1.4763001
-0.19640456 0.11502457 1.4712729
-0.20527014 0.12396203 1.4746668
-0.1984598 0.12500392 1.4700001
-0.20180956 0.1341081 1.4770001
-0.19583242 0.1354073 1.4710001
-0.1949524 0.14441864 1.4744548
-0.1936415 0.1543975 1.4758334
-0.18943889 0.15722141 1.47
0.0057158666 0.15762115 1.4720001
0.012887 0.15593269 1.47
-0.012887 0.17784059 1.47
-0.0090638567 0.17221327 1.4770001
-0.19319278 -0.0013053566 1.4890001
-0.18777901 -0.003388667 1.4854
-0.19300629 0.005780865 1.4890002
-0.18628792 0.0055559147 1.4840909
-0.19275767 0.014794041 1.4890002
-0.18470906 0.015610363 1.4837499
-0.19188742 0.024801776 1.489
-0.18450624 0.025761902 1.4841999
-0.16771246 0.028602127 1.483
-0.19442081 0.035229377 1.4884002
-0.18532734 0.034462642 1.4835
-0.16563231 0.033542491 1.483
-0.20233028 0.044382125 1.4890001
-0.19511509 0.044224981 1.48375
-0.18851401 0.042903189 1.4830002
-0.20322798 0.054714516 1.4860001
-0.19655098 0.054249488 1.4829999
-0.21103264 0.068313666 1.489
-0.20384392 0.065602198 1.4848001
-0.1989148 0.065004833 1.483
-0.2125358 0.076066688 1.4890002
-0.20478591 0.074426562 1.4836665
-0.1989148 0.071505316 1.483
-0.21350048 0.085657932 1.4880003
-0.20723541 0.086326413 1.4829999
-0.21538734 0.094236962 1.4873637
-0.20801546 0.094907053 1.4829999
-0.21502571 0.10425188 1.4865001
-0.20879552 0.10374771 1.483
-0.21364705 0.11455265 1.4872857
-0.20844883 0.1144085 1.4829999
-0.21299712 0.12310898 1.4860001
-0.20931557 0.12740947 1.483
-0.2119029 0.13445173 1.489
-0.20720628 0.13510472 1.483857
-0.20298328 0.14530386 1.4855715
-0.1989148 0.14951111 1.483
-0.20065849 -0.0013114933 1.4960001
-0.19508465 -0.0055738464 1.4960002
-0.20065849 0.0065574665 1.4960001
-0.1975109 0.004459077 1.4960001
-0.19716115 0.01661225 1.4960002
-0.196724 0.024918376 1.4960002
-0.20371862 0.036284648 1.4960002
-0.19716115 0.031038677 1.4959999
-0.20695364 0.044853069 1.4960001
-0.21227455 0.055644788 1.4960002
-0.20852745 0.055082723 1.4960001
-0.21442914 0.065574661 1.4960002
-0.20852745 0.062951684 1.4960001
-0.21836364 0.074099377 1.4960001
-0.22216697 0.084722474 1.4960001
-0.21849477 0.084197871 1.4960001
-0.22295386 0.094427511 1.4960002
-0.2225167 0.10404513 1.4960002
-0.21836364 0.11475567 1.4960001
-0.21377341 0.12983784 1.4960001
-0.20504795 -0.02248913 1.5090001
-0.21139781 -0.014022633 1.5090001
-0.20464383 -0.015844872 1.5060002
-0.19790801 -0.013966878 1.503
-0.21122144 -0.0044096331 1.5089999
-0.20484664 -0.0056399158 1.5057273
-0.19896212 -0.0079057794 1.503
-0.21298529 0.0061333994 1.5089999
-0.20484228 0.0050075203 1.5036001
-0.22092263 0.019843349 1.5090001
-0.21481463 0.015491075 1.5085715
-0.2049856 0.016188027 1.5030001
-0.22092263 0.0264578 1.5090001
-0.2153476 0.025099257 1.507
-0.20555031 0.025034972 1.5030001
-0.22180456 0.033513214 1.5089999
-0.21506298 0.034303963 1.5050001
