# .PCD v0.7 - Point Cloud Data file format
VERSION 0.7
FIELDS x y z
SIZE 4 4 4
TYPE F F F
COUNT 1 1 1
WIDTH 1447
HEIGHT 1
VIEWPOINT 0 0 0 1 0 0 0
POINTS 1447
DATA ascii
-0.10557095 -0.19504629 1.1468669
-0.097103886 -0.19426224 1.1481581
-0.099721707 -0.18836322 1.149
-0.1524836 -0.35263944 1.1570001
-0.14808828 -0.35196325 1.1570001
-0.18358891 -0.34182021 1.1570001
-0.17315605 -0.3432692 1.1570002
-0.16486526 -0.34365836 1.1554998
-0.15422222 -0.34446806 1.1556666
-0.14519331 -0.34560084 1.1550951
-0.17344587 -0.33573443 1.1569998
-0.16674313 -0.33564973 1.1547142
-0.15667348 -0.33861688 1.153
-0.14656551 -0.33861688 1.153
-0.13241436 -0.33861688 1.153
-0.11422002 -0.33457369 1.153
-0.10603984 -0.33264619 1.1556667
-0.17392318 -0.32523334 1.1569998
-0.1652865 -0.32431266 1.1540908
-0.10479804 -0.32756078 1.155
-0.091982499 -0.32042253 1.153
-0.17525603 -0.31518924 1.1566664
-0.16517746 -0.31535903 1.1546363
-0.15869507 -0.31637934 1.153
-0.17482424 -0.30542991 1.155727
-0.16880304 -0.30728218 1.153
-0.17336683 -0.29502574 1.1564666
-0.16880304 -0.29414183 1.153
-0.1729387 -0.28451207 1.1569999
-0.16812916 -0.28504467 1.153
-0.17141727 -0.27589053 1.1570001
-0.16822866 -0.2753154 1.1545999
-0.03942107 -0.27190429 1.153
-0.16494477 -0.26513451 1.1551175
-0.036687404 -0.26542461 1.1545
-0.18358891 -0.25053293 1.1570001
-0.17500633 -0.25224945 1.1569998
-0.16431713 -0.2534309 1.1569998
-0.15719722 -0.25422907 1.1547142
-0.041442662 -0.25269917 1.153
-0.03638868 -0.25775313 1.153
-0.18418556 -0.24385042 1.1569998
-0.17526524 -0.24465586 1.1543332
-0.16501588 -0.24532846 1.1547776
-0.15441215 -0.24530931 1.1531738
-0.14656551 -0.24360199 1.153
-0.1202848 -0.2415804 1.153
-0.043639965 -0.24508168 1.1538571
-0.035917629 -0.24518427 1.1547599
-0.028339563 -0.24492796 1.1545
-0.18358889 -0.23524036 1.1569998
-0.17521027 -0.23497203 1.1561723
-0.16688538 -0.23493032 1.1537272
-0.155074 -0.23678131 1.1542499
-0.1202848 -0.2395588 1.153
-0.11462434 -0.23430267 1.153
-0.10815524 -0.23147243 1.153
-0.098047279 -0.23147243 1.153
-0.04354009 -0.23477995 1.1549999
-0.038881626 -0.23768508 1.1570001
-0.18156029 -0.22821824 1.1570001
-0.17444271 -0.22410572 1.1561998
-0.16750412 -0.22479717 1.1533333
-0.10380894 -0.22575051 1.1543332
-0.095744558 -0.22489627 1.1549999
-0.087191686 -0.22111233 1.1538
-0.055430293 -0.22316182 1.1540525
-0.047785196 -0.22660168 1.1556665
-0.17209347 -0.217399 1.1570001
-0.1651607 -0.21522158 1.1549999
-0.1570778 -0.21206515 1.153
-0.10171837 -0.21636492 1.1538888
-0.096358813 -0.2130037 1.1570001
-0.083665736 -0.21736579 1.1554
-0.075614385 -0.21484146 1.1544285
-0.06488359 -0.21427253 1.1532353
-0.057579674 -0.21575931 1.1554614
-0.16208568 -0.2083379 1.1570001
-0.15517876 -0.20551601 1.1553998
-0.1475763 -0.20215933 1.153
-0.10006887 -0.20923491 1.153
-0.095968761 -0.20574039 1.1560767
-0.073029846 -0.20996079 1.1570001
-0.064926013 -0.2082215 1.1555454
-0.059843898 -0.2089465 1.1570001
-0.1521455 -0.19981776 1.1570001
-0.14485466 -0.19752508 1.1554614
-0.13427898 -0.19530669 1.1551334
-0.12422396 -0.19414511 1.154111
-0.11624162 -0.19219576 1.153
-0.092087299 -0.19666098 1.1543334
-0.088380918 -0.19322719 1.1554999
-0.13084513 -0.18967472 1.1570001
-0.12512814 -0.18819937 1.1569999
-0.11436173 -0.18826456 1.1562728
-0.10429265 -0.18668605 1.1549999
-0.094404958 -0.18651733 1.1553156
-0.087230086 -0.18967472 1.1570001
-0.17483486 -0.3625825 1.169
-0.19574125 -0.35253921 1.169
-0.18463638 -0.35451061 1.1672859
-0.17489947 -0.35529357 1.1653811
-0.16536279 -0.35443017 1.1612858
-0.15799348 -0.35253534 1.1627142
-0.19522543 -0.34505373 1.1670003
-0.18463734 -0.34380859 1.1617618
-0.17608115 -0.34639466 1.1610001
-0.16692084 -0.34910882 1.161
-0.15776055 -0.34843028 1.161
-0.10111035 -0.34009844 1.1650001
-0.099067718 -0.34009844 1.1650001
-0.2018902 -0.3330676 1.169
-0.19550793 -0.33521932 1.1685387
-0.18437448 -0.33525512 1.1636089
-0.17811675 -0.33485949 1.161
-0.10302631 -0.33556119 1.1616668
-0.096526459 -0.33435476 1.1646923
-0.20280115 -0.32532448 1.169
-0.19589303 -0.32503244 1.1683046
-0.18476126 -0.32562214 1.1643602
-0.17811675 -0.32773483 1.161
-0.101781 -0.32875264 1.161
-0.094796099 -0.32807484 1.1627142
-0.20189019 -0.31667039 1.169
-0.19485965 -0.31517673 1.1674351
-0.1856031 -0.31457162 1.1623333
-0.19274059 -0.30580044 1.1681999
-0.18505377 -0.30438781 1.1639566
-0.17811675 -0.30127177 1.161
-0.19164196 -0.29412431 1.169
-0.18486959 -0.29441264 1.1645386
-0.17777748 -0.29346851 1.1610001
-0.19164196 -0.28695053 1.169
-0.18463333 -0.28503916 1.1653813
-0.17743821 -0.2856653 1.1610001
-0.18358855 -0.27572381 1.1664737
-0.17599498 -0.27484396 1.161842
-0.19330512 -0.26295906 1.1684285
-0.18507254 -0.26452413 1.1671178
-0.1754916 -0.26584229 1.1650001
-0.16895646 -0.26361278 1.1610001
-0.21008877 -0.25415617 1.169
-0.20465979 -0.25463012 1.1685557
-0.19537069 -0.25470287 1.1651741
-0.18434338 -0.25582954 1.161
-0.17540258 -0.25818446 1.1610001
-0.16719843 -0.25695074 1.1610001
-0.21008877 -0.24698243 1.169
-0.20458226 -0.24447146 1.1668003
-0.19465698 -0.24458838 1.1625
-0.1876163 -0.24868493 1.161
-0.033587731 -0.24122097 1.161
-0.028498679 -0.24122097 1.161
-0.20339176 -0.23780055 1.1682001
-0.19450074 -0.23511614 1.1654804
-0.18713164 -0.23336928 1.1610001
-0.04173021 -0.23307849 1.161
-0.035187062 -0.23468095 1.1635002
-0.028577229 -0.23575583 1.1642001
-0.19164197 -0.22648597 1.169
-0.1848855 -0.22472571 1.1630001
-0.17811675 -0.22697163 1.161
-0.093638524 -0.22086477 1.161
-0.051908311 -0.22086477 1.161
-0.044483185 -0.22378373 1.1620668
-0.03829762 -0.22587945 1.1650001
-0.18300609 -0.21755746 1.1662
-0.17575012 -0.21391335 1.1642001
-0.16875289 -0.21190803 1.161
-0.093578659 -0.21559611 1.161
-0.085260227 -0.21327657 1.1612501
-0.077353559 -0.21170448 1.161
-0.053399645 -0.21331453 1.1618572
-0.045962606 -0.21589743 1.1651819
-0.03887666 -0.21893522 1.1670001
-0.17194025 -0.20647241 1.1684287
-0.16549781 -0.20450661 1.1635001
-0.15816768 -0.20132282 1.161
-0.091457501 -0.20603383 1.1610001
-0.084568568 -0.20480481 1.1622798
-0.074455976 -0.20499964 1.1633999
-0.064273879 -0.20333825 1.1616668
-0.054079007 -0.20511381 1.1640401
-0.048166696 -0.20701432 1.169
-0.17095029 -0.19552034 1.1676668
-0.1646158 -0.19566061 1.1675003
-0.15472902 -0.19472855 1.1646366
-0.14525601 -0.19280231 1.1610001
-0.13717815 -0.19191375 1.1610001
-0.083249643 -0.19500516 1.1612221
-0.074585155 -0.19515099 1.1654804
-0.0643811 -0.19517525 1.1656404
-0.055167925 -0.19513704 1.1654003
-0.16294691 -0.18754268 1.1689999
-0.15459169 -0.18518084 1.1665003
-0.1452456 -0.18473117 1.1648099
-0.13568784 -0.18465158 1.1637201
-0.12511146 -0.18334898 1.1622633
-0.11520346 -0.18317577 1.161842
-0.1051476 -0.18187484 1.1610001
-0.094286226 -0.18144779 1.1610001
-0.084545575 -0.18437427 1.1619599
-0.074614756 -0.18501095 1.1659604
-0.066083871 -0.18714701 1.1686665
-0.055340458 -0.18959232 1.169
-0.15282513 -0.17790964 1.168
-0.14390755 -0.17625897 1.1685791
-0.13423376 -0.17522022 1.1688402
-0.12592903 -0.17799751 1.1678572
-0.11503305 -0.17786881 1.1674
-0.10526879 -0.17680584 1.1658
-0.094678633 -0.17606924 1.1654446
-0.084657945 -0.17493589 1.1658336
-0.07456518 -0.17515208 1.1678337
-0.068663165 -0.17831926 1.169
-0.084035516 -0.16909584 1.169
-0.073787279 -0.16909584 1.169
-0.21152651 -0.37042937 1.177
-0.20843101 -0.37042937 1.177
-0.21359019 -0.36194539 1.177
-0.20561583 -0.36460468 1.1758236
-0.19468574 -0.36259109 1.1750002
-0.18522249 -0.36382678 1.1747143
-0.17927219 -0.36437157 1.1730001
-0.21507508 -0.35452282 1.1763334
-0.20523094 -0.35510871 1.173182
-0.19510226 -0.35720447 1.1730002
-0.1881844 -0.35888717 1.1730001
-0.22184488 -0.34360158 1.177
-0.21562514 -0.34561834 1.1768401
-0.20535941 -0.34485102 1.1739093
-0.22390859 -0.33534688 1.177
-0.21539284 -0.33493915 1.1755601
-0.20635322 -0.33479351 1.1732502
-0.22390857 -0.32502854 1.177
-0.21507034 -0.32517391 1.1738002
-0.20737988 -0.32460949 1.1730002
-0.22376117 -0.31500497 1.177
-0.2152151 -0.31509349 1.1746002
-0.20558688 -0.31491676 1.1733812
-0.22184488 -0.30645549 1.177
-0.21591182 -0.3069714 1.177
-0.20464699 -0.30529404 1.1754001
-0.19678497 -0.30447915 1.1730002
-0.21152651 -0.29613712 1.177
-0.20475182 -0.29526648 1.176
-0.19641104 -0.29513073 1.1730002
-0.20378774 -0.28659257 1.177
-0.1953117 -0.28442258 1.1738002
-0.22361375 -0.27284712 1.177
-0.21546309 -0.27328992 1.1752502
-0.2049903 -0.2737084 1.1765001
-0.19464934 -0.27497801 1.1747601
-0.1881844 -0.27250746 1.1730001
-0.23098399 -0.26400277 1.177
-0.22490267 -0.26513767 1.1768
-0.21495084 -0.26431742 1.1731602
-0.2049181 -0.26484171 1.1730002
-0.19579403 -0.26654312 1.1730002
-0.18544216 -0.26839414 1.1730001
-0.23078746 -0.25830314 1.177
-0.22469811 -0.25498861 1.176579
-0.21621862 -0.25482404 1.1734707
-0.22184488 -0.24764079 1.177
-0.2150517 -0.24541283 1.1741669
-0.21269147 -0.23800512 1.1752859
-0.20518546 -0.23391324 1.1748949
-0.19846769 -0.23137425 1.1730001
-0.031878229 -0.23137425 1.1730001
-0.028793238 -0.23137425 1.1730001
-0.20258392 -0.22666013 1.177
-0.19579768 -0.22484319 1.1741112
-0.03365301 -0.22496273 1.1742309
-0.028565707 -0.22580695 1.175182
-0.19267279 -0.21673317 1.1763334
-0.18594767 -0.21367393 1.1748463
-0.17995775 -0.21080765 1.1730001
-0.042176723 -0.21271567 1.1734446
-0.03543739 -0.21559918 1.176
-0.029923264 -0.21978121 1.177
-0.19088978 -0.20946284 1.177
-0.18446782 -0.2056967 1.1762942
-0.17648502 -0.20431496 1.1732355
-0.16967446 -0.20463766 1.1730001
-0.050388169 -0.20052435 1.1730001
-0.044336714 -0.20746461 1.1762002
-0.037490066 -0.20877494 1.177
-0.17515744 -0.19577312 1.1759092
-0.16967446 -0.19126938 1.1730001
-0.050525628 -0.19488317 1.1762002
-0.17025305 -0.18779427 1.177
-0.16511281 -0.1840516 1.1742002
-0.063198388 -0.18430614 1.1735716
-0.054603606 -0.1844192 1.1752402
-0.048496325 -0.18366691 1.177
-0.15541537 -0.17459783 1.1750001
-0.14670841 -0.17241667 1.1730002
-0.12434891 -0.17502503 1.1748669
-0.11442644 -0.17421685 1.1759092
-0.10407243 -0.17269878 1.1754001
-0.095591381 -0.17160979 1.1750002
-0.089464709 -0.17173111 1.1730001
-0.07918141 -0.17378777 1.1730001
-0.064616628 -0.17543186 1.1733638
-0.054687336 -0.17438042 1.177
-0.048496325 -0.17644407 1.177
-0.15236789 -0.16750149 1.177
-0.14492644 -0.16724551 1.1752224
-0.13489497 -0.16578273 1.1746001
-0.1272144 -0.16601188 1.1750001
-0.092865303 -0.16818938 1.177
-0.085325532 -0.16772985 1.1750002
-0.075365752 -0.16760649 1.175154
-0.064932071 -0.1679965 1.1756667
-0.056338288 -0.16736391 1.177
-0.12897958 -0.15993468 1.177
-0.233339 -0.37241915 1.189
-0.22486478 -0.37306893 1.189
-0.21611489 -0.37450108 1.1855333
-0.20497002 -0.37440816 1.1824546
-0.19694696 -0.37299526 1.185889
-0.24391146 -0.3637825 1.189
-0.23286247 -0.36524174 1.189
-0.22488652 -0.36415446 1.1845555
-0.21622041 -0.36666715 1.1815001
-0.2032724 -0.36823714 1.1810001
-0.1957601 -0.36822015 1.1815001
-0.18739714 -0.36754689 1.1810001
-0.24402727 -0.35405385 1.189
-0.23438132 -0.35529467 1.189
-0.22570097 -0.35491967 1.1832857
-0.24374686 -0.34523949 1.1889998
-0.23534048 -0.34514135 1.1868823
-0.22634095 -0.34544769 1.1822308
-0.24263747 -0.3364495 1.189
-0.23472127 -0.33508369 1.1851997
-0.22881088 -0.33441591 1.1810001
-0.23356685 -0.32525879 1.1865386
-0.22881088 -0.3250978 1.1810001
-0.23302452 -0.31489933 1.1872222
-0.2287365 -0.31460121 1.182143
-0.25329268 -0.30124107 1.189
-0.24432841 -0.30311733 1.189
-0.2341579 -0.30481815 1.1878573
-0.22547634 -0.30451593 1.1825
-0.21470435 -0.30439091 1.181
-0.20810401 -0.3033556 1.1810001
-0.26302132 -0.29220733 1.189
-0.25475189 -0.29415298 1.1889998
-0.24572186 -0.29520631 1.1889998
-0.23359212 -0.29488266 1.1889998
-0.22458465 -0.29527655 1.1859999
-0.21560588 -0.2948364 1.1826842
-0.26371622 -0.28515896 1.189
-0.25546524 -0.28471664 1.1881301
-0.24432389 -0.28520435 1.1863911
-0.23474969 -0.28577033 1.1889998
-0.22448815 -0.28507957 1.1852105
-0.2146098 -0.28510687 1.1825998
-0.20662495 -0.28235292 1.1810001
-0.26267385 -0.27622452 1.189
-0.25470734 -0.27523357 1.1871816
-0.2449224 -0.2750186 1.1838
-0.23534964 -0.27477568 1.1834999
-0.22627327 -0.27703947 1.1818
-0.21328072 -0.27850735 1.1810001
-0.20499797 -0.27850735 1.1810001
-0.2535969 -0.26665318 1.1884667
-0.2450746 -0.26484048 1.1837368
-0.23729239 -0.2651363 1.1827143
-0.25120795 -0.25954682 1.189
-0.24429365 -0.25705555 1.1871334
-0.23513289 -0.25484484 1.1839089
-0.22881088 -0.25158843 1.1810001
-0.23202857 -0.24662158 1.189
-0.22583783 -0.24514289 1.1843998
-0.22318995 -0.23835352 1.1872858
-0.21559019 -0.23384468 1.1849998
-0.20810401 -0.23088156 1.1810001
-0.21298514 -0.22586164 1.1882727
-0.2061393 -0.22391705 1.1832858
-0.19982126 -0.22052813 1.1810001
-0.02460859 -0.22338718 1.1831819
-0.2115984 -0.21993725 1.189
-0.20445405 -0.216644 1.1872858
-0.19710183 -0.21432713 1.1828462
-0.031277537 -0.21355899 1.1814001
-0.024949757 -0.21521886 1.1859999
-0.019804776 -0.21264076 1.189
-0.19390805 -0.2056417 1.1864287
-0.18752268 -0.20285559 1.1818001
-0.043685287 -0.20339638 1.183
-0.034261011 -0.20452812 1.1843042
-0.025514068 -0.20777482 1.188
-0.18366605 -0.19784111 1.1860909
-0.17719595 -0.19242074 1.1843334
-0.046209488 -0.19583109 1.186111
-0.035440128 -0.19909012 1.189
-0.17427136 -0.18636937 1.1864547
-0.16804385 -0.18155123 1.1856667
-0.046526849 -0.18527465 1.1842729
-0.16375825 -0.17727032 1.1860001
-0.15789615 -0.17171474 1.1823335
-0.12279172 -0.17165992 1.1810001
-0.11551474 -0.17142329 1.1810001
-0.10560502 -0.17083165 1.1810001
-0.045628157 -0.174925 1.183
-0.15432435 -0.16574399 1.1846001
-0.14551528 -0.16210103 1.1827779
-0.13562998 -0.16047822 1.1810001
-0.12320586 -0.16388007 1.181
-0.11502986 -0.16477263 1.1821198
-0.10524065 -0.16578811 1.1853635
-0.094562531 -0.16524766 1.1838888
-0.084806912 -0.16297713 1.1853077
-0.075501665 -0.16316472 1.1844288
-0.065431885 -0.16305853 1.1847333
-0.05458916 -0.16417322 1.1838
-0.045806125 -0.16580309 1.1845555
-0.14299135 -0.15860683 1.1876668
-0.13475901 -0.1562164 1.187
-0.12556186 -0.15672268 1.1850002
-0.11675425 -0.15784316 1.1865001
-0.069837898 -0.15948057 1.189
-0.053160191 -0.15948057 1.189
-0.048990764 -0.15948057 1.189
-0.24450321 -0.38092127 1.197
-0.2340095 -0.3809213 1.197
-0.27248642 -0.37112722 1.197
-0.26863873 -0.37042761 1.197
-0.25079942 -0.37462509 1.197
-0.24535452 -0.37477547 1.1951178
-0.23584218 -0.37572637 1.1930001
-0.22730096 -0.37825394 1.193
-0.19579501 -0.3772814 1.1943334
-0.27283621 -0.36832887 1.197
-0.2696881 -0.36832887 1.197
-0.24444675 -0.36538661 1.193
-0.23857304 -0.36547112 1.193
-0.25289816 -0.35258833 1.197
-0.2459522 -0.35594213 1.193
-0.23908433 -0.35622105 1.1930001
-0.25272912 -0.34501061 1.1962001
-0.24954298 -0.34450737 1.1930001
-0.25199869 -0.33534867 1.1969999
-0.24664363 -0.33468515 1.1935714
-0.2395027 -0.33153868 1.1930001
-0.25079942 -0.3284528 1.197
-0.24480566 -0.32528645 1.1954001
-0.2387183 -0.3244791 1.193
-0.25079942 -0.31166288 1.197
-0.24433665 -0.31436029 1.1947143
-0.23845685 -0.31480488 1.193
-0.26262146 -0.30160612 1.1954
-0.25469896 -0.30498135 1.1948463
-0.24556871 -0.30581045 1.193
-0.2395027 -0.30434623 1.1930001
-0.27379474 -0.29372576 1.1966002
-0.26621753 -0.29637632 1.1945999
-0.25832823 -0.29807106 1.1930001
-0.24159443 -0.29597935 1.1930001
-0.23897976 -0.29545638 1.1930001
-0.2801818 -0.28542864 1.197
-0.27426237 -0.28413311 1.1947145
-0.26808965 -0.28412619 1.193
-0.27262634 -0.27640408 1.197
-0.26587239 -0.27555189 1.194
-0.26254678 -0.26778895 1.1963334
-0.25734484 -0.2641491 1.1945001
-0.25268686 -0.25740379 1.1960001
-0.24568987 -0.2530179 1.1945999
-0.24030572 -0.24870069 1.197
-0.23556434 -0.24498963 1.1950001
-0.23276639 -0.23643304 1.1960001
-0.22581224 -0.23405735 1.1934707
-0.23191077 -0.22876266 1.197
-0.22481462 -0.22655733 1.1952224
-0.21742336 -0.22369854 1.193
-0.21287236 -0.21747558 1.1938
-0.20573351 -0.21321298 1.1947143
-0.024054857 -0.21021853 1.1930001
-0.20147903 -0.2067259 1.197
-0.19779932 -0.2049154 1.1938
-0.030330036 -0.20185162 1.1930001
-0.025225677 -0.20350324 1.1951538
-0.19230413 -0.19928358 1.1943334
-0.18567449 -0.19457193 1.1943334
-0.041834533 -0.19453058 1.193
-0.034368046 -0.19508716 1.194905
-0.02833299 -0.19833092 1.197
-0.18273795 -0.18832642 1.1956667
-0.17671758 -0.18276425 1.1943334
-0.042165257 -0.18621516 1.1950002
-0.037252635 -0.18941128 1.197
-0.17276265 -0.17904252 1.1943334
-0.16511476 -0.17439416 1.1952858
-0.040788669 -0.17047572 1.1930001
-0.16001709 -0.168384 1.1930001
-0.15478748 -0.16387032 1.1956667
-0.14955845 -0.16001709 1.1930001
-0.11190738 -0.16001709 1.1930001
-0.10497798 -0.16100267 1.1945
-0.095781773 -0.16118519 1.1947778
-0.084714934 -0.16001709 1.1930001
-0.075302161 -0.16001709 1.1930001
-0.064843528 -0.16001709 1.1930001
-0.058568347 -0.16001709 1.1930001
-0.042936508 -0.16232482 1.1946
-0.15005991 -0.15845487 1.197
-0.14401916 -0.15598191 1.1941429
-0.13504259 -0.15239309 1.1941429
-0.12417681 -0.15280584 1.1947778
-0.11409772 -0.15360948 1.1950955
-0.10610998 -0.15571867 1.1967145
-0.095142879 -0.1577553 1.197
-0.084998965 -0.15740548 1.1970001
-0.074380785 -0.15714075 1.1949999
-0.064736493 -0.15645064 1.196273
-0.055329569 -0.15480675 1.1950955
-0.046656352 -0.15604945 1.1960001
-0.11333196 -0.14796117 1.197
-0.25521904 -0.38082644 1.202
-0.19494437 -0.38040495 1.202
-0.27171582 -0.37532729 1.2060001
-0.26382384 -0.37400427 1.205143
-0.25546819 -0.37467238 1.2027057
-0.27413061 -0.36510956 1.205
-0.26550812 -0.36508822 1.2055554
-0.25528949 -0.36519316 1.2030525
-0.27277306 -0.35559177 1.2060002
-0.26492062 -0.35487488 1.2049474
-0.25606206 -0.35564175 1.2019999
-0.27383035 -0.34995306 1.2060001
-0.26419419 -0.34543431 1.2042856
-0.25711581 -0.34457734 1.2019999
-0.26330507 -0.33487132 1.205
-0.25660145 -0.33424002 1.2027272
-0.26114321 -0.32880786 1.2060001
-0.25485063 -0.32524738 1.2038822
-0.24973954 -0.32244852 1.202
-0.26283485 -0.31273749 1.2060001
-0.25558028 -0.31563869 1.2035385
-0.24973954 -0.31717977 1.202
-0.28369811 -0.30237636 1.2060002
-0.27437857 -0.30232933 1.2030001
-0.26538745 -0.30706915 1.2036667
-0.25816956 -0.30874974 1.202
-0.2846837 -0.29495195 1.2035999
-0.27882314 -0.29568318 1.202
-0.28488737 -0.2852084 1.2032307
-0.28297046 -0.27642107 1.2044002
-0.27603769 -0.27448797 1.2033333
-0.2680046 -0.2715171 1.202
-0.27403256 -0.26874745 1.2053334
-0.26524392 -0.26425573 1.2041334
-0.25816956 -0.26027706 1.202
-0.26220047 -0.2590287 1.2060001
-0.25518441 -0.25499028 1.2041819
-0.24657828 -0.25184706 1.202
-0.25127548 -0.24598914 1.2060002
-0.24539922 -0.24606253 1.2041051
-0.23920201 -0.24341702 1.202
-0.2448694 -0.23641402 1.20525
-0.23757841 -0.23423743 1.2026666
-0.24211253 -0.22942542 1.2060001
-0.23468542 -0.22729161 1.2045001
-0.224474 -0.22200823 1.204
-0.21812694 -0.22023444 1.202
-0.22096734 -0.21885282 1.2060001
-0.21421088 -0.21456097 1.2046669
-0.20852219 -0.21203703 1.2033334
-0.20440973 -0.20625643 1.2050002
-0.19867779 -0.20219265 1.2033334
-0.023219394 -0.20160177 1.204
-0.19380772 -0.19682245 1.2042859
-0.1889357 -0.19210047 1.204
-0.031612597 -0.19072935 1.202
-0.026860094 -0.19600806 1.2042222
-0.18385328 -0.18445542 1.2042859
-0.17808431 -0.18019181 1.202
-0.041096378 -0.18229933 1.202
-0.035658352 -0.18640615 1.2044616
-0.02854602 -0.18819228 1.2060001
-0.17319894 -0.17706971 1.2046669
-0.16734691 -0.17283203 1.2036
-0.041096378 -0.17597681 1.202
-0.16254628 -0.1688793 1.204
-0.15665741 -0.16369645 1.2046667
-0.039066721 -0.16576679 1.2044001
-0.14907366 -0.15753174 1.2060001
-0.13321477 -0.15118818 1.2060001
-0.12564561 -0.1509876 1.2044001
-0.11907413 -0.15068673 1.202
-0.1026689 -0.15263364 1.2024
-0.095763139 -0.1550536 1.2044616
-0.085496038 -0.15410221 1.2040002
-0.074940965 -0.15410222 1.2040001
-0.064868465 -0.15237187 1.2042223
-0.055848926 -0.15068673 1.202
-0.044153314 -0.15357533 1.2040001
-0.039118621 -0.15964626 1.2060001
-0.11413479 -0.14697592 1.2042223
-0.10490349 -0.14609025 1.2046666
-0.098325178 -0.14801639 1.2060001
-0.06132108 -0.14907366 1.2060001
-0.054934561 -0.14895006 1.205
-0.048633959 -0.14907366 1.2060001
-0.26519167 -0.38081524 1.21
-0.26625243 -0.3786937 1.21
-0.28172266 -0.36251628 1.2126667
-0.27891237 -0.36231756 1.2120001
-0.28360289 -0.35471314 1.2180001
-0.2767134 -0.35566893 1.2116667
-0.28248155 -0.3454136 1.219
-0.27480438 -0.34507829 1.2131304
-0.26837397 -0.34050611 1.21
-0.2810567 -0.33876416 1.2190001
-0.27427813 -0.33606282 1.2180001
-0.26837397 -0.33484867 1.21
-0.27143878 -0.32558405 1.219
-0.26566079 -0.3255336 1.2128948
-0.25988784 -0.32459462 1.21
-0.2810567 -0.3109791 1.2190001
-0.27359051 -0.31517237 1.2162
-0.26583207 -0.31650472 1.2105
-0.3109791 -0.30242983 1.2190001
-0.30029252 -0.30242983 1.2190001
-0.29543433 -0.30331677 1.2156999
-0.2867581 -0.30446649 1.2115
-0.27625519 -0.30866292 1.2120001
-0.30029252 -0.29601789 1.2190001
-0.29449829 -0.29433742 1.2133571
-0.28958929 -0.2959539 1.21
-0.29552528 -0.2849772 1.2180624
-0.28958929 -0.28534624 1.21
-0.29368114 -0.27766004 1.2181667
-0.28601336 -0.27358752 1.2143334
-0.28148419 -0.26524061 1.2190001
-0.27534124 -0.26443851 1.2142941
-0.26837397 -0.26200935 1.21
-0.27407664 -0.25518435 1.2184738
-0.26510981 -0.254944 1.2140455
-0.25793672 -0.25241512 1.2108001
-0.27143878 -0.24792835 1.2190001
-0.26459903 -0.24579416 1.2186666
-0.25656393 -0.24406347 1.2143333
-0.24503709 -0.24503709 1.21
-0.26182088 -0.23831044 1.2190001
-0.25499609 -0.23511875 1.2164736
-0.24631003 -0.23230788 1.21
-0.25221068 -0.22829032 1.2180001
-0.24482603 -0.22578254 1.2148751
-0.23531437 -0.22346106 1.2130001
-0.22737929 -0.22100241 1.2120001
-0.23360834 -0.21821968 1.2190001
-0.22450292 -0.2154678 1.215706
-0.21713938 -0.21217509 1.2121667
-0.21412466 -0.20718925 1.2161666
-0.20608701 -0.20372193 1.2124445
-0.020861745 -0.20119208 1.21
-0.20335284 -0.19865601 1.2170001
-0.1964144 -0.19410188 1.2143333
-0.022617476 -0.19466355 1.2134
-0.017063439 -0.19622517 1.2165
-0.19174044 -0.18818118 1.2173334
-0.18761484 -0.18548162 1.2136668
-0.03365523 -0.18331976 1.21
-0.024267925 -0.18520097 1.2135001
-0.181778 -0.17821874 1.2173334
-0.17554948 -0.17456262 1.2136153
-0.16866189 -0.17078343 1.21
-0.035775565 -0.17729519 1.21375
-0.026393365 -0.17863068 1.2165
-0.16421774 -0.16687536 1.2143751
-0.15635328 -0.16166851 1.21325
-0.037402984 -0.16136716 1.2190001
-0.15388656 -0.15922984 1.2190001
-0.13520129 -0.15096059 1.2144001
-0.127978 -0.15037157 1.2165
-0.093347475 -0.15168963 1.21
-0.084861331 -0.15168963 1.21
-0.075314432 -0.15168963 1.21
-0.068949834 -0.15168963 1.21
-0.0413699 -0.15168963 1.21
-0.038333915 -0.15440562 1.2147
-0.12278009 -0.14797081 1.2143334
-0.11544858 -0.14372107 1.2126
-0.10410667 -0.14168811 1.21
-0.094188116 -0.14527948 1.2119564
-0.084890775 -0.14570272 1.2140478
-0.075163409 -0.14713161 1.2132776
-0.064924531 -0.1460233 1.2141001
-0.054669909 -0.14428963 1.2122225
-0.045190014 -0.14578006 1.21295
-0.039540295 -0.14854327 1.2190001
-0.11134309 -0.13766529 1.2173334
-0.1044872 -0.13653474 1.214
-0.096204959 -0.13658193 1.2160001
-0.060913429 -0.13999403 1.2190001
-0.053891264 -0.13787836 1.2163076
-0.046598926 -0.1383792 1.2173334
-0.2932587 -0.35265055 1.2243334
-0.28860062 -0.35511962 1.2238001
-0.29392681 -0.34824812 1.2270001
-0.28719121 -0.34560582 1.223889
-0.28497255 -0.33626959 1.2255
-0.27860931 -0.33344284 1.2230002
-0.28074986 -0.32485235 1.2270001
-0.27649456 -0.32540065 1.2233999
-0.29258221 -0.31086862 1.2270001
-0.28290117 -0.31624699 1.2270001
-0.27911985 -0.31628817 1.223
-0.3130717 -0.30127791 1.223
-0.30513769 -0.3049947 1.2229998
-0.29698923 -0.30985519 1.223
-0.28841195 -0.30985519 1.223
-0.31303146 -0.29654798 1.2261113
-0.3057813 -0.29540271 1.2243333
-0.31129891 -0.28548282 1.2270001
-0.3052713 -0.28532332 1.2261111
-0.30296284 -0.27805358 1.2246001
-0.29563725 -0.27522478 1.2254002
-0.28733978 -0.27125731 1.223
-0.29150656 -0.26784182 1.2270001
-0.28643906 -0.2646842 1.2243334
-0.28430912 -0.25548157 1.2253335
-0.27983463 -0.25517488 1.223
-0.28182554 -0.2474041 1.2270001
-0.2756364 -0.24585755 1.224
-0.26696867 -0.24209447 1.223
-0.2728616 -0.2391573 1.2270001
-0.26509088 -0.23602867 1.2242309
-0.25839135 -0.23051512 1.223
-0.2613878 -0.22911771 1.2270001
-0.25509569 -0.22521876 1.2243333
-0.24514018 -0.2221442 1.2241429
-0.23909242 -0.22193781 1.223
-0.25170678 -0.21836101 1.2270001
-0.2452019 -0.21836135 1.2246001
-0.23540865 -0.21487111 1.22475
-0.22676255 -0.21175225 1.223
-0.23234472 -0.20975564 1.2270001
-0.22447665 -0.20627503 1.2259334
-0.21591906 -0.20303674 1.2243334
-0.20907184 -0.2015667 1.223
-0.21352048 -0.19846112 1.2270001
-0.20543192 -0.194181 1.2253529
-0.19835022 -0.19191724 1.223
-0.017154614 -0.19191724 1.223
-0.20115028 -0.18824224 1.2270001
-0.19606912 -0.18774143 1.2255001
-0.18783313 -0.18210793 1.2243334
-0.020371104 -0.1811956 1.223
-0.017177057 -0.18572272 1.2246001
-0.18363976 -0.17612058 1.225
-0.17597944 -0.17114943 1.2240001
-0.034066867 -0.17326351 1.2248183
-0.025204776 -0.1752777 1.2254616
-0.01721072 -0.1796369 1.2270001
-0.17371787 -0.16787954 1.2264287
-0.16475441 -0.16379903 1.2247779
-0.15975234 -0.16189666 1.223
-0.03707993 -0.16498122 1.2260001
-0.154644 -0.15840183 1.2250001
-0.14530772 -0.15443864 1.2255001
-0.13830908 -0.15117502 1.223
-0.035439249 -0.1546405 1.2250001
-0.14091277 -0.14951813 1.2270001
-0.13402514 -0.14755473 1.2250001
-0.12508017 -0.14538823 1.2251821
-0.11769206 -0.14133576 1.2260002
-0.08402995 -0.14088735 1.2236668
-0.076290749 -0.14290749 1.2256668
-0.066546597 -0.14167868 1.2243334
-0.041814368 -0.14152557 1.223
-0.037600163 -0.14503123 1.2254617
-0.11402102 -0.13714793 1.2270001
-0.10461745 -0.13251825 1.2240001
-0.093807407 -0.13343608 1.2248182
-0.085342623 -0.13735127 1.2266365
-0.062288918 -0.13853526 1.2250001
-0.054256022 -0.1342935 1.2255001
-0.044830579 -0.13527469 1.2255456
-0.039799791 -0.13768576 1.2270001
-0.30231324 -0.34738937 1.2360001
-0.29579523 -0.34409955 1.2336668
-0.31206527 -0.33644536 1.2360001
-0.30881459 -0.33698717 1.2360001
-0.29336202 -0.33570531 1.2356365
-0.28782576 -0.3324376 1.2352002
-0.29147765 -0.32831869 1.2360001
-0.28659287 -0.32538861 1.234286
-0.29286718 -0.31560263 1.2350001
-0.28788471 -0.31730002 1.2336
-0.3159712 -0.29248255 1.2337143
-0.3099753 -0.29269445 1.2320001
-0.31569698 -0.28502771 1.2346668
-0.3099753 -0.28189391 1.2320001
-0.30408692 -0.27551526 1.2344002
-0.29634351 -0.27213344 1.2328001
-0.29439488 -0.26468766 1.234182
-0.29314506 -0.25612098 1.2348001
-0.28807056 -0.25170785 1.2344002
-0.28491703 -0.24507847 1.2348001
-0.27865374 -0.24193195 1.2320001
-0.28064203 -0.2383832 1.2360001
-0.27474135 -0.2364184 1.2348001
-0.26736975 -0.23222241 1.2335001
-0.26346734 -0.22547546 1.2349092
-0.2574127 -0.22213097 1.2320001
-0.2546027 -0.21707825 1.2346668
-0.24475569 -0.214736 1.2340001
-0.23797177 -0.21133043 1.2320001
-0.23349197 -0.20608331 1.2340002
-0.22630975 -0.20209973 1.2328001
-0.22285217 -0.19905066 1.2340001
-0.21557711 -0.19591492 1.2334547
-0.20845029 -0.19116944 1.2320001
-0.20491207 -0.18789972 1.2348573
-0.19499521 -0.18390539 1.2340001
-0.18900934 -0.1803689 1.2320001
-0.19179012 -0.1787874 1.2360001
-0.185663 -0.17346045 1.2345456
-0.031321548 -0.17172848 1.2320001
-0.022681121 -0.17296283 1.2320002
-0.017178379 -0.17455445 1.2333335
-0.18066171 -0.16876009 1.2340001
-0.17408437 -0.16398051 1.2346668
-0.16754416 -0.16267866 1.233
-0.03370579 -0.16637059 1.2336668
-0.025384758 -0.16803163 1.234154
-0.017678276 -0.16849065 1.2346667
-0.16346012 -0.15696225 1.2348001
-0.15501958 -0.15399083 1.2347369
-0.14660731 -0.15164872 1.2326669
-0.033135198 -0.15397915 1.2352002
-0.14519705 -0.14844772 1.2360001
-0.13508235 -0.14409798 1.2343335
-0.12688172 -0.14244291 1.2328001
-0.073443629 -0.14148699 1.2320001
-0.03299335 -0.1449621 1.2340001
-0.13327788 -0.13977924 1.2360001
-0.12445818 -0.13825515 1.2345002
-0.11651558 -0.13625021 1.2335001
-0.10593377 -0.13187432 1.233
-0.092884585 -0.13068645 1.2320001
-0.085429147 -0.13301083 1.2335387
-0.076024972 -0.13852692 1.2345001
-0.064963631 -0.13858435 1.2350001
-0.055175643 -0.13234217 1.2340001
-0.043992136 -0.13136424 1.2325716
-0.036848865 -0.13583991 1.2335385
-0.10044496 -0.12852634 1.2320001
-0.09445627 -0.12817636 1.2328001
-0.088310137 -0.12840186 1.2360001
-0.051926725 -0.12765142 1.2340001
-0.044857278 -0.12784137 1.2346668
-0.037924599 -0.12894364 1.2360001
-0.30360281 -0.34420761 1.2435
-0.29918441 -0.34052625 1.2410001
-0.31006384 -0.33399859 1.2410001
-0.30283538 -0.33529675 1.2426001
-0.29789338 -0.33381304 1.2416668
-0.29487026 -0.32557258 1.2428182
-0.29732764 -0.31838456 1.2423334
-0.30136031 -0.2708979 1.2410001
-0.30014876 -0.26631379 1.245
-0.29918441 -0.26001847 1.2410001
-0.30014876 -0.25539929 1.245
-0.29639807 -0.25353432 1.243
-0.2929762 -0.24803653 1.2442
-0.28713593 -0.24245663 1.243
-0.283777 -0.23739037 1.245
-0.27637005 -0.23230331 1.2427778
-0.27188018 -0.22774485 1.243
-0.2667926 -0.22323276 1.2421429
-0.26303944 -0.21938145 1.245
-0.25417304 -0.21330681 1.243
-0.24716282 -0.2120422 1.2432222
-0.24193807 -0.20773931 1.245
-0.2365195 -0.20381911 1.2432858
-0.22955604 -0.20126952 1.2410001
-0.23138739 -0.19973534 1.245
-0.22496057 -0.19697589 1.2436666
-0.2157582 -0.19287397 1.243
-0.21228702 -0.18718368 1.245
-0.20520529 -0.18341042 1.2428668
-0.19746172 -0.1822305 1.2410001
-0.20264588 -0.17717873 1.245
-0.19507332 -0.17545345 1.2431053
-0.1882142 -0.17080711 1.2410001
-0.011967377 -0.17298299 1.2410001
-0.19209521 -0.16917475 1.245
-0.18449187 -0.1662489 1.2439091
-0.1776188 -0.16181731 1.243
-0.024577977 -0.16287301 1.2421428
-0.015722767 -0.16407391 1.243
-0.17251465 -0.15752208 1.2435
-0.16672499 -0.15364581 1.243
-0.15992767 -0.15122412 1.2410001
-0.031550355 -0.1555759 1.2410001
-0.025757235 -0.1563282 1.24375
-0.016371749 -0.15826026 1.245
-0.16324973 -0.14796945 1.245
-0.15487292 -0.14642471 1.2429999
-0.14509845 -0.14360414 1.2424738
-0.13708085 -0.14034469 1.2410001
-0.14297995 -0.13861415 1.245
-0.1349245 -0.13650824 1.243909
-0.12608282 -0.13605678 1.2444286
-0.11563233 -0.13308501 1.2443333
-0.10879433 -0.13164115 1.2410001
-0.073924415 -0.13431171 1.2427142
-0.065465607 -0.13595012 1.2446001
-0.057846848 -0.13206545 1.245
-0.032119751 -0.13337913 1.242
-0.1113279 -0.12988254 1.245
-0.10442625 -0.12884247 1.2434
-0.094542652 -0.12508515 1.2443333
-0.085041933 -0.12537999 1.2436666
-0.077878334 -0.12892592 1.2442
-0.052753419 -0.12624438 1.245
-0.044692405 -0.12317301 1.2433999
-0.035368361 -0.12558526 1.2441429
-0.043657999 -0.11896805 1.245
-0.0371093 -0.11896805 1.245
-0.31085137 -0.34445691 1.25
-0.30792916 -0.34299579 1.25
-0.31378922 -0.33342412 1.2552308
-0.30717525 -0.33407357 1.2525001
-0.31313747 -0.32681799 1.2586
-0.30450758 -0.32581368 1.252353
-0.29916251 -0.32436666 1.25
-0.30354583 -0.3188875 1.25
-0.30536303 -0.25374395 1.2546923
-0.29916251 -0.25094584 1.25
-0.30083781 -0.24904346 1.2570001
-0.29466707 -0.24483964 1.2536666
-0.28537682 -0.23435754 1.2550908
-0.2818872 -0.22749294 1.2576667
-0.27571529 -0.22468065 1.2537143
-0.26847917 -0.2202625 1.25
-0.27312663 -0.21796452 1.2584286
-0.26473969 -0.21552722 1.2552859
-0.25693563 -0.21118389 1.2525001
-0.25470325 -0.20682225 1.2567273
-0.24569917 -0.20512328 1.2530667
-0.23811288 -0.20153545 1.2516667
-0.2417154 -0.19867021 1.2590001
-0.23476757 -0.19710542 1.25725
-0.22497246 -0.19307484 1.2544286
-0.21807083 -0.19177084 1.25
-0.22405583 -0.18763298 1.2589999
-0.21589382 -0.18495587 1.2537144
-0.20930417 -0.18081249 1.25
-0.21132369 -0.17898054 1.2576667
-0.20446561 -0.17423014 1.2539166
-0.19834583 -0.17204583 1.25
-0.20198137 -0.16886967 1.2590001
-0.19430178 -0.16553625 1.2557501
-0.18647875 -0.16250315 1.2542
-0.012070239 -0.16349395 1.2516667
-0.0098625002 -0.16437501 1.25
-0.19204786 -0.15783243 1.2590001
-0.1839729 -0.15580922 1.2577692
-0.17669296 -0.15375587 1.2540714
-0.16985416 -0.15012917 1.25
-0.023292158 -0.15233184 1.2521111
-0.015387089 -0.1544295 1.2538126
-0.0098920874 -0.15607187 1.2537501
-0.18211435 -0.14679521 1.2590001
-0.1752827 -0.14491938 1.2582384
-0.16565835 -0.14339915 1.2543532
-0.15639296 -0.14191392 1.251
-0.026977884 -0.1456518 1.25625
-0.16197141 -0.13603389 1.2589999
-0.15451521 -0.13572565 1.2568098
-0.14521629 -0.13444389 1.2559447
-0.13463329 -0.13243604 1.2522727
-0.12529539 -0.132314 1.2515
-0.11780208 -0.13095208 1.25
-0.072324999 -0.13040416 1.25
-0.064676084 -0.13184628 1.2504545
-0.058079164 -0.13040416 1.25
-0.028691351 -0.13468191 1.2535555
-0.1512101 -0.12913562 1.2590001
-0.14370479 -0.12781116 1.2589999
-0.13505331 -0.12688714 1.2586
-0.1246908 -0.12655701 1.2586923
-0.11519525 -0.12538172 1.2552108
-0.10493919 -0.12386867 1.2541668
-0.0966525 -0.12251417 1.25
-0.083831251 -0.12218542 1.25
-0.075139679 -0.12435633 1.2531502
-0.065857388 -0.1257154 1.2567225
-0.055515427 -0.12457997 1.2539166
-0.032327086 -0.12328126 1.25
-0.028911483 -0.12528192 1.256375
-0.094245553 -0.11705266 1.2562858
-0.084939331 -0.11575773 1.2556254
-0.076810904 -0.11833888 1.2576667
-0.051710185 -0.11882339 1.2550001
-0.044910368 -0.11507855 1.252889
-0.035130974 -0.11522447 1.2546473
-0.029800531 -0.11809839 1.2590001
-0.31546375 -0.32433462 1.2651428
-0.31125176 -0.25122464 1.268
-0.30916175 -0.25154021 1.2640001
-0.30304205 -0.24723695 1.2646667
-0.29609853 -0.2417575 1.265
-0.29130581 -0.23504017 1.2666668
-0.28921583 -0.2327024 1.2640001
-0.28326803 -0.22429892 1.2657144
-0.28123817 -0.21898782 1.268
-0.2746653 -0.21449018 1.2664
-0.26760775 -0.21220243 1.2640001
-0.26414579 -0.20754118 1.2659999
-0.25541088 -0.20259488 1.2656
-0.24766183 -0.20112136 1.2640001
-0.25122464 -0.19897878 1.268
-0.24363771 -0.19639887 1.2657143
-0.23566063 -0.19260858 1.2656
-0.23282397 -0.18692286 1.2666668
-0.22546612 -0.1837929 1.2651428
-0.21718889 -0.18062139 1.2640001
-0.22121105 -0.17896974 1.268
-0.2139347 -0.17650655 1.2662858
-0.2074322 -0.17193536 1.2653333
-0.20162456 -0.16499628 1.266
-0.1974646 -0.16244844 1.2640001
-0.20120201 -0.1589607 1.268
-0.19473018 -0.15496807 1.2656666
-0.18859975 -0.1535836 1.2640001
-0.011473813 -0.15064874 1.2666668
-0.19119748 -0.14562134 1.268
-0.18572886 -0.1451938 1.2642858
-0.17729706 -0.14072955 1.2640001
-0.02382699 -0.14476059 1.2664615
-0.016874781 -0.14721125 1.2664
-0.18230459 -0.13895166 1.268
-0.17363681 -0.1348671 1.2658666
-0.16655263 -0.13380307 1.2646154
-0.025506616 -0.13529859 1.265
-0.16176674 -0.12803541 1.2656
-0.15454885 -0.12613736 1.2658666
-0.14526799 -0.12342899 1.2649231
-0.1343576 -0.12286785 1.2647272
-0.12570855 -0.1222611 1.2640001
-0.11413499 -0.12078363 1.2640001
-0.10859445 -0.12078363 1.2640001
-0.063189633 -0.12210464 1.2645714
-0.058052868 -0.12164977 1.2653333
-0.026154224 -0.12443308 1.2657143
-0.1411749 -0.11783101 1.268
-0.13506103 -0.11894263 1.268
-0.12383372 -0.11849798 1.268
-0.11418935 -0.1167796 1.2666665
-0.10458551 -0.11554324 1.2651764
-0.095193379 -0.11183602 1.2656
-0.080891788 -0.11191877 1.2640001
-0.074613199 -0.11378063 1.2658823
-0.066188827 -0.11793621 1.2674285
-0.052245826 -0.11560778 1.268
-0.046219036 -0.11129575 1.2653333
-0.031074326 -0.11098424 1.266
-0.027764512 -0.11439767 1.2669091
-0.083515659 -0.10848662 1.266
-0.077812932 -0.10782649 1.268
-0.042174678 -0.10876453 1.266
-0.035119481 -0.10702368 1.2667499
-0.027790334 -0.10782649 1.268
-0.31482679 -0.25208551 1.2780001
-0.31258604 -0.24984474 1.2780001
-0.30380481 -0.2447855 1.275
-0.29631987 -0.23779918 1.2754999
-0.29129881 -0.22855753 1.2780001
-0.28765076 -0.2256494 1.27425
-0.28262264 -0.21580817 1.2754999
-0.27620918 -0.21148138 1.273
-0.27349868 -0.20702438 1.2765
-0.26568139 -0.20329605 1.2748181
-0.26109809 -0.19791715 1.2755001
-0.25529343 -0.19739185 1.2749999
-0.24588254 -0.19390978 1.2748749
-0.23993929 -0.19083543 1.273
-0.24200207 -0.18822384 1.2780001
-0.23528457 -0.18385468 1.2752726
-0.22492945 -0.17770462 1.2765
-0.21603444 -0.17398791 1.2754999
-0.20869137 -0.17074749 1.273
-0.21354444 -0.16828108 1.2780001
-0.20711988 -0.16423772 1.2759166
-0.20259044 -0.15613849 1.2767501
-0.19772537 -0.1524815 1.27425
-0.19478118 -0.14524576 1.2758571
-0.18897381 -0.14088954 1.2755001
-0.021203937 -0.14173158 1.273
-0.014335334 -0.1440659 1.2757272
-0.18322894 -0.13669303 1.276
-0.17802927 -0.13335256 1.2739999
-0.022363329 -0.13529551 1.2754999
-0.017672196 -0.13758934 1.276
-0.17264985 -0.12619683 1.27675
-0.16570282 -0.12472621 1.2764615
-0.15658633 -0.12263199 1.2739999
-0.02352798 -0.12548256 1.2780001
-0.16021433 -0.11988066 1.2780001
-0.15417323 -0.1183347 1.2774444
-0.14553444 -0.11599146 1.2763332
-0.13523449 -0.11707104 1.2748749
-0.12568219 -0.11609771 1.2751428
-0.11519848 -0.11295968 1.2757777
-0.10500999 -0.11059216 1.27425
-0.099323705 -0.11048367 1.273
-0.071143836 -0.11137231 1.2746667
-0.065021291 -0.11499773 1.2763333
-0.055401828 -0.11668236 1.27675
-0.048176341 -0.11091762 1.2780001
-0.024099944 -0.11507665 1.2744285
-0.11091762 -0.10755648 1.2780001
-0.10531572 -0.10688424 1.278
-0.094515927 -0.10655324 1.2753075
-0.085295863 -0.10578357 1.2746667
-0.074974723 -0.10653438 1.2765
-0.043288704 -0.1047266 1.2742499
-0.033758901 -0.1023927 1.2729999
-0.027396709 -0.10510532 1.2755001
-0.041454058 -0.099713817 1.2780001
-0.03585216 -0.099713817 1.2780001
-0.31294316 -0.24805686 1.2850001
-0.30653176 -0.24454705 1.2855
-0.30202174 -0.23891225 1.2855
-0.29751614 -0.23440444 1.2855
-0.29289645 -0.22570097 1.286
-0.28906417 -0.22157837 1.2830001
-0.2901907 -0.21792531 1.2880001
-0.28606102 -0.21435611 1.2846667
-0.28144923 -0.2069957 1.2867501
-0.27540737 -0.20359629 1.284875
-0.27212435 -0.19985896 1.2880001
-0.26589337 -0.19650601 1.2857778
-0.25440031 -0.19358318 1.2846667
-0.24782287 -0.19083484 1.2830001
-0.24383856 -0.18525068 1.2851429
-0.23882474 -0.18183674 1.2830001
-0.24050824 -0.17953432 1.2880001
-0.23404789 -0.17677316 1.286
-0.2263193 -0.17329261 1.2843636
-0.21932885 -0.17208879 1.2830001
-0.22215259 -0.16764586 1.2863334
-0.21560857 -0.16432384 1.2845385
-0.21279311 -0.15818276 1.2870001
-0.20571436 -0.15369345 1.2848182
-0.20273924 -0.1466919 1.2871667
-0.19740462 -0.14277032 1.2848752
-0.012388469 -0.14302759 1.2846667
-0.19300179 -0.13581407 1.2874446
-0.18525319 -0.1347131 1.2851429
-0.015762029 -0.134455 1.2845
-0.19082579 -0.12985186 1.2880001
-0.18276046 -0.12694834 1.2880001
-0.17676207 -0.12497146 1.28425
-0.16668992 -0.12079958 1.2830001
-0.021370504 -0.12484874 1.2830001
-0.017470723 -0.12569711 1.2859167
-0.16455834 -0.11581643 1.2844286
-0.15558028 -0.11343604 1.2834547
-0.14434463 -0.11172649 1.2830001
-0.13523461 -0.11382026 1.2855
-0.12556975 -0.1125452 1.2852223
-0.11697538 -0.11135157 1.2830001
-0.063661605 -0.11225139 1.2830001
-0.056586362 -0.11367998 1.2839091
-0.021426028 -0.11614869 1.2863334
-0.019195493 -0.1163021 1.2880001
-0.16146797 -0.10952722 1.2880001
-0.15582225 -0.10952722 1.2880001
-0.14509447 -0.10910203 1.2830001
-0.1377559 -0.10952722 1.2880001
-0.12310737 -0.106567 1.2863334
-0.1152079 -0.10540639 1.2830001
-0.10407311 -0.10219851 1.2834166
-0.094934918 -0.10169031 1.2841113
-0.086453944 -0.10336921 1.2863334
-0.074518278 -0.10229605 1.2846667
-0.065519072 -0.10500818 1.2851055
-0.055314098 -0.10739987 1.2876431
-0.046837546 -0.10413372 1.285143
-0.030368609 -0.10010394 1.2830001
-0.025543584 -0.10518173 1.2855
-0.1012287 -0.097854413 1.2830001
-0.094848312 -0.098235756 1.2880001
-0.07339453 -0.098235756 1.2880001
-0.068877943 -0.098235756 1.2880001
-0.04261687 -0.09627834 1.286
-0.03530103 -0.095016733 1.2852224
-0.028228667 -0.098235756 1.2880001
-0.31512222 -0.24518366 1.2942727
-0.30845925 -0.24201028 1.2920001
-0.30446205 -0.23657724 1.2953334
-0.29695261 -0.22583418 1.2945
-0.29297996 -0.21575935 1.2953334
-0.28957176 -0.2123497 1.2953334
-0.28465453 -0.20494372 1.2947778
-0.27750006 -0.20123474 1.2920001
-0.2819851 -0.19898142 1.2970001
-0.27446863 -0.19601654 1.2951818
-0.26514181 -0.19254568 1.293875
-0.25711229 -0.19217353 1.2920001
-0.26436102 -0.1893166 1.2970001
-0.25359657 -0.18795471 1.2958889
-0.24642906 -0.18294963 1.293
-0.24263561 -0.17563373 1.2953334
-0.23667741 -0.17293963 1.2931111
-0.23309252 -0.16638637 1.2970001
-0.226016 -0.16411656 1.2946668
-0.22257464 -0.15633546 1.2962857
-0.21629146 -0.15436101 1.2953334
-0.20954086 -0.15177554 1.2920001
-0.22172216 -0.1489518 1.2970001
-0.21535476 -0.14849699 1.2970001
-0.20702386 -0.14485377 1.2919999
-0.20123474 -0.13856126 1.2920001
-0.1953827 -0.13705105 1.2920001
-0.1885398 -0.13227427 1.294
-0.011326533 -0.13252044 1.2919999
-0.1853776 -0.12647963 1.2920001
-0.01281599 -0.12574844 1.2955714
-0.0079592569 -0.12848514 1.2970001
-0.16536738 -0.11213268 1.2920001
-0.13365309 -0.11213268 1.2920001
-0.021562055 -0.11121261 1.2945001
-0.017790196 -0.11431266 1.2953334
-0.1324285 -0.10803919 1.293875
-0.12798983 -0.10646942 1.2920001
-0.08381635 -0.10080615 1.2920001
-0.060785729 -0.10156125 1.2920001
-0.054610584 -0.10253406 1.2947778
-0.048704091 -0.1019388 1.2920001
-0.02318733 -0.10394912 1.2948571
-0.019329622 -0.10688144 1.2970001
-0.080418386 -0.098540843 1.2920001
-0.074585572 -0.097256176 1.293
-0.06462042 -0.097502425 1.29325
-0.045775 -0.095706731 1.2945
-0.031714294 -0.091744922 1.2920001
-0.026119847 -0.095399305 1.2955
-0.042070355 -0.089825898 1.2970001
-0.035208687 -0.088284321 1.2956363
-0.028425917 -0.089825898 1.2970001
-0.32405707 -0.24504483 1.3061668
-0.31596136 -0.24148116 1.3030001
-0.332791 -0.23329459 1.3045001
-0.32747763 -0.23665807 1.3050771
-0.31482902 -0.23748694 1.305889
-0.30648792 -0.23272169 1.3045001
-0.33215323 -0.22942542 1.302
-0.32987037 -0.22942542 1.302
-0.30265251 -0.22580139 1.3055714
-0.29848266 -0.22185847 1.3045001
-0.29714999 -0.21437539 1.3053334
-0.2938247 -0.2078172 1.3055714
-0.28876305 -0.20241708 1.3045001
-0.28519586 -0.19669713 1.3053335
-0.27571139 -0.19213077 1.3034286
-0.26138517 -0.19061714 1.302
-0.2731809 -0.18799624 1.306
-0.26473212 -0.18624836 1.3050001
-0.25634894 -0.18441142 1.3047779
-0.24997097 -0.1826272 1.302
-0.25093094 -0.17759953 1.307
-0.24597505 -0.17358965 1.3036667
-0.24249616 -0.16647093 1.306
-0.23659381 -0.16374142 1.3025
-0.23452429 -0.15799798 1.3028334
-0.22714257 -0.15485264 1.302
-0.011435386 -0.12236353 1.3045001
-0.0051535578 -0.12427911 1.3065834
0.0011458034 -0.12260096 1.307
-0.014092611 -0.11543294 1.3036667
-0.021686981 -0.10158638 1.302
-0.016688401 -0.10471275 1.3040001
-0.073193341 -0.094919771 1.3045001
-0.063873067 -0.094348907 1.3036667
-0.055149343 -0.096837401 1.3043078
-0.047202613 -0.092932053 1.304143
-0.0228284 -0.093311086 1.302
-0.017791711 -0.096041702 1.3056364
-0.042749628 -0.085497059 1.3061668
-0.035043944 -0.083347596 1.3023846
-0.02513781 -0.084565625 1.3035625
-0.019478656 -0.084789447 1.307
-0.040103115 -0.079060428 1.307
-0.033748023 -0.076216727 1.3066154
-0.025463661 -0.076393001 1.3066154
-0.019478656 -0.077914625 1.307
-0.33010358 -0.24383956 1.312
-0.32550281 -0.24268939 1.312
-0.33010358 -0.23118752 1.312
-0.32402399 -0.23414515 1.3120002
-0.31538117 -0.23302782 1.3120002
-0.32440993 -0.22869895 1.3153334
-0.31473127 -0.22518823 1.3150557
-0.30738735 -0.2248615 1.3120002
-0.32327959 -0.21128631 1.317
-0.31134903 -0.21744402 1.317
-0.3046014 -0.21491694 1.3134706
-0.32327959 -0.20897716 1.317
-0.31981587 -0.20897716 1.317
-0.30288452 -0.20623612 1.315889
-0.29616934 -0.20348835 1.3132502
-0.30134276 -0.1997406 1.317
-0.29501325 -0.19936144 1.3145
-0.28566915 -0.19274668 1.3126252
-0.28233269 -0.18783548 1.3145001
-0.27503839 -0.18388608 1.3120002
-0.26478225 -0.18244496 1.3125558
-0.25649163 -0.1805793 1.312
-0.27213416 -0.17735878 1.312
-0.26481527 -0.17598441 1.3146924
-0.25632372 -0.17483132 1.3145001
-0.2495905 -0.17137781 1.312
-0.25285083 -0.16779751 1.317
-0.24668564 -0.16475333 1.3142223
-0.24268939 -0.15987594 1.312
-0.0034505602 -0.1207696 1.312
0.0011501866 -0.1207696 1.312
-0.01127183 -0.11340841 1.312
-0.0046032122 -0.11509839 1.3129376
0.0011501866 -0.11846922 1.312
-0.091211028 -0.10275673 1.317
-0.011523345 -0.10486116 1.3145001
-0.0043488066 -0.10692568 1.3158462
-0.073032178 -0.09301696 1.3153334
-0.065152287 -0.091394082 1.3130001
-0.054861363 -0.092072643 1.3128333
-0.049458027 -0.090864748 1.312
-0.014962072 -0.093699709 1.3130001
-0.064655922 -0.088901892 1.317
-0.046097323 -0.085276723 1.3145
-0.016283207 -0.085699432 1.3134286
-0.041969161 -0.076528616 1.3141429
-0.035716526 -0.071591727 1.3141429
-0.024811169 -0.071147256 1.3120002
-0.017918188 -0.075132713 1.3127143
-0.032327957 -0.06811963 1.317
-0.026093284 -0.067657806 1.317
-0.01962769 -0.06811963 1.317
-0.33180079 -0.22935003 1.3280001
-0.3247613 -0.22429599 1.3269092
-0.31871217 -0.22251904 1.322
-0.32328707 -0.21513882 1.3265001
-0.31548989 -0.2143002 1.3252727
-0.31511223 -0.20875642 1.3244001
-0.30944052 -0.20861159 1.322
-0.09197285 -0.10128656 1.3280001
-0.086921491 -0.10082894 1.322
-0.0057947659 -0.10198789 1.322
-0.081401572 -0.095353723 1.3265001
-0.078183934 -0.094421908 1.3232
-0.054470807 -0.091557309 1.322
-0.011614957 -0.095247202 1.325
-0.0058000269 -0.098660074 1.324
-0.07347212 -0.087987959 1.325
-0.065048665 -0.085954539 1.325
-0.054324463 -0.085784636 1.326
-0.04867604 -0.084603593 1.322
-0.013936371 -0.085965052 1.325
-0.050061174 -0.078002296 1.3280001
-0.04548132 -0.074118815 1.3245001
-0.016611665 -0.074559331 1.322
-0.043223027 -0.065701343 1.3265001
-0.035147067 -0.064485103 1.3237144
-0.025241148 -0.063686654 1.3252728
-0.01861251 -0.064757906 1.327
-0.034344293 -0.056852415 1.3280001
-0.025353981 -0.055235453 1.3279997
-0.018627414 -0.05432995 1.3280001
-0.02444848 -0.047732748 1.3280001
-0.33188143 -0.22437055 1.3330001
-0.32759663 -0.22164385 1.3330001
-0.32409081 -0.21696945 1.3330001
-0.090319462 -0.096184358 1.3380001
-0.086025916 -0.095385641 1.3350835
-0.010537095 -0.0913193 1.3355
-0.005067328 -0.095473863 1.3335557
-0.080784395 -0.088977724 1.3355
-0.074785024 -0.083886772 1.3352224
-0.065564141 -0.081952989 1.3355001
-0.057657741 -0.082389012 1.3344287
-0.012870635 -0.085411288 1.3346667
-0.065686882 -0.078589663 1.3380001
-0.054270342 -0.075192519 1.336
-0.051751763 -0.066822909 1.3372859
-0.047328163 -0.063688517 1.3330001
-0.017594701 -0.064513899 1.3380001
-0.04416487 -0.057569746 1.3352729
-0.03561696 -0.052001111 1.335143
-0.028046321 -0.050249655 1.3330001
-0.017528949 -0.059598431 1.3330001
-0.033400342 -0.047460761 1.33675
-0.026907781 -0.045622859 1.3344287
-0.095511951 -0.10022491 1.3450001
-0.094969802 -0.094122067 1.3468573
-0.087124884 -0.090656973 1.3430001
-0.0042116316 -0.091839723 1.3455715
-0.093190715 -0.085858449 1.3490001
-0.085211821 -0.084733866 1.3462003
-0.078098439 -0.082022972 1.3430001
-0.011211252 -0.084954254 1.3460001
-0.0074899476 -0.087908328 1.3490001
-0.092244618 -0.079235762 1.3490001
-0.0844393 -0.07876271 1.3490001
-0.075584993 -0.075579092 1.3471254
-0.064835638 -0.074260153 1.3446003
-0.057690803 -0.071819164 1.3430001
-0.07450527 -0.069774777 1.3490001
-0.063335665 -0.066711582 1.3485717
-0.055375732 -0.063529141 1.3439233
-0.052940384 -0.054653872 1.3473638
-0.045200638 -0.052271832 1.3450001
-0.03885299 -0.050626624 1.3430001
-0.050852802 -0.047304932 1.3490001
-0.043757062 -0.046122309 1.3490001
-0.035976645 -0.043836255 1.3455001
-0.027758773 -0.041934475 1.3475001
-0.034690287 -0.038238157 1.3490001
-0.027673384 -0.038080472 1.3490001
-0.10227325 -0.10108186 1.3565001
-0.10316017 -0.094731241 1.3553637
-0.1034314 -0.085596345 1.3560835
-0.097334541 -0.084277473 1.3540001
-0.01068306 -0.081903458 1.3540001
-0.0040397677 -0.085556097 1.3555001
0.00119139 -0.083397299 1.3590001
-0.10405239 -0.076111384 1.358
-0.095382109 -0.07437171 1.3562223
-0.085579738 -0.073705606 1.3543848
-0.079529449 -0.070033394 1.3540001
-0.093722679 -0.06632071 1.3590001
-0.085780092 -0.064335063 1.3589998
-0.074786417 -0.06442979 1.356647
-0.065999351 -0.062604144 1.3547144
-0.084588692 -0.058378108 1.3590001
-0.077440351 -0.058378112 1.3590001
-0.063246168 -0.055311602 1.3569168
-0.057731479 -0.053927798 1.3550001
