# .PCD v0.7 - Point Cloud Data file format
VERSION 0.7
FIELDS x y z
SIZE 4 4 4
TYPE F F F
COUNT 1 1 1
WIDTH 1445
HEIGHT 1
VIEWPOINT 0 0 0 1 0 0 0
POINTS 1445
DATA ascii
-0.26510039 -0.11564749 1.0456455
-0.25530374 -0.1152978 1.0438002
-0.2451641 -0.1152628 1.0435002
-0.23521669 -0.11532023 1.0440003
-0.22514905 -0.11532024 1.044
-0.21508141 -0.11532024 1.0440003
-0.20577295 -0.11523294 1.0432003
-0.19529854 -0.11498883 1.0410002
-0.18477817 -0.11531008 1.0427145
-0.17520541 -0.11485982 1.0441037
-0.16787323 -0.11466976 1.0464
-0.27077165 -0.10922653 1.0470001
-0.26537421 -0.10573167 1.0485001
-0.25544441 -0.10428271 1.0457816
-0.24534407 -0.10480487 1.0450913
-0.23538874 -0.10434058 1.0455487
-0.22511035 -0.10450907 1.0444287
-0.21534431 -0.10469494 1.0443217
-0.20543362 -0.10499834 1.0414802
-0.19537252 -0.10498926 1.0414002
-0.18505263 -0.10496762 1.043143
-0.17497614 -0.1053094 1.0425558
-0.1652499 -0.10495941 1.0444447
-0.15817961 -0.10218952 1.0470001
-0.32180524 -0.091603421 1.0470001
-0.31544134 -0.091481037 1.0470001
-0.25404602 -0.095152527 1.0470001
-0.24690703 -0.096900843 1.0470001
-0.23303699 -0.097192235 1.0470001
-0.22487816 -0.094540603 1.0470004
-0.2152918 -0.094855547 1.0460004
-0.20524874 -0.094952144 1.0438236
-0.19521765 -0.095378257 1.0436252
-0.18493603 -0.095214754 1.0443333
-0.17477788 -0.095165856 1.0438002
-0.16478114 -0.095206231 1.04425
-0.15708688 -0.094671726 1.0470001
-0.32483631 -0.085193202 1.0460001
-0.31493264 -0.085142829 1.0443002
-0.3048535 -0.085324131 1.0456669
-0.29455924 -0.085130259 1.0441203
-0.2850433 -0.084917843 1.0440001
-0.2759127 -0.082994103 1.0456153
-0.26475713 -0.083674632 1.045
-0.255438 -0.083457313 1.0461177
-0.24874277 -0.082608297 1.0470001
-0.22579601 -0.089033388 1.0470001
-0.21365973 -0.086789697 1.0470002
-0.20445208 -0.085261755 1.0458002
-0.19514799 -0.085202426 1.0450802
-0.18512587 -0.085228488 1.0454003
-0.17507268 -0.085241348 1.0455602
-0.16508843 -0.085295103 1.0462004
-0.15723819 -0.085785545 1.0470001
-0.32326481 -0.075910069 1.0468574
-0.31422222 -0.075224467 1.0443873
-0.30457228 -0.075000331 1.0433003
-0.29514498 -0.074825272 1.0429356
-0.28518814 -0.075118355 1.043143
-0.27519733 -0.074974202 1.0429004
-0.26491216 -0.074909113 1.0420002
-0.25491187 -0.074923977 1.0422002
-0.24559851 -0.074679732 1.0438185
-0.23540191 -0.074118547 1.0458003
-0.22690238 -0.071423791 1.046
-0.20376715 -0.07985469 1.0470001
-0.19509836 -0.079038814 1.0470001
-0.18559332 -0.079120398 1.0470001
-0.17503074 -0.078301363 1.0470001
-0.16705233 -0.078171931 1.0470001
-0.15695576 -0.07985469 1.0470001
-0.32033664 -0.06884025 1.0470001
-0.31334871 -0.066219777 1.0454999
-0.30476484 -0.065024547 1.0447202
-0.29495591 -0.06519644 1.0454487
-0.28483742 -0.06502559 1.0447202
-0.27498287 -0.064861059 1.0420803
-0.26465687 -0.064795308 1.0410002
-0.25464734 -0.064802766 1.0411202
-0.24397105 -0.065403715 1.0410001
-0.23452882 -0.064987838 1.0416253
-0.22510271 -0.065053947 1.0430691
-0.2155631 -0.06340488 1.0449476
-0.20621479 -0.062109202 1.0470001
-0.30014348 -0.058743678 1.0470001
-0.29463625 -0.059661549 1.0470001
-0.28427538 -0.058359433 1.0467
-0.27519006 -0.055218361 1.0448574
-0.26518115 -0.055020273 1.0435715
-0.25498563 -0.054831736 1.0425003
-0.24486515 -0.0535389 1.0419234
-0.23470044 -0.054494537 1.0422859
-0.22740459 -0.053881135 1.0417501
-0.21142131 -0.058711242 1.041
-0.20426141 -0.055654064 1.0442072
-0.19612284 -0.053462781 1.0466844
-0.27260739 -0.048647109 1.0470001
-0.26437968 -0.047517788 1.0464
-0.25513196 -0.044994563 1.0458002
-0.24560139 -0.045481954 1.0452002
-0.23546171 -0.044890836 1.0450802
-0.2256092 -0.044458635 1.0431924
-0.21560921 -0.043188713 1.0426877
-0.20438378 -0.044045161 1.0431252
-0.19517747 -0.044992723 1.0441155
-0.18836719 -0.043653529 1.0460999
-0.25057852 -0.039468411 1.0470001
-0.24782491 -0.039468411 1.0470001
-0.23412187 -0.036606532 1.0468335
-0.22529858 -0.036973294 1.0457144
-0.21421218 -0.038149089 1.0467857
-0.20448276 -0.036490876 1.0468574
-0.19532643 -0.035171274 1.046036
-0.18731385 -0.035276182 1.0464548
-0.30656856 -0.023864621 1.0470001
-0.2937184 -0.02111101 1.0470001
-0.28488964 -0.023064537 1.0463572
-0.27687719 -0.022942428 1.0467857
-0.2937184 -0.01927527 1.0470001
-0.28425527 -0.01604471 1.0459502
-0.27504921 -0.014870719 1.0447943
-0.26521164 -0.01375133 1.0455004
-0.25563303 -0.013048806 1.045143
-0.24622455 -0.01081009 1.0448999
-0.27444312 -0.0076489174 1.0470001
-0.26439351 -0.0064187022 1.0461428
-0.25553015 -0.0045761992 1.0447202
-0.24504726 -0.0045700637 1.0430001
-0.2364857 -0.0038143303 1.0462106
-0.25195533 0.001376805 1.0470001
-0.24494314 0.0020855898 1.0464545
-0.2357257 0.0020860683 1.0470001
-0.28221127 -0.26099771 1.052
-0.277991 -0.26418349 1.0500001
-0.21263549 -0.26344711 1.0500001
-0.208033 -0.2605015 1.0500001
-0.28461874 -0.25479859 1.0527692
-0.206192 -0.2586605 1.0500001
-0.29240164 -0.2440559 1.0555
-0.28722027 -0.24508762 1.0523332
-0.19231501 -0.24376704 1.0514547
-0.18663269 -0.24298675 1.0556666
-0.29546148 -0.23642057 1.0561177
-0.28866354 -0.23794311 1.052
-0.1905435 -0.2384095 1.0500001
-0.18435501 -0.23557375 1.054125
-0.17629263 -0.23339665 1.057
-0.18341558 -0.22545537 1.053
-0.1765243 -0.2258677 1.057
-0.18176404 -0.21508965 1.0517143
-0.17661694 -0.21460906 1.057
-0.18281411 -0.20630831 1.0532224
-0.17485633 -0.20413804 1.0569999
-0.17395499 -0.19754209 1.057
-0.16957451 -0.19922689 1.057
-0.16957451 -0.18996051 1.057
-0.33367345 -0.16199292 1.057
-0.32580543 -0.16142009 1.057
-0.31436148 -0.16077144 1.057
-0.30486345 -0.1611318 1.057
-0.29930365 -0.16030814 1.057
-0.27644661 -0.16092588 1.057
-0.26316482 -0.16030814 1.057
-0.20108016 -0.16030814 1.057
-0.34007564 -0.15474832 1.057
-0.33464357 -0.1545545 1.0562855
-0.32507947 -0.15447553 1.054667
-0.31468365 -0.15480006 1.0557498
-0.30490121 -0.1542708 1.0550714
-0.29471171 -0.1539607 1.0550455
-0.28478196 -0.15404683 1.0556364
-0.27546877 -0.15393531 1.0558258
-0.26506814 -0.1542003 1.0554348
-0.25504482 -0.15416646 1.0543573
-0.24578677 -0.15372118 1.0555
-0.23512185 -0.15348031 1.0569999
-0.22530763 -0.15202375 1.0566669
-0.21449155 -0.15336418 1.0564706
-0.20468178 -0.15353832 1.0538636
-0.19522458 -0.15280053 1.0548235
-0.18547712 -0.15278891 1.0554
-0.1763137 -0.15272656 1.057
-0.33377454 -0.14548196 1.057
-0.32484001 -0.1451524 1.0541114
-0.31503898 -0.14504704 1.0538403
-0.30489668 -0.14462185 1.0501738
-0.29545042 -0.1446187 1.0501665
-0.28628966 -0.14520793 1.0503477
-0.27572086 -0.14765126 1.0510001
-0.26464373 -0.1482005 1.0500001
-0.25497848 -0.1482005 1.0500001
-0.24376546 -0.14713159 1.0507274
-0.23512618 -0.14602391 1.0522
-0.2250042 -0.14670712 1.0516001
-0.21518397 -0.14569935 1.0512
-0.20619202 -0.14691179 1.0500001
-0.19545284 -0.14758684 1.0500001
-0.18381158 -0.14788139 1.0510001
-0.17535803 -0.14493072 1.0536189
-0.16895676 -0.14239317 1.057
-0.34007564 -0.13436231 1.057
-0.33443528 -0.13460402 1.0569998
-0.3250494 -0.13513732 1.0544691
-0.31508631 -0.13490497 1.0540004
-0.30523482 -0.13490461 1.0514287
-0.29472247 -0.13628814 1.0500001
-0.28873017 -0.13592717 1.0500001
-0.17323048 -0.13571407 1.0514117
-0.16561122 -0.13477561 1.0553809
-0.15783711 -0.13127352 1.057
-0.33312586 -0.12579092 1.057
-0.32477158 -0.12490942 1.0554401
-0.31512529 -0.12487186 1.0544091
-0.30535191 -0.12493502 1.0534289
-0.28652099 -0.1242675 1.0500001
-0.1702925 -0.1297905 1.0500001
-0.16496783 -0.124991 1.0517601
-0.15718144 -0.12491149 1.0567501
-0.32277846 -0.11830062 1.057
-0.31448269 -0.11543445 1.0568962
-0.30446228 -0.11474918 1.0556
-0.29545948 -0.11541142 1.0532
-0.28636301 -0.11509646 1.0503198
-0.27486128 -0.1135897 1.0500001
-0.16329858 -0.11532643 1.0524
-0.15545434 -0.11477057 1.0569998
-0.32246956 -0.10100339 1.057
-0.31338853 -0.10335087 1.057
-0.30486348 -0.10470996 1.0569997
-0.29486367 -0.10529928 1.0561818
-0.28489617 -0.10548121 1.0544814
-0.27561677 -0.10499401 1.0522069
-0.2439325 -0.1003345 1.0500001
-0.16170116 -0.10892584 1.0500001
-0.15503277 -0.10533933 1.0535716
-0.1491885 -0.10470995 1.057
-0.35243082 -0.092972547 1.057
-0.34462798 -0.092950851 1.0567501
-0.33459362 -0.09539336 1.0555419
-0.32506752 -0.095723055 1.053579
-0.31426749 -0.095503092 1.0525
-0.304912 -0.094940349 1.0537307
-0.29482609 -0.095464416 1.054
-0.28518575 -0.095046178 1.0548146
-0.27492404 -0.095292717 1.0553201
-0.26474988 -0.095015727 1.0522399
-0.25509357 -0.094466314 1.0500001
-0.24429327 -0.094198897 1.0512173
-0.23541632 -0.09335953 1.0505002
-0.15229167 -0.09481106 1.0512501
-0.14665274 -0.094623625 1.0561001
-0.36268559 -0.086918518 1.057
-0.35401803 -0.086350299 1.0568498
-0.34493709 -0.084945753 1.0548574
-0.33457887 -0.084796205 1.0509654
-0.30100349 -0.089288503 1.0500001
-0.28075251 -0.088367999 1.0500001
-0.27556565 -0.087771878 1.0522858
-0.2654722 -0.088552102 1.0500001
-0.25430906 -0.087949596 1.0500001
-0.24484004 -0.085349075 1.0522758
-0.23492479 -0.084792383 1.0516773
-0.22532099 -0.083944075 1.0513846
-0.2163664 -0.082483917 1.0502353
-0.2089535 -0.080083497 1.0500001
-0.16292849 -0.080083497 1.0500001
-0.15282355 -0.084156647 1.0507274
-0.14611803 -0.08514186 1.0556667
-0.13992214 -0.081544027 1.057
-0.34512365 -0.074953713 1.0568498
-0.33521241 -0.074797705 1.0533601
-0.32739425 -0.07321351 1.0505
-0.24209149 -0.078242503 1.0500001
-0.23288649 -0.077628836 1.0500001
-0.22460121 -0.075820357 1.0523639
-0.21526828 -0.07458926 1.0535203
-0.2051256 -0.074521303 1.0522858
-0.19509754 -0.074111961 1.0519999
-0.18514751 -0.07406316 1.0520868
-0.17534989 -0.073188625 1.0508889
-0.16452587 -0.074110225 1.0523809
-0.15535492 -0.075030848 1.0546002
-0.14664027 -0.075405061 1.057
-0.3411876 -0.06838578 1.057
-0.33451262 -0.067609102 1.0564547
-0.32517433 -0.065339275 1.0534999
-0.31749499 -0.062799148 1.0517778
-0.30652651 -0.0616735 1.0500001
-0.21408318 -0.067678668 1.0503335
-0.20438132 -0.066472143 1.0524348
-0.19543314 -0.065428667 1.0536253
-0.18575859 -0.065904558 1.0563751
-0.17476334 -0.066961266 1.0560001
-0.16470857 -0.065578543 1.0567853
-0.15603136 -0.067074232 1.057
-0.32200623 -0.056988157 1.057
-0.31397384 -0.055482257 1.0549167
-0.30493218 -0.055156376 1.0534
-0.29505789 -0.054987222 1.0526297
-0.28603706 -0.053595614 1.0512631
-0.2789115 -0.0506275 1.0500001
-0.19370863 -0.056670427 1.0505334
-0.1865707 -0.053174477 1.0567
-0.30393684 -0.049111743 1.057
-0.29293302 -0.046795152 1.057
-0.28483632 -0.045127377 1.0564547
-0.27517211 -0.045089453 1.0531601
-0.26555032 -0.043299917 1.0509232
-0.2586605 -0.041422501 1.0500001
-0.24331884 -0.042036165 1.0500001
-0.18433186 -0.045924276 1.0540001
-0.17791423 -0.042625286 1.057
-0.33509499 -0.033011433 1.057
-0.32549551 -0.03264432 1.0558001
-0.31535536 -0.032520991 1.0560626
-0.30547178 -0.033467855 1.055737
-0.29384041 -0.033747785 1.0567142
-0.2837624 -0.034761466 1.056739
-0.27513352 -0.035200886 1.0566999
-0.26530555 -0.03490866 1.0554335
-0.25524047 -0.034920238 1.0531723
-0.24485649 -0.034967195 1.0516
-0.23597747 -0.031914331 1.051091
-0.22458352 -0.031536665 1.0509231
-0.21563283 -0.033093292 1.0516002
-0.20576906 -0.031207578 1.0504445
-0.1960665 -0.0303765 1.0500001
-0.18231794 -0.034328509 1.052316
-0.17547108 -0.035445798 1.0566841
-0.33401039 -0.026703982 1.057
-0.32503679 -0.025185691 1.0551541
-0.31488565 -0.024932221 1.0533203
-0.30401471 -0.025280587 1.0516666
-0.29513744 -0.025400342 1.0513333
-0.28633773 -0.027086051 1.052091
-0.27379742 -0.026183169 1.0539334
-0.2652517 -0.02488732 1.054
-0.2551215 -0.024880569 1.0542402
-0.24569012 -0.025194213 1.0552354
-0.23507817 -0.026056057 1.0566084
-0.22513703 -0.025558865 1.0563999
-0.21486187 -0.025298038 1.0567691
-0.20459193 -0.025117999 1.0547918
-0.1947431 -0.025201498 1.0524001
-0.18464307 -0.025159657 1.0544814
-0.17511016 -0.025103558 1.056857
-0.32339621 -0.019459371 1.057
-0.31464407 -0.017567899 1.0547143
-0.3046211 -0.014654193 1.0514195
-0.29520789 -0.014411023 1.0511429
-0.28779343 -0.012201446 1.0505002
-0.26449034 -0.019023666 1.0500001
-0.25371474 -0.017936464 1.0512309
-0.24495067 -0.015539118 1.0536819
-0.23669586 -0.012564386 1.0558573
-0.20346294 -0.016414706 1.057
-0.19571543 -0.016825771 1.0569999
-0.18687172 -0.01915049 1.057
-0.17791423 -0.019459371 1.057
-0.3037515 -0.0079690758 1.057
-0.29398367 -0.0069478028 1.0567501
-0.28483301 -0.004926526 1.0545
-0.27573752 -0.0031992143 1.0523529
-0.2667802 -0.0023940012 1.0508001
-0.23278886 -0.0054580471 1.0533637
-0.22655845 -0.0025934428 1.0557001
-0.28169754 0.0018532733 1.057
-0.27443877 0.0027795343 1.0565715
-0.26502296 0.0041233608 1.0550002
-0.25566205 0.0052329898 1.0528095
-0.24497114 0.0064579654 1.052
-0.23444077 0.0061340882 1.0521176
-0.22534531 0.0046872995 1.0534999
-0.21561527 0.0058301948 1.0566471
-0.25382644 0.010714245 1.0561429
-0.2461516 0.010978998 1.0561429
-0.23531115 0.01111723 1.0567501
-0.2245464 0.011478723 1.0558001
-0.21455182 0.013824731 1.0566537
-0.20756662 0.012972914 1.057
-0.20293343 0.021312643 1.057
-0.29278123 -0.26097754 1.067
-0.30026448 -0.25162348 1.067
-0.29455167 -0.25505093 1.0632501
-0.28865507 -0.25889048 1.061
-0.30361402 -0.24339214 1.0656155
-0.296983 -0.2460537 1.061125
-0.1839948 -0.2453264 1.0600001
-0.31148931 -0.23572165 1.067
-0.30582985 -0.23482099 1.0656956
-0.17235164 -0.2236253 1.0600002
-0.16570696 -0.22258361 1.0610714
-0.17235163 -0.21498857 1.0600002
-0.16590504 -0.21556745 1.0640475
-0.18488491 -0.20321484 1.0633334
-0.1708523 -0.20642996 1.0600001
-0.16693494 -0.20517443 1.0638125
-0.18197627 -0.1972142 1.0645
-0.17477748 -0.19420545 1.0604501
-0.16694143 -0.19513777 1.0631251
-0.19362849 -0.18053284 1.067
-0.18895146 -0.18053284 1.067
-0.17229384 -0.18643814 1.0642501
-0.16726072 -0.1872354 1.0646999
-0.34235761 -0.1711788 1.067
-0.33379507 -0.17319351 1.0670002
-0.32476076 -0.17360193 1.0665556
-0.31502545 -0.17539895 1.0675001
-0.30494845 -0.17213263 1.0657693
-0.29454017 -0.17242418 1.0666001
-0.28612438 -0.17186294 1.0666001
-0.27843836 -0.1718024 1.067
-0.21046574 -0.1711788 1.067
-0.20483816 -0.17435339 1.0673889
-0.19462605 -0.17418361 1.0645455
-0.18540525 -0.17414132 1.064423
-0.17492042 -0.17273782 1.067
-0.36013028 -0.16182478 1.067
-0.35387436 -0.16416694 1.0660001
-0.34513223 -0.16501714 1.06344
-0.33551925 -0.16643478 1.0622858
-0.32472426 -0.16622688 1.0620589
-0.31542605 -0.16582498 1.0606668
-0.30478558 -0.16606197 1.0605999
-0.29490951 -0.16466892 1.0611999
-0.285537 -0.16507693 1.0624814
-0.27467152 -0.16523907 1.0626295
-0.26553902 -0.16494396 1.06355
-0.25529569 -0.16631126 1.066925
-0.24532586 -0.16394795 1.0662001
-0.23447978 -0.16476281 1.0627916
-0.22569567 -0.16430008 1.0640434
-0.21484919 -0.16488165 1.0641304
-0.20518522 -0.16491713 1.0613599
-0.19487394 -0.1643319 1.0603212
-0.18498625 -0.16453731 1.06036
-0.17535132 -0.16509949 1.0639665
-0.16818552 -0.16294727 1.067
-0.37210345 -0.15583821 1.067
-0.36477506 -0.15427703 1.0669998
-0.35473394 -0.15495975 1.0648333
-0.34605378 -0.15479681 1.0619198
-0.33918232 -0.15147047 1.0600001
-0.29364827 -0.1589046 1.0600001
-0.28652391 -0.1589046 1.0600001
-0.27320439 -0.1589046 1.0600001
-0.26762879 -0.1589046 1.0600001
-0.24400645 -0.15802199 1.0610002
-0.23487213 -0.1575107 1.0600001
-0.2249873 -0.15712102 1.0605
-0.21589944 -0.15803154 1.0603751
-0.2062972 -0.1589046 1.0600001
-0.19496015 -0.15816118 1.0600002
-0.18492405 -0.15797533 1.0600002
-0.17347693 -0.15617733 1.0610499
-0.16868438 -0.15496515 1.067
-0.15621236 -0.15434155 1.067
-0.36462563 -0.14512654 1.066826
-0.35472336 -0.14468965 1.0647999
-0.34498775 -0.14463151 1.0613332
-0.33856282 -0.14403634 1.0600001
-0.17067532 -0.1477534 1.0600001
-0.16565582 -0.14407015 1.0641429
-0.15527695 -0.1418695 1.067
-0.36467367 -0.1380388 1.067
-0.35491115 -0.13491493 1.0653636
-0.34499478 -0.13477632 1.0602499
-0.33918232 -0.13753146 1.0600001
-0.16150655 -0.1369739 1.0600001
-0.15509535 -0.1353302 1.0638499
-0.14899242 -0.13164611 1.0600001
-0.35385317 -0.12508287 1.0682142
-0.34476727 -0.12485515 1.0628928
-0.33770007 -0.12366033 1.0606
-0.15247913 -0.12528427 1.0605626
-0.14874241 -0.12530009 1.0632857
-0.34448349 -0.11743564 1.0670002
-0.33455819 -0.11518532 1.0652758
-0.32525524 -0.11455359 1.0614736
-0.31811896 -0.11120224 1.0600001
-0.15226698 -0.11695484 1.0600001
-0.14637224 -0.1149834 1.0629998
-0.36480734 -0.10039996 1.067
-0.35327065 -0.10320617 1.067
-0.34479272 -0.10422498 1.0665295
-0.33461997 -0.10552911 1.0659614
-0.32479465 -0.10555472 1.0625263
-0.31654203 -0.10652774 1.0600002
-0.14510909 -0.10456332 1.0627142
-0.13002107 -0.10008816 1.067
-0.38070914 -0.090734124 1.067
-0.3749342 -0.094177715 1.0659446
-0.36503211 -0.094055273 1.0622082
-0.35566157 -0.095928252 1.0614346
-0.34537414 -0.097805493 1.0610715
-0.32988966 -0.09943153 1.0600001
-0.3038702 -0.09943153 1.0600001
-0.14255835 -0.095144682 1.0619334
-0.13843969 -0.092604935 1.067
-0.38164455 -0.088863313 1.067
-0.37466753 -0.085192129 1.064
-0.36604044 -0.08401759 1.06135
-0.35735467 -0.082498223 1.0600001
-0.14148086 -0.085260212 1.0600001
-0.13760306 -0.08443103 1.0641667
-0.37369406 -0.077605352 1.0665556
-0.36480463 -0.07548818 1.065074
-0.35505369 -0.075306229 1.0617272
-0.34723601 -0.075890116 1.0600001
-0.14203484 -0.074555777 1.0600002
-0.13708195 -0.075185455 1.0637501
-0.36013028 -0.068284445 1.067
-0.35360837 -0.066479176 1.0645883
-0.34511504 -0.064485446 1.0622915
-0.33580223 -0.062828884 1.0606431
-0.32849574 -0.060866967 1.0600001
-0.18380892 -0.061703306 1.0600002
-0.17548844 -0.061689012 1.0600002
-0.16448019 -0.060402334 1.0600001
-0.15397203 -0.063199639 1.0601668
-0.14554067 -0.065723948 1.0625311
-0.13877676 -0.068218693 1.066
-0.3426694 -0.057683203 1.067
-0.33459201 -0.055965077 1.0658
-0.32484353 -0.054482445 1.061389
-0.31780919 -0.051109668 1.0600001
-0.18362953 -0.055838991 1.0604001
-0.17496583 -0.05490721 1.0615999
-0.1646668 -0.054885846 1.0611999
-0.15510394 -0.055307858 1.0627407
-0.14712098 -0.058137905 1.0662
-0.35313097 -0.040940508 1.0662
-0.34560874 -0.040633503 1.0655001
-0.33955142 -0.040222343 1.067
-0.32489866 -0.045170691 1.0667999
-0.31533182 -0.044656496 1.0633333
-0.30514532 -0.044303529 1.0631922
-0.29668176 -0.043347903 1.0602728
-0.17437437 -0.045847006 1.0624443
-0.16687596 -0.048079725 1.0670002
-0.36013028 -0.033674516 1.067
-0.354727 -0.034323409 1.0660909
-0.34477544 -0.034657765 1.0610435
-0.33444965 -0.037639424 1.0627002
-0.32499161 -0.037170079 1.062889
-0.31534559 -0.037463315 1.0610909
-0.3038702 -0.037867617 1.0600001
-0.29561007 -0.038306437 1.0600001
-0.28807268 -0.037790176 1.0600001
-0.17115706 -0.034908868 1.0605457
-0.16855302 -0.033039637 1.0646
-0.35264704 -0.0280621 1.067
-0.34468541 -0.025407044 1.0652106
-0.33630869 -0.02325034 1.0609001
-0.27785072 -0.028807266 1.0600001
-0.24207398 -0.021837767 1.0600001
-0.23510447 -0.021373134 1.0600001
-0.22506838 -0.021373134 1.0600001
-0.21651913 -0.021373134 1.0600001
-0.209085 -0.021373134 1.0600001
-0.1708523 -0.024028182 1.0600001
-0.16687287 -0.024888191 1.0625715
-0.34235761 -0.019643471 1.067
-0.33447826 -0.016756665 1.0659335
-0.32558942 -0.014868408 1.0631999
-0.31650427 -0.012097258 1.0616155
-0.24068007 -0.018585334 1.0600001
-0.23396488 -0.016288143 1.060158
-0.22506195 -0.015019104 1.0614856
-0.21493837 -0.014883021 1.0613666
-0.20656651 -0.013476174 1.0601877
-0.19437656 -0.01183459 1.0602002
-0.18479803 -0.014020951 1.0612592
-0.17494476 -0.015046201 1.0623869
-0.16751127 -0.017177846 1.0651
-0.32302594 -0.0077950279 1.067
-0.31455356 -0.0068756174 1.0652728
-0.3048977 -0.0040366109 1.0639445
-0.29532832 -0.002503288 1.061154
-0.28900194 -0.0018585334 1.0600001
-0.23138739 -0.0083633997 1.0600001
-0.2237709 -0.0058274791 1.061
-0.21512741 -0.0047394545 1.0643702
-0.20518602 -0.0045891134 1.0638845
-0.19516024 -0.0041058781 1.0673823
-0.18578556 -0.0071137454 1.0657694
-0.30119988 0.0018708066 1.067
-0.29443184 0.0022442664 1.0662001
-0.28507337 0.0049922038 1.0628824
-0.27601054 0.0070737354 1.0615001
-0.26669952 0.0083633997 1.0600001
-0.2202362 0.00092926668 1.0600001
-0.21335964 0.0024160934 1.0600002
-0.20615311 0.004819951 1.062826
-0.2815564 0.010289436 1.067
-0.27488059 0.012155422 1.0665002
-0.26439971 0.013823362 1.0642858
-0.25567701 0.015233836 1.0635556
-0.24534272 0.016107792 1.0633636
-0.2350782 0.016934486 1.0621819
-0.22562002 0.016922666 1.0627896
-0.21548526 0.019223252 1.061
-0.20411213 0.015268845 1.0621998
-0.19924091 0.019643471 1.067
-0.23603344 0.021514276 1.067
-0.22356141 0.021514276 1.067
-0.21408404 0.022873109 1.0648334
-0.20426378 0.023944251 1.0639443
-0.30446562 -0.2532455 1.073
-0.29923263 -0.25795916 1.0700001
-0.31123945 -0.24257541 1.0700001
-0.3071121 -0.24632755 1.0700001
-0.32076618 -0.23046252 1.0730001
-0.31590551 -0.23424666 1.0706427
-0.32119095 -0.22638777 1.0760001
-0.31488591 -0.22626573 1.0724581
-0.30838063 -0.22869973 1.0718
-0.16211189 -0.2147408 1.0719999
-0.15894537 -0.21553947 1.0760001
-0.19166651 -0.20488489 1.077
-0.18859307 -0.20271032 1.0738333
-0.16259453 -0.20530491 1.0728235
-0.15956473 -0.20771739 1.077
-0.34084538 -0.19166651 1.077
-0.33376408 -0.19308275 1.077
-0.31411812 -0.19326435 1.0769999
-0.30779943 -0.19261068 1.077
-0.2120606 -0.1939325 1.077
-0.2046538 -0.19448371 1.0745999
-0.19500713 -0.19477518 1.0741667
-0.18604688 -0.19413498 1.0729001
-0.17941552 -0.19162574 1.0715001
-0.16350368 -0.19581474 1.0724546
-0.34312627 -0.18524928 1.0767499
-0.3343612 -0.18554953 1.0743599
-0.32483685 -0.18516183 1.0745908
-0.31475848 -0.18535157 1.0740799
-0.30504921 -0.18501806 1.0742307
-0.29561937 -0.18458158 1.0754443
-0.2863549 -0.18310131 1.0766
-0.27475348 -0.18146947 1.077
-0.26531178 -0.18071415 1.077
-0.25492591 -0.18285425 1.077
-0.23358765 -0.18109182 1.077
-0.22580187 -0.18193428 1.0769999
-0.2148014 -0.1848696 1.0737
-0.20524587 -0.1852152 1.0712222
-0.19509204 -0.18498652 1.0706922
-0.18476123 -0.18570924 1.0731922
-0.1767114 -0.18410215 1.0718
-0.1670825 -0.18385535 1.07275
-0.35484758 -0.17389126 1.0750834
-0.34545016 -0.17507978 1.07225
-0.33632281 -0.17707656 1.0704615
-0.32603359 -0.17862834 1.0700001
-0.30472147 -0.17753114 1.0707499
-0.29537249 -0.1776017 1.0710714
-0.28473005 -0.17692679 1.0707895
-0.27498797 -0.17570132 1.0712272
-0.26518962 -0.17517781 1.0723749
-0.25479898 -0.17488627 1.0724999
-0.24578772 -0.17314498 1.0742142
-0.23491265 -0.17487262 1.0741177
-0.22509092 -0.17461075 1.0718637
-0.21524334 -0.17579637 1.0713749
-0.19917576 -0.17791365 1.0700001
-0.18150944 -0.17775731 1.0700001
-0.17515463 -0.17609344 1.0701499
-0.16794643 -0.17484497 1.0726666
-0.36503255 -0.16355754 1.0714375
-0.35700846 -0.16754417 1.0716667
-0.26296201 -0.1691587 1.0700001
-0.24503517 -0.16769952 1.0700001
-0.23919851 -0.16978404 1.0700001
-0.22262657 -0.1691587 1.0700001
-0.21856177 -0.16978404 1.0700001
-0.16514874 -0.16506752 1.0720453
-0.39290959 -0.15201136 1.077
-0.38602853 -0.15198395 1.075857
-0.3753193 -0.15294176 1.0703
-0.36395693 -0.15852763 1.0700001
-0.16390845 -0.15509681 1.0705216
-0.15745558 -0.15289943 1.0700001
-0.38271537 -0.14586769 1.0766922
-0.37515286 -0.14496237 1.0724999
-0.36451975 -0.14577039 1.0700001
-0.16278626 -0.14714976 1.0702499
-0.15664281 -0.14624418 1.0709231
-0.38087815 -0.13652697 1.077
-0.37456504 -0.13533044 1.0747894
-0.36487359 -0.1341369 1.0706521
-0.35926676 -0.13038664 1.0700001
-0.1560262 -0.13851626 1.0700001
-0.37260386 -0.12660462 1.0769999
-0.36490279 -0.12548925 1.0755454
-0.14602052 -0.12225702 1.0700001
-0.36385313 -0.11634154 1.0764285
-0.35553521 -0.11511924 1.0723636
-0.34688979 -0.11329328 1.0704
-0.33863002 -0.11162597 1.0700001
-0.14188026 -0.11143643 1.0718
-0.1391416 -0.11225132 1.0700001
-0.37376818 -0.10242935 1.0747143
-0.36500967 -0.1048811 1.0733076
-0.35583755 -0.10682987 1.0705
-0.34566528 -0.10904638 1.0700001
-0.33863002 -0.1097499 1.0700001
-0.14132097 -0.10610922 1.071125
-0.13614194 -0.10404084 1.0709999
-0.37552598 -0.097242795 1.0700001
-0.13428204 -0.09531156 1.0711665
-0.12911108 -0.09235508 1.075
-0.39230263 -0.084503211 1.077
-0.38599506 -0.08420305 1.0738888
-0.3799035 -0.082546934 1.0700001
-0.1339099 -0.085864693 1.0732
-0.12935129 -0.089696147 1.077
-0.38390756 -0.075123027 1.0756665
-0.37564471 -0.073388226 1.0715624
-0.36536399 -0.070821524 1.0700001
-0.13382286 -0.074433669 1.0725
-0.3805005 -0.068924412 1.077
-0.37431711 -0.067398816 1.0761112
-0.36507264 -0.06554687 1.0732777
-0.35578266 -0.062044203 1.0700001
-0.14226839 -0.061597522 1.0700001
-0.13645731 -0.064691551 1.0727367
-0.36161712 -0.059482709 1.077
-0.35420284 -0.055316694 1.0753158
-0.34581053 -0.054716486 1.0707059
-0.33637872 -0.051967043 1.0700001
-0.15164872 -0.052217185 1.0700001
-0.14419569 -0.054596778 1.0723846
-0.13819203 -0.058011223 1.0760001
-0.36442682 -0.041602738 1.0736001
-0.35482693 -0.045326684 1.0745555
-0.34420425 -0.045802359 1.0722272
-0.33523592 -0.045188028 1.0715516
-0.32924971 -0.043618549 1.0700001
-0.16445711 -0.043857913 1.0714999
-0.15509585 -0.045355931 1.0735333
-0.14750236 -0.047681581 1.0741818
-0.37218028 -0.035497546 1.0727501
-0.36575708 -0.034898557 1.0704285
-0.16527916 -0.035419326 1.0734545
-0.15862057 -0.03871097 1.077
-0.37105882 -0.029269271 1.077
-0.36391917 -0.025764849 1.0736874
-0.35579431 -0.024668317 1.0701764
-0.34926105 -0.022200122 1.0700001
-0.16393006 -0.025743317 1.073
-0.36188975 -0.01979075 1.075
-0.35462698 -0.018238651 1.0745454
-0.34477571 -0.015275165 1.0735713
-0.3357245 -0.01220469 1.0709001
-0.17259812 -0.010318367 1.0700001
-0.16516834 -0.014579888 1.0729499
-0.33390069 -0.0065931468 1.0747
-0.3255567 -0.0036996361 1.0716469
-0.3155742 -0.0025464657 1.0704285
-0.20167716 -0.00093803334 1.0700001
-0.18465808 -0.0029410995 1.0713999
-0.17486255 -0.0046970039 1.0723999
-0.16722417 -0.0053421147 1.0756667
-0.32358053 0.0017534586 1.077
-0.31411883 0.0029589371 1.0727857
-0.30516848 0.0047063362 1.0725555
-0.29585734 0.006585082 1.0725
-0.28891426 0.0084423004 1.0700001
-0.20171031 0.0046959049 1.0710908
-0.19553058 0.0040587373 1.0747826
-0.18548502 0.0025614947 1.0755713
-0.17742629 0.0013204354 1.0754001
-0.29174852 0.01133004 1.077
-0.28468391 0.014497524 1.0734999
-0.27496141 0.017715117 1.0714999
-0.26680347 0.018894671 1.0700001
-0.2560831 0.0196987 1.0700001
-0.24670276 0.0196987 1.0700001
-0.19684616 0.015340484 1.0731922
-0.27475348 0.021715909 1.077
-0.26522067 0.022524755 1.0745454
-0.25413007 0.025145318 1.0724347
-0.24508065 0.02539826 1.07276
-0.2350501 0.025947286 1.0728333
-0.22532268 0.02562424 1.0724167
-0.21547586 0.027522545 1.0711539
-0.20623334 0.028543014 1.0700001
-0.19561069 0.025394846 1.0727667
-0.18977816 0.024548419 1.077
-0.23320998 0.031157607 1.077
-0.22565663 0.031157609 1.077
-0.21474726 0.033000361 1.0754615
-0.2052619 0.033148516 1.0737894
-0.19657876 0.032082494 1.0763334
-0.31255475 -0.25365794 1.0836667
-0.3096036 -0.25468919 1.08
-0.32371393 -0.2225426 1.0828573
-0.31467012 -0.22198811 1.0839231
-0.32435873 -0.21461192 1.0847999
-0.31501883 -0.21441847 1.0848887
-0.30561212 -0.21283996 1.086
-0.29474416 -0.21281581 1.0853333
-0.28508648 -0.21337265 1.0863477
-0.27730456 -0.21059901 1.087
-0.20392844 -0.21155193 1.087
-0.19671626 -0.21229254 1.085909
-0.15735742 -0.21213214 1.0835
-0.33307505 -0.20279427 1.0847501
-0.32546958 -0.20512655 1.0834781
-0.3147282 -0.20479631 1.0834781
-0.30516052 -0.20444322 1.0838331
-0.29520974 -0.20468135 1.0820951
-0.28474423 -0.20431727 1.0833101
-0.27500263 -0.20459031 1.0854399
-0.26540717 -0.20355436 1.0854999
-0.25556213 -0.20343807 1.0854999
-0.24728706 -0.20154612 1.087
-0.21369827 -0.20376877 1.0861428
-0.20466618 -0.20556977 1.0847894
-0.19583265 -0.20460548 1.0817499
-0.16000921 -0.20356198 1.08
-0.15617448 -0.20483685 1.0853332
-0.34179479 -0.194094 1.08
-0.33508247 -0.19522887 1.0802106
-0.3246218 -0.19487756 1.08
-0.31559998 -0.19835459 1.08
-0.30384046 -0.19516432 1.08
-0.29432419 -0.19487756 1.08
-0.28493541 -0.19478807 1.0828385
-0.27463862 -0.19481285 1.0839998
-0.2649799 -0.19469982 1.0833598
-0.25470239 -0.19464193 1.0818517
-0.24543133 -0.19457766 1.0851152
-0.23497806 -0.19377045 1.0868125
-0.22499295 -0.19492839 1.0864782
-0.21638331 -0.19578959 1.0829231
-0.208296 -0.1997748 1.08
-0.194094 -0.1997748 1.08
-0.16150306 -0.1943125 1.0812308
-0.15606333 -0.19508246 1.0854999
-0.3539007 -0.18300417 1.0830001
-0.34781989 -0.18565887 1.08
-0.29350799 -0.1884132 1.08
-0.28424916 -0.18697523 1.0802857
-0.27475372 -0.186369 1.0815555
-0.26497912 -0.18572609 1.0811428
-0.25468922 -0.18481538 1.08
-0.24587826 -0.18511863 1.0828799
-0.23597603 -0.18588807 1.0818181
-0.22489567 -0.18728375 1.0816667
-0.2187108 -0.1884132 1.08
-0.16307293 -0.18456176 1.0846498
-0.15702039 -0.1869154 1.0865384
-0.37135053 -0.17260097 1.0847501
-0.36493623 -0.17383987 1.0835834
-0.35557738 -0.17883158 1.0816
-0.3493692 -0.1789452 1.08
-0.2455852 -0.17826352 1.0816
-0.23859361 -0.1789452 1.08
-0.16412066 -0.17566048 1.0846666
-0.36451799 -0.16947719 1.08
-0.16314942 -0.16884074 1.082
-0.39426723 -0.14391243 1.083421
-0.38702729 -0.14370288 1.0803636
-0.39247626 -0.13539319 1.0861
-0.38588542 -0.13475068 1.0814999
-0.37966681 -0.132552 1.08
-0.39165697 -0.12674057 1.087
-0.38511613 -0.1252889 1.0827272
-0.37717524 -0.12383147 1.08
-0.36830521 -0.1221372 1.08
-0.38297504 -0.11573358 1.0859286
-0.37445039 -0.11470324 1.0813333
-0.36699867 -0.11443978 1.0803334
-0.38136524 -0.10806302 1.087
-0.3748332 -0.10706766 1.0808001
-0.36767399 -0.1082508 1.08
-0.4000791 -0.080776066 1.0840001
-0.39502603 -0.082371607 1.08
-0.13116549 -0.084944703 1.0833334
-0.12790053 -0.085489906 1.0852858
-0.40152857 -0.076552033 1.0857142
-0.39445335 -0.074904159 1.0816
-0.38866138 -0.072430201 1.08
-0.13165252 -0.074861325 1.0848572
-0.39351389 -0.0674164 1.085909
-0.38506922 -0.064813718 1.0819999
-0.37562656 -0.063224092 1.0807334
-0.36769941 -0.062545784 1.0810001
-0.13251205 -0.06514997 1.0840001
-0.38350353 -0.058999225 1.0855
-0.37491944 -0.056985278 1.0854443
-0.36477485 -0.054590821 1.0829999
-0.35748461 -0.052073997 1.08
-0.1410732 -0.051127199 1.08
-0.13671796 -0.054810591 1.0834705
-0.38022172 -0.040976275 1.087
-0.37329563 -0.044721838 1.0853332
-0.36535197 -0.046665408 1.0819
-0.35883719 -0.048286799 1.08
-0.15243481 -0.040712401 1.08
-0.1440876 -0.044017442 1.0837141
-0.13874477 -0.048465639 1.0840001
-0.38107297 -0.03421104 1.0840001
-0.37785524 -0.032832921 1.0824001
-0.16090539 -0.03369556 1.0805714
-0.15473287 -0.034998387 1.0839583
-0.14764208 -0.036268309 1.0865384
-0.38022172 -0.027635163 1.087
-0.37409481 -0.024680456 1.0830555
-0.3687599 -0.023696885 1.0813334
-0.16167262 -0.026083268 1.0841111
-0.15684371 -0.028892158 1.0864999
-0.36432964 -0.015444016 1.0843749
-0.35517663 -0.013082028 1.0815333
-0.347949 -0.0108882 1.08
-0.16211881 -0.013113881 1.084
-0.15914042 -0.012388176 1.087
-0.35324678 -0.0066634556 1.0861
-0.34541324 -0.0045629246 1.0831426
-0.33690301 -0.0029982 1.08
-0.16332166 -0.0045259721 1.0835295
-0.15914042 -0.0057176203 1.087
-0.34353516 0.0015877894 1.0865
-0.33422488 0.0035694579 1.0846249
-0.32506731 0.0061727199 1.0826249
-0.3152844 0.0075744004 1.08
-0.30771002 0.0085212002 1.08
-0.1927201 0.0081487913 1.0808001
-0.18474333 0.0069310614 1.0815384
-0.17467612 0.0053095683 1.0838748
-0.16624023 0.0023360774 1.0847272
-0.32388061 0.011018573 1.0861428
-0.31467983 0.011681982 1.0856363
-0.3053956 0.014028684 1.0855217
-0.29561332 0.015660042 1.0824999
-0.2872591 0.019125359 1.08
-0.19245495 0.014370379 1.0828665
-0.18598703 0.012853468 1.0858749
-0.17733738 0.010857692 1.0864
-0.30160445 0.020488137 1.087
-0.29470357 0.023226932 1.0857999
-0.2843748 0.024520271 1.0848888
-0.27496365 0.026525905 1.0825262
-0.26505023 0.027486188 1.0810666
-0.25847641 0.0293508 1.08
-0.1903068 0.0293508 1.08
-0.18919826 0.024717176 1.0845001
-0.27444574 0.031446911 1.087
-0.26567343 0.032245751 1.0853333
-0.25466257 0.032960441 1.0836154
-0.24481577 0.034837317 1.0840434
-0.23529847 0.035566248 1.0836085
-0.22538178 0.034971323 1.0838499
-0.21535027 0.03779266 1.0831
-0.20461205 0.038057074 1.0822223
-0.19486871 0.035544567 1.082409
-0.18928547 0.033293169 1.085
-0.24109298 0.040976275 1.087
-0.23664594 0.040976275 1.087
-0.21288605 0.04135745 1.087
-0.20453317 0.042367984 1.086
-0.19749612 0.042643916 1.087
-0.26350671 -0.24138753 1.097
-0.25437051 -0.24667691 1.097
-0.24908116 -0.24715775 1.097
-0.3119472 -0.23284149 1.0960001
-0.30550107 -0.23273222 1.097
-0.29370421 -0.23350155 1.097
-0.28565922 -0.23506492 1.0964546
-0.27501231 -0.23436451 1.0968637
-0.26430812 -0.23545708 1.097
-0.25662681 -0.23502548 1.097
-0.31202248 -0.22603486 1.092091
-0.30510747 -0.22546582 1.0950345
-0.2943106 -0.2252512 1.094125
-0.2846362 -0.22521998 1.0932
-0.27525401 -0.22538221 1.094
-0.26505297 -0.22557545 1.0958388
-0.25505745 -0.22469519 1.097
-0.24535365 -0.22438544 1.0967144
-0.23595673 -0.22317177 1.097
-0.22984709 -0.22600028 1.097
-0.2118953 -0.22151232 1.097
-0.2067028 -0.22400938 1.0966668
-0.31055915 -0.21882476 1.09
-0.30442601 -0.21846183 1.092
-0.29577038 -0.21832155 1.0906668
-0.28666997 -0.21882476 1.09
-0.27548441 -0.21543649 1.0915172
-0.26578209 -0.21559936 1.0938333
-0.25559938 -0.21522653 1.094375
-0.24468666 -0.21520478 1.0926956
-0.23525101 -0.21445324 1.0946
-0.22551653 -0.21421383 1.0965201
-0.21478549 -0.21459484 1.09375
-0.20544159 -0.21651737 1.0914286
-0.15399779 -0.21469192 1.0945001
-0.14842288 -0.21125416 1.097
-0.27042538 -0.20926909 1.09
-0.26387292 -0.20872305 1.09
-0.25343752 -0.2071456 1.09
-0.24512561 -0.20608386 1.09
-0.23570322 -0.20530082 1.0914816
-0.22505292 -0.20494469 1.0924
-0.21619694 -0.20759685 1.09
-0.15114686 -0.20510668 1.0904446
-0.14565517 -0.20369864 1.0957369
-0.13752358 -0.20195769 1.097
-0.24175836 -0.19875787 1.09
-0.23550373 -0.19867101 1.09
-0.22551373 -0.19971344 1.09
-0.1510713 -0.19505249 1.0906668
-0.14479917 -0.19466399 1.09384
-0.1358261 -0.19422011 1.0944285
-0.12886825 -0.19330238 1.097
-0.36157066 -0.18606022 1.0940001
-0.35917297 -0.18701929 1.0940001
-0.15406606 -0.18425128 1.0929501
-0.14507899 -0.18638964 1.0959501
-0.13613406 -0.18679389 1.0955
-0.12965241 -0.18823479 1.0955
-0.36598203 -0.17677984 1.09
-0.16130216 -0.17500648 1.0942857
-0.15740477 -0.17884219 1.0948334
-0.40133798 -0.1404683 1.09
-0.3984713 -0.1404683 1.09
-0.40286848 -0.13570625 1.0944445
-0.39730519 -0.13434534 1.091091
-0.4010303 -0.12662427 1.097
-0.3959423 -0.12495048 1.0929412
-0.39401919 -0.1152072 1.09515
-0.38748041 -0.11377005 1.0905715
-0.39141324 -0.10771078 1.097
-0.38623688 -0.10648859 1.0918751
-0.40611583 -0.081223167 1.09
-0.13091263 -0.081223167 1.09
-0.1254921 -0.083413668 1.090889
-0.4062874 -0.073704563 1.0919286
-0.13091263 -0.076126814 1.09
-0.12597694 -0.076020956 1.094087
-0.11988416 -0.077684939 1.0940001
-0.40320542 -0.065794319 1.0947778
-0.39623731 -0.063375041 1.0915385
-0.13123117 -0.063704439 1.09
-0.12904796 -0.065547988 1.0927144
-0.40244946 -0.056394946 1.0965
-0.39496997 -0.055038605 1.0944999
-0.38513932 -0.053999159 1.0913334
-0.37539068 -0.053144209 1.09
-0.36980429 -0.052556165 1.09
-0.13346383 -0.054653239 1.0937001
-0.39141324 -0.04904687 1.097
-0.38535801 -0.046591595 1.094923
-0.37816548 -0.046583872 1.09
-0.1404683 -0.042044934 1.09
-0.13767105 -0.045958083 1.0947778
-0.38445631 -0.032807786 1.09
-0.14442669 -0.035084195 1.0923637
-0.3920812 -0.023989046 1.0946428
-0.38501868 -0.024462754 1.0913334
-0.37872291 -0.020703943 1.09
-0.16124646 -0.020753037 1.0926667
-0.15497662 -0.02500019 1.0935
-0.14848125 -0.028349867 1.0962501
-0.39295197 -0.017503001 1.097
-0.38463709 -0.016805699 1.0955
-0.37516451 -0.014470917 1.0936501
-0.36770499 -0.012435225 1.0913335
-0.16082801 -0.01818908 1.092
-0.15806811 -0.013439448 1.0950001
-0.37121749 -0.0076936265 1.097
-0.36431101 -0.0049979235 1.0949475
-0.3570483 -0.0030836265 1.0925556
-0.16149077 -0.00095556665 1.09
-0.15830252 -0.0059529175 1.0944
-0.36160046 0.0019234066 1.097
-0.35406461 0.0033646468 1.0960001
-0.34540826 0.0061160107 1.0936875
-0.33656576 0.0076497928 1.0906668
-0.17104644 0.0086000999 1.09
-0.16394821 0.0058029802 1.0936843
-0.15846407 0.0038428684 1.0955
-0.34279692 0.01271264 1.0966668
-0.33531463 0.013650187 1.0945556
-0.32543752 0.015651617 1.092889
-0.31580862 0.016430486 1.0907273
-0.30769247 0.0172002 1.09
-0.18438902 0.01641673 1.0915385
-0.17465015 0.014659462 1.0946364
-0.16750266 0.011530797 1.0960001
-0.32274246 0.021553854 1.0961429
-0.31435055 0.023051362 1.0954444
-0.30497637 0.02547323 1.0935218
-0.29479963 0.027928442 1.0926154
-0.28702065 0.028703237 1.0913334
-0.18689905 0.023777159 1.0952941
-0.17887682 0.020195769 1.097
-0.30389827 0.03173621 1.097
-0.29417437 0.032804769 1.097
-0.28520218 0.035232972 1.095
-0.2753894 0.036324363 1.0928183
-0.26515168 0.037180312 1.094375
-0.25599292 0.037715957 1.092909
-0.24844733 0.039178234 1.09
-0.22551373 0.039178234 1.09
-0.19102742 0.038589116 1.0913334
-0.18815206 0.034756877 1.0936251
-0.25411656 0.04215724 1.0956666
-0.24511804 0.043746881 1.0938462
-0.2353313 0.044002086 1.0940001
-0.22485399 0.043079648 1.0954286
-0.21489108 0.045969594 1.0935264
-0.20512997 0.047045279 1.091091
-0.19517775 0.045524277 1.0950527
-0.18945555 0.041353244 1.097
-0.21349813 0.050970275 1.097
-0.20401758 0.051244378 1.0960001
-0.19714919 0.050970275 1.097
-0.2933467 -0.25206447 1.108
-0.28416976 -0.25213701 1.10725
-0.27512565 -0.25211868 1.1067142
-0.26517764 -0.25157878 1.108
-0.31095806 -0.24121045 1.105
-0.30422935 -0.24437748 1.1074705
-0.29463351 -0.24521136 1.1055416
-0.28496504 -0.24527054 1.1044998
-0.27513149 -0.2445884 1.1020768
-0.26547509 -0.24564953 1.1035998
-0.25490752 -0.24330774 1.1029472
-0.24538858 -0.24426568 1.1063683
-0.23494895 -0.24344036 1.1068748
-0.22676532 -0.24229459 1.107
-0.31149459 -0.23805211 1.1023334
-0.30430135 -0.23601405 1.1023332
-0.29631948 -0.23744166 1.101
-0.28184131 -0.23840687 1.1010001
-0.27122402 -0.23840687 1.1010001
-0.25263005 -0.23524457 1.1019999
-0.24518357 -0.23469372 1.1026427
-0.23475224 -0.23475309 1.1019598
-0.22505815 -0.23471873 1.1017998
-0.21568055 -0.2341073 1.101
-0.20945057 -0.2316504 1.1010001
-0.16610028 -0.23020916 1.108
-0.24226771 -0.22875477 1.1010001
-0.23349309 -0.22647338 1.101
-0.22489396 -0.22489396 1.101
-0.21605463 -0.22570676 1.101
-0.20848536 -0.22875477 1.1010001
-0.16351002 -0.22761889 1.108
-0.15474501 -0.22320113 1.1042143
-0.14724493 -0.22183612 1.105
-0.22425045 -0.21845919 1.1010001
-0.15171915 -0.219368 1.1023334
-0.144814 -0.2158186 1.1022172
-0.13782638 -0.21319811 1.1045833
-0.14381629 -0.20848536 1.101
-0.13456628 -0.2056776 1.1035497
-0.12813194 -0.20486404 1.1063334
-0.13261986 -0.19864021 1.1010001
-0.12787059 -0.19858691 1.105
-0.15218145 -0.18113774 1.1010001
-0.14574671 -0.18145949 1.101
-0.13429803 -0.18292935 1.102111
-0.127491 -0.18417294 1.1034
-0.16202874 -0.17169254 1.1023334
-0.15467356 -0.17501184 1.104714
-0.144728 -0.17514598 1.105391
-0.13499282 -0.17543802 1.1042961
-0.12639321 -0.17492199 1.1045293
-0.16211338 -0.16735058 1.1059999
-0.15638681 -0.16852865 1.108
-0.14384322 -0.16783844 1.1075714
-0.13650504 -0.16774131 1.1071817
-0.12551528 -0.16918468 1.107
-0.41087964 -0.13307449 1.108
-0.40806028 -0.1334427 1.103
-0.40419242 -0.12183738 1.103
-0.40228289 -0.11482628 1.1027777
-0.39863172 -0.11196436 1.1010001
-0.40281817 -0.10579788 1.1072
-0.39560387 -0.10535537 1.1041538
-0.12323496 -0.072353408 1.1033999
-0.41170457 -0.062966585 1.105
-0.40744007 -0.063052885 1.1027778
-0.12616912 -0.066107079 1.1051538
-0.40362346 -0.053791974 1.1023334
-0.39766651 -0.05115613 1.1010001
-0.13136838 -0.0544319 1.1038749
-0.1291891 -0.057309452 1.108
-0.4018963 -0.048319411 1.1068001
-0.39576367 -0.044970676 1.1053528
-0.38833615 -0.042147502 1.1010001
-0.13580336 -0.045270577 1.103889
-0.39318341 -0.039026566 1.1073999
-0.38816109 -0.039105762 1.1060001
-0.14307262 -0.033923581 1.1056999
-0.13925353 -0.039093781 1.1056668
-0.39863172 -0.020269411 1.1010001
-0.15332898 -0.020615693 1.1023334
-0.14708337 -0.024490187 1.1048571
-0.4016124 -0.017121593 1.1056668
-0.3944546 -0.013479829 1.1046922
-0.3858012 -0.012132386 1.1023333
-0.37932754 -0.01061731 1.1010001
-0.15410928 -0.016461987 1.1046427
-0.14861605 -0.018455587 1.108
-0.3914527 -0.0087421201 1.108
-0.3839401 -0.0073714508 1.1064999
-0.37559664 -0.0049948813 1.1037499
-0.36774501 -0.00096520997 1.1010001
-0.15588142 -0.0067564696 1.1010001
-0.37450409 0.0020503285 1.1076666
-0.36478812 0.0051241168 1.1049999
-0.35671902 0.0067669898 1.1027143
-0.16119006 0.0086868899 1.1010001
-0.15782528 0.0077472492 1.1044999
-0.36036962 0.010684813 1.108
-0.35445625 0.01330467 1.1064284
-0.34619209 0.016128695 1.1035833
-0.33492789 0.018338989 1.1010001
-0.17277259 0.018338989 1.1010001
-0.16445307 0.014884882 1.1038094
-0.15908387 0.012613041 1.1065
-0.35065615 0.02039828 1.108
-0.34531373 0.02039828 1.108
-0.33435416 0.020714406 1.1042001
-0.32503214 0.024982149 1.1029166
-0.31581476 0.027686303 1.1016666
-0.30983239 0.029921509 1.1010001
-0.1832083 0.02552365 1.1015713
-0.17551516 0.023932502 1.1043808
-0.16824846 0.021153267 1.1068001
-0.31393597 0.032017998 1.1067142
-0.30419189 0.035513494 1.1059374
-0.2954776 0.037540302 1.1030908
-0.28763258 0.03957361 1.1010001
-0.18584929 0.034601197 1.1067221
-0.17872779 0.030111747 1.108
-0.2933467 0.042739253 1.108
-0.28534415 0.04334503 1.1062306
-0.27443495 0.042993922 1.1061665
-0.26492459 0.043921269 1.1056921
-0.25572991 0.045928016 1.102875
-0.24498868 0.048525937 1.1045556
-0.23344612 0.047978505 1.1018889
-0.22524489 0.047997262 1.101
-0.19134815 0.047320839 1.1015714
-0.1876183 0.045520362 1.1047273
-0.24229459 0.052082475 1.107
-0.2355756 0.051719073 1.1071428
-0.22392887 0.051949948 1.1041666
-0.21487963 0.055624172 1.1048945
-0.20539668 0.054281153 1.1034445
-0.1950483 0.053243306 1.1041874
-0.18835576 0.053400833 1.1075
-0.33332181 -0.25121322 1.115
-0.28376758 -0.25641775 1.1142501
-0.27100921 -0.25346187 1.1120001
-0.26808468 -0.252487 1.1120001
-0.33267015 -0.24795492 1.115
-0.24078877 -0.24858759 1.1120001
-0.23580344 -0.24783631 1.113
-0.22909053 -0.2466379 1.1120001
-0.16215375 -0.22808783 1.1142501
-0.15792623 -0.22909053 1.1120001
-0.13393505 -0.21419892 1.113125
-0.12868065 -0.21154317 1.1120001
-0.12545426 -0.20583658 1.1142858
-0.15500169 -0.17059933 1.1120001
-0.16163066 -0.16319045 1.1120001
-0.15482531 -0.16466708 1.1131737
-0.14605939 -0.16336963 1.1125627
-0.1342828 -0.16412327 1.1134286
-0.12603615 -0.16457063 1.113579
-0.16085079 -0.1589011 1.1120001
-0.15483318 -0.1550325 1.1171033
-0.14538598 -0.15500696 1.1153075
-0.13468133 -0.15475038 1.1151764
-0.12515514 -0.15552571 1.1157618
-0.15303445 -0.14518651 1.1190001
-0.14305744 -0.14580004 1.1182002
-0.13517889 -0.14667983 1.1179334
-0.12594412 -0.14799535 1.118
-0.40846354 -0.1023596 1.1120001
-0.12403037 -0.064053796 1.1155001
-0.12641631 -0.055355359 1.1160526
-0.41103479 -0.040220588 1.1190001
-0.40586838 -0.041831464 1.11625
-0.13278076 -0.0454298 1.1153334
-0.12778951 -0.047980841 1.117
-0.4029581 -0.037519328 1.1137143
-0.39774016 -0.038019281 1.1120001
-0.14160551 -0.031444632 1.1140001
-0.1382499 -0.036149353 1.1145
-0.14357553 -0.023992006 1.1153077
-0.40376177 -0.013033842 1.1151668
-0.39871502 -0.010723387 1.1120001
-0.15264399 -0.011965514 1.114375
-0.14645006 -0.015009574 1.1136875
-0.40318689 -0.0078479201 1.1190001
-0.39479578 -0.005945283 1.1166154
-0.38613093 -0.0027118223 1.1144444
-0.37775567 -0.0014622801 1.1120001
-0.16128474 -0.0019549667 1.115
-0.15679233 -0.005178846 1.1168572
-0.14603689 -0.0078400299 1.118
-0.38519788 0.0034284245 1.1170834
-0.37540761 0.0062530874 1.1140001
-0.36751971 0.0087736798 1.1120001
-0.16128474 0.00097748335 1.115
-0.15839846 0.0029304046 1.1153333
-0.37179521 0.01079089 1.1190001
-0.36483613 0.014109951 1.1152858
-0.35695717 0.017555689 1.1125001
-0.16150069 0.017872313 1.1120001
-0.15684237 0.013558716 1.1162145
-0.36002332 0.02060079 1.1190001
-0.35806134 0.02060079 1.1190001
-0.3423315 0.025157264 1.1178334
-0.33584282 0.0262211 1.116889
-0.32941189 0.028347017 1.115
-0.17197584 0.026983654 1.1125001
-0.16579233 0.024058949 1.1155335
-0.15990137 0.02060079 1.1190001
-0.32368281 0.033762943 1.1172669
-0.31528848 0.036096111 1.1128182
-0.30610394 0.039481558 1.1120001
-0.18225349 0.035919823 1.1128182
-0.1755888 0.033304054 1.1152942
-0.16971126 0.03139168 1.1190001
-0.32078373 0.040220588 1.1190001
-0.31489602 0.042668741 1.117
-0.30552414 0.044518191 1.1153158
-0.29584643 0.045742888 1.1132667
-0.2843591 0.047312602 1.1127501
-0.27491111 0.047658704 1.1129233
-0.26513159 0.048649251 1.1123334
-0.25552687 0.049089972 1.1125001
-0.18446909 0.043996979 1.1153334
-0.30214494 0.050030489 1.1190001
-0.29658595 0.051992472 1.1190001
-0.28571332 0.050766233 1.1190001
-0.27558279 0.054061394 1.1180772
-0.26443276 0.054088876 1.1163332
-0.25488269 0.055576619 1.1153749
-0.24543253 0.056449313 1.11585
-0.23501031 0.056448527 1.1143888
-0.22571635 0.057103232 1.1128824
-0.21544258 0.059466053 1.1120001
-0.20569405 0.0584912 1.1120002
-0.19510107 0.058531299 1.1127501
-0.18617418 0.054699093 1.1142
-0.23445661 0.061802369 1.1190001
-0.22340316 0.063064985 1.11525
-0.21513104 0.064348862 1.1154501
-0.20511526 0.063331515 1.1159335
-0.19541806 0.062600717 1.1176667
-0.18933107 0.061802369 1.1190001
-0.28341526 -0.26520571 1.1245883
-0.27773917 -0.26370358 1.1256667
-0.34162036 -0.25104666 1.123
-0.3383387 -0.25170299 1.123
-0.28255054 -0.25892264 1.123
-0.27664354 -0.25892264 1.123
-0.34353462 -0.24539965 1.1254002
-0.33768234 -0.24531867 1.123
-0.34333262 -0.2349171 1.1256002
-0.33866686 -0.23627919 1.123
-0.12462101 -0.20441917 1.12375
-0.15653497 -0.15062799 1.123
-0.15434518 -0.14496452 1.1234285
-0.14597403 -0.14293101 1.123
-0.1346671 -0.14254922 1.1240002
-0.12599534 -0.14344929 1.1240716
-0.1526774 -0.13635835 1.1249092
-0.14528824 -0.13569075 1.1253181
-0.13780688 -0.13714881 1.1255
-0.12339083 -0.13523635 1.126
-0.14708187 -0.12931359 1.126
-0.12109309 -0.063007787 1.123
-0.11851993 -0.062378194 1.1235
-0.12255338 -0.053879455 1.1249093
-0.11812615 -0.055608135 1.126
-0.41250411 -0.042333357 1.123
-0.13272418 -0.041217707 1.1248
-0.12722537 -0.045367498 1.125
-0.13611381 -0.035113044 1.1251
-0.14097106 -0.027601412 1.1245
-0.13918486 -0.028626673 1.126
-0.40334496 -0.0045969477 1.1240001
-0.39692965 -0.0019694315 1.1235
-0.15475614 -0.0047750687 1.1243848
-0.14800267 -0.0055788141 1.123
-0.39527673 0.0029589892 1.1249092
-0.38568816 0.0081280144 1.1237501
-0.37903121 0.0088604698 1.123
-0.15596601 0.0019742534 1.126
-0.38557166 0.012437797 1.1260002
-0.37509987 0.013034184 1.1243334
-0.36869225 0.017745925 1.1245
-0.15761124 0.018097321 1.126
-0.36302 0.021702981 1.12525
-0.35370195 0.024855869 1.1251
-0.34734833 0.025328415 1.123
-0.33866683 0.025596911 1.123
-0.16375457 0.026050027 1.1242858
-0.35042995 0.031588051 1.126
-0.34397396 0.033659562 1.1250627
-0.33562449 0.034236584 1.1244998
-0.32868123 0.036426377 1.123
-0.17330411 0.037067305 1.1245
-0.16766162 0.032547127 1.1250001
-0.33290848 0.0417061 1.126
-0.32489571 0.04351842 1.1245002
-0.31614479 0.047414895 1.1234286
-0.30814746 0.048240338 1.123
-0.18237582 0.044610273 1.1245
-0.17727442 0.041770387 1.1255
-0.31268242 0.051432528 1.1251428
-0.3043341 0.053376537 1.1245002
-0.29469943 0.054783773 1.1238998
-0.28474703 0.05552806 1.1243334
-0.27358261 0.057307951 1.1242858
-0.26811126 0.057428971 1.123
-0.18525076 0.053633884 1.126
-0.29317662 0.060708292 1.126
-0.28706515 0.06116043 1.12525
-0.27507314 0.062318154 1.1257859
-0.26513761 0.061970543 1.1250001
-0.25493672 0.062637039 1.1243638
-0.2451726 0.064499542 1.124579
-0.23568138 0.064748786 1.1254376
-0.22639234 0.06641899 1.1233335
-0.21363579 0.069242932 1.123
-0.20450817 0.067700841 1.1238573
-0.19532757 0.066059753 1.1246667
-0.18829003 0.061121635 1.1245
-0.23987179 0.070085995 1.126
-0.22249834 0.070480846 1.126
-0.21486457 0.071073122 1.126
-0.2056514 0.070085995 1.126
-0.35316271 -0.24295363 1.1311429
