# .PCD v0.7 - Point Cloud Data file format
VERSION 0.7
FIELDS x y z
SIZE 4 4 4
TYPE F F F
COUNT 1 1 1
WIDTH 1429
HEIGHT 1
VIEWPOINT 0 0 0 1 0 0 0
POINTS 1429
DATA ascii
-0.23359139 0.0034890021 0.9710499
-0.22598986 0.0047908789 0.9752425
-0.21691714 0.00085737999 0.97799999
-0.3509542 0.01629022 0.9780001
-0.34552419 0.018119298 0.97799993
-0.33384645 0.017227288 0.97770005
-0.32830024 0.018403424 0.97650003
-0.30265513 0.01114594 0.97800004
-0.29475883 0.012167959 0.9774
-0.28446841 0.013845795 0.97577268
-0.27476948 0.015248653 0.97316664
-0.26545998 0.016555125 0.97147828
-0.2560173 0.018226465 0.97021449
-0.2474567 0.019558433 0.97000003
-0.22468337 0.015420535 0.97346431
-0.21967074 0.019659249 0.97500002
-0.35066843 0.021434499 0.97800004
-0.34413159 0.024193516 0.97783333
-0.33499005 0.024624033 0.9756788
-0.32551983 0.026015645 0.97558087
-0.31586793 0.027163077 0.97668195
-0.30482128 0.028061133 0.97626317
-0.29512486 0.028472064 0.97578579
-0.28976026 0.029916249 0.97500002
-0.27178946 0.021434499 0.97799999
-0.26359767 0.023322605 0.97560012
-0.25497577 0.02485056 0.97473085
-0.24483328 0.025468703 0.97224981
-0.23508351 0.025578706 0.97241163
-0.22512342 0.025414428 0.97306061
-0.21915132 0.02396982 0.97650003
-0.33123448 0.03172306 0.97799999
-0.32445115 0.033497065 0.97705269
-0.31504342 0.03459603 0.97530782
-0.30481941 0.035667792 0.97230285
-0.29531711 0.034993492 0.97359985
-0.28676608 0.035452869 0.97645849
-0.25314143 0.031080022 0.9780001
-0.24466315 0.032981593 0.97641194
-0.23582497 0.033705153 0.97694129
-0.22475605 0.030743195 0.9780001
-0.31281424 0.042160362 0.977
-0.30475613 0.044194728 0.97449994
-0.29506713 0.044242524 0.97317111
-0.28478429 0.044203706 0.97368401
-0.27602348 0.046501648 0.97510004
-0.29392922 0.052063402 0.97645456
-0.28454745 0.053873975 0.97431016
-0.27477598 0.054517567 0.97382855
-0.26706538 0.055637684 0.97640914
-0.27316862 0.061142243 0.97680008
-0.26522881 0.061383322 0.977
-0.31046361 -0.22532262 0.98100007
-0.30603769 -0.22464734 0.9812308
-0.31046361 -0.21930255 0.98100007
-0.3087436 -0.21930255 0.98100007
-0.33262071 -0.20363376 0.98842859
-0.32579851 -0.20168881 0.98500001
-0.33309606 -0.19587997 0.98841196
-0.32643488 -0.19660278 0.98657912
-0.33033589 -0.18987811 0.98900002
-0.19477187 -0.17188123 0.98525
-0.19333075 -0.16369364 0.9855386
-0.18848157 -0.16075173 0.9885
-0.22282499 -0.15172908 0.98900002
-0.1943789 -0.15511446 0.98231995
-0.18728697 -0.15493014 0.98664719
-0.23394796 -0.14225642 0.98877782
-0.22547446 -0.1444823 0.98739141
-0.21930255 -0.14276166 0.98100007
-0.19366181 -0.14484581 0.98433334
-0.1889471 -0.14821044 0.98866659
-0.35114443 -0.13092053 0.98900002
-0.34455508 -0.13092053 0.98900002
-0.33727208 -0.13092053 0.98900002
-0.25056973 -0.13092053 0.98900002
-0.24428719 -0.1339739 0.98794746
-0.23492934 -0.13560492 0.98521423
-0.22527401 -0.13513047 0.98455542
-0.21805343 -0.13389221 0.9831177
-0.20154367 -0.13226445 0.98428577
-0.19703598 -0.13615829 0.987059
-0.37096214 -0.12274574 0.98899996
-0.36483529 -0.12492963 0.98833352
-0.35538325 -0.12562037 0.98821431
-0.34474596 -0.12547721 0.98706663
-0.3348178 -0.12546109 0.98742872
-0.32748476 -0.12172407 0.98824996
-0.31334224 -0.12086306 0.98900002
-0.30572209 -0.12072915 0.98871428
-0.28091556 -0.12051624 0.98900002
-0.27389404 -0.12185916 0.98816675
-0.26450279 -0.12188864 0.98793346
-0.25450337 -0.12322957 0.98823822
-0.24513212 -0.1250452 0.9851054
-0.23614441 -0.12713817 0.98100024
-0.22468241 -0.12721461 0.98142862
-0.21504898 -0.12529004 0.98200011
-0.20458703 -0.1255271 0.98536831
-0.19854835 -0.12745243 0.98900002
-0.37435859 -0.114301 0.9888097
-0.36489564 -0.11497013 0.98434603
-0.35435042 -0.11508198 0.98135328
-0.34551921 -0.11585565 0.98100019
-0.33515108 -0.11701121 0.98140931
-0.3245264 -0.1150516 0.98288882
-0.31515491 -0.11479848 0.98451853
-0.30487391 -0.11480213 0.98409688
-0.29521298 -0.11429218 0.98512524
-0.28488833 -0.11504034 0.98519051
-0.27462247 -0.11516561 0.98472017
-0.26497576 -0.11488038 0.98399991
-0.2548703 -0.11643758 0.98305279
-0.24635568 -0.11770546 0.98207146
-0.20341024 -0.11576097 0.98447835
-0.19899136 -0.11119261 0.9883334
-0.3734377 -0.10519386 0.98862517
-0.36493888 -0.10525234 0.98409998
-0.35506126 -0.10571979 0.98100036
-0.34744403 -0.10750125 0.98100001
-0.32479712 -0.10922127 0.98100013
-0.314477 -0.10864794 0.98100007
-0.30444354 -0.10922127 0.98100001
-0.29842347 -0.10922127 0.98100007
-0.27262318 -0.10922127 0.98100007
-0.26832312 -0.10922127 0.98100007
-0.21414249 -0.10578123 0.98100007
-0.20411618 -0.10522092 0.98312503
-0.19722849 -0.10423851 0.98675013
-0.37361857 -0.095275879 0.98881835
-0.36472192 -0.095151804 0.98417854
-0.35690412 -0.094601087 0.98100007
-0.20197932 -0.095876947 0.98133343
-0.19570751 -0.09540382 0.98699993
-0.37207684 -0.086578473 0.98900014
-0.36462268 -0.084873788 0.98792857
-0.35497031 -0.083982676 0.98258358
-0.34830403 -0.081700951 0.98100007
-0.20038232 -0.088581033 0.98100007
-0.19495976 -0.084329255 0.98596001
-0.18987811 -0.082367212 0.98900002
-0.36154872 -0.076298051 0.98900002
-0.35532635 -0.074467786 0.98808575
-0.34612513 -0.075073972 0.98170596
-0.33970395 -0.071380831 0.98100007
-0.32766381 -0.072240844 0.98100007
-0.19288301 -0.076356791 0.98263645
-0.18819086 -0.074359342 0.98715401
-0.37021896 -0.06242568 0.98900002
-0.36414978 -0.06264244 0.98899996
-0.35545591 -0.065022588 0.98893356
-0.34470379 -0.065138832 0.98469234
-0.33631086 -0.064900152 0.98113656
-0.32713458 -0.063971512 0.98100001
-0.19006221 -0.0688008 0.98100007
-0.1856025 -0.06455031 0.98635304
-0.38463035 -0.054600723 0.98860013
-0.37449765 -0.055489443 0.98523521
-0.3652935 -0.055098679 0.98668993
-0.35589734 -0.056558792 0.98447388
-0.34498516 -0.05756614 0.98200005
-0.33508646 -0.055517487 0.98123103
-0.32474902 -0.055020183 0.98259389
-0.31544262 -0.053275358 0.98100013
-0.3087436 -0.050740588 0.98100007
-0.18394178 -0.055558842 0.98511118
-0.17947383 -0.059824608 0.98900002
-0.3834618 -0.046292383 0.98886681
-0.37448812 -0.045096222 0.98300016
-0.36711675 -0.045580525 0.98100001
-0.32404163 -0.049058046 0.98175001
-0.31427222 -0.047791991 0.98100001
-0.30422854 -0.044183012 0.98100001
-0.29670346 -0.041567151 0.98100013
-0.18297796 -0.045465503 0.98431587
-0.17747487 -0.043034103 0.9883334
-0.38062325 -0.039016049 0.98900002
-0.37556991 -0.034455635 0.98756009
-0.36757523 -0.034076709 0.9812308
-0.30100352 -0.03870045 0.98100007
-0.29842347 -0.037840441 0.98100007
-0.18171196 -0.034840323 0.9823637
-0.17652726 -0.034614962 0.98708344
-0.37145576 -0.027212959 0.98860008
-0.36476928 -0.02522788 0.98536843
-0.35768625 -0.02344349 0.98137498
-0.18146211 -0.027520321 0.98100007
-0.17735289 -0.025553254 0.98686683
-0.36246106 -0.018772649 0.9883334
-0.35475948 -0.015262143 0.98579174
-0.34503162 -0.012759804 0.9823637
-0.33841392 -0.011610135 0.98100007
-0.18179296 -0.012233708 0.98280001
-0.17833121 -0.015951667 0.98618197
-0.35114443 -0.0086702332 0.98900002
-0.34455431 -0.0063922363 0.9880954
-0.33516598 -0.0047207093 0.98404014
-0.32534179 -0.0032163516 0.98273689
-0.31768769 -0.001548018 0.98100007
-0.21242248 -0.00086000998 0.98100007
-0.20478401 -0.0022123936 0.98207146
-0.19356842 -0.0035783225 0.98226339
-0.18516548 -0.0052788644 0.98581481
-0.17947383 -0.0086702332 0.98900002
-0.37173626 0.0065026754 0.98899996
-0.36492544 0.0071507506 0.98875016
-0.35503083 0.0065933638 0.98610544
-0.34537452 0.0078825969 0.98711121
-0.33486745 0.00503388 0.98613793
-0.3251752 0.0051932265 0.98649991
-0.31513885 0.0055946279 0.98385191
-0.3078956 0.0077442233 0.98142862
-0.22195283 0.0057818671 0.98185718
-0.21471609 0.0059937974 0.98460597
-0.20504528 0.0043300688 0.98689651
-0.19558574 0.0032284439 0.98718202
-0.18859468 0.0020224701 0.9883334
-0.37108597 0.01300535 0.98900002
-0.36471474 0.015414499 0.98780012
-0.35515678 0.014846005 0.98113066
-0.34452292 0.01376805 0.9816668
-0.33601817 0.012900151 0.98100001
-0.32487667 0.015164441 0.98528141
-0.3155055 0.015554926 0.98599988
-0.30522656 0.015768474 0.98302943
-0.29540408 0.0173508 0.98178965
-0.28709999 0.018346881 0.98100001
-0.27950326 0.01978023 0.98100007
-0.22205457 0.013932163 0.98100007
-0.21565337 0.014857888 0.98590308
-0.36264282 0.022351667 0.98820001
-0.35413992 0.02462849 0.98366672
-0.34679705 0.027709682 0.98159999
-0.32319179 0.021844255 0.98100007
-0.31401831 0.023105603 0.98100001
-0.30435064 0.023242539 0.98200005
-0.29468578 0.023835074 0.98135298
-0.28540811 0.024950987 0.98140037
-0.27537379 0.025193317 0.98237514
-0.2662122 0.027285777 0.98100001
-0.2155171 0.02544711 0.98500013
-0.35114443 0.030345816 0.98900002
-0.3441543 0.033657696 0.98671442
-0.33596575 0.034748252 0.98454189
-0.32563904 0.038070235 0.98137498
-0.28349885 0.032950494 0.98152947
-0.27450609 0.03451743 0.98433328
-0.26469746 0.034492537 0.98350018
-0.25559866 0.035788089 0.98220026
-0.24541558 0.037605893 0.98100001
-0.23412122 0.037112743 0.98100001
-0.22526555 0.035844266 0.98256552
-0.2153341 0.03452377 0.98583329
-0.3334603 0.041481484 0.98871422
-0.32411745 0.042669125 0.98520011
-0.31607929 0.046132468 0.98400015
-0.30768961 0.048628043 0.98175007
-0.27351227 0.043057967 0.98235017
-0.2645945 0.045040753 0.98534274
-0.25484818 0.04408554 0.98727584
-0.24493624 0.044188157 0.98673087
-0.23490143 0.043270957 0.98541665
-0.2259232 0.042705793 0.98738903
-0.21718657 0.04130064 0.9883334
-0.31212842 0.051154375 0.98900002
-0.30477753 0.053589292 0.98682368
-0.29593998 0.056935992 0.98507696
-0.28768384 0.05900142 0.98250008
-0.26288497 0.054086968 0.98283345
-0.2567943 0.056765825 0.98663157
-0.29045281 0.061558656 0.98900002
-0.28398162 0.06285841 0.98760003
-0.27484885 0.064981483 0.98635721
-0.26424924 0.065644681 0.98214287
-0.25439066 0.065028332 0.98493755
-0.2488357 0.066760793 0.98900002
-0.26453039 0.070920281 0.98788899
-0.25398222 0.071799986 0.98833352
-0.33202192 -0.20713267 0.99274999
-0.32843909 -0.20755728 0.99200004
-0.34090412 -0.19219339 0.99200004
-0.33655584 -0.1921934 0.99199998
-0.32785931 -0.19190352 0.99200004
-0.34207565 -0.18707575 0.99440002
-0.33511537 -0.18790129 0.99407685
-0.32885081 -0.18928549 0.99500006
-0.23272693 -0.16010913 0.99800003
-0.22941051 -0.16137241 0.99500006
-0.19160601 -0.16535862 0.99800003
-0.18674958 -0.16169502 0.99700004
-0.24200103 -0.15275988 0.99800003
-0.23482929 -0.15419246 0.9954803
-0.22732207 -0.1548166 0.99349993
-0.18427591 -0.15425362 0.99559999
-0.36308903 -0.14173597 0.99800003
-0.35534585 -0.1414976 0.99700004
-0.34671739 -0.14134964 0.99733341
-0.31059423 -0.14086105 0.99800003
-0.30884442 -0.14086105 0.99800003
-0.25222379 -0.14119264 0.99725008
-0.24460475 -0.14451174 0.99500006
-0.2356196 -0.14680316 0.99216652
-0.22697952 -0.14871071 0.99200004
-0.19122584 -0.14218539 0.99300003
-0.18641922 -0.14443626 0.99591303
-0.3811706 -0.13094535 0.99799997
-0.3739751 -0.13471621 0.99566662
-0.36481911 -0.13486435 0.99388909
-0.35512322 -0.13500734 0.99303859
-0.34501439 -0.13567489 0.99332017
-0.33503082 -0.13508318 0.99455559
-0.32531863 -0.13349377 0.99687511
-0.31488413 -0.13531782 0.99730778
-0.30551609 -0.13392437 0.99737483
-0.29484576 -0.13036208 0.99800003
-0.28458017 -0.13292851 0.99800009
-0.27429077 -0.13443448 0.99769992
-0.26475656 -0.13496575 0.99569225
-0.25529492 -0.13537292 0.99416006
-0.24819906 -0.13688344 0.99199998
-0.19364314 -0.13398136 0.99418199
-0.18625849 -0.13511781 0.99748266
-0.39241421 -0.12463886 0.99560004
-0.38463369 -0.12412601 0.99384636
-0.37573969 -0.12577473 0.99254549
-0.36960265 -0.12957835 0.99200004
-0.35568821 -0.12957835 0.99200004
-0.33096665 -0.12977429 0.99350005
-0.32459071 -0.12613805 0.99316162
-0.31515691 -0.12607211 0.992778
-0.30490607 -0.12601371 0.99529028
-0.29466569 -0.12474681 0.99557722
-0.28485322 -0.12527411 0.99411124
-0.27508175 -0.12685221 0.99333328
-0.26500458 -0.1275406 0.99304998
-0.25550416 -0.12853476 0.99199998
-0.2495905 -0.12957835 0.99200004
-0.20088992 -0.12088181 0.99200004
-0.19611256 -0.12571923 0.9948929
-0.18898126 -0.12861226 0.99800003
-0.39336744 -0.11566363 0.99661541
-0.38461494 -0.1148605 0.99258351
-0.37829921 -0.11827286 0.99200004
-0.2948125 -0.11914251 0.99199998
-0.28785524 -0.1191425 0.99200004
-0.19694859 -0.11549039 0.99527282
-0.39186397 -0.10528124 0.99800003
-0.38443831 -0.1047026 0.99393576
-0.37829921 -0.10522804 0.99199998
-0.19534764 -0.1068356 0.99542862
-0.39108625 -0.098865204 0.99800003
-0.38420138 -0.095204495 0.99473929
-0.37829921 -0.094357386 0.99200004
-0.19148368 -0.09492138 0.9933334
-0.18833649 -0.093404673 0.99575001
-0.38284039 -0.085933819 0.99735725
-0.37626484 -0.08418005 0.9928571
-0.36960265 -0.080877759 0.99200004
-0.19210948 -0.088408582 0.99285716
-0.1869752 -0.085112579 0.9962272
-0.38102475 -0.078304738 0.99800003
-0.3751432 -0.074831098 0.99644458
-0.36607388 -0.074981369 0.99224007
-0.18546727 -0.074800588 0.99499995
-0.40037805 -0.060187548 0.99500006
-0.39464134 -0.061769001 0.99435705
-0.38436267 -0.063724272 0.99371421
-0.37540704 -0.065530352 0.99418199
-0.36634144 -0.066202357 0.99199986
-0.1828153 -0.065659508 0.99566674
-0.17841452 -0.061414588 0.99600005
-0.40287593 -0.054745931 0.99650002
-0.39438397 -0.054794688 0.99211127
-0.38525641 -0.058266774 0.99200004
-0.36612406 -0.058266774 0.99200004
-0.18001825 -0.054788161 0.99199998
-0.17691229 -0.053827841 0.99574995
-0.40191269 -0.047098916 0.99757153
-0.39498904 -0.045336638 0.9946003
-0.38694826 -0.043058142 0.99224997
-0.18001825 -0.047830932 0.99200004
-0.17406346 -0.046335876 0.99430782
-0.1679277 -0.042055596 0.99250007
-0.39319244 -0.035314832 0.99753857
-0.38590762 -0.034952704 0.99400014
-0.17184085 -0.034296077 0.99299991
-0.16840415 -0.037519582 0.99533337
-0.38393983 -0.026595553 0.99580002
-0.37525156 -0.024206569 0.99416667
-0.36873299 -0.02087168 0.99200004
-0.17347217 -0.02421437 0.99485713
-0.37155873 -0.017047003 0.99725002
-0.3652375 -0.014463599 0.9939999
-0.35829717 -0.011305493 0.99200004
-0.17460953 -0.014657157 0.99471426
-0.38486469 -0.0018470391 0.99800003
-0.37516659 -0.0012620103 0.99600005
-0.36333394 -0.0047845882 0.9978236
-0.35523847 -0.0046346565 0.99404013
-0.34641191 -0.0020291912 0.99200004
-0.18167406 -0.0028054311 0.99366665
-0.17659949 -0.0066932049 0.99616677
-0.38467869 0.0049700597 0.9960385
-0.37563583 0.0047438033 0.99227279
-0.36535618 0.0028033855 0.99333328
-0.3542178 0.0021747909 0.99274993
-0.34525236 0.0028263733 0.99199986
-0.20523821 0.0095661869 0.99200004
-0.19442919 0.0083296476 0.99264276
-0.18605441 0.0049215271 0.99554539
-0.38185394 0.013701278 0.9975
-0.37557307 0.015129625 0.99312484
-0.36960265 0.01826272 0.99200004
-0.21129195 0.016357334 0.99366677
-0.20525204 0.014497787 0.99596
-0.19540517 0.013859451 0.99604338
-0.18915626 0.012773735 0.99800003
-0.37244865 0.023363497 0.99612504
-0.36583063 0.025464196 0.9938333
-0.35829717 0.027828906 0.99200004
-0.21159753 0.02413659 0.99376464
-0.20817699 0.024490342 0.99775004
-0.36221412 0.030621966 0.99800003
-0.35469696 0.034039006 0.99552941
-0.34614846 0.038654361 0.99242866
-0.21085225 0.035722524 0.99387503
-0.20818871 0.034757201 0.9968462
-0.35084024 0.041120928 0.99800003
-0.34329474 0.043581586 0.99416667
-0.33449659 0.046486761 0.99363637
-0.32603291 0.048049953 0.99349999
-0.25555384 0.04907329 0.99200004
-0.24462105 0.049321767 0.99200004
-0.23488545 0.048779644 0.99199998
-0.22417942 0.047417633 0.99425012
-0.21455026 0.045672458 0.99540031
-0.20852101 0.041704204 0.99799997
-0.33334199 0.051619887 0.99800003
-0.32357275 0.05265468 0.99687505
-0.31507677 0.055151112 0.99400002
-0.30598369 0.058006257 0.99250007
-0.25346836 0.053970274 0.99295461
-0.24500145 0.055283885 0.99532163
-0.23546544 0.05394328 0.99591297
-0.22603384 0.052516952 0.99690914
-0.21785343 0.051619887 0.99799997
-0.3137098 0.061093021 0.99757147
-0.3038069 0.062569588 0.99583328
-0.29494825 0.065062329 0.99431825
-0.28560004 0.067036629 0.9930588
-0.27741942 0.067832962 0.99200004
-0.25132981 0.060006078 0.99200004
-0.24650444 0.063901633 0.99416
-0.29222107 0.070867978 0.99800003
-0.28415012 0.072516941 0.99658823
-0.27495074 0.074197248 0.99565238
-0.26494214 0.076406516 0.99412519
-0.25493217 0.077367231 0.99288225
-0.24792047 0.074831977 0.99528575
-0.262474 0.081366941 0.99800003
-0.25472915 0.082051136 0.99663639
-0.24803793 0.081804395 0.99800003
-0.34352338 -0.18541391 1.00475
-0.33886671 -0.18659411 1.0040001
-0.2410053 -0.17038104 1.0070001
-0.23923971 -0.17038104 1.0070001
-0.1946291 -0.17204408 1.0064
-0.18980272 -0.17038104 1.0070001
-0.34265381 -0.16331862 1.0070001
-0.33597067 -0.16413508 1.006591
-0.32610756 -0.16243581 1.0070001
-0.31780919 -0.16155301 1.0070001
-0.28396842 -0.16214155 1.0070001
-0.27651364 -0.16233772 1.0070001
-0.26788175 -0.16606513 1.0070001
-0.25159895 -0.16243581 1.0070001
-0.24492322 -0.164837 1.00625
-0.23673864 -0.16388662 1.00325
-0.19264171 -0.16801265 1.0034001
-0.18538755 -0.16397034 1.0051538
-0.17920907 -0.16155301 1.0070001
-0.36388615 -0.15194978 1.00625
-0.35397381 -0.15398426 1.0051739
-0.34494734 -0.15489021 1.0045624
-0.33508724 -0.15500459 1.0053785
-0.32484469 -0.15536089 1.0069166
-0.31547105 -0.15457766 1.00664
-0.30739212 -0.1521953 1.0070001
-0.2937381 -0.15260726 1.0070001
-0.2850607 -0.15532836 1.0067
-0.27541175 -0.15536089 1.0069168
-0.26500648 -0.15482166 1.0070001
-0.25488707 -0.15511189 1.0062759
-0.24615583 -0.15604614 1.0027999
-0.23956932 -0.15883534 1.001
-0.18136887 -0.15453713 1.0020909
-0.17528731 -0.15459988 1.0056766
-0.16588677 -0.15224345 1.0070001
-0.1597874 -0.15095937 1.0070001
-0.39196467 -0.14213133 1.0070001
-0.38477933 -0.14359955 1.0055789
-0.37533 -0.14532925 1.004222
-0.36544833 -0.14521627 1.002875
-0.35474616 -0.14655104 1.0022631
-0.34452206 -0.14576487 1.0013158
-0.33499837 -0.14508128 1.0029714
-0.32435587 -0.14526668 1.0033076
-0.31515315 -0.14533459 1.0033075
-0.30581561 -0.14525832 1.0059286
-0.29542589 -0.14531846 1.0063571
-0.28518221 -0.14521556 1.0034443
-0.27480716 -0.14499323 1.0027418
-0.26504153 -0.14504795 1.0036536
-0.25571036 -0.14589195 1.0035
-0.1820686 -0.14567274 1.0015454
-0.17534481 -0.14524482 1.0040998
-0.16535069 -0.14521308 1.0051785
-0.15719728 -0.14515364 1.0055
-0.39402452 -0.13212623 1.0070001
-0.38538942 -0.13530929 1.0036666
-0.37675861 -0.13894437 1.001
-0.33171135 -0.13865185 1.001
-0.32542232 -0.13821308 1.0010002
-0.31620812 -0.13894437 1.001
-0.30235454 -0.13763253 1.0019231
-0.29499605 -0.13574706 1.0020798
-0.28624925 -0.13730077 1.0018001
-0.2774792 -0.1377743 1.0010002
-0.26940581 -0.13952939 1.001
-0.18208669 -0.13307379 1.0023334
-0.17537726 -0.13558403 1.0044864
-0.16538434 -0.136042 1.0059091
-0.15624166 -0.1354641 1.0052856
-0.40502313 -0.12411547 1.0057647
-0.39739424 -0.12571292 1.0016923
-0.38875169 -0.12899888 1.001
-0.1921757 -0.12318424 1.0024999
-0.18648085 -0.12631123 1.0046316
-0.16596703 -0.12918355 1.0070001
-0.15213645 -0.12741794 1.0070001
-0.40423658 -0.11457457 1.0057368
-0.39818531 -0.11561634 1.001
-0.19373055 -0.11529958 1.0052501
-0.40325993 -0.10474975 1.0052857
-0.39694458 -0.10539271 1.0013531
-0.19370946 -0.10478172 1.004375
-0.40186515 -0.099069178 1.006
-0.39505368 -0.095395423 1.00385
-0.38875169 -0.091264509 1.001
-0.1904269 -0.099162392 1.001
-0.39308557 -0.085352264 1.0058
-0.38805848 -0.083775625 1.0020909
-0.18362537 -0.0824093 1.0022
-0.3924551 -0.074645929 1.0070001
-0.38547859 -0.074891962 1.0018182
-0.18286785 -0.075537898 1.0019001
-0.41274258 -0.062617667 1.0060002
-0.40571177 -0.063535817 1.0030626
-0.39481965 -0.067523651 1.0026364
-0.38758063 -0.068665437 1.0016
-0.18131308 -0.066893175 1.0040001
-0.41457582 -0.054603465 1.0045625
-0.40855911 -0.054407686 1.0010002
-0.41320288 -0.0454299 1.0053636
-0.4067938 -0.044575594 1.0019376
-0.40353191 -0.036320064 1.0039999
-0.39795455 -0.034711216 1.0012728
-0.17038104 -0.030898117 1.0070001
-0.16987345 -0.033446588 1.0040001
-0.39442962 -0.026608638 1.0034375
-0.38577038 -0.021711661 1.003077
-0.37939122 -0.021938583 1.001
-0.17075101 -0.022884507 1.0040001
-0.16924444 -0.026000619 1.0055001
-0.404241 -0.011449091 1.0046
-0.39990991 -0.011476443 1.0070001
-0.38391057 -0.014894522 1.0057368
-0.37579837 -0.014352204 1.0023333
-0.36944574 -0.011408064 1.001
-0.17112094 -0.014918235 1.001
-0.16924445 -0.014985301 1.0055001
-0.40413433 -0.0057042791 1.0045216
-0.39521044 -0.0052156118 1.0020999
-0.38514689 -0.0067109512 1.0044615
-0.37497735 -0.0060061961 1.0033478
-0.36769065 -0.0058502886 1.0010002
-0.17361341 -0.0046777092 1.0036842
-0.16861543 -0.0097108362 1.0070001
-0.40229484 0.0041375291 1.0051539
-0.39537892 0.0055478169 1.0030768
-0.38875169 0.0052652601 1.001
-0.18290007 0.0064168246 1.0044285
-0.17864029 0.001587994 1.0058
-0.3937315 0.013674467 1.00625
-0.38649401 0.015217788 1.0028462
-0.20388258 0.018428409 1.001
-0.19426933 0.018185573 1.0014286
-0.18676962 0.01496365 1.0039999
-0.38250351 0.022044836 1.0058
-0.37644282 0.02533224 1.0026364
-0.36944574 0.02895893 1.001
-0.20435341 0.023939723 1.0041429
-0.1956148 0.021810919 1.005125
-0.18877855 0.021172158 1.00625
-0.37311143 0.032958984 1.0052
-0.36509639 0.035371393 1.0035199
-0.35794035 0.038131665 1.0022
-0.20555466 0.035754148 1.0045999
-0.35397163 0.044049956 1.0049001
-0.34688935 0.047423504 1.00175
-0.21092469 0.048337206 1.0025001
-0.20569502 0.044782359 1.0048751
-0.34385613 0.050757542 1.0040001
-0.33436349 0.054428037 1.0038421
-0.32562429 0.056889154 1.0027145
-0.23430406 0.058356628 1.001
-0.22488193 0.056774341 1.0039999
-0.21504645 0.054866746 1.00484
-0.20804732 0.050908327 1.0070001
-0.3239603 0.062291559 1.0059091
-0.31495613 0.064948015 1.0048182
-0.30636469 0.067431964 1.0032499
-0.29924229 0.069325924 1.001
-0.2422803 0.06567663 1.0030526
-0.23523079 0.064773105 1.0049676
-0.22801837 0.061192911 1.0058
-0.30397493 0.072244443 1.0063334
-0.29467973 0.074628942 1.0046
-0.28597268 0.077034749 1.0023334
-0.27502209 0.079505429 1.001
-0.2434894 0.074946515 1.0046817
-0.23825881 0.074057393 1.0070001
-0.28339362 0.080843858 1.0060002
-0.2743184 0.082508616 1.0055001
-0.26471689 0.085338928 1.0046666
-0.25520179 0.086904146 1.0038124
-0.24548744 0.083562404 1.005579
-0.23923971 0.082983509 1.0070001
-0.33667946 -0.19060574 1.016
-0.31176984 -0.19027787 1.0190001
-0.30730322 -0.19072454 1.0190001
-0.27246362 -0.19027787 1.0190001
-0.26521194 -0.19248489 1.0190001
-0.25814271 -0.19260314 1.0171249
-0.35196909 -0.18086891 1.013
-0.34442815 -0.18275231 1.0123752
-0.33703807 -0.18432282 1.0170913
-0.32427636 -0.18233721 1.0190001
-0.31504303 -0.18441767 1.0178003
-0.305482 -0.18456699 1.0184647
-0.29560071 -0.18366726 1.0190003
-0.28469527 -0.18285641 1.0190001
-0.27491501 -0.18456732 1.0178752
-0.26530436 -0.18432108 1.0167502
-0.25531471 -0.18486282 1.0164002
-0.24766505 -0.18241417 1.015
-0.19664772 -0.18063278 1.015
-0.36286765 -0.17075932 1.0145
-0.35435686 -0.17477708 1.0120002
-0.34488082 -0.17477641 1.0123229
-0.33498871 -0.17533229 1.0152003
-0.32519785 -0.1752734 1.0156541
-0.31530994 -0.17522666 1.013808
-0.30498627 -0.1747297 1.0155264
-0.29470044 -0.17504093 1.0172729
-0.28504494 -0.17532071 1.0166669
-0.27477562 -0.17491497 1.0135772
-0.26468536 -0.17500316 1.0125865
-0.25487417 -0.17495374 1.0130004
-0.24666186 -0.17367411 1.0104002
-0.19362497 -0.17579357 1.0112355
-0.1857194 -0.17382121 1.0131502
-0.17570972 -0.17097163 1.0140001
-0.37072918 -0.16169152 1.0190001
-0.36418676 -0.16442899 1.0151178
-0.35600352 -0.16535883 1.0121431
-0.34718823 -0.16626471 1.0100001
-0.3342039 -0.16825618 1.0112001
-0.3246859 -0.16717914 1.0116503
-0.31482127 -0.16512485 1.0112003
-0.30537203 -0.16500629 1.0137502
-0.29509333 -0.16443738 1.0138751
-0.28528461 -0.16663955 1.0116668
-0.27497622 -0.16665822 1.0100001
-0.26431954 -0.16437183 1.0100001
-0.25582212 -0.16571227 1.0100001
-0.18412855 -0.16815317 1.0125716
-0.17496812 -0.16506609 1.0113451
-0.16622195 -0.16375403 1.0144349
-0.15943411 -0.16210619 1.016
-0.38032606 -0.15230855 1.016
-0.3734557 -0.15491885 1.0133752
-0.36500922 -0.15662374 1.0115001
-0.35727236 -0.15804985 1.01
-0.31211525 -0.15804985 1.01
-0.3043544 -0.15612933 1.0113639
-0.2958149 -0.15729026 1.0105456
-0.17088863 -0.15849257 1.01
-0.16403694 -0.15665509 1.0108335
-0.15474339 -0.15462159 1.0132146
-0.39313239 -0.14078391 1.01
-0.37808004 -0.14963824 1.01
-0.30193275 -0.14786737 1.01
-0.15305473 -0.14824584 1.0108572
-0.40228766 -0.1344033 1.01525
-0.39558557 -0.13620418 1.0128001
-0.38870522 -0.13724217 1.01
-0.1753158 -0.13015868 1.0100001
-0.16114888 -0.13015869 1.01
-0.15760714 -0.13015869 1.01
-0.42281327 -0.12042113 1.0175
-0.41457102 -0.12340628 1.0116155
-0.40818477 -0.12661697 1.01
-0.18330657 -0.12365349 1.0120001
-0.1752501 -0.12473337 1.0120003
-0.16463438 -0.1246446 1.0104288
-0.15554111 -0.12450878 1.0100001
-0.4220953 -0.11613204 1.0190001
-0.41527519 -0.11550754 1.0135456
-0.40966049 -0.11510634 1.0100001
-0.19149542 -0.11442369 1.0105001
-0.18591504 -0.11605144 1.0153795
-0.17416166 -0.11619402 1.0165219
-0.16495956 -0.11589921 1.0150628
-0.15516587 -0.11528327 1.0135628
-0.14963824 -0.1142209 1.01
-0.41417503 -0.10476615 1.016
-0.40853116 -0.10393434 1.0108572
-0.1918873 -0.10610949 1.0147144
-0.16449912 -0.1093683 1.0190001
-0.1585649 -0.10943211 1.0190001
-0.4207553 -0.09379895 1.0190001
-0.41421852 -0.094309136 1.0175002
-0.40521705 -0.094647124 1.0121669
-0.39874014 -0.091789924 1.01
-0.41186988 -0.085588016 1.0187501
-0.40434107 -0.08569026 1.014667
-0.39711684 -0.084116168 1.0100001
-0.41147819 -0.073457949 1.0176667
-0.40427518 -0.074744828 1.0150002
-0.3967725 -0.075655364 1.0100001
-0.18125303 -0.072856694 1.0135
-0.43020487 -0.061457839 1.016
-0.42269304 -0.062539756 1.011875
-0.41541502 -0.065500289 1.0106925
-0.40488553 -0.068218865 1.0106
-0.39933044 -0.069949232 1.01
-0.18063278 -0.0667345 1.015
-0.17876504 -0.067591444 1.0145
-0.43144482 -0.056213945 1.0178751
-0.42439437 -0.055043492 1.0127501
-0.41880995 -0.054896869 1.01
-0.42272314 -0.045383278 1.0151427
-0.41778231 -0.04310412 1.0118001
-0.4207553 -0.038412903 1.0190001
-0.41428301 -0.036466204 1.0147144
-0.40819693 -0.033813156 1.0112858
-0.16731736 -0.0327897 1.0109001
-0.4100354 -0.028586347 1.0190001
-0.40357885 -0.02490106 1.0147499
-0.39663142 -0.0214216 1.0121429
-0.16493754 -0.024615319 1.0118753
-0.1589179 -0.022571683 1.0165
-0.40130234 -0.014579552 1.018
-0.39462653 -0.014931928 1.013286
-0.38870522 -0.014166933 1.01
-0.16427207 -0.015229746 1.0120002
-0.15877749 -0.017838852 1.0175
-0.42171261 -0.0026729566 1.0170001
-0.41523394 -0.0047042374 1.01315
-0.40936533 -0.0014757222 1.01
-0.39479983 -0.0097590536 1.012
-0.17143583 -0.0020673261 1.0115
-0.16693816 -0.006052298 1.0147144
-0.41331145 0.0046199537 1.0162728
-0.40748543 0.0056728222 1.0109001
-0.18089534 0.0088674836 1.0115
-0.17512192 0.0047575189 1.0147587
-0.40389344 0.014166394 1.0146154
-0.3961162 0.017240722 1.0113333
-0.18344568 0.014700149 1.0139229
-0.17902936 0.011579013 1.016
-0.3937538 0.023093153 1.0159999
-0.38600239 0.025639303 1.0124706
-0.37985089 0.0292193 1.01
-0.20259655 0.027966794 1.0104285
-0.19484381 0.02715317 1.0121002
-0.18790774 0.024900621 1.0142499
-0.38371259 0.033956729 1.0168182
-0.37573016 0.036696233 1.0119091
-0.36922571 0.039844498 1.01
-0.20280971 0.034117892 1.014125
-0.19544406 0.031831183 1.018
-0.38144907 0.040199548 1.0190001
-0.37512159 0.041656021 1.0163749
-0.36417168 0.044718418 1.016
-0.35717812 0.047389239 1.0135
-0.20232657 0.045690548 1.0122501
-0.19922251 0.048698831 1.01
-0.36000931 0.050919428 1.0190001
-0.35347757 0.054032646 1.017
-0.34532014 0.056718186 1.0143335
-0.33648694 0.058650929 1.0106
-0.21231274 0.058467969 1.0105
-0.20565879 0.055211462 1.0136565
-0.19981425 0.051507674 1.013
-0.35286272 0.061639309 1.0190001
-0.34422797 0.064761899 1.0175002
-0.33525461 0.064630948 1.015143
-0.32547256 0.066651151 1.0116155
-0.3153716 0.068507262 1.0105001
-0.23215383 0.069114432 1.0107501
-0.22458045 0.065249726 1.0125717
-0.21570626 0.063832439 1.0145717
-0.20784657 0.06223486 1.0190001
-0.33201849 0.071763642 1.0190001
-0.32481456 0.071777485 1.0176363
-0.31529835 0.074378483 1.0154548
-0.30577636 0.077115275 1.0139376
-0.2971516 0.078142032 1.0106001
-0.23438387 0.075307459 1.0144402
-0.22569852 0.071245655 1.0184
-0.30402768 0.081590198 1.0190001
-0.29429716 0.082156464 1.0142002
-0.28541526 0.084623836 1.0142499
-0.27549532 0.08688774 1.0127858
-0.26651543 0.08942876 1.01
-0.25234851 0.089428768 1.01
-0.2440526 0.08782129 1.0118752
-0.23718114 0.084677704 1.0157273
-0.27425027 0.091654979 1.0190001
-0.264689 0.0932099 1.0155386
-0.25516346 0.093663454 1.0153334
-0.24460296 0.094992422 1.0158967
-0.23790579 0.09197361 1.0185715
-0.24566391 0.10094553 1.0190001
-0.33354905 -0.20217218 1.028
-0.32774124 -0.20157139 1.028
-0.31512424 -0.20157136 1.028
-0.30393794 -0.20307666 1.0272499
-0.29511434 -0.20301783 1.0269499
-0.28388217 -0.20343705 1.028
-0.27847493 -0.20277299 1.028
-0.33387184 -0.19503014 1.0263199
-0.32514483 -0.19534308 1.027625
-0.31529048 -0.19557136 1.0248748
-0.30448535 -0.19466878 1.022923
-0.29461691 -0.19491719 1.0245998
-0.28515169 -0.19520205 1.0260799
-0.27570719 -0.19519901 1.0235
-0.26729274 -0.19710974 1.0220002
-0.33373338 -0.18716259 1.0228001
-0.32621035 -0.18716006 1.0233126
-0.31985533 -0.18904616 1.0220001
-0.30462414 -0.18904616 1.0220001
-0.29378331 -0.18816963 1.0225457
-0.28517568 -0.18779579 1.0226926
-0.27864149 -0.18904616 1.0220001
-0.37102112 -0.1673412 1.0235001
-0.16575137 -0.16843922 1.0220001
-0.43173227 -0.11554617 1.0262858
-0.42615211 -0.11384296 1.0243335
-0.18355903 -0.11168059 1.0229232
-0.17573588 -0.11169779 1.0222729
-0.15320802 -0.11020226 1.0220001
-0.43258238 -0.10093589 1.028
-0.42519602 -0.1051374 1.02575
-0.41841021 -0.10661845 1.0220001
-0.19109784 -0.10273188 1.0250001
-0.18572503 -0.10546559 1.0256666
-0.17519665 -0.10465062 1.0259641
-0.16522673 -0.10447255 1.0224442
-0.15466356 -0.10498857 1.023607
-0.14840738 -0.10703573 1.026
-0.43144214 -0.098640203 1.026
-0.42449304 -0.095515542 1.0232221
-0.41841021 -0.099450819 1.0220001
-0.19167571 -0.098086283 1.0265
-0.17068979 -0.096069343 1.028
-0.16457845 -0.095966816 1.0258571
-0.15574394 -0.095523663 1.025214
-0.42223534 -0.085320584 1.0275714
-0.41733855 -0.084739007 1.0233636
-0.1554593 -0.08876951 1.028
-0.42086664 -0.077504344 1.028
-0.41582295 -0.075946249 1.0234119
-0.18187852 -0.075558729 1.0220001
-0.18008661 -0.065404594 1.0220001
-0.17829472 -0.065404594 1.0220001
-0.44159454 -0.052270375 1.028
-0.43629837 -0.053386811 1.0235001
-0.44069332 -0.049566735 1.028
-0.43388933 -0.045767024 1.0264
-0.42806095 -0.043406647 1.0224288
-0.43228197 -0.032143276 1.028
-0.4258382 -0.034667268 1.0259545
-0.41758069 -0.03245192 1.0226002
-0.42266899 -0.02871008 1.028
-0.41481054 -0.026316071 1.0258001
-0.40870506 -0.023326347 1.0235001
-0.41005206 -0.018925481 1.028
-0.40514714 -0.016155565 1.0238001
-0.16094132 -0.01299987 1.0227501
-0.1583304 -0.013835028 1.025
-0.42620245 -0.0017932217 1.0235001
-0.16324507 -0.0047965357 1.0256667
-0.42264995 0.0019800393 1.0262001
-0.41784126 0.0062900833 1.0250001
-0.17251095 0.0088807307 1.0243335
-0.16729662 0.00390029 1.026
-0.413055 0.015312737 1.0274
-0.40795794 0.017484898 1.0227501
-0.18232431 0.016169678 1.0245
-0.17709343 0.012715675 1.0254285
-0.40428388 0.023949599 1.0259374
-0.39655912 0.027821017 1.0236669
-0.18676792 0.02334673 1.02425
-0.39384338 0.034072455 1.0272499
-0.38700736 0.037262935 1.02425
-0.20188406 0.038134564 1.0235001
-0.19482704 0.036216065 1.0241429
-0.18915048 0.034150109 1.0250001
-0.39022538 0.040554598 1.028
-0.3836033 0.045318823 1.027
-0.37525538 0.047058597 1.0256667
-0.36773625 0.047872838 1.0226002
-0.20157722 0.04139664 1.0265
-0.19916815 0.040554598 1.028
-0.37204596 0.053150173 1.0275713
-0.36455581 0.054726876 1.0249999
-0.35658941 0.05704236 1.0220002
-0.20158949 0.058236968 1.0220001
-0.36138654 0.060381293 1.028
-0.35390159 0.061820779 1.0220002
-0.3377744 0.068988405 1.0220001
-0.21355636 0.067895025 1.0244
-0.20586251 0.064520784 1.0241429
-0.34056309 0.070988081 1.0250001
-0.33444959 0.072788402 1.0250001
-0.32579014 0.076137543 1.0237501
-0.31716746 0.079739846 1.0220001
-0.23138213 0.077129133 1.0230001
-0.22456323 0.075614452 1.0248421
-0.21807273 0.07199318 1.0265
-0.20998271 0.071195856 1.028
-0.31179178 0.081531756 1.0220001
-0.303727 0.084084027 1.024
-0.2945376 0.087137163 1.0246667
-0.28691483 0.088316493 1.0227501
-0.23345809 0.083953761 1.02425
-0.22800697 0.080207989 1.028
-0.29109192 0.091022544 1.028
-0.28432587 0.092376038 1.0266364
-0.27549651 0.095229894 1.0247501
-0.2651343 0.097819351 1.0236669
-0.25616133 0.098816603 1.0236669
-0.24549121 0.099450819 1.0220001
-0.23678958 0.095231615 1.0247858
-0.26405549 0.10111614 1.028
-0.25489664 0.10177767 1.0273999
-0.24416217 0.10273973 1.0262001
-0.23882154 0.10093589 1.028
-0.3309294 -0.21081203 1.0380001
-0.3238354 -0.21205632 1.0366668
-0.3145116 -0.2136834 1.0356473
-0.30442077 -0.21283722 1.0343573
-0.29498088 -0.21310425 1.0349376
-0.28707382 -0.21247168 1.0346251
-0.33215377 -0.206846 1.0333334
-0.32456577 -0.20530988 1.0312728
-0.31462783 -0.20661864 1.031
-0.30580032 -0.20758268 1.031
-0.29394996 -0.20818526 1.031
-0.28651834 -0.20698012 1.031
-0.32809514 -0.19974938 1.031
-0.15128344 -0.15127935 1.0333334
-0.14668606 -0.15122369 1.0345001
-0.15263264 -0.14900966 1.0343333
-0.14664073 -0.14882329 1.0364001
-0.43577465 -0.11248656 1.0319999
-0.4413403 -0.10828762 1.0380001
-0.43556693 -0.10679284 1.0329335
-0.18393211 -0.10145641 1.031
-0.17896098 -0.10032661 1.031
-0.15094183 -0.10394198 1.031
-0.43173435 -0.091065206 1.0353333
-0.19116285 -0.094903551 1.031
-0.18520655 -0.094456546 1.0338067
-0.17576827 -0.094870396 1.0315455
-0.16721101 -0.091288179 1.031
-0.43042055 -0.085538119 1.0380001
-0.4262591 -0.084210955 1.0328751
-0.18446177 -0.087227985 1.0372002
-0.1747409 -0.08570157 1.0347409
-0.16532426 -0.084864557 1.0326251
-0.15715849 -0.084173523 1.0324738
-0.42542571 -0.078748778 1.0325
-0.18290597 -0.071888417 1.0380001
-0.17077291 -0.078561604 1.0380001
-0.16561635 -0.078258276 1.0380001
-0.15581113 -0.078510754 1.0373334
-0.44397023 -0.045390103 1.035643
-0.43839923 -0.042843726 1.0325
-0.4413403 -0.038219161 1.0380001
-0.43550926 -0.03676074 1.0328001
-0.4336037 -0.025958216 1.0354668
-0.42569417 -0.024459613 1.0336001
-0.41719288 -0.021848036 1.0322858
-0.4313305 -0.01182974 1.0380001
-0.42253402 -0.016986294 1.0380001
-0.41536885 -0.016192848 1.0345001
-0.15546106 -0.011749963 1.031
-0.16178796 -0.00090384332 1.031
-0.15618987 -0.0056770011 1.0331213
-0.43248731 0.0043210904 1.0375001
-0.4260537 0.0053651202 1.0346364
-0.1632247 0.0059798742 1.0332502
-0.15843529 0.0015154644 1.0366668
-0.42253402 0.01182974 1.0380001
-0.41732031 0.016507983 1.0344001
-0.18180336 0.018542595 1.0317501
-0.1748156 0.01559888 1.0343001
-0.16676128 0.012252513 1.0352501
-0.41309112 0.022298366 1.0338001
-0.40629697 0.028414344 1.0322001
-0.18526167 0.023496898 1.0345455
-0.17926607 0.02092954 1.0380001
-0.4037331 0.034812633 1.0345385
-0.39754176 0.037163563 1.0339
-0.19044837 0.035357282 1.0345001
-0.18866539 0.037735533 1.033
-0.39332625 0.043662481 1.0351112
-0.38803083 0.045225699 1.0317501
-0.2022642 0.046032343 1.0346251
-0.19508892 0.043688048 1.0341821
-0.18872617 0.042545073 1.0325
-0.38142189 0.05151907 1.031
-0.37589836 0.054531883 1.031
-0.36876807 0.058749817 1.031
-0.37036186 0.06096866 1.0380001
-0.36639538 0.060763083 1.0345001
-0.20554359 0.067684256 1.0328751
-0.22165465 0.078710638 1.0320001
-0.21469671 0.075701267 1.0340835
-0.20762755 0.072693631 1.0365
-0.31528303 0.084908471 1.0364445
-0.30484962 0.087662086 1.0332223
-0.29825544 0.088964723 1.0320001
-0.23239601 0.085925601 1.0335001
-0.2250606 0.082354255 1.0338002
-0.21930517 0.080988221 1.0380001
-0.30202976 0.093002059 1.0366668
-0.29460192 0.094859205 1.0351177
-0.28556007 0.097004555 1.0340835
-0.27697977 0.098662257 1.0325
-0.23470998 0.095410645 1.0337143
-0.27376786 0.10227816 1.0361
-0.26492366 0.10566522 1.0342944
-0.25514278 0.10625829 1.0348127
-0.24465244 0.10692422 1.0336001
-0.23743498 0.10331336 1.0337502
-0.24569461 0.11010758 1.0380001
-0.32488915 -0.21446335 1.041
-0.31302524 -0.21811379 1.041
-0.30876637 -0.21689697 1.041
-0.29659826 -0.21720117 1.041
-0.15418603 -0.14673227 1.0448
-0.14460266 -0.1457338 1.0442858
-0.13518913 -0.14489232 1.0470001
-0.12856229 -0.14260824 1.0450001
-0.43531495 -0.090348393 1.041
-0.4348284 -0.085271768 1.0418183
-0.18502359 -0.083255999 1.0415454
-0.17917575 -0.081830703 1.041
-0.18247448 -0.07646887 1.0451537
-0.17532884 -0.074989863 1.044667
-0.16462213 -0.073678337 1.0445771
-0.15774134 -0.074107364 1.0437
-0.18291838 -0.062808536 1.0470001
-0.16521659 -0.06884025 1.0470001
-0.15879151 -0.06884025 1.0470001
-0.18187064 -0.058382496 1.046
-0.17898464 -0.056907941 1.0470001
-0.44809151 -0.043805279 1.041
-0.43442932 -0.021491703 1.0432501
-0.43440437 -0.01682229 1.0435386
-0.42687333 -0.01551437 1.0410001
-0.15223493 -0.0015254001 1.044
-0.43483576 0.0074881362 1.0416
-0.42983931 0.0082134902 1.041
-0.16016699 0.0073219198 1.044
-0.15627103 0.0035352842 1.0450714
-0.4334687 0.01253721 1.0463333
-0.42596653 0.014856048 1.0426875
-0.17294669 0.018810812 1.0416
-0.16449381 0.015069422 1.0445457
-0.42313805 0.021722922 1.0470001
-0.41674981 0.025133595 1.0425
-0.18412831 0.026521694 1.0431178
-0.17551857 0.023479393 1.0447896
-0.16888808 0.02111101 1.0470001
-0.41277456 0.032033399 1.044
-0.40976188 0.032853961 1.041
-0.19073549 0.033766571 1.041
-0.18736671 0.031907879 1.0453635
-0.40242681 0.042235695 1.0428001
-0.39727139 0.045664035 1.04175
-0.20351203 0.048368331 1.041
-0.19524594 0.047899317 1.044
-0.38091606 0.059661549 1.0470001
-0.37708151 0.059490599 1.044
-0.20301627 0.050869457 1.0455
-0.19917779 0.050482851 1.0470001
-0.20370752 0.066682778 1.0419999
-0.35429782 0.074347466 1.0470001
-0.21141694 0.079625882 1.044
-0.20605183 0.074846379 1.0437
-0.33502254 0.082608297 1.0470001
-0.32463583 0.085513838 1.0453845
-0.31521338 0.087895133 1.0422
-0.23089033 0.088523172 1.041
-0.22474645 0.08741913 1.043357
-0.21620291 0.083892286 1.0443158
-0.32033664 0.090869129 1.0470001
-0.31376728 0.092725903 1.0454999
-0.30554599 0.096295431 1.0425882
-0.29604015 0.099166781 1.0416
-0.23286414 0.094528466 1.0435001
-0.22625495 0.091328062 1.0470001
-0.30473283 0.10096569 1.0470001
-0.2939598 0.10165002 1.0446001
-0.28405672 0.1037969 1.0437857
-0.27598572 0.10689534 1.0421538
-0.24001643 0.10860059 1.041
-0.23476776 0.10496578 1.0445625
-0.27380347 0.11231269 1.0453334
-0.26506069 0.11243188 1.0436472
-0.2551904 0.11278641 1.0438125
-0.24580051 0.1122142 1.0437273
-0.23872334 0.1115681 1.046
-0.15606892 -0.14454316 1.051875
-0.14438404 -0.14207557 1.0523751
-0.13541608 -0.14217867 1.052
-0.12843692 -0.14137302 1.054
-0.14270204 -0.13992214 1.057
-0.13486776 -0.13907975 1.057
-0.12694924 -0.13992214 1.057
-0.4427605 -0.083765507 1.0500001
-0.18225899 -0.070878498 1.0500001
-0.1794975 -0.070878498 1.0500001
-0.1811281 -0.066400483 1.052
-0.17455634 -0.064723052 1.0531112
-0.16491286 -0.064393491 1.0544667
-0.15817395 -0.063027076 1.0551429
-0.18018129 -0.054516394 1.054
-0.17436548 -0.055446342 1.056111
-0.16574441 -0.056771941 1.057
-0.15721935 -0.057760347 1.057
-0.17281774 -0.048648424 1.057
-0.15374169 0.0061509125 1.05225
-0.14826187 0.007413093 1.057
-0.44156757 0.014785203 1.05375
-0.43636626 0.015493886 1.0507274
-0.4298735 0.0193305 1.0500001
-0.16268304 0.018608827 1.0508001
-0.15672417 0.013773126 1.0545791
-0.1491885 0.010193003 1.057
-0.4315111 0.02217616 1.054
-0.42597601 0.024576951 1.0523638
-0.4188275 0.0285355 1.0500001
-0.17373386 0.027113635 1.0519
-0.16540791 0.023551108 1.0550001
-0.417651 0.033264242 1.054
-0.1840775 0.033681385 1.0525001
-0.17633209 0.031432666 1.0545
-0.40545306 0.045912437 1.0516001
-0.20340547 0.055668958 1.0532857
-0.19655234 0.053811964 1.0546001
-0.18996051 0.050965015 1.057
-0.38084766 0.062084656 1.057
-0.37326899 0.066020012 1.0542858
-0.36606038 0.067308709 1.0517778
-0.20275538 0.064590849 1.056077
-0.19896212 0.065526441 1.057
-0.36439186 0.074482664 1.0546666
-0.35457432 0.076072566 1.0505334
-0.34561238 0.076684728 1.0500001
-0.20251878 0.07507164 1.0525883
-0.19835342 0.075152539 1.054
-0.35376558 0.082989052 1.0528638
-0.34443587 0.084557541 1.0538261
-0.33539033 0.085446253 1.0519131
-0.32755071 0.088913284 1.0510001
-0.21369487 0.0875699 1.0531539
-0.20568468 0.082233831 1.0557693
-0.1986222 0.082413457 1.05625
-0.34007564 0.091737032 1.057
-0.3339991 0.093355455 1.0566669
-0.32496995 0.095093161 1.0530912
-0.3160997 0.096652508 1.0500001
-0.23101044 0.097318068 1.0532
-0.22460954 0.095132984 1.0535001
-0.2160379 0.093798883 1.0563573
-0.32339621 0.10100339 1.057
-0.31460866 0.10223982 1.054091
-0.30456015 0.10417219 1.0534
-0.29545954 0.10620986 1.0534617
-0.28700927 0.10826308 1.0510001
-0.23275441 0.10616959 1.0531111
-0.22857039 0.10409219 1.057
-0.29281718 0.11026976 1.057
-0.28359929 0.11293884 1.0547143
-0.27495641 0.11595451 1.0525001
-0.26483923 0.11811805 1.0526001
-0.25500694 0.11827953 1.0524
-0.24477389 0.11690778 1.053125
-0.23490168 0.11398711 1.0549376
-0.24741198 0.1213894 1.057
-0.15376808 -0.14202853 1.0648572
-0.1477534 -0.14093877 1.0600001
-0.15059994 -0.13937509 1.067
-0.14398657 -0.13724405 1.0627693
-0.13520524 -0.1354696 1.063643
-0.12799351 -0.13805343 1.0626
-0.17439239 -0.051109668 1.0600001
-0.16424718 -0.05284578 1.0602144
-0.15760109 -0.053463079 1.0625001
-0.1715527 -0.047078315 1.0635
-0.16557859 -0.048289347 1.0649092
-0.15714777 -0.049576376 1.067
-0.14589487 0.0083633997 1.0600001
-0.44264069 0.01889509 1.0600001
-0.43861386 0.0195146 1.0600001
-0.15273495 0.016416527 1.0628463
-0.14705119 0.012677653 1.0630001
-0.44140413 0.022645032 1.0615001
-0.43534634 0.025674496 1.0620714
-0.42733994 0.02886162 1.0620002
-0.17005579 0.028807266 1.0600001
-0.16339193 0.027163196 1.0617273
-0.15806739 0.023530999 1.0641112
-0.43215632 0.03086831 1.067
-0.42559689 0.033057608 1.0651002
-0.41906071 0.038351536 1.067
-0.19049966 0.038099933 1.0600001
-0.18507659 0.037575398 1.0626668
-0.17457098 0.033909466 1.0625999
-0.16611983 0.031357363 1.0654286
-0.41513199 0.044338118 1.067
-0.40723884 0.049390525 1.0630001
-0.39286938 0.057371408 1.067
-0.192835 0.056490086 1.0626364
-0.39068678 0.063295625 1.067
-0.38436064 0.065596089 1.0631876
-0.37874675 0.067935094 1.0615001
-0.20443867 0.062260866 1.0600001
-0.19650827 0.063598223 1.0623572
-0.38350907 0.073337555 1.0662727
-0.37483075 0.075324081 1.0619524
-0.36851165 0.079099439 1.0615001
-0.37322593 0.081380092 1.067
-0.36536723 0.08391916 1.0635716
-0.35734469 0.088405259 1.0615001
-0.20435593 0.086908348 1.0606924
-0.19874005 0.087124594 1.061
-0.35220638 0.09124434 1.0656667
-0.34428948 0.093866773 1.0630716
-0.3363747 0.096908368 1.062875
-0.32988966 0.09943153 1.0600001
-0.2202362 0.09943153 1.0600001
-0.21400923 0.097307213 1.0621668
-0.20548248 0.091846019 1.0625334
-0.19886744 0.091499448 1.0650001
-0.3414222 0.10008816 1.067
-0.33393899 0.10172512 1.067
-0.32366583 0.10522379 1.0648571
-0.31468087 0.10710879 1.0644444
-0.30601802 0.1078975 1.0610001
-0.22458301 0.10509873 1.0625908
-0.21845479 0.10316753 1.064
-0.31148931 0.11131299 1.067
-0.30391726 0.11261003 1.0645
-0.29521349 0.11342933 1.0634167
-0.28604332 0.11616111 1.0628333
-0.27545613 0.11911314 1.0615001
-0.23386975 0.11833008 1.0604285
-0.22878511 0.11439694 1.0626
-0.27332205 0.12312843 1.064889
-0.26485771 0.12404083 1.0638126
-0.25548252 0.12362453 1.0642501
-0.24445568 0.12379426 1.0626472
-0.23480505 0.12220263 1.0655454
-0.15781051 -0.14090094 1.0715001
-0.1542574 -0.13730767 1.0738571
-0.14506993 -0.13395394 1.0726364
-0.13407388 -0.1323323 1.0729229
-0.1265305 -0.13395433 1.075125
-0.13265587 -0.1288792 1.077
-0.12919115 -0.12730281 1.0756668
-0.17200312 -0.042294532 1.0721428
-0.16454627 -0.043482911 1.0719999
-0.15655904 -0.04423387 1.0736666
-0.17183894 -0.03871097 1.077
-0.16749576 -0.037955634 1.077
-0.15102337 0.018760666 1.0700001
-0.14614917 0.018193392 1.0732499
-0.1604037 0.029079033 1.0700001
-0.1548097 0.024892831 1.0728667
-0.43319514 0.035186481 1.075
-0.42657861 0.037821852 1.0732
-0.18248868 0.038567197 1.0730001
-0.17391621 0.037268586 1.0734999
-0.16502497 0.034820542 1.073375
-0.15817784 0.032013237 1.074
-0.42456737 0.043566015 1.074923
-0.41795126 0.045997825 1.0707501
-0.19068772 0.04133264 1.0715001
-0.18757203 0.040900007 1.0725001
-0.42109981 0.050041009 1.077
-0.41457888 0.051704336 1.0723333
-0.40425649 0.056529418 1.0726666
-0.39809147 0.058751352 1.07225
-0.4031606 0.064098649 1.077
-0.39606482 0.065211192 1.0728333
-0.19538577 0.064817667 1.0715001
-0.40221643 0.070812747 1.077
-0.39480627 0.071353354 1.0756667
-0.38690457 0.075689204 1.0725001
-0.3805005 0.082142793 1.077
-0.37371075 0.086086713 1.0737778
-0.36796767 0.088466622 1.0735
-0.36188975 0.091414414 1.075
-0.35462034 0.095199972 1.0751251
-0.34833559 0.096707731 1.0710001
-0.2110575 0.098493502 1.0700001
-0.20637682 0.096888319 1.0730001
-0.3438417 0.10368943 1.0735832
-0.33547524 0.10528057 1.0713636
-0.32793245 0.1071839 1.0706
-0.31799328 0.10881187 1.0700001
-0.22231388 0.10912454 1.0700001
-0.21510014 0.10436732 1.0724999
-0.20921475 0.10083859 1.075
-0.33140367 0.11046789 1.077
-0.32434079 0.11102217 1.0755
-0.31493354 0.11348605 1.0737778
-0.30484468 0.11769618 1.0706
-0.29589742 0.11829642 1.0700001
-0.28703821 0.11913023 1.0700001
-0.22512195 0.11446883 1.0725788
-0.21904744 0.11046789 1.077
-0.29741353 0.12179793 1.077
-0.28352013 0.12258442 1.0744287
-0.27606234 0.12663822 1.072
-0.26476911 0.12863068 1.0710001
-0.25517982 0.12794214 1.071125
-0.24442665 0.12831712 1.0710001
-0.23510076 0.12677322 1.0723846
-0.22857346 0.12242928 1.0715001
-0.27235666 0.1319401 1.075
-0.26599401 0.13146801 1.075
-0.25401741 0.13138755 1.0760001
-0.24616587 0.13244918 1.0758573
-0.15499844 -0.13242808 1.0831175
-0.14552121 -0.13097709 1.0817778
-0.1221372 -0.13160519 1.08
-0.15405808 -0.12737587 1.087
-0.14500675 -0.12587355 1.0858095
-0.13549407 -0.12474571 1.0837306
-0.12475923 -0.1257759 1.0825384
-0.11773691 -0.12344839 1.086
-0.13055232 -0.11911708 1.087
-0.15432841 -0.040712401 1.08
-0.1726388 -0.034944635 1.0832001
-0.16414948 -0.034725875 1.0834347
-0.15606824 -0.036304343 1.0841999
-0.16676392 -0.029064568 1.087
-0.15260276 0.027489111 1.0812
-0.14565107 0.024724551 1.0846362
-0.44120967 0.035258658 1.087
-0.43663937 0.03796909 1.08275
-0.17799839 0.038818799 1.08
-0.16291273 0.037943009 1.082
-0.15518154 0.034653027 1.0844998
-0.14883812 0.032053273 1.086
-0.43409172 0.044169683 1.0835
-0.42842698 0.046866596 1.08
-0.19235703 0.046432164 1.080889
-0.18513998 0.04421977 1.0846999
-0.17575715 0.04174735 1.085
-0.16397624 0.041504655 1.0865715
-0.15914042 0.040976275 1.087
-0.43168032 0.050505642 1.087
-0.42545855 0.053403765 1.0845
-0.41753879 0.053967599 1.08
-0.4080708 0.059648398 1.08
-0.19274464 0.051184356 1.0852001
-0.18945993 0.05236505 1.086
-0.40731218 0.066671483 1.0813334
-0.19649325 0.06777826 1.0828
-0.40253466 0.074227802 1.0855
-0.39542499 0.075764708 1.083625
-0.38724118 0.078584403 1.08
-0.20079216 0.072324559 1.0855
-0.19834524 0.07203979 1.086
-0.38382047 0.085527942 1.0863999
-0.37587959 0.089946002 1.08
-0.38022172 0.09052898 1.087
-0.37409064 0.092713989 1.0858001
-0.36478302 0.095847473 1.0839999
-0.35709229 0.097287558 1.0816
-0.20235308 0.097539201 1.0825555
-0.19888893 0.097066723 1.0855
-0.3625924 0.10148776 1.087
-0.35386902 0.10307354 1.083625
-0.34677711 0.10783811 1.08375
-0.33895439 0.108882 1.08
-0.21198992 0.10732836 1.0834
-0.20636535 0.10423262 1.0854666
-0.34210426 0.11149359 1.087
-0.33552885 0.11271719 1.085
-0.32393858 0.11566954 1.0821538
-0.31490567 0.11797128 1.08
-0.22179899 0.11695248 1.082375
-0.21642812 0.11404398 1.0851874
-0.20869313 0.11149359 1.087
-0.32113966 0.12102295 1.087
-0.31483993 0.12143558 1.085
-0.30384895 0.12468076 1.08425
