# .PCD v0.7 - Point Cloud Data file format
VERSION 0.7
FIELDS x y z
SIZE 4 4 4
TYPE F F F
COUNT 1 1 1
WIDTH 1480
HEIGHT 1
VIEWPOINT 0 0 0 1 0 0 0
POINTS 1480
DATA ascii
-0.31469727 -0.027223019 1.07075
-0.30861297 -0.027202966 1.0700001
-0.16383556 -0.022242201 1.072
-0.36310107 -0.0155696 1.0764999
-0.35603628 -0.014788676 1.0721579
-0.16211443 -0.018221166 1.0714
-0.15781051 -0.011273495 1.0715001
-0.36350545 -0.0084975297 1.077
-0.3552435 -0.0053022448 1.0755625
-0.34813231 -0.0039869705 1.0703751
-0.15655674 -0.0040696333 1.0715001
-0.35146731 0.0030685521 1.077
-0.34465966 0.0055272188 1.0730624
-0.33675396 0.0070352508 1.0700001
-0.15596777 0.0054566064 1.0730666
-0.34304741 0.014159794 1.0767142
-0.33488774 0.015232669 1.0731481
-0.32722622 0.01595466 1.0704615
-0.15655573 0.014566232 1.0736666
-0.36382017 0.028639823 1.077
-0.35500491 0.027330009 1.0750833
-0.34472075 0.02623436 1.0739999
-0.33513376 0.025922889 1.0753332
-0.32483459 0.025348727 1.0709
-0.31861866 0.027202966 1.0700001
-0.16163246 0.026978649 1.0703751
-0.1584871 0.024728796 1.0745001
-0.3632687 0.03430257 1.0746469
-0.35560024 0.034161892 1.0713124
-0.34725994 0.031705528 1.0700001
-0.33429915 0.032844521 1.0704614
-0.32508588 0.033657372 1.0701874
-0.30861297 0.037521333 1.0700001
-0.17158629 0.037261695 1.0715001
-0.16552088 0.034216993 1.0731052
-0.15956473 0.03210178 1.077
-0.36188799 0.041468088 1.075
-0.35532904 0.044325672 1.0733999
-0.34908238 0.046231639 1.0700001
-0.31611723 0.040335432 1.0700001
-0.30861297 0.040335432 1.0700001
-0.18197846 0.048777729 1.0700001
-0.17502618 0.044697728 1.0723636
-0.16900642 0.040599309 1.077
-0.35153615 0.053023778 1.0762001
-0.34478056 0.055212516 1.0741874
-0.33664033 0.057985034 1.071125
-0.19487722 0.055929478 1.0714999
-0.18480043 0.055685822 1.0724814
-0.17678834 0.053830333 1.0718571
-0.34084538 0.062315222 1.077
-0.33446261 0.065062106 1.0741363
-0.32600552 0.066293687 1.0705453
-0.19629131 0.0631641 1.0729231
-0.18788983 0.061371047 1.077
-0.33203313 0.071442194 1.077
-0.32469764 0.073308744 1.074
-0.31548324 0.077268235 1.0705
-0.20152602 0.079070769 1.0712
-0.19798623 0.07415162 1.0734
-0.32007363 0.08025445 1.077
-0.31351605 0.083057411 1.0748572
-0.30579269 0.086632639 1.0721667
-0.29923263 0.089113168 1.0700001
-0.24107456 0.089113168 1.0700001
-0.23544638 0.089113168 1.0700001
-0.22512801 0.089113168 1.0700001
-0.21386363 0.087455474 1.07075
-0.20516208 0.085688166 1.0731537
-0.19921987 0.082142793 1.077
-0.30204368 0.091886498 1.075
-0.29472393 0.095015392 1.0745714
-0.28657717 0.097125806 1.071
-0.24107456 0.092865296 1.0700001
-0.23558006 0.094857112 1.0728518
-0.22564138 0.093226597 1.0741249
-0.21554896 0.093553677 1.0753528
-0.20781891 0.092135742 1.0746
-0.29269269 0.10102619 1.077
-0.28407505 0.10233286 1.0741667
-0.27532834 0.10503243 1.0728666
-0.26674002 0.10793432 1.0706
-0.25889719 0.1097499 1.0700001
-0.24220021 0.10637299 1.0700001
-0.23697548 0.10505415 1.0724736
-0.27286512 0.11046789 1.077
-0.2642436 0.11217311 1.0752223
-0.25432169 0.11531091 1.0740908
-0.24509619 0.11515976 1.0726817
-0.23715428 0.1134704 1.0734999
-0.30380306 -0.17460755 1.085263
-0.29750976 -0.17343621 1.0810909
-0.30284327 -0.16790745 1.087
-0.29839629 -0.16820428 1.0840001
-0.16558085 -0.13037217 1.0855
-0.22012837 -0.12102295 1.087
-0.21415825 -0.12193425 1.0845
-0.16215177 -0.12654398 1.08325
-0.15528996 -0.12372409 1.0847499
-0.14716065 -0.12183976 1.087
-0.24204591 -0.11149359 1.087
-0.23420615 -0.11244117 1.0850999
-0.22493893 -0.11453293 1.0844666
-0.21688338 -0.11733 1.0815001
-0.15354875 -0.11513713 1.0804445
-0.14491272 -0.11529469 1.0849642
-0.13585386 -0.1135119 1.0846249
-0.35226893 -0.10069364 1.087
-0.34445566 -0.1033383 1.0854
-0.3354679 -0.10341516 1.0848666
-0.32498911 -0.10355747 1.0848823
-0.31494233 -0.10391256 1.0849375
-0.30515173 -0.10354358 1.0860624
-0.29488099 -0.10196423 1.087
-0.28487337 -0.10209693 1.085875
-0.27539867 -0.10101129 1.087
-0.26506424 -0.10192904 1.086625
-0.25435337 -0.10345637 1.0854999
-0.24432817 -0.10539207 1.084818
-0.23572087 -0.10579728 1.0817777
-0.22723201 -0.108882 1.08
-0.16190279 -0.10414801 1.08
-0.15442967 -0.10511247 1.0818332
-0.14531274 -0.10542343 1.0833598
-0.13615905 -0.10572741 1.0818094
-0.36116299 -0.093705438 1.087
-0.35482863 -0.094310194 1.0856363
-0.345438 -0.096047185 1.0809412
-0.33481523 -0.0965873 1.0810908
-0.32469994 -0.09599863 1.081857
-0.31468713 -0.095775686 1.0824614
-0.30474797 -0.095675617 1.0821537
-0.29513049 -0.095546275 1.0827825
-0.28528753 -0.095975295 1.0830767
-0.27570367 -0.095135286 1.0815555
-0.26533607 -0.096402593 1.0811764
-0.25588733 -0.097312577 1.0818666
-0.24586973 -0.097287729 1.0823529
-0.2389092 -0.0987828 1.08
-0.17290547 -0.092278682 1.082
-0.16446182 -0.094984777 1.0831935
-0.15502892 -0.095106333 1.0848999
-0.14532702 -0.094982281 1.0834664
-0.1363371 -0.094744101 1.0820799
-0.36116299 -0.085764304 1.087
-0.35577908 -0.084663473 1.0850999
-0.34747559 -0.085211992 1.08
-0.33611399 -0.089946002 1.08
-0.3209652 -0.089946002 1.08
-0.3159945 -0.089235902 1.08
-0.30739442 -0.089314796 1.08
-0.29350799 -0.089946002 1.08
-0.28498679 -0.089946002 1.08
-0.17421782 -0.085229836 1.0839128
-0.16604923 -0.08767017 1.087
-0.15421692 -0.086876057 1.087
-0.14508723 -0.084546946 1.0862499
-0.1361019 -0.085656479 1.0856665
-0.36187768 -0.074567296 1.087
-0.35564899 -0.075123399 1.0846999
-0.34762126 -0.075379848 1.08
-0.17445695 -0.075826138 1.0839
-0.14214639 -0.076711409 1.087
-0.13741347 -0.077569045 1.087
-0.36163947 -0.068134971 1.087
-0.35497099 -0.065168999 1.0852499
-0.34842238 -0.065565906 1.08
-0.17248154 -0.060035009 1.087
-0.3522954 -0.055793963 1.0861
-0.34562171 -0.054319188 1.0810525
-0.33725014 -0.051316559 1.08
-0.17010491 -0.052266866 1.0840001
-0.35226893 -0.045423314 1.087
-0.34562728 -0.04459459 1.0844544
-0.33567894 -0.044248234 1.0812799
-0.17084838 -0.044613305 1.0827
-0.16819334 -0.04240568 1.087
-0.38022172 -0.033352785 1.087
-0.37407663 -0.034225397 1.0843749
-0.36483687 -0.035317529 1.0830952
-0.35476938 -0.036160406 1.0831538
-0.34629032 -0.03742402 1.0834
-0.33480623 -0.036768369 1.0815555
-0.32702473 -0.035978399 1.08
-0.17094882 -0.038235527 1.0813333
-0.16655603 -0.035304815 1.084941
-0.38093644 -0.025729287 1.087
-0.3741903 -0.025109965 1.0828182
-0.36767399 -0.028719602 1.08
-0.16539887 -0.026738429 1.0849999
-0.37390953 -0.015607452 1.084941
-0.36783183 -0.014202001 1.08
-0.16147456 -0.018041361 1.0835
-0.3716453 -0.006670557 1.087
-0.36506641 -0.004742377 1.0825554
-0.358206 -0.001578 1.08
-0.15148801 -0.00094679999 1.08
-0.36367965 0.0030141261 1.0854999
-0.35622278 0.0054773465 1.0822307
-0.15224077 0.0042687827 1.0820001
-0.14856462 0.0063353777 1.0840001
-0.35401952 0.013216335 1.0852222
-0.34761086 0.016636629 1.08
-0.1526092 0.015586945 1.0822142
-0.14656667 0.014273703 1.0852631
-0.38197693 0.02626368 1.0865715
-0.3747322 0.02561944 1.0823913
-0.36506671 0.024021035 1.0825262
-0.35535023 0.022534236 1.0835456
-0.347949 0.022249801 1.08
-0.33611402 0.023670001 1.08
-0.15414704 0.025644103 1.0833912
-0.1493388 0.024095682 1.087
-0.37351513 0.03407333 1.0845833
-0.36812869 0.038235523 1.0813333
-0.16224568 0.03737795 1.080889
-0.15547261 0.034764219 1.0849999
-0.14961106 0.032399848 1.087
-0.37069237 0.042882148 1.087
-0.3655329 0.045142356 1.0830001
-0.17158701 0.046754934 1.082875
-0.16584463 0.04365785 1.0851666
-0.15914042 0.040976275 1.087
-0.36228794 0.051973533 1.0857999
-0.35598648 0.054989323 1.0828462
-0.34873798 0.0590172 1.08
-0.17404754 0.053789929 1.0848889
-0.35163364 0.061940882 1.087
-0.34548053 0.064949654 1.0826428
-0.33990121 0.069116399 1.08
-0.19331343 0.066591948 1.082
-0.18543153 0.065677941 1.0841904
-0.17913835 0.06182516 1.085
-0.34116009 0.071272999 1.0840001
-0.33475655 0.075020343 1.0831538
-0.32726806 0.077885166 1.0808001
-0.19548509 0.074907251 1.0836923
-0.32333767 0.084183946 1.0845383
-0.31575584 0.086651288 1.080889
-0.3096036 0.089946002 1.08
-0.2016684 0.088999197 1.08
-0.19712383 0.08489944 1.0838234
-0.32113966 0.09052898 1.087
-0.31424013 0.093382142 1.085909
-0.30481887 0.096320197 1.0810525
-0.29761079 0.0987828 1.08
-0.231966 0.099413998 1.08
-0.22479039 0.098309405 1.0810909
-0.21396248 0.098523021 1.0823332
-0.20398633 0.095499195 1.0822607
-0.197237 0.093994819 1.0861428
-0.30377582 0.10443044 1.0846469
-0.29497573 0.10586685 1.083238
-0.28554532 0.10747805 1.0814545
-0.27930599 0.108882 1.08
-0.23225598 0.10488331 1.08025
-0.22526801 0.10538691 1.0853199
-0.21531476 0.10337601 1.0857999
-0.20472257 0.10259952 1.087
-0.19916376 0.10005835 1.087
-0.29445744 0.11149359 1.087
-0.2841562 0.11262683 1.0856667
-0.27441546 0.11384936 1.0821875
-0.26598856 0.11663788 1.0816666
-0.23340365 0.11543845 1.0832777
-0.26366389 0.12226909 1.0848889
-0.25489578 0.12403232 1.082579
-0.24470256 0.12469483 1.0831921
-0.23604541 0.1243874 1.0846666
-0.24109298 0.13055232 1.087
-0.23823416 0.13055232 1.087
-0.30673689 -0.1806021 1.09
-0.32088831 -0.17086263 1.097
-0.31536645 -0.17227675 1.0954001
-0.30864802 -0.17104644 1.09
-0.32217062 -0.16829808 1.097
-0.31497869 -0.1656089 1.0964
-0.30790201 -0.16703369 1.0941429
-0.17342716 -0.14233209 1.097
-0.16560531 -0.14175507 1.097
-0.15868105 -0.14137039 1.097
-0.25457662 -0.1323029 1.097
-0.24451306 -0.13247462 1.097
-0.23625845 -0.13324933 1.097
-0.22119176 -0.13175336 1.097
-0.21702439 -0.13239449 1.097
-0.1723509 -0.13829342 1.0965716
-0.16458751 -0.13578822 1.09525
-0.15493995 -0.13505596 1.0950401
-0.14664671 -0.13272767 1.0951251
-0.33274937 -0.12021291 1.097
-0.32794082 -0.12021291 1.097
-0.31159186 -0.12021291 1.097
-0.30614224 -0.12085406 1.097
-0.28370249 -0.12021291 1.097
-0.27408546 -0.12154451 1.097
-0.26396224 -0.12304743 1.097
-0.25498399 -0.12518726 1.097
-0.24527949 -0.12570982 1.0965385
-0.23569924 -0.12559995 1.0958261
-0.2247337 -0.12551539 1.0952858
-0.21722025 -0.12669674 1.0927501
-0.15289065 -0.12804593 1.09
-0.14398411 -0.1261836 1.0920501
-0.13870473 -0.12496825 1.0936667
-0.36473578 -0.11069783 1.0952857
-0.35198343 -0.11059588 1.097
-0.3442457 -0.11364857 1.0955
-0.33509174 -0.1141553 1.09575
-0.32500803 -0.11441234 1.0960001
-0.31452027 -0.11464363 1.0956956
-0.3050327 -0.11391975 1.0954999
-0.29454109 -0.11341962 1.0958948
-0.28490475 -0.11389485 1.0959091
-0.27512217 -0.11453923 1.0959285
-0.26513308 -0.11414433 1.094913
-0.25518239 -0.11467457 1.0944444
-0.24462788 -0.11642309 1.0929999
-0.2349676 -0.11758168 1.0916001
-0.22763439 -0.11859985 1.0910001
-0.13855717 -0.11944583 1.09
-0.37411731 -0.10322861 1.0936666
-0.36490756 -0.1042621 1.0918462
-0.35564101 -0.10532295 1.0926191
-0.34453055 -0.10768643 1.0913334
-0.33576018 -0.10783456 1.0924001
-0.32509196 -0.10804508 1.0906668
-0.31469992 -0.10861608 1.09
-0.30366856 -0.10760032 1.0910001
-0.29484767 -0.10642287 1.0906155
-0.28505489 -0.10645363 1.0911429
-0.275235 -0.10619392 1.0925
-0.26593107 -0.10629282 1.0922858
-0.2547116 -0.1077667 1.09
-0.24844733 -0.10989016 1.09
-0.37480393 -0.09529338 1.0949545
-0.36497617 -0.094802275 1.09
-0.37376887 -0.085698716 1.0953125
-0.36599627 -0.084863745 1.0907501
-0.17104644 -0.082178734 1.09
-0.16448915 -0.083679684 1.0918947
-0.1562786 -0.083308041 1.09
-0.13310401 -0.082354642 1.0923334
-0.12982994 -0.081744783 1.097
-0.37311688 -0.075474486 1.0957143
-0.36690983 -0.0760599 1.0913334
-0.17219131 -0.074499644 1.0942501
-0.16501565 -0.07660649 1.0961601
-0.15437323 -0.075012296 1.0946552
-0.14621876 -0.073648304 1.0910667
-0.13403073 -0.074788943 1.0917144
-0.12790655 -0.075974561 1.097
-0.37188837 -0.064381525 1.0961429
-0.36477926 -0.064322412 1.0908697
-0.35833749 -0.060200699 1.09
-0.17406851 -0.065691918 1.0940001
-0.15242998 -0.064914979 1.097
-0.144675 -0.064894065 1.0944287
-0.13541734 -0.065035239 1.0933214
-0.3702558 -0.056740493 1.097
-0.36434996 -0.054649651 1.0936999
-0.35694757 -0.053598598 1.09
-0.17134684 -0.056047637 1.0960001
-0.15194912 -0.058663905 1.097
-0.14408578 -0.055722225 1.097
-0.13675563 -0.055398103 1.096625
-0.39333665 -0.041353244 1.097
-0.38466272 -0.041715305 1.0964
-0.37343299 -0.043653231 1.0956666
-0.36485112 -0.044625945 1.093087
-0.3560963 -0.044828296 1.090706
-0.1691353 -0.046822768 1.09
-0.14137039 -0.04904687 1.097
-0.13848528 -0.04904687 1.097
-0.39251965 -0.034859452 1.0961819
-0.3854098 -0.035988916 1.0929999
-0.37553769 -0.038796008 1.09
-0.36407089 -0.039178234 1.09
-0.35738194 -0.039178234 1.09
-0.16318956 -0.034931269 1.09
-0.15957963 -0.031533699 1.09
-0.39217469 -0.025513256 1.0952857
-0.38565663 -0.024395661 1.0912501
-0.16181467 -0.025105046 1.0930667
-0.15898056 -0.026543714 1.0946666
-0.39205441 -0.017631227 1.097
-0.38510314 -0.014573984 1.0931579
-0.3785955 -0.01204014 1.09
-0.1607535 -0.017575705 1.0936667
-0.38201603 -0.0072068577 1.0962501
-0.37583283 -0.0044026789 1.0923333
-0.36980429 -0.00095556665 1.09
-0.37355846 0.0037354769 1.0947778
-0.36664364 0.0069110561 1.0913334
-0.38441765 0.01825987 1.0962501
-0.37296772 0.015591582 1.0958462
-0.36461547 0.014202416 1.0938096
-0.35770044 0.015926111 1.09
-0.14285429 0.018216841 1.0936667
-0.39186692 0.025947582 1.0962501
-0.3860774 0.023809955 1.0927857
-0.3755959 0.02049331 1.0924
-0.36547533 0.020091446 1.0913334
-0.35833749 0.0200669 1.09
-0.14497718 0.02448814 1.0929201
-0.13944699 0.022119176 1.097
-0.39141324 0.03173621 1.097
-0.38480148 0.035297643 1.0943158
-0.3779982 0.036654018 1.0906668
-0.15164332 0.037992831 1.0925001
-0.1470817 0.034307152 1.0952728
-0.38179621 0.041353244 1.097
-0.37532538 0.044604395 1.0932308
-0.36980429 0.047778334 1.09
-0.16254763 0.047103699 1.0924546
-0.15577358 0.044038907 1.0946112
-0.37292558 0.053605713 1.0958
-0.36571506 0.055645224 1.091643
-0.17328641 0.056166895 1.0933001
-0.1665976 0.0520164 1.0947001
-0.36351734 0.062669925 1.0964
-0.35580993 0.064458542 1.0927143
-0.34782624 0.069756366 1.09
-0.18172336 0.067907475 1.0910001
-0.17757721 0.064210795 1.0959167
-0.35294512 0.070845477 1.097
-0.34486619 0.074586138 1.0942501
-0.33888954 0.077546425 1.092
-0.19231369 0.076148614 1.0930769
-0.1855166 0.073996343 1.0944706
-0.17983852 0.071166046 1.097
-0.33512613 0.085555993 1.0953333
-0.32764134 0.086692393 1.0906668
-0.19370057 0.085302882 1.0932223
-0.33274937 0.091361813 1.097
-0.32452932 0.094661094 1.0948125
-0.31733704 0.096939042 1.0917143
-0.19504605 0.095118336 1.0960001
-0.32088831 0.10161999 1.097
-0.31449407 0.10259271 1.0937001
-0.22264703 0.10989016 1.09
-0.21500249 0.10817015 1.09
-0.20457514 0.1070765 1.0919286
-0.19767334 0.1028367 1.0940001
-0.2935541 0.1142365 1.095
-0.28633851 0.11659545 1.092375
-0.27806988 0.1175347 1.09
-0.23108386 0.1150671 1.09375
-0.22535889 0.11477985 1.0953685
-0.21405976 0.11386172 1.0955
-0.20721799 0.11177733 1.0960001
-0.28274077 0.12021291 1.097
-0.27985567 0.12021291 1.097
-0.26535866 0.12645566 1.0927501
-0.25704744 0.1290015 1.09
-0.23190933 0.12506232 1.0935456
-0.22957233 0.12543359 1.097
-0.26294681 0.13227439 1.0960001
-0.25458843 0.13458295 1.0939047
-0.24527521 0.1351002 1.0929091
-0.23585185 0.1344218 1.0936501
-0.22984709 0.13271506 1.097
-0.32424623 -0.16363525 1.101
-0.31426135 -0.16203268 1.1029999
-0.23700859 -0.1602722 1.108
-0.3325741 -0.15608972 1.1076249
-0.3251549 -0.1574371 1.1053998
-0.3184309 -0.15856722 1.1051666
-0.28363323 -0.15055872 1.108
-0.25157878 -0.15055872 1.108
-0.2448734 -0.15313914 1.1076471
-0.23624586 -0.15397228 1.1064998
-0.32151574 -0.14084527 1.108
-0.31541014 -0.14140032 1.1079999
-0.30446321 -0.14149283 1.1079999
-0.29354098 -0.14414786 1.1079999
-0.28476647 -0.14473066 1.1079999
-0.27561963 -0.14157379 1.1079999
-0.26432982 -0.14197275 1.1077
-0.25464004 -0.14381957 1.1069498
-0.24534655 -0.14512283 1.1053331
-0.23518895 -0.14490519 1.1052724
-0.22708397 -0.1430987 1.1053998
-0.17448851 -0.14553221 1.101
-0.16456831 -0.14333369 1.1010001
-0.33220056 -0.13210315 1.108
-0.32472098 -0.13441139 1.1075712
-0.31531283 -0.13485883 1.1066798
-0.30495498 -0.13505419 1.1065712
-0.2946271 -0.13481443 1.1069229
-0.28480667 -0.13493176 1.1072799
-0.27488604 -0.13475811 1.1070768
-0.26501727 -0.1347477 1.1042379
-0.25547096 -0.13654588 1.1022308
-0.24487944 -0.1373437 1.101
-0.23399647 -0.13593544 1.1014444
-0.22572026 -0.13508573 1.1021998
-0.21910267 -0.13512939 1.1010001
-0.174703 -0.13802503 1.1010001
-0.35503024 -0.12222531 1.1064999
-0.34382027 -0.1228551 1.1047692
-0.33460188 -0.12518528 1.103111
-0.32503888 -0.12492425 1.1025598
-0.31591266 -0.12475847 1.1023333
-0.30453566 -0.12535472 1.1013333
-0.29464322 -0.12462234 1.1019598
-0.2854144 -0.12546694 1.1029047
-0.27576259 -0.12684712 1.101923
-0.26704141 -0.12772945 1.101
-0.2316504 -0.12837292 1.1010001
-0.22875477 -0.12837292 1.1010001
-0.36287782 -0.11480587 1.1038182
-0.35549137 -0.11576546 1.1034759
-0.34506258 -0.11823823 1.1010001
-0.32913661 -0.11872083 1.1010001
-0.30082378 -0.11807736 1.1010001
-0.29438904 -0.11775562 1.101
-0.28859779 -0.11872083 1.1010001
-0.3914527 -0.10004871 1.108
-0.38691792 -0.10120657 1.10475
-0.39266691 -0.095920488 1.1079999
-0.3855353 -0.094541788 1.1049498
-0.38513914 -0.084400028 1.1065998
-0.37932754 -0.083973274 1.1010001
-0.38450196 -0.074726194 1.1069999
-0.37822443 -0.074596949 1.101
-0.17180738 -0.070460327 1.1010001
-0.16505091 -0.071184233 1.101
-0.15925965 -0.070460327 1.1010001
-0.38199899 -0.065860204 1.1071428
-0.37768018 -0.064430229 1.1043334
-0.17170013 -0.065098055 1.101
-0.16509914 -0.064686753 1.1013199
-0.15762623 -0.064223595 1.101
-0.37526751 -0.054714959 1.1046667
-0.17111371 -0.055580888 1.1027501
-0.16562037 -0.055687908 1.1064165
-0.15540051 -0.055019118 1.1030499
-0.14815974 -0.053086549 1.101
-0.13330622 -0.055016968 1.101
-0.39187527 -0.041504029 1.1010001
-0.38461366 -0.043941338 1.1040001
-0.37674063 -0.046442993 1.1035999
-0.17146285 -0.04940455 1.105
-0.16853304 -0.045359608 1.1075714
-0.15331417 -0.046626117 1.1063075
-0.14521569 -0.045288254 1.1033477
-0.13772458 -0.045260467 1.1028181
-0.40331918 -0.033603512 1.1066364
-0.3970874 -0.035326682 1.1010001
-0.16113374 -0.033002771 1.10725
-0.14473066 -0.039825212 1.108
-0.13793123 -0.039825212 1.108
-0.40305468 -0.024402756 1.1066152
-0.39773449 -0.025243867 1.1015714
-0.1584461 -0.023949219 1.10375
-0.40116617 -0.01748424 1.108
-0.3961007 -0.01433271 1.1047001
-0.1602722 -0.016512893 1.108
-0.15879458 -0.018397288 1.1045001
-0.39180583 -0.0071795494 1.1068
-0.38608056 -0.0040632621 1.1043
-0.15638681 -0.0038853863 1.1079999
-0.38301438 0.0046788496 1.1070908
-0.37717339 0.0071537755 1.1026001
-0.40394616 0.017149352 1.1073333
-0.39414233 0.015959892 1.1057333
-0.38485211 0.013729017 1.1063682
-0.37646258 0.014014393 1.1025
-0.40215063 0.023436734 1.1062499
-0.39642876 0.023747634 1.1032224
-0.14237365 0.028783595 1.1018
-0.13947912 0.026094569 1.1023334
-0.40116617 0.030111747 1.108
-0.39491585 0.035196509 1.105
-0.38897961 0.03957361 1.1010001
-0.14370377 0.035713386 1.1045294
-0.13718382 0.032654371 1.1063333
-0.39140841 0.044621453 1.1065
-0.38575065 0.045802955 1.1037221
-0.37932754 0.048260503 1.1010001
-0.15247528 0.0475461 1.1027273
-0.14746965 0.044099692 1.1054999
-0.38351503 0.055026863 1.1067141
-0.37715641 0.056762286 1.1027143
-0.17148565 0.058234338 1.1010001
-0.16416538 0.05659451 1.1039472
-0.15603797 0.05330807 1.1055623
-0.38173923 0.061194841 1.108
-0.37473649 0.064980686 1.1062498
-0.36582717 0.066480443 1.1021999
-0.17342636 0.06538564 1.1028749
-0.16791221 0.062257607 1.1071428
-0.37008306 0.070908308 1.108
-0.3637079 0.073908195 1.1063333
-0.35553831 0.075390659 1.1040553
-0.34693232 0.078276694 1.1023334
-0.18251838 0.077119492 1.1015714
-0.17715916 0.072608426 1.1042999
-0.3550272 0.082726359 1.1079999
-0.34633282 0.084313847 1.1042379
-0.19168527 0.084724583 1.1032
-0.18653989 0.083089359 1.1063333
-0.34439871 0.092209317 1.1071817
-0.33427435 0.095191717 1.1015713
-0.32849315 0.098773159 1.1010001
-0.19268425 0.094888709 1.1044999
-0.33093026 0.10384204 1.107
-0.32577133 0.10426486 1.1052999
-0.1961031 0.10595737 1.1037499
-0.29512742 0.11804909 1.10375
-0.22392872 0.11872083 1.1010001
-0.21536864 0.11847097 1.1016666
-0.20514642 0.11499156 1.1034665
-0.19935019 0.11211719 1.1056668
-0.29211149 0.12195632 1.107
-0.28489259 0.12451088 1.1062306
-0.27590528 0.1262812 1.106077
-0.22499441 0.12464713 1.1048076
-0.21538472 0.12272684 1.1063075
-0.20883954 0.12141833 1.108
-0.27100572 0.1311318 1.108
-0.26532307 0.13551231 1.105
-0.25578064 0.13995545 1.1010001
-0.24998939 0.13995545 1.1010001
-0.23371871 0.13830081 1.101
-0.22650123 0.13454804 1.1041498
-0.26129225 0.14084527 1.108
-0.25491187 0.1420912 1.1056001
-0.24438363 0.14314596 1.1051251
-0.23489478 0.14293896 1.1068461
-0.22714193 0.14172128 1.10725
-0.31489581 -0.16307555 1.1172501
-0.28322974 -0.16402426 1.1179092
-0.27501771 -0.16442636 1.1164
-0.26555943 -0.16374333 1.11675
-0.25480875 -0.16464783 1.117909
-0.24502614 -0.16354033 1.1160716
-0.23948342 -0.16323972 1.115
-0.34022382 -0.15110226 1.1120001
-0.33398473 -0.153052 1.1120002
-0.32462615 -0.15305196 1.1120002
-0.31526262 -0.15519239 1.1150399
-0.30578923 -0.1530094 1.1171539
-0.29404202 -0.15449257 1.1158
-0.28517041 -0.15586263 1.113
-0.27484143 -0.15492597 1.1124138
-0.26441395 -0.15513824 1.1129599
-0.25500512 -0.15552273 1.1125455
-0.24702783 -0.1581212 1.1120001
-0.34147766 -0.14459521 1.1145
-0.33444747 -0.14528364 1.11224
-0.32488045 -0.14559223 1.112
-0.31491002 -0.14662004 1.1125001
-0.30538902 -0.14681514 1.1125295
-0.29850006 -0.14759281 1.1120001
-0.28173262 -0.14525315 1.1120001
-0.27449083 -0.14664578 1.1120001
-0.26463518 -0.14750281 1.1120002
-0.25768623 -0.14850266 1.1120001
-0.35609937 -0.13047168 1.1190001
-0.34303966 -0.13354242 1.118
-0.33538401 -0.13666739 1.1130589
-0.32852557 -0.13842916 1.1120001
-0.35411042 -0.12632965 1.1127501
-0.34586868 -0.12699482 1.1126001
-0.13249354 -0.11100646 1.1140001
-0.12661247 -0.11100102 1.1131251
-0.13185617 -0.10475219 1.1186365
-0.12475379 -0.10587711 1.1177368
-0.11855835 -0.10483852 1.1176667
-0.40220588 -0.092213064 1.1190001
-0.396447 -0.093057372 1.113091
-0.40122494 -0.087308109 1.1190001
-0.39433947 -0.084919199 1.1134
-0.40122491 -0.079460189 1.1190001
-0.39501318 -0.07528279 1.1152999
-0.38896647 -0.072139144 1.1120001
-0.39375058 -0.066203728 1.1178889
-0.38667649 -0.064646825 1.1131251
-0.39219978 -0.058270805 1.1190001
-0.38527331 -0.055435766 1.115
-0.16377535 -0.051667225 1.1120001
-0.40122491 -0.046106528 1.1190001
-0.39471009 -0.046034832 1.1172223
-0.38509905 -0.048077278 1.1135
-0.17059933 -0.045818105 1.1120001
-0.16397843 -0.04558301 1.1125216
-0.15720658 -0.043533988 1.1125455
-0.41409311 -0.032755043 1.1153334
-0.40748867 -0.035744622 1.1120001
-0.16219421 -0.037279375 1.1132001
-0.15511255 -0.03497934 1.1137584
-0.14542514 -0.034157213 1.1133199
-0.13742572 -0.03358959 1.1147499
-0.41392082 -0.024608033 1.1165715
-0.40829402 -0.022822613 1.1126001
-0.15429497 -0.025680099 1.1171112
-0.14441065 -0.02633206 1.1184288
-0.1385611 -0.02692638 1.1170001
-0.41422305 -0.016186334 1.1190001
-0.40608194 -0.014528809 1.1157858
-0.398278 -0.010737851 1.1135001
-0.16133821 -0.013160519 1.1120001
-0.15827662 -0.013598756 1.1167779
-0.40262631 -0.0063063642 1.1190001
-0.39630544 -0.0038346075 1.1157693
-0.16085079 -0.0077988263 1.1120001
-0.15732571 -0.0078189895 1.1146667
-0.39497012 0.005238805 1.116647
-0.38823533 0.0056054066 1.1120001
-0.41072404 0.015637543 1.1155001
-0.40498361 0.013186381 1.1145002
-0.39595777 0.011288711 1.1128572
-0.4208447 0.02452475 1.1190001
-0.41510966 0.02400949 1.1177502
-0.40766349 0.02522796 1.1128571
-0.40328035 0.033070672 1.1160001
-0.39774016 0.038994133 1.1120001
-0.14200364 0.039319083 1.1120001
-0.13609801 0.037631016 1.1133333
-0.40122491 0.040220588 1.1190001
-0.39574116 0.045921378 1.1145999
-0.14366579 0.046633057 1.1128001
-0.13579294 0.044197667 1.1163198
-0.39061609 0.053666901 1.113
-0.38831654 0.056866441 1.1120001
-0.15393229 0.057705123 1.1125002
-0.14551036 0.05521103 1.1157999
-0.13766558 0.050684482 1.1190001
-0.38417959 0.065577291 1.1136668
-0.37921795 0.06921459 1.1120001
-0.17059933 0.068239734 1.1120001
-0.1645304 0.066067308 1.1136665
-0.15557374 0.064941965 1.1167082
-0.14714849 0.061802369 1.1190001
-0.37424317 0.073374473 1.1126667
-0.36790967 0.077403352 1.1120001
-0.18034786 0.078963116 1.1120001
-0.17564425 0.075400934 1.1137779
-0.1667683 0.071612269 1.1190001
-0.36329651 0.08228714 1.113
-0.35777116 0.086112045 1.1120001
-0.1834361 0.085825734 1.1134616
-0.17832626 0.083285965 1.1176667
-0.19079173 0.095399886 1.1141667
-0.18784837 0.093018346 1.1168572
-0.32400984 0.10865635 1.1166
-0.31882176 0.10888989 1.1190001
-0.19368476 0.10499471 1.1158334
-0.32176471 0.11085187 1.1190001
-0.31646737 0.11163666 1.1190001
-0.30570531 0.11644074 1.1161429
-0.20279124 0.1176946 1.1132001
-0.19658694 0.1144112 1.1140715
-0.30138531 0.12202543 1.118
-0.29566225 0.12582374 1.1157274
-0.28628194 0.12868063 1.1120001
-0.27880806 0.1296555 1.1120001
-0.22226655 0.1296555 1.1120001
-0.21460545 0.12739931 1.1135834
-0.20653199 0.12288938 1.1165456
-0.2921401 0.13154529 1.117
-0.28448218 0.13464032 1.1166667
-0.27529925 0.13481055 1.1128824
-0.26747143 0.13959208 1.1135001
-0.22244565 0.13561586 1.1129001
-0.21672796 0.13378939 1.1165262
-0.27565819 0.14028157 1.1190001
-0.2639423 0.14393039 1.1168572
-0.25496668 0.14653195 1.1143
-0.24534273 0.14809474 1.1133636
-0.23446116 0.14752643 1.113091
-0.22519383 0.14538285 1.114579
-0.25440341 0.15074547 1.1190001
-0.24342565 0.15261401 1.1190001
-0.23585996 0.15194474 1.1182001
-0.22738367 0.15142706 1.118
-0.26583174 -0.18185629 1.1257274
-0.25813365 -0.18113774 1.126
-0.31291914 -0.17077291 1.126
-0.30765447 -0.17307621 1.126
-0.29317662 -0.17077291 1.126
-0.2846576 -0.17322654 1.1248333
-0.27476534 -0.17368491 1.1241426
-0.26522663 -0.17451952 1.1246798
-0.2558409 -0.1737128 1.1232998
-0.24842131 -0.17097425 1.123
-0.31236228 -0.16455944 1.1240002
-0.30530652 -0.16436249 1.1257272
-0.29492015 -0.16485187 1.1247725
-0.28766993 -0.16677372 1.123
-0.26482964 -0.16834892 1.123
-0.24710867 -0.16834892 1.123
-0.31011644 -0.15850396 1.123
-0.30420944 -0.15751946 1.123
-0.29731798 -0.15850396 1.123
-0.34555832 -0.14078303 1.123
-0.35437846 -0.13128784 1.126
-0.34725311 -0.13604201 1.1245
-0.35291794 -0.12914133 1.1245
-0.13622348 -0.10562255 1.126
-0.12415703 -0.10214978 1.1240001
-0.11791576 -0.10346419 1.1240001
-0.10858393 -0.10266117 1.126
-0.40561262 -0.091558188 1.123
-0.13227497 -0.099699795 1.126
-0.12536508 -0.099699795 1.126
-0.11944233 -0.099699795 1.126
-0.40555644 -0.085544765 1.1237501
-0.40446761 -0.074946627 1.1235455
-0.41108346 -0.061119009 1.1245
-0.40328267 -0.064767353 1.1244117
-0.39832735 -0.062417082 1.123
-0.40232465 -0.054291964 1.126
-0.39623573 -0.053576402 1.1231765
-0.40274769 -0.048369206 1.126
-0.39773667 -0.048240338 1.123
-0.42038009 -0.030519396 1.123
-0.42066085 -0.024135292 1.1237501
-0.41841108 -0.022643423 1.123
-0.15327601 -0.021534065 1.1238573
-0.14487512 -0.02168102 1.1242001
-0.13679436 -0.023453636 1.1242001
-0.41566256 -0.012808538 1.1240002
-0.1541412 -0.015315228 1.1252105
-0.1456341 -0.016649535 1.1260002
-0.13770416 -0.018261842 1.126
-0.41424918 -0.0059173349 1.1250626
-0.40685216 -0.003774123 1.1232501
-0.15427887 -0.0073955599 1.1245
-0.41286573 0.0039485069 1.126
-0.40509391 0.0045520705 1.1242856
-0.41207057 0.010843929 1.1245
-0.42038009 0.028550403 1.123
-0.41644207 0.028550403 1.123
-0.4215031 0.030600926 1.126
-0.41536099 0.030584622 1.1254001
-0.40768331 0.035536557 1.126
-0.40206185 0.044381246 1.125
-0.13290705 0.048240338 1.123
-0.12896906 0.04725584 1.123
-0.39728475 0.053229883 1.1245
-0.14078303 0.057100806 1.123
-0.13509594 0.054018687 1.1248333
-0.12931359 0.052317712 1.126
-0.15220533 0.06797564 1.12375
-0.14485472 0.063988619 1.1249412
-0.13852678 0.060872812 1.126
-0.17402507 0.075952396 1.1251428
-0.16437735 0.073312409 1.125
-0.1554967 0.071667202 1.1250001
-0.18163964 0.089096949 1.123
-0.17866993 0.087854274 1.126
-0.19000785 0.09943416 1.123
-0.18467937 0.095445536 1.1251177
-0.17866993 0.092789903 1.126
-0.33275986 0.10927913 1.123
-0.19255045 0.10493787 1.1247143
-0.33187199 0.11391441 1.126
-0.32497543 0.1153765 1.1248333
-0.31544387 0.11658872 1.1242354
-0.30814746 0.1191241 1.123
-0.19382794 0.11649563 1.1237501
-0.32239556 0.12220629 1.126
-0.31424278 0.12427462 1.1255263
-0.30567658 0.12592228 1.1237059
-0.20416118 0.12667519 1.1236001
-0.19694217 0.12460292 1.1247368
-0.3039659 0.13252629 1.1253334
-0.29554644 0.13583019 1.1246156
-0.28747302 0.13881403 1.123
-0.21363904 0.13689914 1.1249093
-0.206185 0.13186759 1.1253333
-0.2846981 0.14169183 1.125
-0.2743668 0.14480908 1.1248463
-0.267003 0.14764731 1.1238573
-0.22190537 0.14662221 1.125
-0.21792145 0.14219323 1.1248
-0.26456082 0.15315984 1.1252002
-0.25540638 0.15573406 1.1243125
-0.24563164 0.15690988 1.1245002
-0.23533189 0.15595847 1.1247501
-0.22590011 0.1536424 1.12525
-0.24382028 0.16090165 1.126
-0.29280931 -0.19154814 1.138
-0.30128932 -0.18057404 1.138
-0.29324389 -0.18539572 1.1377501
-0.28443408 -0.18565224 1.1375793
-0.275388 -0.18345825 1.1324
-0.31204951 -0.17137957 1.13
-0.30373558 -0.17520905 1.1326668
-0.29476726 -0.17585781 1.1316
-0.28531116 -0.17918599 1.1313334
-0.27638671 -0.17930464 1.13
-0.30263847 -0.16890298 1.13
-0.35365608 -0.13373549 1.13
-0.13769804 -0.11194157 1.13
-0.1367074 -0.10896967 1.13
-0.12581043 -0.10005397 1.13
-0.11467995 -0.10188732 1.1303636
-0.10731861 -0.10071439 1.13
-0.13122648 -0.09841986 1.1340001
-0.12480988 -0.097390063 1.1348889
-0.11479841 -0.096638255 1.135
-0.10526463 -0.095600769 1.1342857
-0.41111284 -0.084203832 1.13
-0.40913156 -0.081231937 1.13
-0.41256809 -0.07058394 1.1340001
-0.40913156 -0.07495793 1.13
-0.41300443 -0.064270936 1.1328572
-0.40913159 -0.064391166 1.13
-0.41373831 -0.0571509 1.138
-0.40712795 -0.054583021 1.132
-0.40859154 -0.048712861 1.1340001
-0.42648605 -0.022865219 1.1340001
-0.15156689 -0.010896967 1.13
-0.14440723 -0.011981163 1.1303636
-0.1362761 -0.013456834 1.1311429
-0.41705665 -0.0025756466 1.13
-0.15285492 -0.0040433211 1.1327693
-0.14537722 -0.0069581545 1.1344708
-0.13555896 -0.0079732835 1.1370001
-0.41450927 0.0049531669 1.13
-0.42265534 0.034859769 1.136
-0.4150444 0.03583404 1.1353334
-0.40913156 0.0356628 1.13
-0.41202807 0.04190116 1.138
-0.40687677 0.042676132 1.132
-0.13239186 0.057923704 1.1326667
-0.12846673 0.056769427 1.136
-0.14265224 0.068054236 1.1316
-0.1353661 0.064494528 1.1334286
-0.17253324 0.078029998 1.1324
-0.16468464 0.07697624 1.1344
-0.15375666 0.074930862 1.1349231
-0.14467804 0.072531454 1.1352501
-0.13800779 0.071498014 1.138
-0.17589296 0.083474129 1.1347274
-0.36150017 0.094114952 1.1365455
-0.35380536 0.097419962 1.1322858
-0.1812859 0.097082064 1.13
-0.17896798 0.094692275 1.131
-0.36015046 0.10076232 1.138
-0.3544907 0.10397178 1.1362501
-0.3462154 0.1052493 1.13525
-0.19158849 0.10758279 1.13
-0.18560006 0.10419071 1.1338181
-0.34294596 0.11291174 1.1375556
-0.33691528 0.11512299 1.1344999
-0.32922047 0.11920621 1.13
-0.19174214 0.11533475 1.1332728
-0.18921798 0.11054416 1.136
-0.33315647 0.12345356 1.1366667
-0.32567719 0.12584004 1.1322223
-0.31700265 0.12878233 1.13
-0.19218989 0.1250807 1.1324
-0.32252744 0.13120368 1.1366667
-0.31381455 0.13388219 1.1340002
-0.30415198 0.13727023 1.1311429
-0.29619935 0.1396793 1.13
-0.2110049 0.13868867 1.13
-0.20476979 0.13613407 1.1309232
-0.19646253 0.13396169 1.1340001
-0.3102681 0.14066818 1.138
-0.304104 0.14158343 1.1373334
-0.29437181 0.14478238 1.1363335
-0.28561485 0.14638229 1.1328
-0.27638671 0.14826478 1.13
-0.22091123 0.14859501 1.13
-0.2150221 0.14555502 1.1340001
-0.20540826 0.14166676 1.1361538
-0.19753404 0.14066818 1.138
-0.28293365 0.15133686 1.1372001
-0.2753759 0.15260312 1.1340001
-0.2652916 0.15790695 1.13
-0.25162086 0.15949197 1.13
-0.2347801 0.15949197 1.13
-0.22353573 0.15659246 1.1325715
-0.21822709 0.15356959 1.1366668
-0.27036226 0.16062111 1.138
-0.26304618 0.1619513 1.138
-0.25413516 0.16422947 1.1353333
-0.24539638 0.1639311 1.1332726
-0.23596303 0.16286653 1.1335557
-0.22541818 0.16165558 1.1365001
-0.28407857 -0.19105284 1.141
-0.30372134 -0.18343706 1.1434001
-0.2982825 -0.18465108 1.141
-0.13103624 -0.097026832 1.141
-0.12569654 -0.094108336 1.1453637
-0.11531691 -0.092249535 1.1438
-0.10518786 -0.091733523 1.1427144
-0.099027388 -0.092025451 1.141
-0.11414883 -0.08918348 1.1482002
-0.10487235 -0.08701399 1.1475002
-0.097177364 -0.085114427 1.146143
-0.09166339 -0.079575911 1.149
-0.14441527 -0.0017513609 1.142
-0.13516451 -0.0030017651 1.1420667
-0.1290357 -0.0010002767 1.141
-0.15186408 0.0026119407 1.1442001
-0.14501469 0.0032699667 1.1467502
-0.13553426 0.0031514997 1.1463335
-0.12921058 0.0035220084 1.1470001
-0.42406908 0.039284311 1.149
-0.41911593 0.039010789 1.141
-0.42138299 0.044656526 1.149
-0.41549924 0.045036521 1.146091
-0.40996704 0.049357209 1.149
-0.40754956 0.05459512 1.149
-0.12446913 0.059223216 1.1450001
-0.39989412 0.067488432 1.149
-0.13103624 0.069019087 1.141
-0.12661201 0.064410165 1.1444668
-0.16304509 0.079021856 1.141
-0.15418024 0.079091117 1.1420001
-0.14476269 0.078225054 1.1423335
-0.13478188 0.075683296 1.1438236
-0.12886456 0.072978467 1.1466
-0.38176292 0.083605066 1.149
-0.37679851 0.087804481 1.1486001
-0.1725577 0.087229803 1.1436667
-0.1653515 0.083371222 1.1457502
-0.15518783 0.081784233 1.1470001
-0.14662388 0.082001768 1.1467144
-0.37379467 0.092882618 1.1485001
-0.36834639 0.096871011 1.1480001
-0.17625444 0.093780659 1.1432858
-0.37169001 0.10173629 1.149
-0.3636317 0.1052618 1.149
-0.35433552 0.10941238 1.1450001
-0.18102245 0.10781641 1.1440001
-0.17851827 0.10430317 1.1440001
-0.35537508 0.11346369 1.147182
-0.3469466 0.11672659 1.1458
-0.18511124 0.11475731 1.1445001
-0.34167776 0.12328695 1.1480001
-0.33799973 0.12695974 1.1463333
-0.18837062 0.12584287 1.1463333
-0.32479185 0.13474016 1.1470001
-0.31741953 0.13739997 1.1440001
-0.19249816 0.13778599 1.1416665
-0.18849216 0.13513409 1.1464547
-0.31254014 0.14370815 1.1463333
-0.30472234 0.14594957 1.1434
-0.2975823 0.14754081 1.141
-0.21105838 0.14904122 1.141
-0.2047593 0.14746901 1.1419231
-0.19466996 0.14472316 1.1450002
-0.30319428 0.15075773 1.149
-0.2941094 0.15257682 1.1450001
-0.28476727 0.15524277 1.1454
-0.27636421 0.15844668 1.1463333
-0.21286501 0.1555898 1.1416153
-0.20675975 0.15422396 1.1470002
-0.19843613 0.15008621 1.149
-0.27700475 0.16015911 1.149
-0.26511845 0.16569658 1.1454999
-0.25502101 0.16884117 1.1430001
-0.24454176 0.16881211 1.1416668
-0.23541717 0.16729818 1.1427143
-0.22533803 0.1673231 1.1438572
-0.21574549 0.16424927 1.1452001
-0.20750174 0.16015911 1.149
-0.26189539 0.17023201 1.149
-0.25454485 0.17338338 1.1468183
-0.24615613 0.17290808 1.1460911
-0.23469856 0.17023201 1.149
-0.22395416 0.17191082 1.149
-0.21791041 0.17090355 1.149
-0.13314164 -0.093013808 1.1557999
-0.12461553 -0.091180921 1.1556667
-0.13185942 -0.084947899 1.1570001
-0.12541856 -0.08689671 1.1562728
-0.11445918 -0.086298011 1.1553999
-0.10467789 -0.081843764 1.1551818
-0.12881652 -0.078101359 1.1570001
-0.094634503 -0.078204423 1.1552223
-0.089960903 -0.077831343 1.153
-0.15255696 0.0070901872 1.155
-0.14454392 0.008198685 1.153
-0.13398671 0.008198685 1.153
-0.12837118 0.0080863731 1.153
-0.1506087 0.011118763 1.153
-0.14453937 0.012569646 1.1561998
-0.13570312 0.011731428 1.1564286
-0.12881652 0.011157337 1.1570001
-0.42857778 0.03942107 1.153
-0.43107891 0.04260074 1.1570001
-0.42540905 0.046198577 1.1539999
-0.4179644 0.049023636 1.153
-0.42296448 0.05172947 1.1570001
-0.41398525 0.054473221 1.1560001
-0.40735105 0.057615411 1.153
-0.40529284 0.064127944 1.1565001
-0.12428832 0.067333698 1.155
-0.13241437 0.078842141 1.153
-0.1270169 0.074347474 1.1554
-0.39050677 0.088244386 1.1570001
-0.38511238 0.0866661 1.1539999
-0.17082463 0.089960903 1.153
-0.16475984 0.087535001 1.153
-0.15729663 0.084823988 1.1545999
-0.14390922 0.083609015 1.156
-0.13480625 0.08129032 1.1562001
-0.12881652 0.080129966 1.1570001
-0.39091247 0.093924485 1.1570001
-0.38473228 0.09508726 1.1552221
-0.37644958 0.096603274 1.153
-0.17430247 0.095085315 1.1552222
-0.16871245 0.0909492 1.1570001
-0.38239235 0.10143033 1.1570001
-0.3743822 0.10219811 1.1542
-0.36746824 0.10552233 1.1536666
-0.17753202 0.10361528 1.155
-0.36483446 0.11249036 1.156
-0.3556045 0.11786038 1.1539999
-0.18280236 0.11680864 1.1545999
-0.17953169 0.11258767 1.1570001
-0.35309801 0.12134662 1.1554
-0.34643033 0.12537259 1.1543334
-0.18582742 0.12393224 1.1547143
-0.34224367 0.13061896 1.155
-0.33483669 0.13285126 1.1551818
-0.32613319 0.13786127 1.1545999
-0.18721361 0.13391288 1.1543332
-0.32311413 0.14236753 1.1564286
-0.31658769 0.14581011 1.155
-0.19193536 0.14808506 1.1543334
-0.18933661 0.14436917 1.1570001
-0.30410135 0.15390937 1.155
-0.29363951 0.1574524 1.155
-0.28706625 0.15869507 1.153
-0.20279844 0.15628541 1.1534444
-0.19606015 0.154283 1.1561109
-0.2834093 0.16186264 1.1554
-0.27524599 0.16501701 1.1547778
-0.2688719 0.16880304 1.153
-0.2118074 0.16649427 1.1538
-0.20624693 0.16465487 1.155588
-0.19981776 0.16127422 1.1570001
-0.26421115 0.17368282 1.1547143
-0.2567257 0.17784448 1.1535714
-0.24515161 0.17733705 1.1545999
-0.23430173 0.17505558 1.1553332
-0.22447276 0.17694856 1.1551331
-0.21565443 0.1735388 1.1561112
-0.25053293 0.18156029 1.1570001
-0.24749002 0.18156029 1.1570001
-0.1333331 -0.085496038 1.161
-0.12478867 -0.083402462 1.1620003
-0.11557535 -0.082193382 1.1619233
-0.10890567 -0.080406986 1.161
-0.1243543 -0.077529117 1.1675
-0.11533446 -0.076090097 1.1676668
-0.10518453 -0.074541122 1.1648401
-0.095123596 -0.073037915 1.1625558
-0.087464377 -0.072671942 1.1635001
-0.10404318 -0.067751184 1.1684285
-0.094533913 -0.065887958 1.1668825
-0.08674597 -0.065036729 1.1662307
-0.14487301 0.017024396 1.1631539
-0.13487236 0.016680729 1.1645554
-0.12897563 0.014277393 1.163
-0.14552492 0.021521291 1.169
-0.43155143 0.04580145 1.161
-0.42438376 0.056111634 1.1636667
-0.4177939 0.056426652 1.1618
-0.42496011 0.06114779 1.169
-0.41484398 0.063891262 1.1653078
-0.40884489 0.067292929 1.1630001
-0.12111939 0.065139838 1.161
-0.1189087 0.065668978 1.1678572
-0.41197896 0.070712812 1.169
-0.40546268 0.072922006 1.1650001
-0.39933482 0.076598749 1.1650001
-0.12379088 0.075340904 1.1644667
-0.11924823 0.073021598 1.1666
-0.3953895 0.085409775 1.1654
-0.16108926 0.088702008 1.1630001
-0.15626146 0.087834984 1.165
-0.14349192 0.086232729 1.1663333
-0.13472687 0.086037293 1.1636666
-0.12748243 0.082984388 1.1654445
-0.3969529 0.09310171 1.1670001
-0.17302769 0.09770976 1.161
-0.16685237 0.094727561 1.165
-0.15884762 0.091209278 1.169
-0.39045769 0.10145751 1.169
-0.38379678 0.10571741 1.1662
-0.37580442 0.10777323 1.1625
-0.17433099 0.10491571 1.1645294
-0.16807103 0.10145751 1.169
-0.38123429 0.1142678 1.169
-0.37497985 0.11486326 1.1663334
-0.36689261 0.11667883 1.1628183
-0.1810378 0.11854199 1.1623334
-0.17881143 0.11408887 1.1682001
-0.36510649 0.12215648 1.1676668
-0.35621056 0.12632778 1.1661428
-0.34910882 0.12926187 1.161
-0.18338728 0.12520963 1.1643333
-0.17934409 0.12195398 1.169
-0.35253924 0.1311774 1.169
-0.34477457 0.13470538 1.1670001
-0.33509937 0.13832074 1.1630001
-0.18608108 0.13420381 1.165
-0.33406943 0.14317282 1.1682001
-0.3274999 0.14571135 1.1650001
-0.31708771 0.14885449 1.1630001
-0.18726851 0.14567305 1.1650001
-0.32281935 0.15167385 1.169
-0.31393501 0.15441455 1.1664544
-0.30537543 0.15779342 1.1650001
-0.29414707 0.15979616 1.161
-0.19277324 0.15714985 1.1610001
-0.18725848 0.15380548 1.166091
-0.30437252 0.16089725 1.169
-0.29403263 0.16337718 1.1661999
-0.285283 0.16699439 1.1654444
-0.27786213 0.16793865 1.161
-0.20264289 0.1671489 1.1615715
-0.1950022 0.165323 1.1657622
-0.18937607 0.16276339 1.1676668
-0.28387606 0.1711455 1.169
-0.27473697 0.1726025 1.1650001
-0.26712385 0.17638797 1.1630001
-0.24223877 0.17811675 1.161
-0.23714973 0.17811675 1.161
-0.2125259 0.17631654 1.1636667
-0.20539059 0.17206372 1.1672858
-0.19676608 0.1711455 1.169
-0.26157716 0.18015237 1.161
-0.25409132 0.18368007 1.164
-0.24412923 0.18309937 1.1642001
-0.2351971 0.18192947 1.1636666
-0.22484773 0.18315902 1.1624546
-0.21628259 0.18242471 1.1646667
-0.12216642 -0.072749309 1.1743335
-0.11587061 -0.071414493 1.1738001
-0.12072489 -0.069133058 1.177
-0.11319717 -0.068071857 1.1765001
-0.10474043 -0.063191004 1.1757693
-0.096516117 -0.061846707 1.1730002
-0.08843638 -0.060671471 1.1730001
-0.10008816 -0.05881469 1.177
-0.094224244 -0.055294767 1.1762501
-0.087117001 -0.054255094 1.1755883
-0.091833465 -0.048496325 1.177
-0.086330332 -0.047808435 1.177
-0.12854125 0.01953827 1.1730001
-0.14269699 0.02572174 1.1736156
-0.13483845 0.025735887 1.1741203
-0.12732863 0.022906773 1.177
-0.14136162 0.031986937 1.177
-0.13689034 0.03267483 1.177
-0.12141278 0.05743891 1.177
-0.11797333 0.056751017 1.177
-0.43027589 0.067069389 1.177
-0.42485717 0.065946668 1.1753334
-0.41924393 0.067987248 1.1750001
-0.12072489 0.060878363 1.177
-0.11715218 0.064929731 1.1756668
-0.41408825 0.073139422 1.1750001
-0.40757549 0.075839996 1.177
-0.39932078 0.07738775 1.177
-0.12031461 0.07918141 1.1730001
-0.11733551 0.075667344 1.1752223
-0.4031902 0.084610596 1.177
-0.15291294 0.088703074 1.1738001
-0.14560223 0.088764071 1.1746
-0.1305979 0.089464709 1.1730001
-0.12402028 0.084467188 1.1750001
-0.11866122 0.081515096 1.177
-0.40344813 0.092865303 1.177
-0.16356564 0.096357256 1.1734446
-0.15695898 0.094452649 1.1753334
-0.13390732 0.091677412 1.1750001
-0.17173111 0.10797465 1.1730001
-0.16555908 0.10453518 1.1754445
-0.15993468 0.10008816 1.177
-0.38459542 0.1131163 1.1730001
-0.17412373 0.11436874 1.1752858
-0.16818938 0.11143836 1.177
-0.37378874 0.12254099 1.1746
-0.36453137 0.12660882 1.174143
-0.18201441 0.12854125 1.1730001
-0.17556557 0.1247388 1.1759232
-0.36114281 0.1320751 1.177
-0.35471776 0.13395184 1.1743335
-0.34611151 0.13854533 1.1750001
-0.18363768 0.13541585 1.1748824
-0.17637949 0.13447167 1.176579
-0.34321237 0.14188938 1.1756667
-0.33649325 0.14627358 1.1750001
-0.32803726 0.14910784 1.1730001
-0.18311335 0.14497867 1.1756667
-0.17773387 0.14523101 1.177
-0.33121955 0.15167999 1.177
-0.32445315 0.15262152 1.1736668
-0.31672564 0.15784866 1.1730001
-0.18305364 0.15605466 1.1745557
-0.17850775 0.15649523 1.177
-0.3139995 0.16163133 1.1743335
-0.30425683 0.16448832 1.1745001
-0.29547349 0.1676178 1.1730002
-0.19024105 0.16864613 1.1730001
-0.18529743 0.16492853 1.1750002
-0.29485631 0.17217031 1.1760001
-0.28572884 0.17378776 1.1730002
-0.27423447 0.17732599 1.1760001
-0.21080765 0.17995775 1.1730001
-0.20468324 0.17711887 1.1732669
-0.1946618 0.1753016 1.1748668
-0.18617281 0.17172709 1.177
-0.26252455 0.18428029 1.1743335
-0.25296918 0.1881844 1.1730001
-0.24505334 0.18791085 1.1745001
-0.23612554 0.18757798 1.1747143
-0.22520427 0.1881844 1.1730001
-0.21410021 0.18618131 1.174778
-0.2053355 0.18284145 1.177
-0.19845659 0.18125932 1.177
-0.25176814 0.19088978 1.177
-0.24523318 0.19088978 1.177
-0.23422691 0.19088978 1.177
-0.22390854 0.19088978 1.177
-0.21771753 0.19088978 1.177
-0.12217051 -0.067297317 1.1810001
-0.11569447 -0.063851409 1.182647
-0.10871105 -0.061085258 1.1810001
-0.11456455 -0.058322005 1.1880001
-0.10452951 -0.055298753 1.1838571
-0.097839944 -0.052284837 1.1810001
-0.10154474 -0.047386028 1.188
-0.094473429 -0.044403404 1.1829997
-0.084977798 -0.04276764 1.181
-0.092553385 -0.036394466 1.1862
-0.085130289 -0.034252591 1.1841998
-0.082156658 -0.025300838 1.189
-0.078176752 -0.021889489 1.189
-0.082048357 -0.018315697 1.189
-0.078089081 -0.017697856 1.1876668
-0.076092035 -0.0083388528 1.189
-0.1267556 0.027066832 1.1810001
-0.13419399 0.036060516 1.1842
-0.12754034 0.031331442 1.1855716
-0.1342745 0.043494705 1.189
-0.12217051 0.054873195 1.1810001
-0.42863214 0.069368005 1.1810001
-0.11334976 0.065408103 1.1815714
-0.10944745 0.068795539 1.189
-0.43112275 0.073758349 1.1850001
-0.42507917 0.0753088 1.1844286
-0.41535166 0.076854877 1.182
-0.40896061 0.079721436 1.1810001
-0.11434334 0.075345114 1.1845555
-0.42429829 0.082320355 1.1886364
-0.41464669 0.08488518 1.1866001
-0.40807316 0.085341871 1.1810001
-0.14598341 0.088004179 1.1810001
-0.12289507 0.087635539 1.1830001
-0.11701327 0.084211528 1.185889
-0.41284317 0.092229374 1.1874001
-0.4077521 0.091707662 1.1820002
-0.15261404 0.096178539 1.1842728
-0.14484841 0.092597917 1.1867778
-0.13654873 0.094854459 1.189
-0.12664689 0.091018163 1.1855716
-0.39328113 0.10688115 1.1836667
-0.16160415 0.10670173 1.1816669
-0.1563753 0.10439857 1.1859411
-0.39230746 0.11238691 1.187
-0.17083165 0.11802913 1.1810001
-0.1647379 0.1155347 1.184478
-0.15888493 0.11480813 1.189
-0.38046017 0.12612516 1.189
-0.37476748 0.1268654 1.1842
-0.36754689 0.12941791 1.1810001
-0.17152186 0.12596677 1.1810001
-0.16746768 0.12473989 1.1865385
-0.37107897 0.13342166 1.189
-0.36510497 0.13467492 1.1855716
-0.35512275 0.13821834 1.1810001
-0.1718844 0.13605805 1.182143
-0.16815904 0.13444561 1.1870002
-0.3540397 0.1431926 1.1872858
-0.34556234 0.14623274 1.1830001
-0.17370453 0.14520727 1.1836667
-0.16946141 0.14411378 1.1883334
-0.34324566 0.15166713 1.1876668
-0.33490551 0.15463474 1.1850001
-0.32574815 0.15779245 1.1826001
-0.17527834 0.15510432 1.1865999
-0.16990414 0.15218407 1.189
-0.33042705 0.16156529 1.189
-0.32400337 0.16282043 1.1872857
-0.31508347 0.16627525 1.1854001
-0.30646294 0.16852908 1.1830001
-0.18118508 0.16669028 1.1810001
-0.17766427 0.16486979 1.1862308
-0.30368668 0.17299175 1.1863334
-0.29527974 0.17727558 1.186
-0.28344721 0.17769909 1.1826001
-0.27747202 0.1791144 1.1810001
-0.19257386 0.1791144 1.1810001
-0.18437879 0.17630857 1.1845555
-0.1786125 0.17340773 1.188
-0.2908175 0.1803277 1.189
-0.28386843 0.18171751 1.189
-0.27431098 0.18448244 1.1864547
-0.26668873 0.1867791 1.1836667
-0.25918093 0.18877761 1.1810001
-0.21224539 0.18877761 1.1810001
-0.20386121 0.18698685 1.182143
-0.19430083 0.18506555 1.1845999
-0.18546058 0.18429013 1.1884999
-0.26416609 0.19340508 1.1870002
-0.25484532 0.19570807 1.1835001
-0.24506296 0.19574651 1.1845
-0.23531848 0.19608086 1.18575
-0.22489136 0.1956567 1.1846925
-0.21457012 0.19543159 1.185421
-0.20588037 0.19242883 1.1874616
-0.19530953 0.19160652 1.1885556
-0.18866655 0.19075127 1.189
-0.25424981 0.20277493 1.1886001
-0.24703853 0.20117484 1.189
-0.21368311 0.20117484 1.189
-0.11427321 -0.05382295 1.1934445
-0.1091184 -0.051944543 1.1930001
-0.111583 -0.047921229 1.197
-0.10511146 -0.045394387 1.1950001
-0.099357016 -0.040788669 1.1930001
-0.10178889 -0.038826689 1.197
-0.09626548 -0.033430602 1.1945385
-0.093214214 -0.025134908 1.1946667
-0.087503895 -0.024752099 1.193
-0.092073664 -0.018245714 1.1962001
-0.085522495 -0.014837376 1.1939414
-0.07843975 -0.01255036 1.1930001
-0.082371071 -0.0085922098 1.1954
-0.077655002 -0.0049350071 1.1947144
-0.13073291 0.038696945 1.1930001
-0.12508281 0.035311129 1.1947143
-0.13115458 0.045693327 1.1936666
-0.12680405 0.045059796 1.1954002
-0.13073291 0.051247302 1.1930001
-0.12759534 0.051247302 1.1930001
-0.11156267 0.07598228 1.1938
-0.1056357 0.074000813 1.1952859
-0.098640777 0.07450527 1.197
-0.42378458 0.087273791 1.1952857
-0.41939119 0.086806655 1.1930001
-0.11364268 0.08549466 1.1955717
-0.42149696 0.09199477 1.197
-0.41694969 0.094287254 1.1950001
-0.14603472 0.097325854 1.1937273
-0.135428 0.095657125 1.1938001
-0.12445698 0.093605585 1.1958572
-0.11704757 0.091893077 1.1956667
-0.40330783 0.10318806 1.197
-0.39809608 0.10895038 1.1950001
-0.1520098 0.10594622 1.1941998
-0.14796117 0.10178889 1.197
-0.39729148 0.11354183 1.197
-0.15436411 0.11512906 1.1946002
-0.38237655 0.12676512 1.1950001
-0.16232842 0.12606189 1.1933333
-0.1567841 0.12380917 1.1959094
-0.37525597 0.13417093 1.1956667
-0.36762097 0.13857689 1.1930001
-0.16318867 0.13519497 1.1944739
-0.15845487 0.13222063 1.197
-0.37042761 0.14166495 1.197
-0.36487657 0.14207128 1.1960001
-0.35619318 0.14666283 1.1950001
-0.16434114 0.14550065 1.1940438
-0.15845487 0.1469118 1.197
