# .PCD v0.7 - Point Cloud Data file format
VERSION 0.7
FIELDS x y z
SIZE 4 4 4
TYPE F F F
COUNT 1 1 1
WIDTH 1431
HEIGHT 1
VIEWPOINT 0 0 0 1 0 0 0
POINTS 1431
DATA ascii
-0.11590404 -0.082714245 1.1828463
-0.10581209 -0.082206264 1.1810001
-0.094216242 -0.081792124 1.1810001
-0.084583811 -0.08320336 1.1814445
-0.078985289 -0.085506186 1.1832858
-0.17215979 -0.07985644 1.1830001
-0.16481815 -0.077131182 1.1836667
-0.15390548 -0.074874528 1.183
-0.14490588 -0.0761813 1.1862172
-0.13575095 -0.078116745 1.1881112
-0.12820987 -0.078176752 1.189
-0.11304804 -0.078580521 1.1861429
-0.10450237 -0.077160016 1.1841111
-0.094152443 -0.077187687 1.1845555
-0.084700905 -0.076957494 1.1863332
-0.079991452 -0.079991452 1.1850001
-0.15348914 -0.06910383 1.1883334
-0.14592993 -0.069837898 1.189
-0.25079942 -0.29277423 1.197
-0.24401341 -0.29299021 1.1955453
-0.23457101 -0.29268569 1.1945001
-0.22904406 -0.29179588 1.1930001
-0.25462896 -0.28347433 1.1965001
-0.24703293 -0.28593904 1.1930001
-0.23703066 -0.28590101 1.193
-0.26129314 -0.27178684 1.197
-0.25506446 -0.27477106 1.1944119
-0.24961273 -0.27575931 1.193
-0.23950271 -0.2743648 1.1930001
-0.26129314 -0.26653999 1.197
-0.2567566 -0.26498267 1.1947143
-0.2395027 -0.26878688 1.1930001
-0.25534257 -0.25516593 1.1953334
-0.25352496 -0.24514055 1.1950001
-0.2533614 -0.23520353 1.1947778
-0.25421733 -0.22569022 1.1948462
-0.24865401 -0.22303034 1.193
-0.23830743 -0.22396417 1.193
-0.26129314 -0.21092337 1.197
-0.25268829 -0.21638009 1.1970001
-0.24512187 -0.21441253 1.1954002
-0.23569323 -0.21417063 1.1933812
-0.22834682 -0.21091579 1.1930001
-0.27248642 -0.20392758 1.197
-0.26269233 -0.20416076 1.197
-0.25523019 -0.20515607 1.1962502
-0.24510221 -0.20525788 1.1961583
-0.234962 -0.20480272 1.1965003
-0.2279982 -0.20498922 1.193
-0.27283621 -0.19518282 1.197
-0.26548168 -0.19540142 1.1941766
-0.25484201 -0.19836542 1.193
-0.24470504 -0.19867148 1.1934444
-0.23531927 -0.19673853 1.193
-0.22904406 -0.1997599 1.1930001
-0.2726863 -0.18723759 1.1969999
-0.26745579 -0.18549813 1.193
-0.2644074 -0.17560296 1.1955456
-0.25728238 -0.17152157 1.1930001
-0.25387555 -0.16625798 1.1961111
-0.24800812 -0.16254686 1.1936666
-0.24320728 -0.15419669 1.1945
-0.23880546 -0.15234743 1.1930001
-0.24266152 -0.14681152 1.1962001
-0.23481484 -0.14454994 1.1937501
-0.23396946 -0.13688684 1.1950001
-0.22752428 -0.13165727 1.1938
-0.22428598 -0.12681553 1.1955
-0.21753958 -0.12132014 1.1930001
-0.053999037 -0.12445686 1.1944286
-0.049237981 -0.12780747 1.1950001
-0.2129294 -0.11497549 1.1950001
-0.070770092 -0.11260462 1.1930001
-0.064395301 -0.11280382 1.193
-0.057608243 -0.11474332 1.1948184
-0.20526555 -0.10514494 1.1946
-0.073532388 -0.10611162 1.194
-0.065101393 -0.10730287 1.1950003
-0.058381617 -0.10767395 1.1963334
-0.20147903 -0.097591408 1.197
-0.19632576 -0.095829792 1.1940908
-0.076030672 -0.09697739 1.1946001
-0.19203471 -0.089196451 1.197
-0.18532647 -0.084111191 1.1943334
-0.17884263 -0.080531478 1.1930001
-0.12445774 -0.080531478 1.1930001
-0.077287108 -0.082314268 1.1946001
-0.17376147 -0.077982567 1.194
-0.16473384 -0.072942466 1.1943334
-0.14119154 -0.072164573 1.1930001
-0.13461685 -0.072887927 1.1934446
-0.12496904 -0.075281218 1.1945558
-0.11592755 -0.075625874 1.194
-0.10621459 -0.073023118 1.1956667
-0.095538408 -0.071913689 1.195182
-0.084334619 -0.071403943 1.193
-0.077740759 -0.074476048 1.1965555
-0.15448582 -0.065950505 1.1941427
-0.14503957 -0.066277549 1.1942308
-0.13523373 -0.065214626 1.1967897
-0.1290725 -0.065060943 1.197
-0.09129519 -0.068209052 1.197
-0.084471479 -0.066398129 1.1963847
-0.078702748 -0.067159683 1.197
-0.27443448 -0.29165271 1.2060002
-0.26431501 -0.29415327 1.206
-0.25644463 -0.29461643 1.2028
-0.24341702 -0.2968072 1.202
-0.23920201 -0.2961047 1.202
-0.27330172 -0.28493157 1.2060002
-0.26498988 -0.28457829 1.2033331
-0.25690505 -0.28851765 1.202
-0.27277309 -0.27488759 1.2060002
-0.26552811 -0.27548292 1.2024443
-0.27265561 -0.26584217 1.2060002
-0.26610371 -0.26412019 1.2019999
-0.27171582 -0.25797144 1.2060001
-0.26462489 -0.25470498 1.2042606
-0.25816956 -0.25184706 1.202
-0.26318556 -0.24521737 1.2056669
-0.25816956 -0.24552453 1.202
-0.26344916 -0.23524505 1.2045882
-0.25816956 -0.23604074 1.202
-0.27312553 -0.2237867 1.2060002
-0.26488301 -0.2247798 1.2037598
-0.25816956 -0.22234195 1.202
-0.28427854 -0.21337992 1.2060001
-0.27460334 -0.21545988 1.2047501
-0.26479125 -0.21528263 1.202842
-0.25606206 -0.21414608 1.202
-0.29127514 -0.2061657 1.2060001
-0.28494272 -0.20517808 1.2045883
-0.27526379 -0.2054819 1.2019999
-0.26744258 -0.20632489 1.2019999
-0.25535956 -0.20969693 1.202
-0.24130951 -0.20548189 1.202
-0.23709448 -0.20548189 1.202
-0.29074651 -0.19982214 1.2060001
-0.28489891 -0.19579941 1.205111
-0.27819088 -0.19494437 1.2019999
-0.28149548 -0.18581346 1.2060002
-0.27607143 -0.18369499 1.2023635
-0.2732603 -0.17602669 1.2055557
-0.26798779 -0.17302814 1.2035
-0.26324847 -0.16594121 1.2045716
-0.25662586 -0.16362554 1.2024444
-0.26167184 -0.15806037 1.2060001
-0.25568932 -0.1553134 1.2052
-0.24880287 -0.15443341 1.202
-0.25449759 -0.14816745 1.2060002
-0.24561542 -0.14337453 1.2032307
-0.24316978 -0.13850106 1.2060001
-0.23592427 -0.13280924 1.2037144
-0.23153993 -0.12792847 1.2060001
-0.22517766 -0.12455153 1.2040001
-0.052687667 -0.12118163 1.202
-0.049526405 -0.12328914 1.202
-0.22202459 -0.11947038 1.2060001
-0.21590781 -0.11322676 1.2033334
-0.053214546 -0.11433223 1.2019999
-0.04903898 -0.11706392 1.2030001
-0.21236829 -0.10628812 1.2052002
-0.20814908 -0.1027022 1.2028
-0.071539856 -0.10192583 1.2036
-0.064036995 -0.10201798 1.2035384
-0.055177987 -0.10455274 1.2026666
-0.20371453 -0.096579731 1.204
-0.19774444 -0.092279688 1.2030001
-0.074940972 -0.097104862 1.204
-0.19371703 -0.08698412 1.2037144
-0.18713503 -0.081409022 1.2060001
-0.075684972 -0.08413136 1.2046667
-0.18154889 -0.079163 1.204
-0.17421786 -0.075810269 1.2044002
-0.16690944 -0.071833193 1.205
-0.12370759 -0.071343131 1.2026666
-0.11505022 -0.071772695 1.2039999
-0.10432158 -0.070601471 1.202
-0.075437173 -0.075015664 1.2052
-0.16122426 -0.06849397 1.202
-0.15578075 -0.065055095 1.2033334
-0.14425083 -0.06192131 1.2040001
-0.13560455 -0.060525417 1.2028
-0.12697552 -0.065733343 1.2045001
-0.10371493 -0.068085186 1.2054287
-0.094950959 -0.06570752 1.2044617
-0.085954838 -0.061695129 1.2029999
-0.077810295 -0.063566223 1.2035002
-0.14132042 -0.057444464 1.2060001
-0.13354114 -0.055527065 1.2048575
-0.12961166 -0.057956435 1.202
-0.083523542 -0.058149297 1.2060001
-0.079294503 -0.058149301 1.2060001
-0.27509767 -0.30059394 1.2116001
-0.26731318 -0.30019698 1.21
-0.28190058 -0.29251808 1.2116001
-0.27473858 -0.29648429 1.21
-0.26625243 -0.29807544 1.21
-0.29316816 -0.28283781 1.219
-0.28588906 -0.28534982 1.2168125
-0.27818605 -0.28455067 1.21
-0.29296461 -0.2767821 1.219
-0.28576243 -0.27509338 1.2162728
-0.27792087 -0.27473855 1.21
-0.28578144 -0.26535487 1.2180624
-0.27805012 -0.26433238 1.2118182
-0.28292686 -0.25674477 1.219
-0.27536875 -0.25444353 1.2132778
-0.27481434 -0.24498078 1.215
-0.26837397 -0.24503711 1.21
-0.28148419 -0.23446326 1.2190001
-0.27418229 -0.23505771 1.2119412
-0.26837397 -0.23655096 1.21
-0.30349848 -0.22228058 1.219
-0.29483703 -0.22216466 1.2151111
-0.28500432 -0.22481915 1.2137144
-0.27762103 -0.22613092 1.2110001
-0.30441448 -0.21510531 1.219
-0.29526088 -0.2145427 1.2114999
-0.28595239 -0.21897255 1.21
-0.30349848 -0.20475462 1.219
-0.29614201 -0.20506585 1.212
-0.3021245 -0.19831213 1.219
-0.29441908 -0.19510691 1.2142857
-0.28958929 -0.19305953 1.21
-0.2924557 -0.18843979 1.2190001
-0.28656766 -0.18465823 1.2129166
-0.28270257 -0.17601654 1.2168889
-0.27703193 -0.1743384 1.2117779
-0.28212535 -0.16991641 1.2190001
-0.27458704 -0.1649594 1.2140001
-0.26781467 -0.16273914 1.2106668
-0.27376592 -0.15625674 1.2185454
-0.26588884 -0.15437157 1.2122
-0.27037013 -0.14854327 1.2190001
-0.26379183 -0.14575613 1.2165834
-0.25568929 -0.14408699 1.2123572
-0.25328016 -0.13851465 1.2177501
-0.24493374 -0.13524096 1.2147499
-0.23906699 -0.13175073 1.2120001
-0.24044774 -0.12930745 1.2190001
-0.23409542 -0.12662157 1.2137501
-0.22785565 -0.12190207 1.2134001
-0.22348015 -0.11422133 1.2158333
-0.2195787 -0.11456279 1.21
-0.22121193 -0.10793433 1.2190001
-0.21582371 -0.10428396 1.2127273
-0.052089781 -0.10099492 1.2126669
-0.2124446 -0.097680174 1.2177501
-0.20595872 -0.094039239 1.2135
-0.073313877 -0.093801573 1.2119999
-0.064909697 -0.094696589 1.2138
-0.055265483 -0.095359035 1.2136316
-0.047892299 -0.098977417 1.2140001
-0.20197611 -0.088698506 1.2190001
-0.19668642 -0.084633075 1.2143751
-0.18951473 -0.08091414 1.2145001
-0.072916515 -0.085121468 1.2150909
-0.069462679 -0.088698506 1.2190001
-0.058776118 -0.088698506 1.2190001
-0.18366154 -0.076838963 1.215
-0.17573431 -0.07318414 1.2134
-0.072805926 -0.075150669 1.2142
-0.17205372 -0.069462679 1.2190001
-0.16459109 -0.067187294 1.2165002
-0.15428896 -0.061712731 1.21375
-0.14744657 -0.061170876 1.21
-0.1232137 -0.064029835 1.2128334
-0.11492297 -0.065561861 1.2150555
-0.10495395 -0.063846692 1.2125334
-0.096283711 -0.061237503 1.2113334
-0.073449761 -0.064938501 1.2143332
-0.15212907 -0.058181517 1.2177501
-0.14443888 -0.054848805 1.2139091
-0.13772295 -0.052078631 1.2124288
-0.12516107 -0.054593943 1.2146364
-0.11862089 -0.057707459 1.2190001
-0.1036597 -0.058776118 1.2190001
-0.09312284 -0.055685934 1.2149286
-0.085197657 -0.053440053 1.2121176
-0.076182552 -0.054050494 1.2137501
-0.13277705 -0.048513107 1.2144285
-0.1282388 -0.048089549 1.2190001
-0.084533721 -0.046320524 1.2175
-0.077849753 -0.047456592 1.2165
-0.29484493 -0.28412327 1.223
-0.3005006 -0.2768639 1.2256669
-0.29577044 -0.27378058 1.2235
-0.29459843 -0.26506883 1.2247499
-0.2927824 -0.25766137 1.2263335
-0.28650165 -0.25466552 1.224
-0.28334498 -0.24540421 1.2247778
-0.31086862 -0.23126905 1.2270001
-0.2936579 -0.23126905 1.2270001
-0.28654915 -0.23546512 1.2242
-0.31420875 -0.22431216 1.2266002
-0.30624032 -0.22609945 1.2233635
-0.29536417 -0.22778048 1.2236668
-0.3142972 -0.21506085 1.2242306
-0.3094978 -0.21479006 1.223
-0.31448868 -0.20500645 1.2243333
-0.30890214 -0.20478319 1.223
-0.31287417 -0.19614027 1.2264287
-0.30553409 -0.19364683 1.224684
-0.2980614 -0.19191724 1.223
-0.30011192 -0.18824224 1.2270001
-0.29469061 -0.18544745 1.2243333
-0.2922515 -0.17496736 1.2261113
-0.28756368 -0.17434806 1.2234445
-0.29150656 -0.16780452 1.2270001
-0.28513244 -0.16529346 1.2248666
-0.28223523 -0.15615772 1.2256669
-0.27697551 -0.15379588 1.223
-0.27445787 -0.14679098 1.2258002
-0.26658997 -0.14217225 1.2234445
-0.26422855 -0.13716502 1.2262002
-0.25520998 -0.13392279 1.2251538
-0.24793857 -0.13166015 1.2243334
-0.24256928 -0.12697586 1.2254002
-0.23616655 -0.12344913 1.2245002
-0.231828 -0.11752401 1.2254002
-0.22824068 -0.11315189 1.2246001
-0.22388825 -0.10572787 1.2252859
-0.21907724 -0.10094641 1.2250001
-0.21506861 -0.096038654 1.2254002
-0.20834158 -0.091282919 1.2250001
-0.051491309 -0.09332788 1.2236668
-0.047688037 -0.094300397 1.2270001
-0.20434059 -0.08643245 1.2258574
-0.19529416 -0.081014082 1.2240001
-0.065318681 -0.084646277 1.224833
-0.055416215 -0.085872553 1.2253529
-0.046253808 -0.089280613 1.2270001
-0.19233568 -0.077721469 1.2256668
-0.18578757 -0.074098498 1.2250001
-0.068459988 -0.075980917 1.2250001
-0.18178824 -0.069918551 1.2270001
-0.17488137 -0.06747058 1.2251818
-0.16602752 -0.064432546 1.2250001
-0.15975234 -0.061113309 1.223
-0.11373961 -0.061163276 1.2240001
-0.10864267 -0.06131319 1.2270001
-0.06982737 -0.065526098 1.2254002
-0.16027483 -0.059161849 1.2270001
-0.15464401 -0.055841912 1.2250001
-0.14754081 -0.052577205 1.2240001
-0.12128654 -0.052590936 1.2243334
-0.11627282 -0.056308646 1.2258002
-0.10392591 -0.057695474 1.2263335
-0.096598722 -0.053664271 1.2243334
-0.071834944 -0.054680333 1.223
-0.069918551 -0.052707832 1.2270001
-0.14198844 -0.048405148 1.2270001
-0.13456243 -0.045121592 1.2255001
-0.12567654 -0.046801846 1.2252858
-0.11939937 -0.048405148 1.2270001
-0.091895267 -0.046752192 1.2260001
-0.084971495 -0.043020856 1.2234445
-0.074813858 -0.044745941 1.2250001
-0.069918551 -0.046253808 1.2270001
-0.084171176 -0.038993038 1.2270001
-0.077448241 -0.039799791 1.2270001
-0.30482242 -0.27393377 1.234182
-0.30384591 -0.26570687 1.2347693
-0.29917479 -0.26137292 1.2320001
-0.30187982 -0.25723714 1.2360001
-0.29551324 -0.25422165 1.2340001
-0.28837425 -0.25165242 1.2320001
-0.29258925 -0.24494207 1.2352002
-0.28837425 -0.24625215 1.2320001
-0.31805292 -0.23042482 1.2340001
-0.3045193 -0.23287266 1.2342224
-0.29520333 -0.23661648 1.2334547
-0.32306769 -0.22378094 1.2348573
-0.31824052 -0.22741784 1.2333335
-0.32272297 -0.21570526 1.2341819
-0.32243332 -0.20505117 1.2346668
-0.31627879 -0.19483389 1.2337143
-0.31098172 -0.18853945 1.2360001
-0.30350927 -0.18576731 1.2347693
-0.29701465 -0.18252902 1.2320001
-0.30122969 -0.1758076 1.2360001
-0.29681537 -0.17470038 1.2326669
-0.30014613 -0.16686824 1.2360001
-0.29451934 -0.16430838 1.2336001
-0.28837425 -0.16092795 1.2320001
-0.29302558 -0.15742579 1.2360001
-0.28649995 -0.15379539 1.2340001
-0.28280917 -0.14682238 1.2360001
-0.27721301 -0.14377834 1.233143
-0.27335376 -0.13786599 1.2344
-0.26558557 -0.13306107 1.2340001
-0.25705269 -0.13068645 1.2320001
-0.26222152 -0.12894364 1.2360001
-0.25455081 -0.12614909 1.2347693
-0.24591446 -0.12432751 1.2332308
-0.23869179 -0.12204602 1.2320001
-0.23616509 -0.11576974 1.2341819
-0.23127167 -0.10859913 1.2346667
-0.22573885 -0.10323696 1.2344002
-0.22212979 -0.098603956 1.2360001
-0.21621756 -0.093715668 1.2344
-0.047522344 -0.091804534 1.2320001
-0.21178865 -0.089116089 1.2346667
-0.20612748 -0.084137551 1.2336
-0.19980986 -0.081004001 1.2320001
-0.05292261 -0.082238339 1.2320002
-0.046527952 -0.085170917 1.234286
-0.2004586 -0.079099879 1.2360001
-0.19432001 -0.074479371 1.2345456
-0.18738925 -0.070743494 1.2320001
-0.064692743 -0.07478258 1.2333335
-0.055079918 -0.076737091 1.2352002
-0.047676641 -0.076932758 1.2360001
-0.18478827 -0.06684567 1.2352729
-0.17398325 -0.062942162 1.2348573
-0.16740827 -0.061563041 1.2320001
-0.17011891 -0.059595801 1.2360001
-0.16396078 -0.057628125 1.2345002
-0.15528071 -0.052377071 1.2337143
-0.14796731 -0.050762508 1.2320001
-0.11393188 -0.05343378 1.2323079
-0.10557771 -0.053791266 1.2342857
-0.098284855 -0.051842563 1.2320001
-0.070203468 -0.058322877 1.2320001
-0.067222103 -0.052524954 1.2328001
-0.14508221 -0.047638942 1.2350001
-0.13525815 -0.042199228 1.2342857
-0.12388415 -0.043324549 1.2327275
-0.11597765 -0.045410298 1.2350589
-0.094802737 -0.045313649 1.2348573
-0.070743494 -0.044282187 1.2320001
-0.067315288 -0.045143511 1.2335001
-0.13306221 -0.038943283 1.2340001
-0.12464797 -0.037423141 1.2348573
-0.086104453 -0.034196138 1.2335002
-0.075134374 -0.037190627 1.2338462
-0.08560124 -0.02925612 1.2360001
-0.31204602 -0.27249402 1.2416668
-0.31173652 -0.26766858 1.2442
-0.30838418 -0.26370484 1.243
-0.30368802 -0.25485277 1.2434
-0.29809648 -0.25131491 1.2410001
-0.30253357 -0.24471946 1.2443334
-0.2982519 -0.24634145 1.2410001
-0.32488826 -0.23247884 1.245
-0.3111518 -0.2360837 1.2410001
-0.30586672 -0.23741344 1.2434
-0.33070934 -0.2248387 1.245
-0.32610288 -0.22810559 1.2420001
-0.33107316 -0.21465184 1.245
-0.32789311 -0.21459696 1.2426001
-0.33289224 -0.20628405 1.245
-0.32779881 -0.20555641 1.245
-0.31542906 -0.19100375 1.245
-0.31056356 -0.18306553 1.243
-0.30680001 -0.18386243 1.2410001
-0.31106326 -0.17790635 1.245
-0.30640492 -0.17443752 1.2423334
-0.30361232 -0.16527934 1.2438571
-0.30014876 -0.15826026 1.245
-0.29523993 -0.15485528 1.2427143
-0.29141715 -0.14952865 1.245
-0.2853412 -0.14498532 1.2435
-0.2746053 -0.13439651 1.243
-0.26414353 -0.12640375 1.243
-0.25557989 -0.12161675 1.2423333
-0.24805108 -0.12076171 1.2410001
-0.25430784 -0.11896805 1.245
-0.24458656 -0.1153494 1.2436668
-0.23851557 -0.11217622 1.2423334
-0.23425765 -0.10577597 1.243909
-0.22811306 -0.10150485 1.245
-0.22447783 -0.096064836 1.2436666
-0.21865381 -0.091317981 1.245
-0.21283275 -0.086224549 1.245
-0.2073755 -0.081858747 1.245
-0.040253904 -0.081595749 1.2410001
-0.20311949 -0.076065518 1.244
-0.19847995 -0.072549596 1.2426001
-0.061351765 -0.071517587 1.2423334
-0.055572774 -0.071918227 1.243
-0.043721262 -0.074202962 1.2416668
-0.19503629 -0.065893151 1.2438573
-0.1852147 -0.061797112 1.2440001
-0.1784227 -0.062012769 1.2410001
-0.063728809 -0.065329142 1.2434
-0.0545725 -0.068761349 1.245
-0.047400929 -0.068105161 1.243
-0.18008925 -0.056755401 1.245
-0.17438342 -0.055580955 1.2432221
-0.16585934 -0.053225208 1.2433333
-0.15775178 -0.051133335 1.2410001
-0.1055305 -0.051133335 1.2410001
-0.065380044 -0.057752166 1.243
-0.16480894 -0.049115248 1.245
-0.15404457 -0.047711484 1.2440001
-0.14547692 -0.04311125 1.2439333
-0.1381688 -0.040253904 1.2410001
-0.11217622 -0.040297151 1.2423334
-0.10508914 -0.044568609 1.2428181
-0.097588688 -0.042792335 1.2445556
-0.064188659 -0.041341849 1.2410001
-0.1418885 -0.038200751 1.245
-0.13441513 -0.03544407 1.2440001
-0.12683241 -0.032730788 1.2445
-0.11499105 -0.035969045 1.2433333
-0.10805355 -0.038200751 1.245
-0.092773251 -0.038200751 1.245
-0.073766023 -0.032663722 1.2420001
-0.067140013 -0.035360102 1.2438571
-0.12442529 -0.029469149 1.245
-0.11896805 -0.029469149 1.245
-0.083771639 -0.027198583 1.2410001
-0.075739034 -0.02847793 1.2441111
-0.068761349 -0.029469149 1.245
-0.31669584 -0.27067083 1.25
-0.32241786 -0.26508674 1.2575455
-0.31531876 -0.26388982 1.2525001
-0.3211835 -0.25716752 1.2590001
-0.31493011 -0.25545868 1.2560502
-0.30740389 -0.25367007 1.2508334
-0.31428733 -0.245648 1.2565385
-0.30716583 -0.24607845 1.2507143
-0.32417059 -0.23680024 1.2563335
-0.31482086 -0.23858154 1.25125
-0.34105051 -0.22626328 1.2590001
-0.33610469 -0.22306071 1.251875
-0.34105051 -0.21964094 1.2590001
-0.33692688 -0.21538384 1.2527778
-0.33306223 -0.20558614 1.2511111
-0.32820207 -0.20218125 1.25
-0.33001328 -0.19646275 1.2590001
-0.32504645 -0.19448814 1.2544286
-0.3188875 -0.19177084 1.25
-0.33001328 -0.18321806 1.2590001
-0.32404691 -0.18516843 1.2572502
-0.31654504 -0.18549038 1.2520001
-0.33177924 -0.17902394 1.2590001
-0.32371768 -0.17667174 1.2584286
-0.31570655 -0.17449787 1.254143
-0.31357455 -0.16624281 1.25725
-0.3076092 -0.16386069 1.2516667
-0.3040826 -0.15521194 1.2556922
-0.29726779 -0.15192305 1.25125
-0.30131647 -0.14789893 1.2590001
-0.29496655 -0.14472421 1.2566252
-0.28684863 -0.14205177 1.25125
-0.29101506 -0.13722959 1.2590001
-0.2845104 -0.13634083 1.2562668
-0.27681097 -0.13236615 1.2520001
-0.28144944 -0.12913562 1.2590001
-0.27480751 -0.12542087 1.2563751
-0.26679453 -0.12268852 1.252375
-0.26397994 -0.11732219 1.2578
-0.25532022 -0.1146511 1.2535335
-0.24827552 -0.11261134 1.2520001
-0.25263792 -0.10764226 1.2584286
-0.24447484 -0.10485853 1.2553571
-0.23761861 -0.10290877 1.2507143
-0.2417154 -0.098231375 1.2590001
-0.2348077 -0.096144468 1.25525
-0.22717994 -0.092735447 1.251875
-0.23067817 -0.089401588 1.2590001
-0.22436056 -0.085500158 1.257059
-0.21626961 -0.08339221 1.2540714
-0.21408817 -0.075300403 1.2578572
-0.20731963 -0.075136907 1.25125
-0.21169412 -0.067768611 1.2590001
-0.20463234 -0.064904183 1.2549375
-0.1960519 -0.061081752 1.2516667
-0.06081875 -0.061914582 1.25
-0.054918949 -0.063701615 1.2529376
-0.045891508 -0.064099066 1.2564
-0.20308509 -0.058497336 1.2590001
-0.1941883 -0.05623984 1.2579091
-0.18536875 -0.054850519 1.2531334
-0.17862083 -0.051504165 1.25
-0.061817277 -0.055522803 1.2560002
-0.05739361 -0.058497336 1.2590001
-0.18376458 -0.048753012 1.2582
-0.17519842 -0.045017388 1.2554547
-0.16516942 -0.044146195 1.2535883
-0.15583864 -0.042775605 1.2511538
-0.062637396 -0.044514943 1.2535
-0.17107712 -0.038630318 1.2590001
-0.16445479 -0.037802529 1.2589999
-0.15433097 -0.035271641 1.2574377
-0.14543821 -0.034705419 1.2540715
-0.13789383 -0.033282649 1.2516667
-0.11362476 -0.032754771 1.2514286
-0.10463899 -0.034702748 1.2533529
-0.096700795 -0.03582187 1.2521819
-0.062831424 -0.034624826 1.2538333
-0.1512101 -0.029800531 1.2590001
-0.14458776 -0.028696805 1.2589999
-0.13508733 -0.027894512 1.2561666
-0.12473641 -0.026019078 1.2542223
-0.11623408 -0.027957777 1.2556
-0.10816488 -0.029800531 1.2590001
-0.082124963 -0.023093155 1.2546667
-0.074778721 -0.023512512 1.2517859
-0.06616126 -0.025993498 1.25525
-0.075053185 -0.018763296 1.2590001
-0.06953457 -0.018763296 1.2590001
-0.33014914 -0.26122913 1.268
-0.3273347 -0.26217803 1.2640001
-0.33014914 -0.25789428 1.268
-0.32529038 -0.25464508 1.2656666
-0.32286862 -0.24564481 1.2656
-0.33073652 -0.23861989 1.266
-0.33295977 -0.19255984 1.266
-0.33334783 -0.18588899 1.2646667
-0.33129233 -0.17369045 1.266
-0.32709834 -0.17363819 1.2648
-0.32242259 -0.16797774 1.2656
-0.31671688 -0.16223769 1.2646667
-0.31303462 -0.15659522 1.2668571
-0.30800804 -0.15196842 1.2653333
-0.30367967 -0.1448721 1.2657778
-0.29808068 -0.14072955 1.2640001
-0.30124721 -0.13895166 1.268
-0.2947602 -0.13511759 1.2661818
-0.28722668 -0.13196728 1.2650001
-0.2832922 -0.12541242 1.266
-0.27591857 -0.12078363 1.2640001
-0.28123817 -0.11894263 1.268
-0.27470049 -0.11671814 1.2658181
-0.26481187 -0.11231538 1.2659999
-0.26122913 -0.10782649 1.268
-0.25582361 -0.10543582 1.266
-0.24858527 -0.10157645 1.2640001
-0.24426694 -0.096040145 1.2665
-0.23861989 -0.091006763 1.266
-0.23364608 -0.086427651 1.2657777
-0.22863932 -0.081630528 1.2640001
-0.23010395 -0.078924544 1.268
-0.22362985 -0.075337224 1.2652308
-0.218297 -0.073135033 1.2640001
-0.22086214 -0.068809569 1.266
-0.2156264 -0.06527748 1.2656666
-0.20943215 -0.062053971 1.2640001
-0.043216161 -0.062053971 1.2640001
-0.21083599 -0.058174431 1.268
-0.20398413 -0.054558609 1.2661538
-0.19697821 -0.052476685 1.2646667
-0.060945865 -0.052081011 1.2640001
-0.054723106 -0.053611148 1.2661998
-0.045095123 -0.054642707 1.2653912
-0.038906466 -0.052245826 1.268
-0.19324589 -0.04616677 1.266857
-0.18570144 -0.04426951 1.2649231
-0.061379522 -0.045850839 1.2653334
-0.055580668 -0.046131954 1.268
-0.044094 -0.046317227 1.268
-0.038202129 -0.044539176 1.2657144
-0.18333454 -0.037618518 1.2674286
-0.17480208 -0.034957081 1.2659999
-0.16505907 -0.033350829 1.2649231
-0.094811156 -0.030862173 1.2664001
-0.058869045 -0.035546202 1.2670001
-0.035822354 -0.036931332 1.2670001
-0.17007683 -0.027790334 1.268
-0.16315117 -0.027744748 1.266
-0.15472911 -0.026117655 1.2661334
-0.14497562 -0.023764174 1.2651428
-0.13410832 -0.022501962 1.2661818
-0.12475467 -0.02203339 1.2657144
-0.11410268 -0.023295041 1.2654285
-0.10531531 -0.026178917 1.2661176
-0.098088481 -0.028499849 1.2666668
-0.062379219 -0.023564799 1.265
-0.058853555 -0.027758772 1.2666668
-0.15451425 -0.018897427 1.268
-0.1454659 -0.017769448 1.2666667
-0.13784005 -0.018897427 1.268
-0.12116585 -0.018897427 1.268
-0.11338456 -0.018897427 1.268
-0.10782649 -0.017785814 1.268
-0.082129642 -0.017756008 1.266
-0.074235439 -0.013541576 1.2663999
-0.066199727 -0.014847666 1.2664999
-0.33601889 -0.26109588 1.2755001
-0.33535275 -0.25445792 1.2760768
-0.32921901 -0.25109926 1.273
-0.34104744 -0.24600363 1.2755001
-0.33527774 -0.24625914 1.2756667
-0.3287726 -0.24618885 1.273
-0.33814698 -0.18860343 1.273
-0.33387324 -0.17141815 1.2780001
-0.32921901 -0.17074749 1.273
-0.32516381 -0.16473605 1.2758571
-0.32092005 -0.15878054 1.2755001
-0.31613234 -0.15340644 1.2752222
-0.3122803 -0.14718422 1.2767501
-0.30775842 -0.14298455 1.27425
-0.30260155 -0.13523228 1.2748749
-0.2955268 -0.13112058 1.2739999
-0.29315674 -0.12718184 1.2763333
-0.28748283 -0.12441759 1.2739999
-0.28420538 -0.11711156 1.2763333
-0.2745209 -0.1129054 1.2751428
-0.2689552 -0.11048367 1.273
-0.27075851 -0.10792994 1.2780001
-0.26415178 -0.10498753 1.2752726
-0.25556323 -0.1015557 1.273
-0.26179543 -0.098966897 1.2780001
-0.2552779 -0.097571164 1.2766362
-0.24651393 -0.093365178 1.2770001
-0.2408817 -0.087389641 1.2780001
-0.23705812 -0.083866313 1.2755001
-0.23334658 -0.077631637 1.276
-0.22842391 -0.072260834 1.276
-0.22392915 -0.065684393 1.2771667
-0.21873534 -0.062495813 1.273
-0.21387044 -0.055299155 1.2757777
-0.20722231 -0.05082716 1.27425
-0.21175182 -0.044815198 1.2780001
-0.20594992 -0.044768628 1.27675
-0.1978104 -0.043244872 1.2729999
-0.054417167 -0.044231504 1.2733126
-0.045118153 -0.042248446 1.2729999
-0.20413773 -0.037825786 1.2744285
-0.19487675 -0.035251349 1.2737145
-0.18608025 -0.032915398 1.2745383
-0.17655067 -0.030578306 1.273
-0.054381765 -0.035374209 1.2758125
-0.043640759 -0.038043242 1.2763333
-0.038367022 -0.033894271 1.2746667
-0.18038118 -0.0280095 1.2780001
-0.17404813 -0.025741346 1.27675
-0.16600752 -0.023043884 1.2759999
-0.15661153 -0.022319933 1.2729999
-0.1026717 -0.022319933 1.273
-0.095603399 -0.025039826 1.2760768
-0.057360884 -0.024957532 1.2746667
-0.16325769 -0.019009201 1.2755001
-0.15378435 -0.017632747 1.273
-0.14267689 -0.01498197 1.2754999
-0.13622449 -0.01641982 1.2771667
-0.12772331 -0.019046459 1.2780001
-0.11324885 -0.016304947 1.2739999
-0.10460075 -0.016790114 1.2768888
-0.099713817 -0.017926078 1.2780001
-0.081787743 -0.01456494 1.2780001
-0.078595504 -0.010801118 1.2746667
-0.061832178 -0.01377857 1.2746667
-0.059205905 -0.015636006 1.27425
-0.072661892 -0.0062258365 1.2751428
-0.066592358 -0.00590698 1.2751428
-0.3430528 -0.25082222 1.2830001
-0.33648571 -0.17050114 1.2880001
-0.34642711 -0.16280949 1.2830001
-0.33191445 -0.16802223 1.2863334
-0.32858169 -0.16259712 1.2880001
-0.34800336 -0.15879764 1.2846667
-0.32401177 -0.15580261 1.286
-0.31425887 -0.14509447 1.2830001
-0.31164449 -0.1377559 1.2880001
-0.30735955 -0.135102 1.28425
-0.30240107 -0.12809576 1.2855002
-0.29548675 -0.1235112 1.2855
-0.2901907 -0.1185604 1.2880001
-0.28398666 -0.11321726 1.2871667
-0.27781653 -0.11135157 1.2830001
-0.27457136 -0.10644524 1.2858572
-0.26769367 -0.1012287 1.2830001
-0.26450622 -0.095100507 1.2863334
-0.25506949 -0.09275151 1.284
-0.24744794 -0.091105826 1.2830001
-0.26083288 -0.089202583 1.2880001
-0.25360635 -0.087847605 1.2880001
-0.24574395 -0.084764436 1.2846668
-0.23957458 -0.082107723 1.2830001
-0.24223308 -0.077482864 1.2871667
-0.23623252 -0.074484028 1.2852223
-0.23181498 -0.067117378 1.2867501
-0.22705945 -0.063811518 1.286
-0.22194372 -0.056118064 1.2867501
-0.21707933 -0.053313781 1.2830001
-0.2201836 -0.046295013 1.2880001
-0.21591473 -0.045498248 1.2837143
-0.051176734 -0.032055754 1.2830001
-0.045611363 -0.033971276 1.2846667
-0.038318664 -0.031552546 1.2855
-0.19120976 -0.028119083 1.2830001
-0.18452555 -0.027261352 1.2850001
-0.17632908 -0.02326045 1.2838334
-0.092905447 -0.022270314 1.2830001
-0.087956496 -0.023170125 1.2830001
-0.054295998 -0.025459975 1.2850001
-0.038390987 -0.028228667 1.2880001
-0.13344181 -0.01616252 1.2863334
-0.12611979 -0.016154239 1.2857778
-0.11291467 -0.012420613 1.2880001
-0.10433364 -0.011820608 1.28425
-0.095180713 -0.015318874 1.2862355
-0.086299062 -0.015646746 1.2880001
-0.058092974 -0.015233617 1.2867501
-0.10468803 -0.0072587999 1.2880001
-0.08016941 -0.0056457333 1.2880001
-0.075392753 -0.0038756458 1.2835556
-0.063915141 -0.0033762385 1.2841111
-0.059767336 -0.0056355055 1.2863334
-0.073301025 0.0022568323 1.2863334
-0.066531979 0.0022568321 1.2863334
-0.34528014 -0.16411228 1.2970001
-0.33566421 -0.16519843 1.2947272
-0.35134432 -0.15804809 1.2970001
-0.34590492 -0.1553766 1.2936667
-0.33201468 -0.15804809 1.2970001
-0.32714766 -0.15505099 1.2957501
-0.3205409 -0.14837758 1.2920001
-0.31676534 -0.14384697 1.2920001
-0.31437242 -0.13517585 1.29575
-0.30921435 -0.13138779 1.2920001
-0.31041101 -0.1273481 1.2970001
-0.3050881 -0.12397538 1.2947778
-0.29788783 -0.12119391 1.2920001
-0.30245173 -0.11938885 1.2970001
-0.29470065 -0.1163296 1.2951818
-0.28919917 -0.11227441 1.2936667
-0.28375652 -0.10662425 1.2951818
-0.27706799 -0.10340338 1.292625
-0.27315021 -0.096952148 1.2950001
-0.26839197 -0.093623616 1.2945001
-0.26471233 -0.085672036 1.295077
-0.25601336 -0.083691232 1.2931764
-0.26322401 -0.075991943 1.2970001
-0.2537767 -0.077647097 1.2961668
-0.24558179 -0.073990583 1.2945
-0.23898984 -0.071357161 1.2920001
-0.2603814 -0.069359235 1.2970001
-0.24332584 -0.068222195 1.2970001
-0.23624712 -0.063988939 1.2948126
-0.22879598 -0.06116328 1.2920001
-0.23414208 -0.055364944 1.2970001
-0.22638893 -0.053599883 1.2947778
-0.22564277 -0.047945254 1.296
-0.045306131 -0.03058164 1.2920001
-0.19178879 -0.024964398 1.2945001
-0.18649927 -0.023367727 1.2939999
-0.052701443 -0.023513451 1.2948571
-0.045481466 -0.028425917 1.2970001
-0.092500024 -0.010948982 1.2920001
-0.087299787 -0.012185886 1.29325
-0.05566512 -0.014771734 1.2958889
-0.10376384 -0.0043119723 1.2950001
-0.095416836 -0.0068145492 1.29575
-0.083518788 -0.005353428 1.2948571
-0.078153081 -0.0011326533 1.2920001
-0.060030628 -0.0011326533 1.2920001
-0.057444632 -0.0052198484 1.2950001
-0.080418386 0.0022653067 1.2920001
-0.075198904 0.0056691114 1.2931111
-0.063679628 0.0055124173 1.2937857
-0.057988871 0.0034111098 1.2970001
-0.072770342 0.01023333 1.2970001
-0.067085154 0.01023333 1.2970001
-0.34413716 -0.16422652 1.3033637
-0.33824077 -0.16170116 1.302
-0.34389818 -0.15689315 1.3042223
-0.33516869 -0.15671645 1.3048573
-0.32769975 -0.15124604 1.307
-0.32307845 -0.14462371 1.3048573
-0.32197073 -0.13864221 1.307
-0.31849694 -0.13322966 1.3045001
-0.315267 -0.12568448 1.3053334
-0.30932483 -0.12213194 1.302
-0.30426276 -0.11624016 1.3042222
-0.29676971 -0.11217248 1.3030001
-0.29526576 -0.10528488 1.3054374
-0.28744221 -0.10317329 1.3028334
-0.29638115 -0.098921023 1.307
-0.28480884 -0.098072402 1.305889
-0.27631462 -0.093881063 1.3042223
-0.27256805 -0.085840069 1.3055714
-0.26823369 -0.082182243 1.302
-0.26188269 -0.072047532 1.3045001
-0.2559135 -0.073969327 1.3025556
-0.24997097 -0.071909457 1.302
-0.26009735 -0.069894001 1.307
-0.25360444 -0.06913013 1.307
-0.24513808 -0.063967742 1.3030001
-0.24312246 -0.057451472 1.302
-0.23627393 -0.053646743 1.302
-0.030818339 -0.030818339 1.302
-0.19578753 -0.024443045 1.3030001
-0.044898797 -0.023837756 1.3037857
-0.038476024 -0.025522396 1.3036667
-0.19212896 -0.019441398 1.3045001
-0.1883343 -0.019404139 1.302
-0.13176738 -0.011458034 1.307
-0.12764248 -0.011228872 1.307
-0.052244619 -0.013987325 1.3026251
-0.046281755 -0.015561193 1.3064116
-0.13176738 -0.0080206236 1.307
-0.12489257 -0.0080206236 1.307
-0.10586032 -0.0015997414 1.3040001
-0.094418041 -0.0025961287 1.3033637
-0.08658804 -0.0037123547 1.3038751
-0.053967111 -0.0046998104 1.3036667
-0.049269542 -0.0068748202 1.307
-0.1031223 0.0011458034 1.307
-0.096738532 0.0021279205 1.307
-0.083507761 0.0040865191 1.3048573
-0.078757979 0.0079899402 1.302
-0.055489823 0.0045771864 1.3051251
-0.081352033 0.011458034 1.307
-0.07549727 0.014874347 1.3048126
-0.064816982 0.015480977 1.3033637
-0.05774929 0.014889807 1.3062857
-0.073331416 0.021770263 1.307
-0.065310791 0.022916067 1.307
-0.34458491 -0.15278547 1.3153335
-0.33524436 -0.15259124 1.3131112
-0.34406185 -0.14893954 1.317
-0.3337467 -0.14647697 1.3156365
-0.3275404 -0.14333303 1.3132501
-0.32671893 -0.13492554 1.3154616
-0.32503667 -0.12609185 1.315182
-0.31670317 -0.1216898 1.3136667
-0.31287894 -0.11615396 1.3155715
-0.30595192 -0.11303337 1.3130001
-0.31288847 -0.10968415 1.317
-0.30562526 -0.10418255 1.3141429
-0.30364928 -0.097765863 1.312
-0.29391825 -0.094482824 1.3129092
-0.28591305 -0.093385674 1.3124169
-0.27949536 -0.090864748 1.312
-0.28179574 -0.088564374 1.312
-0.27719498 -0.086264007 1.312
-0.25536749 -0.064761035 1.3145001
-0.2495905 -0.062110081 1.312
-0.19783211 -0.021853546 1.312
-0.036805972 -0.021853546 1.312
-0.19783211 -0.019553173 1.312
-0.041406717 -0.013514693 1.3120002
-0.03795616 -0.019553173 1.312
-0.12469356 -0.00577285 1.317
-0.1117807 -0.0023025649 1.3145001
-0.051758401 -0.0023003733 1.312
-0.045128357 -0.0051058945 1.3152144
-0.038100809 -0.0080819903 1.317
-0.10491629 0.0037485168 1.3151251
-0.093370512 0.0044489582 1.3148572
-0.087393276 0.0057628313 1.3141429
-0.05259094 0.0042217341 1.3136667
-0.049646508 0.0023091401 1.317
-0.091211028 0.01039113 1.317
-0.084529713 0.014141828 1.3142729
-0.078212693 0.019553173 1.312
-0.056359146 0.014952426 1.312
-0.074872389 0.025608985 1.3139234
-0.064410456 0.027604483 1.3120002
-0.057735015 0.025164841 1.3134288
-0.070428766 0.032327957 1.317
-0.064327992 0.034356508 1.3150002
-0.057829566 0.034107219 1.3155714
-0.34443659 -0.14723314 1.3254286
-0.33648071 -0.14231105 1.3228571
-0.33404735 -0.1351096 1.3237144
-0.33453864 -0.12893575 1.325
-0.32334799 -0.1216901 1.322
-0.32291752 -0.11964308 1.325
-0.31639427 -0.11531585 1.322
-0.31175846 -0.10546475 1.322
-0.3086679 -0.10623739 1.322
-0.26076451 -0.063742436 1.322
-0.2584466 -0.063742436 1.322
-0.12612312 -0.0042687822 1.3280001
-0.11735936 -0.0034843741 1.3254286
-0.042301796 -0.00173843 1.322
-0.038245458 -0.0023179066 1.322
-0.111512 0.00348738 1.325
-0.10509901 0.007656456 1.3232
-0.095034167 0.0081126736 1.322
-0.051534552 0.0065884423 1.3260001
-0.044087566 0.0023218517 1.3235
-0.038332246 0.0023257965 1.325
-0.10296415 0.011390354 1.3256
-0.095144898 0.013672358 1.3247693
-0.088030614 0.017408345 1.3237144
-0.054594416 0.011618463 1.325
-0.083682001 0.02470074 1.32575
-0.078808829 0.02781488 1.322
-0.056788713 0.026655927 1.322
-0.080330722 0.032597974 1.3280001
-0.074768141 0.035148572 1.3237145
-0.068378247 0.038245458 1.322
-0.071793154 0.041523609 1.3280001
-0.065194875 0.04337585 1.3261539
-0.058598738 0.042299751 1.3280001
-0.35306701 -0.14427654 1.3379999
-0.3464435 -0.14355631 1.3344287
-0.34316802 -0.13613151 1.3367501
-0.33772445 -0.13205142 1.3330001
-0.34006163 -0.12620844 1.3330001
-0.33655584 -0.12737703 1.3330001
-0.12468348 -0.002339385 1.3355
-0.11546196 0.0050765816 1.3363335
-0.050249655 0.0081801768 1.3330001
-0.044489957 0.007026922 1.3355001
-0.03870834 0.0058649001 1.3380001
-0.11260608 0.01055682 1.3380001
-0.10530519 0.014042154 1.3346667
-0.096788816 0.019122876 1.3355001
-0.052236009 0.012416054 1.3360001
-0.046919197 0.01055682 1.3380001
-0.091825724 0.025009694 1.3371668
-0.086920477 0.026895991 1.3338333
-0.083960809 0.034495369 1.3363335
-0.075237602 0.044591404 1.3352729
-0.065051883 0.047912464 1.3330001
-0.071551777 0.05043814 1.3380001
-0.066384122 0.051157296 1.3363334
-0.35425779 -0.14178036 1.344
-0.35218522 -0.13505557 1.3490001
-0.34732217 -0.133513 1.3430001
-0.34496745 -0.1283326 1.3430001
-0.13216189 -0.0023626168 1.3460001
-0.12715524 -0.0011773633 1.3430001
-0.13196228 0.004335409 1.348
-0.12497769 0.0047189868 1.3448752
-0.1189137 0.00706418 1.3430001
-0.036498263 0.00706418 1.3430001
-0.13127118 0.011826233 1.3490001
-0.12498627 0.012789532 1.3484546
-0.11597686 0.014670141 1.3460003
-0.10761102 0.016718559 1.3430001
-0.052555639 0.016734339 1.3442
-0.045171846 0.014059582 1.3462729
-0.037759788 0.011802563 1.3460001
-0.11412316 0.020695908 1.3490001
-0.10436203 0.024306135 1.3471056
-0.095986716 0.026845776 1.3443335
-0.054630067 0.020829892 1.3450001
-0.10221244 0.033958185 1.3490001
-0.094350822 0.035382047 1.3452502
-0.086968318 0.037474871 1.3442
-0.094072312 0.04461715 1.3490001
-0.084938809 0.044829555 1.3456253
-0.077705979 0.048271898 1.3430001
-0.091061994 0.056765921 1.3490001
-0.084330134 0.054673579 1.3490002
-0.075792566 0.054542515 1.3466003
-0.066370025 0.05575271 1.3460001
-0.091061994 0.060313791 1.3490001
-0.083966263 0.06208773 1.3490001
-0.075566277 0.063588664 1.3482002
-0.068439618 0.063724898 1.3460001
-0.36263055 -0.13591227 1.3540001
-0.35817927 -0.13561551 1.3540001
-0.16083765 -0.01548807 1.3590001
-0.15531178 -0.011738065 1.3582859
-0.14402349 -0.011474398 1.3540001
-0.13887978 -0.013057074 1.3540001
-0.15464242 -0.0048449859 1.3589998
-0.14578441 -0.0044214055 1.3582858
-0.1372795 -0.0049351328 1.3582858
-0.16202904 0.0059569501 1.3590001
-0.15470457 0.0047570667 1.3574375
-0.14588477 0.0044774734 1.3563077
-0.13718571 0.0049924413 1.3560002
-0.16202904 0.013105289 1.3590001
-0.15445606 0.014258874 1.3552501
-0.14532353 0.014583225 1.3540001
-0.13567159 0.014342131 1.3547693
-0.12653491 0.017330296 1.3540001
-0.042336572 0.017013762 1.3540001
-0.037984215 0.016618093 1.3540001
-0.15488072 0.025019193 1.3589997
-0.14562789 0.025398789 1.3578888
-0.13566954 0.024125652 1.3589998
-0.12557481 0.024761848 1.3577497
-0.11483433 0.026235946 1.3560002
-0.10801761 0.028488159 1.3540001
-0.051961202 0.022611571 1.3573335
-0.045182962 0.020216372 1.3565001
-0.17036878 0.039315868 1.3590001
-0.16351828 0.037826631 1.3590001
-0.15496014 0.035979979 1.3589998
-0.14534958 0.035741702 1.3589998
-0.13542134 0.037727352 1.3590001
-0.12534678 0.035929814 1.3589997
-0.11434796 0.035734303 1.3586874
-0.1059517 0.036813281 1.3545556
-0.1634587 0.044081427 1.3590001
-0.1548807 0.045272816 1.3589998
-0.14534958 0.045272816 1.3589998
-0.12330887 0.042294346 1.3590001
-0.11342033 0.044319704 1.3590001
-0.10501927 0.045371015 1.3568572
-0.096147537 0.045818456 1.3540001
-0.16322044 0.051229771 1.3590001
-0.15448357 0.052818291 1.3590001
-0.14475387 0.05460538 1.3590001
-0.11079927 0.051229771 1.3590001
-0.10393746 0.054575063 1.3555386
-0.095469251 0.054263167 1.3540001
-0.089025497 0.053415298 1.3540001
-0.14415818 0.063143671 1.3590001
-0.11079927 0.067909233 1.3590001
-0.10401642 0.064401932 1.358091
-0.095299676 0.064098351 1.3540001
-0.086651489 0.065878876 1.3540001
-0.077155434 0.067659378 1.3540001
-0.1111964 0.074660435 1.3590001
-0.10548384 0.073774546 1.359
-0.096237838 0.072674789 1.3590001
-0.085803509 0.072387636 1.3576365
-0.074977353 0.071882367 1.3575002
-0.067784309 0.071354091 1.3565001
-0.17112094 -0.0143598 1.365
-0.16573603 -0.013362591 1.3649999
-0.17248854 -0.0035899505 1.3649999
-0.16513771 -0.0047865994 1.3649999
-0.15915444 -0.00358995 1.365
-0.14000805 -0.00119665 1.365
-0.13761474 -0.00119665 1.365
-0.17351425 0.0047865999 1.3649999
-0.16657367 0.0040686098 1.3649999
-0.18308745 0.01316315 1.365
-0.17351425 0.014359799 1.3649999
-0.16657367 0.01507779 1.3649999
-0.032309551 0.017949751 1.365
-0.029916249 0.017949751 1.365
-0.17191871 0.029118484 1.3650001
-0.16513771 0.025129646 1.3649999
-0.14000805 0.029916249 1.365
-0.13601921 0.028320715 1.3650001
-0.12245718 0.029118484 1.3650001
-0.052253712 0.026725182 1.3650001
-0.04454197 0.024331884 1.3649999
-0.037096146 0.021539701 1.3649999
-0.18149191 0.036298383 1.3650001
-0.17495023 0.03566017 1.3649999
-0.16603519 0.033805367 1.3649999
-0.15436785 0.032309551 1.365
-0.14000805 0.035899498 1.365
-0.13495551 0.035234693 1.3649999
-0.12086165 0.032309551 1.365
-0.18129247 0.043677725 1.365
-0.1747109 0.045472704 1.3649999
-0.16673322 0.047467116 1.3649999
-0.14000805 0.045472704 1.365
-0.1340248 0.0454727 1.3649999
-0.12465104 0.046469912 1.3649999
-0.11647394 0.047068238 1.3649999
-0.17261676 0.054148413 1.3649999
-0.16521749 0.05528523 1.3649999
-0.15607736 0.057610154 1.3649999
-0.14389716 0.055345062 1.3649999
-0.1340248 0.055045892 1.3649999
-0.12437181 0.054806568 1.3649999
-0.11511774 0.055285223 1.3649999
-0.10889515 0.057439201 1.365
-0.16489838 0.064379767 1.3649999
-0.15556449 0.064619094 1.3649999
-0.14626744 0.064895242 1.3649999
-0.13415775 0.062890604 1.3649999
-0.1240527 0.064619102 1.3649999
-0.11511774 0.064379767 1.3649999
-0.10698052 0.064379767 1.365
-0.17112094 0.076585606 1.365
-0.16465904 0.074431635 1.3649999
-0.15532516 0.07395298 1.3649999
-0.1459913 0.074192308 1.3649999
-0.13362591 0.073793419 1.3650001
-0.12188735 0.074021347 1.3649999
-0.11629263 0.074301094 1.3649999
-0.10351022 0.075987279 1.365
-0.094535351 0.075730853 1.3649999
-0.084962152 0.077383362 1.3649999
-0.074192308 0.076585606 1.3649999
-0.067411281 0.075388953 1.3650001
-0.17112094 0.084962152 1.365
-0.16537704 0.085121714 1.3649999
-0.15493096 0.085102923 1.3649999
-0.14570639 0.084734209 1.3649999
-0.13761474 0.080175549 1.365
-0.1220583 0.080175549 1.365
-0.11439975 0.082808174 1.3649999
-0.10558136 0.083489336 1.3649999
-0.095811769 0.083685726 1.3649999
-0.085493989 0.083499566 1.3649999
-0.0741923 0.080175549 1.365
-0.068209052 0.080175549 1.365
-0.17112094 0.093338698 1.365
-0.16792989 0.092939816 1.3650001
-0.15436785 0.095731996 1.3649999
-0.1459913 0.095732003 1.3649999
-0.1029119 0.096928649 1.365
-0.096130885 0.096928656 1.3649999
-0.08879143 0.094056688 1.365
-0.15277232 0.10450742 1.3649999
-0.14579184 0.10470688 1.3649999
-0.10171525 0.10171525 1.365
-0.098125294 0.10171525 1.365
-0.15197454 0.11128845 1.365
-0.1459913 0.1124851 1.365
-0.1797377 -0.020506987 1.376
-0.18432161 -0.013751743 1.3760002
-0.17674784 -0.01442862 1.3715
-0.18508199 -0.004649465 1.3747145
-0.17717278 -0.0057423618 1.3706667
-0.19421323 0.0070654317 1.3760002
-0.18541904 0.0048149829 1.3733752
-0.17895396 0.0048041334 1.3700001
-0.20145099 0.0180944 1.376
-0.19510126 0.014447249 1.3737503
-0.18503919 0.01449247 1.3700002
-0.1791499 0.014432125 1.3715001
-0.032569919 0.013269227 1.376
-0.19499806 0.024075238 1.3730001
-0.18495911 0.02402067 1.3700002
-0.17574713 0.023799049 1.3712001
-0.047440816 0.025822217 1.3700001
-0.034589764 0.024260875 1.37
-0.19435796 0.034802463 1.3748749
-0.1855994 0.034573674 1.3710589
-0.17775293 0.030025832 1.3700001
-0.054164849 0.031297877 1.3730001
-0.045739204 0.031297874 1.3730001
-0.036877859 0.031096065 1.3748001
-0.19414353 0.045823809 1.3755002
-0.1862344 0.046309043 1.3720001
-0.19421323 0.055087399 1.376
-0.18493634 0.054970905 1.3746154
-0.17745268 0.056148313 1.37
-0.1261085 0.058850631 1.3700001
-0.18478221 0.065688148 1.3760003
-0.17544883 0.064891972 1.3707501
-0.16934569 0.0684589 1.3700001
-0.1405209 0.064855799 1.3700001
-0.13434418 0.067086294 1.37
-0.1261085 0.064855799 1.3700001
-0.18547496 0.074528232 1.3756001
-0.17603353 0.07418967 1.3712858
-0.16654329 0.074063726 1.37
-0.15973744 0.078067169 1.3700001
-0.1405209 0.074464068 1.3700001
-0.13460813 0.074556462 1.3700001
-0.1269092 0.074597523 1.37
-0.066056833 0.075665101 1.3700001
-0.18456288 0.084440529 1.3760003
-0.17655192 0.084072344 1.37
-0.16574261 0.08347182 1.3700001
-0.15973744 0.084472679 1.3700002
-0.1405209 0.085273363 1.3700002
-0.13427554 0.084312551 1.3700002
-0.12525064 0.084587075 1.3700001
-0.11698065 0.086714603 1.3700001
-0.10328887 0.08767543 1.3700001
-0.094881631 0.085273363 1.3700001
-0.082871303 0.08767543 1.3700002
-0.074464075 0.085273378 1.37
-0.0684589 0.085273363 1.3700002
-0.18421821 0.092195272 1.3760002
-0.17636241 0.09405528 1.3713847
-0.16454159 0.095990293 1.3700001
-0.15973744 0.096082665 1.3700001
-0.1405209 0.094881631 1.3700001
-0.13451573 0.094881646 1.3700004
-0.12515192 0.094058923 1.3703532
-0.1151179 0.094058923 1.3703532
-0.10595784 0.094614752 1.3700004
-0.094881646 0.093218677 1.3700001
-0.083436504 0.09530554 1.3700002
-0.075070478 0.093456171 1.3717145
-0.17225868 0.10325871 1.3760002
-0.16496193 0.1059649 1.3735
-0.1578158 0.10617135 1.37
-0.14382376 0.10659172 1.37
-0.13455157 0.10572086 1.3703752
-0.12527041 0.10479674 1.3740001
-0.11563877 0.10479557 1.3740001
-0.10593116 0.10593116 1.3700002
-0.094525717 0.10614447 1.370667
-0.084376536 0.10487214 1.3750001
-0.077604868 0.10173074 1.376
-0.17008735 0.11218528 1.376
-0.16394621 0.11547518 1.3760003
-0.15518461 0.11560886 1.3708001
-0.14433956 0.11567956 1.3704287
-0.13514729 0.11539844 1.374
-0.12666079 0.11278842 1.376
-0.11399472 0.11278842 1.376
-0.10500868 0.11507922 1.3749412
-0.096905567 0.11298948 1.376
-0.15354656 0.12460605 1.3755002
-0.14518276 0.12503321 1.3751431
-0.13872373 0.12183563 1.376
-0.14596149 0.13148597 1.376
-0.19211799 -0.020670922 1.3870001
-0.18523353 -0.020581502 1.381
-0.21359952 -0.014185928 1.3870001
-0.20416683 -0.013154223 1.3870001
-0.19402778 -0.014553762 1.3832505
-0.18644421 -0.018160149 1.381
-0.22112677 -0.004342631 1.3870001
-0.2144725 -0.0042090109 1.3870002
-0.20452052 -0.0049448092 1.3870003
-0.19459608 -0.0049234182 1.3810003
-0.22373234 0.0048637469 1.3870003
-0.214248 0.0046205595 1.3870003
-0.20531957 0.0051257345 1.3833078
-0.19707125 0.0030939514 1.381
-0.23345983 0.015807176 1.3870001
-0.22440788 0.014321033 1.3870004
-0.21491396 0.0145702 1.3850001
-0.20605718 0.014285984 1.3810003
-0.03111787 0.014954473 1.383
-0.2322439 0.023102796 1.3870001
-0.22543523 0.0240418 1.386667
-0.2153156 0.024595136 1.3831431
-0.20581505 0.024213538 1.3810003
-0.22462745 0.033997133 1.3850002
-0.21550044 0.035109628 1.3810003
-0.20581505 0.035109624 1.3810003
-0.19976164 0.035714962 1.381
-0.052681178 0.03423471 1.3846
-0.046982024 0.036047366 1.386
-0.22373232 0.044989657 1.3870003
-0.21495117 0.045790255 1.3828464
-0.20581506 0.046005711 1.3810003
-0.19976164 0.046005715 1.381
-0.058770269 0.048232153 1.3870001
-0.22190844 0.054717153 1.3870001
-0.21463344 0.056159873 1.3856155
-0.20557292 0.055448987 1.3810003
-0.19556461 0.055933256 1.3810003
-0.18765488 0.059323158 1.381
-0.22112677 0.066181704 1.3870001
-0.21400481 0.065660588 1.3870003
-0.2047534 0.065426506 1.3820001
-0.19545701 0.065242022 1.3810003
-0.1876549 0.06416586 1.381
-0.21348371 0.075214371 1.3870002
-0.20520049 0.075279362 1.3849999
-0.19577351 0.0752756 1.3810003
-0.21230254 0.084872372 1.3870001
-0.2051264 0.084963463 1.3845001
-0.19491892 0.084747382 1.3810003
-0.21035704 0.091195248 1.3870001
-0.20394574 0.094953589 1.3870001
-0.19452257 0.094233572 1.3820004
-0.18571779 0.097096272 1.381
-0.20275745 0.10305064 1.3870001
-0.19429046 0.10443149 1.3851252
-0.18431935 0.10439155 1.3814003
-0.17645612 0.1050262 1.381
-0.079035886 0.10335462 1.3870001
-0.19360413 0.11254171 1.3870001
-0.1844272 0.11405216 1.3840003
-0.17455108 0.11515672 1.3810003
-0.16747694 0.11904987 1.381
-0.13196376 0.11985699 1.381
-0.12525848 0.11669061 1.3810003
-0.11657087 0.11691677 1.3810003
-0.094377041 0.11550598 1.3827143
-0.087451443 0.11174651 1.3855001
-0.18299846 0.12098569 1.3870001
-0.17497127 0.12454409 1.386
-0.16435762 0.12543096 1.3814288
-0.15738797 0.12833172 1.381
-0.14164917 0.12833172 1.381
-0.1347362 0.12618838 1.3817062
-0.1249675 0.1256174 1.3858001
-0.11384612 0.12474398 1.3815002
-0.10477546 0.12376916 1.3853637
-0.098490871 0.12037773 1.3870001
-0.11502761 0.1305916 1.3870001
-0.22455348 -0.023830721 1.398
-0.21658942 -0.023767311 1.3974
-0.19647151 -0.020745439 1.3920001
-0.23286021 -0.012255799 1.3980001
-0.22470793 -0.014341764 1.3962859
-0.21501103 -0.014749848 1.3929232
-0.20525782 -0.017816674 1.3920001
-0.23442122 -0.0042403685 1.3966154
-0.22679013 -0.0052962354 1.3933334
-0.21274245 -0.0077286935 1.3920001
-0.24340019 0.0075985962 1.3980001
-0.23462066 0.0048855543 1.3938752
-0.033090658 0.0085790595 1.3980001
-0.24406885 0.015023686 1.3950001
-0.23503363 0.01464384 1.3920001
-0.031865079 0.011030219 1.3980001
-0.24400835 0.02389136 1.3975
-0.23633531 0.024813175 1.3920001
-0.24143925 0.034316242 1.3980001
-0.23455787 0.034205783 1.3935001
-0.0549144 0.037829921 1.3920001
-0.043931521 0.037829921 1.3920001
-0.24241972 0.042405065 1.3980001
-0.23481035 0.044028834 1.3950002
-0.22819984 0.04759248 1.3920001
-0.053556271 0.044105101 1.3948002
-0.04650541 0.042837441 1.396
-0.23475428 0.052699938 1.3979999
-0.22649232 0.056165624 1.3927501
-0.061278999 0.05760226 1.3980001
-0.054414701 0.05136127 1.3950001
-0.23268512 0.065656073 1.398
-0.22703055 0.065002553 1.3938001
-0.061958592 0.061470468 1.3968002
-0.23163462 0.074760377 1.3980001
-0.22468615 0.075546235 1.3944001
-0.21843728 0.076880157 1.3920001
-0.22247243 0.085109808 1.3954287
-0.21762373 0.085829176 1.3920001
-0.22182998 0.091918498 1.3980001
-0.21475835 0.094948702 1.3944999
-0.20867471 0.09640529 1.3920001
-0.21263812 0.10356151 1.3980001
-0.20676401 0.10658865 1.3935001
-0.20365879 0.11221894 1.3944001
-0.19566463 0.1170087 1.3932002
-0.091721252 0.11740583 1.3950001
-0.085015632 0.11267621 1.3920001
-0.19159023 0.12081168 1.3920001
-0.097357333 0.12261585 1.3940001
-0.2338596 -0.031591561 1.4040002
-0.22401287 -0.032001842 1.4040002
-0.21588933 -0.031755675 1.404
-0.24220197 -0.023385961 1.4040002
-0.23385964 -0.024616802 1.4039999
-0.22339746 -0.02707848 1.404
-0.21785867 -0.028309319 1.404
-0.28186235 -0.01107756 1.404
