# .PCD v0.7 - Point Cloud Data file format
VERSION 0.7
FIELDS x y z
SIZE 4 4 4
TYPE F F F
COUNT 1 1 1
WIDTH 1435
HEIGHT 1
VIEWPOINT 0 0 0 1 0 0 0
POINTS 1435
DATA ascii
-0.074853912 -0.012831715 0.98431259
-0.065871149 -0.015103212 0.98480022
-0.23354603 -0.0083604772 0.98666668
-0.22894062 -0.0060288371 0.98300004
-0.082728036 -0.0048655462 0.98573703
-0.076376662 -0.0085717551 0.98877782
-0.067627817 -0.0095372563 0.98900002
-0.21315765 0.0051823272 0.98439997
-0.20621064 0.0084950253 0.98299998
-0.092205167 0.0089060562 0.9830001
-0.085345648 0.0050411047 0.9861725
-0.20374537 0.01297116 0.98616678
-0.19587521 0.016870048 0.98486674
-0.18719618 0.019365348 0.98175007
-0.12212142 0.01978023 0.98100007
-0.11465391 0.01822947 0.98335731
-0.10482751 0.017860333 0.98478961
-0.094948448 0.015855329 0.98629624
-0.087073915 0.012014465 0.98899996
-0.19247918 0.021675583 0.98900002
-0.18453015 0.024800098 0.98666674
-0.17644426 0.026479648 0.98400015
-0.16856197 0.028380331 0.98100007
-0.12239636 0.025412474 0.9837693
-0.1153301 0.024324214 0.98791671
-0.10545795 0.023963852 0.98795265
-0.098192558 0.022907926 0.98871428
-0.18120788 0.030345816 0.98900002
-0.17468791 0.032248337 0.98788249
-0.16493188 0.033086635 0.98595464
-0.15521844 0.036379252 0.98500019
-0.14577915 0.038453232 0.98200005
-0.13158153 0.03870045 0.98100007
-0.12375294 0.035311028 0.98414826
-0.11878219 0.030345816 0.98900002
-0.15208589 0.042030029 0.9885
-0.14480786 0.04358723 0.98720002
-0.1347695 0.044085756 0.98592317
-0.12541126 0.043561641 0.98716664
-0.14348578 -0.25110012 0.99800003
-0.19532441 -0.24191354 0.99800009
-0.18314852 -0.24118446 0.99800009
-0.17410773 -0.2428894 0.99800009
-0.16474867 -0.24379101 0.99762511
-0.15417139 -0.24464941 0.99785715
-0.14507605 -0.24497555 0.99745458
-0.13549253 -0.24524257 0.99661535
-0.12596342 -0.2435261 0.99452639
-0.11793314 -0.24111181 0.99650002
-0.19546118 -0.23479518 0.9961378
-0.18496794 -0.23477188 0.99603444
-0.17489159 -0.2362287 0.99431837
-0.16468275 -0.23676409 0.99342865
-0.15495259 -0.23520924 0.99368781
-0.14474431 -0.23488489 0.99462533
-0.13511853 -0.23541756 0.99388915
-0.12540682 -0.23601177 0.99340028
-0.11611712 -0.23477559 0.99400014
-0.21465242 -0.22802041 0.99400002
-0.19351164 -0.22751679 0.99227262
-0.1863957 -0.22813906 0.99200004
-0.15218933 -0.22697954 0.99200004
-0.14407258 -0.22813909 0.99200004
-0.13653557 -0.22871883 0.99200004
-0.1174032 -0.22871883 0.99200004
-0.10870667 -0.22871883 0.99200004
-0.22315304 -0.21410863 0.99199998
-0.24482678 -0.20506221 0.99324995
-0.23915467 -0.20784715 0.99200004
-0.26220942 -0.19172892 0.99500006
-0.25608581 -0.19619687 0.99290001
-0.0095661869 -0.19045408 0.99200004
-0.27046219 -0.18523616 0.99200004
-0.26643029 -0.18795933 0.99457139
-0.020123007 -0.18285689 0.99800003
-0.01414151 -0.18555526 0.99560004
-0.006354644 -0.18699907 0.99478567
-0.28349763 -0.17349364 0.99449998
-0.28312051 -0.16523315 0.99499995
-0.27846298 -0.16453841 0.99199998
-0.28248656 -0.15558982 0.99628574
-0.27674863 -0.15462312 0.99252939
-0.051309545 -0.15045002 0.99200004
-0.047830928 -0.15045002 0.99200004
-0.28084719 -0.14961018 0.99800003
-0.27484348 -0.14463955 0.99554545
-0.26814312 -0.14059395 0.99200004
-0.060187548 -0.14043762 0.99500006
-0.054015607 -0.14369434 0.99457139
-0.045693677 -0.14441216 0.99472761
-0.037411999 -0.14106856 0.99242866
-0.27306008 -0.13579999 0.99725008
-0.26646534 -0.13453865 0.99395007
-0.060369018 -0.13911122 0.99800003
-0.056869369 -0.13911122 0.99799997
-0.04284551 -0.13727775 0.99739999
-0.034834027 -0.13453297 0.99554557
-0.026991865 -0.1335642 0.9932
-0.28202894 -0.12195251 0.99600005
-0.2748273 -0.12376986 0.99521428
-0.26522082 -0.12740679 0.9931429
-0.032721758 -0.12826231 0.99800003
-0.025511831 -0.12735392 0.99610507
-0.30051649 -0.11181927 0.99650002
-0.29582638 -0.1129835 0.99315381
-0.30009526 -0.10936417 0.99800003
-0.29401708 -0.1054334 0.99588239
-0.28889883 -0.10244516 0.99199998
-0.29134572 -0.097405553 0.99650002
-0.2862995 -0.094101205 0.99392849
-0.28188908 -0.087851495 0.99550009
-0.27739576 -0.083455376 0.99425006
-0.27345264 -0.075923271 0.99550003
-0.26630583 -0.072416686 0.99324989
-0.29204607 -0.061768882 0.99800003
-0.28485873 -0.062029816 0.99481243
-0.27447188 -0.063109308 0.995143
-0.26529333 -0.064860336 0.99403578
-0.25741738 -0.064354345 0.99200004
-0.28486326 -0.055165861 0.99473912
-0.2787239 -0.053483676 0.99200004
-0.28221136 -0.047099553 0.99663639
-0.27632016 -0.044508696 0.99312496
-0.03458808 -0.042876083 0.99475002
-0.028828744 -0.0436786 0.99650002
-0.27302572 -0.036341283 0.995
-0.26697165 -0.032717902 0.99259996
-0.043264728 -0.033493049 0.995
-0.038126525 -0.038126525 0.99599999
-0.26428911 -0.026577903 0.99554545
-0.25595358 -0.021799853 0.99475002
-0.060096815 -0.020901926 0.99350005
-0.054978941 -0.02463413 0.99546152
-0.048604444 -0.027648605 0.99600005
-0.25252497 -0.016101988 0.99671429
-0.24613078 -0.013929576 0.99324995
-0.23915467 -0.011305493 0.99200004
-0.062904924 -0.014204338 0.99200004
-0.24220529 -0.0078684334 0.99739999
-0.23661807 -0.0062945639 0.99433339
-0.22417681 -0.0008722833 0.99500006
-0.080877759 -0.0043482669 0.99200004
-0.074576803 -0.0043548937 0.99428022
-0.066726372 -0.0067403708 0.99554545
-0.22211964 0.0028127367 0.99533337
-0.2162084 0.0080365008 0.99400002
-0.081225619 0.0074790195 0.99199998
-0.079059988 0.0043666768 0.99650002
-0.21298274 0.013631026 0.99650002
-0.20646018 0.016566688 0.99445456
-0.091313601 0.01826272 0.99200004
-0.084769517 0.015653798 0.99421757
-0.078670919 0.014862217 0.99710006
-0.20368864 0.022014933 0.99718189
-0.19529331 0.024628613 0.99471438
-0.18871477 0.027828906 0.99200004
-0.11421447 0.028408676 0.99200004
-0.10356501 0.028285433 0.99275005
-0.094570361 0.02469469 0.99514979
-0.08710593 0.020740071 0.99612504
-0.078742199 0.020123007 0.99800003
-0.19189948 0.031911325 0.99725008
-0.18509001 0.033046193 0.99483341
-0.17495586 0.037635427 0.99499995
-0.16517867 0.038070604 0.99309087
-0.15914656 0.039134398 0.99200004
-0.11545185 0.034458842 0.99420005
-0.10594048 0.031726275 0.99599999
-0.1706081 0.041120928 0.99800003
-0.16246158 0.041796137 0.99739999
-0.15539408 0.045086794 0.99470007
-0.1453238 0.048790008 0.99379998
-0.13428618 0.049305338 0.99250007
-0.12378892 0.04818153 0.99324995
-0.11849107 0.043805193 0.99529999
-0.14296083 0.051969849 0.99800003
-0.13474879 0.05288009 0.99699998
-0.12598349 0.052946631 0.99660003
-0.17214666 -0.2614359 1.0070001
-0.16606513 -0.26160404 1.0070001
-0.14536828 -0.2610155 1.0070001
-0.19245112 -0.25248176 1.0070001
-0.18256375 -0.25371769 1.0070001
-0.1750128 -0.25467816 1.0051999
-0.16521835 -0.25409663 1.0033791
-0.15511771 -0.25462535 1.0034443
-0.14550598 -0.25530159 1.0040001
-0.13865185 -0.25317124 1.001
-0.19120216 -0.24420339 1.002
-0.18549988 -0.24648666 1.0032858
-0.17647475 -0.24671371 1.0015001
-0.16431999 -0.247906 1.001
-0.1576653 -0.24775974 1.001
-0.1904269 -0.23956932 1.001
-0.2711609 -0.1904269 1.001
-0.26852828 -0.19130445 1.001
-0.020243987 -0.18219587 1.0040001
-0.013734649 -0.18330391 1.0043
-0.0056562535 -0.1828942 1.0037142
0.00088280335 -0.18097468 1.0070001
-0.29133737 -0.17163379 1.0040001
-0.28871176 -0.17199849 1.001
-0.29256541 -0.16558848 1.0058001
-0.28851128 -0.16490303 1.0023334
-0.29176772 -0.15514924 1.0067
-0.28709504 -0.1538002 1.0025001
-0.29044229 -0.14831096 1.0070001
-0.28529662 -0.14501429 1.0048571
-0.27993631 -0.14391711 1.001
-0.28245479 -0.13599823 1.0055
-0.27735767 -0.13413665 1.00225
-0.053215958 -0.1364539 1.0029999
-0.045689058 -0.1339834 1.0021999
-0.038611904 -0.13075395 1.001
-0.2834112 -0.12653019 1.0040001
-0.27728415 -0.12791017 1.0022857
-0.043615647 -0.12745114 1.0058461
-0.035548635 -0.12422036 1.0031289
-0.026593363 -0.12195048 1.0020909
-0.30543524 -0.11085731 1.0052
-0.0529682 -0.11564723 1.0070001
-0.033878986 -0.11752134 1.0067693
-0.027017195 -0.11728375 1.0059091
-0.30297241 -0.10488795 1.0042143
-0.29822084 -0.10389303 1.0015
-0.30169454 -0.098799676 1.00625
-0.29529923 -0.095091596 1.004375
-0.28871176 -0.090386964 1.001
-0.2922079 -0.089163139 1.0070001
-0.28579062 -0.084516488 1.0048823
-0.28187904 -0.075728841 1.0061429
-0.27712277 -0.073572583 1.0023637
-0.28368786 -0.067027301 1.006
-0.27661139 -0.067616425 1.0016667
-0.29375979 -0.054788817 1.0040001
-0.28871176 -0.050019968 1.001
-0.29161936 -0.046788573 1.0070001
-0.28650299 -0.044354886 1.0033572
-0.031329729 -0.041870769 1.002
-0.02904572 -0.041368145 1.0040001
-0.28251511 -0.037407614 1.0057143
-0.27718264 -0.033413712 1.0031002
-0.041829567 -0.031299043 1.001
-0.035334546 -0.035588033 1.0041428
-0.028543973 -0.03854908 1.0070001
-0.27271971 -0.027093932 1.005125
-0.26566178 -0.022476537 1.0037273
-0.05331609 -0.021384239 1.0024999
-0.045165956 -0.025335854 1.0040001
-0.039137617 -0.028543973 1.0070001
-0.26256603 -0.014997138 1.0064
-0.25650457 -0.01406535 1.002875
-0.24834476 -0.011408064 1.001
-0.060731959 -0.017600836 1.0040001
-0.055573214 -0.018083662 1.00625
-0.25413641 -0.0069571775 1.0061667
-0.2457511 -0.0041846819 1.00388
-0.23516482 -0.0019963293 1.0026364
-0.22850448 -0.00087885838 1.0025001
-0.071958557 -0.00087754335 1.001
-0.066064484 -0.0029534101 1.0023637
-0.24291803 0.0032369455 1.0070001
-0.23529835 0.0051404401 1.0057585
-0.22666106 0.0064791236 1.0031817
-0.075453751 0.0035851621 1.0035385
-0.06792523 0.0013235474 1.00625
-0.23328078 0.01346275 1.0070001
-0.22463755 0.013931592 1.0056499
-0.21694945 0.016314834 1.0037692
-0.21368234 0.021810917 1.005125
-0.20590414 0.025237292 1.0025002
-0.1983248 0.028081387 1.001
-0.091930017 0.027717695 1.0014286
-0.085465364 0.024592614 1.0038234
-0.078842431 0.022570953 1.0030001
-0.20127916 0.030898117 1.0070001
-0.19471848 0.032793179 1.002
-0.18623543 0.037297536 1.0027143
-0.11188734 0.038553417 1.0027143
-0.10534651 0.035744678 1.0042001
-0.096448004 0.032151975 1.0047499
-0.17375357 0.041244537 1.001
-0.16616778 0.043402139 1.0044286
-0.11579802 0.044911634 1.0045
-0.15327665 0.051428773 1.0040001
-0.14497563 0.055202823 1.0040001
-0.1352791 0.057277452 1.0029286
-0.12377966 0.056387402 1.0022354
-0.11847156 0.05085836 1.006
-0.1333033 0.060913429 1.0070001
-0.12624088 0.060913432 1.0070001
-0.17620122 -0.26208827 1.01
-0.16285171 -0.26433146 1.0118002
-0.1553683 -0.2646372 1.0133001
-0.14963824 -0.26208827 1.01
-0.19095846 -0.25352907 1.01
-0.18707941 -0.25462535 1.0100001
-0.17974296 -0.25943196 1.01
-0.020395212 -0.18089534 1.0115
-0.015255752 -0.1811258 1.0118001
-0.0049477811 -0.18052983 1.0129999
0.0017813867 -0.18081075 1.016
-0.011613203 -0.17955799 1.0190001
-0.0062474771 -0.17945227 1.0184
-0.29484931 -0.16380517 1.01
-0.30046055 -0.15349616 1.0159999
-0.29621443 -0.15395056 1.0119094
-0.30161941 -0.14500512 1.0181818
-0.29513612 -0.14462225 1.0132859
-0.28953668 -0.14166933 1.01
-0.29411492 -0.13572973 1.0163751
-0.28731391 -0.13399509 1.0109001
-0.054437887 -0.13249995 1.0119091
-0.048698831 -0.13015869 1.01
-0.2923637 -0.12835386 1.0167501
-0.2868804 -0.1275024 1.01
-0.053286694 -0.12521403 1.0130001
-0.046042535 -0.12362863 1.0100001
-0.052111082 -0.11733525 1.0109001
-0.045220744 -0.11526275 1.0114003
-0.036235839 -0.11355653 1.0102611
-0.026103828 -0.11293455 1.0106925
-0.31106654 -0.10368621 1.01525
-0.30792367 -0.1039696 1.0115
-0.050769519 -0.10955528 1.016
-0.044715948 -0.10673751 1.0157393
-0.034597293 -0.10583133 1.0157779
-0.027699469 -0.10633897 1.0145
-0.31131089 -0.095439628 1.0175
-0.3053318 -0.094521031 1.0140002
-0.29809618 -0.091880225 1.011
-0.31085196 -0.089960024 1.016
-0.30402717 -0.086575568 1.0172502
-0.29522464 -0.085068233 1.0131305
-0.28894639 -0.081164718 1.01
-0.30194327 -0.079505779 1.0190001
-0.29418647 -0.075996473 1.0175002
-0.28712186 -0.074163646 1.0131875
-0.29325575 -0.067743324 1.0167501
-0.28684711 -0.067938156 1.013
-0.30291817 -0.054167476 1.016
-0.29816991 -0.053164791 1.0107501
-0.30104995 -0.048239462 1.0190001
-0.29493982 -0.045687679 1.013
-0.29035231 -0.037142906 1.0170001
-0.28573292 -0.034492817 1.01325
-0.032989066 -0.032398771 1.0110002
-0.027906492 -0.033416167 1.0139
-0.28310907 -0.027417421 1.017125
-0.27642155 -0.02347899 1.0142354
-0.26828629 -0.020364966 1.01
-0.043089431 -0.021593178 1.0123334
-0.035658557 -0.02556153 1.0139602
-0.028747654 -0.028032994 1.0184
-0.27382177 -0.015160897 1.0174
-0.26795486 -0.014772233 1.0130001
-0.062256929 -0.013336291 1.0145
-0.0550097 -0.014096175 1.0144287
-0.045804784 -0.01782281 1.0166
-0.26468292 -0.0094639091 1.0120001
-0.25656497 -0.0032468808 1.0103334
-0.25233576 0.0020743394 1.0135001
-0.24644175 0.0046884133 1.0117143
-0.23995243 0.0097397668 1.01
-0.073791519 0.0074147005 1.0141667
-0.067080416 0.0045824093 1.01125
-0.2417233 0.011510633 1.01
-0.23641069 0.013576644 1.0100001
-0.22780932 0.017329196 1.0100001
-0.22197877 0.021962505 1.0134286
-0.21553427 0.025816301 1.01525
-0.20789857 0.028686872 1.012
-0.083189845 0.027679473 1.0124545
-0.078803569 0.025677567 1.01
-0.20492241 0.032222584 1.0154002
-0.19832742 0.035136361 1.0145
-0.10259315 0.03862856 1.0106001
-0.094694577 0.036040094 1.0118752
-0.087213024 0.033041093 1.0143846
-0.18241662 0.042343527 1.0190001
-0.17463174 0.045692943 1.0172353
-0.16606615 0.047534943 1.016
-0.11269718 0.045862004 1.0134616
-0.10614549 0.044490874 1.0158572
-0.097372241 0.040795099 1.0190001
-0.1712203 0.051514979 1.0190001
-0.163642 0.052240014 1.018625
-0.15508354 0.056372344 1.0149412
-0.14565328 0.058843248 1.0104287
-0.12130436 0.059324034 1.01
-0.11645959 0.055122059 1.0141252
-0.15208808 0.061995238 1.0175
-0.14426069 0.062926121 1.0153077
-0.13534573 0.063538231 1.014154
-0.1244409 0.064035304 1.0154001
-0.11809986 0.062174369 1.018
-0.022046853 -0.18222743 1.0265
-0.016140968 -0.18021877 1.0227501
-0.00089595333 -0.18008661 1.0220001
0.0026922433 -0.18026282 1.0230001
-0.022530334 -0.17934145 1.028
-0.014623677 -0.17840385 1.0265
-0.0049428656 -0.17730774 1.025375
0.0041773967 -0.17728001 1.0274545
0.011715773 -0.17393418 1.028
-0.30192751 -0.13524406 1.0244
-0.29835245 -0.13170514 1.0220001
-0.29744804 -0.12944128 1.0230001
-0.044390414 -0.10222013 1.0220002
-0.037182063 -0.10169071 1.0220001
-0.043305941 -0.097002596 1.0228825
-0.035008367 -0.095141917 1.0238997
-0.02877515 -0.095288321 1.0228184
-0.3109085 -0.084462889 1.0250001
-0.30749241 -0.083371527 1.0226002
-0.032397658 -0.08908993 1.0265
-0.029083999 -0.08694458 1.026
-0.30443996 -0.075251661 1.0256
-0.29804707 -0.072941013 1.0230001
-0.30191991 -0.068659365 1.026
-0.29804707 -0.068458609 1.0230001
-0.31001124 -0.053016417 1.0250001
-0.30701539 -0.051716611 1.0230001
-0.30404556 -0.046516407 1.0258182
-0.29721344 -0.041751906 1.02425
-0.29463604 -0.035793863 1.0259001
-0.28939292 -0.031358365 1.0220001
-0.024190741 -0.031358365 1.0220001
-0.28547704 -0.024227267 1.0236669
-0.033177324 -0.021648156 1.0228573
-0.025965795 -0.025665389 1.0253334
-0.28203341 -0.01640079 1.025375
-0.27905047 -0.0161482 1.0235001
-0.051069338 -0.011647393 1.0220001
-0.044466842 -0.014033682 1.0242103
-0.036354054 -0.01745645 1.0265
-0.062112171 -0.0068353694 1.0245386
-0.054812994 -0.0074841031 1.0250001
-0.046675358 -0.0093859686 1.0267142
-0.06809245 0.0098554865 1.0220001
-0.074807964 0.013347751 1.0245714
-0.068392277 0.012599892 1.0265
-0.22246788 0.027884135 1.026
-0.21713893 0.029161878 1.0235001
-0.22139807 0.032143276 1.028
-0.21462169 0.033327676 1.0274545
-0.2057378 0.03601937 1.0254
-0.19635646 0.038106289 1.0227501
-0.091520056 0.038582541 1.0235001
-0.085394353 0.035459027 1.0253334
-0.20187178 0.040554598 1.028
-0.19438732 0.041966543 1.02575
-0.18528681 0.045540202 1.0234998
-0.17650281 0.049277436 1.0220001
-0.10273361 0.048064843 1.0239091
-0.095846891 0.043829829 1.0251764
-0.18156849 0.05192 1.0270001
-0.17526238 0.05494697 1.0257499
-0.16589569 0.055832811 1.0235
-0.15858375 0.058236968 1.0220001
-0.11188554 0.055496871 1.0237502
-0.105894 0.053611983 1.0262352
-0.098232254 0.05136916 1.028
-0.16310033 0.060599763 1.0256001
-0.15510884 0.064463928 1.0245386
-0.14509366 0.067463078 1.0237499
-0.13501543 0.068284363 1.0236366
-0.12464665 0.067974016 1.0229002
-0.11502284 0.065078028 1.0247599
-0.14149049 0.071195856 1.028
-0.13518199 0.071195848 1.028
-0.12512138 0.071112737 1.0267999
-0.11805895 0.071195856 1.028
-0.02440377 -0.18257636 1.031
-0.022336273 -0.17729907 1.0342728
-0.015857093 -0.17549451 1.0353532
-0.0048506483 -0.17368479 1.0341177
0.0051611057 -0.17335232 1.0345001
0.011809201 -0.1711812 1.0362858
-0.30640289 -0.13648035 1.031
-0.042480636 -0.092192017 1.031
-0.31318611 -0.08237204 1.0325
-0.041612558 -0.088493183 1.0364001
-0.035200831 -0.085502446 1.0339586
-0.31187293 -0.075929604 1.0328572
-0.30821058 -0.073211312 1.031
-0.30730674 -0.069595933 1.031
-0.31182596 -0.05151907 1.031
-0.31240219 -0.046075754 1.0347002
-0.30590791 -0.042585313 1.0336001
-0.30268171 -0.036610086 1.0354445
-0.29821393 -0.032355722 1.0350001
-0.29260394 -0.025873283 1.0357502
-0.28832603 -0.022596084 1.031
-0.025168398 -0.021912457 1.0328
-0.29028362 -0.019109581 1.0380001
-0.28586724 -0.015395143 1.033
-0.04067295 -0.011749963 1.031
-0.033934791 -0.013794837 1.0338889
-0.027437214 -0.017442862 1.0364001
-0.062629648 -0.0021162734 1.0353334
-0.055940833 -0.0033250507 1.0348333
-0.044973675 -0.0069009853 1.0340002
-0.037212159 -0.0090752542 1.0353333
-0.23841476 0.019109581 1.0380001
-0.074437328 0.017551744 1.0355002
-0.068248503 0.01637964 1.0380001
-0.24136738 0.022727583 1.0370001
-0.23477831 0.024996316 1.035091
-0.22783631 0.027461292 1.0326667
-0.23386773 0.032322701 1.0372729
-0.22520138 0.035540849 1.0338423
-0.21620637 0.037066277 1.0312308
-0.20788397 0.038865265 1.031
-0.082524367 0.036508854 1.0325835
-0.078636996 0.037271485 1.0370001
-0.22173178 0.041555751 1.0380001
-0.21433362 0.043212183 1.035706
-0.20522273 0.044259794 1.0344502
-0.1950931 0.04691669 1.0331334
-0.093543835 0.047001168 1.0343335
-0.085741468 0.042773593 1.0356113
-0.07916826 0.041859079 1.0380001
-0.19315001 0.05335423 1.0354445
-0.18595347 0.055624127 1.0324092
-0.17805713 0.058749814 1.031
-0.10336924 0.056826558 1.0343333
-0.095825478 0.052227747 1.0361251
-0.18322457 0.061681513 1.0368572
-0.17477119 0.063135982 1.0353334
-0.16503893 0.064724997 1.0340002
-0.15626575 0.068435811 1.0316668
-0.14913414 0.069595933 1.031
-0.11117285 0.067172207 1.0334287
-0.10830384 0.062441021 1.036
-0.16167311 0.073708378 1.0380001
-0.15480588 0.073089451 1.0356668
-0.14480047 0.074753761 1.0340911
-0.13507277 0.075245753 1.0340669
-0.12557396 0.075030603 1.0342501
-0.11403134 0.072495073 1.0351111
-0.020990029 -0.1724833 1.041
-0.01414677 -0.17237647 1.0437692
-0.0060910801 -0.17143041 1.0419999
-0.017439529 -0.16980594 1.0470001
-0.0039297836 -0.16765971 1.0450714
0.0045758053 -0.16654465 1.0438502
0.011637374 -0.16800965 1.044
-0.042724349 -0.084991068 1.0425
-0.037901588 -0.081737116 1.0417501
-0.035927471 -0.078603297 1.045909
-0.31423941 -0.042019505 1.0419999
-0.31341094 -0.037380189 1.0456667
-0.30656138 -0.033450618 1.0426002
-0.30342126 -0.026005238 1.0451537
-0.29680273 -0.023906922 1.0422502
-0.021648845 -0.023173369 1.0434999
-0.01927527 -0.026618229 1.0470001
-0.29366729 -0.016793719 1.045
-0.28747216 -0.013080743 1.041
-0.030724535 -0.010647117 1.041
-0.024379808 -0.014121931 1.0430001
-0.01927527 -0.01927527 1.0470001
-0.06205748 -0.00091260998 1.041
-0.05403861 -0.0013722023 1.0447501
-0.044815198 -0.0036563573 1.04325
-0.034701895 -0.0065738042 1.0442727
-0.026969071 -0.0075218007 1.0464001
-0.26561224 0.0082430774 1.0447501
-0.06241516 0.00091786997 1.0470001
-0.057213891 0.00091786991 1.0470001
-0.26346552 0.011517939 1.0463334
-0.25578138 0.015483141 1.0438752
-0.24757805 0.017339591 1.041
-0.071183577 0.01916481 1.041
-0.06844575 0.01916481 1.041
-0.25331801 0.023591816 1.045909
-0.24581227 0.024948573 1.0423502
-0.081690431 0.02845397 1.0470001
-0.077201635 0.023978176 1.044706
-0.24264193 0.031261306 1.0444286
-0.23514803 0.036601447 1.0437
-0.22906511 0.03924223 1.041
-0.081690431 0.03028971 1.0470001
-0.078096971 0.033091243 1.0453334
-0.23130324 0.042222019 1.0470001
-0.22467133 0.044597853 1.0442144
-0.216066 0.04750799 1.042125
-0.20716245 0.048368331 1.041
-0.19986159 0.048368331 1.041
-0.090348393 0.048368331 1.041
-0.084262833 0.047342367 1.0425
-0.079549611 0.046634283 1.0430001
-0.21467943 0.050458744 1.0465001
-0.20342083 0.05211696 1.0459999
-0.19677706 0.056665018 1.044
-0.10129971 0.059319649 1.041
-0.09475363 0.05594036 1.0443002
-0.085256934 0.05179894 1.04575
-0.077651806 0.052869309 1.0470001
-0.19183482 0.06149729 1.0470001
-0.18490478 0.064325593 1.0452001
-0.17402783 0.067860015 1.044
-0.16838662 0.067903094 1.0419999
-0.10454278 0.065216802 1.0446316
-0.098116539 0.062355548 1.046
-0.17347743 0.070675991 1.0470001
-0.16482516 0.072644107 1.0445
-0.15548539 0.078062654 1.0437692
-0.14714324 0.079055175 1.0425
-0.13506629 0.079397075 1.041
-0.12387662 0.079083771 1.0428749
-0.11604875 0.076396473 1.0453637
-0.10912221 0.072444223 1.046
-0.15328428 0.081690431 1.0470001
-0.1439697 0.082224317 1.046
-0.13441737 0.082752235 1.0456363
-0.12715524 0.082224317 1.0460001
-0.11840523 0.081690431 1.0470001
-0.011966499 -0.1702925 1.0500001
-0.013854994 -0.16665015 1.0537059
-0.0051893741 -0.16353434 1.0516876
0.004605656 -0.16206935 1.0504001
0.014331054 -0.16369291 1.0544585
0.022239279 -0.16216141 1.057
-0.0024024174 -0.15911394 1.054
0.0040719411 -0.15855357 1.0552
0.015382169 -0.15845487 1.057
0.023695422 -0.15686634 1.057
-0.041422501 -0.080083497 1.0500001
-0.0303765 -0.080083497 1.0500001
-0.041422501 -0.077322006 1.0500001
-0.034698248 -0.074196905 1.0527499
-0.026863404 -0.075238645 1.0566669
-0.31483305 -0.032518964 1.0523751
-0.31155682 -0.027231019 1.053
-0.30565405 -0.022660431 1.0508001
-0.016948421 -0.023214836 1.0508001
-0.3019681 -0.016501622 1.0542858
-0.29618385 -0.013067301 1.0525001
-0.28719598 -0.0101255 1.0500001
-0.021651912 -0.011515893 1.0510001
-0.018151483 -0.014864175 1.0528889
-0.29285851 -0.0070065702 1.0557144
-0.28613251 -0.0047629974 1.0552309
-0.044490833 -0.0012273333 1.0500001
-0.034756731 -0.0026429158 1.0526
-0.025702551 -0.0042506936 1.0547001
-0.019459371 -0.0083397301 1.057
-0.28262419 0.0018532733 1.057
-0.27648863 0.005673911 1.0532857
-0.063788027 0.0046268874 1.0545455
-0.055023175 0.0027687326 1.0519167
-0.044937689 0.0026370136 1.0522858
-0.036230367 0.0027744311 1.05525
-0.27389738 0.011411425 1.0555
-0.26612291 0.015408794 1.0514287
-0.2617791 0.021841273 1.0526667
-0.25670847 0.026065163 1.0523751
-0.072826385 0.025660107 1.0515834
-0.069212832 0.02307328 1.0526667
-0.25120753 0.031404391 1.0535001
-0.24434474 0.035142835 1.0517778
-0.237489 0.038660999 1.0500001
-0.075552009 0.031786177 1.0510001
-0.23526113 0.043149404 1.0535716
-0.228284 0.046025001 1.0500001
-0.2140125 0.053850129 1.0545001
-0.20648064 0.056119591 1.05225
-0.1997485 0.059832498 1.0500001
-0.092050001 0.058912002 1.0500001
-0.084488817 0.056345936 1.0513334
-0.078242503 0.057991501 1.0500001
-0.20278944 0.061115284 1.0562501
-0.19457686 0.063559204 1.0541111
-0.18645363 0.068011805 1.0555
-0.1794975 0.069037497 1.0500001
-0.10171525 0.068577245 1.0500001
-0.095227689 0.065685771 1.0532668
-0.085250571 0.061158024 1.057
-0.078764118 0.060231384 1.057
-0.18069415 0.071351022 1.057
-0.17413032 0.07251896 1.05375
-0.1684515 0.074560501 1.0500001
-0.11276124 0.077782251 1.0500001
-0.10645586 0.07407625 1.0531539
-0.097296856 0.071351022 1.057
-0.15373652 0.083800569 1.0537143
-0.145263 0.085683644 1.05375
-0.13560177 0.087410279 1.0535456
-0.12446444 0.08517874 1.0527858
-0.11476041 0.083586983 1.0525789
-0.10930426 0.082212336 1.0536667
-0.014372747 -0.16283461 1.0604618
-0.0074341334 -0.16076313 1.0600001
0.0195146 -0.1616924 1.0600001
0.021373134 -0.1616924 1.0600001
-0.013700546 -0.15913048 1.0656668
-0.0036257962 -0.1573793 1.0636668
0.0052474029 -0.15406777 1.0631051
0.014805738 -0.15380852 1.0620966
0.023706382 -0.15309025 1.0605001
0.0084186299 -0.14872913 1.067
0.016133063 -0.14683484 1.0659333
0.024065688 -0.14620817 1.0631176
-0.026019465 -0.071553536 1.0600001
-0.033031698 -0.066015579 1.0606318
-0.026230706 -0.065386608 1.0636522
-0.31574193 -0.024631966 1.0643001
-0.3094458 -0.021373134 1.0600001
-0.31211293 -0.019019868 1.067
-0.30590069 -0.013976764 1.0630771
-0.015797533 -0.010221933 1.0600001
-0.30185211 -0.0070076352 1.066
-0.29513159 -0.004092806 1.062
-0.28941089 -0.0018598484 1.0615001
-0.022705814 -0.0021769095 1.0645
-0.018660508 -0.0065278793 1.06425
-0.29091042 0.0018708067 1.067
-0.28538656 0.0051899916 1.0618573
-0.061895952 0.0079125743 1.0617501
-0.057377174 0.0069986489 1.0642501
-0.049576376 0.0046770168 1.067
-0.030709196 0.0018624783 1.0615001
-0.027635748 0.0021741332 1.0626668
-0.28398439 0.013160587 1.0663847
-0.27580065 0.015717817 1.0633572
-0.26855806 0.0195146 1.0600001
-0.064781457 0.011016544 1.0648
-0.27033156 0.021514276 1.067
-0.26506224 0.02520274 1.064625
-0.25926539 0.028807266 1.0600001
-0.069694996 0.028807266 1.0600001
-0.26097754 0.03086831 1.067
-0.25481412 0.033604473 1.0647
-0.24840897 0.036821533 1.0632501
-0.072338507 0.033288263 1.0606
-0.06989225 0.031684488 1.0630001
-0.24521399 0.04223527 1.0653334
-0.23388398 0.04759967 1.0646001
-0.22831468 0.049390525 1.0630001
-0.23104462 0.051447183 1.067
-0.22485185 0.052949134 1.06425
-0.2164409 0.057090573 1.0636667
-0.21264708 0.062171094 1.0648
-0.20546922 0.064149156 1.0624667
-0.19533221 0.067714609 1.0610001
-0.1867826 0.069694996 1.0600001
-0.090933301 0.068247624 1.0606
-0.086057164 0.064065106 1.0631336
-0.19401248 0.07131245 1.0656667
-0.18497141 0.073680185 1.0638335
-0.17573339 0.0759167 1.0625001
-0.16706695 0.078715898 1.0646667
-0.10272209 0.077372923 1.0632999
-0.095049083 0.075436518 1.0634347
-0.16286397 0.082643725 1.064
-0.155862 0.08718878 1.0617778
-0.14682414 0.088280335 1.0600001
-0.12452173 0.088280335 1.0600001
-0.11440412 0.088363618 1.061
-0.10601347 0.084098272 1.0639168
-0.15186934 0.091346383 1.0654
-0.1439198 0.092367925 1.0628
-0.13575885 0.091751277 1.0625
-0.12545551 0.090866745 1.0622858
-0.11587133 0.09074387 1.061625
-0.013233283 -0.15497398 1.0737059
-0.0049766274 -0.15397675 1.0738094
0.002345741 -0.15159824 1.0707501
-0.0020771739 -0.14710169 1.077
0.0050335526 -0.14576341 1.0739565
0.013912831 -0.14280951 1.0724499
0.024388866 -0.14164303 1.0700001
0.017352477 -0.13789466 1.0759
0.025429647 -0.13656762 1.0743998
0.031157609 -0.13123962 1.077
-0.32136407 -0.022616245 1.075
-0.31799328 -0.021574767 1.0700001
-0.32007363 -0.0188834 1.077
-0.31454438 -0.014507956 1.0728571
-0.30861297 -0.010318367 1.0700001
-0.31252027 -0.0078680823 1.077
-0.30503556 -0.0049120612 1.0735555
-0.29683536 -0.00093934836 1.0715001
-0.016142752 -0.0047083884 1.074357
-0.29373103 0.0039516627 1.0732001
-0.28985229 0.0084423004 1.0700001
-0.053019572 0.0066028773 1.0762
-0.0309551 0.0046901666 1.0700001
-0.024463968 0.0028240357 1.0733334
-0.28418812 0.016663898 1.0707501
-0.27671984 0.0196987 1.0700001
-0.063839741 0.014859838 1.0745384
-0.058428079 0.010366583 1.075
-0.28041849 0.021715909 1.077
-0.27372259 0.024289191 1.0737001
-0.26801556 0.027609739 1.0712001
-0.26330212 0.033229757 1.0726668
-0.25703233 0.037123546 1.072
-0.25337735 0.042073112 1.0732858
-0.24469213 0.046059627 1.0721668
-0.23796487 0.048269615 1.0712001
-0.24076335 0.050041009 1.077
-0.23473658 0.054038368 1.0745454
-0.22557725 0.057314478 1.0717273
-0.22272564 0.062514804 1.075
-0.21604031 0.064722069 1.0727273
-0.20727888 0.068216413 1.0718
-0.083147332 0.067028426 1.0725714
-0.078086048 0.066775151 1.0755454
-0.20313217 0.072019674 1.0748572
-0.19487776 0.074728087 1.0721667
-0.1859941 0.077755824 1.0722858
-0.17551164 0.079777546 1.0706002
-0.16978404 0.079732835 1.0700001
-0.091701381 0.079181992 1.0710001
-0.0851807 0.074672416 1.0746772
-0.077287056 0.072701097 1.077
-0.18199921 0.082041092 1.0756668
-0.17451569 0.083309293 1.0751537
-0.16545285 0.086413175 1.0733334
-0.10316543 0.086614087 1.0730667
-0.096210957 0.084401086 1.0752666
-0.086863637 0.081198618 1.077
-0.16236074 0.093652658 1.0736251
-0.15589014 0.095243476 1.0731176
-0.14631347 0.096815132 1.0721667
-0.13468838 0.096448764 1.0727221
-0.125036 0.096290186 1.0732777
-0.11472607 0.096170887 1.0739523
-0.10698625 0.092949264 1.0757778
-0.13218379 0.10102619 1.077
-0.12651879 0.10149828 1.077
-0.012308399 -0.15129864 1.08
-0.00789 -0.1511724 1.08
-0.013752509 -0.14746793 1.0852727
-0.0048621483 -0.14495617 1.0832353
0.0028403997 -0.14202 1.08
-0.00095162168 -0.13893545 1.0855
0.0053158873 -0.13651635 1.0829499
0.014301838 -0.13361908 1.0821922
0.025563598 -0.13160519 1.08
0.01719044 -0.12656721 1.0855333
0.025108496 -0.12506349 1.0815806
0.031244399 -0.1297116 1.08
0.024388799 -0.11608462 1.0860769
-0.32254633 -0.015696621 1.0817778
-0.3181248 -0.0113616 1.08
-0.32025334 -0.0085527599 1.0840001
-0.31360543 -0.0043216744 1.0836667
-0.30755922 -0.0024623813 1.0807999
-0.012146479 -0.0032263964 1.0827
-0.31161028 0.0019058733 1.087
-0.30465701 0.0034866494 1.0837221
-0.29747456 0.0055535585 1.0811429
-0.053117234 0.0085369796 1.082
-0.048443284 0.0076020155 1.0835
-0.032310426 0.0066521466 1.0840001
-0.023764361 0.0059651588 1.0843636
-0.017356904 0.0021416966 1.085
-0.063751206 0.018936001 1.08
-0.056300197 0.014178704 1.0850475
-0.28351822 0.024326272 1.0838
-0.27674764 0.027472731 1.0805714
-0.065004185 0.025032122 1.0856498
-0.057493847 0.02064696 1.087
-0.27384624 0.032805633 1.084625
-0.26688188 0.036257882 1.0826
-0.073316015 0.037950523 1.0861429
-0.068865091 0.032053273 1.086
-0.26245177 0.041573867 1.086
-0.2562235 0.044604655 1.0825
-0.24852273 0.047425911 1.082
-0.074737452 0.043971218 1.087
-0.24403822 0.053031147 1.084
-0.23524122 0.058100205 1.082
-0.23423019 0.062651426 1.0861
-0.22597535 0.066508815 1.0837142
-0.21769387 0.06877099 1.082
-0.22203426 0.071470253 1.087
-0.21357332 0.072600856 1.0848889
-0.20583625 0.075457335 1.084
-0.19791949 0.078220002 1.0836667
-0.080477998 0.078584403 1.08
-0.075959407 0.075689897 1.0811428
-0.19332999 0.082041085 1.085
-0.18542632 0.084772386 1.0832
-0.17587732 0.087464601 1.0815001
-0.1685304 0.088999197 1.08
-0.094018407 0.087914482 1.080889
-0.085263886 0.08419928 1.0836874
-0.076761954 0.081522249 1.0855
-0.18105796 0.09052898 1.087
-0.17379193 0.091895916 1.0862499
-0.16503066 0.096274652 1.0825555
-0.15306599 0.099413998 1.08
-0.14547144 0.099506043 1.081
-0.1107756 0.099413998 1.08
-0.10451407 0.096114218 1.0824286
-0.095468193 0.092459045 1.0854167
-0.1610463 0.10196422 1.087
-0.15494047 0.10223497 1.0865
-0.14444107 0.1029605 1.0863333
-0.13506497 0.10475552 1.0845293
-0.12373818 0.1038852 1.0825385
-0.11510932 0.10404569 1.0841175
-0.10763142 0.10223497 1.0865
-0.013398974 -0.14287437 1.0917143
-0.0069700009 -0.14198068 1.0911429
-0.01247697 -0.13807701 1.0948572
-0.0045271902 -0.13559654 1.0947618
0.0036325562 -0.13234651 1.0908
-0.0012822711 -0.12662427 1.097
0.0047953352 -0.12510392 1.09475
0.012831896 -0.12395065 1.09
0.0078276312 -0.11686868 1.0965716
0.014508982 -0.11520291 1.0935518
0.021603171 -0.11337054 1.0904
0.017166136 -0.10670661 1.0965716
0.024067702 -0.10516209 1.0922759
0.02575024 -0.097628847 1.0961001
-0.31783199 -0.00191464 1.092
-0.0086316597 -0.00287722 1.0940001
-0.31514972 0.0042250073 1.0940001
-0.30565158 0.0082868384 1.0906668
-0.04411168 0.0076730251 1.0940001
-0.031649418 0.0086316597 1.0940001
-0.024653619 0.0086000999 1.09
-0.014645469 0.0053411545 1.0930001
-0.31127131 0.011219871 1.097
-0.3041912 0.012323302 1.0951667
-0.29721805 0.013109381 1.0936667
-0.052189611 0.016281564 1.092375
-0.047772087 0.012724927 1.0953751
-0.023017759 0.010549807 1.0940001
-0.015692918 0.011851364 1.0960001
-0.29428124 0.020195769 1.097
-0.2857374 0.027786652 1.0930001
-0.062143389 0.02854602 1.0905715
-0.05594492 0.024921114 1.09325
-0.28274077 0.032697912 1.097
-0.27592906 0.03684542 1.0944
-0.065000415 0.03555318 1.09368
-0.058247138 0.034026939 1.0964
-0.27177736 0.042891968 1.097
-0.26534316 0.045239795 1.0940001
-0.25636163 0.048263509 1.0917143
-0.075402662 0.045423977 1.0902107
-0.068245217 0.044274952 1.0939168
-0.26158333 0.050970275 1.097
-0.25368989 0.05314808 1.095
-0.24738355 0.056544494 1.093143
-0.073418237 0.054331299 1.0941364
-0.068280935 0.053855382 1.097
-0.24355775 0.062838197 1.0952222
-0.23616056 0.066408984 1.0915
-0.22646929 0.069756366 1.09
-0.074051149 0.061308589 1.097
-0.2340786 0.071743071 1.097
-0.2235671 0.074844107 1.0945001
-0.21509562 0.077354565 1.0934616
-0.20487 0.079457559 1.0920001
-0.074852727 0.078674994 1.09
-0.21157473 0.081744783 1.097
-0.20374133 0.083140232 1.0956666
-0.19521213 0.086233564 1.094
-0.18859205 0.088075191 1.092
-0.084280543 0.088114791 1.0925001
-0.078251481 0.08545506 1.09525
-0.18427147 0.092227787 1.0936
-0.17509085 0.095489517 1.0914
-0.1687969 0.098784551 1.0940001
-0.10147417 0.098603964 1.092
-0.094387852 0.096787877 1.0930834
-0.087623604 0.0929088 1.0953751
-0.16060446 0.10482566 1.097
-0.15385067 0.10640344 1.0934167
-0.14541489 0.10709913 1.0927
-0.13906564 0.10837529 1.0940001
-0.12680283 0.10767605 1.0908
-0.11381325 0.10807809 1.0910001
-0.10488656 0.10437974 1.0936667
-0.15291083 0.11059588 1.097
-0.14521721 0.11059588 1.097
-0.13560018 0.11059588 1.097
-0.12869334 0.11044466 1.0955
-0.1128915 0.11124738 1.0952858
-0.10852388 0.11140636 1.0955
-0.0022533254 -0.12530167 1.1023334
0.00096520997 -0.12065125 1.1010001
-0.00097134669 -0.11850429 1.108
0.004423535 -0.11550973 1.1045713
0.01061731 -0.11099915 1.1010001
0.0080945557 -0.10911461 1.108
0.013758494 -0.10426836 1.1053998
0.017608726 -0.096641727 1.1071428
0.023411077 -0.093460336 1.1036499
0.026282724 -0.086266309 1.1057057
0.030410865 -0.084258184 1.1048
-0.0065496862 -0.0033960971 1.1068749
-0.3226395 0.0065147607 1.1061429
-0.31813094 0.0067704963 1.103
-0.037128713 0.0078675812 1.1021429
-0.011018824 0.0063816071 1.1026
-0.0078708101 0.0050687892 1.1069999
-0.31495255 0.013770943 1.1061001
-0.30499592 0.017146247 1.1031817
-0.29728466 0.01737378 1.1010001
-0.044381797 0.015119104 1.1036249
-0.036366761 0.012446621 1.1061665
-0.028040184 0.011605314 1.103
-0.01320406 0.010630168 1.1023334
-0.0087421201 0.010684813 1.108
-0.31180227 0.02039828 1.108
-0.30500454 0.022173468 1.1064998
-0.29579765 0.024820119 1.1051538
-0.28859779 0.029921509 1.1010001
-0.052332968 0.025877798 1.1013999
-0.047384761 0.023727747 1.1061332
-0.30597419 0.030111747 1.108
-0.29237536 0.03075931 1.108
-0.28496611 0.035861913 1.1056249
-0.27894568 0.03957361 1.1010001
-0.061773442 0.03957361 1.1010001
-0.054463655 0.035615139 1.1042629
-0.049538679 0.030111747 1.108
-0.28071919 0.041767906 1.108
-0.27485707 0.046441734 1.1057273
-0.26832837 0.048260503 1.1010001
-0.063271664 0.045765761 1.1024117
-0.057385251 0.044849865 1.1066153
-0.27197707 0.051481374 1.108
-0.26432145 0.054595053 1.1066362
-0.25641692 0.05699493 1.1018889
-0.064030029 0.05528681 1.1027142
-0.058260743 0.054134492 1.1076249
-0.25414962 0.061111994 1.1065
-0.24484162 0.065956019 1.1010001
-0.073215216 0.066379108 1.1022307
-0.0650189 0.064703666 1.1042916
-0.059252147 0.061194841 1.108
-0.24033728 0.070460327 1.1010001
-0.23407327 0.074253164 1.104
-0.2275238 0.07638061 1.1028333
-0.072588377 0.0746672 1.1061428
-0.067477904 0.074276023 1.1075
-0.2226038 0.081622928 1.1040001
-0.21475138 0.084284231 1.1030769
-0.20633061 0.086495996 1.1023749
-0.19786805 0.089121051 1.1010001
-0.081077635 0.089764528 1.1010001
-0.073627725 0.085841157 1.102842
-0.067695878 0.084463648 1.1074544
-0.20333092 0.091063 1.1067144
-0.19393161 0.093143791 1.1054444
-0.18537456 0.096442208 1.105625
-0.17598994 0.09812969 1.1010001
-0.091694951 0.099416628 1.1010001
-0.083995581 0.09657862 1.1036361
-0.075179331 0.094139673 1.1057776
-0.067994267 0.090335242 1.108
-0.1748424 0.10102005 1.108
-0.16490801 0.10573214 1.1065
-0.15829444 0.10810351 1.1010001
-0.10242347 0.10795598 1.1037143
-0.095397115 0.10300732 1.1039999
-0.084459297 0.10193618 1.1073999
-0.078679077 0.1019914 1.108
-0.153329 0.11339041 1.1023334
-0.14512077 0.11450057 1.1042727
-0.13615236 0.11371995 1.1059999
-0.12496445 0.11140241 1.105
-0.11224467 0.11611691 1.10375
-0.1063225 0.11392013 1.1059166
0.0029285676 -0.11183661 1.1148572
0.0057612089 -0.10485922 1.1167222
0.010723387 -0.10138474 1.1120001
0.0078479201 -0.099079989 1.1190001
0.013902034 -0.094403215 1.1152778
0.016837658 -0.086686634 1.1179093
0.022638325 -0.083371721 1.114091
0.024825597 -0.075674489 1.1173042
0.031070819 -0.074610248 1.11625
0.02648673 -0.069650292 1.1190001
0.03139168 -0.069650292 1.1190001
-0.0036793025 -0.0051850108 1.1147693
0.0016349833 -0.0042509567 1.1190001
-0.0039089103 0.004402475 1.1156667
-0.041918691 0.018522214 1.1120001
-0.035958555 0.015895801 1.114091
-0.0068423832 0.010752317 1.115
-0.30512911 0.027030027 1.1120002
-0.29927996 0.028270746 1.1120001
-0.042471666 0.024584027 1.1147693
-0.037559029 0.021230236 1.1176667
-0.30235982 0.031997345 1.114375
-0.29514238 0.034068342 1.115077
-0.28758171 0.038019281 1.1120001
-0.051667225 0.038994133 1.1120001
-0.04677866 0.033346262 1.1146876
-0.29135403 0.040220588 1.1190001
-0.28407988 0.043655515 1.1148334
-0.27880806 0.047767811 1.1120001
-0.052886177 0.046748754 1.1142858
-0.048960079 0.042107176 1.117
-0.27400529 0.054931421 1.1155834
-0.26625547 0.058517944 1.1125001
-0.053867292 0.055827975 1.1151578
-0.049851649 0.051806618 1.115
-0.26319358 0.061939307 1.1144001
-0.25503448 0.065351553 1.1153333
-0.24872436 0.068548322 1.1170001
-0.061415758 0.06921459 1.1120001
-0.056941304 0.065467767 1.1165295
-0.24407828 0.073994681 1.1168572
-0.23651604 0.077863634 1.1148334
-0.06316869 0.075639471 1.1138462
-0.058508635 0.074635796 1.1185555
-0.23228687 0.082820892 1.118
-0.22577026 0.084790871 1.1148751
-0.21641743 0.088224225 1.1120001
-0.063581266 0.084804013 1.1158463
-0.2121139 0.0915576 1.115
-0.20533758 0.094606243 1.115375
-0.19578245 0.097307883 1.1144001
-0.1881467 0.098460183 1.1120001
-0.072801903 0.097786561 1.1131999
-0.067295782 0.095000781 1.11525
-0.1917191 0.10157558 1.1176667
-0.18453035 0.10335305 1.1156667
-0.1753508 0.10611169 1.1152353
-0.16797723 0.10644925 1.114
-0.094182439 0.10740705 1.1126667
-0.085045204 0.10655569 1.1150669
-0.075243093 0.10363175 1.1165
-0.068996303 0.10169596 1.1190001
-0.17657819 0.11085187 1.1190001
-0.1662486 0.11102633 1.1168001
-0.15545942 0.11697952 1.1132857
-0.14525315 0.11795725 1.1120001
-0.13394174 0.1170209 1.1139169
-0.12415903 0.11608798 1.114
-0.11669281 0.11647616 1.1123334
-0.10279918 0.11597679 1.1132501
-0.095477119 0.11351643 1.1167368
-0.086130925 0.11202906 1.1190002
-0.15107246 0.12066177 1.1190001
-0.14426489 0.12131777 1.1172857
-0.13611215 0.12118185 1.117
-0.12556672 0.12066177 1.1190001
-0.117298 0.12023045 1.115
-0.10482261 0.12148014 1.1174999
-0.0016434578 -0.1126616 1.1240001
0.00098449667 -0.11518611 1.123
-0.00098449667 -0.10927913 1.123
0.0016408277 -0.10435665 1.123
0.0061098402 -0.095728084 1.1242001
0.010829464 -0.091558188 1.123
0.0075600813 -0.088433452 1.125
0.013262551 -0.08481124 1.1239232
0.016901132 -0.076062225 1.1247144
0.02067443 -0.072852753 1.123
0.018730421 -0.069005504 1.1245
0.025109904 -0.065376945 1.1242857
0.03299918 -0.063731611 1.1245883
0.028626673 -0.058240473 1.126
0.034906693 -0.05435843 1.1254286
0.040867046 -0.053502269 1.126
0.0029554626 -0.0014774024 1.1237501
-0.00098515418 0.0059128976 1.1237501
0.0025209039 0.0031778193 1.1246667
-0.032128252 0.017149178 1.1242001
-0.028550403 0.01476745 1.123
-0.040364362 0.027565908 1.123
-0.036792573 0.024388241 1.1255715
-0.30027148 0.036426377 1.123
-0.29764616 0.037739038 1.123
-0.043167241 0.03528443 1.1242001
-0.03849794 0.031588051 1.126
-0.2937732 0.041404091 1.1245
-0.28824097 0.044420701 1.126
-0.046824083 0.043864015 1.1245
-0.28133109 0.055279091 1.126
-0.27861255 0.057100806 1.123
-0.050209329 0.057100806 1.123
-0.048369206 0.053304836 1.126
-0.27511796 0.060544353 1.1248
-0.26457021 0.066037551 1.1242858
-0.25498462 0.069505468 1.123
-0.051730782 0.065690972 1.1240002
-0.048369206 0.06811174 1.126
-0.26158857 0.070085995 1.126
-0.25555229 0.07202825 1.1255001
-0.24596067 0.077386871 1.1245
-0.054911017 0.07560987 1.1242858
-0.048369206 0.07206025 1.126
-0.24184602 0.081931517 1.126
-0.23540166 0.084256962 1.1253999
-0.22565226 0.088354558 1.1240001
-0.060628075 0.085275993 1.1245
-0.056898445 0.083211303 1.1255001
-0.21508041 0.094115108 1.124125
-0.20532234 0.098712668 1.126
-0.065420665 0.095666252 1.125
-0.20038672 0.10167404 1.126
-0.19467123 0.10440359 1.1246667
-0.18577655 0.10894372 1.1236001
-0.074401498 0.10864957 1.124125
-0.068469241 0.10635597 1.1254001
-0.18139067 0.11139672 1.1245
-0.17390905 0.11276241 1.125
-0.16424744 0.11517143 1.12525
-0.09451168 0.11813961 1.123
-0.084838316 0.11492464 1.12525
-0.078476571 0.11203888 1.126
-0.15389833 0.12292244 1.1242858
-0.14485046 0.12514357 1.1240001
-0.1350562 0.12500224 1.1245
-0.12700005 0.12306208 1.123
-0.10624446 0.12556057 1.1242001
-0.098579854 0.12125483 1.1245
0.0036393355 -0.093009077 1.1326667
0.0076071289 -0.084021486 1.132
0.011570248 -0.080996402 1.1313334
0.0089788204 -0.078814089 1.138
0.013357477 -0.074752197 1.1335557
0.017298548 -0.064582124 1.1365454
0.022162132 -0.0618576 1.132
0.018955287 -0.058861151 1.138
0.025526978 -0.055370264 1.1346669
0.032690901 -0.053989515 1.13
0.028931754 -0.048884686 1.138
0.034818042 -0.047749579 1.1348002
0.040759739 -0.047715213 1.1340001
0.0079531204 -0.00099414005 1.1340001
0.0061690453 0.0057676486 1.1342667
0.010974113 0.00099764671 1.138
-0.030709634 0.018822033 1.13
-0.026594309 0.01777905 1.1357143
-0.011365457 0.015753701 1.1372
-0.0047137989 0.015260631 1.1340001
0.0028456599 0.014648349 1.1354285
-0.033015385 0.025608368 1.1321334
-0.025482535 0.024631748 1.1368574
-0.014183687 0.025374826 1.1375557
-0.0052439156 0.024574036 1.1369568
0.0017957641 0.022546815 1.138
-0.041276388 0.037974279 1.13
-0.034419689 0.03503 1.1331307
-0.025908303 0.032688092 1.1368001
-0.013967053 0.032423519 1.138
-0.30128932 0.044894099 1.138
-0.29463887 0.045008067 1.1345
-0.28831989 0.048884686 1.138
-0.043474291 0.045137811 1.1328889
-0.036673199 0.043195598 1.1361817
-0.29031518 0.052875273 1.138
-0.28632197 0.055767395 1.136
-0.04433636 0.054811321 1.1346316
-0.038908221 0.054870568 1.138
-0.2843293 0.060856447 1.138
-0.27419716 0.06373401 1.1324
-0.26794615 0.06847468 1.132
-0.044544172 0.064424329 1.1335002
-0.038908221 0.065345854 1.138
-0.27036226 0.072828203 1.138
-0.26397961 0.07412459 1.1343077
-0.2550174 0.076533787 1.131091
-0.051182721 0.075948559 1.13
-0.045325052 0.073982261 1.1331578
-0.038908221 0.071830556 1.138
-0.25342435 0.081550688 1.1372
-0.24520151 0.083656803 1.1344445
-0.23726572 0.087156437 1.1339999
-0.060428634 0.088166364 1.13
-0.053443827 0.085238062 1.1331999
-0.047653146 0.081949748 1.1372
-0.23145403 0.090785846 1.138
-0.22367799 0.094200902 1.1340001
-0.21677056 0.097556517 1.1332
-0.062026404 0.095258124 1.1329091
-0.055585932 0.092261277 1.1356667
-0.21314748 0.10148959 1.1372001
-0.20492944 0.10360049 1.1332729
-0.1974867 0.10717776 1.132
-0.070334964 0.1099603 1.13
-0.064184494 0.10441561 1.133
-0.19519861 0.11054416 1.136
-0.18557543 0.11378036 1.1335001
-0.17598616 0.11577903 1.1320001
-0.16619612 0.11828513 1.1306667
-0.092128903 0.11920621 1.13
-0.084028065 0.11774202 1.131
-0.074364133 0.11537915 1.1328236
-0.066631921 0.1137097 1.1344445
-0.16242822 0.12322953 1.1366667
-0.15517525 0.1263335 1.1346667
-0.14463246 0.1277917 1.13
-0.13443384 0.12848702 1.1311429
-0.12675823 0.12704729 1.1334287
-0.10344491 0.12647669 1.1324002
-0.094074711 0.12304017 1.1348889
-0.084762663 0.122036 1.1350908
-0.076170564 0.12144914 1.1368572
-0.15064465 0.13069171 1.138
-0.14514445 0.13023233 1.1340001
-0.1325292 0.13053858 1.1366667
0.011060903 -0.074407965 1.1470001
0.01510935 -0.069503009 1.149
0.019055225 -0.05415082 1.1440001
0.022365227 -0.052407429 1.1423334
0.019138509 -0.044320762 1.149
0.02515755 -0.04528505 1.1479567
0.035075139 -0.043089982 1.1431335
0.041107193 -0.043110084 1.1436667
0.026793916 -0.038881399 1.149
0.035447825 -0.036399886 1.1483685
0.042104721 -0.037672646 1.149
0.013360984 0.0053459131 1.143
-0.022006087 0.015004151 1.1409999
-0.016322816 0.01723407 1.1442729
0.0086795846 0.01569204 1.1423334
0.01108019 0.01510935 1.149
-0.021005809 0.029008023 1.141
-0.017004704 0.021005809 1.141
-0.0010002767 0.029008023 1.141
0.0060273763 0.025261296 1.1450001
0.01108019 0.021153091 1.149
-0.023841606 0.036643352 1.145
-0.015913935 0.033494607 1.1423333
-0.0048306719 0.032923851 1.1442729
0.0020128267 0.031171637 1.1470001
-0.30181909 0.048575807 1.1463333
-0.29610586 0.048461255 1.1436667
-0.033328895 0.04686594 1.1435001
-0.029143615 0.043217625 1.1463333
-0.302187 0.052379079 1.149
-0.29563302 0.051282369 1.1470001
-0.28807968 0.05101411 1.141
-0.035378583 0.055317607 1.1444668
-0.033491768 0.065317571 1.1439335
-0.27001771 0.077291317 1.1450001
-0.26569518 0.079206541 1.1436667
-0.041083232 0.078160092 1.1430001
-0.034763865 0.075767323 1.1462001
-0.26427528 0.082503103 1.1476667
-0.25502333 0.086349666 1.1452858
-0.24642012 0.088057794 1.1432858
-0.044367902 0.086044632 1.1443846
-0.037250195 0.082701094 1.1484287
-0.24417754 0.094019718 1.1470002
-0.23604144 0.095257342 1.1462635
-0.22706079 0.097268797 1.1438572
-0.053742688 0.097808629 1.1423334
-0.047389653 0.094875023 1.1457274
-0.22400039 0.10258995 1.1445001
-0.2163105 0.10529607 1.1438571
-0.20577557 0.108074 1.1450001
-0.061016876 0.1070296 1.141
-0.05594762 0.10458796 1.1455716
-0.049357209 0.10274358 1.149
-0.20347258 0.11180919 1.149
-0.19373243 0.11532312 1.1467143
-0.1852607 0.11871264 1.1443334
-0.17604868 0.11903292 1.141
-0.063632265 0.11690847 1.1441112
-0.058771297 0.11302644 1.1460001
-0.18299103 0.12188209 1.149
-0.17406012 0.12207642 1.1476668
-0.16568562 0.12501775 1.1482
-0.15631843 0.12926188 1.1430001
-0.10102794 0.1290357 1.141
-0.095221959 0.12830612 1.1434001
-0.084722094 0.12783509 1.1436669
-0.074932426 0.12706558 1.1435001
-0.067926243 0.12440268 1.1462002
-0.15320222 0.13307187 1.1482
-0.14504771 0.13433018 1.1463333
-0.13560684 0.13359646 1.1458001
-0.12788479 0.13310587 1.145
-0.10426032 0.13331771 1.1472223
-0.095599778 0.13311172 1.1479093
-0.085356481 0.1331117 1.1479093
-0.076870017 0.1326215 1.1472857
0.01212956 -0.071766563 1.153
0.01212956 -0.069744967 1.153
0.019205136 -0.04851824 1.153
0.02122673 -0.041442662 1.153
0.026582209 -0.035041243 1.1540909
0.034704022 -0.031671632 1.153
0.044611257 -0.033386573 1.1540909
0.036294416 -0.026059009 1.1551051
0.04384625 -0.026007604 1.1559331
0.038036376 -0.018764611 1.1570001
0.04260074 -0.019271763 1.1570001
0.014488086 0.0084233051 1.153
0.015053367 0.015485564 1.1555712
0.0070755766 0.028639236 1.153
0.012588808 0.023874013 1.1552857
-0.022237526 0.03942107 1.153
-0.014801113 0.037503276 1.1562001
-0.0034388124 0.036615383 1.1538
0.0030394034 0.034424946 1.155
-0.031334698 0.049529035 1.153
-0.027108943 0.044844348 1.1559999
-0.30256513 0.053572226 1.153
-0.29660276 0.055678476 1.1547143
-0.031356439 0.055630989 1.1538
-0.029414797 0.058829594 1.1570001
-0.031334698 0.061658595 1.153
-0.029414797 0.065929726 1.1570001
-0.26685032 0.084401518 1.153
-0.042116527 0.088613175 1.153
-0.035454072 0.086106747 1.1555455
-0.24360199 0.098047279 1.153
-0.23450482 0.098047279 1.153
-0.042888578 0.095573902 1.1556666
-0.038543526 0.0912873 1.1570001
-0.23477834 0.10153466 1.1543332
-0.2112565 0.10815524 1.153
-0.053633004 0.10726952 1.1543332
-0.045836296 0.10206 1.1554999
-0.21198939 0.11055906 1.1570001
-0.20793219 0.11157337 1.1570001
-0.19609454 0.11725241 1.153
-0.056056991 0.11346754 1.1556667
-0.19305971 0.12134662 1.1554
-0.18501593 0.125157 1.1555454
-0.17517266 0.12671565 1.1549999
-0.16757791 0.12808844 1.155
-0.064321913 0.12474203 1.1541427
-0.059843898 0.1207021 1.1570001
-0.16311698 0.13069434 1.1556667
-0.15823132 0.13388804 1.1570001
