# .PCD v0.7 - Point Cloud Data file format
VERSION 0.7
FIELDS x y z
SIZE 4 4 4
TYPE F F F
COUNT 1 1 1
WIDTH 1430
HEIGHT 1
VIEWPOINT 0 0 0 1 0 0 0
POINTS 1430
DATA ascii
-0.11774983 0.0034543364 0.9663077
-0.34316379 0.016446091 0.96700013
-0.33521533 0.015774628 0.96395844
-0.32701027 0.012439461 0.96200001
-0.31646833 0.011596109 0.96200001
-0.16276719 0.011806946 0.96200007
-0.15463485 0.014216526 0.96199995
-0.14526449 0.01520291 0.9633891
-0.1358086 0.014497376 0.96500033
-0.12563887 0.012961746 0.96526325
-0.11953087 0.011868313 0.96700007
-0.34272105 0.023062082 0.96633339
-0.33517113 0.025450241 0.96420717
-0.32509616 0.027734581 0.9625333
-0.31663233 0.028767718 0.96200001
-0.14379388 0.023433978 0.96233338
-0.13768163 0.026124714 0.96483338
-0.33146504 0.031366255 0.96700007
-0.32413182 0.032777067 0.96571434
-0.31459597 0.034910839 0.9641853
-0.30547738 0.036732558 0.96269572
-0.29500499 0.038456909 0.96200001
-0.28552195 0.039075367 0.96200001
-0.27914995 0.039637607 0.96200007
-0.13383693 0.034196571 0.96319997
-0.1287479 0.03759535 0.96528584
-0.30401516 0.042964738 0.96635717
-0.29547808 0.043042891 0.96535718
-0.28432274 0.043476637 0.96525002
-0.2752088 0.045670573 0.96320838
-0.26577538 0.048454743 0.96242857
-0.25409031 0.049516883 0.96200001
-0.24541581 0.049336169 0.96200001
-0.23445223 0.049757842 0.96200007
-0.22433197 0.049757846 0.96200007
-0.15180361 0.049757846 0.96200007
-0.1443821 0.049083162 0.96200001
-0.13416742 0.046216719 0.96253848
-0.12802266 0.044454217 0.96515381
-0.27357674 0.051469725 0.96700007
-0.26400957 0.054622661 0.96636862
-0.2544986 0.054917097 0.96588928
-0.24470571 0.05476784 0.96437067
-0.2348741 0.054919433 0.96373355
-0.22480263 0.05508288 0.9631924
-0.21494251 0.055166204 0.96433353
-0.20561917 0.055494927 0.96257138
-0.19550465 0.057271361 0.96199995
-0.18532732 0.056625284 0.96252632
-0.17456488 0.055695202 0.96317399
-0.16558944 0.055387165 0.96329159
-0.15488006 0.055477701 0.96288002
-0.14526176 0.054898061 0.96336675
-0.13659647 0.053793926 0.96589488
-0.12970372 0.050864197 0.96700007
-0.30324289 0.067241199 0.96645457
-0.29437628 0.066437915 0.96447372
-0.28523195 0.065870814 0.96336675
-0.27470958 0.064060196 0.96333331
-0.2644029 0.063054174 0.96381485
-0.25452414 0.062764324 0.96429181
-0.24476336 0.062736675 0.96275014
-0.23471481 0.062476456 0.96308345
-0.22493054 0.062851384 0.96378267
-0.21413954 0.065119043 0.96474224
-0.20481944 0.065180272 0.96378082
-0.19443734 0.065479741 0.96329755
-0.18530677 0.064494684 0.9654575
-0.17761938 0.062408432 0.96633339
-0.16402583 0.060889263 0.96657145
-0.15546331 0.061171792 0.96528566
-0.14558321 0.060774125 0.96550006
-0.13987654 0.060189303 0.96700007
-0.30341002 0.072131574 0.96635717
-0.29467949 0.073663518 0.96482623
-0.28572866 0.075351536 0.96291304
-0.27483949 0.077869616 0.96200001
-0.26734301 0.07843186 0.96200007
-0.2057782 0.071685024 0.96200007
-0.19987474 0.071685031 0.96200007
-0.18322502 0.071815722 0.96378571
-0.17517909 0.075552113 0.96473366
-0.16869959 0.077991769 0.96700007
-0.28422523 0.08094801 0.96614295
-0.27447313 0.083011225 0.96476203
-0.26534718 0.084980376 0.9635334
-0.25543258 0.086685717 0.96294737
-0.24458952 0.087818906 0.9623636
-0.23740396 0.088130422 0.96200007
-0.22011521 0.088552102 0.96200007
-0.21505509 0.088552102 0.96200007
-0.2040915 0.088552102 0.96200007
-0.17319387 0.081486359 0.96266675
-0.16572072 0.084729232 0.96405727
-0.15856865 0.08816953 0.96520007
-0.26449382 0.090707831 0.96700007
-0.25371549 0.090950035 0.96700007
-0.24441218 0.091684431 0.96590918
-0.23467065 0.093067594 0.96433336
-0.22486335 0.093660057 0.96365529
-0.21500608 0.092908539 0.96466684
-0.20506527 0.093523331 0.96452022
-0.19537014 0.093859658 0.96331048
-0.18498857 0.094750613 0.96354169
-0.17477934 0.095374919 0.96363169
-0.16565166 0.093092553 0.96428007
-0.15838473 0.091837719 0.96614295
-0.18056791 0.10088066 0.96700007
-0.28997502 -0.16412076 0.97000003
-0.29847869 -0.15391636 0.97000003
-0.31141895 -0.14350267 0.97724998
-0.30479902 -0.14514565 0.97327793
-0.15129074 -0.14103375 0.97500002
-0.14958125 -0.14103375 0.97500002
-0.30641547 -0.13804285 0.97000003
-0.15089086 -0.13387226 0.9708572
-0.14807744 -0.13429077 0.97486675
-0.30284381 -0.12219085 0.97200012
-0.29847869 -0.12415354 0.97000003
-0.18227899 -0.12157649 0.97800004
-0.17454691 -0.12203558 0.97735709
-0.1505149 -0.12585427 0.97000003
-0.14699978 -0.12493775 0.97490925
-0.3111116 -0.11147591 0.97316664
-0.30656493 -0.11439889 0.97648019
-0.19205311 -0.11060202 0.97800004
-0.18472868 -0.11460178 0.9755314
-0.17465398 -0.11434082 0.97484195
-0.16601385 -0.11381297 0.97613645
-0.15951037 -0.11003657 0.97300005
-0.14673632 -0.11498374 0.9731667
-0.31251562 -0.10575148 0.97707695
-0.30532339 -0.10446908 0.97791451
-0.29494473 -0.10377104 0.97644472
-0.28521794 -0.10275556 0.97766685
-0.27659076 -0.10374298 0.97800004
-0.20148429 -0.10117084 0.97800004
-0.19423905 -0.10408074 0.9753601
-0.18492672 -0.10482268 0.97207975
-0.17507924 -0.10652014 0.97121036
-0.16508704 -0.10505967 0.97311103
-0.15508747 -0.10436865 0.97140723
-0.14825174 -0.10515951 0.9752667
-0.31357419 -0.094169453 0.97762489
-0.30467695 -0.094999954 0.9762336
-0.29490581 -0.094642505 0.9746154
-0.28492793 -0.094979137 0.97602874
-0.27416494 -0.094883718 0.97776949
-0.2661224 -0.093147323 0.97753841
-0.25635663 -0.090667933 0.9780001
-0.24521068 -0.090882279 0.97800004
-0.2365144 -0.090759799 0.9780001
-0.22520514 -0.091453858 0.9780001
-0.21442878 -0.092875898 0.97641659
-0.20441155 -0.094269991 0.97560883
-0.19517837 -0.09507715 0.97314799
-0.18778931 -0.097366981 0.97000021
-0.16156967 -0.0994929 0.97000003
-0.15373991 -0.098807976 0.97042859
-0.14614774 -0.094403446 0.97304171
-0.33129716 -0.083893061 0.97650003
-0.32569492 -0.083932646 0.97604561
-0.31515345 -0.085053831 0.97559273
-0.30491507 -0.085301965 0.9724443
-0.29491118 -0.085629292 0.97185701
-0.28523028 -0.085067004 0.9725638
-0.27469015 -0.08539509 0.97265702
-0.26459897 -0.085267454 0.97258306
-0.25487071 -0.084568605 0.9736895
-0.24486282 -0.084468789 0.97320688
-0.23514074 -0.084468849 0.97389638
-0.22522494 -0.084592633 0.97463334
-0.21495762 -0.085192457 0.97206885
-0.20395693 -0.085954502 0.97219217
-0.19580984 -0.086331949 0.97149998
-0.1505149 -0.08588703 0.97000003
-0.14474589 -0.085341081 0.97208565
-0.13752829 -0.084067076 0.97520012
-0.33306596 -0.073243596 0.97333336
-0.3249329 -0.075005591 0.97183859
-0.31568864 -0.077483475 0.97123539
-0.30603877 -0.078476891 0.97037512
-0.28414395 -0.078598179 0.97000015
-0.2755188 -0.078233741 0.97000021
-0.2652199 -0.077288881 0.97000015
-0.25510648 -0.076909102 0.9701429
-0.24577779 -0.077089407 0.97078955
-0.23467906 -0.077526577 0.97052956
-0.22480519 -0.077772446 0.97060013
-0.21458948 -0.078689486 0.97037506
-0.20153689 -0.079084098 0.97000003
-0.14244021 -0.078598715 0.97100002
-0.13441814 -0.075410903 0.97353572
-0.12906724 -0.07094425 0.97500002
-0.34328082 -0.064111151 0.97505885
-0.33529952 -0.065733336 0.97000009
-0.32569045 -0.068199404 0.97000009
-0.13183029 -0.067514509 0.97175002
-0.12741789 -0.06414102 0.97373337
-0.35152578 -0.053157561 0.97800004
-0.34532034 -0.054984491 0.97235
-0.124437 -0.058108389 0.97000003
-0.36140582 -0.045069434 0.97000003
-0.35516927 -0.044417635 0.97116655
-0.34950069 -0.046770167 0.97000003
-0.11267358 -0.042943515 0.97000003
-0.1096973 -0.042518333 0.97000003
-0.36212903 -0.034504116 0.97476929
-0.35530466 -0.035662524 0.97162479
-0.34836686 -0.032597389 0.97000009
-0.11249819 -0.034938399 0.97218764
-0.35413823 -0.025584094 0.97554165
-0.34552398 -0.024751762 0.97042859
-0.33929631 -0.022959899 0.97000003
-0.11123884 -0.028447483 0.97159994
-0.10731356 -0.024291636 0.97363645
-0.35332087 -0.016673189 0.97730768
-0.34478047 -0.015497008 0.9737097
-0.33510441 -0.014409332 0.97149998
-0.32569042 -0.013133441 0.97000015
-0.10273246 -0.014969843 0.9738667
-0.098598696 -0.01114594 0.97800004
-0.34240639 -0.0077164192 0.97800004
-0.33437291 -0.0057194782 0.97708017
-0.32489243 -0.0051132743 0.97269988
-0.31524593 -0.0044736578 0.97077388
-0.30540308 -0.002672581 0.97000021
-0.10358053 -0.0045409058 0.97341943
-0.098598696 -0.0085738003 0.97800004
-0.34119886 0.0059958743 0.97740012
-0.33528557 0.0045388727 0.97500008
-0.32462457 0.0031528545 0.97100013
-0.31494349 0.002651298 0.97017658
-0.30783272 0.00085036666 0.97000003
-0.11364976 0.0061488748 0.97096282
-0.10613207 0.0044685327 0.97548157
-0.34407827 0.014720361 0.97185719
-0.33896798 0.011922228 0.97150004
-0.13269742 0.018633159 0.97100002
-0.12387811 0.017899111 0.97217649
-0.11549623 0.013983709 0.97476006
-0.10831568 0.011717525 0.97799999
-0.35362136 0.026522672 0.97581828
-0.34620458 0.026608858 0.97118765
-0.33929631 0.029762832 0.97000003
-0.13314877 0.025011519 0.97258329
-0.12597795 0.024622023 0.97652006
-0.35124001 0.030579887 0.97799999
-0.3439928 0.034377139 0.97594118
-0.33511093 0.035100017 0.97245836
-0.32571658 0.036868945 0.97050017
-0.31633642 0.039967231 0.97000003
-0.13080715 0.032062914 0.97100002
-0.12626185 0.034471933 0.97580004
-0.34037986 0.04029686 0.97800004
-0.33400211 0.04187258 0.97739989
-0.32453397 0.042019386 0.97528583
-0.31443611 0.044976283 0.97269571
-0.30519289 0.047100604 0.9713847
-0.29462373 0.046912529 0.97023094
-0.2872822 0.047053616 0.97000021
-0.12421504 0.04507082 0.97528577
-0.31251502 0.05101411 0.97800004
-0.30386096 0.054292034 0.97680014
-0.29472297 0.054504771 0.97390324
-0.28529865 0.054827433 0.97303009
-0.27570447 0.055510998 0.97026086
-0.26633483 0.056464352 0.97000015
-0.25596035 0.057824932 0.97000003
-0.22109532 0.0586753 0.97000003
-0.21514277 0.0586753 0.97000003
-0.13312797 0.056721762 0.97112513
-0.12490158 0.054579437 0.97494298
-0.11917582 0.050585419 0.97800004
-0.32169962 0.068108454 0.9772501
-0.314619 0.066335991 0.97433335
-0.30539367 0.063392326 0.97378951
-0.29532525 0.061761394 0.97174996
-0.28551629 0.060847901 0.97075009
-0.2755188 0.060659487 0.97000009
-0.22109532 0.061226401 0.97000003
-0.21726869 0.061651584 0.97000003
-0.18240365 0.067178965 0.97000003
-0.17421529 0.065320231 0.9704442
-0.16572188 0.065931313 0.97199976
-0.15499 0.066618018 0.97256511
-0.14491692 0.066288605 0.97415406
-0.13529345 0.063710891 0.97470391
-0.12715721 0.06265296 0.97675008
-0.32380381 0.073877573 0.97799999
-0.31492335 0.074844725 0.97407144
-0.30559695 0.077181153 0.97100002
-0.29649451 0.078517191 0.97000009
-0.17394723 0.071336314 0.97000015
-0.16468427 0.075092584 0.97336811
-0.15632682 0.072660886 0.97671431
-0.14567789 0.071126156 0.97750014
-0.3122178 0.082037069 0.97680008
-0.30415782 0.083476976 0.97570598
-0.29511592 0.084574483 0.97440004
-0.28529325 0.086129382 0.97269571
-0.27674866 0.088027067 0.97066665
-0.16159947 0.082245357 0.97119999
-0.15544371 0.085745513 0.97464287
-0.14844158 0.088609077 0.97499996
-0.29122341 0.09059649 0.97799999
-0.28407329 0.092465185 0.97660005
-0.2750707 0.092952475 0.97400004
-0.26447049 0.094721615 0.97335297
-0.25520292 0.095709197 0.97266662
-0.24562988 0.09733963 0.97163624
-0.23545487 0.098843381 0.97030008
-0.22519112 0.099231936 0.97300005
-0.21426736 0.098113179 0.97163635
-0.20585059 0.09909489 0.97085714
-0.19568472 0.09954419 0.97050005
-0.18645963 0.099615984 0.97119999
-0.1746653 0.0994929 0.97000009
-0.16436996 0.098386474 0.9706924
-0.15456462 0.095739342 0.9715997
-0.14721805 0.094580457 0.97635013
-0.25391659 0.10169861 0.97666669
-0.24491757 0.10267759 0.97527277
-0.23499647 0.10280138 0.97530776
-0.22508354 0.10191537 0.9769091
-0.2145008 0.1022807 0.97661549
-0.20478952 0.10306814 0.97507149
-0.19500537 0.1034923 0.97561115
-0.18496597 0.1038799 0.9754706
-0.17528145 0.10289214 0.97533339
-0.16483416 0.10304099 0.97675008
-0.15424609 0.10332946 0.97663164
-0.148954 0.1001596 0.97650003
-0.27267885 -0.13135403 0.98900002
-0.26574266 -0.13157079 0.98899996
-0.19219017 -0.13149853 0.98900002
-0.18614346 -0.13227376 0.98615402
-0.14278194 -0.13284908 0.98562509
-0.13891864 -0.13141029 0.9883334
-0.30117291 -0.12324114 0.98650002
-0.29612148 -0.1217109 0.98845458
-0.28413719 -0.12313547 0.98814297
-0.27444115 -0.12501152 0.98592573
-0.26461408 -0.12503208 0.98730308
-0.25556788 -0.12296432 0.98900008
-0.24241969 -0.12190349 0.98900002
-0.23508407 -0.12404115 0.98818189
-0.22723255 -0.12369055 0.98837519
-0.20218985 -0.1229439 0.98900002
-0.19493243 -0.12429671 0.98723072
-0.18528746 -0.12582625 0.98304558
-0.17815818 -0.12565811 0.98175001
-0.14248718 -0.12510191 0.9829092
-0.13777709 -0.1244335 0.98770601
-0.30231342 -0.11573859 0.98207146
-0.29498801 -0.11479951 0.98400009
-0.28469732 -0.11503386 0.98322588
-0.27469307 -0.11569361 0.98281837
-0.26476404 -0.11546911 0.98439974
-0.25489795 -0.11490873 0.98684841
-0.24483362 -0.11506431 0.98684007
-0.23462452 -0.11515513 0.98484355
-0.22532977 -0.11494603 0.9873333
-0.21491338 -0.11227953 0.98900014
-0.20515163 -0.11506345 0.98808342
-0.19542328 -0.11548845 0.9836539
-0.14276114 -0.11509565 0.98220003
-0.13770086 -0.11431752 0.98788905
-0.31476367 -0.10148118 0.98100001
-0.30100352 -0.10922127 0.98100007
-0.29498345 -0.10922126 0.98100007
-0.28552333 -0.10836125 0.98100001
-0.27434322 -0.10525199 0.9810003
-0.26522353 -0.10510506 0.98269999
-0.25527751 -0.10521686 0.98374993
-0.24527274 -0.10526872 0.98260021
-0.2353512 -0.10500086 0.98194307
-0.22486605 -0.10517656 0.9845143
-0.21475932 -0.10482909 0.98710352
-0.205046 -0.10561018 0.98411113
-0.1983842 -0.10801475 0.98175001
-0.14349002 -0.10548101 0.98545009
-0.13872373 -0.10837792 0.98900002
-0.3226949 -0.092212178 0.98100007
-0.31763035 -0.095461108 0.98100001
-0.27778322 -0.098901153 0.98100013
-0.26382074 -0.096574053 0.98100001
-0.25406066 -0.095442869 0.98142898
-0.24497055 -0.095130339 0.9810003
-0.23525721 -0.095461108 0.98100036
-0.22534102 -0.094973885 0.98122245
-0.2152414 -0.097849146 0.98238468
-0.20783575 -0.097754471 0.98100013
-0.14339286 -0.098961644 0.98733336
-0.33282387 -0.081700951 0.98100007
-0.32400876 -0.087291017 0.98100001
-0.33282387 -0.079980932 0.98100007
-0.35131454 -0.061758537 0.9830001
-0.35545987 -0.055087898 0.98609102
-0.35690415 -0.04902057 0.98100007
-0.11011196 -0.040750097 0.98900002
-0.10762018 -0.041259442 0.98733336
-0.36636424 -0.030100349 0.98100007
-0.11094129 -0.035260409 0.98100007
-0.10544775 -0.034306373 0.98539269
-0.09819255 -0.031574652 0.98871428
-0.37112427 -0.024547542 0.9883334
-0.36436832 -0.024978254 0.9825654
-0.10315347 -0.025665043 0.98528582
-0.097288087 -0.025333917 0.98888904
-0.37195301 -0.019074515 0.98900002
-0.36550462 -0.015657388 0.98675859
-0.35661405 -0.013710999 0.98238468
-0.10129708 -0.017507032 0.98200005
-0.097571559 -0.016431803 0.98621446
-0.36422861 -0.0081184916 0.98900008
-0.35529906 -0.0052797101 0.98724151
-0.34565094 -0.003822851 0.98133343
-0.33901593 -0.0022360259 0.98100007
-0.097213477 -0.0044796783 0.98310006
-0.35218212 0.0020227623 0.98866659
-0.34608665 0.0042025652 0.98446673
-0.33798394 0.00086000998 0.98100013
-0.10209547 0.0057743532 0.98100001
-0.097971506 0.0051881857 0.98608345
-0.3487038 0.01124851 0.98700005
-0.11373142 0.018494453 0.98366672
-0.10510724 0.016189752 0.98546666
-0.099657282 0.013866675 0.98850006
-0.12212142 0.026660308 0.98100001
-0.11450891 0.025277646 0.98689288
-0.10629378 0.023878746 0.98844457
-0.36094648 0.032824151 0.98500001
-0.35529491 0.034522869 0.98429185
-0.34658402 0.037840441 0.98100007
-0.12253169 0.033574581 0.98200005
-0.11722004 0.033773504 0.9878183
-0.35114443 0.041617118 0.98900002
-0.34502628 0.044908207 0.98590481
-0.33537316 0.046993405 0.98210514
-0.32585138 0.047275126 0.98280013
-0.31906369 0.04902057 0.98100007
-0.12229343 0.043172501 0.98100007
-0.11765083 0.045173399 0.98552942
-0.34166595 0.052275926 0.9883334
-0.33437574 0.053580064 0.98826331
-0.32443848 0.053513333 0.98805577
-0.31500107 0.056105033 0.98329169
-0.30817023 0.056760665 0.98100001
-0.12126141 0.059340689 0.98100007
-0.11649805 0.055581886 0.98440009
-0.33230376 0.067934908 0.9845714
-0.32525349 0.065897122 0.98382354
-0.31477946 0.061578818 0.98142862
-0.3087436 0.061060708 0.98100007
-0.14018163 0.069660813 0.98100007
-0.13437657 0.069015801 0.98100001
-0.12410013 0.066798814 0.98415804
-0.11754608 0.063066371 0.98790914
-0.33178911 0.074465238 0.98133332
-0.32607704 0.07622879 0.98140007
-0.31906369 0.079980932 0.98100007
-0.15461068 0.076827578 0.98100007
-0.14472006 0.075731561 0.98263663
-0.13486168 0.075181969 0.98567855
-0.1258065 0.073081456 0.98800015
-0.33120292 0.081500195 0.98900002
-0.3245703 0.082784072 0.98570001
-0.31523883 0.085681498 0.98277783
-0.30649656 0.087754883 0.98137498
-0.29842347 0.088581033 0.98100007
-0.15345035 0.082438104 0.98100001
-0.14515619 0.084013239 0.98496294
-0.1375099 0.080979981 0.98900002
-0.3127656 0.093019508 0.98827285
-0.30451509 0.093645856 0.98654556
-0.29523247 0.094747223 0.98457134
-0.28603742 0.096909314 0.98435313
-0.27504319 0.098148972 0.98350006
-0.26660311 0.09847115 0.98100007
-0.14212967 0.095760278 0.98558348
-0.13897434 0.09689784 0.98814285
-0.28143579 0.10213535 0.98900002
-0.27393466 0.10271856 0.98715401
-0.26444981 0.10407305 0.98549992
-0.25542164 0.10603803 0.98335725
-0.24504118 0.10689873 0.98263639
-0.23521373 0.10785826 0.98325014
-0.22492285 0.10716435 0.98340017
-0.21599978 0.10694106 0.98320007
-0.20502077 0.10826395 0.98400015
-0.19480608 0.10861177 0.98325008
-0.18506101 0.10893355 0.98460019
-0.17470621 0.10805448 0.98378581
-0.16458049 0.10790433 0.9836002
-0.1552709 0.10808583 0.98345464
-0.14470091 0.10543011 0.98434472
-0.13840988 0.10532361 0.98800004
-0.25056973 0.11011196 0.98900002
-0.24493408 0.11011196 0.98900002
-0.23291601 0.11169522 0.98766667
-0.22613938 0.11234864 0.98833328
-0.21502177 0.1111524 0.98900002
-0.20418759 0.11230914 0.98871428
-0.19544126 0.11244915 0.98820001
-0.18710363 0.11219282 0.98900002
-0.17080359 0.11011196 0.98900002
-0.16364937 0.11326772 0.98842871
-0.15579537 0.11359891 0.98807156
-0.14625746 0.11164244 0.98720008
-0.13959076 0.11184601 0.98900002
-0.26159909 -0.15136001 0.99800003
-0.25659958 -0.15185997 0.99800009
-0.24366337 -0.15267238 0.99800009
-0.23470703 -0.15329401 0.99799997
-0.22660255 -0.15310983 0.99800003
-0.2147426 -0.15272099 0.99800003
-0.2061879 -0.15165164 0.99800009
-0.1534598 -0.15205994 0.99800003
-0.14494397 -0.15194328 0.99799997
-0.29251269 -0.1420276 0.99800009
-0.28469738 -0.14397387 0.99703556
-0.27468663 -0.14428444 0.99611127
-0.26497144 -0.14466956 0.99572754
-0.25489676 -0.14491019 0.99575019
-0.24508651 -0.14502625 0.99558091
-0.23530343 -0.144849 0.99533343
-0.22533433 -0.14476286 0.99650002
-0.21514231 -0.14490531 0.99772704
-0.20472972 -0.14523567 0.99799985
-0.19591628 -0.14353594 0.99766666
-0.15237489 -0.14771394 0.99700004
-0.14496514 -0.14338697 0.99642861
-0.13636149 -0.141361 0.99800009
-0.30009526 -0.13211191 0.99800003
-0.29407996 -0.13517337 0.99643493
-0.28490508 -0.13527702 0.99453866
-0.27526283 -0.13541943 0.99213052
-0.26418999 -0.1355384 0.99212509
-0.25460508 -0.13517509 0.99339306
-0.24527952 -0.134892 0.99411136
-0.23516382 -0.13500237 0.99350029
-0.22481944 -0.13506801 0.99400032
-0.21466674 -0.13525917 0.99540037
-0.20493087 -0.13572757 0.99746406
-0.19571169 -0.13564193 0.99514288
-0.18784511 -0.13740522 0.99200004
-0.14279708 -0.13723128 0.99199998
-0.13467976 -0.13555774 0.99511558
-0.12614423 -0.13368072 0.99765372
-0.30048406 -0.12890464 0.99350005
-0.29463685 -0.12664866 0.9928751
-0.28646359 -0.12754342 0.99239993
-0.27915871 -0.12957835 0.99200004
-0.26002634 -0.12870869 0.99200004
-0.25427058 -0.12689453 0.99216664
-0.24599248 -0.12628591 0.99236006
-0.23468217 -0.12932988 0.99200004
-0.22328442 -0.1261629 0.99362516
-0.21468745 -0.12572294 0.99491459
-0.20580289 -0.12632336 0.9930501
-0.1974113 -0.12957835 0.99200004
-0.13349307 -0.1256984 0.99389476
-0.12600394 -0.12515876 0.99703228
-0.22071803 -0.11775106 0.99199998
-0.215009 -0.11638009 0.99199992
-0.20958646 -0.1191425 0.99200004
-0.13307208 -0.11561292 0.99585712
-0.12721241 -0.11881323 0.99800003
-0.14075384 -0.10291691 0.99371433
-0.13704215 -0.10588568 0.99569231
-0.141366 -0.096449368 0.9962858
-0.37308127 -0.022610987 0.99200004
-0.094046786 -0.02248675 0.99200004
-0.09348733 -0.015367428 0.99523073
-0.36514568 -0.0036960265 0.99199986
-0.094591163 -0.0061138733 0.99600005
-0.36213338 0.0028385371 0.99537504
-0.35560852 0.0058111306 0.99366677
-0.096289717 0.005237645 0.99550003
-0.35492316 0.012540423 0.99799997
-0.10001013 0.01826272 0.99200004
-0.097983159 0.01456757 0.99414295
-0.10237713 0.025876446 0.99328566
-0.098568015 0.022679366 0.99500006
-0.36204997 0.038294334 0.99275005
-0.35829717 0.039134398 0.99200004
-0.11297625 0.035748918 0.99447048
-0.10637795 0.032017913 0.99599999
-0.36173633 0.042095605 0.99620008
-0.35501635 0.04548924 0.99431819
-0.34873098 0.04957024 0.99200004
-0.1156636 0.041663002 0.99700004
-0.35232508 0.052893464 0.99725008
-0.3454158 0.055513274 0.99394113
-0.33581039 0.057521362 0.99200004
-0.32751143 0.056701399 0.99199998
-0.1116055 0.057687003 0.99200004
-0.34258538 0.061382622 0.9974001
-0.33487839 0.062558278 0.99326313
-0.32738972 0.061572876 0.99233341
-0.11379933 0.065178417 0.9935652
-0.10903541 0.061935622 0.99500006
-0.13131765 0.07913845 0.99200004
-0.12402951 0.077067196 0.99429399
-0.11832019 0.071482696 0.99680007
-0.33404556 0.084677882 0.99575001
-0.32620877 0.087381318 0.99425006
-0.31916279 0.089574292 0.99200004
-0.14088383 0.08696533 0.99200004
-0.13457131 0.085859552 0.99479336
-0.12684673 0.082576521 0.99675012
-0.32260787 0.092519112 0.99666667
-0.31532896 0.096824244 0.99336362
-0.30455258 0.098270826 0.99199998
-0.14088383 0.091313601 0.99200004
-0.13501588 0.094300769 0.99525005
-0.31409386 0.10061503 0.99799997
-0.30479246 0.10113349 0.99619997
-0.29430243 0.10182379 0.99440002
-0.28488791 0.10578035 0.99469995
-0.27508059 0.10756613 0.99349993
-0.2669836 0.10870668 0.99200004
-0.13607801 0.10311139 0.99445456
-0.2817221 0.111114 0.99800003
-0.27399275 0.1114708 0.99671429
-0.2656633 0.11107768 0.99542862
-0.25442696 0.11312293 0.99585718
-0.24526204 0.11406022 0.99483329
-0.23545492 0.11482456 0.99475002
-0.22470047 0.1171113 0.99486375
-0.21482669 0.11703428 0.99526101
-0.20510104 0.1172481 0.99557126
-0.1950686 0.1175364 0.9957059
-0.18478251 0.11641839 0.99511117
-0.17522056 0.11572704 0.99562484
-0.16568306 0.11720254 0.99470007
-0.1548364 0.1173793 0.99581814
-0.1441901 0.1136423 0.9956001
-0.13788958 0.11258373 0.99550003
-0.21085411 0.12161295 0.99800003
-0.20647955 0.12161295 0.99800003
-0.19539732 0.12190459 0.99800009
-0.18685649 0.12236287 0.99800009
-0.16010913 0.12161295 0.99800003
-0.27278623 -0.16243581 1.0070001
-0.26638591 -0.16221511 1.0070001
-0.25538239 -0.16256192 1.0070001
-0.24542685 -0.16097546 1.0034001
-0.23558049 -0.16138819 1.0010002
-0.22918564 -0.16131237 1.0055001
-0.28291535 -0.15333964 1.0035715
-0.27515891 -0.15505755 1.0044284
-0.26500052 -0.15598704 1.0028749
-0.25440943 -0.15617685 1.0020435
-0.24574587 -0.15705654 1.0016431
-0.23484562 -0.15808083 1.0012729
-0.22507764 -0.15533745 1.0020435
-0.21733825 -0.15298505 1.001
-0.20710023 -0.15357009 1.001
-0.15204513 -0.15292268 1.0025001
-0.14527322 -0.15142392 1.0019
-0.13734046 -0.15145217 1.0058751
-0.21587566 -0.14830482 1.001
-0.15093745 -0.14830482 1.001
-0.14362459 -0.14771979 1.001
-0.13497625 -0.14607431 1.0034781
-0.12620822 -0.14362748 1.005875
-0.1224525 -0.13695653 1.0025001
-0.11716092 -0.13331884 1.0034547
-0.12119105 -0.12360496 1.00175
-0.11512802 -0.12451046 1.0014136
-0.10969291 -0.12373361 1.001
-0.13085191 -0.11240773 1.00175
-0.12492849 -0.11441003 1.0046364
-0.11518373 -0.11618614 1.0051428
-0.13427153 -0.10493534 1.0040001
-0.12596209 -0.10598284 1.0070001
-0.14036573 -0.09269435 1.0070001
-0.13817509 -0.09735515 1.005
-0.091491997 -0.013193395 1.0035001
-0.089163139 -0.01324205 1.0070001
-0.092259929 -0.0052119186 1.0037693
-0.089163139 -0.0097108362 1.0070001
-0.3716602 0.0044140168 1.0070001
-0.36601341 0.0070920791 1.0034705
-0.094556123 0.0045755864 1.0043001
-0.3653118 0.012728722 1.0045455
-0.35833016 0.011993092 1.001
-0.096816443 0.014372658 1.0040001
-0.10091748 0.02895893 1.001
-0.098089643 0.024592252 1.002
-0.11073484 0.039548624 1.0025001
-0.10495643 0.03616263 1.0035501
-0.099657714 0.03263304 1.006
-0.36451983 0.046015356 1.003
-0.11339815 0.043671064 1.0043
-0.10858481 0.041491758 1.0070001
-0.36269891 0.053160191 1.005
-0.35635605 0.055763252 1.0028946
-0.35188875 0.061441477 1.006
-0.34502926 0.065905288 1.0039999
-0.111448 0.069325924 1.001
-0.10969292 0.067570835 1.001
-0.12034354 0.076424293 1.002
-0.11584313 0.074140102 1.0040001
-0.34204641 0.087050371 1.0030001
-0.33760342 0.087628968 1.001
-0.12455691 0.085861824 1.0032501
-0.34150729 0.093298376 1.0040001
-0.33468255 0.09414576 1.0035998
-0.32613513 0.095970534 1.00275
-0.13159129 0.096653879 1.0035714
-0.12821192 0.091834046 1.0040001
-0.31248289 0.1045148 1.0052
-0.30488408 0.10613039 1.0041667
-0.29514912 0.10658309 1.0020002
-0.28871176 0.10969292 1.001
-0.13399659 0.10552451 1.0045
-0.30280155 0.11035041 1.0070001
-0.29456511 0.11150938 1.0055
-0.28478867 0.11313709 1.0048573
-0.27466771 0.11634036 1.0040001
-0.26485923 0.11623564 1.0037272
-0.255622 0.11761108 1.002
-0.24483459 0.11846836 1.001
-0.23746321 0.11811733 1.001
-0.15079485 0.11800167 1.002
-0.14539132 0.11807638 1.005125
-0.13658783 0.11297183 1.0052
-0.27190343 0.12094405 1.0070001
-0.26837221 0.12094405 1.0070001
-0.25418502 0.12147103 1.0058751
-0.24523208 0.12205078 1.0057142
-0.23458916 0.12307573 1.0045625
-0.22465834 0.12370162 1.0025002
-0.21594639 0.12371272 1.002
-0.20439415 0.12392165 1.0025001
-0.19532779 0.1247202 1.003625
-0.18346766 0.1241985 1.0027143
-0.17525934 0.12277477 1.0035
-0.16594654 0.12261733 1.0040001
-0.15510009 0.12220345 1.0052501
-0.14919376 0.12094405 1.0070001
-0.27714062 -0.1620343 1.01
-0.26272497 -0.16348408 1.0107501
-0.25943196 -0.16380517 1.01
-0.32574305 -0.1536506 1.018
-0.13222469 -0.15258966 1.0100001
-0.12452739 -0.15193455 1.0113639
-0.11811242 -0.15008271 1.013
-0.33319825 -0.14412451 1.0186
-0.32636681 -0.14459512 1.0158422
-0.13015869 -0.14963824 1.01
-0.12422042 -0.14752586 1.0104617
-0.11609945 -0.14426608 1.0115601
-0.10955528 -0.14162023 1.016
-0.33244389 -0.13642323 1.0190001
-0.32756412 -0.13647752 1.0185385
-0.11472458 -0.1375252 1.0120771
-0.12130436 -0.11067916 1.01
-0.11510634 -0.11156458 1.0100001
-0.10663147 -0.1114381 1.0100001
-0.1317082 -0.10160347 1.0100001
-0.12398641 -0.10260502 1.0102144
-0.11523841 -0.1045983 1.0111669
-0.10626289 -0.10448489 1.0118003
-0.14078391 -0.091199636 1.01
-0.13410163 -0.094278872 1.0135558
-0.12485821 -0.094597161 1.0150627
-0.11510399 -0.094576903 1.0162905
-0.10582343 -0.094780579 1.017594
-0.13584444 -0.088643581 1.0176364
-0.12589166 -0.087578602 1.0184546
-0.11434539 -0.08843901 1.0190001
-0.10630547 -0.08843901 1.0190001
-0.087829731 -0.011533427 1.012
-0.091199636 -0.0017708667 1.01
-0.087155096 -0.0047718561 1.0154545
-0.092382796 0.0067645619 1.0125384
-0.088643491 0.0040105307 1.01625
-0.094479188 0.014868537 1.016
-0.09715724 0.023179723 1.0167501
-0.10128406 0.038683645 1.0105001
-0.097846359 0.03595322 1.0138183
-0.36922571 0.046927966 1.01
-0.11247594 0.047023814 1.012
-0.10548663 0.044659421 1.0150456
-0.098046616 0.044125482 1.0167501
-0.37141913 0.053441599 1.016
-0.36688778 0.055028807 1.0124999
-0.1129416 0.052450836 1.0190001
-0.10987877 0.050919428 1.0190001
-0.36218181 0.064996071 1.0155002
-0.35590509 0.065041915 1.013
-0.34974617 0.068178363 1.01
-0.11067916 0.069949232 1.01
-0.36000931 0.07057254 1.0190001
-0.35306346 0.071326472 1.0170001
-0.34863499 0.071151584 1.0145
-0.11323965 0.07672286 1.0125716
-0.10950136 0.074788868 1.0154999
-0.12154281 0.087537207 1.0120001
-0.11684804 0.083416022 1.0150528
-0.34486637 0.097982995 1.013
-0.13035199 0.097543627 1.0115
-0.12484691 0.094934553 1.0146365
-0.34214282 0.10094553 1.0190001
-0.33362719 0.10294779 1.0152
-0.32536921 0.10575802 1.0162225
-0.31636599 0.10795702 1.0140001
-0.13129231 0.10553217 1.0133001
-0.12825681 0.10492817 1.0176154
-0.3139019 0.11331952 1.0178
-0.30516469 0.11435898 1.0141249
-0.29473823 0.11626573 1.0139
-0.28611624 0.11717589 1.0132728
-0.2789115 0.1195335 1.01
-0.14166933 0.1195335 1.01
-0.13435471 0.11542875 1.0156845
-0.12893634 0.11226096 1.0190001
-0.29122341 0.12059865 1.0190001
-0.28647712 0.1204803 1.018
-0.2708593 0.1234408 1.013
-0.26449519 0.12347338 1.0132308
-0.2546123 0.12605584 1.01375
-0.2445748 0.12747785 1.0140002
-0.23542324 0.1279301 1.013375
-0.22423092 0.12840724 1.0121429
-0.21385027 0.1281371 1.015
-0.20581184 0.12846947 1.0141251
-0.19381084 0.12851787 1.0156666
-0.18462801 0.12864456 1.016
-0.17480916 0.12810291 1.0140909
-0.16481985 0.12783648 1.0132728
-0.15452005 0.12721737 1.0130001
-0.14513576 0.1250575 1.0143335
-0.1373262 0.12177264 1.0181428
-0.24477059 0.13131852 1.0190001
-0.23453216 0.13108656 1.0172001
-0.22779745 0.13131852 1.0190001
-0.20433119 0.13116387 1.0178
-0.19474448 0.13131852 1.0190001
-0.16526482 0.13131852 1.0190001
-0.15596776 0.13187853 1.0178001
-0.14829168 0.13131852 1.0190001
-0.32404846 -0.16247562 1.0262001
-0.32681498 -0.1569069 1.0227501
-0.34135821 -0.14156061 1.0220001
-0.33828637 -0.14220059 1.0220002
-0.11084924 -0.14149049 1.028
-0.35057199 -0.13157713 1.028
-0.34392035 -0.13414699 1.0253599
-0.33584124 -0.13430311 1.0225296
-0.32702297 -0.13170514 1.0220001
-0.11232292 -0.13928041 1.0250001
-0.35160193 -0.12629862 1.028
-0.3447642 -0.12616988 1.028
-0.33466917 -0.12621254 1.0255768
-0.32823196 -0.12676346 1.0241001
-0.3511728 -0.11926056 1.028
-0.34456393 -0.11595612 1.028
-0.1209537 -0.090491287 1.0220001
-0.10131703 -0.093245551 1.0227501
-0.13363588 -0.083535619 1.0230715
-0.12503231 -0.084223047 1.0225713
-0.11493243 -0.084654585 1.0236999
-0.10546681 -0.084591001 1.0248845
-0.13048525 -0.079189733 1.0265
-0.12547173 -0.07828927 1.0265
-0.11482372 -0.078812011 1.026909
-0.10363954 -0.077504344 1.028
-0.082248524 -0.002329479 1.0220001
-0.084152944 0.0055411537 1.0248749
-0.078405559 0.0027036399 1.028
-0.091778561 0.015934402 1.0238751
-0.087095402 0.012828812 1.026875
-0.096265011 0.025227228 1.0247693
-0.097187705 0.031496443 1.0265
-0.1035466 0.048509471 1.0220002
-0.098853521 0.048680127 1.0220001
-0.11031009 0.05470838 1.0230001
-0.10523165 0.054095764 1.0242857
-0.098792441 0.052534949 1.0226001
-0.36122918 0.074585043 1.0250001
-0.35691604 0.074649446 1.0236365
-0.10841035 0.079739846 1.0220001
-0.11274454 0.086430632 1.0234002
-0.10853513 0.085451327 1.026
-0.12181354 0.097057864 1.0232002
-0.11709291 0.093604229 1.0260588
-0.35147262 0.10539867 1.0253751
-0.34533226 0.10554952 1.0253749
-0.33723995 0.10742703 1.024
-0.1247507 0.10438631 1.025
-0.34426352 0.11145005 1.028
-0.33430102 0.11203371 1.026
-0.32528159 0.11311185 1.0247273
-0.31596294 0.11707006 1.0236365
-0.30536711 0.11945328 1.0245
-0.2974565 0.11916179 1.0220001
-0.13170514 0.11736989 1.0220001
-0.12735295 0.11593845 1.0251764
-0.31181544 0.12193688 1.0265
-0.30370891 0.12166379 1.028
-0.29433107 0.12334797 1.0253334
-0.28664613 0.12378182 1.0250001
-0.27400362 0.12724788 1.027
-0.26584873 0.12813608 1.0245
-0.25713861 0.12901728 1.0220001
-0.21771666 0.12991323 1.0220001
-0.1420086 0.12901728 1.0220001
-0.13461509 0.12509279 1.0246085
-0.12664621 0.12214626 1.0270001
-0.26465631 0.13217795 1.028
-0.25560936 0.13342758 1.02575
-0.24459283 0.13558908 1.0252143
-0.23560713 0.13532946 1.0250001
-0.22508717 0.13392797 1.0261999
-0.21520519 0.13395874 1.0265
-0.20500059 0.13576974 1.0264118
-0.19567595 0.1357182 1.0252143
-0.18672678 0.13317843 1.0256667
-0.17342763 0.13245223 1.025
-0.16440494 0.13565837 1.0247693
-0.15413673 0.13593087 1.0239286
-0.14537977 0.13409193 1.0245715
-0.13802667 0.13185367 1.0271428
-0.32628745 -0.16540334 1.031
-0.11117273 -0.14009571 1.031
-0.10635594 -0.14117149 1.033
-0.11306619 -0.13569093 1.0356154
-0.10663072 -0.13874477 1.0366668
-0.35219762 -0.12322397 1.031
-0.3456158 -0.12229694 1.031
-0.33555186 -0.12088905 1.031
-0.3530021 -0.1129187 1.0343078
-0.34468675 -0.11448094 1.0316844
-0.33615389 -0.11492063 1.0314287
-0.35236448 -0.10626545 1.0380001
-0.34536126 -0.1066462 1.0353501
-0.33786029 -0.10853046 1.036
-0.34670237 -0.099187821 1.0380001
-0.10213429 -0.082249746 1.031
-0.13287786 -0.075774774 1.0339001
-0.12427001 -0.073297642 1.0333915
-0.1151681 -0.073397242 1.0336958
-0.10501986 -0.074502572 1.0336131
-0.099187821 -0.070068456 1.0380001
-0.12665263 -0.068094499 1.0356667
-0.1133717 -0.067748517 1.0373335
-0.10471479 -0.06712053 1.0374668
-0.098277837 -0.067338526 1.0380001
-0.082249746 0.0099422764 1.031
-0.091288179 0.01898071 1.031
-0.085969701 0.016444763 1.0338572
-0.093161814 0.024272563 1.034
-0.088152327 0.020902656 1.0366668
-0.0955479 0.03002934 1.0380001
-0.10400037 0.058784008 1.0316
-0.10549702 0.062282253 1.0355999
-0.1129274 0.096013352 1.0338668
-0.10936505 0.091288179 1.031
-0.12233071 0.10536482 1.0336365
-0.11635157 0.10184899 1.0342222
-0.35213616 0.11344922 1.0352501
-0.34495643 0.114944 1.0336155
-0.33570561 0.11713357 1.0345715
-0.3267526 0.11763152 1.0332857
-0.12468624 0.11378899 1.0356668
-0.33305269 0.12102734 1.0380001
-0.32262793 0.12147853 1.0366668
-0.31396979 0.12513693 1.0355834
-0.30489594 0.12601155 1.0340668
-0.29464066 0.12730931 1.0317501
-0.2839728 0.12718847 1.0320715
-0.27813366 0.12798786 1.0317501
-0.13105728 0.12834576 1.031
-0.12665579 0.12649335 1.0326364
-0.31212315 0.13012713 1.0380001
-0.30484331 0.13012713 1.0380001
-0.29418352 0.13116711 1.0380001
-0.28497538 0.13240208 1.0380001
-0.27420083 0.13479051 1.0346501
-0.26543471 0.1370402 1.0327274
-0.25522631 0.13814475 1.0318573
-0.24855691 0.13828804 1.031
-0.23228772 0.13828804 1.031
-0.2245405 0.13777155 1.031
-0.21571727 0.13798675 1.031
-0.20878781 0.13828804 1.031
-0.1920667 0.13783611 1.031
-0.18423907 0.13669567 1.031643
-0.17576076 0.13638602 1.0318823
-0.1690187 0.13828804 1.031
-0.14318806 0.13776104 1.032125
-0.1345621 0.13534586 1.0348097
-0.12830718 0.13012713 1.0380001
-0.26439881 0.14082947 1.0364001
-0.2542029 0.14210624 1.0372728
-0.24533378 0.14231707 1.0350002
-0.23485988 0.14228898 1.0330557
-0.22463119 0.14364009 1.0342501
-0.21472634 0.14368735 1.0345834
-0.20488136 0.14308843 1.0336502
-0.19475795 0.14358151 1.0345653
-0.18527982 0.14281902 1.0350002
-0.17543027 0.14258108 1.0368574
-0.16542143 0.14151822 1.0341818
-0.15525088 0.14211062 1.0341251
-0.14552154 0.14086041 1.0347143
-0.13740698 0.1410469 1.0380001
-0.11096168 -0.1337927 1.04175
-0.10658436 -0.13654992 1.043625
-0.35865572 -0.11133842 1.041
-0.36096072 -0.10359119 1.0431429
-0.35642847 -0.10379208 1.0416001
-0.34398404 -0.10314927 1.0412501
-0.3367531 -0.10860059 1.041
-0.36255863 -0.097294219 1.0470001
-0.35523778 -0.096271157 1.0449002
-0.34775326 -0.098331563 1.0427142
-0.09947449 -0.072096191 1.041
-0.12431822 -0.064247139 1.0427144
-0.11563821 -0.063480042 1.0419002
-0.10495015 -0.062513791 1.0410001
-0.098744407 -0.063335136 1.041
-0.12130021 -0.05663573 1.0462501
-0.11508401 -0.056562386 1.0458263
-0.10504971 -0.056640938 1.0445716
-0.098032922 -0.057033192 1.045125
-0.081456363 0.0082371598 1.044
-0.082370721 0.014642962 1.044
-0.092025205 0.027021369 1.0422857
-0.086826339 0.024228038 1.0445454
-0.093980089 0.03186278 1.0458751
-0.11042581 0.098561883 1.041
-0.10822253 0.095894396 1.0417501
-0.12137713 0.10860059 1.041
-0.11609799 0.10561435 1.0442728
-0.10922653 0.10096569 1.0470001
-0.35301858 0.11852568 1.0416
-0.34621057 0.11936256 1.0419999
-0.1229207 0.11509812 1.0442727
-0.11915083 0.11090315 1.0455
-0.35328263 0.12264216 1.044
-0.34536463 0.12301091 1.0437857
-0.33484963 0.1242721 1.0432501
-0.32545274 0.12574106 1.0431001
-0.31819844 0.12819321 1.0419999
-0.12428415 0.12367926 1.0450001
-0.32125449 0.1312554 1.0470001
-0.31264126 0.13315322 1.0446001
-0.30420905 0.13491358 1.0445
-0.29554069 0.13549203 1.0425
-0.28466412 0.13738292 1.0410001
-0.27773765 0.13902093 1.041
-0.13105355 0.13699079 1.04175
-0.12754606 0.13396326 1.0452
-0.29361057 0.14084364 1.0461428
-0.28498045 0.14218633 1.0452498
-0.27506092 0.14306651 1.0442729
-0.26432776 0.14486629 1.0433079
-0.2554076 0.14738946 1.0442309
-0.24480142 0.14789563 1.0428462
-0.23562343 0.14837176 1.0440001
-0.22685154 0.14889832 1.0419999
-0.21628857 0.14875543 1.041
-0.2061429 0.14859413 1.0419999
-0.19621114 0.14875543 1.041
-0.18427505 0.14833754 1.0423334
-0.17568021 0.14719905 1.0443333
-0.16529679 0.14713478 1.0433573
-0.15484144 0.14766492 1.0425001
-0.14528017 0.14577073 1.044
-0.13527042 0.14330243 1.0442308
-0.24568319 0.15144855 1.0470001
-0.23405685 0.15144855 1.0470001
-0.22423379 0.1510146 1.044
-0.21437128 0.15115924 1.0450001
-0.20560288 0.15144855 1.0470001
-0.19539639 0.15136176 1.0464
-0.1853098 0.15152481 1.0457143
-0.16230781 0.1519158 1.046
-0.15695727 0.15172507 1.0452857
-0.1021755 -0.14083649 1.0500001
-0.11272881 -0.13213295 1.054
-0.1047769 -0.13546158 1.0533847
-0.099150121 -0.13806887 1.057
-0.36279228 -0.094209664 1.0510001
-0.35991549 -0.092050001 1.0500001
-0.11437211 -0.051317874 1.0500001
-0.10493699 -0.051547993 1.0500001
-0.098681107 -0.051644433 1.052
-0.1129546 -0.046797439 1.0513334
-0.10524329 -0.046348073 1.0544287
-0.098038159 -0.046146505 1.057
-0.080772556 0.00646191 1.053
-0.077004097 0.0055476562 1.055125
-0.08161854 0.015676552 1.052
-0.077281497 0.011675623 1.057
-0.083331116 0.025683615 1.0539
-0.095078282 0.036536343 1.0516876
-0.087632798 0.033360753 1.0542728
-0.093590297 0.043551922 1.057
-0.087103851 0.045405198 1.057
-0.11347453 0.10748185 1.0523751
-0.10769441 0.1058464 1.0560001
-0.12135229 0.11766795 1.0513334
-0.11603456 0.11488526 1.0546876
-0.35137677 0.1268107 1.052
-0.3458727 0.12796983 1.0532
-0.33519346 0.1290015 1.0500001
-0.12234876 0.12235286 1.0546666
-0.11953613 0.1213894 1.057
-0.35204655 0.13028494 1.054
-0.34396511 0.13131462 1.0556667
-0.33435777 0.13325828 1.0549092
-0.32508001 0.13361317 1.0537273
-0.31489712 0.13775536 1.0546
-0.30744702 0.1389955 1.0500001
-0.12625797 0.13703717 1.0538334
-0.31134993 0.14177541 1.057
-0.30345014 0.14187813 1.0531667
-0.29472807 0.14631441 1.0534286
-0.28542912 0.14728557 1.0518183
-0.27622113 0.14769594 1.0522223
-0.26786551 0.1482005 1.0500001
-0.14267749 0.1482005 1.0500001
-0.13350125 0.14718655 1.0546
-0.12781501 0.14298978 1.0550001
-0.28725737 0.15104178 1.057
-0.27441981 0.15168317 1.0566251
-0.26488921 0.15253775 1.0554286
-0.25479206 0.15395537 1.0536667
-0.2451431 0.15455809 1.0527694
-0.23523994 0.15557888 1.0550667
-0.22532552 0.15564846 1.0543847
-0.21443754 0.15563719 1.0535834
-0.20473817 0.15586956 1.0543751
-0.19562389 0.15532801 1.0553334
-0.18592224 0.15453336 1.0530001
-0.17524615 0.15196928 1.0525386
-0.16578446 0.15445684 1.0549999
-0.15400715 0.15506792 1.0555714
-0.14455532 0.15104178 1.057
-0.1389955 0.15104178 1.057
-0.096643731 -0.14031927 1.0600001
-0.111512 -0.1310266 1.0600001
-0.10397457 -0.131633 1.0626155
-0.096114807 -0.13578552 1.0633335
-0.11165606 -0.1290725 1.0643334
-0.10793652 -0.1284961 1.066
-0.10455953 -0.041318301 1.0608572
-0.09769135 -0.041334458 1.0612859
-0.10369388 -0.038213685 1.0632501
-0.09847042 -0.037586499 1.0630001
-0.072929315 0.0055861198 1.0620002
-0.074451931 0.016214959 1.0636921
-0.080960602 0.027918765 1.0615001
-0.0786587 0.024976451 1.0650001
-0.091068134 0.039958466 1.0600001
-0.0839535 0.034820799 1.0630001
-0.09508542 0.043714378 1.0609232
-0.087610997 0.041939881 1.0631667
-0.10637785 0.10664411 1.0604285
-0.1119463 0.1164094 1.0606
-0.10905755 0.11418255 1.0632501
-0.12201272 0.12698302 1.0624446
-0.11499674 0.12366122 1.064
-0.10881859 0.12129063 1.067
-0.35077626 0.13563348 1.067
-0.34443566 0.13632289 1.0636001
-0.3350538 0.13772179 1.0606667
-0.3251242 0.13791072 1.061125
-0.12204253 0.13627893 1.0647501
-0.34235761 0.1412459 1.067
-0.33424142 0.14098115 1.0649999
-0.32378969 0.14340414 1.0661429
-0.31537294 0.14347944 1.0627501
-0.30505368 0.14624049 1.0625001
-0.1259039 0.14522038 1.0618751
-0.30026448 0.15247074 1.067
-0.29399773 0.15353359 1.064625
-0.28470513 0.15434042 1.0632857
-0.27506673 0.15676896 1.0631334
-0.26551133 0.15781851 1.0636251
-0.25581172 0.15903747 1.0644286
-0.24608317 0.15939181 1.0632501
-0.23696299 0.1589046 1.0600001
-0.22348863 0.1589046 1.0600001
-0.21651913 0.1589046 1.0600001
-0.19498107 0.15883183 1.0612857
-0.18525723 0.15842453 1.0630001
-0.17443432 0.15747817 1.0629002
-0.16539359 0.15863864 1.062875
-0.15442696 0.15895106 1.0638572
-0.14538616 0.15507077 1.0617335
-0.13489306 0.15201366 1.0612
-0.12766984 0.15003537 1.0630001
-0.2429778 0.16167311 1.066
-0.23376939 0.1620561 1.0623751
-0.22522208 0.16255835 1.0633079
-0.2142709 0.16222301 1.0650001
-0.20453764 0.16202585 1.0627273
-0.1948757 0.16213657 1.067
-0.18801607 0.16182478 1.067
-0.10224563 -0.13038664 1.0700001
-0.09414757 -0.13221492 1.0721666
-0.089057498 -0.13240691 1.075
-0.11328226 -0.12493656 1.0745624
-0.10494705 -0.12586479 1.074421
-0.096958652 -0.12777582 1.0761111
-0.10857955 -0.11990959 1.077
-0.1041217 -0.036583301 1.0700001
-0.073638767 0.025429267 1.0706817
-0.068668425 0.023516582 1.0730001
-0.081865765 0.037454881 1.0734001
-0.075833887 0.034075048 1.0746249
-0.08347825 0.041113619 1.074
-0.10672394 0.1123574 1.0710001
-0.11318959 0.12767002 1.0724
-0.34894839 0.13882893 1.0700001
-0.12175673 0.13413876 1.0700001
-0.11705442 0.13362579 1.0755713
-0.10857955 0.13123962 1.077
-0.35362777 0.14270906 1.0756668
-0.34472337 0.14329091 1.0722859
-0.33498225 0.14584036 1.0723332
-0.32631773 0.14787398 1.0713334
-0.31550893 0.14813158 1.071125
-0.30767494 0.1491473 1.0700001
-0.12315786 0.14619535 1.0724167
-0.11990959 0.14162549 1.077
-0.33423617 0.15012303 1.077
-0.32573864 0.15012303 1.077
-0.31503806 0.15075247 1.077
-0.30414549 0.1533483 1.0731429
-0.29533079 0.15698306 1.0704286
-0.28703821 0.15852763 1.0700001
-0.14208253 0.15839438 1.0733334
-0.13330126 0.15463232 1.0733334
-0.12612954 0.15251645 1.0748571
-0.29262125 0.16162534 1.075
-0.28423321 0.16249469 1.0733078
-0.27487674 0.16323622 1.0738
-0.26546881 0.16312407 1.0730666
-0.25445059 0.16435325 1.0743333
-0.2456193 0.16538325 1.0743001
-0.2351674 0.16735157 1.0744444
-0.22420935 0.16707996 1.0719
-0.21559559 0.16722356 1.073923
-0.20456308 0.16729741 1.0726362
-0.19489151 0.1651625 1.072091
-0.18488324 0.16432966 1.072857
-0.17515539 0.16352266 1.07275
-0.16518654 0.16474915 1.0731175
-0.15525554 0.16443305 1.0733125
-0.14753345 0.16259679 1.0736251
-0.21054991 0.17089477 1.077
-0.20677322 0.17089479 1.077
-0.10391735 -0.12160496 1.0808889
-0.094387472 -0.12386299 1.0831999
-0.086131945 -0.12677228 1.0847368
-0.10447532 -0.1182791 1.085875
-0.095293656 -0.11911708 1.087
-0.073376127 0.038117465 1.087
-0.081573829 0.042684898 1.082
-0.078839071 0.041797273 1.0835
-0.11521574 0.13625222 1.0808001
-0.35590157 0.14337182 1.0806667
-0.34432486 0.14797607 1.082
-0.1202436 0.14675401 1.08
-0.11717823 0.14554784 1.0839999
-0.34116009 0.15109876 1.0840001
-0.33464345 0.15402849 1.0834166
-0.32496029 0.15440992 1.0836154
-0.31472787 0.15533423 1.0832142
-0.30742595 0.15719481 1.0823333
-0.1349794 0.15774466 1.0817778
-0.12448753 0.15509041 1.084
-0.11911708 0.15151693 1.087
-0.30184531 0.1608931 1.08275
-0.29289499 0.16642004 1.0847501
-0.28527033 0.16753022 1.0831429
-0.27706453 0.16707444 1.0816001
-0.2652694 0.16768704 1.0806667
-0.25468919 0.16834103 1.08
-0.24490559 0.1691616 1.08
-0.2395404 0.16947719 1.08
-0.19788121 0.16947718 1.08
-0.18367919 0.1675836 1.08
-0.17563139 0.16805699 1.08
-0.1647432 0.16947719 1.08
-0.15432841 0.16834103 1.08
-0.14337505 0.16549979 1.0831176
-0.1363323 0.16298538 1.0856249
-0.28683394 0.17057566 1.087
-0.27479273 0.17019904 1.0846001
-0.2644867 0.17142466 1.0856667
-0.25521442 0.17319591 1.0847499
-0.24547173 0.17360251 1.0844666
-0.2351155 0.17229113 1.0857999
-0.22479691 0.17248182 1.085
-0.21512444 0.17332323 1.0839001
-0.20436904 0.17336659 1.0857142
-0.19490121 0.17184819 1.0856667
-0.18494216 0.17127077 1.085909
-0.17471737 0.1726653 1.0863076
-0.16420895 0.17339349 1.0837499
-0.15504064 0.17216516 1.0849999
-0.14636114 0.17111382 1.085875
-0.084196046 -0.12241871 1.09
-0.078356467 -0.12135696 1.09
-0.10447802 -0.11386546 1.0933501
-0.09514299 -0.11575631 1.092353
-0.085388266 -0.11800598 1.0944
-0.0774009 -0.1156153 1.0938572
-0.074051157 -0.10867248 1.097
-0.081521235 0.045076445 1.0940001
-0.078859672 0.044238351 1.097
-0.11248422 0.13737631 1.092
-0.11455263 0.14333254 1.0944
-0.34383348 0.15657808 1.0935
-0.33540389 0.15814629 1.09
-0.32489264 0.15881518 1.09
-0.31724811 0.15957963 1.09
-0.12365033 0.15805073 1.09
-0.11576016 0.15614428 1.0934706
-0.10867248 0.15868105 1.097
-0.34247887 0.16307139 1.0963334
-0.33536947 0.1640359 1.0955
-0.32574725 0.16437638 1.0956875
-0.31537873 0.16297135 1.095125
-0.30441052 0.16545305 1.0947001
-0.29563358 0.1687028 1.0913334
-0.13362172 0.16657855 1.0913334
-0.12494819 0.16244705 1.0940909
-0.1165939 0.16109125 1.0965716
-0.2915583 0.1726332 1.0940001
-0.28531933 0.17370537 1.0946923
-0.27483308 0.17565216 1.0948666
-0.26494244 0.17689864 1.0936667
-0.25551224 0.17857103 1.0916001
-0.24455863 0.17870812 1.0940001
-0.23531742 0.17730194 1.0939375
-0.22563164 0.17803928 1.0952142
-0.21494012 0.17829131 1.095
-0.20429562 0.17829129 1.0950001
-0.19461718 0.17649004 1.0947778
-0.18508707 0.17645933 1.0939168
-0.17349426 0.17848985 1.0958
-0.16517067 0.17780659 1.0916001
-0.15521321 0.17706098 1.0929
-0.1439355 0.17411454 1.0927501
-0.13633943 0.17090859 1.09525
-0.25269917 0.18159623 1.0960001
-0.24839999 0.18126486 1.0940001
-0.23561731 0.18176194 1.097
-0.22984709 0.18176194 1.097
-0.21638326 0.18176194 1.097
-0.10231226 -0.11099915 1.1010001
-0.09411139 -0.11208533 1.1021999
-0.085015625 -0.11303037 1.1019999
-0.077216804 -0.11099915 1.1010001
-0.10400993 -0.10768841 1.1047
-0.094946064 -0.10754113 1.1051664
-0.084041081 -0.10720044 1.1063528
-0.076050565 -0.10642986 1.1037
-0.072653748 0.039717384 1.105
-0.080403484 0.047467116 1.105
-0.075419635 0.043673635 1.103
-0.10517611 0.12492982 1.1057498
-0.11116046 0.13551322 1.1026001
-0.10830253 0.13546108 1.1063333
-0.11286405 0.1464176 1.1020908
-0.10823087 0.14269195 1.10725
-0.11314318 0.15311685 1.1031111
-0.34419388 0.16698134 1.1010001
-0.33649796 0.16921858 1.103
-0.32422367 0.16872773 1.104
-0.31528506 0.16807771 1.1047271
-0.30790198 0.16826828 1.1010001
-0.13030335 0.16891176 1.1010001
-0.12481152 0.1673369 1.1024284
-0.11704388 0.16637786 1.103375
-0.34094268 0.17192836 1.108
-0.33608595 0.17192836 1.108
-0.31374496 0.17241403 1.108
-0.30560729 0.17333996 1.1066667
-0.29568723 0.17689788 1.1066666
-0.28515494 0.17843585 1.1026
-0.19786805 0.17856385 1.1010001
-0.17759864 0.17856385 1.1010001
-0.15153797 0.17856385 1.1010001
-0.14911181 0.17913149 1.1045001
-0.13150525 0.1711525 1.103
-0.12523377 0.17183526 1.1073999
-0.28429741 0.18144509 1.1068001
-0.27332771 0.18146795 1.103
-0.26469722 0.1831086 1.105111
-0.25604627 0.18525018 1.1063333
-0.24428371 0.18447259 1.1040001
-0.23509739 0.18631463 1.1041999
-0.22499532 0.1849732 1.1046666
-0.21408272 0.18535532 1.105909
-0.20497614 0.18401566 1.1052727
-0.19488896 0.18279415 1.1039374
-0.18538374 0.18237171 1.1045555
-0.17546636 0.18126377 1.1027501
-0.16522455 0.18349412 1.1049284
-0.15554987 0.18289392 1.1051111
-0.10337367 -0.10283587 1.1152728
-0.094697885 -0.10250513 1.1136
-0.085386589 -0.10220632 1.1136155
-0.076551586 -0.10213325 1.1137999
-0.10300395 -0.099079989 1.1190001
-0.094448417 -0.095992558 1.1179473
-0.085235745 -0.095029637 1.1175599
-0.075450949 -0.095044091 1.1177199
-0.069650292 -0.093194045 1.1190001
-0.084365144 -0.089270093 1.1190001
-0.075255945 -0.087448254 1.1190002
-0.068669304 -0.085346133 1.1190001
-0.10068078 0.049851649 1.115
-0.077013411 0.049717519 1.1120001
-0.10204072 0.057507358 1.1165
-0.098843873 0.057742815 1.1163334
-0.10387526 0.0658914 1.1167998
-0.099079989 0.066216826 1.1190001
