# .PCD v0.7 - Point Cloud Data file format
VERSION 0.7
FIELDS x y z
SIZE 4 4 4
TYPE F F F
COUNT 1 1 1
WIDTH 1442
HEIGHT 1
VIEWPOINT 0 0 0 1 0 0 0
POINTS 1442
DATA ascii
0.055090789 -0.22445503 1.118724
0.065826707 -0.22489849 1.1171428
0.072266258 -0.22366573 1.1190001
0.027958214 -0.21728928 1.1190001
0.034791537 -0.21513508 1.1179999
0.044119585 -0.21471561 1.1183599
0.055044439 -0.21461886 1.119
0.065726325 -0.21483685 1.119
0.074446239 -0.21407385 1.1190001
0.036016345 -0.20754945 1.1190001
0.044386435 -0.20530318 1.1186521
0.053025089 -0.20564646 1.1190001
0.066631861 -0.20698887 1.1190002
0.075634323 -0.20590977 1.1190001
0.081422172 -0.20306493 1.1190001
0.046106528 -0.19914097 1.1190001
0.051992472 -0.19815998 1.1190001
0.087962098 -0.19194704 1.1190001
0.088289097 -0.18933107 1.1190001
0.090905949 -0.18865429 1.115
0.025819588 -0.26255026 1.1242001
0.033956755 -0.26398012 1.1245
0.044080615 -0.26307184 1.1245002
0.051824152 -0.26208213 1.126
0.018755406 -0.2517173 1.126
0.024619253 -0.25506726 1.1233598
0.034561019 -0.25581366 1.1229999
0.044302355 -0.25612459 1.1229999
0.054191034 -0.25534958 1.1238748
0.064604826 -0.25382689 1.1241667
0.070085995 -0.2517173 1.126
0.018426364 -0.24513645 1.126
0.024614627 -0.24516547 1.1231197
0.033144724 -0.24809317 1.123
0.065007024 -0.24820407 1.1235
0.070085995 -0.24974304 1.126
0.017540481 -0.23470834 1.1260002
0.024298059 -0.23545121 1.1237497
0.031503893 -0.2323412 1.123
0.01756086 -0.2247465 1.1254001
0.022658151 -0.22495194 1.1238002
0.075314 -0.22421911 1.123
0.018360555 -0.21578589 1.126
0.023922719 -0.2147007 1.1243634
0.030519396 -0.21265128 1.123
0.054147318 -0.21757376 1.123
0.078431562 -0.21724559 1.123
0.025670476 -0.20516407 1.1244346
0.033801056 -0.2047753 1.1229999
0.04134886 -0.20182182 1.123
0.057100806 -0.2037908 1.123
0.063528992 -0.20425411 1.123
0.075412445 -0.20221563 1.123
0.083682217 -0.20313448 1.123
0.027011378 -0.19554082 1.1260002
0.034499459 -0.19516966 1.1243998
0.044095751 -0.19443998 1.1233331
0.054652497 -0.19398856 1.1232498
0.064895041 -0.19524647 1.1240286
0.075660914 -0.19488634 1.1236771
0.084087186 -0.19515261 1.1231499
0.04579556 -0.18571869 1.1251429
0.053661268 -0.18492006 1.1245713
0.062682547 -0.18804763 1.126
0.074967057 -0.18569712 1.128
0.085607477 -0.18689461 1.1253333
0.017957639 -0.29131281 1.138
0.025528021 -0.29289731 1.1380002
0.034555152 -0.2928752 1.1365265
0.016806511 -0.28494319 1.1380002
0.024888569 -0.28472799 1.1356002
0.034845047 -0.28472802 1.1356002
0.04443365 -0.28202707 1.1380002
0.054870564 -0.2803387 1.138
0.062851734 -0.2803387 1.138
0.016453383 -0.27460301 1.1356473
0.024824042 -0.27506906 1.1327201
0.034913979 -0.27518198 1.1325001
0.044763125 -0.2745308 1.1346003
0.054824103 -0.27511045 1.1370002
0.062041692 -0.27504015 1.1353333
0.0089788204 -0.26138341 1.138
0.015297667 -0.26461518 1.1349525
0.023577074 -0.26707476 1.13
0.036653433 -0.26846164 1.13
0.04529503 -0.2684482 1.1313334
0.055227153 -0.26669976 1.1324999
0.061828114 -0.26473787 1.1325455
0.0073405695 -0.25405654 1.137273
0.014711741 -0.25529948 1.1327274
0.060428634 -0.25756466 1.13
0.0064733066 -0.24397479 1.1365001
0.013554826 -0.24535386 1.1315556
0.006200566 -0.23503786 1.1371113
0.012753747 -0.2352788 1.1317142
0.0083102165 -0.22571069 1.1375556
0.01290037 -0.22445033 1.13225
0.0089788204 -0.21848463 1.138
0.014111176 -0.2148319 1.1340002
0.016382867 -0.20537429 1.1346316
0.021214282 -0.20361845 1.1308
0.018439807 -0.19586223 1.1370001
0.022834595 -0.19442138 1.1326667
0.025171932 -0.18533635 1.1347694
0.034721259 -0.18550652 1.1316
0.042804126 -0.18374406 1.1307273
0.057456732 -0.18227653 1.13
0.064696565 -0.18464944 1.1303809
0.085127838 -0.18400663 1.1307499
0.090307184 -0.1825974 1.132
0.027514711 -0.17645721 1.1372001
0.034606166 -0.17545319 1.1348574
0.044954967 -0.17534257 1.134143
0.054717455 -0.17508462 1.1348001
0.064732134 -0.17527217 1.1360003
0.074647933 -0.17516898 1.1353335
0.084321111 -0.17583264 1.136519
0.090626292 -0.1772655 1.136
0.028931754 -0.16860229 1.138
0.035124656 -0.16498874 1.1375558
0.043411251 -0.16679306 1.1374668
0.054870561 -0.16660696 1.1380002
0.064514488 -0.16594189 1.1380002
0.074075267 -0.16610816 1.1380002
0.035981786 -0.15609846 1.1380002
0.016892683 -0.3026301 1.1485556
0.025259297 -0.30468646 1.1474446
0.031117283 -0.30213878 1.1450001
0.0090656104 -0.29110682 1.149
0.014236704 -0.295295 1.1459414
0.024340065 -0.29774901 1.1409999
0.031008577 -0.29908273 1.141
0.046276167 -0.29318029 1.1433334
0.055532776 -0.2943092 1.1479093
0.063439831 -0.29357865 1.1486365
0.0087298462 -0.28439152 1.149
0.011946727 -0.28484917 1.1463335
0.046012726 -0.28757951 1.1409999
0.055383671 -0.28565252 1.1427143
0.065459386 -0.28564209 1.14425
0.073677704 -0.28286615 1.1450001
-0.0016788166 -0.27163255 1.149
0.0058394773 -0.27429077 1.1486001
0.01177736 -0.27517429 1.1435001
-0.0024174962 -0.26572308 1.149
0.0043808878 -0.26494744 1.1450002
0.013003597 -0.26907441 1.141
-0.00100729 -0.25484437 1.149
0.0028367471 -0.25575948 1.1433333
-0.0013430533 -0.24477147 1.149
0.0022030633 -0.2462651 1.1438
-0.00100729 -0.23772043 1.149
0.0016788166 -0.2343628 1.149
0.0043544029 -0.22540809 1.1470001
0.0071851602 -0.21586441 1.1475716
0.011003044 -0.21105838 1.141
-0.021153091 -0.20145801 1.149
-0.016452404 -0.20179377 1.149
0.0090656104 -0.20750174 1.149
0.01186919 -0.20439239 1.1474001
-0.022016482 -0.19498256 1.149
-0.017264072 -0.19464691 1.1487143
-0.0090656104 -0.19138509 1.149
0.015266672 -0.19519502 1.147182
-0.015195264 -0.18440238 1.1482382
-0.0051240413 -0.18407132 1.149
0.0031657685 -0.18404625 1.149
0.017676231 -0.18525158 1.1475716
0.02104263 -0.18236771 1.1430001
-0.014303518 -0.17647722 1.149
-0.0048685684 -0.17442906 1.149
0.0050364505 -0.17426118 1.149
0.014885507 -0.17403734 1.149
0.023785623 -0.17444536 1.1465558
0.089024626 -0.17104732 1.141
0.094805956 -0.17184372 1.1463333
-0.0022160378 -0.16499412 1.149
0.0050364505 -0.16435614 1.149
0.012784835 -0.16372338 1.149
0.026115483 -0.16480903 1.1481581
0.047326632 -0.1630076 1.1425
0.055169512 -0.16249856 1.1442001
0.065684833 -0.16137797 1.1409999
0.077021308 -0.16204482 1.1409999
0.085660897 -0.16461933 1.1430801
0.094536304 -0.16561067 1.1484001
-0.00100729 -0.15814453 1.149
0.0058030747 -0.15495217 1.1488097
0.013094771 -0.15612996 1.149
0.028707765 -0.1566336 1.149
0.033278998 -0.15269415 1.1446668
0.046043251 -0.15497999 1.1439093
0.05458916 -0.15677387 1.1475265
0.065866821 -0.15577732 1.1451741
0.075364992 -0.15473704 1.1462002
0.084622137 -0.15755096 1.1480771
0.094685264 -0.15814453 1.149
0.0083940839 -0.1474001 1.149
0.03780783 -0.14700523 1.1470001
0.044824511 -0.14496998 1.1475186
0.074539453 -0.14807163 1.149
0.04633534 -0.13799873 1.149
0.017623629 -0.31177193 1.1554
0.022860134 -0.31133991 1.1538
0.0079912059 -0.30382881 1.1556668
0.013699352 -0.3066496 1.1537273
0.023248322 -0.30829298 1.153
0.066510417 -0.30061093 1.153
-0.0010143033 -0.29211938 1.1570001
0.0052708425 -0.2942512 1.1546841
0.011118763 -0.29616341 1.153
0.067545407 -0.29626614 1.1533999
0.074044146 -0.29719087 1.1570001
-0.0014200247 -0.28339633 1.1570001
0.0038440665 -0.28570896 1.1548666
-0.0050666621 -0.274436 1.1551538
0.001819434 -0.27837342 1.153
-0.0063142255 -0.26500481 1.1554615
-0.00472611 -0.25525653 1.1546665
-0.0052071488 -0.24520339 1.1544285
-0.012509741 -0.23430407 1.1570001
-0.0051516579 -0.23463954 1.1553332
0.0010107966 -0.23147243 1.153
-0.01521455 -0.22314674 1.1570001
-0.0040032752 -0.22467706 1.1563683
0.0014151153 -0.22419469 1.153
-0.022517534 -0.21361227 1.1570001
-0.015001013 -0.21487217 1.1569998
-0.0049647465 -0.21487217 1.1569998
0.0028771525 -0.21457852 1.1533077
-0.024484321 -0.20568955 1.1551175
-0.014992993 -0.20578676 1.1542726
-0.0050563668 -0.20533666 1.1537999
0.0047043832 -0.205084 1.1538695
-0.025316088 -0.19542332 1.1549999
-0.012134118 -0.19515283 1.1533999
-0.0047024018 -0.19534743 1.153
0.005053984 -0.19508375 1.153
0.011876861 -0.19432566 1.153
-0.022740973 -0.1862441 1.1551818
-0.01475763 -0.1853801 1.153
-0.0040431865 -0.18800819 1.153
0.0074431393 -0.18534335 1.153
0.012829342 -0.18466479 1.153
-0.02130037 -0.17953169 1.1570001
-0.015172199 -0.17371765 1.1536154
-0.0090971701 -0.17082463 1.153
0.015288299 -0.17499417 1.153
0.02122673 -0.17082463 1.153
-0.013799071 -0.16675733 1.1560769
-0.006946648 -0.16433272 1.1537999
0.017688941 -0.16526526 1.153
0.022959525 -0.16360465 1.153
0.097036481 -0.16172746 1.153
0.10006887 -0.16071667 1.153
-0.0036180033 -0.15560481 1.1547142
0.001819434 -0.15222597 1.153
0.016299095 -0.15351474 1.153
0.02459605 -0.15417054 1.153
0.0569348 -0.15258901 1.1540909
0.06374231 -0.15191318 1.1541427
0.085917726 -0.1529413 1.153
0.093736097 -0.1543557 1.1554614
0.10030031 -0.1570335 1.1556667
-0.0020286066 -0.14910258 1.1570001
0.0047902823 -0.14565308 1.1543332
0.015192291 -0.14517589 1.1552607
0.025156036 -0.14576909 1.1566188
0.034286141 -0.1438943 1.154111
0.049529035 -0.14151153 1.153
0.053160924 -0.14479582 1.1549999
0.068122044 -0.14713512 1.1554999
0.076226875 -0.1439618 1.1531999
0.084827244 -0.14488868 1.1540525
0.090272993 -0.14808828 1.1570001
0.015890753 -0.13760714 1.1570001
0.025864735 -0.13845241 1.1570001
0.03696138 -0.13588865 1.1561999
0.0454042 -0.13410401 1.1531738
0.053920917 -0.13479461 1.1549999
0.078101359 -0.13895956 1.1570001
0.083565995 -0.13802151 1.1564286
0.038543526 -0.12881652 1.1570001
0.044891629 -0.12711626 1.1566364
0.05172947 -0.12881652 1.1570001
-0.0010248233 -0.32179451 1.169
0.0047120829 -0.32356554 1.1687334
0.014074226 -0.32342994 1.1675
0.021521291 -0.32281935 1.169
-0.0016104366 -0.31374231 1.169
0.0051985076 -0.31519914 1.1650001
0.014476047 -0.31677875 1.1628668
0.023884082 -0.31781989 1.1642001
-0.0036585808 -0.30407548 1.1678572
0.0030566861 -0.30543065 1.1624286
-0.012912774 -0.29166475 1.169
-0.0052137994 -0.29470187 1.1652002
0.0020356199 -0.29821834 1.161
-0.013296697 -0.28433308 1.1666666
-0.0063183708 -0.28545266 1.1620667
-0.015137737 -0.27496618 1.1655718
-0.0078032091 -0.27854064 1.1610001
-0.022204505 -0.2637212 1.169
-0.015309512 -0.26508179 1.1638801
-0.0084817493 -0.2622557 1.161
-0.02241588 -0.25476158 1.1681111
-0.015222075 -0.25510851 1.1640004
-0.0085786832 -0.25547031 1.1610001
-0.02354639 -0.2446534 1.1676667
-0.015289595 -0.24481317 1.1626
-0.0091602895 -0.24529222 1.161
-0.032452736 -0.23126847 1.169
-0.025201429 -0.23382124 1.16725
-0.015578103 -0.23478763 1.1613998
-0.0091602895 -0.23104286 1.161
-0.032908216 -0.2248918 1.169
-0.025363075 -0.22539128 1.1651741
-0.01526715 -0.22512987 1.1609999
-0.007415473 -0.22406361 1.1610001
-0.0344842 -0.21428111 1.1668824
-0.026642673 -0.21559611 1.161
-0.01933839 -0.21882915 1.161
-0.0071246698 -0.21882915 1.161
-0.034098499 -0.20519929 1.1652502
-0.029516492 -0.2045798 1.161
-0.033004031 -0.19568516 1.1664546
-0.028949412 -0.19362299 1.1615715
-0.031769522 -0.18600544 1.169
-0.027149161 -0.1839031 1.163
-0.024690026 -0.17559953 1.1656317
-0.01933839 -0.17302769 1.161
-0.022311691 -0.16722608 1.1674001
-0.016789161 -0.16358432 1.1628667
-0.014315617 -0.15825938 1.1661999
-0.0071432553 -0.15446497 1.1638
0.097506188 -0.15287507 1.161
0.10076319 -0.1526715 1.161
-0.0022504034 -0.14696422 1.1658
0.0043322677 -0.14203292 1.1635002
0.01526715 -0.14147559 1.161
0.02646306 -0.14147559 1.161
0.057251811 -0.14554681 1.1610001
0.063711666 -0.14503179 1.1623335
0.071246698 -0.14147559 1.161
0.088549472 -0.14147559 1.161
0.095110834 -0.14543058 1.1622174
0.1016755 -0.14655499 1.1636666
0.0083860187 -0.13847424 1.1666
0.015727079 -0.13576636 1.1635264
0.025376204 -0.13484201 1.1623331
0.033384167 -0.13374022 1.1610001
0.058015171 -0.13485983 1.161
0.064247735 -0.13572095 1.1660771
0.07466206 -0.13525447 1.1654617
0.084743783 -0.13365151 1.1646364
0.094913162 -0.13678792 1.1665241
0.10134178 -0.1361437 1.1676668
0.018724138 -0.12902634 1.1650001
0.026038794 -0.12630558 1.1659526
0.035372015 -0.12489197 1.1615217
0.045801457 -0.12349427 1.1610001
0.054652534 -0.12533398 1.1652
0.060464576 -0.12810291 1.169
0.077886567 -0.12810291 1.169
0.084035516 -0.1274197 1.169
0.027670231 -0.11990433 1.169
0.036764286 -0.1163139 1.165
0.044853948 -0.11518697 1.1628001
0.052191351 -0.11636472 1.1672857
0.039968111 -0.10658162 1.169
0.044872183 -0.10777389 1.1685998
0.050216343 -0.1096561 1.169
-0.0024046965 -0.33203134 1.1750001
0.0051512141 -0.33202112 1.1751819
-0.0043616868 -0.32467479 1.175154
0.0051416499 -0.32803726 1.1730001
0.016147908 -0.32740957 1.1756667
0.02166857 -0.32709223 1.177
-0.0063917767 -0.31551781 1.1754
-0.014858449 -0.30315363 1.177
-0.0079774475 -0.30618945 1.1740001
-0.014763067 -0.29554945 1.1746668
-0.02166857 -0.2816914 1.177
-0.018534049 -0.28521428 1.1745001
-0.022405626 -0.27426013 1.1750001
-0.01953827 -0.27867743 1.1730001
-0.025489584 -0.26475745 1.1764287
-0.027307145 -0.25501809 1.1753334
-0.040241629 -0.24144977 1.177
-0.035082448 -0.24206889 1.177
-0.028844088 -0.24515808 1.1750001
-0.041938562 -0.23375089 1.1763334
-0.035553619 -0.23526219 1.1742309
-0.026962584 -0.23894024 1.1738001
-0.041878887 -0.22527774 1.1766001
-0.037019882 -0.22520427 1.1730002
0.10112 -0.22184488 1.177
-0.042078245 -0.21494177 1.1747143
-0.038048211 -0.21800596 1.1730001
-0.041246109 -0.20519383 1.1762002
-0.038048211 -0.202581 1.1730001
-0.040241629 -0.19811264 1.177
-0.036672719 -0.19468576 1.1750001
-0.034458555 -0.18487681 1.1752223
-0.0325455 -0.17656456 1.1758573
-0.028573416 -0.17246312 1.1745002
-0.042305302 -0.16199836 1.177
-0.024393249 -0.16547816 1.1756668
-0.041961357 -0.15615129 1.177
-0.02235646 -0.15924679 1.177
-0.016285487 -0.15439168 1.1756668
-0.0085799368 -0.15202188 1.1743335
-0.033534691 -0.14497304 1.177
-0.024684709 -0.14390153 1.177
-0.016509388 -0.14548898 1.177
-0.004538679 -0.14600918 1.1762002
0.0020584133 -0.14112142 1.1750001
0.102833 -0.14190954 1.1730001
-0.025108026 -0.13682154 1.177
-0.017541224 -0.13929795 1.177
0.0068736519 -0.13646983 1.1763334
0.01298431 -0.13251185 1.1754001
0.065813117 -0.1305979 1.1730001
0.073011428 -0.1305979 1.1730001
0.089464709 -0.1305979 1.1730001
0.095094666 -0.13154295 1.1735716
0.10266775 -0.13362285 1.177
0.058614809 -0.12134294 1.1730001
0.064159721 -0.12610914 1.1750002
0.075538859 -0.12635513 1.1750001
0.085773505 -0.12414893 1.1752502
0.093174562 -0.12617929 1.1765556
0.037019879 -0.11105964 1.1730001
0.056263238 -0.11458384 1.1754001
0.038048211 -0.10694632 1.1730001
0.044849891 -0.10278378 1.1741431
0.051877722 -0.10546932 1.1756667
0.042305302 -0.09802448 1.177
-0.0010423567 -0.35127419 1.189
0.0059066876 -0.35162166 1.189
-0.0036940342 -0.34451526 1.1879091
0.0049818195 -0.34510401 1.1862631
0.012359372 -0.34412661 1.189
-0.014576775 -0.33365494 1.1875
-0.0066092992 -0.33580786 1.18225
0.0051802234 -0.33776438 1.1814445
0.015289443 -0.3342149 1.1850002
0.023974203 -0.33251178 1.189
-0.022584394 -0.32208821 1.189
-0.015268639 -0.32494682 1.1846
-0.0082827471 -0.32613313 1.1810001
0.017600836 -0.32820383 1.1810001
-0.023785515 -0.31478393 1.1874616
-0.015344934 -0.31526393 1.1811818
-0.00931809 -0.31785041 1.1810001
-0.022175575 -0.30524918 1.1856667
-0.016269682 -0.30660954 1.181
-0.022751378 -0.29426381 1.1872857
-0.019671524 -0.29507285 1.1810001
-0.024948934 -0.28478163 1.1855716
-0.026571065 -0.27501506 1.1838
-0.031478688 -0.2645756 1.187
-0.027954271 -0.26608324 1.1810001
-0.042277955 -0.25366384 1.1878002
-0.034517407 -0.25527266 1.1845293
-0.051075477 -0.24391146 1.189
-0.044739701 -0.24467646 1.18325
-0.035086632 -0.24767712 1.1810001
-0.051075477 -0.23453026 1.189
-0.046813127 -0.23564765 1.1825385
-0.051075477 -0.22514904 1.189
-0.046972409 -0.22448431 1.1825384
0.098357618 -0.22052813 1.1810001
0.10163723 -0.22090158 1.1830001
-0.051075477 -0.21785255 1.189
-0.04743332 -0.21433425 1.1831819
0.098857313 -0.2174826 1.187
0.10238502 -0.21795453 1.1876668
-0.045952871 -0.20484024 1.1839092
-0.043992594 -0.19487582 1.1852221
-0.038307704 -0.19153851 1.1810001
-0.051770378 -0.18241243 1.189
-0.044108037 -0.18486562 1.1867388
-0.037716072 -0.18473484 1.1810001
-0.044007968 -0.17499027 1.1847895
-0.03625555 -0.17431714 1.1815714
-0.041543972 -0.16583347 1.1814445
-0.034191441 -0.1647311 1.1817999
-0.027066831 -0.16314054 1.1810001
-0.040896062 -0.1553015 1.1810001
-0.034166332 -0.15426613 1.1809999
-0.025011715 -0.15404816 1.181
-0.013873601 -0.15095305 1.1810001
-0.032888371 -0.14630494 1.1815001
-0.026401255 -0.14650108 1.1810001
-0.014513845 -0.14441644 1.1827143
-0.0074246363 -0.14330138 1.1816666
-0.023837442 -0.1330175 1.1823335
-0.016026191 -0.13513996 1.184652
-0.0043216436 -0.13641223 1.1849999
0.0037687896 -0.13404366 1.1843685
0.011388777 -0.13148861 1.1810001
0.10249899 -0.13148861 1.1810001
-0.02174221 -0.12941791 1.1810001
-0.018176369 -0.12829621 1.1850001
0.0083248261 -0.12903306 1.187
0.015591128 -0.12680651 1.1856667
0.021815849 -0.12570085 1.1850001
0.066699609 -0.12283274 1.1814001
0.074660838 -0.12267842 1.1813636
0.084898151 -0.12113517 1.1810001
0.096114375 -0.12389608 1.181
0.10442728 -0.12526107 1.1834347
0.057979226 -0.11181708 1.1810001
0.065407857 -0.11523114 1.1841998
0.075263701 -0.11712035 1.1862501
0.084850609 -0.11542349 1.1851903
0.094256997 -0.11535022 1.1836666
0.10393009 -0.11849114 1.1867778
0.048661135 -0.10042831 1.1810001
0.05652396 -0.10396587 1.183
0.062600635 -0.10720593 1.1872857
0.087557957 -0.10944745 1.189
0.093812101 -0.10875255 1.189
0.045068283 -0.094773896 1.1839473
0.053563308 -0.096546285 1.1863334
0.00104937 -0.36308202 1.197
-0.015737453 -0.35418507 1.1967649
-0.0055238763 -0.35402265 1.1959337
0.0038379494 -0.35601038 1.1947778
0.015434219 -0.3522706 1.1964285
0.026234249 -0.3541624 1.197
-0.02203677 -0.34524277 1.197
-0.015715299 -0.34571454 1.1950003
-0.0077393888 -0.34743583 1.1930001
0.017487006 -0.34558794 1.194846
0.025394756 -0.34356374 1.1970001
0.030431731 -0.343144 1.197
-0.030431731 -0.33055153 1.197
-0.024555262 -0.33327991 1.1970001
-0.01674333 -0.33707771 1.1935713
0.018302608 -0.33938268 1.1930001
0.024054859 -0.3369174 1.193
-0.032530468 -0.32425532 1.1970003
-0.025671158 -0.32518703 1.1933076
-0.019871403 -0.32944694 1.1930001
-0.032845531 -0.31497246 1.1966926
-0.027889689 -0.3141076 1.193
-0.031597693 -0.30653262 1.197
-0.026159208 -0.30448228 1.1935333
-0.030431729 -0.29487297 1.197
-0.026854346 -0.29539314 1.1934444
-0.031552497 -0.28442174 1.1952224
-0.02823831 -0.28865826 1.1930001
-0.032282934 -0.27490953 1.1948183
-0.052818295 -0.26409146 1.197
-0.045338269 -0.26478273 1.1954352
-0.036482628 -0.26514971 1.1946667
-0.053517874 -0.25552157 1.1970001
-0.047482196 -0.25560898 1.193
-0.054403301 -0.2454624 1.1948668
-0.048109714 -0.24996133 1.1930001
-0.05631005 -0.23511703 1.1943336
-0.056404315 -0.22543864 1.1948949
-0.052914724 -0.21432932 1.1938889
0.097591408 -0.21512084 1.197
0.10437699 -0.21462134 1.1954001
0.11018385 -0.21092337 1.197
-0.052468501 -0.20462713 1.1970001
-0.049155578 -0.20498922 1.1930001
-0.052424669 -0.19502237 1.196
-0.049155578 -0.19557646 1.1930001
-0.052641783 -0.18755816 1.193
-0.049155578 -0.1851178 1.1930001
-0.012201739 -0.13143015 1.1930001
-0.0063976212 -0.1319924 1.1938889
-0.014101317 -0.12548803 1.1951538
-0.0044970498 -0.12694296 1.1967144
0.0052382583 -0.12489362 1.1952002
0.014881417 -0.12177198 1.1954001
0.023045814 -0.12152529 1.1950001
0.016440131 -0.11822901 1.197
0.023853883 -0.11480781 1.1960001
0.076200932 -0.11179769 1.1943334
0.081318729 -0.11133287 1.1943334
0.099357016 -0.11190738 1.1930001
0.10371288 -0.11453649 1.1950001
0.065975979 -0.10463886 1.1945385
0.073133945 -0.1082554 1.196
0.085510939 -0.10694975 1.195154
0.095486335 -0.1049147 1.1954447
0.10178889 -0.104937 1.197
0.048109714 -0.090990111 1.1930001
0.056967892 -0.09354607 1.1948463
0.063992769 -0.097179532 1.1966366
0.095072918 -0.098430902 1.1970001
0.10178889 -0.098640777 1.197
0.047196519 -0.088097401 1.1963334
0.054281052 -0.087288506 1.1970001
-0.0031717799 -0.37109825 1.2060001
-0.02220246 -0.36158293 1.2060001
-0.014072838 -0.36309603 1.2040001
-0.0044654701 -0.36384863 1.2035384
-0.023629673 -0.35483503 1.2032
-0.014401295 -0.35932985 1.202
-0.0066737705 -0.35932985 1.202
0.0063225199 -0.35932988 1.202
0.014752546 -0.35511488 1.202
0.024560558 -0.35349372 1.2019999
0.031612597 -0.35195363 1.202
-0.03066054 -0.34149498 1.2060001
-0.025625922 -0.34481835 1.2041818
0.024236327 -0.34752783 1.202
0.031612597 -0.34773859 1.202
-0.032932863 -0.33523065 1.204
-0.026374223 -0.33757627 1.2033334
-0.037875697 -0.32515156 1.2037778
-0.037004098 -0.31506348 1.2060001
-0.034828369 -0.30499536 1.2038182
-0.033936769 -0.29546046 1.2042857
-0.035888977 -0.28498507 1.204
-0.053448614 -0.27252352 1.2033334
-0.0444723 -0.27436909 1.2037143
-0.037598286 -0.27466378 1.2024446
-0.060742479 -0.26251256 1.205
-0.057214335 -0.26550508 1.2030001
-0.061170042 -0.25510171 1.2060002
-0.057534933 -0.25564057 1.202
-0.061411906 -0.24500695 1.2035999
-0.057956435 -0.24657828 1.202
-0.063203186 -0.23580445 1.2037778
-0.062287945 -0.22486441 1.2042222
-0.057956435 -0.22023444 1.202
-0.062888913 -0.21541977 1.2049334
-0.057062618 -0.2145361 1.202889
0.097296558 -0.21320944 1.202
0.10625508 -0.21197887 1.2030001
0.1127516 -0.21180442 1.202
-0.061369129 -0.20561585 1.2028
-0.056849882 -0.20524073 1.2033334
0.097999059 -0.20969692 1.202
0.10419152 -0.20808992 1.2049092
0.11276679 -0.20734277 1.2046667
-0.06132108 -0.19982214 1.2060001
-0.05664669 -0.19702733 1.2040001
-0.011591286 -0.12118163 1.202
-0.006226724 -0.12271435 1.2019999
0.0031612599 -0.12118163 1.202
-0.011591286 -0.11907413 1.202
-0.0042827744 -0.11615265 1.2038823
0.0056996192 -0.1170309 1.2041334
0.014768911 -0.11498418 1.2033333
0.022148859 -0.11195359 1.203143
0.10592814 -0.11345995 1.203143
0.11082821 -0.11821499 1.204
0.026431499 -0.10889778 1.2060001
0.074915253 -0.10339933 1.2035555
0.085682094 -0.10302996 1.2033334
0.10555184 -0.10361645 1.2040001
0.066645958 -0.093817942 1.2024446
0.071977593 -0.096118473 1.2048572
0.089062907 -0.097511627 1.2046667
0.094884492 -0.093731768 1.2038183
0.10297821 -0.095681794 1.2041819
0.1110123 -0.098325178 1.2060001
0.046848364 -0.084621832 1.2036
0.055146426 -0.082544014 1.202
0.063997969 -0.085738227 1.2035651
0.070836417 -0.08880984 1.2060001
0.048633959 -0.079294503 1.2060001
0.055248965 -0.077348292 1.2056365
0.063224152 -0.078871593 1.2060001
-0.023474831 -0.3731879 1.2171251
-0.014910054 -0.37381783 1.2148334
-0.0072122389 -0.37295094 1.2135557
-0.03238767 -0.36360577 1.217889
-0.025219131 -0.36578745 1.2129285
-0.015487194 -0.36766177 1.21
-0.0074253664 -0.36808601 1.21
-0.034177672 -0.35375315 1.2156667
-0.027949302 -0.35590741 1.2106668
-0.041677609 -0.34410745 1.2190001
-0.035438664 -0.34512419 1.2125554
-0.028640701 -0.34687069 1.21
-0.041932371 -0.33524612 1.2140001
-0.038073134 -0.33658168 1.2111429
-0.042729829 -0.32462099 1.2134167
-0.039248366 -0.32565537 1.21
-0.050226863 -0.3131164 1.2190001
-0.044726387 -0.31463733 1.2145627
-0.039248366 -0.31504768 1.21
-0.050654329 -0.30627698 1.2190001
-0.0447555 -0.30465603 1.2140954
-0.038452793 -0.30364445 1.21
-0.050904963 -0.29403737 1.2181667
-0.044715464 -0.29507002 1.2161176
-0.037641536 -0.29557285 1.2113334
-0.061940443 -0.28406909 1.2181667
-0.054170009 -0.28513774 1.2144117
-0.044712342 -0.28466648 1.2111111
-0.039248366 -0.28534621 1.21
-0.071599998 -0.27143878 1.2190001
-0.064465821 -0.27461907 1.2158947
-0.056027763 -0.27695233 1.2104001
-0.047734499 -0.27898163 1.21
-0.07202746 -0.26524061 1.2190001
-0.06574671 -0.26549697 1.2119999
-0.071599998 -0.25540894 1.2190001
-0.066468656 -0.25566602 1.2124705
-0.067212857 -0.24595439 1.2136667
-0.066938758 -0.23800272 1.2120001
-0.065919079 -0.22442792 1.21
0.098651297 -0.20897104 1.21
0.1058803 -0.20473902 1.2126
0.11305231 -0.20243305 1.21375
-0.061170876 -0.1976562 1.21
-0.057956431 -0.1940712 1.2130001
0.11541492 -0.1998388 1.2190001
-0.0010647117 -0.11072607 1.2145001
0.004249203 -0.11234645 1.2128333
0.014850733 -0.1113805 1.21
0.10943956 -0.11368613 1.2120001
0.11155955 -0.11422682 1.2177501
0.0060333866 -0.10534352 1.2149526
0.014910917 -0.10543193 1.2148501
0.024407975 -0.10525361 1.2148751
0.033107173 -0.10251871 1.2181667
0.079557501 -0.10077284 1.21
0.083376266 -0.10162143 1.21
0.10713743 -0.10925896 1.21
0.0090759108 -0.097680174 1.2177501
0.014961192 -0.098316416 1.219
0.023296714 -0.097888947 1.219
0.034197014 -0.099385068 1.2190001
0.076948337 -0.093946174 1.2121178
0.085017383 -0.094540752 1.2146317
0.09328109 -0.091160551 1.2111429
0.10612856 -0.093363948 1.2130001
0.044717893 -0.08304356 1.2145001
0.068949834 -0.0827398 1.21
0.07491906 -0.08462508 1.2142501
0.083236493 -0.087511107 1.219
0.095336176 -0.085501552 1.2158333
0.10260315 -0.085105933 1.2166001
0.048874166 -0.077563956 1.2120001
0.05405638 -0.073013417 1.2134546
0.065100916 -0.07444267 1.2113998
0.073418513 -0.076001175 1.2162143
0.057173133 -0.068928353 1.2190001
0.064436592 -0.06683559 1.2174375
0.071599998 -0.06839402 1.2190001
-0.034831367 -0.37365884 1.2262002
-0.028412329 -0.374185 1.223
-0.041951131 -0.36250079 1.2270001
-0.037389684 -0.36493239 1.2243334
-0.043602414 -0.35396469 1.225
-0.038061798 -0.35756648 1.223
-0.044891816 -0.34558496 1.2250001
-0.04559806 -0.3354471 1.2258571
-0.051094323 -0.32323885 1.2270001
-0.047395978 -0.32562718 1.2247144
-0.054250326 -0.31527871 1.2253336
-0.06561587 -0.30011192 1.2270001
-0.054626744 -0.30439118 1.2247499
-0.065605879 -0.29468608 1.2267998
-0.056417208 -0.29512504 1.2248461
-0.072684564 -0.28413054 1.2270001
-0.067285992 -0.28573093 1.2242309
-0.074354291 -0.27509204 1.2252223
-0.068975843 -0.27911985 1.223
-0.075308882 -0.26506728 1.2252225
-0.074039757 -0.2553809 1.2240001
-0.07199157 -0.24820741 1.2256668
-0.069690615 -0.24123675 1.223
0.10506562 -0.20261456 1.2247144
0.11150499 -0.20049454 1.223
0.11566593 -0.19516304 1.2254443
0.12206852 -0.19258612 1.2250001
0.1183237 -0.18824224 1.2270001
0.12262638 -0.18824224 1.2270001
0.015743764 -0.09480945 1.2243334
0.025476171 -0.094585866 1.2248181
0.035693705 -0.095268451 1.2244999
0.041905541 -0.093483932 1.2256668
0.1082885 -0.091133885 1.223
0.1118653 -0.092968568 1.2246001
0.039799791 -0.088204943 1.2270001
0.042811669 -0.084977932 1.2270001
0.085495271 -0.083075896 1.2247499
0.094239786 -0.081368811 1.2235715
0.10708024 -0.08480303 1.2245001
0.11151008 -0.087444521 1.2254002
0.047250576 -0.07732375 1.2250001
0.050556488 -0.072069891 1.2270001
0.077941455 -0.074503519 1.2246001
0.081750922 -0.076372571 1.2270001
0.095734626 -0.077986076 1.2270001
0.10207643 -0.07736291 1.2256669
0.056668222 -0.065495476 1.2247778
0.066666894 -0.062371228 1.2243334
0.074554712 -0.066602476 1.2254002
0.059161849 -0.059161849 1.2270001
0.065257311 -0.05880329 1.2270001
-0.040814091 -0.38105193 1.2360001
-0.037801865 -0.38125882 1.2320001
-0.041513678 -0.37543365 1.2353334
-0.039241936 -0.37333843 1.2320001
-0.045739688 -0.36540934 1.234182
-0.050927319 -0.35324055 1.2360001
-0.047934964 -0.3560833 1.2333335
-0.050927319 -0.34511387 1.2360001
-0.048242379 -0.34381697 1.2320002
-0.052010879 -0.33445883 1.2360001
-0.048602398 -0.33589658 1.2320001
-0.061762918 -0.32181731 1.2360001
-0.055639472 -0.32541975 1.2332308
-0.063930042 -0.31433091 1.2360001
-0.05897091 -0.31602359 1.2320001
-0.074045844 -0.3037456 1.2336001
-0.064371377 -0.30579782 1.2325717
-0.059402931 -0.30565509 1.2320001
-0.075660616 -0.29506654 1.2328891
-0.081266999 -0.28714341 1.2360001
-0.077192605 -0.28584486 1.2332002
-0.081266999 -0.27414069 1.2360001
-0.078483872 -0.27613363 1.2320002
-0.081266999 -0.26601398 1.2360001
-0.078483872 -0.26389304 1.2320002
-0.076808274 -0.25476286 1.2340001
-0.073164262 -0.24543977 1.2333335
0.10560093 -0.20146619 1.2333335
0.10581677 -0.19591336 1.2338824
0.11286733 -0.19292103 1.2340001
0.10556206 -0.1889278 1.2350001
0.1167759 -0.18701287 1.2346668
0.12441221 -0.18357508 1.2356924
0.014913852 -0.092728183 1.2328001
0.02592128 -0.091804534 1.2320001
0.034561705 -0.091804534 1.2320001
0.1155657 -0.091804534 1.2320001
0.017987095 -0.087334946 1.2360001
0.025178785 -0.08589045 1.2347828
0.035103008 -0.085348114 1.2338184
0.041445296 -0.081811696 1.2333335
0.10800533 -0.081004001 1.2320001
0.11420301 -0.084135458 1.2336001
0.02925612 -0.079099879 1.2360001
0.036299258 -0.078558102 1.2360001
0.044616491 -0.076608978 1.2346668
0.050762508 -0.070203468 1.2320001
0.08642254 -0.073902264 1.2330528
0.094787538 -0.074782006 1.2333335
0.10529205 -0.076057844 1.2350001
0.11232906 -0.078377508 1.2360001
0.05472083 -0.06423793 1.2336
0.077255815 -0.063748129 1.2325002
0.08333721 -0.065624081 1.2345456
0.058417562 -0.057333998 1.2340001
0.065498866 -0.054177187 1.2341539
0.074249998 -0.055629931 1.2346002
0.08198937 -0.058873426 1.2360001
0.068264283 -0.048760198 1.2360001
0.071514957 -0.048760198 1.2360001
-0.051215742 -0.38575089 1.243
-0.045986276 -0.38478875 1.2440001
-0.052025784 -0.37072921 1.245
-0.046597961 -0.37450838 1.2444285
-0.051298153 -0.36345282 1.245
-0.049115248 -0.36563575 1.245
-0.052025784 -0.35544887 1.245
-0.05348105 -0.33725804 1.245
-0.063887469 -0.32550099 1.2445556
-0.074802287 -0.31250834 1.2437999
-0.067669898 -0.31761193 1.245
-0.081858747 -0.30233166 1.245
-0.079675846 -0.30778891 1.245
-0.082884446 -0.29445657 1.2440001
-0.082950197 -0.2859599 1.245
-0.081858747 -0.26303944 1.245
-0.078584403 -0.25430784 1.245
-0.075310051 -0.2466677 1.245
0.10879433 -0.18712625 1.2410001
0.11338925 -0.18716337 1.2436666
0.12379263 -0.18333 1.2423334
0.1268709 -0.17654471 1.2426001
0.13164115 -0.17515889 1.2410001
0.1331569 -0.16917475 1.245
0.0098125301 -0.092671551 1.2436666
0.013074607 -0.090444818 1.243
0.0098230503 -0.086224549 1.245
0.016371749 -0.087315999 1.245
0.022846811 -0.081595749 1.2410001
0.12076171 -0.081595749 1.2410001
0.02749336 -0.076759614 1.2420001
0.034665324 -0.07521116 1.2434
0.041988388 -0.074703835 1.244
0.096826948 -0.070716314 1.2410001
0.1052824 -0.071517594 1.2423334
0.11492214 -0.075685263 1.2432222
0.12115095 -0.079675846 1.245
0.088123411 -0.063100711 1.2410001
0.094568878 -0.065678336 1.2435002
0.10434291 -0.067257769 1.2441112
0.079419866 -0.05222128 1.2410001
0.085757412 -0.054315884 1.2427145
0.067507714 -0.046817508 1.2420001
0.075375885 -0.046451937 1.2428182
0.082586378 -0.048387617 1.245
-0.054282006 -0.38374579 1.2542727
-0.048216663 -0.38134998 1.25
-0.054799467 -0.37630221 1.2551
-0.049312498 -0.37696666 1.25
-0.055378422 -0.36545718 1.2536155
-0.05630267 -0.35502565 1.2550834
-0.056126267 -0.34552473 1.2552143
-0.0805718 -0.33001328 1.2590001
-0.075264461 -0.33151472 1.2563335
-0.061974853 -0.33291966 1.25125
-0.057143763 -0.33736503 1.2535
-0.082439326 -0.32285902 1.258
-0.074239187 -0.32556736 1.2528824
-0.068306945 -0.32582775 1.25
-0.091609038 -0.31014624 1.2590001
-0.084855199 -0.31440169 1.257
-0.075612493 -0.31763512 1.25
-0.091875896 -0.30338681 1.2566
-0.086422138 -0.30487603 1.2526923
-0.091879927 -0.2951155 1.2576667
-0.087663263 -0.2946842 1.2516667
-0.091609038 -0.28807178 1.2590001
-0.086639047 -0.28488511 1.2538182
-0.084960841 -0.27611449 1.2531667
-0.08569067 -0.2649264 1.2554286
-0.084032372 -0.25805646 1.2541429
-0.079447918 -0.25258958 1.25
-0.0756125 -0.24437083 1.25
0.1162597 -0.18344425 1.2543637
0.11689911 -0.179764 1.2580001
0.12396756 -0.17367585 1.2544001
0.12728761 -0.16787939 1.2582
0.1335398 -0.16553974 1.2556922
-0.022074467 -0.13134308 1.2590001
-0.022074467 -0.12803191 1.2590001
-0.016293045 -0.12507609 1.2576667
-0.0099335099 -0.12140957 1.2590001
-0.0061088521 -0.11423659 1.2562728
0.0066013001 -0.091317981 1.2550001
0.0068435301 -0.085623756 1.2533847
0.013812321 -0.085070416 1.2505
0.034847498 -0.0716675 1.25
0.04499656 -0.072157882 1.251875
0.11595134 -0.072542697 1.2516667
0.12439996 -0.074853234 1.2557501
0.035728049 -0.068462275 1.2567145
0.045731459 -0.06776911 1.257
0.052400995 -0.065223701 1.2540001
0.096433342 -0.061366674 1.25
0.10557537 -0.062307093 1.2509091
0.11457337 -0.065053895 1.2537622
0.12232933 -0.064567812 1.2589999
0.062026504 -0.053217757 1.256
0.094586924 -0.054997168 1.2502942
0.10482063 -0.054869 1.2557898
0.11412499 -0.058055848 1.2590001
0.12140957 -0.058497336 1.2590001
0.066412494 -0.043763988 1.2543
0.075612493 -0.042079996 1.25
0.08574824 -0.04415039 1.2522223
0.093725748 -0.046070397 1.2556429
0.1025399 -0.049614947 1.2576667
0.068725117 -0.037853591 1.2576667
0.074954122 -0.036372315 1.2573333
0.083927929 -0.037947021 1.2572858
-0.061138734 -0.38128337 1.268
-0.062738091 -0.37430352 1.2676363
-0.058729652 -0.37454003 1.2640001
-0.062782049 -0.36501989 1.2675
-0.058729652 -0.36235088 1.2640001
-0.061948337 -0.35363114 1.2675
-0.062202126 -0.34432921 1.267
-0.090781756 -0.33089021 1.268
-0.084490016 -0.33264512 1.2662222
-0.075794265 -0.33537176 1.2653333
-0.066588089 -0.33684513 1.266
-0.093153194 -0.32414645 1.2679999
-0.086555451 -0.32467523 1.2640001
-0.10115682 -0.31569821 1.268
-0.095942385 -0.3153103 1.2669998
-0.089017898 -0.31728789 1.2640001
-0.10083771 -0.30916175 1.2640001
-0.09618365 -0.30517259 1.2640001
-0.095700435 -0.29553416 1.2664001
-0.091904722 -0.28364927 1.2674286
-0.089756638 -0.28478342 1.2640001
-0.090040676 -0.27901495 1.268
-0.0877482 -0.27546006 1.2670001
-0.090040676 -0.26567557 1.268
-0.087540425 -0.2648375 1.2640001
-0.090040676 -0.2590059 1.268
0.11805334 -0.17719117 1.268
0.12097473 -0.17313641 1.266
0.12647276 -0.16585788 1.2654999
0.13384946 -0.16121434 1.2653334
0.13672844 -0.15769029 1.268
0.1411749 -0.15340264 1.268
-0.032236785 -0.14395393 1.268
-0.02667872 -0.1411749 1.268
0.1411749 -0.14562134 1.268
-0.031001661 -0.13475223 1.268
-0.025486456 -0.13508826 1.2640001
-0.030966371 -0.1249771 1.268
-0.024943359 -0.12443318 1.2645
-0.015882861 -0.12189174 1.2640001
-0.022591701 -0.11739794 1.2673334
-0.015125916 -0.11451741 1.2656841
-0.0092342226 -0.11265751 1.2640001
-0.013704833 -0.10679981 1.2675555
-0.0044410182 -0.10544951 1.2661999
0.0011104444 -0.10400774 1.2666668
-0.0022232267 -0.090040676 1.268
0.0022232267 -0.093004979 1.268
-0.0011081067 -0.087540425 1.2640001
0.0011081067 -0.087540425 1.2640001
0.036903284 -0.063537292 1.266
0.044567108 -0.063058354 1.2656666
0.053228568 -0.060994085 1.265
0.12595479 -0.067594506 1.2640001
0.037794851 -0.058915507 1.268
0.044019889 -0.056914598 1.2679999
0.054994464 -0.056661889 1.2673331
0.061138734 -0.051134214 1.268
0.11555383 -0.053546794 1.2664615
0.12245339 -0.055490077 1.266
0.062641092 -0.045829125 1.2662858
0.097720273 -0.043306168 1.2666668
0.10491167 -0.045047808 1.2671109
0.11004972 -0.044464532 1.268
0.067647979 -0.036040641 1.265
0.074866161 -0.031203488 1.2662222
0.08466772 -0.032817643 1.2659999
0.091103785 -0.035180632 1.2673334
0.077812932 -0.027790334 1.268
0.083741538 -0.027049258 1.268
0.090040676 -0.027790334 1.268
-0.07058394 -0.38204959 1.2780001
-0.071504816 -0.37639794 1.2772857
-0.067331798 -0.37423086 1.2729999
-0.07058394 -0.36748463 1.2780001
-0.065597132 -0.36454991 1.2736249
-0.065601118 -0.35520971 1.2754999
-0.087389641 -0.3417159 1.2780001
-0.07058394 -0.3417159 1.2780001
-0.066597961 -0.34474063 1.2767501
-0.093156986 -0.3369903 1.2758571
-0.086489737 -0.33758897 1.273
-0.096347712 -0.32624301 1.273
-0.094934233 -0.28524736 1.2739999
-0.091557205 -0.27467161 1.2736249
-0.091883719 -0.26523522 1.273
0.11271566 -0.18190746 1.273
0.11633087 -0.17464532 1.2748181
0.12164363 -0.17074749 1.273
0.1176399 -0.16917737 1.2780001
0.12543283 -0.16441719 1.2758571
-0.036879029 -0.15085679 1.2746667
0.12884369 -0.15797357 1.2780001
0.13459495 -0.15431942 1.2750589
0.14173158 -0.15065955 1.273
-0.041454058 -0.14527594 1.2780001
-0.036563821 -0.14480324 1.2747858
0.13788137 -0.14683454 1.276125
-0.041454058 -0.13332522 1.2780001
-0.036254052 -0.13478149 1.2751428
-0.035652179 -0.12558375 1.2752222
-0.031494774 -0.11816274 1.2739999
-0.025142068 -0.11434976 1.2746665
-0.018971942 -0.11048367 1.273
-0.014741549 -0.10397378 1.2752726
-0.013432506 -0.097935729 1.27675
-0.0044716583 -0.096115425 1.274875
0.0018599943 -0.096347712 1.273
0.037943885 -0.056915831 1.273
0.046393573 -0.0527707 1.2729999
0.053753838 -0.052079841 1.2729999
0.11717965 -0.050219849 1.273
0.12313163 -0.050963849 1.273
0.047306687 -0.047303766 1.2746667
0.05506859 -0.045563426 1.2754999
0.061500356 -0.042488962 1.2755001
0.11606365 -0.044639867 1.273
0.12246725 -0.04541089 1.2738333
0.065132827 -0.035501931 1.2754999
0.070307791 -0.03013191 1.273
0.09619993 -0.034388229 1.2750589
0.10610984 -0.036361944 1.2763332
0.11405783 -0.037935317 1.2768888
0.12212142 -0.0392133 1.2780001
0.074723765 -0.024381546 1.2744706
0.085262135 -0.02298953 1.2729999
0.093036339 -0.025047859 1.2754999
0.078001268 -0.0175402 1.2771667
0.08495564 -0.016764427 1.2750832
0.090750776 -0.017926078 1.2780001
-0.07353203 -0.37553641 1.2838334
-0.068610564 -0.37004712 1.2830001
-0.072491214 -0.36652103 1.2880001
-0.068744257 -0.3628751 1.2855
-0.068877943 -0.35455203 1.2880001
-0.09310171 -0.34462762 1.2846667
-0.089202583 -0.34664804 1.2880001
-0.071136236 -0.34664804 1.2880001
-0.068744257 -0.34710431 1.2855
-0.097106606 -0.28285125 1.2880001
-0.09706004 -0.27537861 1.2873751
-0.095654853 -0.26728514 1.2880001
-0.0508116 -0.16146797 1.2880001
-0.046295013 -0.16203254 1.2880001
0.11743125 -0.16824286 1.2880001
0.12336356 -0.16419461 1.2857778
-0.0508116 -0.15582223 1.2880001
-0.045351759 -0.15496141 1.2860558
-0.038241953 -0.15521735 1.2830001
0.12866925 -0.15475459 1.2858572
0.13159731 -0.15184306 1.2830001
-0.043981686 -0.14547046 1.2863334
0.12959982 -0.14650196 1.2855
0.13398908 -0.14565529 1.2843637
0.14172018 -0.14284495 1.2830001
-0.042741008 -0.13722113 1.2830001
-0.039366715 -0.13609636 1.2830001
-0.02699432 -0.11135157 1.2830001
-0.022738628 -0.10558432 1.2840002
-0.018395973 -0.10098382 1.2846667
-0.013306397 -0.095828429 1.286
0.054089457 -0.041697334 1.2855
0.057171375 -0.038741797 1.2871667
0.065033756 -0.033449799 1.2863334
0.10389747 -0.032131389 1.2835556
0.11470122 -0.033396229 1.2841113
0.12058418 -0.036060371 1.2855
0.068744257 -0.024788626 1.2855
0.070860088 -0.021370504 1.2830001
0.096918128 -0.023663864 1.2855
0.10587747 -0.026686611 1.2863334
0.11164087 -0.025933847 1.2863334
0.068877943 -0.015808053 1.2880001
0.074531481 -0.013694596 1.2851055
0.085567489 -0.011257496 1.28425
0.091845736 -0.014081459 1.2855
0.076104484 -0.0070007094 1.2880001
0.083839141 -0.0070571667 1.2880001
-0.073679447 -0.36567539 1.293
-0.071495235 -0.35519773 1.2945001
-0.10119626 -0.28312212 1.2970001
-0.098540843 -0.28429598 1.2920001
-0.10080615 -0.27296945 1.2920001
-0.051585041 -0.16666332 1.2932501
-0.048137765 -0.16650003 1.2920001
0.11840216 -0.16379158 1.2945
0.12232656 -0.16196942 1.2920001
-0.052102052 -0.15517351 1.2920001
0.11882033 -0.1552055 1.2970001
0.12431534 -0.15521741 1.2935625
-0.047873363 -0.14497752 1.294
0.12664181 -0.14705585 1.2936667
0.13498913 -0.14225563 1.294
0.14271432 -0.14158167 1.2920001
0.13801517 -0.1391522 1.29575
0.14212959 -0.1398555 1.2970001
-0.01359184 -0.094010226 1.2920001
0.06292472 -0.033442862 1.2932501
0.11802607 -0.031777851 1.2945001
0.1236981 -0.036312848 1.2945001
0.066955857 -0.024962205 1.2945001
0.098540843 -0.021520413 1.2920001
0.10458634 -0.023388989 1.292909
0.11518896 -0.02496659 1.2945
0.0666705 -0.013337167 1.2945
0.095206439 -0.015492015 1.2928333
0.1057444 -0.018571598 1.2970001
0.11211529 -0.017801154 1.2961668
0.068396129 -0.0061338609 1.2960001
0.074110456 -0.003399953 1.2933636
0.085246988 -0.0029880784 1.2933636
0.091922447 -0.0068068784 1.2945001
0.076636277 0.0020466659 1.2970001
0.082357354 0.0017044592 1.29575
-0.079060428 -0.37009448 1.307
-0.075333714 -0.36639583 1.302
-0.093955874 -0.35749066 1.307
-0.072551399 -0.35588872 1.3032501
-0.0741923 -0.34813309 1.302
-0.060727578 -0.17874533 1.307
-0.055536967 -0.17364381 1.3050768
-0.049081061 -0.17349583 1.302
-0.055929579 -0.16778874 1.302
-0.054998562 -0.15010023 1.307
0.11870768 -0.15180886 1.302
0.12213194 -0.15180886 1.302
-0.052608326 -0.14676349 1.3045001
-0.049081061 -0.1426775 1.302
0.1198491 -0.14952601 1.302
0.12505826 -0.14483984 1.3065455
0.13219227 -0.14133532 1.3036667
0.13716117 -0.13716117 1.306
0.14315693 -0.13456559 1.306375
0.14347327 -0.12646116 1.3062859
0.062174957 -0.032422055 1.3053334
0.12358896 -0.031658184 1.3053335
0.064752534 -0.025853073 1.3050001
0.11870768 -0.02396982 1.302
0.12221903 -0.025971545 1.307
0.065144219 -0.017146138 1.3036667
0.098257452 -0.013709094 1.3032501
0.10490143 -0.014430975 1.3041877
0.11466858 -0.014092124 1.3036667
0.067535549 -0.0034363142 1.3057501
0.094942898 -0.0049573556 1.3047779
0.075478368 0.0051484443 1.3045001
0.084924206 0.005304392 1.3042728
0.09051846 0.0022916067 1.307
-0.079665333 -0.37061697 1.317
-0.075854987 -0.36543936 1.3150001
-0.091211028 -0.35907125 1.317
-0.081974469 -0.35214385 1.317
-0.07694491 -0.35538426 1.3155715
-0.078510761 -0.34983471 1.317
-0.060959894 -0.1736782 1.312
-0.054058772 -0.1460737 1.312
0.12399012 -0.14423342 1.312
0.12740351 -0.13846108 1.3140001
0.13399221 -0.13442627 1.3148127
0.14147297 -0.13227147 1.312
0.13766392 -0.1257582 1.3140835
0.14204088 -0.12408217 1.313
0.1420121 -0.11892071 1.317
0.058883071 -0.034637101 1.317
0.061192211 -0.031173389 1.317
0.063380808 -0.025350131 1.3145001
0.12566786 -0.025071898 1.3151251
0.13046642 -0.02655511 1.317
0.063420989 -0.01268712 1.3153334
0.10696736 -0.01035168 1.312
0.11731903 -0.01035168 1.312
0.1217581 -0.014664506 1.3155715
0.065108284 -0.0046095136 1.3145
0.097123265 -0.0019184388 1.3136667
0.10405365 -0.0066283667 1.315125
0.11605021 -0.0062825838 1.3164446
0.12122985 -0.0046182801 1.317
0.06811963 0.00115457 1.317
0.071953505 0.0046040341 1.3132501
0.088564374 0.0080513069 1.312
0.093965411 0.0037474211 1.3151251
0.12238441 0.00115457 1.317
0.07769879 0.011299007 1.3149999
0.084947966 0.012467236 1.3142729
-0.082472414 -0.37170404 1.325
-0.091765076 -0.36473978 1.325
-0.085245661 -0.36414444 1.3248001
-0.078974403 -0.36540145 1.3219999
-0.092716262 -0.35811657 1.322
-0.085762553 -0.35626227 1.3220001
-0.079967782 -0.35695761 1.322
-0.063742436 -0.17500193 1.322
0.12767598 -0.13347952 1.324
0.13096173 -0.13096173 1.322
0.12845154 -0.12845154 1.3280001
0.13350515 -0.12537801 1.32425
0.1375566 -0.11895723 1.3260001
0.14141721 -0.116799 1.3244001
0.055868406 -0.035226218 1.3246667
0.058443509 -0.027242592 1.3280001
0.061943866 -0.024821589 1.3232
0.12922768 -0.022120053 1.3280001
0.13241787 -0.025552204 1.325
0.062246088 -0.016101861 1.3254286
0.12527707 -0.016972266 1.3256
0.062577218 -0.0041511417 1.3254286
0.10535451 -0.0026096173 1.32425
0.11372838 -0.0027841178 1.3238001
0.12521474 -0.0042525637 1.3225002
0.066551082 0.0045251581 1.3266668
0.071575738 0.0073523112 1.324
0.097187556 0.006584059 1.325
0.10398915 0.0016288466 1.3268001
0.11453956 0.0011628983 1.3265001
0.067912444 0.011254062 1.3280001
0.074526303 0.01525729 1.3257501
0.08487238 0.01813806 1.3262002
0.092451073 0.012212405 1.3265001
0.083823361 0.022120053 1.3280001
-0.090319462 -0.37183467 1.3380001
-0.086476147 -0.37161374 1.3330001
0.12753338 -0.12285315 1.3346667
0.13263571 -0.12211835 1.3330001
0.12617913 -0.11578989 1.3380002
0.13445774 -0.11460605 1.3361578
0.14283618 -0.11239348 1.3355
0.12785482 -0.10908714 1.3380001
0.1348927 -0.10908713 1.3380001
0.14310357 -0.10791416 1.3380001
0.043400262 -0.05043814 1.3379999
0.045943152 -0.044451859 1.3375456
0.050833955 -0.04265378 1.3330001
0.045746222 -0.03870834 1.3379999
0.051972933 -0.034594644 1.3344287
0.055014495 -0.025008112 1.3352729
0.13553038 -0.022704089 1.335
0.057933569 -0.015799798 1.3350835
0.12878084 -0.014863508 1.3337144
0.13176475 -0.016030727 1.3379999
0.057834316 -0.0042152768 1.3355001
0.13020077 -0.0070378799 1.3380001
0.058720764 0.0041835788 1.3358573
0.062714688 0.0054534511 1.3330001
0.10569522 0.0055925488 1.3346667
0.11505568 0.0042921598 1.3346667
0.12176418 0.0035123648 1.3355
0.059430987 0.014857747 1.3380002
0.065014891 0.015892059 1.3341765
0.072452992 0.019866142 1.3330001
0.089981943 0.019866142 1.3330001
0.095934071 0.014507693 1.3345001
0.066003546 0.025296906 1.3376429
0.074877575 0.025742823 1.3345625
0.083966389 0.026011847 1.3345386
0.090319462 0.02228662 1.3380001
0.075461715 0.031670459 1.3379999
-0.090656973 -0.37557891 1.3430001
0.12597787 -0.11420425 1.3430001
0.1283326 -0.10714006 1.3430001
0.13451923 -0.10619676 1.3460001
0.14197177 -0.10359833 1.3467501
0.034296077 -0.060313791 1.3490001
0.035404731 -0.054295801 1.3463752
0.042973761 -0.053570032 1.3430001
0.035924293 -0.045205064 1.3468573
0.04167866 -0.044975277 1.3430001
0.037099656 -0.035918087 1.3478
0.044496432 -0.034528457 1.3439233
0.050626624 -0.031788811 1.3430001
0.038080472 -0.027673384 1.3490001
0.045103714 -0.025070772 1.3483688
0.051019084 -0.023939721 1.3430001
0.13657415 -0.020015176 1.3430001
0.14191478 -0.020104596 1.3490001
0.046910722 -0.014585687 1.3490001
0.052849531 -0.013830214 1.3451819
0.13531962 -0.014995633 1.3455715
0.14191478 -0.016556727 1.3490001
0.047699139 -0.0055189091 1.3490001
0.052600879 -0.0051888144 1.3454001
0.048487555 0.0011826233 1.3490001
0.053467829 0.0049936953 1.346231
0.1059627 0.0082415435 1.3430001
0.11551443 0.0082507487 1.3445001
0.12244578 0.0058868164 1.3430001
0.048487555 0.01773935 1.3490001
0.054046672 0.014240516 1.3462003
0.097721159 0.01766045 1.3430001
0.10513906 0.012108739 1.3475001
0.11471447 0.01064361 1.3490001
0.048487555 0.023652466 1.3490001
0.054286797 0.024786431 1.3463004
0.061222892 0.027079357 1.3430001
0.094402097 0.022419875 1.3460001
0.055189092 0.032719247 1.3490001
0.065668777 0.034957703 1.3475885
0.075467847 0.036239579 1.3466924
0.082994618 0.033434901 1.3460001
0.06740953 0.041391816 1.3490001
0.07450527 0.041391816 1.3490001
0.13531876 -0.10208257 1.3540001
0.137089 -0.095103666 1.3576365
0.14151461 -0.095131487 1.3565001
0.13820124 -0.089354247 1.3590001
0.02853857 -0.061838314 1.3565001
0.028500764 -0.054629155 1.3546251
0.028488161 -0.045106255 1.3540001
0.032049179 -0.042732239 1.3540001
0.027331837 -0.035654034 1.3556668
0.03284052 -0.034818862 1.3540001
0.17690665 -0.0337166 1.3573335
0.18228267 -0.032167532 1.3590001
0.027044674 -0.02496632 1.3561876
0.034739729 -0.02397754 1.3540001
0.041545235 -0.020179113 1.3540001
0.14600182 -0.020179113 1.3540001
0.16895062 -0.022948796 1.3540001
0.17478673 -0.024630388 1.3540001
0.18418889 -0.024304356 1.3590001
0.028763561 -0.014466879 1.3590001
0.035779774 -0.014583223 1.3540001
0.042562671 -0.013735362 1.3540001
0.13769278 -0.011870067 1.3540001
0.14583503 -0.013708117 1.3544546
0.15476078 -0.014713433 1.3555385
0.16508399 -0.014249997 1.35475
0.17567699 -0.014244081 1.3540001
0.18492252 -0.015460673 1.3565001
0.02978475 -0.0047655599 1.3590001
0.03581484 -0.0044113868 1.3554287
0.043444443 -0.0042732237 1.3540001
0.13604048 -0.0071275188 1.3552501
0.14534959 -0.0083397301 1.3590001
0.1548807 -0.0083397301 1.3590001
0.16572964 -0.0070091453 1.3578889
0.17478047 -0.0061584245 1.3562728
0.036566511 0.0044906242 1.359
0.044868849 0.0049854275 1.3540001
0.12487021 0.0083243884 1.3565001
0.037230939 0.01310529 1.3590001
0.044899531 0.014018075 1.355
0.10496531 0.016787665 1.3540001
0.11458354 0.014937133 1.3567779
0.12271317 0.012311029 1.3590001
0.037727349 0.024489682 1.3590001
0.044753201 0.025084602 1.355389
0.089025497 0.029675167 1.3540001
0.095226817 0.027376765 1.3577501
0.10415348 0.020830695 1.3577502
0.11079927 0.02025363 1.3590001
0.04511584 0.035619237 1.3543127
0.054127503 0.03727201 1.3540001
0.061328679 0.038379882 1.3540001
0.085292831 0.037299186 1.3550001
0.092531294 0.03296179 1.3590001
0.046851788 0.044952575 1.3565001
0.05460231 0.045106262 1.3540001
0.063759215 0.045614969 1.3540001
0.074781418 0.045614976 1.3540001
0.084161878 0.045057535 1.3575716
0.047992826 0.051961202 1.3573335
0.054823808 0.052977357 1.3562224
0.064651832 0.053284977 1.3573335
0.074339829 0.052224036 1.3582859
0.082205907 0.051229771 1.3590001
0.13522145 -0.096928649 1.365
0.13761474 -0.08735545 1.365
0.14000805 -0.08735545 1.365
0.023534117 -0.071400113 1.3650001
