# .PCD v0.7 - Point Cloud Data file format
VERSION 0.7
FIELDS x y z
SIZE 4 4 4
TYPE F F F
COUNT 1 1 1
WIDTH 1450
HEIGHT 1
VIEWPOINT 0 0 0 1 0 0 0
POINTS 1450
DATA ascii
-0.045023594 -0.1849084 1.0928401
-0.035857081 -0.18409429 1.0956111
-0.092900544 -0.17137554 1.097
-0.086418614 -0.17560403 1.0933158
-0.042044934 -0.1777354 1.09
-0.035019007 -0.17753442 1.0903637
-0.02806473 -0.17727296 1.0945001
-0.10148894 -0.16356421 1.0965716
-0.095154777 -0.16477144 1.094238
-0.087714009 -0.16706285 1.0905001
-0.1027727 -0.15463768 1.0956
-0.095879458 -0.15495452 1.0904001
-0.10247847 -0.14547697 1.0956155
-0.096363641 -0.14418316 1.0910001
-0.017677983 -0.14381278 1.09
-0.10180317 -0.13697404 1.097
-0.096781254 -0.13510421 1.0930001
-0.12309803 -0.12021291 1.097
-0.11251929 -0.12021291 1.097
-0.10372657 -0.12405974 1.097
-0.096190937 -0.12514679 1.0939
-0.1236673 -0.11415953 1.0962106
-0.11470705 -0.11406998 1.0954444
-0.10459695 -0.11419377 1.0946
-0.095013209 -0.1148129 1.0930741
-0.12519784 -0.10434282 1.0946819
-0.11503323 -0.10447647 1.0919311
-0.10474238 -0.10437889 1.0938461
-0.094787903 -0.10474484 1.0938461
-0.08816848 -0.10442221 1.0908
-0.12520434 -0.095273659 1.0947274
-0.11562356 -0.09460111 1.09
-0.10487901 -0.094912581 1.0904286
-0.094740808 -0.094743624 1.0916001
-0.087116383 -0.094353892 1.0902858
-0.12392578 -0.085497968 1.0958
-0.11721619 -0.085682482 1.09
-0.10224563 -0.087912135 1.09
-0.094521485 -0.085204713 1.09
-0.085404947 -0.084822074 1.090348
-0.12265684 -0.075736769 1.0959167
-0.11748634 -0.073584475 1.0925001
-0.091734402 -0.079312034 1.09
-0.084820703 -0.075837545 1.0913914
-0.078356467 -0.074295305 1.09
-0.12021291 -0.067319229 1.097
-0.11357355 -0.065384842 1.0940589
-0.10829755 -0.062748872 1.09
-0.083335474 -0.065229997 1.09
-0.077513322 -0.064697482 1.09
-0.0043574232 -0.061549205 1.0913335
0.0024493092 -0.064406462 1.0929999
-0.11098056 -0.056355815 1.097
-0.10579263 -0.054216463 1.0917648
-0.082786828 -0.053424861 1.09
-0.075822145 -0.054218024 1.09
-0.069119327 -0.051282078 1.09
-0.012251942 -0.053034127 1.092
-0.0053139147 -0.054905273 1.0935909
0.00096082664 -0.056687016 1.0960001
-0.10310543 -0.045602191 1.0931177
-0.095317774 -0.044792183 1.09
-0.084317386 -0.045002639 1.09
-0.074979305 -0.044770118 1.0915715
-0.06704893 -0.044433847 1.09
-0.043476861 -0.043476865 1.0909232
-0.036157358 -0.043295998 1.0910667
-0.023353647 -0.043159049 1.0905715
-0.014729833 -0.045510475 1.094
-0.0059625604 -0.047508143 1.097
-0.093937956 -0.035809331 1.0922501
-0.085045435 -0.03535597 1.09
-0.074656703 -0.035416521 1.0918667
-0.064578936 -0.034984574 1.092
-0.054148775 -0.032170746 1.09
-0.045040838 -0.035463128 1.0932858
-0.035103347 -0.037761275 1.0958462
-0.02436267 -0.03595268 1.0948846
-0.01753925 -0.036277343 1.0962501
-0.091361813 -0.029812803 1.097
-0.084095895 -0.026673924 1.0937059
-0.074744478 -0.025093785 1.0951144
-0.064272575 -0.024938244 1.0941999
-0.054532759 -0.024871619 1.0913334
-0.047434684 -0.025539169 1.0953333
-0.021157473 -0.029812803 1.097
-0.07339149 -0.014879248 1.0967143
-0.064351857 -0.014404722 1.09556
-0.054746255 -0.014405422 1.0956401
-0.04904687 -0.01731066 1.097
-0.061549012 -0.0086553302 1.097
-0.056355815 -0.0082706492 1.097
-0.082564466 -0.22049569 1.108
-0.090820916 -0.21272492 1.108
-0.084361076 -0.21421255 1.1060907
-0.074633263 -0.21245892 1.1056
-0.092051439 -0.20447993 1.1069286
-0.084557235 -0.20567019 1.1026468
-0.074803762 -0.20735925 1.101
-0.066116884 -0.20703754 1.1010001
-0.057912603 -0.20365931 1.1010001
-0.10069627 -0.19200285 1.108
-0.094221495 -0.19483574 1.1056998
-0.086989552 -0.19545504 1.101
-0.055016968 -0.19979846 1.1010001
-0.035498276 -0.19100434 1.101
-0.027410738 -0.19125156 1.1036667
-0.10330714 -0.18446191 1.1060767
-0.095600061 -0.18458641 1.1033331
-0.089378446 -0.18589945 1.1010001
-0.03281714 -0.18821596 1.1010001
-0.025318656 -0.18452044 1.1024398
-0.018361198 -0.18264794 1.1023334
-0.10530687 -0.17496632 1.1036664
-0.096134923 -0.17537865 1.101
-0.02219983 -0.17856385 1.1010001
-0.018338989 -0.17856385 1.1010001
-0.11228149 -0.16515018 1.1064999
-0.10658211 -0.16550823 1.1018888
-0.11317591 -0.15461418 1.1057498
-0.10810353 -0.15539882 1.101
-0.12141833 -0.14181662 1.108
-0.11506534 -0.14423919 1.1061738
-0.10768696 -0.14535061 1.1016666
-0.12141833 -0.13501719 1.108
-0.11528679 -0.13465628 1.1050398
-0.10649484 -0.13480768 1.101
-0.13186295 -0.1238214 1.1071428
-0.12478521 -0.12505338 1.1041818
-0.11523958 -0.12516449 1.1020907
-0.10810351 -0.12644251 1.101
-0.13345878 -0.11472849 1.1048888
-0.12789032 -0.11727302 1.1010001
-0.13498466 -0.10546558 1.1037081
-0.13414873 -0.094822101 1.1037271
-0.1322391 -0.085676275 1.1064167
-0.12837292 -0.084938474 1.101
-0.1311318 -0.076736391 1.108
-0.12685953 -0.07373219 1.1033076
-0.12436841 -0.064977951 1.1044443
-0.11767935 -0.06277021 1.1015713
-0.00096520997 -0.06080823 1.1010001
-0.12215699 -0.056709312 1.1071428
-0.11561912 -0.055272806 1.1038822
-0.00096520997 -0.053086549 1.1010001
-0.13526003 -0.044439107 1.1079999
-0.11211492 -0.048048127 1.10725
-0.10819107 -0.044629723 1.1032858
-0.011904257 -0.042147502 1.1010001
-0.004063467 -0.043940347 1.1040665
0.00097134669 -0.041767906 1.108
-0.10304818 -0.037360124 1.1054444
-0.098351039 -0.033209156 1.1035
-0.041504029 -0.03281714 1.1010001
-0.035521761 -0.032338116 1.1021764
-0.0289563 -0.03281714 1.1010001
-0.012963841 -0.034638021 1.1037499
-0.0065388232 -0.036709711 1.1077999
0.00097134669 -0.039825212 1.108
-0.091999151 -0.02711267 1.1046667
-0.085826352 -0.022662319 1.1027777
-0.043109614 -0.024549063 1.1025999
-0.035971116 -0.025885072 1.1059997
-0.024193373 -0.025348675 1.1038798
-0.015753377 -0.025748855 1.1052103
-0.0087421201 -0.028169053 1.108
-0.081077635 -0.018338989 1.1010001
-0.046032444 -0.014630447 1.1042776
-0.021369627 -0.018455587 1.108
-0.018455587 -0.018455587 1.108
-0.071076795 -0.0059965751 1.1046
-0.065094866 -0.0044969954 1.1039129
-0.054698747 -0.0039599915 1.1023998
-0.048254121 -0.0052027772 1.106909
-0.062610433 0.0014563624 1.10725
-0.055306442 0.0029126375 1.1068
-0.049538679 0.00097134669 1.108
-0.093848042 -0.23184063 1.1190001
-0.087308109 -0.23053265 1.1190001
-0.09473528 -0.22464511 1.1164211
-0.085574716 -0.22498903 1.1140001
-0.07805752 -0.22339922 1.1176667
-0.1025338 -0.21403283 1.117154
-0.09537632 -0.21571988 1.1139047
-0.086761944 -0.21836714 1.1120001
-0.077539407 -0.21856317 1.1140001
-0.11163666 -0.20267253 1.1190001
-0.10446585 -0.20445263 1.1172608
-0.097291902 -0.20531176 1.1128182
-0.11141243 -0.19605784 1.1190001
-0.10541417 -0.19517741 1.1154
-0.098460183 -0.19789523 1.1120001
-0.11120015 -0.18421571 1.1168572
-0.10754561 -0.18678892 1.1131999
-0.11443758 -0.1745851 1.1156669
-0.12066177 -0.16382532 1.1190001
-0.1168988 -0.1653638 1.1137273
-0.12202455 -0.15436918 1.1180001
-0.11800271 -0.15506291 1.1124285
-0.13439563 -0.14145876 1.1190001
-0.12501085 -0.14485373 1.1146924
-0.11990696 -0.14817771 1.1120001
-0.14215881 -0.13268292 1.1183333
-0.13464493 -0.13513337 1.1149582
-0.12621486 -0.13516055 1.1120002
-0.14434963 -0.12390259 1.11725
-0.13659666 -0.12598363 1.1129376
-0.1296555 -0.1296555 1.1120001
-0.14474976 -0.11442832 1.1156
-0.13856845 -0.11740018 1.1120001
-0.14397895 -0.10474223 1.1153126
-0.14277753 -0.09485665 1.1155
-0.13940403 -0.093585923 1.1120001
-0.14291573 -0.086041987 1.1185
-0.13761513 -0.08421322 1.1132859
-0.14196327 -0.074134819 1.1190001
-0.135363 -0.074892595 1.1145883
-0.14289162 -0.066219114 1.1181111
-0.13485338 -0.06547083 1.11465
-0.12926555 -0.063755408 1.1120001
-0.14028157 -0.057878409 1.1190001
-0.13501835 -0.055488411 1.1140952
-0.12694758 -0.055025056 1.1120001
-0.11925706 -0.052317128 1.1120001
-0.13439918 -0.045716103 1.1123532
-0.12483118 -0.045047794 1.1137142
-0.11550251 -0.044139743 1.1142857
-0.13214813 -0.035624344 1.1144
-0.12483391 -0.034521535 1.1164545
-0.11363038 -0.036392886 1.1180001
-0.10576303 -0.03337542 1.114
-0.0031873847 -0.033375107 1.1132668
0.0022224297 -0.033832479 1.1143637
-0.12396055 -0.026752485 1.1184286
-0.10305986 -0.026879089 1.1172223
-0.095385775 -0.02397106 1.1149412
-0.088711649 -0.020471919 1.1120001
-0.033611801 -0.021904951 1.1128184
-0.026321039 -0.020471919 1.1120001
-0.012442202 -0.022198625 1.1131251
-0.0062017734 -0.025012586 1.1174668
0.0026977225 -0.026731979 1.1190001
-0.092213064 -0.01863881 1.1190001
-0.086093932 -0.017607851 1.1160001
-0.041316718 -0.013339359 1.1133333
-0.034771997 -0.015180032 1.1173748
-0.024464553 -0.014673354 1.1161429
-0.014963908 -0.01516379 1.1159999
-0.0088289101 -0.01863881 1.1190001
-0.071164295 -0.0029245599 1.1120001
-0.043398887 -0.005012616 1.1156876
-0.038258608 -0.0088289101 1.1190001
-0.02060079 -0.0088289101 1.1190001
-0.01765782 -0.0088289101 1.1190001
-0.065509453 0.004139957 1.1153078
-0.055650622 0.0078109251 1.1136001
-0.047425795 0.0045030271 1.1162667
-0.054612879 0.012630654 1.1182942
-0.048068509 0.01079089 1.1190001
-0.10206889 -0.23236962 1.126
-0.095813908 -0.23524499 1.1234287
-0.08694724 -0.23469442 1.1235455
-0.079957262 -0.23000051 1.126
-0.10421605 -0.22392067 1.1245002
-0.09943416 -0.22840323 1.123
-0.081713222 -0.22938772 1.123
-0.075871989 -0.22367625 1.1240001
-0.11286148 -0.21157415 1.126
-0.10759377 -0.21529464 1.1236668
-0.074034497 -0.218155 1.126
-0.11548015 -0.20516753 1.1242501
-0.10927913 -0.20871329 1.123
-0.11463293 -0.19543296 1.1240001
-0.11536344 -0.18438041 1.1247144
-0.12236327 -0.17367744 1.125625
-0.11840014 -0.17671391 1.1236001
-0.12381925 -0.16463055 1.1245
-0.12583819 -0.15496768 1.1243334
-0.14208357 -0.1430707 1.1255
-0.13522272 -0.14568892 1.1246154
-0.12798455 -0.14865899 1.123
-0.15103038 -0.13227497 1.126
-0.14569148 -0.13570227 1.1244
-0.1518968 -0.12526646 1.1251001
-0.14816675 -0.12700006 1.123
-0.15156953 -0.11607899 1.1245
0.0062456653 -0.11210258 1.125
-0.15103038 -0.10759681 1.126
-0.14885756 -0.10498565 1.1245
0.0060257195 -0.10772002 1.1250001
-0.14787306 -0.095623724 1.1245
-0.15168846 -0.082589597 1.126
-0.14734772 -0.085254289 1.1242501
-0.15142335 -0.078425944 1.12525
-0.14577058 -0.076445237 1.1243333
-0.12109309 -0.032488391 1.123
-0.1162601 -0.03213039 1.123
-0.12135188 -0.024662914 1.1254001
-0.11539578 -0.024654603 1.1250398
-0.10645171 -0.023284867 1.1243125
-0.098449662 -0.02067443 1.123
-0.0022971588 -0.023299752 1.123
0.0036918623 -0.022151172 1.123
-0.11524703 -0.017521499 1.126
-0.10463542 -0.018755406 1.126
-0.096238412 -0.017735844 1.124
-0.085845828 -0.015364585 1.1255715
-0.079957262 -0.0148069 1.126
-0.031503893 -0.010829464 1.123
-0.027565908 -0.010829464 1.123
-0.012306208 -0.011321712 1.123
-0.005123327 -0.015279951 1.1245
0.002957334 -0.015392919 1.1246154
-0.040364362 -0.00295349 1.123
-0.035695411 -0.0057172687 1.1248001
-0.024318879 -0.0082150968 1.1245
-0.015378399 -0.0067022047 1.1245
-0.0078970138 -0.0088841403 1.126
0.0049356334 -0.0088841403 1.126
-0.063007787 0.0088604698 1.123
-0.042762846 0.0049313297 1.1249092
-0.062679619 0.013236012 1.123
-0.054191239 0.017735932 1.1239002
-0.04699634 0.014351813 1.1246667
-0.053304836 0.020729659 1.126
-0.11298348 -0.24267757 1.138
-0.10385986 -0.24299739 1.1336665
-0.094801255 -0.2436085 1.1327692
-0.085117906 -0.24392343 1.1356667
-0.11289679 -0.23474924 1.1356
-0.10599263 -0.23558731 1.1313332
-0.096091434 -0.23874263 1.13
-0.08299654 -0.23651089 1.1328572
-0.077285878 -0.23226371 1.1332
-0.13069171 -0.22247522 1.138
-0.12464396 -0.22461671 1.1363531
-0.11491561 -0.22558765 1.1346318
-0.10882815 -0.22572289 1.13
-0.073229715 -0.22533722 1.1340002
-0.067507423 -0.22280775 1.138
-0.13109078 -0.21609028 1.138
-0.12473008 -0.2156629 1.1336669
-0.1162552 -0.21577948 1.1309999
-0.1099603 -0.21892996 1.13
-0.071161367 -0.21878386 1.1326667
-0.068091869 -0.21756588 1.1366667
-0.12458082 -0.20567787 1.1347059
-0.11986663 -0.20506111 1.13
-0.12270166 -0.19497591 1.1366668
-0.11760233 -0.19430566 1.13
-0.12486662 -0.18540362 1.1358001
-0.11821557 -0.18590885 1.13
-0.13069171 -0.17359051 1.138
-0.12619552 -0.17598446 1.1318183
-0.14391053 -0.16136935 1.138
-0.133837 -0.16372277 1.1364446
-0.12753688 -0.16619612 1.1306667
-0.15267384 -0.15300463 1.1370001
-0.14399774 -0.15492384 1.1327999
-0.13499637 -0.15484849 1.1322501
-0.12911254 -0.15718049 1.13
-0.16062111 -0.14366111 1.138
-0.15512118 -0.14486031 1.1346318
-0.14623655 -0.14600347 1.1302352
-0.13670741 -0.14958563 1.13
-0.16062111 -0.1346823 1.138
-0.15512408 -0.13550287 1.1321176
-0.14958563 -0.13868867 1.13
-0.16062111 -0.12537093 1.138
-0.15679887 -0.12503895 1.1320001
-0.15597197 -0.11523467 1.1331999
-0.1540499 -0.1046854 1.1336666
0.004447469 -0.10325666 1.133158
0.010954827 -0.10157937 1.136
-0.15450054 -0.094052821 1.1335295
-0.00099764671 -0.097769372 1.138
0.0027435282 -0.09702114 1.138
-0.15510015 -0.086148858 1.1316667
-0.11281192 -0.013679156 1.1308
-0.10522407 -0.014164064 1.1323637
-0.094980486 -0.013280842 1.1330001
-0.08500997 -0.011827792 1.1348889
-0.0029718997 -0.011392283 1.13
0.0042927442 -0.010896967 1.13
-0.1110123 -0.0082844999 1.1340001
-0.10555624 -0.007519728 1.1369091
-0.094028197 -0.0082305856 1.138
-0.084229887 -0.0084087374 1.138
-0.078814089 -0.0079811737 1.138
-0.032262698 -0.0031932096 1.1304445
-0.025146697 -0.0036369977 1.1322222
-0.01396503 -0.0029756764 1.1318462
-0.0047104447 -0.0046206433 1.1339999
0.0037967917 -0.00426256 1.1332941
-0.067693278 0.0082552778 1.13
-0.041276384 0.0082552778 1.13
-0.034945112 0.0048064715 1.1336668
-0.024258925 0.0021053636 1.1371112
-0.014948274 0.0038306643 1.1369475
-0.0062352917 0.0019952934 1.138
0.0049829734 0.0024932399 1.1370001
-0.061823118 0.01818382 1.1313334
-0.042758539 0.015400694 1.1308
-0.036604993 0.014694029 1.13625
-0.061210621 0.02400138 1.1339999
-0.054793257 0.025579879 1.1324762
-0.045214873 0.02419959 1.1341904
-0.038908221 0.02095058 1.138
-0.06064254 0.030818339 1.1340001
-0.054789208 0.030883566 1.1364
-0.048884686 0.030927047 1.138
-0.11583835 -0.2608881 1.149
-0.10173629 -0.26189539 1.149
-0.099721707 -0.26290268 1.149
-0.12281749 -0.25268307 1.1483334
-0.11558487 -0.25547358 1.1475265
-0.10561818 -0.2554982 1.1474001
-0.096029192 -0.25421491 1.1486365
-0.089336716 -0.25194961 1.1450001
-0.1242571 -0.24477611 1.1470002
-0.11646571 -0.24683921 1.1440001
-0.10600939 -0.2488644 1.1435001
-0.095295593 -0.24976742 1.1442001
-0.084209718 -0.2463357 1.1415714
-0.076533221 -0.24215923 1.1450001
-0.13234378 -0.23399241 1.148
-0.12513755 -0.23540029 1.1443046
-0.11849136 -0.236229 1.1430001
-0.072929502 -0.23591284 1.1424546
-0.067350559 -0.23431569 1.1435456
-0.134433 -0.22523245 1.1450002
-0.12503459 -0.22906336 1.141
-0.063954093 -0.22545753 1.141889
-0.059430111 -0.22059651 1.149
-0.14001331 -0.21354547 1.149
-0.135318 -0.21450926 1.1444668
-0.063094743 -0.21667734 1.1457274
-0.057818443 -0.21535861 1.149
-0.14182642 -0.20447986 1.149
-0.13458546 -0.20533741 1.1448003
-0.12881653 -0.20373961 1.1426001
-0.14081915 -0.19682446 1.149
-0.13488929 -0.19579937 1.1459094
-0.12812589 -0.19518861 1.1417999
-0.13399039 -0.185017 1.1470002
-0.15317634 -0.17244872 1.1484287
-0.14412516 -0.17379288 1.1470002
-0.13563754 -0.17503692 1.1450002
-0.16217369 -0.16167004 1.149
-0.15472668 -0.16476609 1.1452224
-0.14566439 -0.16688718 1.1431179
-0.13770476 -0.16771305 1.1409999
-0.16332854 -0.15483189 1.1476667
-0.15690668 -0.15659782 1.1422307
-0.16328208 -0.14621778 1.1450001
-0.16407394 -0.13588667 1.1482
-0.16318098 -0.12691854 1.149
-0.16177078 -0.11543544 1.149
-0.15960155 -0.11342752 1.1450001
-0.16339633 -0.1057649 1.1456156
-0.1589493 -0.10477106 1.1444286
0.013049183 -0.10539725 1.1450001
-0.16423994 -0.095357858 1.1435884
-0.15904398 -0.097026832 1.141
0.0060151857 -0.09358754 1.1444286
0.013159176 -0.094644517 1.1428667
0.0050364505 -0.087451078 1.149
0.015598676 -0.08805985 1.1480001
-0.1031405 -0.0027568974 1.1450001
-0.095517322 -0.0034738174 1.1426473
-0.085296273 -0.0032539675 1.1430002
-0.076903656 -0.0034026939 1.1421999
-0.10254212 0.0026189541 1.149
-0.095651262 0.0048660859 1.1475002
-0.085930407 0.0043634209 1.1480478
-0.075307526 0.0040249964 1.1472502
-0.024737984 0.0070154229 1.1428462
-0.015017475 0.0090088025 1.1418002
-0.0038614662 0.006726413 1.1424285
0.0037840302 0.0067241015 1.1456156
-0.096699841 0.01108019 1.149
-0.031035755 0.016021084 1.1420001
-0.025977954 0.013790946 1.1475884
-0.014788491 0.012920815 1.146143
-0.0055624498 0.013211776 1.1474001
0.0043649231 0.01108019 1.149
-0.042011619 0.029008023 1.141
-0.034464054 0.025579086 1.1451906
-0.053537965 0.035929915 1.1456155
-0.044926841 0.035502747 1.1455219
-0.036637809 0.034629006 1.1478237
-0.052379079 0.041298889 1.149
-0.047342628 0.041298889 1.149
-0.12360474 -0.26240066 1.1556667
-0.11381125 -0.26305398 1.1547143
-0.10500735 -0.26340392 1.1545
-0.13084513 -0.25053293 1.1570001
-0.12640743 -0.25547716 1.1551819
-0.11826321 -0.25775313 1.153
-0.10006887 -0.25775313 1.153
-0.096430004 -0.25856179 1.153
-0.13307744 -0.24377157 1.1555454
-0.12837118 -0.24663439 1.153
-0.14098816 -0.23024686 1.1570001
-0.13652812 -0.2354158 1.1549999
-0.14142065 -0.22377355 1.155
-0.13847914 -0.22641847 1.153
-0.14378455 -0.21486171 1.155
-0.058626205 -0.21934287 1.153
-0.14699055 -0.20571671 1.1549999
-0.14550272 -0.19508414 1.1555262
-0.13847914 -0.19104058 1.153
-0.16228853 -0.18156029 1.1570001
-0.15434314 -0.1832508 1.1569999
-0.1445854 -0.18521585 1.1561302
-0.13847914 -0.18598659 1.153
-0.1634009 -0.17489401 1.1567332
-0.15584019 -0.17647307 1.1537999
-0.14598791 -0.17804463 1.153
-0.17141727 -0.16228853 1.1570001
-0.16582608 -0.16582276 1.1544735
-0.17141728 -0.15721703 1.1570001
-0.16808504 -0.15542729 1.155
-0.16678146 -0.14454392 1.153
-0.17141727 -0.13084513 1.1570001
-0.16812079 -0.13414162 1.1570001
-0.17199685 -0.1244695 1.1570002
-0.16734163 -0.12434728 1.155857
-0.16631061 -0.1158742 1.1548181
0.005926142 -0.08381208 1.1538571
0.01459191 -0.082856499 1.1551175
0.0045525301 -0.078623191 1.1535
0.019205136 -0.079852939 1.153
-0.094004087 0.0090971701 1.153
-0.083896115 0.0085917721 1.153
-0.077253751 0.0082307728 1.153
-0.09326271 0.012503312 1.1563333
-0.084604956 0.012061897 1.1551818
-0.075058445 0.011157337 1.1570001
-0.067877673 0.013849288 1.1556667
-0.023860486 0.017788693 1.1547143
-0.014966549 0.017668242 1.1552222
-0.004246749 0.018005507 1.1537999
0.0031911342 0.01533688 1.1542307
-0.027843079 0.024807768 1.1549999
-0.0057477187 0.02163847 1.1570001
0.0010143033 0.02130037 1.1570001
-0.032372668 0.036674693 1.1539999
-0.029414797 0.033472009 1.1570001
-0.052561425 0.043464255 1.153
-0.044279777 0.043268979 1.1545
-0.03722699 0.0428004 1.1554999
-0.13384193 -0.27198812 1.169
-0.12766458 -0.27064893 1.1650001
-0.11371255 -0.27224272 1.1655715
-0.10928088 -0.27371287 1.1650001
-0.13410014 -0.2651293 1.1676667
-0.12675013 -0.26600114 1.1617274
-0.115624 -0.26765925 1.1620001
-0.10687005 -0.26870182 1.1610001
-0.14142561 -0.25210655 1.169
-0.13529968 -0.25463715 1.1647501
-0.12926187 -0.25954154 1.161
-0.14343698 -0.24382623 1.1658889
-0.13745771 -0.24629161 1.1614445
-0.14396854 -0.23551504 1.1646667
-0.13943997 -0.23918535 1.161
-0.15064903 -0.22033702 1.169
-0.1453189 -0.22527964 1.1627778
-0.15276957 -0.21387196 1.1672858
-0.1483967 -0.21475792 1.161
-0.16158047 -0.20257342 1.169
-0.15486997 -0.2046369 1.1638891
-0.16426016 -0.19525185 1.1677275
-0.15495034 -0.19470382 1.1627998
-0.14961807 -0.19134828 1.161
-0.17209712 -0.18413441 1.1685001
-0.16557454 -0.18518707 1.1622502
-0.15699719 -0.18727705 1.1610001
-0.14961807 -0.18829484 1.161
-0.17370407 -0.17540564 1.1666666
-0.16875289 -0.17485975 1.161
-0.17585166 -0.16512389 1.1645
-0.17476831 -0.15502284 1.1646667
-0.16997427 -0.15165369 1.161
-0.17348655 -0.14440261 1.1682001
-0.16997427 -0.14554682 1.161
-0.17405954 -0.13549373 1.1638
-0.16997427 -0.13842216 1.161
-0.1740455 -0.12824406 1.161
0.0092234099 -0.075836927 1.169
0.015863746 -0.075667918 1.1656315
0.021521291 -0.070712812 1.169
-0.092403643 0.016117167 1.1634001
-0.084673658 0.017345319 1.1636668
-0.074402533 0.016310558 1.1625998
-0.067684367 0.017811675 1.161
-0.02137401 0.01933839 1.161
-0.018320579 0.01933839 1.161
0.0061314069 0.019405017 1.165
-0.085060343 0.021521291 1.169
-0.074271291 0.022407696 1.1676667
-0.067465633 0.022490885 1.1660001
-0.023102123 0.025922833 1.1613078
-0.015308106 0.025521273 1.1642002
-0.0048827101 0.026670462 1.1628947
0.002695431 0.025359018 1.1653636
-0.025547681 0.035774138 1.1658424
-0.015884763 0.031769522 1.169
-0.0049533132 0.033306755 1.1689999
0.0010248233 0.031769522 1.169
-0.045822054 0.046839867 1.1615001
-0.034472723 0.046024278 1.1623335
-0.029719876 0.045092225 1.169
-0.043243989 0.052456882 1.1675
-0.035807978 0.053873952 1.1670872
-0.14262979 -0.27274364 1.1752857
-0.13676789 -0.27333012 1.1730001
-0.12072489 -0.27343673 1.177
-0.14292304 -0.26435918 1.1754616
-0.13882455 -0.2642808 1.1730001
-0.14495043 -0.25560731 1.1750002
-0.15167999 -0.24041794 1.177
-0.14785671 -0.24583325 1.1747143
-0.14951462 -0.23612718 1.1762002
-0.15167999 -0.22494039 1.177
-0.14910784 -0.22726093 1.1730001
-0.16340849 -0.21186273 1.1760001
-0.15728036 -0.21493785 1.1745001
-0.17400517 -0.20327182 1.177
-0.16533209 -0.20569587 1.1736156
-0.17536382 -0.19494766 1.175889
-0.16967446 -0.19743936 1.1730001
-0.18108733 -0.18366693 1.177
-0.17643629 -0.18604104 1.173889
-0.18401086 -0.17386447 1.177
-0.17878249 -0.17613824 1.1730002
-0.18463691 -0.16565517 1.1747144
-0.17995775 -0.16967446 1.1730001
-0.18160325 -0.15890285 1.177
-0.17830552 -0.15356718 1.1756667
-0.17725664 -0.14567287 1.1747779
-0.18057142 -0.13929795 1.177
-0.17790109 -0.13882455 1.1730001
0.014053844 -0.072325878 1.1730001
0.018894797 -0.068366848 1.1756667
0.022331914 -0.067678958 1.1756667
-0.093793102 0.018894797 1.1756667
-0.092125393 0.025095752 1.1763334
-0.085497275 0.026784623 1.1750001
-0.075485177 0.027569197 1.1755002
-0.0669934 0.02783037 1.1756668
0.0064393356 0.026525084 1.1750001
-0.091833465 0.031986937 1.177
-0.087706111 0.031986937 1.177
-0.060878363 0.037146121 1.177
-0.05881469 0.037146121 1.177
-0.02159493 0.037019879 1.1730001
-0.015737545 0.03544927 1.1744288
-0.005409691 0.037324741 1.1745002
0.0038873425 0.034976915 1.176077
-0.024708854 0.044790212 1.1745002
-0.017747592 0.042718038 1.177
-0.0037816481 0.042453308 1.1763334
0.00309551 0.040241629 1.177
-0.045203172 0.055498157 1.1747779
-0.031878229 0.058614809 1.1730001
-0.027998248 0.053424507 1.1756667
-0.041273467 0.061910197 1.177
-0.035552338 0.062090576 1.1755002
-0.15387069 -0.27401751 1.1877693
-0.14738156 -0.27387682 1.1827143
-0.16156529 -0.26997039 1.189
-0.15462182 -0.26578566 1.1867141
-0.14763996 -0.26566911 1.1810001
-0.15264232 -0.25543234 1.1844286
-0.15335013 -0.24657215 1.1845555
-0.15331616 -0.23655856 1.187
-0.16260764 -0.22202197 1.189
-0.15567908 -0.22454302 1.1850001
-0.1803277 -0.2115984 1.189
-0.17487076 -0.21329252 1.1881112
-0.16634041 -0.21653999 1.1853077
-0.15840752 -0.21845745 1.1810001
-0.19075127 -0.20117484 1.189
-0.18430386 -0.205147 1.1887143
-0.17534602 -0.20750746 1.1835002
-0.19207792 -0.19511022 1.189
-0.18501401 -0.19488205 1.1855999
-0.17704371 -0.19775057 1.1810001
-0.1910987 -0.18519203 1.189
-0.18557589 -0.18539982 1.1836668
-0.19149469 -0.17556332 1.1850001
-0.18739714 -0.17645209 1.1810001
-0.18532646 -0.16047822 1.1810001
-0.1835025 -0.15459849 1.1849999
-0.18325675 -0.145841 1.1854445
0.0145176 -0.071559668 1.1830001
0.017667964 -0.066071734 1.1855716
0.022599941 -0.063652836 1.1826001
-0.09661305 0.019738151 1.1850001
0.0093496498 0.019738151 1.1850001
-0.096097134 0.025711536 1.1850001
0.0093338694 0.024886813 1.1830001
0.013229777 0.02630363 1.1867143
-0.10042831 0.030024957 1.1810001
-0.096001841 0.030896712 1.1826
-0.083325706 0.03492552 1.1832223
-0.075537622 0.03512365 1.1837368
-0.066217154 0.035378873 1.1825
-0.012424121 0.038307704 1.1810001
0.008730974 0.035072304 1.1815716
0.013338609 0.034533281 1.1832857
-0.085125796 0.04065191 1.189
-0.075049683 0.041346814 1.189
-0.065560818 0.041625887 1.187
-0.056247283 0.045419399 1.1882001
-0.02174221 0.048661135 1.1810001
-0.014035026 0.045710161 1.1831334
-0.0064628543 0.046372768 1.1834617
0.0046373908 0.043090794 1.1833999
0.013550637 0.041173089 1.189
-0.050903648 0.051946007 1.1850001
-0.048143469 0.057461552 1.1810001
-0.023818562 0.056003556 1.1813077
-0.018235385 0.054149065 1.1857274
-0.0031270699 0.051075477 1.189
-0.044471387 0.065452814 1.1828824
-0.033472214 0.066647753 1.1824117
-0.024968129 0.064507551 1.1867501
-0.019804776 0.062541395 1.189
-0.04065191 0.071922608 1.189
-0.03635975 0.07168065 1.1850001
-0.15583363 -0.27715379 1.1930001
-0.16201875 -0.26533583 1.1937273
-0.15792537 -0.26041996 1.1930001
-0.1605536 -0.258145 1.197
-0.15813717 -0.25448141 1.1946001
-0.15793061 -0.24476096 1.1962001
-0.15596426 -0.23447062 1.194
-0.18363975 -0.22246645 1.197
-0.17453791 -0.22290727 1.1954618
-0.16407047 -0.22577637 1.1948184
-0.15819012 -0.22838219 1.1950001
-0.19203471 -0.21197274 1.197
-0.18578546 -0.21521632 1.1946003
-0.17650105 -0.21801035 1.1936666
-0.20042966 -0.20042966 1.197
-0.19422078 -0.20508012 1.1951817
-0.18877833 -0.206558 1.1930001
-0.20042966 -0.19623218 1.197
-0.19704066 -0.19557646 1.193
-0.19548735 -0.18605778 1.1949999
-0.19348471 -0.17884263 1.1930001
-0.18846457 -0.15332356 1.1930001
-0.1882554 -0.1485126 1.1930001
0.0094443299 -0.07240653 1.197
0.012227454 -0.070929058 1.1956667
0.016062871 -0.064601861 1.1950001
0.01888866 -0.058764718 1.197
0.023191964 -0.057003498 1.1947143
-0.1370081 -0.030330036 1.1930001
-0.13491637 -0.02823831 1.1930001
-0.12627418 -0.013816704 1.1970001
-0.11018385 0.0083949603 1.197
-0.10756043 0.0078702746 1.197
-0.11018385 0.019938029 1.197
-0.1050848 0.01595833 1.1967897
-0.099357016 0.017779676 1.1930001
0.01469118 0.019938029 1.197
-0.1109483 0.025375819 1.1962001
-0.10508063 0.025328392 1.1951177
-0.099357016 0.024054855 1.1930001
0.016122075 0.024079053 1.1942
-0.11018385 0.030431731 1.197
-0.10563219 0.030330038 1.1930001
-0.084714927 0.038696945 1.1930001
-0.083799802 0.044841386 1.1930001
-0.074407399 0.046591073 1.1934707
-0.064897589 0.047105055 1.1939999
-0.058095384 0.048673846 1.194
0.0062883301 0.04718395 1.1960001
0.013107481 0.044562284 1.1960001
-0.072583616 0.053013302 1.1961112
-0.067159683 0.054567244 1.197
-0.055138655 0.054435335 1.1956669
-0.013966468 0.055872891 1.1950001
-0.0052419403 0.054742284 1.1962001
-0.017572198 0.065057918 1.1947778
-0.042252701 0.074732907 1.1950001
-0.034196757 0.075977966 1.1948826
-0.025375795 0.07391908 1.1950002
-0.019216241 0.070929058 1.1956667
-0.03672795 0.081326172 1.197
-0.16493255 -0.26325774 1.2060001
-0.16228677 -0.25486919 1.2046667
-0.16162665 -0.2450783 1.205
-0.15911674 -0.24130951 1.202
-0.1955931 -0.23153993 1.2060001
-0.17368044 -0.23252784 1.2048572
-0.16454609 -0.23423056 1.2042857
-0.15911674 -0.23604074 1.202
-0.20398299 -0.22416036 1.2042222
-0.19512497 -0.22437111 1.2043998
-0.1854967 -0.22601625 1.2036
-0.17567383 -0.22839515 1.2028
-0.16860053 -0.22866447 1.202
-0.20388855 -0.21527439 1.2060002
-0.19698244 -0.21527648 1.2041335
-0.20277065 -0.20558651 1.2046667
-0.19845688 -0.2075894 1.202
-0.20265904 -0.19738325 1.204
-0.19867779 -0.18461138 1.2033334
0.0095153395 -0.068721898 1.2060001
0.013456395 -0.063593842 1.2040001
0.016889859 -0.056995608 1.204
0.021437421 -0.053067561 1.2026668
0.023767017 -0.047359869 1.2050002
-0.14257464 -0.030626642 1.2046667
-0.14167285 -0.025374241 1.2060002
-0.13582267 -0.023189234 1.2060001
-0.12961166 -0.020021314 1.202
-0.13415247 -0.01546201 1.2049092
-0.12961166 -0.017913807 1.202
-0.1321575 -0.0059911399 1.2060002
-0.12528291 -0.0056400155 1.203565
-0.11762017 -0.0031717799 1.2060002
-0.13131168 0.0035946842 1.2060001
-0.12249112 0.0040780026 1.2060002
-0.11525334 0.0049793827 1.2050475
-0.11300409 0.014785276 1.2046667
-0.11477847 0.021566752 1.2042857
0.0065444917 0.049170829 1.2036
0.012306646 0.048176337 1.2033334
-0.062873952 0.054912258 1.202
-0.055848926 0.057956435 1.202
-0.011591286 0.057956435 1.202
-0.0084300265 0.057956435 1.202
0.0034900778 0.054593265 1.2029231
-0.067440212 0.06006394 1.202
-0.049691219 0.066607378 1.2060001
-0.013188135 0.064625233 1.2035002
-0.0048066657 0.06306234 1.2033333
0.0026422734 0.062327489 1.205
-0.044293582 0.076989748 1.2030001
-0.021285817 0.077767 1.202
-0.017042652 0.07465969 1.2042857
-0.041693389 0.08285816 1.204
-0.033842489 0.085067406 1.2038667
-0.024952425 0.084535487 1.2045262
-0.17324336 -0.27142242 1.2173334
-0.16866189 -0.2704955 1.21
-0.17196298 -0.26575378 1.2158335
-0.16849416 -0.26406485 1.2113334
-0.1674881 -0.25495067 1.2146428
-0.16632669 -0.24460268 1.2126365
-0.2004849 -0.23018636 1.21
-0.19463803 -0.2345712 1.2122858
-0.18563417 -0.23139867 1.21
-0.17238598 -0.23681396 1.2113334
-0.16795473 -0.23796533 1.21
-0.20154566 -0.22806484 1.21
-0.21109256 -0.21639639 1.21
-0.20783627 -0.21377937 1.2108001
-0.2117904 -0.20966184 1.2140001
-0.20659818 -0.2073077 1.2126669
-0.20492382 -0.19553962 1.2162001
-0.20408158 -0.18594714 1.2166667
0.0076656612 -0.064528182 1.2147
0.01168772 -0.061624408 1.2120001
0.014904722 -0.054665063 1.2147499
0.017683068 -0.047083311 1.2152002
0.022587646 -0.042786483 1.2126251
0.025473498 -0.036842499 1.2163334
-0.15006255 -0.023414012 1.2140001
-0.14580049 -0.023711205 1.2110001
-0.15068059 -0.018167162 1.2190001
-0.14436701 -0.014905776 1.2146428
-0.13811181 -0.013365659 1.21
-0.14383601 -0.0067463876 1.2153333
-0.1368573 -0.0047402531 1.2114002
-0.12835276 -0.0010607666 1.21
-0.11562356 -0.0031823001 1.21
-0.13430007 0.0015920266 1.2110001
-0.1264597 0.0059598493 1.2106154
-0.11880587 0.0053038332 1.21
-0.12517047 0.011668433 1.21
-0.11880587 0.014850734 1.21
-0.0604637 0.058342166 1.21
-0.058342166 0.058342166 1.21
0.0086501958 0.055696137 1.2117144
-0.062855326 0.063054413 1.2115455
-0.055236448 0.064621732 1.2130002
-0.049856033 0.068949834 1.21
-0.011668433 0.067889065 1.21
-0.0065241531 0.068105735 1.2111429
0.0065803626 0.065962866 1.2147059
-0.051852547 0.073190615 1.217
-0.047813401 0.074730568 1.2120001
-0.013404672 0.075344332 1.2139
-0.0053300452 0.074545696 1.2147001
0.0041178912 0.073890164 1.2165
-0.045125984 0.084919803 1.2139
-0.036066066 0.08804363 1.21
-0.020154567 0.086982861 1.21
-0.015622419 0.083818614 1.2154167
-0.0029388061 0.082019396 1.219
0.0021338065 0.084287122 1.217
-0.042004608 0.091985121 1.2130002
-0.035092015 0.094640702 1.212913
-0.024457056 0.094653271 1.213087
-0.018167162 0.091904476 1.2190001
-0.033878893 0.10270204 1.2171249
-0.025622556 0.10141828 1.2177501
-0.18340173 -0.26622832 1.2270001
-0.17707446 -0.26471263 1.2251333
-0.17446227 -0.25588864 1.2254002
-0.19191724 -0.24123675 1.223
-0.17182842 -0.24699733 1.2250001
-0.19191724 -0.23802026 1.223
-0.18905813 -0.23766287 1.223
-0.21466029 -0.21537626 1.2263335
-0.21190698 -0.19039358 1.2270001
-0.20813958 -0.19464292 1.2247144
-0.20853576 -0.18816467 1.223
0.0064329798 -0.061113309 1.223
0.0066633099 -0.056111872 1.2262001
0.012339522 -0.052041128 1.2240001
0.015040678 -0.045847323 1.2256669
0.01828639 -0.039799791 1.2270001
0.02389333 -0.034633376 1.2250001
0.027967419 -0.02904309 1.2270001
0.031143583 -0.027920078 1.2250001
-0.15117502 -0.013938123 1.223
-0.1490307 -0.015010287 1.223
-0.14474204 -0.0021443267 1.223
-0.061113309 0.069690615 1.223
-0.057896823 0.069690615 1.223
-0.06131319 0.072069891 1.2270001
-0.055219304 0.075413853 1.2254001
0.0079389177 0.076603658 1.2238001
-0.050391678 0.080412246 1.223
-0.048405148 0.084977932 1.2270001
-0.012896644 0.085984342 1.2260001
-0.0061361655 0.085435316 1.2247143
0.006449637 0.083296917 1.2260002
0.01290804 0.084977932 1.2270001
-0.044389144 0.094863802 1.2250001
-0.039670043 0.099711187 1.223
-0.020371104 0.099711187 1.223
-0.017197572 0.094584443 1.2260002
-0.00107567 0.091431953 1.2270001
0.00107567 0.091431953 1.2270001
-0.042668242 0.10075442 1.2270001
-0.036363985 0.10658558 1.2260002
-0.025997549 0.10549474 1.2254
-0.041951131 0.11186968 1.2270001
-0.035984669 0.11258658 1.2266924
-0.02904309 0.11079401 1.2270001
-0.18368402 -0.26255858 1.2325002
-0.18148167 -0.25796911 1.2346667
-0.1775592 -0.2544288 1.2350001
-0.17388858 -0.24949232 1.2320001
0.0058343923 -0.051227491 1.2328001
0.0073777079 -0.046339963 1.2345456
0.013245994 -0.042711638 1.2335001
0.016469253 -0.036425307 1.2342223
0.021830404 -0.032637954 1.2328001
0.026156224 -0.025976218 1.2346667
0.031355444 -0.022703329 1.2333335
-0.058024812 0.077489153 1.2333335
0.0097204801 0.078843892 1.2320001
0.012972037 0.077827841 1.233
-0.051926717 0.083300866 1.2340001
-0.048681296 0.088709906 1.2340001
-0.012960641 0.089644425 1.2320001
-0.0082804086 0.088924386 1.2320001
0.0079636406 0.086044364 1.2338184
0.011906303 0.084061809 1.2346667
-0.047601245 0.09519548 1.2340001
-0.014060231 0.094715573 1.2337143
-0.0051042042 0.092946209 1.2348573
0.0061401739 0.092824973 1.2360001
-0.044692468 0.10577977 1.2333335
-0.022699529 0.10755385 1.233
-0.018420519 0.10185464 1.2360001
-0.045149926 0.1149836 1.234182
-0.03564176 0.11794182 1.2320002
-0.026807688 0.11385095 1.2342224
-0.041536465 0.1217199 1.2360001
-0.034673922 0.12135872 1.2360001
-0.18767022 -0.26165038 1.2410001
-0.19144033 -0.25561756 1.245
-0.18467334 -0.25583586 1.245
-0.17733476 -0.25131491 1.2410001
-0.17790635 -0.24775915 1.245
0.0097914897 -0.040253904 1.2410001
0.0098230503 -0.0371093 1.245
0.013897138 -0.033521321 1.2435
0.0174632 -0.029469149 1.245
0.024214059 -0.024214059 1.2442
0.029469149 -0.01855465 1.245
0.033333145 -0.017645722 1.2426001
-0.05348105 0.085133098 1.245
0.017044445 0.082321048 1.2410001
-0.011967377 0.099002846 1.2410001
-0.0056493198 0.097819977 1.2435454
0.0027233651 0.096440792 1.243
-0.049115248 0.10368775 1.245
-0.016344281 0.10606322 1.243
-0.0054572504 0.10150485 1.245
0.00109145 0.10150485 1.245
-0.022155998 0.11732518 1.243
-0.017827017 0.11241934 1.245
-0.040383648 0.12660819 1.245
-0.034578685 0.12672319 1.2431818
-0.02671773 0.1229628 1.244
-0.19143769 -0.25194961 1.2550001
-0.18579794 -0.2536113 1.2513636
-0.19133899 -0.24814525 1.2558
-0.18504819 -0.24665438 1.2549335
0.015874302 -0.025456393 1.255
0.02233615 -0.022336153 1.2531667
0.025970172 -0.015990334 1.2546923
0.026857266 -0.0091976942 1.2590001
-0.055577509 0.085881777 1.2528
0.018703682 0.084716685 1.2550001
-0.052982353 0.093541957 1.2552859
-0.049312498 0.098625004 1.25
0.0068643005 0.097448073 1.2525001
-0.051765125 0.1024312 1.2563335
-0.049430847 0.10582564 1.253
-0.012807224 0.10613161 1.2523333
-0.0054959212 0.10584202 1.2532226
0.0060194023 0.10506988 1.2528098
-0.049667548 0.11147606 1.2590001
-0.015947005 0.11494875 1.25475
-0.0028689795 0.1122882 1.2582
0.0052537601 0.11444539 1.2573531
-0.045139786 0.12604932 1.2557501
-0.023948343 0.12635511 1.2533
-0.01800761 0.12238354 1.2576667
-0.042626914 0.1325897 1.2558572
-0.035187643 0.13462792 1.2542858
-0.028263003 0.13251795 1.2561668
0.012940769 -0.021814972 1.2653333
0.016466429 -0.016094724 1.2663332
0.021826079 -0.013316565 1.266
0.02553254 -0.0061827539 1.2662858
0.030013559 -0.0033348401 1.268
-0.061090518 0.084418617 1.2670001
-0.057990912 0.087540425 1.2640001
-0.056904871 0.095206439 1.2665
-0.054641269 0.10496116 1.2662222
0.012227747 0.10560326 1.268
-0.052218359 0.11443714 1.2673334
-0.049864799 0.11856741 1.2640001
-0.012762513 0.11598124 1.266
-0.0052294419 0.11492598 1.2657143
0.005540533 0.1163512 1.2640001
0.010004519 0.1167194 1.268
-0.051928222 0.1249771 1.268
-0.04897831 0.12610254 1.2640001
-0.021054026 0.12964848 1.2640001
-0.016207112 0.12411988 1.2664001
0.0055580665 0.12116585 1.268
-0.053774297 0.13394943 1.2679999
-0.045890696 0.13611934 1.2644
-0.025294285 0.13580337 1.2656
-0.018897427 0.13005877 1.268
-0.050022598 0.1411749 1.268
-0.045313928 0.14285459 1.2675555
-0.035016295 0.14299294 1.2661818
-0.027445678 0.14263467 1.2668571
0.014879956 -0.012275964 1.2729999
0.017530704 -0.0063385926 1.2763333
0.023457846 -0.0036291806 1.2742499
0.03013191 -0.0011159966 1.273
0.027113196 0.002912988 1.2780001
0.030250261 0.00448152 1.2780001
-0.071984418 0.075905748 1.278
-0.066509835 0.076083988 1.278
-0.066060774 0.085094094 1.2771666
-0.063241199 0.094581157 1.27675
-0.059147824 0.098207712 1.273
0.014507957 0.094859719 1.273
-0.062367816 0.10344842 1.2780001
-0.058794349 0.10574161 1.275
-0.061620899 0.11539914 1.2780001
-0.057158228 0.11542775 1.2747858
-0.011169828 0.1184129 1.27425
-0.0060325186 0.11861265 1.2739999
0.01232418 0.11539914 1.2780001
-0.063316196 0.12528442 1.2759999
-0.057139859 0.12473071 1.2734544
-0.013644089 0.12550676 1.276
-0.0056018997 0.12212142 1.2780001
0.0011159966 0.12164363 1.273
-0.063531376 0.13451332 1.2750832
-0.057553541 0.13726759 1.2729999
-0.021947935 0.13726759 1.273
-0.017888822 0.13194403 1.2755001
-0.062865764 0.14502695 1.278
-0.054978076 0.14540827 1.274316
-0.043523867 0.14715214 1.2729999
-0.035711892 0.14768356 1.2729999
-0.022361575 0.14200772 1.2755001
-0.052159917 0.15374105 1.278
-0.044803414 0.15457544 1.2776874
-0.036270328 0.15403685 1.2758571
-0.044815201 0.16021433 1.2780001
-0.03633232 0.16149476 1.278
0.016457489 -0.0029322745 1.286
0.021370504 -0.0011247633 1.2830001
0.01863092 0.00338744 1.2880001
0.023880925 0.0049586021 1.2850001
0.026422033 0.011065638 1.2880001
-0.091460876 0.055328187 1.2880001
-0.085626952 0.057398289 1.2880001
-0.084934965 0.065151714 1.2864616
-0.076618209 0.065809965 1.284
-0.084393427 0.07454703 1.2866365
-0.076814711 0.074962169 1.2830002
-0.068610564 0.070860088 1.2830001
-0.082239509 0.08487419 1.2880001
-0.074291088 0.085545301 1.2839377
-0.08129856 0.09484832 1.2880001
-0.074383423 0.094664223 1.2855002
-0.067860723 0.095229961 1.2830001
0.015604792 0.095391221 1.2844286
-0.082427703 0.10049405 1.2880001
-0.074930534 0.10455885 1.286182
-0.066078931 0.10538059 1.2833334
0.013986954 0.10421084 1.2865001
-0.072942875 0.11472131 1.2880001
-0.066383325 0.11476349 1.2834167
0.012372397 0.11472586 1.2830001
-0.073766187 0.12594813 1.2870626
-0.067360826 0.12409888 1.2830001
-0.01126882 0.12734884 1.2855
-0.0050186776 0.12609719 1.2852728
0.0018760666 0.12576367 1.2846667
-0.073513687 0.1349908 1.2867501
-0.067710757 0.13519654 1.2830001
-0.01605637 0.13495231 1.2855
-0.073754147 0.14441757 1.2863334
-0.067485809 0.14509447 1.2830001
-0.030368609 0.14959352 1.2830001
-0.028119083 0.14734399 1.2830001
-0.072942868 0.15401563 1.2880001
-0.065413527 0.1556346 1.2864376
-0.057383254 0.15598929 1.2834547
-0.031950116 0.15599553 1.2863334
-0.028228667 0.15017651 1.2880001
-0.072942875 0.16485544 1.2880001
-0.065490507 0.16485542 1.2880001
-0.055244904 0.16460252 1.2860003
-0.045048971 0.16555791 1.2846667
-0.036492627 0.16575111 1.2837144
-0.071700811 0.17219487 1.2880001
-0.065490507 0.17050114 1.2880001
-0.055892758 0.17050114 1.2880001
-0.04403672 0.17106572 1.2880001
-0.038767368 0.17125392 1.2880001
0.014724493 -0.0011326533 1.2920001
0.016154556 0.005103515 1.29325
0.021520413 0.0079285735 1.2920001
0.016823314 0.012698198 1.2951818
0.023625435 0.015313468 1.2936666
0.022740733 0.021603696 1.2970001
-0.094255693 0.056398302 1.2953334
-0.093537122 0.065767244 1.2958889
-0.08947961 0.065127566 1.2920001
-0.10119626 0.07845553 1.2970001
-0.095186219 0.075531729 1.2970001
-0.089026555 0.07452859 1.2920001
-0.10347033 0.086502247 1.2970001
-0.096221723 0.084709235 1.2970002
-0.087645978 0.085375406 1.295
-0.10271231 0.093616016 1.2970001
-0.095283672 0.09528368 1.2970002
-0.08738599 0.095327713 1.2945
0.019255107 0.096275531 1.2920001
0.022333959 0.098037057 1.2953334
-0.093464412 0.10256071 1.2970001
-0.08524479 0.10553068 1.293
0.018248303 0.10584017 1.2919999
0.02477275 0.10522428 1.2935789
0.032974064 0.10483478 1.2970001
0.042070355 0.10574441 1.2970001
-0.085053802 0.11525252 1.2952502
-0.077397972 0.11628574 1.2919999
0.016465662 0.11410835 1.295125
0.024297517 0.11239304 1.295
0.032405548 0.11086107 1.2970001
-0.092099972 0.12507403 1.2970001
-0.085085765 0.12478473 1.294
-0.077586748 0.12289289 1.2920001
-0.0011326533 0.12798983 1.2920001
0.00339796 0.12798983 1.2920001
-0.092478983 0.13568638 1.2970001
-0.085123815 0.13506015 1.2946002
-0.077586755 0.13705106 1.2920001
-0.012096248 0.13609521 1.2936667
-0.0045393799 0.13277905 1.2945
0.0011326533 0.13025513 1.2920001
-0.092099972 0.14212959 1.2970001
-0.083749168 0.14493348 1.2959286
-0.078153081 0.14724493 1.2920001
-0.019255107 0.14158167 1.2920001
-0.082680516 0.15371135 1.296375
-0.076894574 0.15643202 1.2919999
-0.030640814 0.1566108 1.2945001
-0.028425917 0.15349995 1.2970001
-0.081923813 0.16548613 1.2958889
-0.077397972 0.16536739 1.2919999
-0.081704207 0.17461634 1.2970001
-0.075773872 0.17516625 1.29325
-0.064955615 0.17559545 1.2934285
-0.054335017 0.17435303 1.2942222
-0.04589602 0.17423038 1.292625
-0.073907383 0.18078883 1.2970001
0.014015508 0.017549112 1.3029091
-0.11114293 0.03781151 1.307
-0.11114293 0.040103115 1.307
-0.1054139 0.046405032 1.307
-0.1034609 0.055355657 1.3064446
-0.097226717 0.055284061 1.3047777
-0.11267066 0.068366259 1.307
-0.10511341 0.065120324 1.3032501
-0.097435765 0.064230815 1.302
-0.11329208 0.075524397 1.3053335
-0.10523891 0.075105429 1.302
-0.098162115 0.071909457 1.302
-0.12030935 0.083643645 1.307
-0.11439268 0.084647812 1.3048126
-0.10713042 0.083323658 1.302
-0.09199845 0.086519644 1.302
-0.11265334 0.093932517 1.3051819
-0.10627611 0.097134225 1.3035001
-0.095879279 0.094737858 1.302
0.054998562 0.098539084 1.307
0.065215975 0.096290201 1.3051577
0.072185613 0.095101677 1.307
-0.11114293 0.1019765 1.307
-0.10502753 0.10517738 1.3049999
-0.096813172 0.10594452 1.302
0.03619932 0.1051737 1.302
0.046730716 0.10565996 1.3053334
0.054961029 0.10533637 1.3060623
0.063508227 0.10473624 1.3062308
-0.11114293 0.11801774 1.307
-0.10509697 0.11478713 1.3055294
-0.09536045 0.1153872 1.302
0.017121298 0.11893597 1.302
0.025459606 0.11670373 1.3051251
0.035632558 0.11507947 1.3052143
0.045039725 0.11431801 1.3025556
0.054555971 0.11383879 1.304143
0.061491448 0.1119068 1.307
-0.11280955 0.1259342 1.307
-0.1054917 0.1250062 1.3056841
-0.097020693 0.1255562 1.302
0.0057290168 0.12832996 1.307
0.014895442 0.12305927 1.307
0.024061872 0.12107322 1.307
0.036029149 0.12387407 1.307
0.043973643 0.12390293 1.3062499
0.051561151 0.12145516 1.307
-0.11343452 0.13520479 1.307
-0.10526652 0.13500974 1.305125
-0.097228236 0.13437626 1.302
-0.0038193443 0.13787834 1.307
0.0020615694 0.13487306 1.306
0.028645083 0.13405898 1.307
0.034337938 0.13164136 1.30575
-0.11297621 0.14391288 1.307
-0.10526542 0.14416631 1.305125
-0.095390104 0.1456126 1.302
-0.087889336 0.14724319 1.302
-0.0228284 0.1483846 1.302
-0.015443872 0.14414366 1.3049167
-0.0045832135 0.14093381 1.307
-0.11251788 0.15445428 1.307
-0.10541391 0.15468344 1.3069998
-0.094924144 0.15553208 1.3044999
-0.08589185 0.15608919 1.302
-0.025853077 0.15398844 1.3050001
-0.019478656 0.15010023 1.307
-0.10472642 0.16362071 1.307
-0.09497916 0.16477451 1.3052499
-0.086113788 0.16373034 1.302
-0.030818339 0.16094021 1.302
-0.1019765 0.1718705 1.307
-0.095060118 0.17522846 1.3063997
-0.086436622 0.17505231 1.302
-0.060495261 0.17920294 1.302
-0.054788157 0.17920294 1.302
-0.046798218 0.17920296 1.302
-0.093851708 0.18447433 1.307
-0.084709443 0.18430007 1.3057501
-0.076299913 0.18460725 1.3038751
-0.066073164 0.18278071 1.3051251
-0.054998562 0.18218273 1.307
-0.11318164 0.045504358 1.315889
-0.10869265 0.047732748 1.312
-0.11379808 0.055858832 1.3165001
-0.10828185 0.054716021 1.3120002
-0.12122985 0.06811963 1.317
-0.11532526 0.064207144 1.3142729
-0.12254935 0.077026315 1.317
-0.11846922 0.074762136 1.312
-0.123129 0.08494471 1.3153335
0.05865952 0.088564374 1.312
0.063260265 0.087989286 1.312
-0.1236547 0.094231427 1.3161668
-0.11770243 0.095082097 1.3120002
0.057509333 0.093165122 1.3120002
0.06383536 0.091439843 1.312
0.072461762 0.095465496 1.312
-0.12122985 0.10275673 1.317
-0.11567358 0.10529705 1.3150556
-0.10926773 0.10696736 1.312
-0.12296171 0.11834343 1.317
-0.11554501 0.11507968 1.3153335
0.026454292 0.11846922 1.312
-0.12414554 0.12515031 1.31575
-0.11724141 0.1241435 1.3125558
0.0080513069 0.1288209 1.312
0.015488946 0.12686457 1.3142223
0.026303142 0.12557161 1.3140836
0.033146288 0.12620686 1.3120002
-0.12339738 0.13510317 1.3154616
-0.11846922 0.13572203 1.312
0.005761344 0.13591544 1.3138751
0.014143482 0.13133234 1.317
0.024520915 0.13328981 1.316375
-0.12303112 0.14588286 1.3165001
-0.11770243 0.14569031 1.3120002
-0.011279719 0.14664687 1.3130001
-0.0049899872 0.14511053 1.3136669
0.0036481023 0.14472495 1.3136668
-0.12292329 0.15480062 1.3145002
-0.117089 0.15550524 1.3120002
-0.023904195 0.15644345 1.3162857
-0.01623762 0.15431276 1.3158462
-0.12326985 0.16480735 1.3161668
-0.11504688 0.16566716 1.3123126
-0.10696735 0.16792725 1.3120002
-0.031173389 0.16510351 1.317
-0.02655511 0.16163979 1.317
-0.12307715 0.17341641 1.317
-0.11496747 0.17486425 1.3140002
-0.10631011 0.17515698 1.3120002
-0.11353272 0.18280691 1.317
-0.10505905 0.18416822 1.3134707
-0.095005415 0.18794051 1.312
-0.085113816 0.1897808 1.312
-0.074762136 0.18863061 1.312
-0.064228639 0.18670318 1.3130001
-0.055899072 0.18425991 1.312
-0.04830784 0.18287967 1.312
-0.10217945 0.19108135 1.317
-0.085438177 0.19281319 1.317
-0.07273791 0.19050403 1.317
-0.06811963 0.19050404 1.317
-0.11732342 0.037169788 1.325
-0.12457082 0.046402216 1.3280001
-0.11826742 0.045217596 1.3226001
-0.13259096 0.054200593 1.3280001
-0.12554017 0.054628871 1.3259001
-0.11859956 0.054857124 1.322
-0.13272032 0.06519594 1.3280001
-0.12559195 0.064766034 1.3240001
-0.11937219 0.062583484 1.322
-0.14086981 0.078002296 1.3280001
-0.13306713 0.075835176 1.3268001
-0.12632592 0.074262172 1.3220003
-0.14125788 0.085375644 1.3280001
-0.13504377 0.085109197 1.3261052
-0.12787117 0.086535186 1.322
0.067912444 0.088092141 1.3280001
0.071017012 0.089644425 1.3280001
-0.1426101 0.096322492 1.3273335
-0.13471046 0.09522254 1.324625
-0.12806433 0.096193127 1.322
0.068378247 0.091557309 1.322
0.071017012 0.09197285 1.3280001
-0.15018351 0.10827184 1.3280001
-0.14416158 0.10462829 1.3261251
-0.13471048 0.10451192 1.324625
-0.12596932 0.10457323 1.3220003
-0.15018351 0.11642133 1.3280001
-0.14394295 0.1149202 1.3241001
-0.13456377 0.11483945 1.3232003
-0.12560157 0.11372226 1.3220003
-0.15018351 0.12922768 1.3280001
-0.1439594 0.12537867 1.3242501
-0.1344386 0.12516698 1.3220003
-0.12864383 0.1216901 1.322
0.02433802 0.12864383 1.322
-0.14391831 0.13462828 1.3238752
-0.13447773 0.13447773 1.3223753
-0.12818024 0.13513395 1.322
0.0081126736 0.13791545 1.322
0.015645871 0.13617703 1.3220001
0.02433802 0.13327964 1.322
-0.14247964 0.14463273 1.3228575
-0.13441975 0.14479762 1.323579
-0.12798156 0.14453803 1.3219999
-0.0023179066 0.14950497 1.322
0.0081126736 0.14139231 1.322
0.013178638 0.14143205 1.3260001
-0.14253657 0.15417212 1.3272501
-0.13457675 0.15502551 1.3256001
-0.12818024 0.15553154 1.322
-0.011614956 0.15681726 1.325
-0.0049838498 0.15535799 1.3267144
0.0011642133 0.15251194 1.3280001
-0.14086981 0.16182566 1.3280001
-0.13396682 0.1647065 1.3252308
-0.12818024 0.16526675 1.322
-0.031291738 0.16804823 1.322
-0.024973607 0.16533642 1.3249999
-0.016791357 0.16360818 1.3252729
-0.13347338 0.17369835 1.3262
-0.12595756 0.17549656 1.3225456
-0.11937219 0.17963776 1.322
-0.061424527 0.1889094 1.322
-0.049834993 0.18659149 1.322
-0.13098276 0.037926357 1.3379999
-0.12496445 0.037097614 1.3363334
-0.14327112 0.045746218 1.3380002
-0.13433027 0.045271467 1.3366365
-0.12691109 0.042984281 1.3342501
-0.14526431 0.055253536 1.3379998
-0.13781279 0.055442631 1.3352729
-0.1453169 0.065625519 1.33675
-0.13815521 0.065564141 1.3355001
-0.15131442 0.075070716 1.3380001
-0.14539774 0.074686512 1.3353333
-0.13772745 0.073621593 1.3330001
-0.15178362 0.085158348 1.3380001
-0.14628802 0.084888585 1.334923
0.067778602 0.085307553 1.3330001
0.072499014 0.086529486 1.3338333
-0.15243086 0.094974115 1.3375002
-0.14738233 0.09415751 1.3342501
0.073621586 0.092319138 1.3330001
-0.15377532 0.10567133 1.3352729
