# .PCD v0.7 - Point Cloud Data file format
VERSION 0.7
FIELDS x y z
SIZE 4 4 4
TYPE F F F
COUNT 1 1 1
WIDTH 1427
HEIGHT 1
VIEWPOINT 0 0 0 1 0 0 0
POINTS 1427
DATA ascii
-0.17875993 -0.1716788 1.2113334
-0.050089519 -0.17584325 1.2156668
-0.045657277 -0.17865795 1.2163637
-0.17435609 -0.16621886 1.2147273
-0.1662042 -0.16292183 1.2146924
-0.15805423 -0.16017577 1.21
-0.048089549 -0.16136716 1.2190001
-0.16243581 -0.15922984 1.2190001
-0.15541787 -0.15860939 1.2142501
-0.13864264 -0.15037157 1.2165
-0.10077284 -0.15168963 1.21
-0.094144791 -0.15257026 1.21175
-0.085526966 -0.15084817 1.2130002
-0.050020847 -0.15112682 1.2140001
-0.04867838 -0.15492482 1.2160001
-0.13387445 -0.14629914 1.2151667
-0.12469738 -0.14458854 1.2132943
-0.11553621 -0.14313847 1.2110909
-0.10436556 -0.14438803 1.2120554
-0.096353814 -0.1465438 1.2160769
-0.082286566 -0.14783083 1.2190001
-0.07549651 -0.14630979 1.2129
-0.065109588 -0.14326118 1.2117857
-0.053705618 -0.14435795 1.2112629
-0.048089549 -0.1453373 1.2190001
-0.12075821 -0.13999403 1.2190001
-0.11498252 -0.13818829 1.2156667
-0.10592958 -0.13860041 1.2151111
-0.063117757 -0.13795274 1.2156667
-0.054642763 -0.13760422 1.2154285
-0.31086862 -0.35174409 1.2270001
-0.30448398 -0.35198656 1.2235715
-0.31158575 -0.34815851 1.2270001
-0.30419677 -0.34634221 1.2254617
-0.29818282 -0.34430337 1.2235
-0.29359385 -0.33523586 1.2243333
-0.29235709 -0.32533026 1.2265557
-0.2874589 -0.32438898 1.223
-0.30011192 -0.3151713 1.2270001
-0.2938239 -0.31637797 1.2250001
-0.28841195 -0.31736034 1.223
-0.32217675 -0.30069491 1.2250001
-0.32099622 -0.29522642 1.2246001
-0.31801894 -0.2943998 1.2245002
-0.31528801 -0.2855649 1.2242306
-0.3130717 -0.27876246 1.223
-0.3065232 -0.27513394 1.2248464
-0.30289096 -0.26587752 1.2256669
-0.29877618 -0.26410958 1.223
-0.30118757 -0.25816077 1.2270001
-0.29510787 -0.25452238 1.2240908
-0.29190689 -0.24892454 1.2256668
-0.28671914 -0.24515767 1.2240909
-0.28271675 -0.23756666 1.2262001
-0.27574703 -0.23306602 1.2238889
-0.269113 -0.23051512 1.223
-0.27343085 -0.22755899 1.2263335
-0.26603583 -0.22390649 1.2242498
-0.25839135 -0.22193781 1.223
-0.26203567 -0.21907724 1.2250001
-0.25526211 -0.21559158 1.2251334
-0.24541633 -0.2134231 1.2246001
-0.23767966 -0.21192497 1.2240001
-0.25063109 -0.20975564 1.2270001
-0.24417709 -0.20975564 1.2270001
-0.23411994 -0.20561299 1.2254001
-0.22630115 -0.20270443 1.2233999
-0.23126905 -0.19899894 1.2270001
-0.22463268 -0.19749218 1.2260001
-0.21661371 -0.19563137 1.2238889
-0.20975564 -0.19146925 1.2270001
-0.20411231 -0.18556318 1.2248183
-0.19590679 -0.181743 1.2238001
-0.031092737 -0.1811956 1.223
-0.025057472 -0.18435454 1.2250001
-0.19371839 -0.17748557 1.2270001
-0.18605056 -0.17316458 1.2247144
-0.050391678 -0.17154613 1.223
-0.044766102 -0.17339078 1.2241428
-0.035874598 -0.17604022 1.2251999
-0.027967419 -0.17856124 1.2270001
-0.18325359 -0.16820472 1.2260002
-0.17684959 -0.16304259 1.2247144
-0.050391678 -0.16832964 1.223
-0.045733608 -0.16565394 1.2263849
-0.17294089 -0.15851425 1.2252858
-0.16441134 -0.1566399 1.2257694
-0.15483323 -0.15559806 1.2252858
-0.14651158 -0.15366404 1.2243333
-0.046652514 -0.15543878 1.2262002
-0.15166947 -0.14951813 1.2270001
-0.14396921 -0.14826877 1.2265556
-0.13541433 -0.14284723 1.225154
-0.12651527 -0.14098948 1.223
-0.094409235 -0.14281082 1.2248464
-0.085912906 -0.14524415 1.225
-0.07589303 -0.14354686 1.2250001
-0.069918551 -0.14091277 1.2270001
-0.045965161 -0.14381343 1.2265002
-0.13230741 -0.13876143 1.2270001
-0.12405308 -0.13824069 1.2262001
-0.11479652 -0.13582353 1.2238001
-0.10401945 -0.13566519 1.2255456
-0.094981283 -0.13751598 1.2265557
-0.089280613 -0.13876143 1.2270001
-0.063813441 -0.13514395 1.2254002
-0.054487962 -0.13276504 1.2255715
-0.047513049 -0.13694988 1.2262002
-0.31353343 -0.34383801 1.2346668
-0.30672112 -0.34274101 1.2326669
-0.31314883 -0.33807072 1.2360001
-0.30488712 -0.3352004 1.2350589
-0.29874277 -0.33416849 1.2320001
-0.30215016 -0.32597795 1.2353334
-0.29797471 -0.32485604 1.2320002
-0.30133489 -0.31861573 1.2320001
-0.32509604 -0.29917479 1.2320001
-0.30925527 -0.27181342 1.2320001
-0.31141514 -0.26460534 1.2360001
-0.30779502 -0.26455522 1.2330002
-0.30387089 -0.25560445 1.2344002
-0.29833579 -0.25185493 1.233
-0.29428422 -0.24488997 1.2345456
-0.28837425 -0.24085189 1.2320001
-0.29147765 -0.2383832 1.2360001
-0.28576955 -0.23575513 1.2342223
-0.27973381 -0.2311314 1.2320001
-0.28064203 -0.22863115 1.2360001
-0.27478066 -0.22429518 1.2340001
-0.27197355 -0.21996267 1.2360001
-0.26461035 -0.21675992 1.2342223
-0.25672221 -0.21132138 1.233
-0.24949232 -0.21169046 1.2320001
-0.25138593 -0.20912708 1.2360001
-0.24334815 -0.20750201 1.2337145
-0.23813634 -0.20309491 1.2336
-0.23258843 -0.19760828 1.2340001
-0.22417186 -0.19425763 1.2333335
-0.21677563 -0.19236121 1.2337143
-0.212511 -0.18797487 1.2346668
-0.20618936 -0.18186626 1.2330002
-0.022419434 -0.18233308 1.2325002
-0.20346083 -0.1768472 1.2354287
-0.19585785 -0.17404 1.2330911
-0.18931617 -0.17092369 1.2340001
-0.033913679 -0.17216051 1.2320001
-0.025221609 -0.17438008 1.2338949
-0.018360907 -0.17388858 1.2320001
-0.18424413 -0.16475688 1.2348001
-0.041647807 -0.16362193 1.2340001
-0.035385422 -0.16632399 1.2344002
-0.027955849 -0.16665152 1.2360001
-0.18095452 -0.15928333 1.2360001
-0.17439793 -0.15509899 1.2343335
-0.16529971 -0.15231593 1.2340001
-0.15660773 -0.15120746 1.2320002
-0.042332977 -0.15450926 1.2337143
-0.037924599 -0.15928333 1.2360001
-0.162534 -0.14844772 1.2360001
-0.15383047 -0.14674127 1.2349092
-0.14542556 -0.1439808 1.2333335
-0.084028147 -0.14191902 1.2320001
-0.075785205 -0.14183152 1.2350001
-0.04174196 -0.14534713 1.2336001
-0.14194636 -0.13977924 1.2360001
-0.13463897 -0.1386566 1.234286
-0.12531355 -0.13656715 1.2344002
-0.114811 -0.13380545 1.2342223
-0.10483531 -0.13185138 1.2328002
-0.095327556 -0.13316801 1.2333335
-0.086138628 -0.13644002 1.2340001
-0.074765638 -0.13977924 1.2360001
-0.06523452 -0.13371037 1.2333335
-0.05508272 -0.13068645 1.2320001
-0.04466166 -0.13507004 1.2340001
-0.1023049 -0.12782641 1.2336
-0.096870258 -0.12807678 1.2360001
-0.054661527 -0.12770306 1.2333335
-0.046593077 -0.12807678 1.2360001
-0.3138445 -0.33471715 1.2423334
-0.30788797 -0.33182272 1.2410001
-0.31106326 -0.32852644 1.245
-0.30758014 -0.32550585 1.2436668
-0.30571207 -0.3187674 1.2410001
-0.31437838 -0.26207116 1.243
-0.31145775 -0.25766897 1.2436666
-0.30654281 -0.25338104 1.2426001
-0.30180594 -0.24617004 1.2443333
-0.29700851 -0.2420674 1.2410001
-0.29419094 -0.23596151 1.2437999
-0.28713596 -0.23264936 1.243
-0.28300247 -0.22792807 1.2440001
-0.27801934 -0.22423059 1.2436666
-0.27220762 -0.21841888 1.2436666
-0.26588422 -0.21466848 1.243
-0.25867364 -0.21064985 1.245
-0.25398102 -0.20819764 1.2434
-0.24591482 -0.20492749 1.2434
-0.24121045 -0.19973534 1.245
-0.23635633 -0.1967202 1.2443334
-0.2259299 -0.19260779 1.2432858
-0.21867661 -0.19039008 1.2410001
-0.2226558 -0.18882085 1.245
-0.21525422 -0.18422604 1.2434616
-0.21064985 -0.17790635 1.245
-0.20502864 -0.17394599 1.244
-0.19713165 -0.17099063 1.2423334
-0.020670922 -0.17189506 1.2410001
-0.018495036 -0.17189506 1.2410001
-0.19420613 -0.16684361 1.243909
-0.18779106 -0.16272511 1.243
-0.031550355 -0.16210355 1.2410001
-0.024400085 -0.16448984 1.2426001
-0.017807147 -0.1675383 1.2436666
-0.18326631 -0.15524925 1.2437693
-0.1747237 -0.15165931 1.2410001
-0.03406664 -0.15587357 1.2421428
-0.028559521 -0.15849063 1.2434
-0.18081689 -0.14880101 1.245
-0.17424102 -0.14665343 1.2444286
-0.16542137 -0.14446774 1.2432224
-0.15615572 -0.14275753 1.2416154
-0.14687234 -0.14034469 1.2410001
-0.073980145 -0.14034469 1.2410001
-0.035948418 -0.1448788 1.2426001
-0.16208032 -0.13806842 1.245
-0.15454933 -0.13686784 1.245
-0.14476885 -0.13578665 1.2438235
-0.13539098 -0.13438188 1.2431539
-0.12576701 -0.13369334 1.2435454
-0.11653734 -0.13178258 1.2423334
-0.083389059 -0.13259636 1.2418001
-0.075923175 -0.13599426 1.2440768
-0.067234777 -0.13337694 1.2436666
-0.040253904 -0.13272908 1.2410001
-0.038139384 -0.13511887 1.243
-0.13206545 -0.12988254 1.245
-0.12115095 -0.12988254 1.245
-0.11460226 -0.12879111 1.245
-0.10578328 -0.12577681 1.244
-0.09397684 -0.12516056 1.2431538
-0.085750833 -0.12758647 1.243909
-0.079675846 -0.12988254 1.245
-0.061121199 -0.12879109 1.245
-0.054501489 -0.12316698 1.2433333
-0.044691004 -0.12404524 1.2434002
-0.038200751 -0.12988254 1.245
-0.052389599 -0.11896805 1.245
-0.0458409 -0.11824042 1.245
-0.32405061 -0.33419845 1.2563481
-0.31711808 -0.3324773 1.2516667
-0.32276025 -0.32402161 1.2589999
-0.31578568 -0.32561219 1.2556666
-0.33222073 -0.26268613 1.2590001
-0.32387885 -0.26284555 1.2566
-0.3188875 -0.26519167 1.25
-0.32265511 -0.25790337 1.2589999
-0.31517392 -0.25461051 1.2544001
-0.30792916 -0.25094584 1.25
-0.31189659 -0.24601659 1.2584286
-0.30649427 -0.2449706 1.253091
-0.30321503 -0.23941416 1.2546667
-0.29504317 -0.23262252 1.254625
-0.28820416 -0.23122083 1.25
-0.29138297 -0.22847073 1.2590001
-0.28489995 -0.22457884 1.25475
-0.27834165 -0.22135833 1.25
-0.28215358 -0.21773544 1.2582
-0.27517283 -0.21431823 1.2552354
-0.2666367 -0.21171939 1.2527778
-0.27261966 -0.2086037 1.2590001
-0.26384017 -0.20676202 1.2563637
-0.25578785 -0.20446296 1.2544
-0.24739709 -0.20173502 1.2520001
-0.25348845 -0.19830228 1.2589999
-0.24499062 -0.19637796 1.2557693
-0.23556648 -0.19303147 1.2546667
-0.22948723 -0.19105417 1.2525001
-0.23288563 -0.18747529 1.2589999
-0.22439159 -0.18497188 1.2534668
-0.216975 -0.18081249 1.25
-0.2225842 -0.17917109 1.2590001
-0.21439554 -0.17536917 1.2550002
-0.20811921 -0.17227231 1.2516667
-0.21191487 -0.16886967 1.2590001
-0.20416729 -0.16602515 1.2563126
-0.19653411 -0.16271108 1.2524
-0.021590255 -0.16248141 1.2523333
-0.017986424 -0.16371296 1.2561668
-0.20198137 -0.15783243 1.2590001
-0.19498953 -0.15534985 1.2557648
-0.18820935 -0.15369064 1.25
-0.032552093 -0.1510599 1.2516667
-0.025438432 -0.15496339 1.255667
-0.19167995 -0.14826684 1.2590001
-0.18449098 -0.14475743 1.2541335
-0.1760639 -0.14209305 1.25
-0.16985416 -0.1413625 1.25
-0.033204377 -0.14587808 1.2565715
-0.029800531 -0.14900266 1.2590001
-0.17460461 -0.13769753 1.2565833
-0.16567473 -0.13461639 1.2544707
-0.15506043 -0.13204791 1.25
-0.14501528 -0.13113472 1.25
-0.13533542 -0.13040416 1.25
-0.12656875 -0.13095209 1.25
-0.073947266 -0.13253313 1.2515
-0.067529634 -0.13121289 1.2525001
-0.036220361 -0.13499966 1.2520001
-0.16261524 -0.127664 1.2589999
-0.15475559 -0.12694019 1.2574615
-0.14471112 -0.12537958 1.2578236
-0.13492537 -0.12458991 1.2548264
-0.12505093 -0.12438317 1.2556503
-0.11550495 -0.12402337 1.2520001
-0.10548466 -0.12120581 1.2552859
-0.095337495 -0.1216375 1.25
-0.083594702 -0.12311002 1.252
-0.076787911 -0.12604268 1.2565
-0.063443966 -0.12560745 1.256
-0.040545832 -0.12273333 1.25
-0.037276745 -0.12478872 1.2547779
-0.13575797 -0.11809839 1.2590001
-0.12030584 -0.11809839 1.2590001
-0.11447375 -0.11888063 1.2572857
-0.10504725 -0.11772777 1.258
-0.094678789 -0.1164166 1.254167
-0.08632198 -0.1166085 1.2563751
-0.053913806 -0.11570046 1.2504545
-0.044673681 -0.11413965 1.2525791
-0.03781385 -0.11674454 1.2563334
-0.051874995 -0.10926861 1.2590001
-0.04635638 -0.10926861 1.2590001
-0.32522932 -0.32744551 1.2640001
-0.3323724 -0.26567557 1.268
-0.32419553 -0.25451806 1.2656
-0.3180266 -0.25154021 1.2640001
-0.31704575 -0.24574421 1.2651428
-0.30916175 -0.24045914 1.2640001
-0.29791236 -0.23121557 1.268
-0.29156795 -0.22436619 1.2670001
-0.28810772 -0.22162133 1.2640001
-0.29013109 -0.21898782 1.268
-0.28405052 -0.21374495 1.2662222
-0.27445439 -0.20601569 1.2665453
-0.26527077 -0.20243208 1.2648889
-0.26197019 -0.1982377 1.268
-0.25554481 -0.19616556 1.2659999
-0.24477936 -0.19227286 1.2653333
-0.24071281 -0.18746524 1.2653333
-0.23528998 -0.18423431 1.266
-0.22863935 -0.18136013 1.2640001
-0.23010395 -0.17896974 1.268
-0.22336064 -0.17591193 1.2659999
-0.21791565 -0.17189065 1.265
-0.21403165 -0.16559181 1.2661818
-0.2076592 -0.16244844 1.2640001
-0.016621599 -0.16289169 1.2640001
-0.21009491 -0.1589607 1.268
-0.20382403 -0.15480722 1.2654544
-0.19835109 -0.15181062 1.2640001
-0.0225315 -0.15254934 1.2640001
-0.018837813 -0.15291873 1.2640001
-0.19527365 -0.14645313 1.2656
-0.18727003 -0.14146829 1.2640001
-0.032158762 -0.14139494 1.265
-0.025140975 -0.14539826 1.2660868
-0.018488316 -0.14457285 1.2653333
-0.18271574 -0.13717467 1.2670001
-0.17577516 -0.13390908 1.265
-0.032627784 -0.13584651 1.266
-0.023343882 -0.13895166 1.268
-0.017785814 -0.13895166 1.268
-0.17267644 -0.12904416 1.2653333
-0.1655848 -0.12588309 1.2657777
-0.15532035 -0.12203507 1.2654999
-0.14693496 -0.12122687 1.2640001
-0.12964848 -0.12078363 1.2640001
-0.073061779 -0.12308478 1.2648889
-0.067394279 -0.12370293 1.2644
-0.034394789 -0.12537035 1.2656001
-0.15273568 -0.11849798 1.268
-0.1438871 -0.1172528 1.2657777
-0.13479319 -0.11676542 1.2654999
-0.12501003 -0.11650229 1.2656666
-0.11465485 -0.11428314 1.2656666
-0.10501064 -0.11406836 1.2653333
-0.09640529 -0.11191877 1.2640001
-0.082742259 -0.11313174 1.2651999
-0.075894319 -0.11587967 1.2669332
-0.063361958 -0.11894263 1.268
-0.058915507 -0.11894263 1.268
-0.035981905 -0.11397218 1.2657144
-0.090684734 -0.10771077 1.2666668
-0.08660195 -0.10797422 1.2664999
-0.050022598 -0.10782649 1.268
-0.044198319 -0.10577597 1.2656666
-0.0388451 -0.10876453 1.266
-0.32475504 -0.25333124 1.273
-0.31441036 -0.24280249 1.2763335
-0.30810449 -0.2408817 1.2780001
-0.30190867 -0.23369698 1.2755001
-0.29632136 -0.22587331 1.2754999
-0.29241115 -0.21566775 1.2765714
-0.28792715 -0.21315536 1.273
-0.28321323 -0.20665993 1.2757777
-0.27577817 -0.20173162 1.2748749
-0.27145997 -0.19723485 1.2772857
-0.26466671 -0.19479252 1.2751875
-0.25507021 -0.19242208 1.276125
-0.24812327 -0.19157942 1.273
-0.26216891 -0.18934421 1.2780001
-0.25544664 -0.18934421 1.2780001
-0.24556094 -0.18526718 1.2772307
-0.23852539 -0.18174335 1.275
-0.23420578 -0.17698866 1.2768888
-0.22690412 -0.17324862 1.2749999
-0.22379132 -0.16716218 1.2772857
-0.21734671 -0.1627271 1.2751428
-0.21334152 -0.15739264 1.2763333
-0.20723191 -0.15268359 1.275
-0.2022831 -0.14592569 1.2771667
-0.19512276 -0.14228672 1.2754999
-0.19158497 -0.13780674 1.2780001
-0.18590716 -0.13463105 1.2756922
-0.17893147 -0.1313156 1.273
-0.030719496 -0.13237381 1.27425
-0.025540734 -0.13571407 1.2759166
-0.018122101 -0.13579848 1.276
-0.1837925 -0.12556289 1.277375
-0.17485611 -0.12482488 1.2762142
-0.16650121 -0.1229189 1.2746667
-0.032017447 -0.12605396 1.2770001
-0.17141815 -0.11988066 1.2780001
-0.1661897 -0.11988065 1.2780001
-0.15451013 -0.11648107 1.2758571
-0.14508523 -0.11275104 1.2757272
-0.13535294 -0.11342682 1.2759999
-0.12461569 -0.11253314 1.276
-0.11599556 -0.11114497 1.2763333
-0.1051119 -0.11070064 1.2755001
-0.097091712 -0.11048367 1.273
-0.072882757 -0.11310928 1.2746665
-0.065691926 -0.11684848 1.2754999
-0.05938014 -0.1176399 1.2780001
-0.033939566 -0.11450464 1.2763335
-0.11345951 -0.10785908 1.2771667
-0.10521381 -0.10745017 1.27675
-0.098305233 -0.10723978 1.27425
-0.083063871 -0.10541157 1.2746667
-0.077950858 -0.10704129 1.2763333
-0.05115385 -0.10521017 1.2739999
-0.044416666 -0.1024485 1.273
-0.037172325 -0.10530043 1.2763333
-0.050417099 -0.098593444 1.2780001
-0.044841789 -0.098004229 1.2752222
-0.0392133 -0.099713817 1.2780001
-0.32293594 -0.24389568 1.2880001
-0.31653747 -0.24276654 1.2880001
-0.31051534 -0.23824994 1.2880001
-0.30668023 -0.23564592 1.2861251
-0.30189013 -0.22521666 1.2861251
-0.29806229 -0.22157837 1.2830001
-0.29650146 -0.21426311 1.2850001
-0.29216516 -0.20699568 1.2867501
-0.28649002 -0.20445029 1.2844286
-0.28154647 -0.19884758 1.2863334
-0.27531999 -0.19465892 1.2850001
-0.26769367 -0.19008501 1.2830001
-0.25644603 -0.19008501 1.2830001
-0.2643986 -0.18659927 1.2861251
-0.25520244 -0.18522364 1.2846668
-0.24782284 -0.18183674 1.2830001
-0.24420786 -0.17704467 1.2863334
-0.23677979 -0.17298572 1.2841113
-0.23192818 -0.16722317 1.2851429
-0.22566688 -0.16350456 1.2845
-0.22199023 -0.15740304 1.2880001
-0.21502256 -0.15348777 1.2855
-0.21207464 -0.14777248 1.2867501
-0.20605205 -0.14422378 1.2843636
-0.19795835 -0.14059542 1.2830001
-0.20248568 -0.13705653 1.2867501
-0.19519761 -0.13481972 1.2842501
-0.023170125 -0.13249712 1.2830001
-0.017621294 -0.13234715 1.2830001
-0.19296367 -0.12876597 1.2846668
-0.17658783 -0.12034968 1.2830001
-0.16534021 -0.12034968 1.2830001
-0.030368609 -0.12372397 1.2830001
-0.025280902 -0.12588243 1.2868236
-0.017259812 -0.12823881 1.2880001
-0.17050114 -0.1185604 1.2880001
-0.1642691 -0.11690243 1.2863334
-0.15622853 -0.11319958 1.2841111
-0.14734399 -0.11135157 1.2830001
-0.13309699 -0.11210141 1.2830001
-0.12709826 -0.11135157 1.2830001
-0.070860088 -0.11135157 1.2830001
-0.064888149 -0.11289946 1.2835556
-0.05767316 -0.11337414 1.2836251
-0.031537753 -0.11489407 1.284875
-0.027260827 -0.11565688 1.2880001
-0.14434463 -0.10872712 1.2830001
-0.13471055 -0.1069065 1.2859167
-0.12484676 -0.10563465 1.2851431
-0.11507947 -0.10302405 1.2833574
-0.10506743 -0.10265535 1.284786
-0.097355872 -0.10336923 1.2863334
-0.084087528 -0.10173365 1.2846668
-0.074418902 -0.1042369 1.285059
-0.065536901 -0.10685608 1.2872308
-0.056305066 -0.10575175 1.2864616
-0.032847151 -0.10427133 1.2853076
-0.028228667 -0.10952722 1.2880001
-0.11269331 -0.098045081 1.2855
-0.10603568 -0.098140419 1.2867501
-0.051564366 -0.095977463 1.2880001
-0.044952039 -0.093279965 1.2848182
-0.037015498 -0.095668964 1.2866365
-0.32235315 -0.2421613 1.2920001
-0.31676534 -0.24201028 1.2920001
-0.32355577 -0.23863515 1.2950001
-0.3155821 -0.2350968 1.2940588
-0.30921435 -0.23332658 1.2920001
-0.31210518 -0.22725902 1.2961668
-0.30721301 -0.22558893 1.2931111
-0.30403119 -0.21547642 1.295
-0.30073392 -0.20880929 1.2945001
-0.29524934 -0.2051964 1.2947778
-0.28844407 -0.20149337 1.2936667
-0.28398523 -0.19537963 1.29575
-0.27785805 -0.19242044 1.2936667
-0.27342111 -0.18541141 1.296091
-0.26585609 -0.18242134 1.2924545
-0.25673476 -0.18084697 1.2919999
-0.28084806 -0.17851475 1.2970001
-0.27426761 -0.17792229 1.2960001
-0.26495054 -0.17673574 1.296091
-0.25372234 -0.17700744 1.296375
-0.24610478 -0.17326586 1.2936666
-0.24294682 -0.16866045 1.2970001
-0.23557197 -0.16416477 1.2947272
-0.22992863 -0.16196942 1.2920001
-0.23328201 -0.15482648 1.2970001
-0.22557472 -0.15421844 1.2948571
-0.21860209 -0.15177554 1.2920001
-0.23195547 -0.1489518 1.2970001
-0.22437549 -0.14731671 1.292625
-0.21563977 -0.14436974 1.2919999
-0.20954086 -0.14158167 1.2920001
-0.20678784 -0.13798295 1.2936667
-0.011326533 -0.13025513 1.2920001
-0.022275515 -0.12194901 1.2920001
-0.015573346 -0.12408748 1.2942727
-0.16693254 -0.11469313 1.2953334
-0.023250625 -0.11569995 1.293875
-0.018761104 -0.11768329 1.2970001
-0.10080615 -0.10080615 1.2920001
-0.09740819 -0.10080615 1.2920001
-0.084949002 -0.10080615 1.2920001
-0.071357161 -0.10080615 1.2920001
-0.064362139 -0.10189964 1.2931111
-0.057084735 -0.10169128 1.2936667
-0.03058164 -0.10080615 1.2920001
-0.026926817 -0.10628597 1.29325
-0.10250513 -0.096841864 1.2920001
-0.098540843 -0.098540843 1.2920001
-0.083330818 -0.09810061 1.2961667
-0.075405851 -0.097784154 1.2948571
-0.065379605 -0.098922193 1.2970001
-0.053391412 -0.09542232 1.29575
-0.032892428 -0.094429813 1.293875
-0.044920899 -0.08870288 1.2948571
-0.037496638 -0.088631146 1.2961668
-0.33113715 -0.23488969 1.307
-0.32490584 -0.23380587 1.3039231
-0.32197073 -0.22801486 1.307
-0.31601951 -0.22433667 1.3045001
-0.31280431 -0.2161749 1.307
-0.30847821 -0.21478969 1.3032501
-0.31051269 -0.209682 1.307
-0.3035053 -0.20610647 1.3053334
-0.29733902 -0.20127346 1.3045001
-0.30363789 -0.19364077 1.307
-0.29345822 -0.1967804 1.305889
-0.28705791 -0.19279762 1.3032501
-0.27964789 -0.19061714 1.302
-0.29294372 -0.18829368 1.307
-0.28466585 -0.18574272 1.3055716
-0.27793574 -0.18491003 1.302
-0.285355 -0.17920294 1.302
-0.26195589 -0.17406654 1.302
-0.2562488 -0.17254467 1.302
-0.24882956 -0.17007157 1.302
-0.2515924 -0.16581932 1.3045001
-0.24548307 -0.16495986 1.304143
-0.23855677 -0.16208163 1.302
-0.24325199 -0.15854144 1.3057501
-0.23855677 -0.15751596 1.302
-0.012579728 -0.12122065 1.3045001
-0.021686981 -0.11185916 1.302
-0.016696731 -0.11481465 1.3045
-0.024013653 -0.10521228 1.3045001
-0.019478656 -0.10885131 1.307
-0.081352033 -0.095101677 1.307
-0.07431566 -0.094565153 1.3041428
-0.065354548 -0.096030861 1.3040835
-0.056231931 -0.094563112 1.3031112
-0.031618733 -0.091048561 1.3036667
-0.027744638 -0.095821306 1.3051251
-0.051495403 -0.085822739 1.3053334
-0.0460045 -0.083821207 1.3043078
-0.035017006 -0.083954908 1.3034706
-0.027881214 -0.084789447 1.307
-0.042967621 -0.076577857 1.307
-0.034374099 -0.075623028 1.3069999
-0.028645083 -0.075623021 1.307
-0.33163717 -0.23195432 1.312
-0.32780319 -0.23118752 1.312
-0.33434102 -0.22589034 1.3160001
-0.32553777 -0.22417124 1.3138751
-0.32209083 -0.21664932 1.3145001
-0.31694034 -0.21397838 1.3129092
-0.3142429 -0.20604208 1.3130002
-0.3073554 -0.20358303 1.3120002
-0.31057933 -0.1997406 1.317
-0.30293292 -0.19677672 1.3126252
-0.29713157 -0.19476493 1.3120002
-0.29099724 -0.18518005 1.312
-0.28639647 -0.18518005 1.312
-0.24729013 -0.16217633 1.312
-0.013239201 -0.11512715 1.3132501
-0.022470281 -0.10198439 1.3145
-0.017552229 -0.10621187 1.3153335
-0.083129041 -0.094674736 1.317
-0.075194478 -0.091689259 1.3128334
-0.064680599 -0.092327647 1.3141429
-0.056433663 -0.090980172 1.3136667
-0.024566537 -0.09481997 1.3136668
-0.072737902 -0.0889019 1.317
-0.065040775 -0.0889019 1.317
-0.055053458 -0.085892186 1.3151251
-0.025718184 -0.085606791 1.3136667
-0.0529381 -0.075493947 1.3158889
-0.046520986 -0.072921209 1.3139231
-0.034505598 -0.070161387 1.312
-0.027029386 -0.075337224 1.312
-0.04410148 -0.067156725 1.3151251
-0.03457135 -0.066835754 1.3145002
-0.028754666 -0.067861013 1.312
-0.34111449 -0.22003631 1.3280001
-0.33625129 -0.22079274 1.3245715
-0.3303017 -0.21904218 1.322
-0.32640493 -0.21682626 1.325
-0.011975851 -0.1108732 1.322
-0.014797038 -0.10419819 1.32425
-0.086539857 -0.096629709 1.3280001
-0.079967782 -0.091557309 1.322
-0.063742436 -0.091557309 1.322
-0.022826061 -0.094017237 1.324
-0.017435146 -0.097644888 1.3260001
-0.080330722 -0.089644425 1.3280001
-0.073971957 -0.086104639 1.3253332
-0.064738579 -0.084818497 1.3254287
-0.058423404 -0.083567373 1.324
-0.024393249 -0.084208213 1.325
-0.057450499 -0.075003311 1.3253334
-0.054035533 -0.065070145 1.3255
-0.045429509 -0.063346349 1.3225456
-0.034768596 -0.062583484 1.322
-0.051225387 -0.05937488 1.3280001
-0.043774419 -0.057512134 1.3280001
-0.034969021 -0.056607306 1.3261539
-0.34006163 -0.21852757 1.3330001
-0.33478478 -0.21689862 1.3357779
-0.32960737 -0.21465534 1.3380001
-0.096993528 -0.10166791 1.3330001
-0.011460138 -0.10361394 1.3340001
-0.10283124 -0.098139323 1.3379999
-0.094698884 -0.097255729 1.3366365
-0.086749181 -0.093249187 1.3352224
-0.022203337 -0.092319138 1.3330001
-0.016210517 -0.094139181 1.3367501
-0.082619473 -0.087304823 1.33675
-0.075413123 -0.08243347 1.335143
-0.066610008 -0.080633171 1.3330001
-0.022244979 -0.088977724 1.3355
-0.07272476 -0.078589663 1.3380001
-0.064807363 -0.075734712 1.3359169
-0.059598431 -0.071284398 1.3330001
-0.024632581 -0.078589663 1.3380001
-0.062637135 -0.066390671 1.3380001
-0.059220411 -0.064834937 1.335
-0.062167939 -0.059821978 1.3380001
-0.054111026 -0.057153754 1.3360002
-0.044610545 -0.052411906 1.3352224
-0.034909118 -0.051278237 1.3337144
-0.028046321 -0.051418252 1.3330001
-0.042931069 -0.047153797 1.3380001
-0.035291482 -0.04648827 1.336889
-0.028472381 -0.047190383 1.3346667
-0.33790326 -0.21545748 1.3430001
-0.10525763 -0.094033256 1.3471253
-0.095104784 -0.092488423 1.3430002
-0.011635495 -0.093921937 1.3464286
-0.0082783634 -0.094609864 1.3490001
-0.10288823 -0.085148871 1.3490001
-0.09453328 -0.085075565 1.3478752
-0.085391708 -0.08381927 1.3435001
-0.078883342 -0.081238069 1.3430001
-0.021051398 -0.084369279 1.3447143
-0.015611778 -0.086201169 1.347
-0.0082783634 -0.083966255 1.3490001
-0.10356402 -0.077884197 1.3490001
-0.094609857 -0.078053132 1.3490001
-0.084848046 -0.076479524 1.3485386
-0.075762406 -0.074916176 1.344286
-0.068287075 -0.072996527 1.3430001
-0.0082783634 -0.079235762 1.3490001
-0.075042926 -0.065443434 1.3486474
-0.067300074 -0.064437754 1.3434287
-0.072140023 -0.057948545 1.3490001
-0.064005964 -0.055183418 1.3470002
-0.055159189 -0.052534644 1.345
-0.048271898 -0.050626624 1.3430001
-0.060313791 -0.047304932 1.3490001
-0.05367526 -0.045496766 1.3466924
-0.045508638 -0.043579176 1.3435457
-0.035152707 -0.04221689 1.3430002
-0.029434083 -0.042385079 1.3430001
-0.052542262 -0.036323432 1.3490001
-0.045262218 -0.036876343 1.3490001
-0.0354787 -0.037843946 1.3490001
-0.029565584 -0.037843946 1.3490001
-0.12033039 -0.10126815 1.3590001
-0.11318205 -0.10126815 1.3590001
-0.12247489 -0.094596364 1.3590001
-0.11472571 -0.094180614 1.3567275
-0.14437482 -0.08480531 1.3590001
-0.13224429 -0.084588684 1.3590001
-0.12568086 -0.085289322 1.355
-0.11513965 -0.085464492 1.3540001
-0.10801761 -0.085464478 1.3540001
-0.012265735 -0.084277473 1.3540001
-0.0083090467 -0.081903458 1.3540001
-0.14415818 -0.075057574 1.3589998
-0.13343568 -0.077440351 1.3590001
-0.12516864 -0.07507439 1.3573332
-0.11462747 -0.075189024 1.3555908
-0.1047305 -0.072955251 1.3540001
-0.094960541 -0.07240741 1.3540001
-0.085973196 -0.07105083 1.3540001
-0.020179113 -0.079529449 1.3540001
-0.013864483 -0.079627343 1.3556668
-0.0083397301 -0.077440351 1.3590001
-0.14313699 -0.065526456 1.3590001
-0.11159352 -0.067114972 1.3590001
-0.10454448 -0.066419996 1.3590001
-0.095290102 -0.064319447 1.3586874
-0.085526116 -0.064141922 1.3549376
-0.079529449 -0.062911354 1.3540001
-0.14177541 -0.05599533 1.3590001
-0.093166694 -0.056471884 1.3590001
-0.085225642 -0.055113647 1.3582857
-0.075514205 -0.05413726 1.3545884
-0.066868044 -0.051832628 1.3540001
-0.082205907 -0.047655597 1.3590001
-0.074246109 -0.045526277 1.3577501
-0.06465999 -0.044800609 1.3550714
-0.057371989 -0.042336572 1.3540001
-0.072376944 -0.037230939 1.3590001
-0.064233422 -0.035682801 1.3568127
-0.056053087 -0.034950752 1.3540001
-0.044551104 -0.032672271 1.3552501
-0.036448296 -0.033671308 1.3556668
-0.063937932 -0.02899049 1.3590001
-0.055042218 -0.029308194 1.3590001
-0.04527282 -0.02978475 1.3590001
-0.15436785 -0.11224578 1.365
-0.1483846 -0.11128845 1.365
-0.153836 -0.10570409 1.3649999
-0.14599131 -0.1053052 1.3649999
-0.13322704 -0.10251302 1.3649999
-0.12564825 -0.1029119 1.3649999
-0.1172717 -0.10171525 1.365
-0.15532517 -0.095971338 1.3649999
-0.1453265 -0.09546607 1.3649999
-0.1340248 -0.095732003 1.3649999
-0.1268449 -0.096928649 1.3649999
-0.1172717 -0.099321947 1.365
-0.1545274 -0.085121706 1.3649999
-0.14457709 -0.086050004 1.3649999
-0.1356566 -0.086267583 1.3649999
-0.1531712 -0.0741923 1.3649999
-0.14479464 -0.0741923 1.3649999
-0.13522145 -0.072729737 1.3649999
-0.12564825 -0.07060235 1.365
-0.021779031 -0.075867608 1.365
-0.015556451 -0.076585598 1.3649999
-0.0083765499 -0.072995648 1.365
-0.15277232 -0.065416865 1.3649999
-0.14534694 -0.063974746 1.3649999
-0.1340248 -0.064619094 1.3649999
-0.12445159 -0.064619094 1.3649999
-0.11552276 -0.063974746 1.3649999
-0.10560437 -0.062524959 1.3649999
-0.15300025 -0.055558749 1.3649999
-0.14521699 -0.054834716 1.3649999
-0.1340248 -0.055045895 1.3649999
-0.12445159 -0.055045895 1.3649999
-0.11487841 -0.055045899 1.3649999
-0.1053052 -0.055045895 1.3649999
-0.096711084 -0.054284398 1.3649999
-0.089748748 -0.052652597 1.365
-0.14451309 -0.04512075 1.3649999
-0.13362592 -0.049062651 1.3650001
-0.1244516 -0.04826488 1.3649999
-0.11487841 -0.045472704 1.3649999
-0.10530519 -0.045472704 1.3649999
-0.095732003 -0.045472708 1.3649999
-0.085859634 -0.044874381 1.3649999
-0.077782251 -0.04188275 1.365
-0.14516285 -0.036175653 1.3649999
-0.11288398 -0.037893917 1.3649999
-0.10502904 -0.03672795 1.3649999
-0.095732003 -0.035899501 1.3649999
-0.084962144 -0.035899494 1.3649999
-0.075688124 -0.034403685 1.3649999
-0.0335062 -0.032309551 1.365
-0.1431991 -0.029118484 1.3650001
-0.095732003 -0.029118484 1.3649999
-0.086158805 -0.026326301 1.3649999
-0.0741923 -0.025129655 1.3649999
-0.064790048 -0.023420151 1.3649999
-0.055045899 -0.024531325 1.3649999
-0.045799054 -0.025347225 1.3649999
-0.036564305 -0.028054796 1.3649999
-0.073593974 -0.0167531 1.365
-0.064858422 -0.01747109 1.365
-0.16370086 -0.11434802 1.3730001
-0.15813605 -0.11329748 1.3700002
-0.1642544 -0.10476238 1.3736001
-0.15836485 -0.10517621 1.37
-0.1405209 -0.1044899 1.3700002
-0.13531643 -0.10609128 1.37
-0.17008735 -0.092884578 1.376
-0.16458178 -0.094268784 1.3718463
-0.15973744 -0.091278531 1.3700001
-0.1405209 -0.098484732 1.3700001
-0.17146598 -0.083234243 1.3760002
-0.1649054 -0.084256433 1.3730001
-0.15913692 -0.08347182 1.3700001
-0.17336158 -0.074273191 1.3760002
-0.1650255 -0.074681483 1.3740002
-0.15853642 -0.074464075 1.37
-0.023219978 -0.07246235 1.37
-0.013691781 -0.073022835 1.37
-0.0084072333 -0.073263034 1.3700001
-0.18295449 -0.065541938 1.376
-0.17491251 -0.06513983 1.3759999
-0.16478178 -0.065001734 1.375077
-0.15760228 -0.064455464 1.37
-0.022869602 -0.067402519 1.3730001
-0.015181939 -0.066497453 1.3742001
-0.17420293 -0.055986203 1.376
-0.16502288 -0.055406213 1.3740001
-0.15813607 -0.054847196 1.37
-0.17105238 -0.047527958 1.376
-0.16465907 -0.046442289 1.3760003
-0.15521589 -0.045709923 1.3700002
-0.1405209 -0.046840299 1.3700001
-0.13460813 -0.044807788 1.3700001
-0.12490748 -0.043957822 1.37
-0.16247845 -0.035539255 1.3760002
-0.15417354 -0.034629449 1.3722106
-0.14172195 -0.034029279 1.37
-0.13451573 -0.03482997 1.3700004
-0.12490747 -0.03482997 1.3700004
-0.1161571 -0.033457361 1.3700001
-0.10620566 -0.031055292 1.37
-0.082871303 -0.030025832 1.3700001
-0.030025832 -0.031226866 1.3700001
-0.027623767 -0.0324279 1.3700002
-0.15250994 -0.025676815 1.3760002
-0.14432926 -0.023799049 1.3712003
-0.13451575 -0.02402067 1.3700002
-0.12490749 -0.02402067 1.3700002
-0.11529922 -0.02402067 1.3700002
-0.10569095 -0.02402067 1.3700002
-0.095332034 -0.023270024 1.3700002
-0.083138205 -0.02335343 1.37
-0.054847185 -0.020417567 1.3700002
-0.044918645 -0.020897981 1.3700001
-0.034315243 -0.023334365 1.3700001
-0.15078667 -0.013269227 1.376
-0.14509259 -0.014799888 1.3742857
-0.13488656 -0.014448564 1.37375
-0.12531644 -0.014456455 1.3744999
-0.11539685 -0.01442325 1.3711251
-0.10569095 -0.014412402 1.3700002
-0.094881646 -0.014412401 1.3700004
-0.084072344 -0.014412402 1.3700002
-0.07466425 -0.013611712 1.37
-0.064746626 -0.012992999 1.37
-0.055247542 -0.014412402 1.3700002
-0.045650776 -0.014415361 1.3703753
-0.038238663 -0.015350653 1.3737501
-0.1447552 -0.0084440531 1.376
-0.13309437 -0.005227271 1.3760002
-0.12542132 -0.0048248447 1.375625
-0.11558621 -0.004819585 1.3733751
-0.10571955 -0.0048044627 1.3703753
-0.09500473 -0.004806764 1.3718003
-0.084119685 -0.0048047914 1.3707503
-0.074464075 -0.0048041339 1.3700002
-0.064855807 -0.0048041339 1.3700002
-0.055276468 -0.0048047914 1.3707503
-0.046929721 -0.0055794264 1.3727274
-0.13148597 0.0012062934 1.376
-0.12532048 0.0028146843 1.3760002
-0.11577359 0.0048248451 1.375625
-0.10494752 0.0048251739 1.3759999
-0.094694026 0.0027141599 1.3760002
-0.084038436 0.0028146843 1.3760002
-0.074629761 0.0048185983 1.373
-0.064943582 0.0048149824 1.3718752
-0.056210276 0.0036169677 1.3749093
-0.048581943 0.002005229 1.3740001
-0.11580416 0.01085664 1.376
-0.10414332 0.012196966 1.3760002
-0.073101379 0.011821674 1.376
-0.066346131 0.01085664 1.376
-0.19576581 -0.13010523 1.3870001
-0.19090205 -0.12402554 1.3870001
-0.18583564 -0.12341758 1.3870001
-0.17631082 -0.12037773 1.3870001
-0.19090205 -0.11065023 1.3870001
-0.18482235 -0.11429803 1.3870003
-0.17481543 -0.11411395 1.3847504
-0.16828406 -0.11380361 1.381
-0.19171268 -0.10375992 1.3870001
-0.18467474 -0.10448802 1.3858752
-0.17443277 -0.10417605 1.3817501
-0.16828406 -0.10532887 1.381
-0.20225079 -0.092816502 1.3870001
-0.19444662 -0.094793081 1.3862503
-0.18402287 -0.094432771 1.3810003
-0.17517559 -0.094712168 1.3810003
-0.20427734 -0.085115559 1.3870003
-0.19429111 -0.085001484 1.3851252
-0.18402286 -0.084747367 1.3810003
-0.17608619 -0.085689001 1.381
-0.21181616 -0.077090383 1.3870001
-0.20427734 -0.075388074 1.3870003
-0.19418657 -0.075246379 1.3843753
-0.18426503 -0.075304084 1.3810003
-0.17796947 -0.076272637 1.381
-0.20403415 -0.065903775 1.3870003
-0.19370826 -0.065376543 1.3810003
-0.18684776 -0.064972974 1.381
-0.024690732 -0.064351715 1.385
-0.015765095 -0.061833929 1.383
-0.20257506 -0.056419469 1.3870001
-0.1940278 -0.055779889 1.3832502
-0.18454173 -0.055345219 1.3810003
-0.17796947 -0.052059095 1.381
-0.19353656 -0.046813559 1.3870001
-0.18480644 -0.045190547 1.3854215
-0.17554811 -0.04523528 1.3810002
-0.16828406 -0.042373683 1.381
-0.18300517 -0.03481609 1.3855
-0.17437609 -0.035116199 1.3813003
-0.16759224 -0.0340719 1.3809999
-0.18214731 -0.026021045 1.3870001
-0.17460163 -0.024522994 1.3850001
-0.16469774 -0.024219124 1.3813753
-0.15644634 -0.023002855 1.381
-0.17306831 -0.014996552 1.3870001
-0.16496994 -0.014554748 1.3836253
-0.15520875 -0.014608832 1.3810003
-0.14164917 -0.012106767 1.381
-0.1730683 -0.0047286428 1.3870001
-0.16505936 -0.0048535555 1.3843751
-0.15496661 -0.004842707 1.3810003
-0.14541307 -0.0043272269 1.3822858
-0.1382765 -0.0043245964 1.3818572
-0.17144707 0.0024318732 1.3870001
-0.16536738 0.004863746 1.3870003
-0.15555705 0.0048630894 1.3862503
-0.14567505 0.0048584864 1.3847501
-0.13615702 0.0050981683 1.3842003
-0.12608333 0.007437014 1.3809999
-0.093827441 0.0069613908 1.381
-0.085266225 0.007437014 1.3809999
-0.05471715 0.0068903076 1.3870001
-0.16345663 0.013027892 1.3870001
-0.15575042 0.013154224 1.3870001
-0.14675421 0.014310637 1.3870002
-0.13493712 0.014588611 1.386667
-0.12500854 0.014569448 1.3844289
-0.11466838 0.015565843 1.3810003
-0.10442086 0.016646804 1.381
-0.094585322 0.014556391 1.3832502
-0.084931463 0.014564939 1.3840003
-0.075950973 0.015767487 1.3831819
-0.066209868 0.014701797 1.3843335
-0.059580896 0.01094343 1.3870001
-0.15199208 0.020670922 1.3870001
-0.14712833 0.023102796 1.3870001
-0.13229392 0.02358917 1.3870001
-0.12402555 0.024318732 1.3870003
-0.113896 0.024236217 1.3821254
-0.10425791 0.024250027 1.3828751
-0.095451027 0.023305451 1.3870001
-0.085115559 0.021886857 1.3870001
-0.075388074 0.020670922 1.3870001
-0.12362022 0.032019667 1.3870001
-0.11429806 0.034046233 1.3870003
-0.10522528 0.033391494 1.3870002
-0.098490871 0.031614356 1.3870001
-0.20604773 -0.13194485 1.3954287
-0.19891216 -0.13057424 1.3920001
-0.20491463 -0.12520702 1.397077
-0.1964715 -0.12447264 1.3920001
-0.20487612 -0.11479601 1.3979999
-0.19600408 -0.11524975 1.3956001
-0.21420413 -0.10444665 1.398
-0.20562425 -0.10526147 1.3961252
-0.19713005 -0.10552927 1.3932002
-0.21533495 -0.09529753 1.3972001
-0.20632401 -0.096447885 1.3926001
-0.2228805 -0.085265346 1.398
-0.21495222 -0.085493736 1.3931252
-0.22305557 -0.075985953 1.398
-0.21577476 -0.074883275 1.3920001
-0.22281046 -0.067897126 1.3980001
-0.21524182 -0.064811088 1.3950002
-0.20867471 -0.06223632 1.3920001
-0.02806736 -0.06223632 1.3920001
-0.2139318 -0.054878753 1.398
-0.20699099 -0.0532717 1.3938
-0.024929395 -0.058749694 1.3920001
-0.017084479 -0.059795681 1.3920001
-0.21307583 -0.044295963 1.398
-0.20562491 -0.044059407 1.3961252
-0.19688377 -0.042427815 1.3927501
-0.21202534 -0.03799298 1.3980001
-0.20540722 -0.035541821 1.398
-0.19598891 -0.034295861 1.3972502
-0.18866149 -0.033436768 1.3920001
-0.20222069 -0.025737181 1.3980001
-0.19573756 -0.024742687 1.3972001
-0.18685721 -0.023647046 1.3930911
-0.17938703 -0.020745439 1.3920001
-0.19394805 -0.015626144 1.398
-0.18604064 -0.014683619 1.3961252
-0.17834105 -0.014120845 1.3920001
-0.1854815 -0.0052460982 1.3958572
-0.17834105 -0.005055611 1.3920001
-0.18179436 0.0028596867 1.3980001
-0.17507015 0.00537309 1.3926002
-0.053812429 0.0085606501 1.3950001
-0.17353794 0.013459587 1.3954287
-0.16718385 0.015559081 1.3920001
-0.15595689 0.017816674 1.3920001
-0.14216729 0.016474321 1.3920001
-0.062829651 0.016869873 1.3944001
-0.058698971 0.01222687 1.3950001
-0.16300213 0.020834858 1.3980001
-0.15442309 0.022673231 1.3980001
-0.14339109 0.024650114 1.3940001
-0.13667585 0.025626719 1.3920001
-0.093354478 0.0274572 1.3920001
-0.085422404 0.02684704 1.3920001
-0.076246329 0.025173837 1.3938
-0.068125762 0.022439159 1.396
-0.13392012 0.032505225 1.3938001
-0.09474875 0.034552563 1.3932858
-0.23170564 -0.13508467 1.4040002
-0.22436456 -0.13486491 1.404
-0.21457644 -0.13416158 1.4040002
-0.23213641 -0.126038 1.4040002
-0.22401293 -0.12554567 1.4039999
-0.2144123 -0.12529948 1.4039999
-0.23303908 -0.11487839 1.4040002
-0.22401291 -0.11569894 1.4039999
-0.21441232 -0.11594512 1.4039999
-0.20801196 -0.1169298 1.404
-0.23350796 -0.10602807 1.404
-0.22401291 -0.10585225 1.4039999
-0.21621756 -0.1087242 1.4039999
-0.23300751 -0.096100204 1.404
-0.22486502 -0.096289568 1.404
-0.23245296 -0.084576286 1.404
-0.22729512 -0.085748516 1.4040002
-0.23262878 -0.073850393 1.4040002
-0.2277054 -0.073850393 1.404
-0.23180819 -0.064413957 1.4040002
-0.22579074 -0.063046366 1.4040002
-0.23122208 -0.05468446 1.4040002
-0.22401291 -0.054156959 1.4039999
-0.21703811 -0.051284999 1.4039999
-0.23016708 -0.046771921 1.404
-0.22401291 -0.044310234 1.4039999
-0.21736634 -0.044064075 1.404
-0.22155119 -0.035694361 1.4040002
-0.21519184 -0.033848103 1.4040002
-0.20702729 -0.032740347 1.404
-0.2129353 -0.02584764 1.4040002
-0.20555028 -0.024057329 1.4040002
-0.2027809 -0.016308628 1.4040002
-0.19754982 -0.01292382 1.404
-0.19436079 -0.005259044 1.4040002
-0.1851535 0.0054508629 1.4040002
-0.18093348 0.0123084 1.404
-0.17650247 0.016493255 1.404
-0.060311161 0.0184626 1.404
-0.055387799 0.01189812 1.4039999
-0.17108676 0.020924279 1.404
-0.06523452 0.023385962 1.4039999
-0.28655165 -0.17242718 1.4150001
-0.27786827 -0.17242718 1.4150001
-0.26918489 -0.17242718 1.4150001
-0.28561264 -0.16450697 1.4144448
-0.27553266 -0.16521521 1.4147372
-0.26541314 -0.16456783 1.4136845
-0.25926101 -0.16250332 1.4150001
-0.28605548 -0.15431613 1.4150001
-0.27510056 -0.15563354 1.4145833
-0.26496723 -0.1555566 1.4150001
-0.25595307 -0.15202813 1.4150001
-0.2461119 -0.15257944 1.4150001
-0.23586905 -0.15151618 1.4150001
-0.22948942 -0.15009849 1.4150001
-0.28407067 -0.14761752 1.4150001
-0.26397485 -0.14315179 1.4150001
-0.25570336 -0.14431782 1.4139287
-0.24465272 -0.14500403 1.41
-0.23476392 -0.14500405 1.41
-0.22537945 -0.14444637 1.4104545
-0.2187897 -0.1421515 1.4100001
-0.27166584 -0.13025075 1.4150001
-0.26546344 -0.13397218 1.4150003
-0.25428346 -0.13544126 1.41
-0.24474777 -0.13597099 1.41
-0.23702218 -0.13628003 1.41
-0.222498 -0.1396793 1.4100001
-0.21693555 -0.13906124 1.4100001
-0.27216202 -0.12380024 1.4150001
-0.26568571 -0.12451736 1.4142859
-0.25463665 -0.1260822 1.41
-0.24474779 -0.1260822 1.41
-0.23774321 -0.12525813 1.41
-0.26472288 -0.1146098 1.4125001
-0.25463662 -0.1149573 1.41
-0.24474776 -0.1149573 1.41
-0.2373312 -0.11866561 1.4100001
-0.26427481 -0.10475729 1.4141668
-0.25486401 -0.1039217 1.4112501
-0.24474779 -0.1038324 1.41
-0.23774321 -0.10342037 1.4100002
-0.261742 -0.096757695 1.4150001
-0.25523219 -0.094501749 1.4146669
-0.24480285 -0.093963608 1.4103124
-0.23794924 -0.092089444 1.4100001
-0.25305858 -0.08559335 1.4150001
-0.24496807 -0.084129319 1.41125
-0.23856729 -0.084054798 1.4100001
-0.25181812 -0.07484249 1.4150001
-0.24496806 -0.074231744 1.41125
-0.23856729 -0.074166 1.4100001
-0.24524011 -0.064404584 1.4128126
-0.23750778 -0.063747443 1.41
-0.24513967 -0.054777931 1.413667
-0.23691916 -0.053976372 1.41
-0.24313474 -0.045897886 1.4150001
-0.23538874 -0.044146422 1.41
-0.24189425 -0.038454983 1.4150001
-0.23500364 -0.034914419 1.4123334
-0.22645351 -0.03386914 1.41
-0.23259062 -0.026670393 1.4150001
-0.22490415 -0.025282128 1.4117857
-0.21714157 -0.022661833 1.41
-0.22204651 -0.018607249 1.4150001
-0.2152195 -0.015395205 1.4132144
-0.20683032 -0.013293007 1.410625
-0.21294963 -0.0078563942 1.4150001
-0.20480786 -0.0056157252 1.4119232
-0.19818802 -0.0020601666 1.4100002
-0.20219879 0.0012404834 1.4150001
-0.19501212 0.0042892601 1.4126923
-0.18829922 0.0078286333 1.4100002
-0.29523677 -0.19140351 1.427
-0.30274281 -0.18514848 1.427
-0.2945382 -0.18471554 1.423625
-0.28749496 -0.1830899 1.4246
-0.3014918 -0.17514047 1.427
-0.2948885 -0.17497037 1.4227144
-0.2840181 -0.17604938 1.4222002
-0.27444929 -0.17506653 1.423
-0.2956602 -0.16466956 1.4230002
-0.28278375 -0.16817535 1.4210001
-0.25658754 -0.16233149 1.4222
-0.29497752 -0.15434805 1.4231428
-0.28228545 -0.15372473 1.4210001
-0.27364829 -0.15156545 1.4210001
-0.26484501 -0.15222985 1.4210001
-0.25466555 -0.15714161 1.4210002
-0.24504499 -0.15775353 1.4225001
-0.23143561 -0.15387341 1.427
-0.29441255 -0.14508079 1.4242001
-0.28434303 -0.144458 1.4230002
-0.2743127 -0.14475536 1.4210001
-0.26783481 -0.14575197 1.4210001
-0.22142759 -0.14636739 1.427
-0.29357728 -0.13491902 1.4250001
-0.2844013 -0.1347201 1.422875
-0.27553579 -0.13488005 1.4210004
-0.29287946 -0.1253981 1.4256667
-0.28402948 -0.12457431 1.4210001
-0.27673298 -0.12475228 1.4210002
-0.2919842 -0.11584292 1.427
-0.2843273 -0.11472806 1.4225
-0.27530929 -0.1146084 1.4210004
-0.29148379 -0.10508429 1.427
-0.2850782 -0.10502774 1.4262501
-0.27454659 -0.1044792 1.4222001
-0.26783481 -0.10090521 1.4210001
-0.29148379 -0.097578257 1.427
-0.28551745 -0.095364943 1.427
-0.27500606 -0.094999008 1.4258751
-0.26534331 -0.093883753 1.4210004
-0.28585428 -0.088195734 1.427
-0.27417818 -0.085693724 1.427
-0.26472977 -0.08491078 1.4243751
-0.25662312 -0.083464801 1.4210001
-0.2723017 -0.077979207 1.427
-0.2648685 -0.074960589 1.425125
-0.25620785 -0.074606188 1.4210002
-0.26500657 -0.065001227 1.4258749
-0.25537735 -0.064778656 1.4210004
-0.26426208 -0.055313822 1.4265385
-0.25532663 -0.054594014 1.4228463
-0.26145971 -0.047538124 1.427
-0.25444973 -0.045693956 1.4265385
-0.24665718 -0.043601017 1.4210001
-0.25228566 -0.0379471 1.427
-0.24581091 -0.034340784 1.4245001
-0.24399805 -0.026801355 1.4256667
-0.23594444 -0.023688994 1.4223335
-0.22797103 -0.021177636 1.4210001
-0.23324259 -0.017748466 1.4258001
-0.22546028 -0.014634514 1.4237275
-0.21800508 -0.01121169 1.4210001
-0.22226159 -0.007923021 1.427
-0.21513119 -0.0039916383 1.4234002
-0.20803913 -0.0012457434 1.4210001
-0.32252946 -0.19637714 1.439
-0.31356099 -0.19338603 1.4364288
-0.30455413 -0.19328509 1.433
-0.31178766 -0.18631358 1.436
-0.30707592 -0.18524608 1.4347143
-0.28450552 -0.18421631 1.436
-0.27879664 -0.18292089 1.439
-0.3068572 -0.17498355 1.4360002
-0.28014672 -0.17964566 1.4330001
-0.2776342 -0.17964566 1.4330001
-0.30465481 -0.16491239 1.4360002
-0.30465481 -0.15484124 1.4360002
-0.30388471 -0.14445762 1.4356668
-0.30186701 -0.13537924 1.4355716
-0.30118978 -0.12601689 1.4375001
-0.29773441 -0.12437007 1.4330001
-0.30150408 -0.11563963 1.439
-0.29719189 -0.11524297 1.4355714
-0.30150408 -0.10596796 1.439
-0.29647815 -0.10552612 1.4330001
-0.30150408 -0.097137302 1.439
-0.29597372 -0.095051363 1.4342
-0.28517178 -0.094219744 1.4330001
-0.2940594 -0.086026743 1.4373637
-0.28370613 -0.084379017 1.4330002
-0.2776342 -0.081657119 1.4330001
-0.29141188 -0.079475969 1.439
-0.28434759 -0.076295018 1.4376155
-0.27568001 -0.074398704 1.4330001
-0.27550915 -0.065416865 1.4350003
-0.2741088 -0.055480663 1.4357694
-0.27201054 -0.047139946 1.4378002
-0.26468995 -0.044703707 1.4346366
-0.25753397 -0.041456688 1.4330001
-0.26233229 -0.035674196 1.4363334
-0.25557977 -0.034198277 1.4330001
-0.25434542 -0.026458928 1.4372858
-0.24723782 -0.023046399 1.434
-0.34076467 -0.20395212 1.4450001
-0.33443081 -0.2052189 1.4449998
-0.32701105 -0.20467599 1.4449999
-0.3407647 -0.19888498 1.4450001
-0.33443081 -0.19804044 1.4450001
-0.32387426 -0.19494388 1.4449999
-0.31796262 -0.19128428 1.4450001
-0.31606245 -0.18495035 1.4450001
-0.28249267 -0.18621714 1.4450001
-0.31226209 -0.1748161 1.4450001
-0.31036192 -0.16468182 1.4450001
-0.31036192 -0.15454757 1.4450001
-0.31036192 -0.14441329 1.4450001
-0.30782834 -0.14061294 1.4450001
-0.31036192 -0.13807938 1.4450001
-0.30732161 -0.13351896 1.4450001
-0.30580148 -0.12490483 1.4450001
-0.30478805 -0.11477057 1.4450001
-0.30580148 -0.10362288 1.4450001
-0.30466139 -0.094375357 1.4450001
-0.30244452 -0.086774647 1.4449999
-0.29769409 -0.082340918 1.4450001
-0.30022764 -0.079807349 1.4450001
-0.29440045 -0.075753644 1.4449999
-0.28755981 -0.073473431 1.4450001
-0.29093793 -0.06671726 1.4450001
-0.28375947 -0.065872736 1.4449999
-0.29009339 -0.059538815 1.4450001
-0.28375947 -0.057005253 1.4450001
-0.27995911 -0.053204902 1.4450001
-0.2764121 -0.04636427 1.4450001
-0.26982486 -0.041803848 1.4450001
-0.27235842 -0.039270282 1.4450001
-0.26830474 -0.035723291 1.4450001
-0.33732378 -0.21257764 1.452
-0.34496132 -0.20239428 1.452
-0.34354725 -0.19557995 1.455
-0.33558378 -0.19430967 1.4544001
-0.32883766 -0.19305952 1.452
-0.32473966 -0.18565126 1.4555
-0.3186543 -0.18287617 1.452
-0.32210135 -0.17511065 1.4580001
-0.31750789 -0.17594624 1.4528571
-0.32082319 -0.16999795 1.4580001
-0.31650144 -0.165905 1.4557501
-0.31633905 -0.15561709 1.455
-0.32082319 -0.14443433 1.4580001
-0.31584787 -0.14518981 1.45275
-0.31485248 -0.1353813 1.4553334
-0.31378791 -0.1250039 1.4549999
-0.30931956 -0.12347323 1.452
-0.31428558 -0.11468378 1.4553334
-0.30931956 -0.11456279 1.452
-0.31289214 -0.10531572 1.4544001
-0.30931956 -0.10480374 1.452
-0.3131541 -0.094585322 1.4580001
-0.30931956 -0.094196081 1.452
-0.31379142 -0.084299393 1.4570001
-0.30733943 -0.083022669 1.4519999
-0.31272805 -0.074560501 1.4580001
-0.30522612 -0.074255787 1.4532856
-0.29849973 -0.071919978 1.452
-0.28895283 -0.070010602 1.452
-0.30311576 -0.064782158 1.4571429
-0.29659036 -0.064918928 1.4519999
-0.28895283 -0.064918928 1.452
-0.3003723 -0.057518099 1.4580001
-0.29441112 -0.056076337 1.4538
-0.28767991 -0.054735556 1.452
-0.29099897 -0.048996899 1.4580001
-0.28444871 -0.045916118 1.455
-0.27792087 -0.042854976 1.452
-0.34396192 -0.19187428 1.4640001
-0.33754471 -0.19123256 1.4640001
-0.34524536 -0.18558542 1.4640001
-0.33241096 -0.1860988 1.4640001
-0.32984409 -0.18353193 1.4640001
-0.34781224 -0.17839816 1.4640001
-0.32727718 -0.1750979 1.464
-0.32299906 -0.16513595 1.4640001
-0.32214344 -0.1540128 1.4640001
-0.32471031 -0.14502873 1.4640001
-0.32214344 -0.13861153 1.4640001
-0.31957656 -0.13347776 1.4640001
-0.31957656 -0.12577713 1.4640001
-0.31957656 -0.11593741 1.4640001
-0.31829312 -0.10524207 1.4640001
-0.31700969 -0.094974555 1.4640001
-0.31786531 -0.083423592 1.4640001
-0.31752306 -0.074696206 1.4640001
-0.31273153 -0.067166686 1.4640001
-0.30674216 -0.063530281 1.4640001
-0.30160838 -0.055187918 1.4640001
-0.33635071 -0.1920163 1.47
-0.34379655 -0.18457048 1.4700001
-0.33720982 -0.18514322 1.4700001
-0.34421945 -0.17533122 1.4705834
-0.33561429 -0.174895 1.47
-0.3286185 -0.1713971 1.47
-0.34442651 -0.16573907 1.4769999
-0.33430716 -0.16521543 1.4723334
-0.32775936 -0.16409446 1.4700001
-0.34364966 -0.1561573 1.4770001
-0.33536267 -0.15538038 1.4770001
-0.32732981 -0.15464401 1.4700001
-0.34178954 -0.14548108 1.4760001
-0.33437037 -0.14533284 1.4749001
-0.32810301 -0.14356117 1.47
-0.3416712 -0.1356326 1.4735001
-0.33277303 -0.13531043 1.4770001
-0.32559082 -0.13410228 1.4708751
-0.33018336 -0.12430432 1.4770001
-0.32582369 -0.12460414 1.4740001
-0.33018336 -0.11394563 1.4770001
-0.32552868 -0.11496431 1.4735001
-0.33018336 -0.10747144 1.4770001
-0.32469028 -0.10489327 1.4726251
-0.32398126 -0.095515169 1.4723334
-0.32320595 -0.086125046 1.4717501
-0.32304886 -0.074629232 1.4728
-0.31830889 -0.070878498 1.47
-0.30799931 -0.060568899 1.47
-0.34415415 -0.15545441 1.4829999
-0.34192541 -0.14171053 1.483
-0.33932522 -0.14301063 1.483
-0.34197745 -0.13600461 1.4870001
-0.33672503 -0.13442999 1.483
-0.34069809 -0.12923031 1.4890001
-0.33576551 -0.12493289 1.4844999
-0.33589628 -0.11385036 1.4870001
-0.33320358 -0.10351141 1.483857
