# .PCD v0.7 - Point Cloud Data file format
VERSION 0.7
FIELDS x y z
SIZE 4 4 4
TYPE F F F
COUNT 1 1 1
WIDTH 1439
HEIGHT 1
VIEWPOINT 0 0 0 1 0 0 0
POINTS 1439
DATA ascii
-0.055209309 -0.17395507 1.0532
-0.047258466 -0.17204554 1.057
-0.083153762 -0.16491817 1.0527
-0.076668881 -0.16692084 1.0505002
-0.067196503 -0.1684515 1.0500001
-0.054772567 -0.16616715 1.0514736
-0.045349799 -0.16500588 1.0537142
-0.037127249 -0.16549732 1.057
-0.086282641 -0.15476292 1.0530909
-0.042558663 -0.15826324 1.0508001
-0.03576662 -0.15421622 1.0539523
-0.026872464 -0.15243173 1.057
-0.094336584 -0.14331341 1.0559092
-0.087301977 -0.14488846 1.0510001
-0.03261796 -0.14552774 1.0510668
-0.027515059 -0.14477344 1.0532
-0.094253108 -0.13508624 1.0521363
-0.088920303 -0.1367863 1.0500001
-0.0303765 -0.1371545 1.0500001
-0.0285355 -0.1371545 1.0500001
-0.092834972 -0.12541528 1.0519167
-0.092296511 -0.11536722 1.0527999
-0.089288503 -0.112301 1.0500001
-0.092004657 -0.10678877 1.054
-0.088513531 -0.10458872 1.0507274
-0.087634139 -0.095421277 1.0522224
-0.11582958 -0.080617391 1.057
-0.085390091 -0.084072091 1.0505716
-0.016282037 -0.080798857 1.0513334
-0.11635909 -0.074792817 1.057
-0.082188301 -0.07410112 1.0515386
-0.074823499 -0.071404502 1.0500001
-0.065048672 -0.071185328 1.0500001
-0.041422501 -0.070878498 1.0500001
-0.034895316 -0.07188268 1.0500001
-0.024168167 -0.073196635 1.0502501
-0.016881345 -0.074271441 1.0534286
-0.11675622 -0.069497749 1.057
-0.080953732 -0.067100652 1.0533334
-0.074819721 -0.064989634 1.0507406
-0.064927682 -0.064679481 1.0520667
-0.055242974 -0.06463889 1.0513998
-0.044753838 -0.064868949 1.0508333
-0.035203483 -0.065095983 1.0533125
-0.025220854 -0.064897023 1.0543931
-0.017235443 -0.066532515 1.057
-0.07330136 -0.056150749 1.0539446
-0.066329174 -0.055634141 1.0557778
-0.053543665 -0.058297455 1.0555716
-0.045134649 -0.056303993 1.0544782
-0.035731643 -0.055426009 1.0565264
-0.081380092 -0.20111172 1.067
-0.076555789 -0.20073475 1.0650001
-0.082256854 -0.19428687 1.064889
-0.075180776 -0.19461568 1.0617692
-0.065398708 -0.19403152 1.0632082
-0.057466965 -0.19228135 1.0630001
-0.044107877 -0.19272946 1.0685
-0.038351536 -0.19269308 1.067
-0.091856614 -0.18165532 1.067
-0.084625579 -0.1852352 1.0626667
-0.077748641 -0.1861631 1.0600001
-0.06393189 -0.18787442 1.0603335
-0.054817013 -0.18550095 1.0614347
-0.044954132 -0.18514475 1.0654347
-0.036092192 -0.18308361 1.0666001
-0.10008816 -0.1711788 1.067
-0.093159661 -0.1740756 1.0650001
-0.086044088 -0.17552741 1.0610501
-0.044728402 -0.17620839 1.0613077
-0.035157487 -0.17491077 1.0632797
-0.027670816 -0.17536284 1.064
-0.10112751 -0.1649428 1.067
-0.094098203 -0.16489723 1.06268
-0.088280335 -0.16448019 1.0600001
-0.034382865 -0.16540946 1.0600001
-0.10279881 -0.15513287 1.0660001
-0.095758922 -0.1552982 1.0612221
-0.032524332 -0.15797533 1.0600001
-0.10180607 -0.14476588 1.0654
-0.096510969 -0.14682414 1.0600002
-0.10008816 -0.13002107 1.067
-0.099600382 -0.13497142 1.0618001
-0.10008816 -0.12565584 1.067
-0.097605832 -0.12401629 1.0621818
-0.12334644 -0.11297579 1.0666366
-0.11722572 -0.11399624 1.0666366
-0.10164716 -0.114431 1.067
-0.097492285 -0.1151141 1.0618
-0.13126828 -0.10382976 1.067
-0.12471927 -0.1052518 1.0616666
-0.11553749 -0.10486596 1.0628846
-0.10464315 -0.10518177 1.0684999
-0.096031062 -0.10436083 1.0634706
-0.13002107 -0.097281948 1.067
-0.12439535 -0.095018126 1.0629998
-0.11482729 -0.095110334 1.0616874
-0.10580522 -0.094530784 1.0650798
-0.092502631 -0.096370488 1.0641539
-0.088530183 -0.090393975 1.0630001
-0.12371099 -0.085399084 1.0658
-0.11462669 -0.084697716 1.06168
-0.10461122 -0.084998354 1.0638274
-0.094779104 -0.085057423 1.0683182
-0.088596806 -0.084863618 1.0638001
-0.12326047 -0.075392999 1.0657694
-0.11456747 -0.075449727 1.0601363
-0.10519459 -0.075406313 1.0619198
-0.095321409 -0.074891508 1.0657095
-0.08773154 -0.075597942 1.0646001
-0.013939 -0.071553536 1.0600001
-0.12082805 -0.066638939 1.0656667
-0.1142664 -0.064806543 1.0615356
-0.10523305 -0.065189205 1.0622998
-0.095313177 -0.064853594 1.0637271
-0.085627206 -0.064643688 1.0635415
-0.021373134 -0.060402334 1.0600001
-0.015432608 -0.064242639 1.0620526
-0.11382363 -0.057143614 1.0656668
-0.10524699 -0.054948553 1.0623999
-0.095138602 -0.055033334 1.0639999
-0.084677525 -0.054949835 1.0658572
-0.077567376 -0.053569682 1.0609001
-0.062260866 -0.052968197 1.0600002
-0.055064034 -0.053789083 1.0607896
-0.046773091 -0.051729176 1.0600001
-0.033685915 -0.051806618 1.0600001
-0.025117483 -0.054890204 1.0612799
-0.018033776 -0.055537168 1.0654616
-0.0065478231 -0.055188797 1.067
-0.10214219 -0.047643621 1.0656667
-0.096056074 -0.048703603 1.0661111
-0.084591448 -0.046030201 1.0684999
-0.075256638 -0.045014519 1.0634998
-0.065149337 -0.04467186 1.0616667
-0.05527937 -0.045139033 1.0648926
-0.044667829 -0.0451755 1.0637585
-0.034918055 -0.045140274 1.0635805
-0.025467042 -0.046356171 1.0647142
-0.018307179 -0.047972828 1.067
-0.076291598 -0.034632627 1.0677
-0.065441564 -0.034634344 1.0638274
-0.05830681 -0.037727933 1.067
-0.03367452 -0.038351536 1.067
-0.071090654 -0.028062101 1.067
-0.066101834 -0.028373903 1.067
-0.084247664 -0.21297902 1.0767499
-0.075111814 -0.21334516 1.0765294
-0.06703607 -0.21149409 1.077
-0.091584489 -0.20394072 1.077
-0.086027414 -0.20501234 1.0742173
-0.074958548 -0.20588243 1.0732857
-0.066876009 -0.20533805 1.0744166
-0.092837177 -0.19462653 1.0750833
-0.087057576 -0.19557567 1.0710714
-0.070352502 -0.1998011 1.0700001
-0.064724296 -0.1998011 1.0700001
-0.052529864 -0.19323486 1.0700001
-0.03389281 -0.19113263 1.074
-0.02360425 -0.19166651 1.077
-0.019827571 -0.19166651 1.077
-0.10197036 -0.18128064 1.077
-0.095338069 -0.18573458 1.0741764
-0.042680517 -0.18807568 1.0700001
-0.033737 -0.18634385 1.0709999
-0.026532961 -0.18585715 1.0749999
-0.1118965 -0.17152317 1.0762001
-0.10465596 -0.17478687 1.073421
-0.097768374 -0.17689507 1.0708572
-0.024809668 -0.17769907 1.0708573
-0.0196987 -0.17541224 1.0700001
-0.11247776 -0.16464938 1.0747499
-0.10575534 -0.16561641 1.0708822
-0.11395825 -0.15456034 1.076259
-0.10722222 -0.15454787 1.072
-0.12246279 -0.14208749 1.0762001
-0.1151152 -0.14437 1.0763333
-0.10624034 -0.14465412 1.0735292
-0.12315109 -0.1343116 1.074846
-0.11493088 -0.13471682 1.0746
-0.1051155 -0.13464624 1.0719047
-0.13189748 -0.12321813 1.0762001
-0.12476902 -0.12476757 1.0737271
-0.11468995 -0.12503567 1.0723666
-0.10522398 -0.12495212 1.0716499
-0.14068133 -0.11046789 1.077
-0.13448818 -0.11494738 1.0739999
-0.12558821 -0.11701003 1.0702142
-0.11379479 -0.11634726 1.0714999
-0.10696604 -0.11541124 1.0702999
-0.14068133 -0.10480286 1.077
-0.13540694 -0.10534587 1.071421
-0.11162597 -0.10881187 1.0700001
-0.14068133 -0.097249508 1.077
-0.13479309 -0.094723113 1.0725652
-0.10068225 -0.094741367 1.0700001
-0.096659102 -0.093770824 1.0704615
-0.13390471 -0.085503004 1.0728635
-0.12851056 -0.084422991 1.0700001
-0.13235576 -0.076262608 1.074
-0.12747625 -0.074294284 1.0705
-0.09192726 -0.079732835 1.0700001
-0.13123962 -0.068924412 1.077
-0.12540986 -0.064776801 1.0727057
-0.0084975297 -0.061371051 1.077
-0.12255643 -0.056617081 1.0744444
-0.11673411 -0.053264823 1.0713571
-0.087237097 -0.056282002 1.0700001
-0.012820507 -0.056155082 1.0744615
-0.0084580798 -0.055447415 1.072
-0.11384464 -0.047029424 1.0744001
-0.10545801 -0.044592597 1.0718461
-0.094326831 -0.043666329 1.0701362
-0.079732835 -0.041273467 1.0700001
-0.052529864 -0.040335432 1.0700001
-0.047464482 -0.041085862 1.0700001
-0.032831166 -0.040335432 1.0700001
-0.024714986 -0.041403405 1.0706668
-0.017667465 -0.043799143 1.0732223
-0.10208414 -0.037549209 1.0762001
-0.094895363 -0.034976076 1.0735
-0.085582055 -0.03479613 1.07276
-0.060972165 -0.0309551 1.0700001
-0.055228949 -0.034811556 1.0732999
-0.044346649 -0.036001865 1.0740951
-0.034870103 -0.034456089 1.0724782
-0.026058538 -0.035297107 1.0744761
-0.093225218 -0.027159035 1.0765556
-0.085631482 -0.025607288 1.0753332
-0.075695686 -0.02491672 1.0710384
-0.064315952 -0.024371702 1.0714736
-0.058305521 -0.026226887 1.0762
-0.034498516 -0.027671447 1.0769999
-0.029269271 -0.029269271 1.077
-0.083761372 -0.015960967 1.0769999
-0.074733749 -0.015296079 1.0740001
-0.066029489 -0.016202509 1.0752857
-0.059482709 -0.019827571 1.077
-0.08025445 -0.0084975297 1.077
-0.074589431 -0.0079580033 1.077
-0.068924412 -0.0084975297 1.077
-0.093049318 -0.22261848 1.0867499
-0.084684588 -0.22266038 1.0854
-0.077425972 -0.22238807 1.0849999
-0.10005835 -0.21059901 1.087
-0.094840899 -0.21473607 1.0854285
-0.085497953 -0.21671869 1.0803636
-0.073579803 -0.2175834 1.0806667
-0.0684852 -0.21555482 1.08
-0.10248401 -0.20418835 1.087
-0.096185021 -0.2045783 1.08225
-0.10567362 -0.19515897 1.0859199
-0.097868368 -0.19508018 1.0806154
-0.021335218 -0.19346477 1.08175
-0.017458292 -0.19281827 1.0824
-0.11244652 -0.18105796 1.087
-0.10598119 -0.18576485 1.0834761
-0.099413998 -0.1884132 1.08
-0.021829376 -0.18454422 1.0827143
-0.017544147 -0.18603316 1.0837998
-0.11453945 -0.17512654 1.0830001
-0.108882 -0.1789452 1.08
-0.021776401 -0.1789452 1.08
-0.0198828 -0.1789452 1.08
-0.12145932 -0.16376811 1.0845001
-0.11729799 -0.16611081 1.08
-0.12249919 -0.15482526 1.0845833
-0.11740319 -0.1552752 1.08
-0.13055232 -0.14008169 1.087
-0.12508932 -0.1455593 1.0836667
-0.1425321 -0.13191366 1.087
-0.13448307 -0.13400897 1.0856498
-0.12754747 -0.13649249 1.0822858
-0.14469254 -0.12434448 1.0862105
-0.13643131 -0.12554696 1.0818948
-0.1290804 -0.1290804 1.08
-0.14520586 -0.11488103 1.0838181
-0.1391796 -0.11835 1.08
-0.14615171 -0.10491803 1.0843683
-0.14376049 -0.094749816 1.0839285
-0.14141312 -0.085226685 1.0862501
-0.13930848 -0.085288271 1.0810001
-0.14008169 -0.078140803 1.087
-0.13655809 -0.073917903 1.0825555
-0.13405676 -0.064545132 1.0853157
-0.1297116 -0.064382404 1.08
-0.12604521 -0.054681681 1.084
-0.012624 -0.051758397 1.08
-0.0085212002 -0.051127199 1.08
-0.12133241 -0.047104612 1.0855
-0.11575048 -0.043153331 1.0832223
-0.014993805 -0.045003507 1.0828
-0.11149359 -0.039070401 1.087
-0.10521682 -0.03581861 1.0830001
-0.099782199 -0.03136012 1.0840001
-0.051732451 -0.032024983 1.0807999
-0.04613604 -0.031914175 1.0813333
-0.022249801 -0.032664597 1.08
-0.018057169 -0.035163395 1.0841999
-0.10101128 -0.029541036 1.087
-0.098152474 -0.029541036 1.087
-0.089946002 -0.021776401 1.08
-0.053735867 -0.025443008 1.0838888
-0.044463191 -0.027119942 1.0844705
-0.03516246 -0.022614319 1.0840666
-0.025065793 -0.024817552 1.0849999
-0.017713577 -0.02876238 1.0864
-0.086158797 -0.0151488 1.08
-0.062557176 -0.012337091 1.0827273
-0.057966474 -0.016670693 1.084
-0.027635163 -0.018105797 1.087
-0.080751225 -0.0047477344 1.0836667
-0.074619621 -0.0037924054 1.0825624
-0.065901577 -0.0055542369 1.0845789
-0.072232604 0.0024776352 1.087
-0.068611443 0.0019058733 1.087
-0.10152794 -0.23220037 1.0960001
-0.094853967 -0.23346108 1.0928888
-0.085497931 -0.23369606 1.0932106
-0.079180241 -0.23241164 1.097
-0.10201036 -0.22504686 1.0949092
-0.096193723 -0.22615077 1.09
-0.085075244 -0.22750866 1.0904001
-0.076308474 -0.22657984 1.0956666
-0.11059588 -0.21061303 1.097
-0.10402729 -0.21436782 1.0936
-0.11255065 -0.20494021 1.0952222
-0.10679889 -0.20499481 1.0903637
-0.11361979 -0.19437999 1.0915334
-0.12021291 -0.18272364 1.097
-0.11524808 -0.18532082 1.0931876
-0.0143335 -0.1863355 1.09
-0.12300636 -0.1744287 1.0952222
-0.11809085 -0.17818883 1.0916001
-0.12637046 -0.16456492 1.0942727
-0.14233209 -0.15098742 1.097
-0.13346305 -0.15291083 1.097
-0.12797074 -0.15512784 1.0934167
-0.15098742 -0.14137039 1.097
-0.14412546 -0.14423232 1.0960001
-0.13537998 -0.14497371 1.0939167
-0.12864207 -0.14681536 1.0910001
-0.15219761 -0.13456021 1.0956364
-0.14529085 -0.13617218 1.0915883
-0.13664603 -0.13855717 1.09
-0.15256582 -0.12523018 1.0926667
-0.14811283 -0.12804593 1.09
-0.15241148 -0.11617444 1.0934
-0.15147978 -0.10505041 1.0918751
-0.15100978 -0.095656753 1.0948334
-0.14804344 -0.09411791 1.0918335
-0.14639194 -0.085077055 1.0947647
-0.14529754 -0.074636638 1.0955001
-0.15098742 -0.061549012 1.097
-0.14512421 -0.06439162 1.09628
-0.13792013 -0.063385919 1.09
-0.1513074 -0.055664241 1.0946667
-0.14476055 -0.054650322 1.09356
-0.1350324 -0.054585829 1.0924
-0.12864207 -0.052124847 1.0910001
-0.14263739 -0.045380652 1.0942308
-0.13532494 -0.04510976 1.0948
-0.12634696 -0.044641279 1.0945715
-0.11782458 -0.04118989 1.0926667
-0.012439199 -0.04344444 1.0916002
-0.0086000999 -0.046822768 1.09
-0.14167775 -0.037100181 1.0964
-0.1355833 -0.036286946 1.0961429
-0.12517329 -0.037000269 1.097
-0.11450642 -0.036541894 1.0947694
-0.10737125 -0.033234809 1.0921429
-0.012462343 -0.035481032 1.0938667
-0.10421532 -0.027827153 1.0946001
-0.051446658 -0.021610534 1.0908
-0.045298375 -0.021725081 1.0922309
-0.038222667 -0.0200669 1.09
-0.021340989 -0.020703943 1.09
-0.013922208 -0.024317384 1.0926923
-0.0086316597 -0.025255598 1.0940001
-0.054391142 -0.013997036 1.0936667
-0.04408481 -0.017440906 1.0965716
-0.035277471 -0.014521289 1.092375
-0.024772361 -0.014215539 1.0913104
-0.015800642 -0.016501019 1.0955455
-0.078356467 -0.00095556665 1.09
-0.062195379 -0.0028687166 1.0915
-0.057073433 -0.0065059382 1.0952222
-0.033630688 -0.00864744 1.0960001
-0.028228316 -0.0078717647 1.0951999
-0.075962201 0.0050973301 1.0906668
-0.06633918 0.004789066 1.0928125
-0.073222972 0.011888389 1.0933001
-0.068280935 0.010578737 1.097
-0.10395063 -0.24489672 1.1068748
-0.095877089 -0.24395812 1.1046999
-0.085282296 -0.24212976 1.1043636
-0.10647221 -0.23557238 1.1045237
-0.09555579 -0.23840687 1.1010001
-0.080852918 -0.23805211 1.1023334
-0.076436661 -0.23473513 1.1037
-0.12303653 -0.22318491 1.1075714
-0.11473041 -0.22422047 1.1072
-0.10738 -0.22539674 1.1034615
-0.072563745 -0.22607976 1.1036667
-0.12308906 -0.21532771 1.1055293
-0.11536207 -0.21527904 1.1035599
-0.10858612 -0.21765485 1.1010001
-0.12174113 -0.20639519 1.1073999
-0.11738137 -0.20574901 1.1028999
-0.12182759 -0.19324671 1.1058334
-0.11866867 -0.19541819 1.1035
-0.12452051 -0.18493594 1.1044666
-0.01544336 -0.1833899 1.1010001
-0.13176684 -0.17329524 1.1068001
-0.12748215 -0.17584398 1.1032999
-0.15055872 -0.1602722 1.108
-0.14436916 -0.1632309 1.107357
-0.13433436 -0.16531764 1.1046189
-0.12837292 -0.16891176 1.1010001
-0.15276 -0.15335652 1.1066153
-0.14477175 -0.15594283 1.1025554
-0.13699307 -0.1563088 1.1015713
-0.15528414 -0.14511162 1.1044374
-0.14822868 -0.1479529 1.101
-0.16091977 -0.13436963 1.108
-0.15701187 -0.13539439 1.1024547
-0.16124354 -0.12627506 1.108
-0.15834154 -0.12546304 1.103
-0.15717691 -0.11455207 1.1049999
-0.1570487 -0.10507639 1.1051818
-0.16191715 -0.092490204 1.1076249
-0.15600371 -0.09487363 1.1042856
-0.16119006 -0.087834112 1.1010001
-0.15525372 -0.084627703 1.1014284
-0.15421911 -0.074857399 1.101
-0.15327536 -0.065248199 1.101
-0.15443361 -0.058877811 1.1010001
-0.14381629 -0.036677979 1.1010001
-0.13319898 -0.031851929 1.1010001
-0.12476497 -0.032619484 1.101923
-0.11641887 -0.032067589 1.1024544
-0.0077392128 -0.032894287 1.1036668
-0.1325555 -0.029278034 1.101
-0.12458634 -0.026510036 1.1057057
-0.11459766 -0.026520507 1.1061175
-0.1064748 -0.023615105 1.104923
-0.0086868899 -0.029921509 1.1010001
-0.05115613 -0.013512939 1.1010001
-0.045822486 -0.013304878 1.1016666
-0.03957361 -0.01061731 1.1010001
-0.014768326 -0.013079647 1.1049999
-0.053772435 -0.0038663195 1.1027498
-0.04601736 -0.0066508949 1.1067142
-0.034865864 -0.0048391512 1.104722
-0.024021849 -0.0044127209 1.1037824
-0.01718697 -0.0051975176 1.1060001
-0.062248595 0.0059948219 1.1025999
-0.056248929 0.0040976866 1.1062777
-0.031083092 0.00097134669 1.108
-0.071953438 0.01710362 1.1041666
-0.066035047 0.01343166 1.1054285
-0.073822349 0.02039828 1.108
-0.11233383 -0.25375831 1.1185555
-0.10515054 -0.25456333 1.1160588
-0.094860666 -0.25492841 1.1166999
-0.087308116 -0.25389805 1.1190002
-0.12223135 -0.24191216 1.1190001
-0.11418909 -0.24480741 1.1161
-0.10820872 -0.24761274 1.1120001
-0.092611074 -0.24810018 1.1120001
-0.085017256 -0.24751996 1.1147144
-0.075095467 -0.2433781 1.1170001
-0.066179089 -0.24245545 1.1190002
-0.13112567 -0.23249464 1.1190001
-0.12392499 -0.23484378 1.1157
-0.11508285 -0.23514622 1.1139473
-0.072671458 -0.23540621 1.1142
-0.067505814 -0.23406035 1.1186668
-0.13103196 -0.22563423 1.1163335
-0.12548681 -0.22691888 1.1125001
-0.11834719 -0.22753076 1.1120001
-0.072027512 -0.22912325 1.1153334
-0.064829014 -0.22543025 1.1185555
-0.13141379 -0.21423715 1.115889
-0.12817734 -0.21463889 1.1123334
-0.062558934 -0.21993375 1.115
-0.13089898 -0.20565534 1.1178572
-0.12584791 -0.20457532 1.113875
-0.11990696 -0.20179464 1.1120001
-0.1311882 -0.19455075 1.1176667
-0.12588778 -0.19584928 1.1131539
-0.14028157 -0.18246414 1.1190001
-0.13435599 -0.18420506 1.1164668
-0.12916806 -0.1866844 1.1120001
-0.15498273 -0.17384838 1.1180001
-0.14522555 -0.17417976 1.1155498
-0.13684049 -0.17541558 1.1139375
-0.16253242 -0.1633172 1.1182001
-0.15558173 -0.1653534 1.1149582
-0.14574057 -0.16767478 1.1120001
-0.13940403 -0.16864963 1.1120001
-0.16368282 -0.15504976 1.1156471
-0.15712863 -0.15641965 1.1120002
-0.16315624 -0.14499095 1.1153573
-0.16418681 -0.1358047 1.1161001
-0.1634682 -0.12314504 1.1148751
-0.16429654 -0.11392625 1.1155
-0.16482429 -0.10462257 1.1135832
-0.16354807 -0.097738437 1.1132858
-0.12353534 -0.021131026 1.1125001
-0.1158757 -0.021652792 1.1126001
-0.10723387 -0.020471919 1.1120001
-0.12159612 -0.017761266 1.1132001
-0.11403668 -0.015117836 1.1161361
-0.10492459 -0.014517304 1.1168332
-0.098224364 -0.012349954 1.1182001
-0.011707883 -0.012683614 1.113
-0.0087973503 -0.011729799 1.115
-0.11379484 -0.0088289101 1.1190001
-0.097118013 -0.0088289101 1.1190001
-0.045286365 -0.0025700675 1.1120002
-0.038019281 -0.0019497066 1.1120001
-0.012563887 -0.004602625 1.1147144
-0.0088225976 -0.0049028462 1.1182001
-0.053079784 0.0068273549 1.1124287
-0.045285694 0.0046166824 1.116107
-0.034470741 0.0040891864 1.1158824
-0.024433963 0.0048929225 1.1148798
-0.015722191 0.0038607884 1.117
-0.0088289101 0.00196198 1.1190001
-0.06344936 0.016595388 1.1135
-0.054959133 0.014816815 1.116138
-0.048032742 0.011960363 1.1182001
-0.024244467 0.011351457 1.1190001
-0.017167324 0.012262376 1.1190001
-0.072683886 0.023742652 1.116625
-0.0659521 0.022986356 1.117
-0.058270805 0.021385584 1.1190001
-0.11300479 -0.26209947 1.1248
-0.10564805 -0.26246428 1.1243638
-0.095290974 -0.26328418 1.124154
-0.089589193 -0.26089162 1.123
-0.12306178 -0.25303349 1.126
-0.11714891 -0.25575542 1.1243848
-0.10337215 -0.25892264 1.123
-0.083955631 -0.25506914 1.1233751
-0.13128784 -0.24283315 1.126
-0.12571053 -0.24605213 1.1241667
-0.1191241 -0.24809316 1.123
-0.075877257 -0.24798679 1.1240001
-0.067334428 -0.24601604 1.1240001
-0.13388366 -0.23503394 1.125182
-0.12896906 -0.23923269 1.123
-0.06576208 -0.23514403 1.1233335
-0.14115912 -0.22012925 1.126
-0.1369991 -0.22405766 1.1242501
-0.067750432 -0.22691825 1.1247143
-0.14115912 -0.2112451 1.126
-0.13702945 -0.21490462 1.1245
-0.14115912 -0.20433521 1.126
-0.1364333 -0.2047004 1.125
-0.14115912 -0.19446395 1.126
-0.13678333 -0.19519004 1.1245
-0.16151987 -0.18203001 1.1248
-0.15496761 -0.18256278 1.1241251
-0.14492691 -0.18378246 1.1245883
-0.13815771 -0.18738253 1.123
-0.16325749 -0.17437266 1.1249092
-0.15653497 -0.17819388 1.123
-0.16618989 -0.16553122 1.1246667
-0.17077291 -0.15399176 1.126
-0.16846135 -0.15467183 1.12375
-0.16819397 -0.14500965 1.1252501
-0.17143099 -0.13194592 1.126
-0.16861877 -0.13509539 1.1248
-0.17260614 -0.12508306 1.1260002
-0.16783543 -0.1259371 1.1245
-0.17258075 -0.11645975 1.1249092
-0.16769259 -0.11846777 1.123
-0.11181466 -0.006894764 1.12375
-0.10510863 -0.0064329798 1.1242353
-0.096140288 -0.0044007497 1.1244
-0.089828528 -0.00098712661 1.126
-0.088512361 0.0016452111 1.126
-0.04134886 0.0088604698 1.123
-0.03480177 0.0085362494 1.1235
-0.012807474 0.0068974881 1.1238573
-0.008872305 0.0059161847 1.1245
-0.044479553 0.014388731 1.1242002
-0.034032859 0.011838287 1.1252501
-0.024510231 0.015766907 1.1239376
-0.016264578 0.013801362 1.1245
-0.072951376 0.028588537 1.1245
-0.063813284 0.027476408 1.123
-0.053763893 0.025092673 1.1243634
-0.047349863 0.021702981 1.12525
-0.071996249 0.031231834 1.125
-0.064684689 0.031490903 1.1257274
-0.056266218 0.031094488 1.126
-0.10575055 -0.2803387 1.138
-0.12271054 -0.27135989 1.138
-0.11436263 -0.27337477 1.136
-0.10488089 -0.27448407 1.135778
-0.096522257 -0.27227241 1.1317143
-0.13168935 -0.26138341 1.138
-0.12435231 -0.26461902 1.1347501
-0.1163357 -0.26601022 1.1312308
-0.10520526 -0.26766914 1.13
-0.095695183 -0.26766914 1.13
-0.13382505 -0.25456306 1.1346154
-0.12664203 -0.25579989 1.1306154
-0.0802413 -0.25360215 1.13
-0.076149411 -0.25247085 1.1313334
-0.13555767 -0.24568583 1.1317501
-0.14116846 -0.23284443 1.1366667
-0.13749675 -0.23670176 1.1316
-0.14490172 -0.22444697 1.1342858
-0.1396793 -0.2288363 1.13
-0.15064465 -0.21150109 1.138
-0.14514373 -0.21557637 1.1325883
-0.15139289 -0.20426814 1.138
-0.14553872 -0.20528796 1.1312499
-0.16358565 -0.19367039 1.1364001
-0.15449458 -0.1947511 1.1353334
-0.14593609 -0.19499475 1.1305
-0.17179474 -0.18376651 1.138
-0.16575737 -0.18576416 1.1331428
-0.15508914 -0.1883304 1.13
-0.14800063 -0.18841846 1.13
-0.17272322 -0.17438477 1.1366667
-0.16817543 -0.1762889 1.1314546
-0.17376375 -0.16360879 1.1351999
-0.16959818 -0.16761692 1.1313334
-0.17481996 -0.15530115 1.1356
-0.17310034 -0.14465025 1.1357143
-0.16939829 -0.14661373 1.13
-0.18214153 -0.13237841 1.1353334
-0.17545314 -0.13534413 1.1324002
-0.17776364 -0.12691113 1.13
-0.17732337 -0.118876 1.13
-0.11194157 -0.0019812665 1.13
-0.10599777 -0.0016510554 1.13
-0.097082064 -0.00099063327 1.13
-0.11173993 0.0023225823 1.1346666
-0.10417532 0.0048072017 1.1335002
-0.094497949 0.0051340526 1.1326668
-0.086686052 0.0069539701 1.1328571
-0.10297092 0.011626353 1.1366667
-0.095467247 0.0126202 1.1363335
-0.087792903 0.010974113 1.138
-0.041960776 0.017512294 1.1306667
-0.034964666 0.016287744 1.1318825
-0.0267471 0.018822033 1.13
-0.01463069 0.01711341 1.1315
-0.076278768 0.028728366 1.13
-0.044586487 0.024945261 1.1331111
-0.034285031 0.022124965 1.1368002
-0.024844104 0.02485 1.1335202
-0.017146237 0.022903405 1.1357778
-0.07322669 0.034762066 1.1329091
-0.064438157 0.036680784 1.1308
-0.054167736 0.035375841 1.1313331
-0.047984879 0.032456659 1.1356
-0.024442343 0.031425871 1.138
-0.063583583 0.042257085 1.1368001
-0.055635307 0.042517748 1.1366667
-0.13551074 -0.28005555 1.1450001
-0.12145779 -0.28005555 1.1450001
-0.11531286 -0.2820608 1.1458001
-0.10661757 -0.28240618 1.1436667
-0.13344245 -0.2748495 1.1454707
-0.12576562 -0.27572167 1.1412354
-0.11453168 -0.27807692 1.141
-0.10102794 -0.2790772 1.141
-0.14001331 -0.26189539 1.149
-0.13472988 -0.26552472 1.146091
-0.1290357 -0.26807415 1.141
-0.14178067 -0.25540984 1.1470001
-0.13790186 -0.25824714 1.1440001
-0.14186306 -0.24850959 1.1476668
-0.14480254 -0.23428303 1.1470001
-0.15268408 -0.22416075 1.1483334
-0.1611664 -0.21052361 1.149
-0.15441431 -0.21568719 1.1458572
-0.17305242 -0.2024653 1.149
-0.16485211 -0.20415404 1.1471541
-0.15679719 -0.20542678 1.1437502
-0.18030491 -0.19138509 1.149
-0.17443705 -0.19503213 1.1460003
-0.16695057 -0.19718727 1.1428183
-0.15804371 -0.19905506 1.141
-0.18030493 -0.18634863 1.149
-0.17596228 -0.1859906 1.144143
-0.18265527 -0.17358965 1.149
-0.17763771 -0.17548676 1.1438572
-0.18221463 -0.16533986 1.1458001
-0.17821631 -0.16641812 1.1427778
-0.18166637 -0.15518315 1.1470001
-0.17911148 -0.15466972 1.1456667
-0.1817365 -0.14498796 1.1485001
-0.17699528 -0.14561389 1.1455001
-0.18290719 -0.13803169 1.1425999
-0.17904952 -0.13903846 1.141
0.0073343185 -0.07464578 1.1484287
0.011467678 -0.073828481 1.1474
0.012076084 -0.068435229 1.1480001
-0.11141995 0.0090340497 1.1450001
-0.10903016 0.00900249 1.141
-0.11141995 0.011041617 1.1450001
-0.10518054 0.015734352 1.1455334
-0.094903558 0.017779356 1.1439092
-0.085704297 0.016074367 1.1456668
-0.0083940839 0.014102059 1.149
-0.10274358 0.021153091 1.149
-0.096528009 0.02111627 1.1470001
-0.088641524 0.021153091 1.149
-0.077561326 0.025182249 1.149
-0.041011345 0.029008023 1.141
-0.035066869 0.027360026 1.1428462
-0.013037708 0.026721196 1.1442728
-0.0086626941 0.023973502 1.149
-0.043367706 0.035888217 1.1434001
-0.035660755 0.033986613 1.1476668
-0.025117667 0.034998145 1.1460001
-0.016334053 0.034184523 1.1467501
-0.071393102 0.042234294 1.1470001
-0.065434553 0.04652353 1.1453335
-0.054755405 0.047833566 1.1431819
-0.046324175 0.04431707 1.1471335
-0.039284311 0.041298889 1.149
-0.062503204 0.053308722 1.1472858
-0.055413559 0.054555513 1.1472859
-0.049357209 0.053386368 1.149
-0.11422002 -0.28807706 1.153
-0.14166437 -0.2731857 1.1570001
-0.13847914 -0.2739259 1.153
-0.14302398 -0.26477563 1.1552222
-0.13847914 -0.2688719 1.153
-0.14474449 -0.25406203 1.1545999
-0.14396407 -0.24466452 1.1552857
-0.1511312 -0.23227546 1.1570001
-0.14580895 -0.23693319 1.155
-0.16228853 -0.22213243 1.1570001
-0.15698609 -0.22527491 1.1552857
-0.17407006 -0.21448614 1.1569998
-0.16500035 -0.21519305 1.1554443
-0.15869507 -0.21833208 1.153
-0.18156029 -0.20184636 1.1570001
-0.17604563 -0.20669629 1.1557498
-0.16743326 -0.20891099 1.154
-0.18353219 -0.19433664 1.1552222
-0.17891102 -0.19912694 1.153
-0.18510841 -0.18554161 1.1547142
-0.18586589 -0.17608202 1.1543332
-0.18496205 -0.15154499 1.155
-0.18609472 -0.14665142 1.1536666
0.0050539831 -0.072271958 1.153
0.0064107706 -0.067650475 1.1546665
0.012357669 -0.06421566 1.1554
-0.0080863731 0.0090971701 1.153
-0.081874527 0.019205136 1.153
-0.079852939 0.01819434 1.153
-0.0070755766 0.017183542 1.153
-0.10171325 0.025033215 1.1552857
-0.094151013 0.02561778 1.1564666
-0.084145598 0.025347065 1.1564283
-0.078842141 0.02425912 1.153
-0.0057293088 0.025952255 1.1533333
-0.09838742 0.032457706 1.1570001
-0.080129966 0.031443402 1.1570001
-0.034238216 0.038574211 1.1535714
-0.026754489 0.038613286 1.1547143
-0.013156574 0.036943607 1.1545
-0.0067526712 0.03208337 1.1556667
-0.072905354 0.043536142 1.155
-0.069744967 0.047507443 1.153
-0.043538772 0.047338028 1.155
-0.036691129 0.043585587 1.1562001
-0.023836128 0.04209359 1.1570001
-0.016936323 0.042994361 1.1558572
-0.065103896 0.054984242 1.1543332
-0.055133127 0.059688725 1.154
-0.047604926 0.053279411 1.1554
-0.056800991 0.061872505 1.1570001
-0.15081443 -0.27132979 1.1650001
-0.14605558 -0.27410415 1.1623334
-0.15121554 -0.26527768 1.1663334
-0.14700083 -0.2665208 1.1610001
-0.15033974 -0.25465569 1.1666
-0.14758246 -0.25547031 1.161
-0.15013355 -0.24103072 1.1650001
-0.14834581 -0.2452922 1.1610001
-0.18139373 -0.23058525 1.169
-0.17524478 -0.23058525 1.169
-0.16397172 -0.23212248 1.169
-0.15466191 -0.23440678 1.1661431
-0.14893954 -0.23714973 1.161
-0.18234482 -0.22483686 1.1663334
-0.17486392 -0.22462071 1.1634446
-0.16589735 -0.22540621 1.1627501
-0.15979616 -0.22697163 1.161
-0.18309365 -0.21440466 1.1650001
-0.17675966 -0.21815062 1.161
-0.16997427 -0.21882915 1.161
-0.1934707 -0.20165992 1.1676668
-0.18605223 -0.20520103 1.1652501
-0.19072393 -0.19481058 1.1634001
-0.18704589 -0.19722985 1.1616668
-0.19085507 -0.18472856 1.1642001
-0.18829484 -0.18218799 1.161
-0.19131409 -0.17801593 1.1670001
-0.18829484 -0.17709894 1.161
0.0071549155 -0.062123448 1.1665
0.013239244 -0.060906418 1.1618
0.0087109981 -0.056877695 1.169
0.014991953 -0.053955741 1.1670872
0.021521291 -0.051241167 1.169
0.021521291 -0.048166696 1.169
-0.1052227 0.027524509 1.1627778
-0.094656326 0.027480869 1.1610001
-0.084478229 0.02951649 1.161
-0.102901 0.034930404 1.162143
-0.094413012 0.035935212 1.1623915
-0.085035652 0.03571514 1.1637825
-0.077415802 0.038608573 1.1650001
-0.01119591 0.039694589 1.161
-0.0057331985 0.037958518 1.1653076
-0.095040664 0.04190274 1.1658001
-0.076688752 0.042602789 1.1663333
-0.068193272 0.049872689 1.161
-0.04173021 0.049872689 1.161
-0.034707949 0.046926774 1.1613637
-0.025854325 0.045471277 1.16225
-0.014356494 0.045754112 1.1637692
-0.0057147839 0.045432728 1.1668825
0.0010248233 0.047141872 1.169
-0.066157654 0.054961741 1.161
-0.044414837 0.055697124 1.1616155
-0.035742074 0.054131452 1.1650003
-0.024639796 0.052357025 1.1674615
-0.017397683 0.054243166 1.1674
-0.0026645407 0.051036201 1.169
-0.063665129 0.065106578 1.1657058
-0.053732809 0.065867625 1.164294
-0.045579948 0.062755838 1.1658001
-0.03871097 0.061652981 1.1682001
-0.016397173 0.060464576 1.169
-0.062855825 0.071396023 1.169
-0.056365281 0.070712812 1.169
-0.15580733 -0.27137303 1.177
-0.15477286 -0.26482573 1.1754
-0.15343018 -0.25434116 1.1746
-0.17438039 -0.24041794 1.177
-0.15373841 -0.24429035 1.1738001
-0.18242586 -0.23396158 1.1756667
-0.17464723 -0.23558302 1.1762729
-0.16563633 -0.23609683 1.1750001
-0.15785453 -0.23729488 1.1738001
-0.19193631 -0.22388117 1.1755
-0.18715604 -0.22349037 1.1730002
-0.19401832 -0.21481487 1.1750953
-0.18767022 -0.21749181 1.1730001
-0.19560772 -0.20692988 1.1743335
-0.19561753 -0.18295571 1.1752859
-0.19501713 -0.17850775 1.177
0.0030902498 -0.061806753 1.1750001
0.0066167042 -0.055437021 1.174143
0.0092865303 -0.048496325 1.177
0.016895821 -0.046762977 1.1750001
0.021644024 -0.04431637 1.1756667
-0.094325908 0.046087876 1.1730002
-0.085363418 0.045114394 1.1758572
-0.077514201 0.046613462 1.1750001
-0.0020584133 0.043265253 1.1750001
-0.091833465 0.050559998 1.177
-0.087706119 0.051591832 1.177
-0.073673144 0.051798202 1.177
-0.068499669 0.057172254 1.1750001
-0.032960914 0.058714747 1.1750001
-0.026775448 0.056640264 1.1746668
-0.01246279 0.054084972 1.173889
-0.0059330612 0.053655509 1.177
-0.068215005 0.063270614 1.1754
-0.043446939 0.068126865 1.1730002
-0.036582425 0.064408697 1.1755
-0.023197915 0.061858475 1.1760001
-0.017531706 0.062912479 1.1764287
-0.063448168 0.074769147 1.1736668
-0.053983051 0.074601375 1.1757501
-0.044081029 0.074749932 1.1768183
-0.042305302 0.081515096 1.177
-0.16208327 -0.26596901 1.1884286
-0.15804584 -0.26409894 1.1827143
-0.16156529 -0.25850445 1.189
-0.15780541 -0.25572681 1.1858001
-0.18220787 -0.24329166 1.1876668
-0.17807905 -0.24123499 1.1810001
-0.16457634 -0.24253567 1.1856667
-0.15811297 -0.24537918 1.1850001
-0.182529 -0.23853399 1.1830001
-0.17393768 -0.23864664 1.1810001
-0.20049804 -0.22335275 1.1850001
-0.19788453 -0.22275099 1.1818001
-0.20257574 -0.21919735 1.1850001
-0.19982126 -0.2174221 1.1810001
-0.20189194 -0.20603332 1.1810001
-0.19842035 -0.17972104 1.1850001
0.0017308322 -0.065070286 1.1843334
0.0046708798 -0.053947873 1.1835002
0.0081240702 -0.046040606 1.1882
0.014587208 -0.042938959 1.1831334
0.02174221 -0.040378388 1.1810001
0.0093654301 -0.037459966 1.187
0.015602856 -0.036406506 1.1866001
0.021852668 -0.037459966 1.187
-0.073509373 0.048661135 1.1810001
-0.0010388499 0.04259285 1.1850001
0.0020847134 0.044821337 1.189
-0.083448537 0.054792069 1.1831819
-0.075920396 0.055511318 1.1828947
-0.011388777 0.05901457 1.1810001
-0.0072509102 0.056966092 1.1814445
-0.074391551 0.062213156 1.1855716
-0.032442339 0.066208266 1.1836667
-0.025205167 0.065686755 1.1838571
-0.015580837 0.066393249 1.1850001
-0.0066768182 0.062450852 1.1844286
-0.064298242 0.0788211 1.1830002
-0.055596739 0.079421334 1.1816669
-0.046590451 0.079721436 1.1810001
-0.037348188 0.0744415 1.1835001
-0.021889489 0.071922608 1.189
-0.018762421 0.071922608 1.189
-0.061395597 0.083250016 1.187
-0.054441571 0.084743291 1.1847647
-0.044888832 0.084947437 1.1816666
-0.038437448 0.082069151 1.1850001
-0.052074876 0.091651119 1.1880001
-0.04654596 0.091795549 1.1865001
-0.16420054 -0.27087861 1.1930001
-0.16503723 -0.26293007 1.1930001
-0.16346037 -0.25588235 1.1941429
-0.18438229 -0.24618992 1.1950001
-0.16329406 -0.24755268 1.194
-0.00104937 -0.070307791 1.197
0.00104937 -0.070307791 1.197
-0.0010458634 -0.067981116 1.1930001
0.0073455898 -0.04617228 1.197
0.016499525 -0.031689089 1.1950001
0.021999951 -0.031426746 1.1950001
0.0020917268 0.041834533 1.1930001
-0.012214596 0.067359857 1.1943334
-0.0077506104 0.066817254 1.1946001
-0.03297082 0.076023385 1.1954615
-0.025454735 0.075007029 1.1951178
-0.015475016 0.075064979 1.194778
-0.0087447502 0.071007371 1.197
-0.063463479 0.0852497 1.1946
-0.058916967 0.088201143 1.1930001
-0.040788669 0.088898383 1.1930001
-0.036392059 0.083120897 1.1958572
-0.023339279 0.083128817 1.1965001
-0.017159807 0.083232686 1.1948463
-0.061912831 0.093393929 1.197
-0.05594448 0.095754281 1.1950002
-0.045257393 0.095754266 1.1949999
-0.051419131 0.10178889 1.197
-0.16739948 -0.27383032 1.2060001
-0.16810434 -0.26642951 1.2060001
-0.1653495 -0.25277144 1.2044001
-0.17127612 -0.24845611 1.2060001
-0.16543928 -0.24973954 1.202
0.007380656 -0.043241583 1.2030001
0.013698793 -0.030558847 1.202
0.016888106 -0.02744142 1.2040001
0.022184929 -0.024293311 1.2050002
0.02220246 -0.017973419 1.2060001
-0.011591286 0.076923996 1.202
-0.0073762736 0.07481648 1.202
-0.065387942 0.087534294 1.2030001
-0.033941615 0.085825376 1.2036667
-0.025617952 0.086635232 1.2038182
-0.017913807 0.089569032 1.202
-0.064634293 0.095599726 1.2042223
-0.043297395 0.097511627 1.2046667
-0.039053746 0.092886344 1.204
-0.061989602 0.10180629 1.2042859
-0.05475913 0.10424326 1.2037779
-0.047986977 0.10230086 1.2030001
-0.17276752 -0.25477022 1.2180001
-0.16866189 -0.25458401 1.21
-0.0010686567 -0.050226863 1.2190001
0.0017737889 -0.050730363 1.2140001
-0.0039831745 -0.045757934 1.219
0.0030013083 -0.044670548 1.2159091
0.0074805967 -0.03740298 1.2190001
0.014547349 -0.023922073 1.2146
0.02068495 -0.022806484 1.21
0.016186453 -0.015216541 1.2163637
0.021093352 -0.014413653 1.2117144
0.018167162 -0.0096179098 1.2190001
0.020304477 -0.0096179098 1.2190001
-0.069462679 0.088698506 1.2190001
-0.030762233 0.08804363 1.21
-0.028640701 0.08804363 1.21
-0.068514638 0.093729563 1.2130001
-0.0413699 0.098651297 1.21
-0.035264503 0.094304018 1.2140667
-0.023992479 0.094094113 1.2143077
-0.064425066 0.10584054 1.2113334
-0.055867046 0.10855178 1.21
-0.04507513 0.10558683 1.2134998
-0.038390547 0.10131417 1.2165
-0.062435031 0.11432416 1.2162223
-0.054485667 0.11508244 1.2136841
-0.047975935 0.11280614 1.2162001
-0.055570148 0.12182686 1.219
-0.17812464 -0.2532348 1.224
-0.0042886534 -0.050391678 1.223
-0.0042886534 -0.041814368 1.223
-0.00215134 -0.039799791 1.2270001
0.0055485689 -0.035627004 1.2253336
0.011832369 -0.03119443 1.2270001
0.0090618525 -0.025648888 1.2264287
0.011793797 -0.020371104 1.223
0.0096810302 -0.01613505 1.2270001
0.012329878 -0.015010287 1.223
0.016106997 -0.0085913334 1.2250001
0.020371104 -0.0075051431 1.223
-0.072069891 0.089280613 1.2270001
-0.072069891 0.094658956 1.2270001
-0.032808196 0.097995728 1.223
-0.028233634 0.096852094 1.223
-0.01721072 0.097885966 1.2270001
-0.069268502 0.10685559 1.2250001
-0.036076713 0.10332181 1.2258574
-0.024740411 0.10065198 1.2270001
-0.016749719 0.10341799 1.2270001
-0.066446193 0.11585689 1.2252858
-0.044608224 0.11450215 1.2248183
-0.062093776 0.12311187 1.2254002
-0.054084193 0.12607694 1.2256668
-0.048326246 0.12242825 1.2250001
-0.0028109439 -0.037416134 1.2336
0.0028824799 -0.03351672 1.2333335
0.0056236414 -0.024881553 1.2340001
0.007260303 -0.01529658 1.2337143
0.011880587 -0.011880587 1.2320001
0.0086684804 -0.0097520398 1.2360001
0.015145293 -0.0059481841 1.2340001
0.020554326 -0.0043254732 1.2340001
-0.071884036 0.087557085 1.233
-0.072410561 0.1048346 1.2328001
-0.035365231 0.10640728 1.233143
-0.02417496 0.10571489 1.2346668
-0.015840782 0.10764531 1.2320002
-0.070859209 0.11304967 1.2340001
-0.043202132 0.11772581 1.2320001
-0.039282847 0.11208593 1.2333335
-0.02058764 0.11160668 1.2360001
-0.015152889 0.11401051 1.2346667
-0.064858429 0.12430345 1.233
-0.046933226 0.12436463 1.2336
-0.055224389 0.13102591 1.2352002
-0.00109145 -0.033834949 1.245
0.00109145 -0.031652048 1.245
0.002728625 -0.024011901 1.245
0.0043657999 -0.016371749 1.245
0.0098230503 -0.0076401499 1.245
0.014916484 -0.0032743502 1.245
0.020737549 -0.00109145 1.245
-0.073916368 0.08455275 1.2445
-0.01200595 0.087315999 1.245
-0.0087315999 0.086224549 1.245
-0.075310051 0.095683783 1.245
-0.011967377 0.099002846 1.2410001
-0.075310051 0.10150485 1.245
-0.032638296 0.10879433 1.2410001
-0.025022697 0.10770639 1.2410001
-0.011993092 0.10357904 1.2436666
-0.07458242 0.11508735 1.245
-0.034576129 0.11502893 1.2431818
-0.025588436 0.11266191 1.245
-0.01855465 0.1178766 1.245
-0.071762837 0.12524389 1.245
-0.067290954 0.12722076 1.243
-0.042498171 0.12495365 1.243
-0.063708514 0.13455154 1.2446923
-0.054465897 0.13573447 1.2426001
-0.048210531 0.13503525 1.2442
-0.051298149 0.14079705 1.245
-0.0021916667 -0.031779166 1.25
-0.002201047 -0.025299812 1.2549001
0.0010958334 -0.024656249 1.25
-0.0024781174 -0.015966292 1.256
0.0024678167 -0.014531845 1.25125
-0.0011037233 -0.0099335099 1.2590001
0.0067072962 -0.0063100862 1.2567273
0.013709971 -0.0016448458 1.25125
0.0099335099 0.0011037233 1.2590001
0.015998088 0.0038140393 1.2553846
0.020820834 0.0010958334 1.25
-0.09337499 0.065119669 1.2590001
-0.088960096 0.066444144 1.2590001
-0.084126905 0.076125793 1.2585
-0.077804163 0.078899994 1.25
-0.081655949 0.085081965 1.2567778
-0.077804163 0.085474998 1.25
-0.0048048082 0.086233661 1.25
0.0018307721 0.088150293 1.2516667
-0.082312159 0.09444961 1.2586
-0.077438883 0.095702775 1.25
-0.012054167 0.092050001 1.25
-0.0054846453 0.094339207 1.25125
0.003480878 0.094124116 1.25325
-0.081649937 0.104819 1.2586
-0.076864876 0.10566963 1.25
-0.0068422365 0.10401985 1.2548336
0.0011002166 0.10011972 1.2550001
-0.084386326 0.11648343 1.2555
-0.078461662 0.11571999 1.25
-0.032875001 0.11835 1.25
-0.025787152 0.11723005 1.2516667
-0.0077015166 0.11112189 1.2550001
-0.085219696 0.12523289 1.2530715
-0.07746698 0.12484069 1.25
-0.041330453 0.1276529 1.2516667
-0.035787504 0.12307151 1.25625
-0.025357584 0.1219161 1.2574002
-0.01647841 0.12196186 1.2533334
-0.083522908 0.13420722 1.2568668
-0.074802972 0.13521913 1.2518423
-0.066845834 0.13807499 1.25
-0.054791667 0.13917083 1.25
-0.044484917 0.13456002 1.253
-0.082779251 0.14017287 1.2590001
-0.074065976 0.14462265 1.2575455
-0.064831689 0.14504799 1.2534001
-0.056297302 0.14490201 1.2547272
-0.065319747 0.15208441 1.2581111
-0.058497336 0.1512101 1.2590001
-0.0044411933 -0.015543301 1.266
-0.0023795241 -0.0061827539 1.2662858
0.0035501495 -0.0039919894 1.2656
0.0061099278 0.0027777185 1.2674999
0.013582195 0.008039033 1.265
0.014673295 0.012672392 1.2679999
0.021120653 0.012227747 1.268
-0.10387409 0.057186324 1.268
-0.097986788 0.058050528 1.2653333
-0.10410163 0.064998798 1.2662221
-0.09581428 0.065378301 1.2640001
-0.087540425 0.069810718 1.2640001
-0.11042026 0.07484863 1.268
-0.10472094 0.074959479 1.2677777
-0.095316671 0.07536681 1.26425
-0.08880683 0.075192943 1.2640001
-0.11079079 0.081888847 1.268
-0.10406411 0.083884053 1.2679999
-0.094754137 0.085347585 1.2659047
-0.086517565 0.084642299 1.2640001
-0.10115682 0.090040676 1.268
-0.09491428 0.094493493 1.2662499
-0.087983683 0.095740415 1.2640001
0.0077567468 0.098067448 1.2640001
-0.094862349 0.10492895 1.2677646
-0.087382115 0.10527014 1.2640001
-0.0019952934 0.10533675 1.2648
0.0039961971 0.10347402 1.2663999
0.011116133 0.10226843 1.268
0.024931898 0.10623847 1.268
-0.095385455 0.11486644 1.2677646
-0.088490233 0.11413498 1.2640001
-0.0033348401 0.1107908 1.268
-0.095072314 0.12449147 1.2664999
-0.089756638 0.12447732 1.2640001
-0.034737621 0.12713012 1.2646667
-0.02550781 0.12613192 1.2650908
-0.017190557 0.12587091 1.2650001
-0.095088519 0.13460557 1.2677777
-0.089202583 0.135189 1.2640001
-0.033348396 0.13005877 1.268
-0.025567107 0.13005877 1.268
-0.094487131 0.14450973 1.2679999
-0.084234111 0.14561012 1.2653333
-0.077345848 0.14826468 1.2640001
-0.051051803 0.14428005 1.266
-0.094301872 0.15432902 1.2679998
-0.084686965 0.1549263 1.2673331
-0.075413056 0.15525898 1.265
-0.065250784 0.15723129 1.2654544
-0.05737257 0.15435295 1.2666667
-0.091946304 0.16277196 1.268
-0.084450617 0.16223198 1.2675
-0.074454591 0.16224471 1.2675998
-0.064473569 0.16118394 1.268
-0.0055799833 -0.024179928 1.273
-0.0022319932 -0.0011159966 1.273
0.0011159966 -0.0011159966 1.273
-0.0022352808 0.0044683698 1.2742499
0.0035959892 0.0058279829 1.2729999
-0.0020782009 0.013907189 1.2765714
0.0044694655 0.013415522 1.274875
0.013309633 0.016969955 1.2748181
-0.11166454 0.047429424 1.2780001
-0.10867686 0.048176341 1.2780001
-0.11195121 0.054853033 1.277
-0.10741767 0.053705186 1.2763333
-0.11385263 0.065831251 1.2760768
-0.12296169 0.075905748 1.278
-0.1163596 0.07473021 1.2743158
-0.12286834 0.084028505 1.2780001
-0.11576603 0.085395418 1.2747647
-0.10676368 0.087419741 1.273
-0.11414561 0.093541741 1.2773334
-0.10523379 0.095235623 1.2748423
-0.099323705 0.098207712 1.273
0.034898054 0.096474387 1.2771666
-0.10389149 0.10455932 1.277
-0.099323705 0.10378769 1.273
0.0060263821 0.10735889 1.273
0.015103153 0.10572209 1.273
0.024551926 0.10453168 1.2729999
0.034610361 0.10494578 1.2735002
0.0414 0.10629437 1.2763335
-0.11259819 0.11932047 1.2780001
-0.1047399 0.11554392 1.2755001
-0.099323705 0.11383165 1.273
-0.0037207194 0.11427891 1.2738333
0.004472753 0.11182102 1.2754999
0.014556172 0.11195121 1.277
0.024562338 0.111655 1.2736249
0.035162274 0.11381037 1.2754999
0.042663507 0.11280246 1.2739999
-0.11295467 0.125177 1.278
-0.10495684 0.12505354 1.273625
-0.099323705 0.12833962 1.273
-0.016805699 0.12884369 1.2780001
-0.11226209 0.13287707 1.2780001
-0.10485476 0.13443555 1.2747648
-0.099323705 0.1383836 1.273
-0.042089935 0.13670331 1.2746667
-0.034153316 0.13497981 1.2756922
-0.025238164 0.13365126 1.2763333
-0.019046459 0.13108446 1.2780001
-0.10460497 0.14500913 1.2756667
-0.051434472 0.14759867 1.2755001
-0.04369482 0.14004751 1.2780001
-0.10418383 0.15451075 1.2758571
-0.099323705 0.15958752 1.273
-0.054844923 0.15446231 1.2767501
-0.10344842 0.16419791 1.278
-0.096322604 0.16626389 1.2741538
-0.084857933 0.16748223 1.2736249
-0.074948862 0.16779576 1.2759999
-0.064966746 0.16583076 1.2752222
-0.059147824 0.16293551 1.273
-0.094111919 0.17141815 1.2780001
-0.084401965 0.17216505 1.278
-0.079546981 0.17141815 1.2780001
-0.0026244477 0.016121609 1.2830001
0.0044990531 0.019120976 1.2830001
-0.0011262245 0.023653636 1.2846667
0.0045122029 0.024820404 1.2867503
0.013047994 0.024488242 1.2862145
-0.12307698 0.038390987 1.2880001
-0.1185604 0.038390987 1.2880001
-0.0022582933 0.035003547 1.2880001
0.00508116 0.031051531 1.2880001
0.011291467 0.03048696 1.2880001
-0.12431797 0.045577511 1.2876877
-0.11670274 0.045152523 1.2841113
-0.12469438 0.055117935 1.2853916
-0.11697539 0.055113405 1.2830001
-0.13436845 0.068877943 1.2880001
-0.12532152 0.065178871 1.2853687
-0.11697538 0.062986746 1.2830001
-0.13436845 0.074523687 1.2880001
-0.12755309 0.074361734 1.2834547
-0.13436845 0.084685996 1.2880001
-0.12692092 0.085415892 1.2844286
-0.13487029 0.095224693 1.2880001
-0.12557071 0.094893701 1.2852225
-0.11697538 0.096729644 1.2830001
0.039366715 0.09448012 1.2830001
0.043713886 0.096165508 1.2867501
-0.14114334 0.10726893 1.2880001
-0.13555701 0.10524835 1.2880001
-0.12502879 0.10474904 1.2848003
-0.11490345 0.10483979 1.2830003
-0.10797728 0.10685252 1.2830001
0.039366715 0.10010394 1.2830001
0.045672633 0.10439526 1.2853531
0.053747378 0.10275234 1.2880001
-0.14114334 0.11479658 1.2880001
-0.13549758 0.11517297 1.2880001
-0.12502383 0.11488301 1.2847502
-0.11495081 0.11450091 1.2830002
-0.10910204 0.11247633 1.2830001
-0.0045001488 0.11821522 1.28425
0.0045078197 0.11720551 1.2855
0.014650417 0.1172055 1.2855
0.024780409 0.11714797 1.284875
0.030368609 0.11697538 1.2830001
0.046115294 0.11135157 1.2830001
-0.14199018 0.12618214 1.2880001
-0.13528368 0.12513889 1.2860003
-0.12492939 0.12492694 1.2838004
-0.11772523 0.12559856 1.2830001
-0.014678907 0.12985186 1.2880001
-0.0056457333 0.1208187 1.2880001
0.0169372 0.12138326 1.2880001
0.024587343 0.12385057 1.2866669
0.031118453 0.12109951 1.2830001
-0.14159499 0.13482012 1.2880001
-0.1352302 0.13523459 1.2855002
-0.12487395 0.1349977 1.2832505
-0.11564612 0.13568734 1.2830001
-0.038241953 0.13834588 1.2830001
-0.023186782 0.1375539 1.2840002
-0.01748424 0.13536829 1.2867501
-0.14211117 0.14404686 1.2880001
-0.1353949 0.14411996 1.2863334
-0.1252636 0.14444859 1.28725
-0.11479358 0.14517663 1.2837503
-0.10853966 0.14340733 1.2830001
-0.05061435 0.14959352 1.2830001
-0.045057926 0.14418286 1.2848752
-0.034758687 0.14275782 1.2853078
-0.025102554 0.14294568 1.2857274
-0.017840516 0.14294997 1.2880001
-0.14114334 0.15017651 1.2880001
-0.13606216 0.1524348 1.2880001
-0.12490511 0.15394035 1.2880001
-0.11492557 0.15548281 1.2851877
-0.10910204 0.1563421 1.2830001
-0.052505322 0.15525767 1.2880001
-0.048553307 0.15017651 1.2880001
-0.12232421 0.16410266 1.2880001
-0.11474191 0.1648474 1.2853532
-0.10775232 0.16624002 1.2830001
-0.06636104 0.16983926 1.2830001
-0.057435978 0.16442877 1.2846667
-0.12081869 0.17050114 1.2880001
-0.11508611 0.17362802 1.2880001
-0.10484874 0.1747489 1.2860001
-0.094664223 0.17580718 1.2855
-0.086345822 0.1760674 1.2846668
-0.075722456 0.17314993 1.2837143
-0.064361356 0.17163029 1.2880001
-0.12484662 0.027061474 1.2970001
-0.1345301 0.03732435 1.2962308
-0.12528394 0.033707965 1.2941428
-0.0011326533 0.037377559 1.2920001
0.0043898537 0.036130447 1.2929374
0.011326533 0.036244906 1.2919999
-0.14212959 0.046618503 1.2970001
-0.13533032 0.045227192 1.2948948
-0.12798983 0.041908175 1.2920001
0.0079592569 0.042070355 1.2970001
0.01023333 0.042070355 1.2970001
-0.14212959 0.05457776 1.2970001
-0.1356997 0.054783683 1.295889
-0.14349402 0.065720722 1.2970001
-0.13630798 0.064178862 1.2945
-0.14531328 0.075271823 1.2970002
-0.13711846 0.074790731 1.292625
-0.14536116 0.085038364 1.2970003
-0.13705105 0.084949002 1.2919999
0.046618503 0.089825898 1.2970001
-0.1519839 0.095132075 1.2970001
-0.14536893 0.095395207 1.2954377
-0.13672744 0.094657458 1.2919999
0.046767972 0.093815826 1.29325
0.054058477 0.097153865 1.2936666
0.06116328 0.098540843 1.2920001
-0.15213551 0.10437997 1.2970001
-0.14551148 0.10470419 1.2929374
-0.13478574 0.10080615 1.2920001
0.053234708 0.10080615 1.2920001
-0.15207866 0.11569348 1.2970001
-0.14615555 0.11536514 1.2937857
-0.15122588 0.12507403 1.2970001
-0.14679502 0.12433167 1.2939999
-0.010688144 0.12530144 1.2970001
-0.0042344597 0.12525462 1.2956363
0.0049906885 0.12319901 1.2939999
0.014566423 0.12482937 1.2935385
-0.15122588 0.13189626 1.2970001
-0.14681214 0.13563152 1.295077
-0.012482981 0.13475519 1.2948571
-0.00682222 0.13303329 1.2970001
0.018192586 0.13075921 1.2970001
0.021520413 0.13025513 1.2920001
-0.1531751 0.14732745 1.2970001
-0.14718443 0.14566644 1.2947778
-0.13478574 0.14837758 1.2920001
-0.043607153 0.14781126 1.2920001
-0.035470936 0.14789441 1.2934285
-0.028425917 0.1489518 1.2970001
-0.013601702 0.14398614 1.2932501
-0.0079592569 0.14440365 1.2970001
-0.15168068 0.15395477 1.2970001
-0.1455089 0.15458708 1.2946668
-0.13501945 0.15654571 1.2924166
-0.12572452 0.15970412 1.2920001
-0.052200679 0.15774345 1.2945001
-0.045392338 0.15377405 1.2945
-0.038254663 0.15264477 1.2961667
-0.14456607 0.16389573 1.2970001
-0.13501233 0.16525982 1.295182
-0.12572452 0.16582045 1.2919999
-0.05385258 0.16292395 1.2960001
-0.14212959 0.17169254 1.2970001
-0.13473885 0.17396659 1.2970001
-0.12494989 0.1748369 1.2933333
-0.11779594 0.17782657 1.2920001
-0.080418386 0.17782657 1.2920001
-0.074469618 0.17654283 1.2936667
-0.066951469 0.17363128 1.2945001
-0.11509912 0.18166403 1.2942222
-0.10533676 0.18009187 1.2920001
-0.095969751 0.18082547 1.294
-0.086161651 0.18026611 1.2932501
-0.14093381 0.027499281 1.307
-0.13468756 0.026252657 1.302
-0.12898046 0.026252659 1.302
-0.1431087 0.035797264 1.3043078
-0.13468756 0.032530468 1.302
-0.15296271 0.045566149 1.306
-0.14675987 0.045229595 1.3023846
0.0034242598 0.04223254 1.302
-0.15448911 0.054928426 1.3053335
-0.14724316 0.054788157 1.302
-0.15448911 0.065227501 1.3053334
-0.1481563 0.0641478 1.302
-0.15553555 0.075478368 1.3045
-0.14952601 0.071909457 1.302
0.052706953 0.076768823 1.307
