# .PCD v0.7 - Point Cloud Data file format
VERSION 0.7
FIELDS x y z
SIZE 4 4 4
TYPE F F F
COUNT 1 1 1
WIDTH 1424
HEIGHT 1
VIEWPOINT 0 0 0 1 0 0 0
POINTS 1424
DATA ascii
-0.10158288 -0.11784387 1.136
-0.094160713 -0.11530434 1.1322069
-0.084857613 -0.11555792 1.1312801
-0.063675515 -0.11494852 1.1320001
-0.054677241 -0.11531322 1.1340002
-0.044906169 -0.11462703 1.1326666
-0.034713548 -0.11504461 1.131333
-0.025477408 -0.11540307 1.1336801
-0.018955287 -0.1177223 1.138
-0.093200848 -0.10539176 1.1355001
-0.084175274 -0.10487513 1.1324285
-0.065276295 -0.10529365 1.1340002
-0.057863504 -0.10874349 1.138
-0.043733392 -0.10783376 1.1374286
-0.034836587 -0.10583177 1.1353335
-0.027868649 -0.10649571 1.1353333
-0.092781141 -0.09876702 1.138
-0.084365599 -0.094673529 1.1367829
-0.074580707 -0.094468825 1.1343203
-0.067470454 -0.096351363 1.1359999
-0.081474476 -0.088125445 1.138
-0.076486245 -0.08812546 1.138
-0.081590489 -0.32132551 1.149
-0.092953265 -0.31241506 1.1483334
-0.085340865 -0.31470582 1.1475002
-0.075978898 -0.31456265 1.1475265
-0.068495721 -0.31125259 1.149
-0.094492957 -0.30441701 1.1473532
-0.086777903 -0.30582064 1.143
-0.073770039 -0.30877748 1.1423334
-0.065917194 -0.30603868 1.1467143
-0.10223994 -0.29261774 1.149
-0.097860612 -0.29497278 1.147154
-0.10384069 -0.28383464 1.1465386
-0.098787621 -0.28582841 1.1440001
-0.10518572 -0.27595279 1.1446365
-0.11382377 -0.26290268 1.149
-0.11342751 -0.25997987 1.1450001
-0.12292111 -0.24362619 1.1474001
-0.11892013 -0.2482232 1.1463333
-0.13262652 -0.23268397 1.149
-0.12551528 -0.23586406 1.1443335
-0.14001331 -0.22059651 1.149
-0.13399285 -0.22475292 1.1467144
-0.12756337 -0.22644164 1.1424546
-0.14353985 -0.21402289 1.1485556
-0.1349273 -0.21515441 1.1439093
-0.1290357 -0.21605977 1.141
-0.011003044 -0.21706003 1.141
-0.14443785 -0.2050423 1.145889
-0.13600773 -0.2060668 1.1416668
-0.0050072274 -0.20328878 1.1423334
-0.14488445 -0.19551276 1.1450002
-0.0021249424 -0.19581956 1.1481112
0.0018096153 -0.1939981 1.1466001
-0.14500827 -0.18585859 1.1460001
-0.14089698 -0.174106 1.1480001
-0.13952588 -0.17365451 1.1450001
-0.14001331 -0.16821744 1.149
-0.13775852 -0.16289344 1.1470001
-0.15535279 -0.15133239 1.1470001
-0.1363703 -0.15398124 1.1480001
-0.15576525 -0.14906634 1.1463333
-0.1333815 -0.14625518 1.1474001
-0.12788621 -0.14233649 1.1450001
-0.12475836 -0.13681968 1.1468183
-0.11986751 -0.13296229 1.149
-0.11414883 -0.12662941 1.1482002
-0.10941238 -0.12346535 1.1450001
-0.012449543 -0.12293108 1.1427143
-0.0090340497 -0.12346067 1.1450001
-0.10433999 -0.11539422 1.1466001
-0.099374548 -0.11141995 1.1450001
-0.021005809 -0.11103071 1.141
-0.014806242 -0.11548856 1.1455002
-0.0090656104 -0.11986751 1.149
-0.061016876 -0.10102794 1.141
-0.054427586 -0.10454488 1.1434002
-0.04559125 -0.10410555 1.1443335
-0.035037033 -0.10109878 1.1418
-0.023559948 -0.10405794 1.1420667
-0.017086292 -0.10554218 1.1466001
-0.089024626 -0.097026832 1.141
-0.063031904 -0.09413106 1.1443335
-0.056143966 -0.097809233 1.1483848
-0.045328047 -0.099721707 1.149
-0.03435633 -0.096395716 1.147316
-0.025495866 -0.095821612 1.1474349
-0.018466981 -0.099050187 1.149
-0.082880288 -0.085131787 1.1425
-0.074837066 -0.083679542 1.1435883
-0.066149056 -0.086056232 1.1468003
-0.02719683 -0.089648813 1.149
-0.081590489 -0.079575911 1.149
-0.075546749 -0.077871256 1.149
-0.067992076 -0.079072267 1.149
-0.0923016 -0.32288656 1.1570001
-0.084648125 -0.32462564 1.155
-0.075912848 -0.32268947 1.1545999
-0.069986932 -0.32153416 1.1570001
-0.095686853 -0.31617007 1.155
-0.071766563 -0.31840095 1.153
-0.067254916 -0.31530693 1.1544545
-0.1029335 -0.30456206 1.1562728
-0.098047279 -0.30728218 1.153
-0.11055906 -0.29110506 1.1570001
-0.10604277 -0.2951608 1.1556665
-0.11055906 -0.2845121 1.1570001
-0.10733205 -0.28756422 1.155
-0.11106621 -0.27538335 1.1570001
-0.11664488 -0.26067597 1.1570001
-0.1207021 -0.25256154 1.1570001
-0.1174558 -0.25617689 1.155
-0.13279834 -0.24261691 1.1563333
-0.12626126 -0.24619758 1.1545
-0.14166437 -0.23092306 1.1570001
-0.13520311 -0.23570131 1.1548181
-0.14316279 -0.22436075 1.1551818
-0.13797374 -0.22793464 1.153
-0.14669438 -0.21649808 1.1539999
-0.14858711 -0.20923491 1.153
-0.15100057 -0.19660564 1.156
-0.00303239 -0.19306217 1.153
0.0020215933 -0.19104058 1.153
-0.14740886 -0.18316342 1.1543334
-0.14425287 -0.17579308 1.1552857
-0.15356553 -0.16208568 1.1570001
-0.14352886 -0.16455549 1.1559999
-0.1524002 -0.15520309 1.1536154
-0.14498688 -0.15512317 1.1565198
-0.13847914 -0.15161949 1.153
-0.1514751 -0.14598791 1.153
-0.14528756 -0.1453767 1.1568259
-0.1359749 -0.14339444 1.1545999
-0.14463966 -0.1340909 1.1570001
-0.13449022 -0.13475178 1.1564779
-0.12541185 -0.13249092 1.1536666
-0.14098816 -0.12780222 1.1570001
-0.13597631 -0.12583329 1.1569998
-0.12606302 -0.12741463 1.1565557
-0.1140938 -0.12341416 1.1557999
-0.13693094 -0.11867349 1.1570001
-0.11208051 -0.11816633 1.1570001
-0.10523645 -0.11276326 1.1558571
-0.01212956 -0.11219843 1.153
-0.0085310945 -0.11351944 1.1547143
-0.012485193 -0.10472026 1.1547778
-0.0084525272 -0.10785425 1.1570001
-0.054589972 -0.093052141 1.1545999
-0.045577023 -0.096358418 1.1552857
-0.038033687 -0.092984654 1.1547143
-0.02122673 -0.092993289 1.153
-0.017888382 -0.095852979 1.155
-0.062403757 -0.082978837 1.1543334
-0.05849931 -0.087621078 1.1554999
-0.032945618 -0.087814048 1.1543334
-0.025901839 -0.086037569 1.1546469
-0.074136853 -0.073376119 1.1545
-0.066133693 -0.076423563 1.1546665
-0.093258925 -0.34126616 1.169
-0.083010688 -0.34126616 1.169
-0.095275186 -0.33507863 1.1661429
-0.084711775 -0.33476782 1.1642003
-0.075829476 -0.33401176 1.1663333
-0.068663165 -0.33101794 1.169
-0.10290795 -0.32203078 1.1680001
-0.09546034 -0.32625979 1.1630001
-0.087870926 -0.3280741 1.161
-0.073959984 -0.32789817 1.1627778
-0.064083673 -0.32388592 1.165
-0.057829317 -0.32516178 1.169
-0.11326901 -0.31194729 1.1682001
-0.10490789 -0.31460983 1.164158
-0.098727569 -0.31755671 1.161
-0.062295999 -0.3152715 1.1650001
-0.058364958 -0.31537646 1.168
-0.11348725 -0.30442438 1.1647145
-0.10754859 -0.3052299 1.1610001
-0.061031956 -0.30761233 1.1642001
-0.057752609 -0.30768019 1.166
-0.11452645 -0.2946783 1.1645294
-0.10890567 -0.29821834 1.161
-0.11509269 -0.28516823 1.1647142
-0.11636139 -0.27554277 1.1647896
-0.12271316 -0.26370874 1.1678572
-0.11772767 -0.2663846 1.1632222
-0.1404008 -0.25108171 1.169
-0.1341382 -0.25325763 1.1679999
-0.12558699 -0.25518554 1.1634001
-0.11908377 -0.25954154 1.161
-0.14409944 -0.24377906 1.1674
-0.13705382 -0.24540602 1.1623334
-0.12926187 -0.24936345 1.161
-0.15158795 -0.23352706 1.1683334
-0.14514469 -0.23548995 1.1635715
-0.13876143 -0.23850681 1.161
-0.15263771 -0.22491676 1.1667778
-0.14809136 -0.22519046 1.1610001
-0.15302908 -0.21450464 1.1645555
-0.15300244 -0.20502122 1.1635001
-0.15356156 -0.19409838 1.1644286
0.0030534298 -0.19033046 1.161
-0.15351449 -0.18523705 1.1674
-0.14961807 -0.18218799 1.161
0.0050199521 -0.18475534 1.1655456
0.01229788 -0.18241856 1.169
-0.15444875 -0.17548877 1.1667145
-0.14729165 -0.17404549 1.1610001
0.0061463099 -0.17919067 1.1680001
0.013322704 -0.17934409 1.169
-0.15339851 -0.16648462 1.1610001
-0.14885472 -0.16666639 1.1610001
-0.1424934 -0.14147559 1.161
-0.14332613 -0.13666411 1.1610001
-0.13943997 -0.13638654 1.161
-0.13307865 -0.12290055 1.1610001
-0.12458638 -0.1238217 1.1624999
-0.11847361 -0.12356383 1.1616668
-0.13314804 -0.11630792 1.1610001
-0.12645219 -0.11680198 1.1639333
-0.11570413 -0.11535744 1.1656668
-0.10835221 -0.11174724 1.1623334
-0.10426635 -0.10937469 1.166
-0.012252294 -0.10111035 1.165
-0.0079648672 -0.10478568 1.165
-0.045815799 -0.091908865 1.1613637
-0.039694589 -0.09058509 1.161
-0.015023435 -0.094253443 1.1650001
-0.060050789 -0.081424803 1.161
-0.053569123 -0.084158257 1.163
-0.045154467 -0.085556634 1.1659414
-0.036370382 -0.084474504 1.1645001
-0.023839546 -0.082322851 1.1622001
-0.017522313 -0.085142247 1.1661428
-0.073666587 -0.070948921 1.1616668
-0.063183554 -0.072993122 1.1625
-0.055516668 -0.075485498 1.1664119
-0.048166696 -0.078911394 1.169
-0.031769522 -0.078911394 1.169
-0.02559136 -0.076771744 1.1676668
-0.018651785 -0.077271678 1.169
-0.072935738 -0.067823321 1.1663333
-0.065371841 -0.067045629 1.1668181
-0.1010332 -0.34331143 1.1760001
-0.094530888 -0.34561524 1.1755456
-0.085706189 -0.34547901 1.1758573
-0.078158051 -0.34547362 1.1747779
-0.10327507 -0.33435071 1.1748183
-0.07095477 -0.33420724 1.1730001
-0.064390406 -0.33283597 1.1738575
-0.054758575 -0.33163643 1.1730002
-0.04833151 -0.33009392 1.1730001
-0.11268126 -0.32334358 1.1765001
-0.10599434 -0.32660273 1.1759092
-0.053189605 -0.32451791 1.1743336
-0.047621191 -0.32433468 1.1745001
-0.12141278 -0.31127074 1.177
-0.11522548 -0.31664839 1.1744547
-0.055122897 -0.31563738 1.1753334
-0.12178019 -0.30462131 1.1761112
-0.11825795 -0.30592817 1.1730001
-0.060671471 -0.30541402 1.1730001
-0.056279022 -0.3051126 1.1758001
-0.12119729 -0.29496512 1.1758573
-0.11825795 -0.29924402 1.1730001
-0.12244505 -0.28524205 1.1753334
-0.12356666 -0.27518907 1.1756668
-0.14273739 -0.26243046 1.177
-0.13461851 -0.2632378 1.1753531
-0.12736261 -0.26605636 1.1747779
-0.14521779 -0.25506914 1.174778
-0.13717923 -0.25728816 1.1730001
-0.15305577 -0.24351345 1.177
-0.1476289 -0.24690482 1.1735002
-0.16268624 -0.23285115 1.177
-0.15631756 -0.23490573 1.1748463
-0.15781051 -0.22620597 1.1750001
-0.15722272 -0.21598655 1.1760001
-0.16199836 -0.20120814 1.177
-0.15874188 -0.20512824 1.1758001
-0.16314486 -0.19570501 1.177
-0.15858023 -0.19461808 1.1746001
-0.16268624 -0.18641849 1.177
-0.15843076 -0.18517786 1.1735002
-0.16144781 -0.17790109 1.1730001
-0.15939115 -0.17378777 1.1730001
0.0092549697 -0.17790109 1.1730001
0.01131163 -0.17892942 1.1730001
-0.12315979 -0.11341634 1.1751819
-0.11514027 -0.11072613 1.174143
-0.12382039 -0.10731102 1.177
-0.11407527 -0.10742566 1.177
-0.10367109 -0.10558435 1.1758573
-0.096992642 -0.10215183 1.177
-0.0063826591 -0.10194214 1.1746
-0.011340559 -0.09484569 1.1760001
-0.0082490835 -0.09589278 1.1762002
-0.043189857 -0.081238069 1.1730001
-0.037019879 -0.081238069 1.1730001
-0.012879986 -0.086306304 1.1755002
-0.0084610609 -0.088118851 1.177
-0.079451419 -0.071196727 1.177
-0.051760372 -0.073392116 1.1750001
-0.045781285 -0.076921716 1.1762002
-0.034884445 -0.077862658 1.1752857
-0.025282774 -0.072178788 1.1743335
-0.017044447 -0.074235454 1.1743335
-0.0724077 -0.063826598 1.1743335
-0.064080819 -0.062757678 1.1735716
-0.055004012 -0.065224417 1.1761305
-0.023732243 -0.068617135 1.177
-0.018573061 -0.069133058 1.177
-0.071196727 -0.05881469 1.177
-0.064547114 -0.057897508 1.177
-0.056751013 -0.05881469 1.177
-0.10215095 -0.36169776 1.189
-0.093812101 -0.36169776 1.189
-0.10316569 -0.35457587 1.1866668
-0.094296992 -0.35482365 1.1834445
-0.085298419 -0.3540743 1.1824286
-0.079721436 -0.35305208 1.1810001
-0.11153216 -0.34189299 1.189
-0.10559216 -0.34583738 1.1846668
-0.09628693 -0.34891069 1.1810001
-0.12195573 -0.33042705 1.189
-0.11451048 -0.33382526 1.1852667
-0.10787622 -0.33605877 1.1815716
-0.12265384 -0.32430646 1.1856667
-0.11711407 -0.32646593 1.1822
-0.13148861 -0.31163836 1.1810001
-0.12492978 -0.31515202 1.1822308
-0.11906448 -0.31992108 1.1810001
-0.051643807 -0.31504205 1.1815716
-0.048661135 -0.31888574 1.1810001
-0.13394301 -0.30474639 1.1870002
-0.12744956 -0.3049368 1.181941
-0.052607216 -0.3042208 1.1837693
-0.13448519 -0.29500073 1.1878573
-0.12688226 -0.29513511 1.1818
-0.051075477 -0.29290223 1.189
-0.048990764 -0.29290223 1.189
-0.13328642 -0.28504297 1.1886364
-0.12829816 -0.2855317 1.1828182
-0.15218407 -0.27205509 1.189
-0.144694 -0.27273136 1.1874001
-0.13488492 -0.27407971 1.1861429
-0.12818278 -0.27582923 1.1823334
-0.15357803 -0.26502818 1.1874001
-0.146083 -0.26626489 1.1818
-0.13770066 -0.26815394 1.1810001
-0.15545167 -0.2554642 1.185842
-0.16138411 -0.24468146 1.1876668
-0.15676466 -0.24666242 1.1842
-0.16270819 -0.23583801 1.182143
-0.15840752 -0.23916431 1.1810001
-0.16258648 -0.2246487 1.1855716
-0.17355239 -0.21316195 1.189
-0.16408296 -0.21440352 1.1860667
-0.15840752 -0.2153514 1.1810001
-0.17251003 -0.20795016 1.189
-0.1660597 -0.20594113 1.1838573
-0.16530982 -0.19567989 1.1810001
-0.12217051 -0.10431083 1.1810001
-0.11518195 -0.10275783 1.181
-0.10560502 -0.10208486 1.181
-0.12113517 -0.098357618 1.1810001
-0.11352111 -0.095941663 1.1846925
-0.10483941 -0.094451763 1.1840397
-0.09579052 -0.093449593 1.1845
-0.0051767165 -0.094216242 1.1810001
-0.11302124 -0.083835259 1.189
-0.1060361 -0.086705118 1.189
-0.094854459 -0.088004686 1.189
-0.088600315 -0.087557957 1.189
-0.012079005 -0.082482345 1.1810001
-0.0059858123 -0.084375329 1.1837693
-0.11748578 -0.076875076 1.1818001
-0.043218412 -0.074153356 1.1818571
-0.03518812 -0.073641285 1.1831539
-0.012866661 -0.075757846 1.1838
-0.0093654301 -0.079084098 1.187
-0.080261461 -0.069837898 1.189
-0.076055504 -0.063954294 1.1830002
-0.050731823 -0.062120602 1.1810001
-0.045503203 -0.066080511 1.1851999
-0.033193618 -0.068576083 1.1872222
-0.024927136 -0.064981036 1.1847143
-0.017022509 -0.065941855 1.1853077
-0.073094591 -0.056487013 1.1838572
-0.065555826 -0.053115036 1.18225
-0.054705586 -0.054421004 1.1835454
-0.04854086 -0.056872696 1.1882001
-0.064144291 -0.047273554 1.1878
-0.056733985 -0.048097312 1.189
-0.11018385 -0.36308202 1.197
-0.10667805 -0.36186871 1.1930001
-0.099357016 -0.36186871 1.1930001
-0.1122409 -0.35490635 1.1965555
-0.10807254 -0.3552449 1.193
-0.12067755 -0.34209463 1.197
-0.11524018 -0.34571409 1.1950001
-0.10981565 -0.3482725 1.1930001
-0.12314148 -0.3356069 1.1947144
-0.11748531 -0.33920836 1.1930001
-0.13222063 -0.32005784 1.197
-0.12696998 -0.32404724 1.1936666
-0.13491637 -0.31062141 1.1930001
-0.14166495 -0.30326793 1.197
-0.13909982 -0.30330038 1.1930001
-0.052293167 -0.30016276 1.1930001
-0.045337755 -0.303002 1.1954002
-0.038826689 -0.30116919 1.197
-0.14261964 -0.29467377 1.1962
-0.13909982 -0.29493344 1.1930001
-0.051944543 -0.2973738 1.1930001
-0.045377936 -0.2967315 1.1937273
-0.038083863 -0.29804006 1.1956667
-0.15215866 -0.28263032 1.197
-0.14434116 -0.28464153 1.1955715
-0.13805395 -0.28552067 1.193
-0.16125318 -0.27248642 1.197
-0.15518038 -0.27527258 1.1946667
-0.145375 -0.27819961 1.193
-0.13805395 -0.2792455 1.1930001
-0.16267394 -0.26422569 1.1942501
-0.15792537 -0.26774102 1.1930001
-0.17104732 -0.25289816 1.197
-0.16508459 -0.25484625 1.1943334
-0.16465867 -0.24750842 1.1941429
-0.16684982 -0.23191077 1.197
-0.16728838 -0.22435629 1.1945
-0.17171328 -0.21673803 1.1943333
-0.16768676 -0.21788819 1.1930001
-0.11399911 -0.090990111 1.1930001
-0.12298976 -0.081121914 1.194
-0.1146211 -0.084782429 1.194
-0.10503455 -0.082922027 1.193
-0.095190898 -0.083335452 1.1932224
-0.087404296 -0.082324386 1.193
-0.0052293167 -0.080531478 1.1930001
-0.10388763 -0.077653378 1.197
-0.095192857 -0.076753922 1.1970003
-0.085500933 -0.075018801 1.1953532
-0.011504496 -0.071118712 1.1930001
-0.0077153845 -0.074579068 1.1951818
-0.081113234 -0.065600798 1.1954
-0.07843975 -0.0627518 1.1930001
-0.041625358 -0.06337931 1.1930001
-0.035173513 -0.064202785 1.1932501
-0.027192447 -0.061705936 1.1930001
-0.013381733 -0.063891955 1.1947778
-0.0094443299 -0.065060943 1.197
-0.075428396 -0.055523686 1.1950001
-0.044087306 -0.055084296 1.1946003
-0.035969138 -0.057251345 1.1967144
-0.02450886 -0.056222938 1.1960003
-0.017010251 -0.05615557 1.1961112
-0.070190318 -0.048188612 1.1950001
-0.064486973 -0.042940013 1.1947144
-0.054910891 -0.043739822 1.1943336
-0.047184162 -0.046215512 1.196077
-0.061912831 -0.038826689 1.197
-0.055916432 -0.038227048 1.1969999
-0.11358152 -0.36183596 1.2033334
-0.1215849 -0.35206759 1.2060001
-0.1173799 -0.3551524 1.203143
-0.12352358 -0.3452346 1.2042859
-0.11907413 -0.34879234 1.202
-0.13004299 -0.3330369 1.2060001
-0.1277163 -0.33354187 1.204
-0.13088107 -0.32720181 1.204
-0.12855791 -0.32982481 1.202
-0.15224543 -0.30131909 1.2060001
-0.14650539 -0.30419844 1.2040001
-0.045311391 -0.3066422 1.202
-0.1540643 -0.29464966 1.2057501
-0.14752547 -0.29505092 1.202
-0.1638753 -0.28255275 1.2060002
-0.15623805 -0.28609639 1.2035385
-0.14752546 -0.28978217 1.202
-0.17021886 -0.27171582 1.2060001
-0.1654115 -0.27556178 1.2043334
-0.15911674 -0.27924463 1.202
-0.17057127 -0.26501983 1.2060002
-0.16810434 -0.26854402 1.2060001
-0.17021886 -0.2590287 1.2060001
-0.16965428 -0.25184706 1.202
-0.17021886 -0.24528432 1.2060001
-0.16754678 -0.24447078 1.202
-0.17252623 -0.23540868 1.2055001
-0.16965428 -0.23393324 1.202
-0.17281553 -0.22550324 1.202
-0.16965428 -0.22866447 1.202
-0.0024587577 -0.081841506 1.202
-0.1016793 -0.073531292 1.2040001
-0.0948378 -0.071655221 1.202
-0.088866532 -0.071303971 1.202
-0.0031647666 -0.074928373 1.2038182
0.0017609311 -0.077797145 1.2046667
-0.095153399 -0.068721898 1.2060001
-0.085727639 -0.065757491 1.2045455
-0.0055365884 -0.064095736 1.2034999
-0.077179976 -0.055329937 1.2060001
-0.033068027 -0.053773299 1.2027273
-0.027924463 -0.053214543 1.202
-0.012494504 -0.05434357 1.202
-0.0070083914 -0.055982817 1.2049092
-0.071655229 -0.0474189 1.202
-0.067440212 -0.042150132 1.202
-0.043063033 -0.044116791 1.2029999
-0.035989866 -0.047526531 1.2047693
-0.023534995 -0.047518339 1.2045716
-0.015599017 -0.047974907 1.2042223
-0.062677108 -0.035873901 1.2036
-0.054310851 -0.033525486 1.2038462
-0.046839364 -0.036273777 1.2052001
-0.12360796 -0.37224874 1.2190001
-0.11813434 -0.37143138 1.2140001
-0.12454428 -0.36544076 1.2165
-0.11688869 -0.365527 1.210889
-0.13316391 -0.35262448 1.2152002
-0.12599084 -0.35487068 1.2139231
-0.11986663 -0.35959989 1.21
-0.13309969 -0.34462243 1.2163637
-0.12771632 -0.34529385 1.2106668
-0.13260752 -0.33718935 1.2133335
-0.12835276 -0.33838457 1.21
-0.13289039 -0.32708025 1.2126669
-0.15495521 -0.31183404 1.2190001
-0.14427434 -0.31302524 1.2145001
-0.13893706 -0.3180348 1.2160001
-0.16318311 -0.30432087 1.2165834
-0.15539618 -0.30513141 1.2113334
-0.14850733 -0.3086831 1.21
-0.17276616 -0.2924557 1.2190001
-0.16483317 -0.29455921 1.2130002
-0.15805423 -0.2959539 1.21
-0.17436567 -0.28507087 1.2159287
-0.16636659 -0.28663048 1.2104446
-0.17372872 -0.27568841 1.2115
-0.17436525 -0.26571742 1.2117144
-0.18060298 -0.25113431 1.2190001
-0.17432894 -0.25404316 1.2125001
-0.18060298 -0.248997 1.2190001
-0.17540273 -0.24582936 1.213909
-0.16866189 -0.24291557 1.21
-0.17592888 -0.23822832 1.2113334
0.0087207295 -0.14613366 1.2132002
0.014689545 -0.14494948 1.2140001
0.023154229 -0.13286965 1.2190001
0.024579104 -0.12930745 1.2190001
-0.0010607666 -0.072132133 1.21
0.0021232867 -0.073232055 1.2106668
-0.10077284 -0.068949834 1.21
-0.094416872 -0.064612091 1.2139999
-0.08667779 -0.061911371 1.2106668
-0.0010621693 -0.064790927 1.2116001
0.001494366 -0.066785693 1.217
-0.084218085 -0.057296742 1.216
-0.077622689 -0.053515535 1.2130001
-0.0041366979 -0.053555764 1.2137779
-0.073192902 -0.047734499 1.21
-0.069177769 -0.041506659 1.2140001
-0.033776212 -0.043326035 1.2103333
-0.025385875 -0.042950127 1.2110909
-0.014198891 -0.043571696 1.2122728
-0.0084138568 -0.046105653 1.2168889
-0.065145232 -0.033865757 1.2124287
-0.058342166 -0.030762233 1.21
-0.043491434 -0.032883767 1.21
-0.03561857 -0.035620403 1.2146366
-0.024144674 -0.038106471 1.2167273
-0.015515044 -0.036861204 1.2174615
-0.0096179098 -0.039540295 1.2190001
-0.063380308 -0.025334498 1.2143999
-0.054824587 -0.024360569 1.2132726
-0.045922805 -0.026609087 1.2142857
-0.038827855 -0.028141292 1.2190001
-0.061625868 -0.017454723 1.2190001
-0.057707459 -0.017098505 1.2190001
-0.1318761 -0.37204069 1.223
-0.12687266 -0.37275544 1.223
-0.13352364 -0.36441228 1.225
-0.12865961 -0.36453554 1.223
-0.14091277 -0.35389543 1.2270001
-0.13613126 -0.35492009 1.2246001
-0.1382421 -0.34678322 1.2262001
-0.13530701 -0.33387166 1.223
-0.14198844 -0.32270098 1.2270001
-0.13804431 -0.3252109 1.2270001
-0.1721072 -0.31086862 1.2270001
-0.16462804 -0.31430563 1.2259094
-0.15598793 -0.31581253 1.2247144
-0.14605442 -0.31787932 1.2250001
-0.18286391 -0.30118757 1.2270001
-0.17443651 -0.30363178 1.2267334
-0.16790077 -0.30556655 1.223
-0.18286391 -0.29473358 1.2270001
-0.17615987 -0.29580078 1.224
-0.18295829 -0.28535742 1.2252223
-0.17905128 -0.28733978 1.223
-0.18226776 -0.27983463 1.223
-0.1811956 -0.25410271 1.223
-0.17905128 -0.25517488 1.223
0.016618531 -0.14098948 1.223
0.016324587 -0.13595645 1.2250001
0.020371104 -0.13509257 1.223
0.023230204 -0.12830222 1.223
-0.10003731 -0.06131319 1.2270001
-0.096494697 -0.061649393 1.223
-0.10003731 -0.054859169 1.2270001
-0.094425991 -0.054932896 1.2261578
-0.085439883 -0.052779712 1.2254001
-0.078267924 -0.051463842 1.223
-0.0021443267 -0.051463839 1.223
0.0010721633 -0.050391678 1.223
-0.094658956 -0.048405148 1.2270001
-0.083364427 -0.047867313 1.2270001
-0.075206168 -0.045659427 1.2255001
-0.0039328244 -0.045183495 1.2238889
0.00107567 -0.048405148 1.2270001
-0.069690615 -0.037525717 1.223
-0.031841408 -0.031841408 1.2243334
-0.024994891 -0.033120211 1.2244285
-0.013950148 -0.03234712 1.2241429
-0.0085866572 -0.036490958 1.2243334
-0.050391678 -0.020371104 1.223
-0.044280652 -0.021736292 1.2245001
-0.036245938 -0.025889957 1.2259091
-0.024740409 -0.02904309 1.2270001
-0.01721072 -0.027967419 1.2270001
-0.061213247 -0.012885246 1.2250001
-0.054213475 -0.014679783 1.2254001
-0.045895252 -0.017569277 1.2270001
-0.13932689 -0.34237692 1.2320001
-0.14194636 -0.33048579 1.2360001
-0.13977924 -0.33048579 1.2360001
-0.17271945 -0.323551 1.2360001
-0.16450256 -0.3225103 1.2345001
-0.15473618 -0.32199016 1.2342857
-0.14539291 -0.3249312 1.2337143
-0.18203807 -0.31206527 1.2360001
-0.17466144 -0.31599134 1.2344
-0.16884834 -0.31789571 1.2320001
-0.18252902 -0.30673513 1.2320002
-0.17734475 -0.30824721 1.2320001
-0.18684922 -0.29485455 1.2320001
0.015378837 -0.1327568 1.2352002
0.020521013 -0.13068645 1.2320001
0.015882278 -0.1281517 1.2353334
0.023032788 -0.12567092 1.2342857
-0.10239267 -0.056987341 1.233143
-0.098284855 -0.052922614 1.2320001
-0.093656056 -0.04582512 1.2320002
-0.085521556 -0.044078991 1.2331114
-0.077115811 -0.042986121 1.2320001
-0.0025247999 -0.042213257 1.2346667
-0.082760841 -0.038403258 1.2340001
-0.075083584 -0.03856203 1.2333336
-0.0054056863 -0.034907594 1.2338183
0.0010835599 -0.035757478 1.2360001
-0.033902775 -0.022699928 1.2330911
-0.024434688 -0.025153788 1.2333335
-0.015141494 -0.024871908 1.2336668
-0.0080120321 -0.028370336 1.2352002
-0.050762508 -0.011880587 1.2320001
-0.044490356 -0.013455079 1.2323638
-0.038094863 -0.015982606 1.2337779
-0.054337114 -0.008919646 1.2335001
-0.044220235 -0.0081214411 1.2353334
-0.037924599 -0.0097520398 1.2360001
-0.17135765 -0.33289224 1.245
-0.16576451 -0.33207914 1.244
-0.14232114 -0.334806 1.2440001
-0.18191798 -0.32484549 1.2426001
-0.17546062 -0.32568285 1.2417274
-0.16515984 -0.32841885 1.2415
-0.152803 -0.32852644 1.245
-0.18197934 -0.31818968 1.243
-0.17951065 -0.31767946 1.2410001
0.023776079 -0.12194626 1.2442
0.025539929 -0.1176583 1.245
-0.10335462 -0.055485111 1.2410001
0.0029041043 -0.041726116 1.2416667
-0.074604727 -0.033981435 1.2431818
-0.068540432 -0.032638296 1.2410001
-0.0010879433 -0.032638296 1.2410001
0.0041719107 -0.034643088 1.2413335
-0.0720357 -0.029469149 1.245
-0.02504286 -0.021231551 1.2420001
-0.011967377 -0.021758866 1.2410001
-0.0054448419 -0.024047304 1.2425385
0.002720735 -0.028852414 1.242
-0.032483127 -0.015040969 1.2434
-0.02582046 -0.017335303 1.2445556
-0.01551707 -0.015850741 1.2437693
-0.0087315999 -0.01855465 1.245
-0.054301959 -0.0041415491 1.2437999
-0.045175944 -0.0027210275 1.2416668
-0.03670574 -0.0054502371 1.2436666
-0.01418885 -0.0098230503 1.245
-0.04352231 0.0023037826 1.2445555
-0.038200751 0.00109145 1.245
-0.16390291 -0.34325796 1.2590001
-0.1412766 -0.34546539 1.2590001
-0.162053 -0.3354784 1.2546667
-0.15452127 -0.33442816 1.2590001
-0.14706872 -0.33656687 1.2538
-0.15524305 -0.32984585 1.25
0.018629167 -0.1216375 1.25
0.020820834 -0.1216375 1.25
0.018629167 -0.11944583 1.25
0.025751205 -0.1141415 1.2537143
0.028696807 -0.10926861 1.2590001
0.0071405959 -0.044643078 1.2523334
0.0088175135 -0.038568951 1.2570001
-0.0016448458 -0.022485403 1.25125
0.0019775848 -0.024396056 1.2538
-0.031779166 -0.012054167 1.25
-0.024616402 -0.013652489 1.2504545
-0.014245833 -0.012784722 1.25
-0.0053612809 -0.015193355 1.2538824
0.0011037233 -0.018763296 1.2590001
-0.060270835 -0.0032875 1.25
-0.056618053 -0.0018263889 1.25
-0.033471774 -0.0044937925 1.2538182
-0.025359338 -0.0082674054 1.2576666
-0.015409116 -0.0060487264 1.2555627
-0.0077135391 -0.0086595872 1.2572858
-0.060487807 0.0022035018 1.2545
-0.054209493 0.0042492663 1.2546428
-0.045683369 0.0072731003 1.2518125
-0.037028257 0.0050127804 1.2546667
-0.051874995 0.012140957 1.2590001
-0.045078143 0.014635013 1.2582
-0.038630318 0.012140957 1.2590001
-0.16289169 -0.34240496 1.2640001
-0.15138982 -0.34312966 1.2666668
-0.14583087 -0.34489557 1.265
-0.16067547 -0.33797252 1.2640001
-0.15492804 -0.33832905 1.2653333
0.021120653 -0.11004972 1.268
0.025808411 -0.10573192 1.2662499
0.031074326 -0.10210712 1.266
0.02667872 -0.098933585 1.268
0.031327158 -0.097092584 1.2672
0.0033295802 -0.022195447 1.266
-0.0011081067 -0.012189173 1.2640001
0.00110986 -0.015536286 1.266
-0.025498863 -0.0029839033 1.2646154
-0.014413277 -0.0011089833 1.265
-0.0057531651 -0.004944081 1.2665454
-0.061815519 0.007034373 1.2666668
-0.056956686 0.0081999898 1.2640001
-0.033104338 0.0037759789 1.2672001
-0.023788523 0.0015562589 1.268
-0.015023728 0.0036279971 1.2663999
-0.061138734 0.011116133 1.268
-0.055723738 0.015169839 1.2661332
-0.045901567 0.017963249 1.2648
-0.038124483 0.013694701 1.2666668
-0.014450973 0.010004519 1.268
-0.052245826 0.022973342 1.268
-0.045537576 0.021937706 1.267
-0.15332301 -0.35284403 1.2765714
-0.14901054 -0.35179931 1.2780001
-0.1630919 -0.34565741 1.276
-0.15570718 -0.34524229 1.2754999
-0.14871904 -0.34663618 1.2755001
0.021761935 -0.10322969 1.273
0.024956558 -0.096719913 1.2746665
0.030875906 -0.093371719 1.273
0.0067102253 -0.024597952 1.2754999
0.004658387 -0.015460965 1.2750832
0.01008342 -0.016805699 1.2780001
-0.0018607249 -0.0037207191 1.2738333
-0.031288818 0.0055902111 1.2746667
-0.024891354 0.0057940497 1.2748181
-0.012722363 0.00691918 1.273
-0.0060364632 0.0040276698 1.2754999
-0.062495813 0.012275964 1.273
-0.059147824 0.018971942 1.273
-0.035807889 0.014546968 1.2765
-0.02352798 0.01008342 1.2780001
-0.014731214 0.0123103 1.2763332
-0.0070957397 0.01083034 1.2780001
-0.055536691 0.024228873 1.2754999
-0.044698313 0.025702991 1.2746667
-0.0392133 0.022407599 1.2780001
-0.16159099 -0.35280076 1.2830001
-0.15802924 -0.35430044 1.2830001
-0.17178313 -0.34694934 1.2863334
-0.16084115 -0.34980139 1.2830001
-0.15859163 -0.34867662 1.2830001
0.025869556 -0.093355358 1.2830001
0.030368609 -0.091105826 1.2830001
0.0060737217 -0.01102268 1.2830001
0.010901934 -0.010899012 1.2863334
0.0041392301 -0.0063926531 1.286889
0.011291467 -0.00677488 1.2880001
-0.0022582933 0.00338744 1.2880001
-0.031730156 0.015529186 1.2835
-0.024995107 0.015452232 1.2856474
-0.014456745 0.017276691 1.2850834
-0.0065385303 0.015109526 1.286
-0.057139877 0.026879353 1.2851429
-0.04386577 0.028119082 1.2830001
-0.035695311 0.024237568 1.2859168
-0.028228667 0.021453787 1.2880001
-0.015808053 0.021453787 1.2880001
-0.053737551 0.032882668 1.2859167
-0.045641314 0.032872807 1.2855
-0.038767368 0.031239724 1.2880001
-0.17624068 -0.34907025 1.2970001
0.02718368 -0.091744922 1.2920001
0.02728888 -0.089825898 1.2970001
0.030640814 -0.088515714 1.2945001
0.0038580343 -0.0020405294 1.294
-0.0022653067 0.0056632669 1.2920001
-0.062537014 0.017055551 1.2970001
-0.0045371884 0.016645124 1.2945
-0.062537014 0.025014807 1.2970001
-0.032111567 0.026824392 1.2928333
-0.02496659 0.023266513 1.2945
-0.014577889 0.024180084 1.2943077
-0.006813453 0.023850009 1.2953334
-0.060671292 0.033860024 1.2960001
-0.054559849 0.03804671 1.2927142
-0.044893973 0.038089287 1.2941428
-0.036319423 0.032346368 1.2945001
-0.05116665 0.042070355 1.2970001
0.019478656 -0.093955867 1.307
0.022859631 -0.093729578 1.3038751
0.026063301 -0.086332954 1.3053334
0.030877516 -0.084625073 1.3045001
-0.072185613 -0.014895443 1.307
-0.067602396 -0.012603836 1.307
-0.064344183 -0.0061847083 1.306
0.0079899402 -0.00228284 1.302
0.0114142 -0.00228284 1.302
-0.00114142 0.0068485201 1.302
0.0045774602 0.0045785559 1.3048126
0.012603835 0.0045832135 1.307
-0.064466558 0.018689947 1.3053335
-0.0015240851 0.014490861 1.3045001
0.0022916067 0.011458033 1.307
-0.065949731 0.024396317 1.3045001
-0.024661509 0.027604103 1.304143
-0.016010564 0.028590292 1.3045001
-0.0034242601 0.0228284 1.302
-0.064977728 0.034869198 1.3040835
-0.058212418 0.0399497 1.302
-0.04223254 0.0399497 1.302
-0.034593705 0.034309447 1.3045001
-0.0285355 0.030818339 1.302
-0.01718705 0.03093669 1.307
-0.06299337 0.043140572 1.3064445
-0.055196285 0.044803802 1.3042728
-0.04598853 0.043703936 1.3050001
0.018438052 -0.1014071 1.3145001
0.017302113 -0.094588168 1.31575
0.01843586 -0.085275993 1.3145001
0.02415392 -0.082977757 1.3120002
0.031055041 -0.081663251 1.312
0.018857976 -0.078895621 1.317
0.025880951 -0.078632489 1.3162858
0.031114215 -0.078359529 1.3145001
-0.073055193 -0.014992242 1.3157501
-0.06811963 -0.0115457 1.317
-0.071418397 -0.0051130964 1.317
-0.066840135 -0.0034571348 1.3145
-0.070428766 0.0080819903 1.317
-0.06811963 0.0080819903 1.317
-0.070973925 0.015970862 1.3148572
-0.067350291 0.014651353 1.3148571
0.0047120834 0.014563266 1.3142729
0.012687747 0.011699368 1.3155714
-0.07144966 0.025352322 1.3145002
-0.067861013 0.027604479 1.312
-0.01035168 0.028754666 1.312
-0.0046029384 0.025345748 1.3145001
-0.07181868 0.03469184 1.3142223
-0.034535188 0.037415035 1.3132501
-0.024972823 0.033172384 1.3147779
-0.015497226 0.033684552 1.314778
-0.0080819903 0.031173389 1.317
-0.071303807 0.043309335 1.3148572
-0.065891497 0.046772089 1.3140001
-0.055208959 0.049458027 1.312
-0.044598166 0.047233421 1.3141431
-0.035791669 0.040409949 1.317
-0.062346779 0.051955651 1.317
-0.054896366 0.052917104 1.3162857
-0.0477615 0.052839857 1.3160001
0.012783553 -0.10268456 1.3260001
0.013552099 -0.09540315 1.3253334
0.0081494935 -0.087315999 1.3280001
0.012964416 -0.085584246 1.326154
0.017895222 -0.076000683 1.3256
0.025371758 -0.07378421 1.3255001
-0.086022429 -0.032986045 1.3280001
-0.09197285 -0.023284268 1.3280001
-0.08605776 -0.025585737 1.3265001
-0.079388306 -0.023758546 1.322
-0.09197285 -0.015134774 1.3280001
-0.085981622 -0.01510295 1.3253
-0.078577049 -0.014602812 1.3220001
-0.09197285 -0.0081494935 1.3280001
-0.086105108 -0.0046529081 1.32725
-0.077293277 -0.004368362 1.3220003
-0.083590515 0.0044240104 1.3279998
-0.074498788 0.0044096331 1.3236002
-0.067219295 0.0034768602 1.322
0.047732748 0.0081494935 1.3280001
0.051807493 0.0064031733 1.3280001
-0.082950197 0.015134772 1.3279998
-0.075824127 0.014557794 1.3243078
0.0062657124 0.018792929 1.3232
0.016030628 0.016416948 1.3270001
0.025343195 0.015920369 1.3248236
0.034877304 0.017438656 1.3260001
0.044719491 0.015819604 1.3279998
0.054163639 0.015910916 1.3279997
-0.081785992 0.024739534 1.3280001
-0.076623082 0.025542341 1.32425
-0.0027059775 0.027470643 1.324
0.0034918883 0.023436306 1.327143
0.01047792 0.022120053 1.3280001
0.026776904 0.022120053 1.3280001
0.033762187 0.023284269 1.3280001
0.044938631 0.025612693 1.3280001
0.054033194 0.025133314 1.3279998
0.062867522 0.02444848 1.3280001
-0.080330722 0.0349264 1.3280001
-0.076706827 0.034623321 1.3228571
-0.031291738 0.038245458 1.322
-0.025496975 0.037472822 1.322
-0.014094797 0.036990821 1.3245715
-0.0058173095 0.033741899 1.327143
0.044628177 0.032986045 1.3280001
0.051225387 0.031433761 1.3280001
-0.081106864 0.045016248 1.3280001
-0.075361341 0.045796629 1.3225002
-0.04139737 0.047588974 1.324
-0.034800161 0.04408231 1.3232002
-0.025489151 0.043376658 1.326154
-0.017783059 0.04238433 1.327143
0.038419038 0.040747467 1.3280001
-0.081624292 0.055235453 1.3280001
-0.07467673 0.055511974 1.3272941
-0.065276109 0.056164019 1.3228575
-0.056016073 0.057561345 1.322
-0.04510333 0.055754233 1.3250002
-0.081494935 0.064031735 1.3280001
-0.074276812 0.065273561 1.3279998
-0.065465845 0.064635761 1.3267144
-0.054997683 0.063805677 1.3267144
-0.047732748 0.062867522 1.3280001
0.0074011125 -0.10244697 1.3330001
0.01051737 -0.10400511 1.3330001
0.006321819 -0.096275181 1.3360002
0.01051737 -0.095435388 1.3330001
0.0076013575 -0.084805451 1.3342501
0.011685967 -0.080633171 1.3330001
0.0082108602 -0.078589663 1.3380001
0.014571076 -0.074573487 1.3348184
0.024540531 -0.071284398 1.3330001
0.018730421 -0.069076508 1.3355
0.024565578 -0.067347907 1.3344287
-0.096184358 -0.041054301 1.3380001
-0.095128529 -0.035008468 1.3345386
-0.08881335 -0.037395094 1.3330001
-0.096292533 -0.025849931 1.3356923
-0.10204926 -0.011729799 1.3380001
-0.097141981 -0.015215719 1.3349999
-0.10204926 -0.0082108602 1.3380001
-0.095956743 -0.0046803355 1.3347858
0.057476021 -0.00175947 1.3380001
-0.095557354 0.0046865973 1.3362143
-0.089514509 0.005375545 1.3330001
0.047912464 0.0058429833 1.3330001
0.05602964 0.00444096 1.3333335
0.062167939 0.0058649001 1.3380001
-0.094937183 0.014568134 1.3369286
-0.088943191 0.015191757 1.3330001
0.057845533 0.011101668 1.3330001
0.065338068 0.016038565 1.3350588
0.073428549 0.018533085 1.3380001
-0.093134612 0.026040155 1.3380002
-0.086976461 0.026187524 1.3335001
0.0055891396 0.027421452 1.3341112
0.01545577 0.025927786 1.3345789
0.02545361 0.026535016 1.3337693
0.035759054 0.027111445 1.3330001
0.043238074 0.025709124 1.3330001
0.066220477 0.022982402 1.3330001
0.071551777 0.02228662 1.3380001
-0.092144094 0.035059068 1.3380002
-0.085417129 0.035101734 1.3346667
-0.01051737 0.038563691 1.3330001
-0.0032158329 0.036554806 1.3342501
0.0027340313 0.033194982 1.3363334
0.025805559 0.031670459 1.3380001
0.035576887 0.03474405 1.3337144
0.042510152 0.033934597 1.3346667
-0.090319462 0.04457324 1.3380001
-0.085938491 0.044021204 1.3355001
-0.033889305 0.047912464 1.3330001
-0.026098659 0.047912464 1.3330001
-0.014708421 0.044909194 1.3363335
-0.0082108602 0.041054301 1.3380001
0.033334594 0.041523539 1.3342501
-0.090319462 0.055130057 1.3380001
-0.086034626 0.054552898 1.3343638
-0.041731089 0.057332832 1.3346667
-0.036314163 0.051546831 1.3363334
-0.025805559 0.05043814 1.3380001
-0.01642172 0.05043814 1.3380001
-0.090319462 0.064513899 1.3379999
-0.085052811 0.065936513 1.3350835
-0.078295976 0.064272813 1.3330001
-0.06310422 0.068947203 1.3330001
-0.05417639 0.068600766 1.3338333
-0.045629334 0.063571192 1.3346667
-0.082695089 0.072138265 1.3380001
-0.074449666 0.072442599 1.3358573
-0.065593183 0.072624497 1.3361251
-0.057011973 0.072244644 1.3363334
0.0041286615 -0.093222097 1.3460001
0.0082599539 -0.075516939 1.3460001
0.011396958 -0.072711028 1.3450001
0.014930669 -0.066493981 1.3479091
0.021534221 -0.063125707 1.3460002
0.021681428 -0.056371715 1.3490001
-0.10478387 -0.043332171 1.348
-0.097721159 -0.043562442 1.3430001
-0.11313763 -0.034690287 1.3490001
-0.1052112 -0.035442937 1.3452109
-0.11412316 -0.024637988 1.3490001
-0.10579883 -0.02497519 1.3444289
-0.11313763 -0.014191479 1.3490001
-0.10660704 -0.014482784 1.3447145
0.065044284 -0.01064361 1.3490001
-0.11353184 -0.0047304933 1.3490001
-0.10599764 -0.0042745168 1.3452504
0.062625386 -0.0044908123 1.3478
-0.11353184 0.0047304933 1.3490001
-0.10552368 0.0047188043 1.3456669
0.066304348 0.0051137423 1.3465
0.07450527 0.0082783634 1.3490001
0.082783632 0.0082783634 1.3490001
-0.11282227 0.013481906 1.3490001
-0.10521175 0.014214414 1.3452108
-0.097721159 0.01766045 1.3430001
0.067109711 0.010596271 1.3430001
0.075575672 0.012986064 1.3470001
0.081601009 0.011826233 1.3490001
-0.11234923 0.024835091 1.3490001
-0.10507169 0.024793429 1.3466003
-0.097721159 0.024724629 1.3430001
-0.11449945 0.035801232 1.3490001
-0.10497783 0.035381921 1.3454003
-0.096375592 0.035489094 1.3430002
0.0056409603 0.03632839 1.3463335
0.013943383 0.033794627 1.3478
0.024970222 0.035941951 1.3472859
0.031788811 0.037675627 1.3430001
-0.1138275 0.044052716 1.3490001
-0.10502307 0.044841848 1.3460004
-0.095366418 0.044739801 1.3430003
-0.011785468 0.047148447 1.3445001
-0.0047226031 0.044872429 1.3468573
0.0019710388 0.042180229 1.3490001
0.028382961 0.042574439 1.3490001
-0.11234922 0.052035425 1.3490001
-0.10478356 0.053967603 1.3480003
-0.095366418 0.054158714 1.3430003
-0.034660242 0.055648871 1.3448002
-0.024948806 0.054789159 1.3460003
-0.014955349 0.05313915 1.3470001
-0.0082783634 0.050852802 1.3490001
-0.1017056 0.063565999 1.3490001
-0.095180593 0.065124936 1.3445002
-0.044412225 0.064851418 1.3450001
-0.037843946 0.060313791 1.3490001
-0.10052298 0.072140023 1.3490001
-0.094015479 0.075280495 1.3477144
-0.085549079 0.076506853 1.3460001
-0.07589332 0.077470154 1.3456668
-0.064781807 0.077741221 1.3436002
-0.054397069 0.075896829 1.3456668
-0.048487555 0.072140023 1.3490001
-0.065044284 0.081601009 1.3490001
0.0011870067 -0.096147537 1.3540001
0.0071220403 -0.07240741 1.3540001
0.0075250142 -0.066951327 1.3556668
0.012765253 -0.062642545 1.3546251
-0.11199066 -0.051229771 1.3590001
-0.10821705 -0.052326918 1.3565001
0.014902456 -0.055134714 1.3559232
0.020772617 -0.054008804 1.3540001
-0.11284979 -0.045141321 1.3550001
-0.10445659 -0.047480267 1.3540001
-0.098521553 -0.046293259 1.3540001
0.017870849 -0.04884699 1.3590001
0.022615589 -0.047017168 1.3577502
-0.12033039 -0.032167532 1.3590001
-0.11679465 -0.036425646 1.3548335
-0.12271317 -0.027401971 1.3590001
-0.11899741 -0.025223892 1.3540001
-0.12033039 -0.01429668 1.3590001
-0.11751366 -0.014244081 1.3540001
0.067659378 -0.01068306 1.3540001
0.075057566 -0.01072251 1.3590001
-0.12033039 -0.00436843 1.3590001
-0.11798845 -0.0049854284 1.3540001
0.066641942 -0.0042393096 1.3540001
0.074131697 -0.004169317 1.3583752
-0.12033039 0.0051626898 1.3590001
-0.11798845 0.0045106253 1.3540001
0.067659378 0.0011870067 1.3540001
0.075533286 0.0044282819 1.3558183
0.082205907 0.0047655599 1.3590001
-0.12033039 0.01429668 1.3590001
-0.11692016 0.014244081 1.3540001
-0.12033038 0.025019189 1.3590001
-0.11632665 0.024927139 1.3540001
-0.12348568 0.03640043 1.3570001
-0.11941286 0.034897994 1.3540001
0.0083090467 0.039171219 1.3540001
0.014639749 0.038379882 1.3540001
0.021366119 0.039171219 1.3540001
-0.12200461 0.045234468 1.3577502
-0.11825394 0.045640647 1.3547144
-0.0011870067 0.048667274 1.3540001
0.0049906885 0.045616999 1.3550001
0.013774812 0.043695945 1.3575716
0.023387566 0.043606132 1.3565001
-0.11515909 0.055199843 1.3570001
-0.10801761 0.058163326 1.3540001
-0.021366119 0.058163326 1.3540001
-0.013539766 0.055830516 1.3550001
-0.0048491131 0.054806568 1.3566924
0.003097614 0.053135991 1.3590001
-0.11258233 0.064028844 1.3575002
-0.10617115 0.065021597 1.3540001
-0.041621942 0.066597298 1.3565001
-0.034155436 0.063387014 1.3568573
-0.026309351 0.062274892 1.3573335
-0.017076589 0.061555147 1.3590001
-0.11265254 0.073204294 1.3590001
-0.10502612 0.07530421 1.3562222
-0.098521553 0.078342438 1.3540001
-0.052228294 0.078342438 1.3540001
-0.044081431 0.070292011 1.3590001
-0.10245954 0.082205907 1.3590001
-0.09445183 0.082920894 1.3540001
-0.08508914 0.083054282 1.356143
-0.075881518 0.082670674 1.3554287
-0.063702695 0.081903458 1.3540001
-0.058163326 0.081903458 1.3540001
0.0071799001 -0.063422441 1.365
-0.11487839 -0.053450365 1.3649999
0.0083765499 -0.057439201 1.365
0.0119665 -0.05384925 1.365
-0.12145998 -0.043677725 1.365
-0.1179897 -0.04619069 1.365
0.0167531 -0.045073818 1.3649999
0.02130037 -0.043797389 1.365
-0.12265663 -0.035899498 1.3649999
0.023534117 -0.033905085 1.3650001
-0.12581919 -0.0249587 1.3649999
-0.12564825 -0.014359798 1.3649999
0.081372201 -0.01076985 1.365
-0.12564825 -0.0047865999 1.3649999
0.076585606 -0.0059832502 1.365
0.080175549 -0.0047865999 1.365
-0.13043486 0.00358995 1.365
-0.12564825 0.0047865994 1.3649999
0.085304044 0.0035899503 1.3649999
-0.12528004 0.014635949 1.3649999
-0.13043486 0.026326299 1.365
-0.12564823 0.025129648 1.3649999
-0.13123262 0.036697265 1.3649999
-0.12667395 0.035386648 1.3649999
-0.13123262 0.0454727 1.3649999
-0.12644601 0.045871582 1.3649999
0.01459913 0.047148012 1.365
0.02273635 0.046669349 1.3650001
-0.12421227 0.054806568 1.3649999
-0.11846835 0.05863585 1.365
-0.01076985 0.05863585 1.365
-0.00358995 0.05863585 1.365
0.0071799001 0.052652597 1.365
-0.12245718 0.064220212 1.3649999
-0.11767059 0.065017976 1.3649999
-0.035899498 0.068209052 1.365
-0.024172332 0.066773072 1.3649999
-0.01521455 0.064790048 1.3649999
-0.12165942 0.071400113 1.3650001
-0.11710075 0.075047053 1.3649999
-0.044276047 0.072995648 1.3650001
-0.035899501 0.07060235 1.365
-0.026326301 0.07060235 1.365
-0.11320309 0.081132874 1.365
-0.10610297 0.084164381 1.3649999
-0.095731996 0.086757123 1.365
-0.084962144 0.08735545 1.365
-0.0741923 0.084962152 1.365
-0.11701045 -0.06152096 1.376
0.0060051666 -0.061252698 1.3700001
-0.12422319 -0.054396845 1.3732728
-0.11738771 -0.057292212 1.3709999
0.0060051666 -0.058850631 1.3700001
-0.13229017 -0.045034949 1.376
-0.12600215 -0.046274852 1.3709999
0.015613433 -0.044438232 1.3700001
-0.13375011 -0.034262706 1.3728002
-0.12748112 -0.036545731 1.37
0.015644185 -0.035821006 1.3727692
0.02132952 -0.035146665 1.3707501
-0.13466696 -0.024046969 1.3715001
0.0180944 -0.026538454 1.376
0.020506987 -0.02533216 1.376
-0.13470411 -0.014431141 1.3718752
0.085646823 -0.01085664 1.376
-0.13481556 -0.0048146541 1.3730001
0.084494762 -0.0045362776 1.3723077
0.093552016 -0.0028129313 1.3740001
-0.14113632 0.0084440531 1.376
-0.1349965 0.0048912163 1.3724
0.086474396 0.0012010334 1.3700001
0.091278531 0.0012010334 1.3700001
-0.14113632 0.014475519 1.376
-0.13462916 0.014423909 1.3711252
-0.14113632 0.024125867 1.376
-0.13534723 0.023743508 1.3700001
-0.14299835 0.036267858 1.3749093
-0.13613287 0.034285761 1.3704617
-0.14306149 0.045035418 1.3736001
-0.13619719 0.045639269 1.37
0.015681813 0.049458027 1.376
-0.14113632 0.053076908 1.376
-0.13459136 0.055279098 1.3707502
-0.12851056 0.058850631 1.3700001
0.0045723426 0.057029974 1.3724
0.011625768 0.052524019 1.3720001
-0.13395859 0.064709738 1.3727692
-0.12748112 0.065370537 1.37
-0.012260007 0.065634273 1.3712
-0.0060171895 0.062783107 1.3734286
-0.13235614 0.074183039 1.3742858
-0.12559749 0.075137086 1.3704617
-0.042836856 0.07486441 1.3700002
-0.034433875 0.074882954 1.3716365
-0.024189146 0.074974291 1.3732728
-0.016134875 0.072012201 1.3736
-0.1260521 -0.072550885 1.3870001
-0.1305916 -0.064931013 1.3870001
-0.12474395 -0.065691404 1.3856155
-0.11985699 -0.062955186 1.381
-0.13392735 -0.055759907 1.3853637
-0.12772638 -0.057507142 1.381
-0.14323734 -0.043044157 1.3870001
-0.13784987 -0.04602237 1.3848182
-0.14497592 -0.033744588 1.386077
-0.13877371 -0.036361068 1.3825001
0.013317443 -0.031477593 1.381
-0.14516999 -0.023934877 1.3848574
0.015477356 -0.024088949 1.3816667
0.020581502 -0.020581502 1.381
-0.15199208 -0.013375304 1.3870001
-0.14559942 -0.01455968 1.3840003
0.017402126 -0.017402126 1.3850001
0.020581502 -0.018160149 1.381
0.088379398 -0.010896089 1.381
0.092011422 -0.010896089 1.381
-0.15199208 -0.0060796831 1.3870001
-0.1456392 -0.0048555285 1.3843753
0.088379398 -0.0084747365 1.381
0.091769293 -0.0065376544 1.381
-0.15199208 0.0048637465 1.3870001
-0.14577791 0.0046068835 1.3834002
-0.15303431 0.014417535 1.3870001
-0.14649189 0.014528122 1.3810002
-0.15199208 0.024318732 1.3870001
-0.14665362 0.024241149 1.3825001
-0.15182771 0.034008093 1.3855001
-0.14744276 0.03352578 1.3823334
-0.15199208 0.04012591 1.3870001
-0.14670753 0.04727776 1.383
0.018160149 0.049637742 1.381
0.021842148 0.049745575 1.3840001
-0.1443848 0.055813421 1.3840001
0.0060796831 0.059580896 1.3870001
-0.010896089 0.069008566 1.381
-0.006053383 0.066587217 1.381
-0.13386832 -0.075186878 1.3945001
-0.12569296 -0.071998879 1.3920001
-0.14339286 -0.063730165 1.398
-0.13583951 -0.066308998 1.3936365
-0.15074635 -0.052699938 1.3980001
-0.14423445 -0.054393008 1.3942502
-0.13789617 -0.058575362 1.3920001
-0.15145557 -0.043683425 1.3970002
-0.14626406 -0.044454519 1.3920001
-0.1523421 -0.034259036 1.39575
-0.1534926 -0.024968695 1.3961999
-0.15531641 -0.015084803 1.3950001
0.016677706 -0.014237068 1.3920001
-0.15574017 -0.0046456321 1.3944001
-0.16055098 0.0061279 1.3980001
-0.15654023 0.0048917998 1.3950001
-0.16055098 0.012255799 1.3980001
-0.15734027 0.014928932 1.3956001
-0.15587169 0.023738381 1.3956001
-0.15564866 0.033090662 1.3980001
-0.15112858 0.045216713 1.3940001
-0.1374438 -0.082466282 1.4039999
-0.15139332 -0.071388721 1.404
-0.14548528 -0.073358059 1.4040002
-0.13908492 -0.07631208 1.404
-0.15244831 -0.063476183 1.4040002
-0.14646997 -0.06523452 1.4040002
-0.1544704 -0.054156959 1.4040002
-0.156809 -0.044556409 1.4040002
-0.16124004 -0.030771 1.404
-0.15772335 -0.034991026 1.4040002
-0.16124004 -0.024616798 1.404
-0.15877835 -0.0246168 1.404
-0.16124004 -0.014770079 1.404
-0.15877835 -0.01518036 1.4039999
-0.1620606 -0.0041028005 1.4040002
-0.16222471 0.0046771923 1.404
-0.16288115 0.01353924 1.4039999
-0.16124004 0.020924279 1.404
-0.15877835 0.025847638 1.4039999
-0.15071873 -0.092416003 1.4150001
-0.15292901 -0.084207125 1.4125
-0.14540863 -0.083676264 1.4125
-0.13885523 -0.085290909 1.4100002
-0.16002235 -0.070707552 1.4150001
-0.15517396 -0.074740656 1.4115
-0.14610703 -0.075896539 1.4100001
-0.16126284 -0.06450513 1.4150001
-0.15733786 -0.064100608 1.41
-0.16367203 -0.054557703 1.4143751
-0.15896246 -0.055130064 1.4100001
-0.16345668 -0.0445785 1.4125
-0.16506599 -0.034318313 1.4118181
-0.17242718 -0.022328701 1.4150001
-0.16707367 -0.024751224 1.4116668
-0.16692011 -0.015193829 1.4122727
-0.16634531 -0.0057750419 1.4125
-0.16623968 0.00421063 1.4130001
-0.16377155 0.01773935 1.4116668
-0.16283426 0.024770217 1.4125001
-0.16137943 -0.1125903 1.427
-0.15637541 -0.10508429 1.427
-0.15539765 -0.094848424 1.4256668
-0.14699772 -0.092185006 1.4210001
-0.16271222 -0.083768383 1.4261428
-0.15784469 -0.085532688 1.4222
-0.14699772 -0.088447779 1.4210001
-0.17138745 -0.07130719 1.427
-0.16447432 -0.074795239 1.4237692
-0.17138745 -0.065052174 1.427
-0.16639519 -0.065360583 1.4228003
-0.17138745 -0.055044144 1.427
-0.16817535 -0.054812707 1.4210001
-0.17245974 -0.044499971 1.427
-0.16817535 -0.044846758 1.4210001
-0.17240238 -0.035483081 1.4235716
-0.16817535 -0.038618043 1.4210001
-0.17315832 -0.027406354 1.4210001
-0.17066683 -0.01121169 1.4210001
-0.17138745 -0.0087570231 1.427
-0.16617656 -0.11455929 1.436
-0.17114668 -0.10512695 1.439
-0.1648611 -0.10571065 1.4355
-0.15891731 -0.10364173 1.4330001
-0.17174737 -0.095695555 1.439
-0.16501085 -0.095604613 1.4334617
-0.15870793 -0.098407291 1.4330001
-0.17282869 -0.085783586 1.439
-0.16764137 -0.086402997 1.4330001
-0.18165937 -0.071906827 1.439
-0.17458202 -0.074865356 1.43525
-0.16959555 -0.077888325 1.4330001
-0.18090245 -0.06635613 1.439
-0.17587686 -0.065325692 1.4330001
-0.18090245 -0.05525472 1.439
-0.17587686 -0.055275582 1.4330001
-0.18147914 -0.04595549 1.439
-0.17663062 -0.045979239 1.4330001
-0.18039784 -0.037845701 1.439
-0.17713313 -0.035175372 1.4330001
-0.17713313 -0.02638153 1.4330001
-0.1746206 -0.01130637 1.4330001
-0.17340553 -0.0042797113 1.4354001
-0.17228253 -0.11401051 1.4450001
-0.17544949 -0.10387623 1.4450001
-0.17608289 -0.095008753 1.4450001
-0.17608288 -0.086141273 1.4450001
-0.18115002 -0.076007001 1.4450001
-0.17777193 -0.078962825 1.4450001
-0.18368359 -0.051938117 1.4450001
-0.18150157 -0.11247984 1.4580001
-0.17744505 -0.11481738 1.452
-0.18124592 -0.10455513 1.4580001
-0.1782088 -0.10437944 1.452
-0.18460301 -0.093260452 1.4572501
-0.17948171 -0.094196081 1.452
-0.18495826 -0.084188052 1.4549999
-0.1794817 -0.085285641 1.452
-0.1845734 -0.076375201 1.452
-0.1853361 -0.063909002 1.4580001
-0.1853361 -0.057518099 1.4580001
-0.18438755 -0.10566989 1.4640001
-0.1860988 -0.097541437 1.4640001
-0.190341 -0.053951528 1.4770001
-0.18943889 -0.055414099 1.47
-0.064755857 -0.49314079 1.8940001
-0.054793421 -0.49314079 1.8940001
