# .PCD v0.7 - Point Cloud Data file format
VERSION 0.7
FIELDS x y z
SIZE 4 4 4
TYPE F F F
COUNT 1 1 1
WIDTH 1425
HEIGHT 1
VIEWPOINT 0 0 0 1 0 0 0
POINTS 1425
DATA ascii
-0.035628982 -0.13268724 1.09
-0.02536127 -0.13455513 1.0917917
-0.082348667 -0.1275268 1.0965
-0.074986599 -0.12488237 1.0946286
-0.064766861 -0.12857369 1.0967274
-0.053947173 -0.12631461 1.0949
-0.045023438 -0.1245276 1.0927334
-0.036111619 -0.12604009 1.0945001
-0.025940567 -0.12907046 1.0960001
-0.075974561 -0.11828951 1.097
-0.043276649 -0.11828951 1.097
-0.091880247 -0.29435027 1.1074544
-0.084447883 -0.29393253 1.1056248
-0.076060042 -0.29198244 1.1028334
-0.068529911 -0.29052821 1.1010001
-0.094268896 -0.28510082 1.1056874
-0.085712872 -0.2862229 1.1014705
-0.073935084 -0.2858952 1.1010001
-0.068529911 -0.28280652 1.1010001
-0.10313655 -0.27300715 1.10725
-0.096087791 -0.27528894 1.1037498
-0.043434449 -0.27122402 1.1010001
-0.034852706 -0.27231178 1.1044374
-0.1049306 -0.26416641 1.1061997
-0.098119311 -0.26550987 1.1026665
-0.03464745 -0.26546082 1.1053332
-0.11382016 -0.25442708 1.1061249
-0.1056112 -0.255445 1.1030525
-0.098451413 -0.25674585 1.101
-0.032597389 -0.25921282 1.1046667
-0.11486502 -0.24465962 1.1042172
-0.10768986 -0.24805899 1.101
-0.031851929 -0.24033728 1.1010001
-0.12141833 -0.23215185 1.108
-0.11570662 -0.23478973 1.1044165
-0.10906873 -0.23068519 1.1010001
-0.12287536 -0.22292405 1.1079999
-0.1152449 -0.22524862 1.1046398
-0.10906873 -0.22441132 1.1010001
-0.12413117 -0.21431914 1.1061997
-0.11527729 -0.21505512 1.1049997
-0.108747 -0.21556358 1.101
-0.021339381 -0.21049687 1.1065
-0.1238404 -0.20467609 1.1064999
-0.11520957 -0.20465972 1.1043198
-0.10906873 -0.20752014 1.1010001
-0.022942111 -0.20535892 1.1040587
-0.01748424 -0.20495415 1.108
-0.14084527 -0.19232664 1.108
-0.13461646 -0.19383225 1.1063683
-0.1248826 -0.19459045 1.1042799
-0.11526738 -0.19516404 1.1063075
-0.10830078 -0.19314875 1.1029999
-0.14110549 -0.18544348 1.1075
-0.13437672 -0.18464607 1.1027198
-0.12460437 -0.18541126 1.1018419
-0.11532971 -0.18511498 1.1055198
-0.1071315 -0.18478362 1.1055881
-0.14084527 -0.17581375 1.108
-0.13600437 -0.17530066 1.1023332
-0.12065125 -0.17663343 1.1010001
-0.11457717 -0.17503913 1.1015216
-0.10561173 -0.17493944 1.1034998
-0.14084527 -0.16998567 1.108
-0.13580973 -0.16457759 1.1046189
-0.12065125 -0.16119006 1.1010001
-0.1143335 -0.16478767 1.101
-0.10562884 -0.16509792 1.1018695
-0.099416628 -0.16119006 1.1010001
-0.13367717 -0.15522985 1.1041818
-0.1219382 -0.15475534 1.101
-0.11477353 -0.15526131 1.1016152
-0.10542355 -0.15474674 1.1032664
-0.097828344 -0.15367049 1.1033999
-0.13190804 -0.14654681 1.1054444
-0.12476598 -0.14387225 1.1022776
-0.11529449 -0.14505593 1.1017406
-0.10525983 -0.14446682 1.1047997
-0.095735252 -0.14460403 1.1039581
-0.12352508 -0.13853909 1.105125
-0.11496221 -0.13495766 1.1039999
-0.10529737 -0.13440569 1.1011537
-0.095301531 -0.13457999 1.1044283
-0.088220194 -0.13261986 1.1010001
-0.11506421 -0.1250634 1.1044582
-0.10532852 -0.1246546 1.1022798
-0.095002957 -0.12505279 1.1057998
-0.085660525 -0.12407628 1.1024998
-0.070460327 -0.12065125 1.1010001
-0.064501859 -0.12346368 1.1016315
-0.05656131 -0.12238864 1.101
-0.032945052 -0.12221649 1.1024545
-0.025056206 -0.12518284 1.1041111
-0.11307438 -0.11850446 1.1062
-0.10443174 -0.11682645 1.1064442
-0.094097763 -0.11581128 1.1075908
-0.08421281 -0.11517927 1.1040798
-0.074272729 -0.11475041 1.1014999
-0.065563753 -0.11619256 1.1063498
-0.054883506 -0.11676791 1.1051174
-0.045730915 -0.11458384 1.1034544
-0.035196256 -0.11541802 1.1043926
-0.028169053 -0.11850429 1.108
-0.10069627 -0.10911461 1.108
-0.093323998 -0.10781949 1.1079999
-0.084548451 -0.10495283 1.1067584
-0.074439719 -0.10536373 1.1049998
-0.068965614 -0.10879083 1.108
-0.044270262 -0.10814859 1.1073999
-0.036611658 -0.10761704 1.107357
-0.082533285 -0.097789787 1.1075715
-0.075535677 -0.096473344 1.1068945
-0.10104197 -0.30116394 1.1190001
-0.094608441 -0.30323905 1.1160771
-0.085163713 -0.3036873 1.1166154
-0.078711517 -0.3014591 1.1176667
-0.10288262 -0.29492757 1.1176668
-0.097162478 -0.29503283 1.1133637
-0.084812246 -0.29927996 1.1120001
-0.07665953 -0.29718328 1.1163334
-0.10414416 -0.28449285 1.1167895
-0.098460183 -0.28660688 1.1120001
-0.11288913 -0.27441588 1.1171334
-0.10666491 -0.27604163 1.1142
-0.030220453 -0.27003437 1.1120001
-0.027420379 -0.27222779 1.1170001
-0.11378738 -0.26568705 1.1147858
-0.10820872 -0.26808468 1.1120001
-0.030220453 -0.26516011 1.1120001
-0.024904864 -0.26481235 1.1161363
-0.017713677 -0.26319534 1.1137143
-0.12166643 -0.25410411 1.1173999
-0.11885466 -0.25562871 1.1143335
-0.030220453 -0.25833613 1.1120001
-0.023643326 -0.25900352 1.1172857
-0.017984817 -0.25930834 1.1190001
-0.1240958 -0.24455656 1.1145717
-0.11990696 -0.24858759 1.1120001
-0.13047168 -0.23249464 1.1190001
-0.12498956 -0.23514318 1.1124737
-0.13279849 -0.22417507 1.1175455
-0.12608255 -0.22583856 1.112231
-0.14126256 -0.21091285 1.1190001
-0.13459146 -0.21463796 1.1167648
-0.1296555 -0.21544258 1.1120001
-0.017569715 -0.21085104 1.1135001
-0.14402844 -0.20406677 1.1166
-0.13561222 -0.20539081 1.1143808
-0.12909843 -0.20569406 1.1120001
-0.020471919 -0.20179464 1.1120001
-0.016765667 -0.2043003 1.1141669
-0.15241018 -0.19539537 1.1190002
-0.14562735 -0.19423106 1.1133499
-0.13615452 -0.19951999 1.1120001
-0.016594861 -0.19913703 1.1135001
-0.15107246 -0.18638809 1.1190001
-0.14609441 -0.18478039 1.11375
-0.14524627 -0.17556332 1.1156667
-0.14355525 -0.16503909 1.1139334
-0.14334726 -0.15549776 1.1155716
-0.13908932 -0.15352345 1.1126001
-0.14028157 -0.14714849 1.1190001
-0.13626476 -0.14449689 1.1147858
-0.13192302 -0.13654515 1.1161819
-0.12532619 -0.13389325 1.1139445
-0.12461699 -0.12755062 1.1163334
-0.02188899 -0.12199605 1.1132858
-0.018115001 -0.12191233 1.117
-0.10508917 -0.11288802 1.1120002
-0.096510477 -0.11552011 1.1120001
-0.063619509 -0.11174091 1.1126666
-0.056064721 -0.11190004 1.1129231
-0.049717519 -0.11015843 1.1120001
-0.030220455 -0.11210813 1.1120001
-0.024532568 -0.11493458 1.1159999
-0.017797962 -0.11617725 1.1190001
-0.10261016 -0.10509432 1.1147274
-0.095295779 -0.10309646 1.1125295
-0.065295227 -0.10437901 1.1144999
-0.055394359 -0.10458037 1.117259
-0.045717631 -0.10359409 1.1148334
-0.033965837 -0.10346192 1.1134001
-0.026735432 -0.10521396 1.1168462
-0.10068078 -0.098725818 1.115
-0.093116499 -0.095589168 1.1149333
-0.085387483 -0.093599819 1.1127895
-0.073913082 -0.09244056 1.1123002
-0.066367649 -0.095542505 1.1166499
-0.059840389 -0.099079989 1.1190001
-0.041790169 -0.098295197 1.1190001
-0.03475545 -0.098168641 1.1185555
-0.02844871 -0.099079989 1.1190001
-0.091666311 -0.088403367 1.1163334
-0.085084394 -0.085080124 1.1155598
-0.075475417 -0.085252799 1.1157082
-0.068815701 -0.087636687 1.1182001
-0.082991756 -0.078675404 1.1190001
-0.078806199 -0.078806199 1.1190001
-0.10167404 -0.31094489 1.126
-0.095281474 -0.31188089 1.1251001
-0.085765615 -0.3115178 1.1245
-0.079957262 -0.31094489 1.126
-0.10407436 -0.30433869 1.1242001
-0.09808892 -0.30806679 1.1245
-0.084994882 -0.30814746 1.123
-0.077858344 -0.30453557 1.1242001
-0.1115453 -0.29317662 1.126
-0.10831498 -0.29427522 1.1243334
-0.074034497 -0.29909939 1.126
-0.11210433 -0.28535616 1.125
-0.1086228 -0.28780118 1.123
-0.11878884 -0.27604255 1.1251428
-0.02067443 -0.27073658 1.123
-0.11887053 -0.2663447 1.12525
-0.021658927 -0.2687676 1.123
-0.01476745 -0.26089162 1.123
-0.12525374 -0.25511146 1.125
-0.015751947 -0.25892264 1.123
-0.12854241 -0.24754699 1.125
-0.13414323 -0.23356406 1.1251
-0.14165267 -0.22160994 1.126
-0.13752203 -0.22575152 1.1245
-0.15103038 -0.21025798 1.126
-0.14494112 -0.21457279 1.1246876
-0.13881403 -0.21757376 1.123
-0.15327288 -0.20454036 1.1246154
-0.14816675 -0.2067443 1.123
-0.012798456 -0.20182182 1.123
-0.15685889 -0.19587496 1.1239002
-0.014111119 -0.1991965 1.123
-0.15236728 -0.18429971 1.1242001
-0.15103038 -0.17472142 1.126
-0.14865899 -0.1732714 1.123
-0.15103038 -0.16879866 1.126
-0.14873841 -0.16449669 1.1236001
-0.14753473 -0.15429834 1.1251428
-0.14348459 -0.14668813 1.1248751
-0.13881403 -0.14078303 1.123
-0.15425198 -0.13419007 1.1255
-0.1356447 -0.13474685 1.1249092
-0.12896906 -0.13093805 1.123
-0.15191559 -0.12725452 1.12525
-0.14609474 -0.1224037 1.126
-0.13227497 -0.12931359 1.126
-0.12489819 -0.12391063 1.1247501
-0.12339083 -0.11944232 1.126
-0.1122034 -0.11417764 1.126
-0.10957106 -0.11351956 1.126
-0.02067443 -0.11124812 1.123
-0.017407678 -0.11200351 1.1240001
-0.1036483 -0.1036483 1.126
-0.022659956 -0.10626615 1.1238571
-0.018097321 -0.10891297 1.126
-0.061837986 -0.094113134 1.124125
-0.055009343 -0.098382413 1.1245
-0.044018231 -0.096194558 1.1249092
-0.034663778 -0.094267838 1.1251429
-0.027017813 -0.098015197 1.1248
-0.070977122 -0.081822366 1.1245
-0.066244707 -0.086554796 1.1245
-0.084437318 -0.075236998 1.1243334
-0.075304829 -0.076388828 1.12435
-0.1027576 -0.33022106 1.138
-0.09876702 -0.33022106 1.138
-0.11073878 -0.32024458 1.138
-0.10406397 -0.32451737 1.1348
-0.094700068 -0.32454923 1.1344445
-0.084996529 -0.3242833 1.1362224
-0.11153829 -0.31467199 1.1374285
-0.10457072 -0.3154152 1.1310906
-0.094110161 -0.31733283 1.13
-0.084291153 -0.31694335 1.1312001
-0.077800669 -0.31419757 1.1357143
-0.061810255 -0.31473109 1.1345714
-0.05865426 -0.31713066 1.1340001
-0.12029094 -0.30122441 1.1340001
-0.11392938 -0.3045401 1.1339999
-0.10863946 -0.30478486 1.13
-0.073616818 -0.30429819 1.133111
-0.068595663 -0.3032127 1.1340001
-0.12089409 -0.29203519 1.135
-0.1158125 -0.29485852 1.1315001
-0.12180144 -0.28594717 1.1365
-0.1166654 -0.28550822 1.1316
-0.12245174 -0.2757611 1.1356001
-0.11986663 -0.2704429 1.13
-0.12411129 -0.26401103 1.1325456
-0.13227789 -0.25458223 1.1373334
-0.12926333 -0.25357464 1.1313334
-0.14166583 -0.24043284 1.138
-0.13474046 -0.24491875 1.1356667
-0.14485104 -0.23436673 1.1360002
-0.13738462 -0.23633443 1.1315
-0.16062111 -0.22047991 1.138
-0.15333836 -0.22360933 1.1370002
-0.14527795 -0.22535895 1.1317143
-0.16126503 -0.2150196 1.1355
-0.15473962 -0.2150941 1.1318824
-0.14892522 -0.21826954 1.13
-0.16214009 -0.20490915 1.1346667
-0.15850133 -0.20629938 1.13
-0.16147675 -0.19412801 1.1356001
-0.15850133 -0.19218287 1.13
-0.15634331 -0.18469788 1.1332728
-0.15536112 -0.17527547 1.1359999
-0.15460521 -0.16454923 1.1350001
-0.16183354 -0.1548658 1.136
-0.15481675 -0.1542463 1.1330478
-0.14958563 -0.15255752 1.13
-0.16076489 -0.14687498 1.132
-0.15543495 -0.14458571 1.1308419
-0.14676256 -0.14384606 1.1307058
-0.15335003 -0.13730177 1.13
-0.14536551 -0.13472949 1.1324284
-0.13868867 -0.13373551 1.13
-0.15156689 -0.12977296 1.13
-0.14533287 -0.12609671 1.1304705
-0.1354714 -0.12483865 1.1312798
-0.12911254 -0.12382916 1.13
-0.14232254 -0.11802991 1.1335555
-0.13519405 -0.11740671 1.135
-0.1247542 -0.11505109 1.1346668
-0.11680789 -0.1152182 1.1310667
-0.13867289 -0.105418 1.138
-0.12171289 -0.10774584 1.138
-0.11472452 -0.10753503 1.1333846
-0.1099603 -0.10500713 1.13
-0.021652414 -0.1026013 1.13
-0.017063146 -0.10455038 1.1340001
-0.060428634 -0.091138266 1.13
-0.054135393 -0.093298718 1.131
-0.04575824 -0.092503615 1.1311429
-0.033823054 -0.090713702 1.13
-0.024354277 -0.093824528 1.132
-0.018375685 -0.095581964 1.1374286
-0.063375205 -0.083545357 1.1315553
-0.055756658 -0.085997924 1.1357501
-0.044411059 -0.085528992 1.1358001
-0.034907702 -0.084539302 1.1323334
-0.025971154 -0.085321672 1.1346669
-0.08387363 -0.07099539 1.13
-0.073183842 -0.072192624 1.1306666
-0.065458588 -0.075205386 1.1348002
-0.058861151 -0.078814089 1.138
-0.035266198 -0.077905156 1.1364
-0.028931754 -0.078814089 1.138
-0.08173164 -0.06632597 1.1335
-0.075244963 -0.066290684 1.1349999
-0.087634228 -0.3424786 1.149
-0.11248072 -0.3320699 1.149
-0.1060572 -0.33532247 1.1463335
-0.095202528 -0.33530837 1.1445296
-0.085502066 -0.33435732 1.14575
-0.079575911 -0.3313984 1.149
-0.11402803 -0.32464311 1.1476668
-0.10922126 -0.32666352 1.1430001
-0.074633554 -0.32314649 1.1453335
-0.06548705 -0.32386938 1.1450002
-0.058349472 -0.32175565 1.141
-0.12516403 -0.31347564 1.1475884
-0.11770528 -0.31478807 1.146143
-0.072670586 -0.31450927 1.1418
-0.066445202 -0.31432679 1.1425999
-0.13195498 -0.30420157 1.149
-0.12584721 -0.30446661 1.1440479
-0.1182413 -0.30762321 1.1430001
-0.07201992 -0.30908549 1.141
-0.066618428 -0.30828527 1.141
-0.13195498 -0.29513597 1.149
-0.12619284 -0.29540414 1.1442002
-0.13195498 -0.28405577 1.149
-0.12736453 -0.28447381 1.1439335
-0.13239932 -0.27385625 1.1478573
-0.12726031 -0.27455598 1.143
-0.13403107 -0.26442069 1.1468463
-0.12832595 -0.2664609 1.1418
-0.1523526 -0.25434074 1.149
-0.14451012 -0.25476041 1.1474
-0.1368687 -0.25527376 1.1446002
-0.16015911 -0.24074231 1.149
-0.15436879 -0.24485189 1.1468669
-0.14554486 -0.24583113 1.1429133
-0.13828188 -0.24850345 1.1430001
-0.1638349 -0.2340164 1.1486924
-0.15476626 -0.23517695 1.1438574
-0.14804095 -0.23906612 1.141
-0.16320232 -0.22642575 1.1467779
-0.15726507 -0.22738262 1.1425999
-0.16418827 -0.19339968 1.149
-0.16427444 -0.18367068 1.1475716
-0.15932277 -0.18236771 1.1430001
-0.16471602 -0.17524275 1.1468825
-0.15949005 -0.17554215 1.1442001
-0.16310832 -0.16553959 1.1424286
-0.15904398 -0.16604592 1.141
-0.13392593 -0.11236441 1.1409999
-0.1290357 -0.11103071 1.141
-0.13381478 -0.1049179 1.141
-0.12587552 -0.10467972 1.1434765
-0.11603604 -0.102974 1.1460003
-0.10874319 -0.1020513 1.1450001
-0.13403708 -0.099027388 1.141
-0.12484101 -0.0991119 1.1466
-0.11483106 -0.099050187 1.149
-0.1058654 -0.097654805 1.1483848
-0.098714419 -0.096699841 1.149
-0.014079267 -0.097533554 1.1470001
-0.052377615 -0.082403451 1.1416668
-0.046710379 -0.081592947 1.1434001
-0.021697208 -0.081783943 1.1423334
-0.018256081 -0.084094502 1.1478573
-0.061016876 -0.07201992 1.141
-0.054722652 -0.074788444 1.1444548
-0.045519825 -0.077206053 1.1475002
-0.034189414 -0.074909262 1.1470002
-0.024825102 -0.074908696 1.1446525
-0.017856505 -0.075913034 1.149
-0.074198946 -0.061619021 1.1415714
-0.064874813 -0.064958751 1.1446524
-0.055518281 -0.065582417 1.1480001
-0.031225991 -0.069503009 1.149
-0.025027283 -0.067798369 1.149
-0.019138509 -0.069503009 1.149
-0.074933521 -0.057832975 1.1473335
-0.06595733 -0.057901938 1.1486667
-0.057079766 -0.058758587 1.149
-0.11055906 -0.34182021 1.1570001
-0.10412822 -0.34367949 1.1556666
-0.093997508 -0.34426871 1.1549999
-0.085917711 -0.34198621 1.153
-0.11557806 -0.33549803 1.1555454
-0.081874527 -0.33861688 1.153
-0.075987428 -0.33129498 1.1556667
-0.12386371 -0.3231369 1.1562001
-0.11775781 -0.32699272 1.153
-0.073788159 -0.32850891 1.153
-0.069744967 -0.32850891 1.153
-0.13289577 -0.31451437 1.1552222
-0.12837118 -0.31840095 1.153
-0.13538624 -0.304362 1.1548181
-0.13568433 -0.29401809 1.1549999
-0.14174889 -0.28501925 1.1570001
-0.13694258 -0.28502652 1.155857
-0.14166437 -0.27758101 1.1570001
-0.1370341 -0.27574936 1.1549999
-0.15392053 -0.26295817 1.1570001
-0.14426085 -0.26317814 1.1561112
-0.13809384 -0.26708263 1.154
-0.16127422 -0.25154722 1.1570001
-0.15670313 -0.25655994 1.1559091
-0.14454392 -0.25977474 1.153
-0.16391343 -0.24443366 1.1553332
-0.1580212 -0.24899292 1.153
-0.17112094 -0.23491335 1.155
-0.16694877 -0.23777166 1.1541427
-0.16678146 -0.22641847 1.153
-0.16791148 -0.19488283 1.1566
-0.17170446 -0.18508485 1.1562001
-0.1675529 -0.18778054 1.1536666
-0.11624162 -0.10006887 1.153
-0.11517192 -0.095468432 1.1551818
-0.10518707 -0.094034985 1.1565001
-0.013980554 -0.094599873 1.1554
-0.014680222 -0.08429347 1.155
-0.045069333 -0.072720379 1.1538889
-0.038117763 -0.073197283 1.1543332
-0.014173945 -0.074928701 1.155
-0.05155063 -0.061658595 1.153
-0.048080932 -0.066300988 1.1546665
-0.033175915 -0.067362197 1.1554999
-0.025474912 -0.063263915 1.1546665
-0.017972324 -0.066572972 1.155
-0.074612007 -0.053365111 1.1539999
-0.065286249 -0.053302471 1.153923
-0.055658106 -0.055250984 1.1543332
-0.049700864 -0.058829594 1.1570001
-0.026371887 -0.059843898 1.1570001
-0.072015539 -0.049700864 1.1570001
-0.063901111 -0.049700864 1.1570001
-0.059843898 -0.049700864 1.1570001
-0.11450019 -0.35437354 1.1666844
-0.10514003 -0.35509512 1.1657059
-0.097301766 -0.35268736 1.1633999
-0.13015257 -0.34126616 1.169
-0.12399864 -0.34365338 1.1674614
-0.11585205 -0.3452507 1.1630001
-0.10534333 -0.34809101 1.1610001
-0.094656333 -0.34910882 1.161
-0.13220222 -0.3358005 1.169
-0.12534142 -0.33465061 1.1643686
-0.11908377 -0.33791292 1.161
-0.13433725 -0.32503098 1.1656153
-0.12659563 -0.32752138 1.1614445
-0.14196302 -0.31456554 1.1650001
-0.13829562 -0.315438 1.1627778
-0.14296286 -0.30334771 1.169
-0.13992038 -0.3053737 1.1650001
-0.14409579 -0.29414341 1.1643333
-0.13943997 -0.29821834 1.161
-0.15081881 -0.28491637 1.1676668
-0.14656445 -0.28456247 1.1626002
-0.16298245 -0.27356008 1.167909
-0.15376382 -0.27522424 1.1662003
-0.14517835 -0.27483508 1.1625556
-0.16517049 -0.26509514 1.1663334
-0.15697759 -0.26674449 1.1610001
-0.14599916 -0.26745784 1.1610001
-0.1721494 -0.25288489 1.1678572
-0.16543362 -0.25559127 1.1634002
-0.17358203 -0.24622409 1.1670002
-0.16852024 -0.24674621 1.1610001
-0.1724003 -0.23631865 1.1636667
-0.16997427 -0.23104286 1.161
-0.16793865 -0.22493601 1.161
-0.1711455 -0.2111136 1.169
-0.16880655 -0.21280031 1.1670001
-0.17452404 -0.20477742 1.1683846
-0.16861719 -0.20457982 1.1610001
-0.1725467 -0.19394994 1.1623335
-0.11478635 -0.091942176 1.1610001
-0.10457998 -0.091348454 1.1610001
-0.098727569 -0.09058509 1.161
-0.012783457 -0.09333393 1.1614445
-0.0078840237 -0.094518945 1.1639091
-0.11349852 -0.084929705 1.1637502
-0.10498087 -0.084591292 1.1626003
-0.097706035 -0.084184989 1.164
-0.011777516 -0.08535064 1.1610001
-0.0068938872 -0.084896952 1.1650002
-0.11214057 -0.077007279 1.1650001
-0.1059455 -0.076296195 1.1662501
-0.098214716 -0.077751562 1.1670001
-0.042748019 -0.07022889 1.161
-0.03867678 -0.07022889 1.161
-0.011735499 -0.074999273 1.164
-0.007667765 -0.078196473 1.166
-0.044011187 -0.063734658 1.1639333
-0.036575686 -0.063421063 1.1639476
-0.024766708 -0.060050789 1.161
-0.016452208 -0.063205816 1.1650001
-0.078551382 -0.052025199 1.1636667
-0.052016579 -0.052018333 1.1635001
-0.048027012 -0.05586062 1.1656667
-0.034123372 -0.057665084 1.1676668
-0.024891013 -0.05510122 1.1652107
-0.018097809 -0.055659857 1.1685555
-0.073635608 -0.046285465 1.1647781
-0.064388387 -0.045299526 1.1624545
-0.055034768 -0.045845721 1.1648
-0.064061642 -0.039026767 1.1681111
-0.05673524 -0.039120901 1.1682001
-0.12175673 -0.360111 1.177
-0.11306633 -0.36267155 1.1746
-0.10815875 -0.36259109 1.1750001
-0.12304454 -0.35419658 1.1745001
-0.11825795 -0.35888717 1.1730001
-0.13405316 -0.34399828 1.1752223
-0.12773032 -0.34816992 1.1750001
-0.13730225 -0.33520892 1.1748464
-0.14104135 -0.32429448 1.1743335
-0.13882455 -0.32803726 1.1730001
-0.1434253 -0.31367832 1.177
-0.15167999 -0.30026448 1.177
-0.14616151 -0.30483088 1.1752857
-0.15309887 -0.29485458 1.1760001
-0.14842229 -0.29718736 1.1730001
-0.16488478 -0.28236425 1.1755002
-0.15643287 -0.28506386 1.1745386
-0.17223306 -0.27448422 1.1764287
-0.16732398 -0.27632698 1.1730002
-0.17438084 -0.26453152 1.1752501
-0.16916029 -0.26633745 1.1730001
-0.18057142 -0.2558955 1.177
-0.17676477 -0.25566456 1.1750001
-0.17717609 -0.24722175 1.1750001
-0.17438038 -0.23216325 1.177
-0.17287447 -0.22465509 1.1761112
-0.16967446 -0.22211927 1.1730001
-0.18152566 -0.215564 1.1765001
-0.1755075 -0.2150925 1.1745557
-0.16967446 -0.21800596 1.1730001
-0.18232474 -0.20395824 1.1750001
-0.17858665 -0.20532322 1.1730001
-0.10326542 -0.072361156 1.1750001
-0.095320947 -0.074109845 1.1751179
-0.089769788 -0.071196727 1.177
-0.011330917 -0.072104082 1.1750001
-0.0077984515 -0.074586168 1.1747143
-0.10274144 -0.068248622 1.177
-0.094928972 -0.06810122 1.177
-0.087116495 -0.066184953 1.177
-0.013391083 -0.067983747 1.1750001
-0.043365277 -0.054179221 1.1750002
-0.035343193 -0.053159188 1.1758573
-0.027781859 -0.051445138 1.1736668
-0.016453279 -0.052444827 1.1730002
-0.073011428 -0.040790424 1.1730001
-0.0507995 -0.042572863 1.1730001
-0.045885831 -0.045113266 1.1762501
-0.024496915 -0.047443885 1.1765001
-0.017985789 -0.046166725 1.1761112
-0.071196727 -0.038177956 1.177
-0.064225771 -0.034686778 1.1753334
-0.054290991 -0.034703627 1.175889
-0.048496325 -0.038177956 1.177
-0.053655505 -0.029923264 1.177
-0.134464 -0.36378244 1.189
-0.12653469 -0.36238179 1.1844286
-0.1149231 -0.36651152 1.1810001
-0.13472307 -0.35491982 1.1866667
-0.12770566 -0.35647887 1.1815716
-0.14232245 -0.3428205 1.1850001
-0.13586317 -0.3474274 1.1830001
-0.14310421 -0.33502474 1.1850002
-0.15114172 -0.31166464 1.189
-0.1475095 -0.31478241 1.1866
-0.16395824 -0.30145532 1.1882001
-0.15468742 -0.30459449 1.1841999
-0.14805409 -0.3085323 1.1810001
-0.17318012 -0.29320002 1.189
-0.16543262 -0.29548416 1.1867999
-0.15752009 -0.29536864 1.1810001
-0.17442706 -0.28446734 1.1859232
-0.1653291 -0.28837532 1.1827778
-0.15840752 -0.2888608 1.1810001
-0.18137006 -0.27518216 1.189
-0.17682672 -0.27534828 1.1830001
-0.18210557 -0.26639971 1.187
-0.1791144 -0.26608324 1.1810001
-0.18137005 -0.24078439 1.189
-0.17824298 -0.24078439 1.189
-0.18267299 -0.23426968 1.189
-0.17808694 -0.23468497 1.1845001
-0.18263122 -0.22584879 1.1850001
-0.17784689 -0.22614232 1.1822002
-0.0048362776 -0.072899796 1.1823334
-0.10259717 -0.064399302 1.1821431
-0.094281003 -0.063197322 1.1818
-0.086761765 -0.062327672 1.1810001
-0.012180625 -0.064532086 1.1825001
-0.0071134758 -0.066419713 1.1853079
-0.09412507 -0.058733039 1.1872858
-0.084735028 -0.056085698 1.1865386
-0.012439551 -0.054946132 1.1826001
-0.0083213197 -0.055129878 1.1866001
-0.07558006 -0.040378388 1.1810001
-0.04175885 -0.043139309 1.1810001
-0.034372937 -0.04438768 1.1821667
-0.025447814 -0.042991664 1.1828462
-0.014615451 -0.044181641 1.1846924
-0.0093812095 -0.048990764 1.189
-0.072595015 -0.037333727 1.1830001
-0.065884374 -0.031535082 1.182143
-0.055563424 -0.030024955 1.1810001
-0.044448752 -0.03407165 1.1838332
-0.035179622 -0.036623422 1.1883848
-0.024656832 -0.037850667 1.1883334
-0.018046476 -0.037134137 1.1876668
-0.062641628 -0.026645698 1.1843333
-0.05491538 -0.02546712 1.1845293
-0.047573488 -0.026738038 1.1883334
-0.14428838 -0.36465609 1.1970001
-0.13735671 -0.36396042 1.193
-0.14360496 -0.35534298 1.195667
-0.13909982 -0.35663939 1.1930001
-0.14344575 -0.34656301 1.1943334
-0.145375 -0.33467627 1.1930001
-0.15005991 -0.32425532 1.197
-0.14832878 -0.32213846 1.1943334
-0.15434943 -0.31393698 1.1950001
-0.14955845 -0.31898832 1.1930001
-0.17417246 -0.30307382 1.1954
-0.16478476 -0.30674759 1.1941999
-0.18154101 -0.29277423 1.197
-0.17687084 -0.29617849 1.1938
-0.18387678 -0.28346598 1.1958001
-0.17884262 -0.28761244 1.1930001
-0.18532628 -0.27536792 1.1943333
-0.18542814 -0.26819164 1.1950001
-0.18616366 -0.24159443 1.1930001
-0.18642513 -0.23610365 1.193
-0.18720953 -0.22904406 1.1930001
-0.0041834535 -0.064843528 1.193
-0.10161881 -0.05866478 1.1950001
-0.094925404 -0.054549534 1.1951334
-0.087553583 -0.05267043 1.1936667
-0.0039010867 -0.055859849 1.194091
-0.09129519 -0.049320389 1.197
-0.084108055 -0.047947749 1.1955001
-0.078702748 -0.043024171 1.197
-0.012214596 -0.041531499 1.1943334
-0.0065546175 -0.04746427 1.1965001
-0.070307791 -0.032530468 1.197
-0.03366911 -0.032098565 1.194
-0.025263149 -0.033033926 1.1935713
-0.015702209 -0.034135122 1.1943333
-0.064711154 -0.024835089 1.197
-0.056127999 -0.021963129 1.1930001
-0.044061475 -0.024568044 1.1945386
-0.037405904 -0.026918052 1.1963333
-0.02273635 -0.027633408 1.197
-0.017839288 -0.025814503 1.1970001
-0.061912831 -0.019938029 1.197
-0.055697165 -0.01732979 1.196059
-0.048061144 -0.018678786 1.197
-0.14777268 -0.3514837 1.204
-0.14733903 -0.34706709 1.2033334
-0.1544697 -0.32309619 1.2052
-0.18079145 -0.31400621 1.2060001
-0.17538768 -0.31330141 1.2060002
-0.16615522 -0.31295654 1.2046667
-0.15714163 -0.31691498 1.2030001
-0.18332434 -0.3046715 1.2044616
-0.17639831 -0.30790672 1.202
-0.19136406 -0.29286101 1.2060001
-0.18638161 -0.29559892 1.2032307
-0.19171648 -0.28440294 1.2060002
-0.18681543 -0.28827682 1.202
-0.19136406 -0.27805936 1.2060001
-0.18862183 -0.27573213 1.202
-0.10150713 -0.053390048 1.2036002
-0.097999059 -0.051633913 1.202
-0.1004397 -0.048633959 1.2060001
-0.094995365 -0.046439536 1.2039999
-0.085837185 -0.044047989 1.2045715
-0.079294503 -0.041233141 1.2060001
-0.0061219381 -0.04348442 1.2039999
-0.081409022 -0.039118621 1.2060001
-0.073947713 -0.034332018 1.2050002
-0.012118164 -0.032139476 1.202
-0.008897665 -0.035743203 1.2042857
-0.065441415 -0.023219395 1.204
-0.041798878 -0.020723816 1.202
-0.03453774 -0.023985716 1.2035999
-0.024696868 -0.024131125 1.2038667
-0.013935493 -0.024284719 1.2044001
-0.061572392 -0.014072838 1.2040001
-0.054092672 -0.012293789 1.202
-0.045024052 -0.014718615 1.2043529
-0.038272809 -0.016281804 1.2060001
-0.06026382 -0.0095153395 1.2060001
-0.054977521 -0.0095153395 1.2060001
-0.048633959 -0.0095153395 1.2060001
-0.15219109 -0.35121021 1.2140001
-0.1495681 -0.35111377 1.21
-0.15219109 -0.34801736 1.2140001
-0.1495681 -0.34899223 1.21
-0.19476202 -0.32034627 1.2140001
-0.1837125 -0.32283077 1.2113334
-0.17654338 -0.32260606 1.2161
-0.16394494 -0.32285076 1.2177143
-0.15728736 -0.32626092 1.21225
-0.19435298 -0.31538248 1.2161176
-0.18619028 -0.31622589 1.2111763
-0.17502649 -0.31716922 1.21
-0.16441883 -0.31759351 1.21
-0.19311833 -0.30537856 1.2121819
-0.18846287 -0.30620798 1.21
-0.19305953 -0.29489315 1.21
-0.1941203 -0.28534621 1.21
-0.11007164 -0.053432833 1.2190001
-0.10700992 -0.054422673 1.2129091
-0.10360154 -0.046143349 1.21
-0.095115416 -0.04172349 1.21
-0.08804363 -0.0413699 1.21
-0.0031822999 -0.0413699 1.21
-0.10077284 -0.039248366 1.21
-0.093444936 -0.036265641 1.2104708
-0.085102461 -0.034809116 1.2110525
-0.077260889 -0.034151431 1.212
-0.005319613 -0.035819817 1.2137778
-0.083272882 -0.026988985 1.21525
-0.073460571 -0.025788613 1.2173333
-0.068318635 -0.022653066 1.2113334
-0.031823002 -0.021215335 1.21
-0.027049551 -0.02068495 1.21
-0.012375611 -0.020861745 1.21
-0.0085232155 -0.02451046 1.2157
-0.072335698 -0.013873251 1.2170001
-0.06700699 -0.014891937 1.2131667
-0.043491434 -0.011668433 1.21
-0.033915896 -0.014373945 1.2116001
-0.024487885 -0.014900747 1.2144501
-0.015198832 -0.015352751 1.2139286
-0.0096179098 -0.017098505 1.2190001
-0.071071364 -0.0084861331 1.21
-0.064657398 -0.0066463933 1.2140625
-0.054753002 -0.0040156203 1.2140001
-0.044983439 -0.0052079842 1.212095
-0.036704104 -0.0064586373 1.2148666
-0.028853729 -0.0096179098 1.2190001
-0.017098505 -0.0096179098 1.2190001
-0.052364174 0.0010686567 1.2190001
-0.044816181 0.0021356696 1.2171251
-0.039459206 0.0021351217 1.2165
-0.1811956 -0.33129847 1.223
-0.17640989 -0.33130634 1.2270001
-0.16457751 -0.33238205 1.2270001
-0.15975234 -0.33129847 1.223
-0.1811956 -0.32915413 1.223
-0.17408559 -0.32654816 1.2247144
-0.16608258 -0.32765153 1.2254002
-0.11374311 -0.053651124 1.2240001
-0.00107567 -0.041951131 1.2270001
0.0010739167 -0.042954914 1.2250001
-0.0025048314 -0.034027427 1.2256666
0.00107567 -0.03334577 1.2270001
-0.081127018 -0.021800654 1.223
-0.076927722 -0.022783473 1.223
-0.0032211654 -0.024713524 1.2256666
-0.075217418 -0.017192019 1.2256669
-0.012865961 -0.011793797 1.223
-0.006539057 -0.015324053 1.2248183
-0.065401964 -0.0021443267 1.223
-0.033589985 -0.0044463277 1.2247144
-0.023561699 -0.0066574654 1.2253999
-0.016121024 -0.0064478838 1.2260002
-0.0096810302 -0.0096810302 1.2270001
-0.062761195 0.0029181729 1.2252859
-0.054680765 0.0056968434 1.2253997
-0.045115892 0.0075217993 1.2253333
-0.038662754 0.0032252567 1.2250001
-0.052169994 0.012370205 1.2270001
-0.046253812 0.012908041 1.2270001
-0.17405795 -0.33600983 1.2332002
-0.16719225 -0.33525133 1.2336001
-0.17172848 -0.32941628 1.2320001
0.0010800533 -0.03888192 1.2320001
0.001081456 -0.024877695 1.2336
-0.0023164037 -0.014051715 1.233143
0.0024375715 -0.014350593 1.2355001
-0.03207548 -0.0018012578 1.2333335
-0.026301557 -0.0027609156 1.2328891
-0.013841515 -0.0036749865 1.2336001
-0.0063385507 -0.0085056704 1.2348573
-0.06426318 0.0075603733 1.2320002
-0.059402931 0.0086404271 1.2320001
-0.038145516 0.0063340417 1.233143
-0.022458008 0.0029775985 1.2345002
-0.016950836 0.0039699362 1.2342223
-0.063381046 0.014313433 1.2346668
-0.055781867 0.015802793 1.2325002
-0.043943793 0.016570168 1.2326669
-0.039282847 0.01261348 1.2333335
-0.053741228 0.022001995 1.2342223
-0.046263892 0.021916227 1.2345001
-0.16645533 -0.34052625 1.2410001
-0.0058082095 -0.0036288155 1.2423333
0.0043517733 -0.0097914897 1.2410001
-0.032853834 0.0051408983 1.2432858
-0.026000032 0.0054549123 1.2443333
-0.013851958 0.007938968 1.2427143
-0.0092615448 0.0027251183 1.243
-0.016355386 0.013084542 1.2436666
-0.06133949 0.023357028 1.245
-0.054936141 0.026382232 1.2434
-0.045819271 0.026910162 1.2443334
-0.038078018 0.020670922 1.2410001
-0.051298149 0.031652048 1.245
-0.048023798 0.031652048 1.245
-0.16666222 -0.34767285 1.2590001
0.014245833 -0.11067916 1.25
0.0099335099 -0.10485372 1.2590001
0.015950182 -0.10534125 1.2550001
0.021275824 -0.1055007 1.251
0.018763296 -0.098231375 1.2590001
0.021780957 -0.097460434 1.2548001
-0.0020369976 -0.0039193262 1.2521429
0.0027573358 -0.007160394 1.2567501
-0.031779166 0.008766667 1.25
-0.026957501 0.0094241668 1.25
-0.0061251442 0.0055010831 1.255
-0.064654164 0.018629167 1.25
-0.03390564 0.015707316 1.2550908
-0.025328962 0.014836294 1.2560002
-0.015003663 0.016469646 1.2522223
-0.009187175 0.012863914 1.2576667
-0.062522769 0.025233753 1.25125
-0.056983329 0.0295875 1.25
-0.042778049 0.027698284 1.25125
-0.037295401 0.024394879 1.2565715
-0.016003989 0.021522604 1.2590001
-0.060704783 0.032007977 1.2590001
-0.05488608 0.03492815 1.2540002
-0.04564584 0.035140369 1.2526428
-0.051874995 0.040837765 1.2590001
-0.047972512 0.041357189 1.2580001
-0.16732411 -0.35126981 1.2640001
0.01442818 -0.10210536 1.266
0.017997617 -0.095758647 1.2672001
0.022196613 -0.092116036 1.266
0.022232266 -0.086705841 1.268
0.0038893318 -0.0024989385 1.2675
-0.00221972 0.0055510532 1.266
0.0011116134 0.0022232267 1.268
-0.025486454 0.018837813 1.2640001
-0.011096846 0.018867619 1.266
-0.0066574067 0.01498311 1.266
-0.03346967 0.025891183 1.2656666
-0.025187846 0.022970017 1.2661538
-0.014430226 0.024424227 1.2663332
-0.0077812932 0.022232266 1.268
-0.061010152 0.036608431 1.2653333
-0.057714473 0.0388451 1.266
-0.041827518 0.036647003 1.2666668
-0.037208363 0.032211363 1.2670001
-0.015562586 0.030013559 1.268
-0.055516228 0.042747583 1.2665
-0.046612367 0.043284543 1.266
0.011169828 -0.10277142 1.27425
0.015198594 -0.095010504 1.2749999
0.018044805 -0.085434921 1.2751428
0.022319933 -0.082583748 1.273
0.022407599 -0.079546981 1.2780001
0.0078119766 -0.0033479899 1.273
-0.0011159966 0.0078119766 1.273
0.0033504947 0.0039932164 1.2744285
-0.0029818357 0.014171024 1.2763333
-0.064982042 0.0280095 1.2780001
-0.0248137 0.027497351 1.275
-0.012833962 0.027341917 1.273
-0.0064789178 0.024797043 1.2739999
-0.064394794 0.03435719 1.2758571
-0.041291878 0.039059885 1.273
-0.034317411 0.03282503 1.2763333
-0.024648361 0.030250261 1.2780001
-0.01566669 0.031341054 1.2767501
-0.062287461 0.044012755 1.2763333
-0.054539073 0.046988565 1.276125
-0.045332655 0.044214461 1.2767501
-0.0011291467 -0.10049405 1.2880001
0.0053879935 -0.10216282 1.286889
0.01012287 -0.10010394 1.2830001
-0.0011291467 -0.098235756 1.2880001
0.0041402043 -0.095789276 1.2880001
0.011543619 -0.093772978 1.284875
0.0022582933 -0.089202583 1.2880001
0.014151737 -0.085539669 1.2857778
0.019145815 -0.07770656 1.2846668
0.021412145 -0.076630741 1.2855
-0.074147291 -0.00338744 1.2880001
-0.071136236 0.0056457333 1.2880001
0.0065997965 0.0056357137 1.2851429
-0.071512617 0.014678908 1.2880001
-0.068610564 0.017996214 1.2830001
-0.0016882408 0.017452462 1.2842501
0.0033865634 0.012411846 1.2870001
-0.071136236 0.022582933 1.2880001
-0.068372808 0.025050398 1.2870001
-0.0030066743 0.024059238 1.2863334
-0.071136236 0.038390987 1.2880001
-0.06790068 0.035216793 1.2855
-0.034442283 0.036447711 1.2857778
-0.024802653 0.033147819 1.286
-0.014929414 0.033809748 1.2855
-0.0079040267 0.03048696 1.2880001
-0.071587898 0.044940036 1.2880001
-0.066810943 0.045440443 1.2830001
-0.059612457 0.048364822 1.2830001
-0.043625128 0.046442512 1.2842501
-0.039520133 0.042907573 1.2880001
-0.064557724 0.052524216 1.286889
-0.055352807 0.054865681 1.2862611
-0.045789443 0.05278489 1.2865001
0.0011370367 -0.11029255 1.2970001
-0.0011326533 -0.1042041 1.2920001
0.0022653067 -0.10646942 1.2919999
0.0056632664 -0.092311248 1.2920001
0.0052974042 -0.088194422 1.2953333
0.012096246 -0.083545454 1.2936667
0.016779983 -0.074820183 1.2953334
0.022275515 -0.072112262 1.2920001
0.018571598 -0.068601213 1.2970001
0.022331037 -0.06851209 1.2953334
-0.083221771 -0.01275472 1.2964444
-0.07845553 -0.01023333 1.2970001
-0.082111999 -0.0051139258 1.296375
-0.077498794 -0.0037784334 1.2936667
-0.080729604 0.0045481464 1.2970001
-0.075654916 0.0042749639 1.293923
-0.080729604 0.01364444 1.2970001
-0.076157592 0.014744845 1.2937857
0.0056663351 0.016997252 1.2924999
0.012714209 0.016346591 1.2945
0.02728888 0.019329622 1.2970001
0.032405548 0.01648703 1.2970001
-0.080729604 0.025014807 1.2970001
-0.075108878 0.025209425 1.2935385
-0.0018877555 0.027561232 1.2920001
0.0029554188 0.022496669 1.296
0.025583325 0.022172214 1.2970001
0.030699991 0.021603696 1.2970001
-0.080729604 0.030699991 1.2970001
-0.074395575 0.034361456 1.2941428
-0.03231021 0.039114892 1.2932501
-0.024966592 0.038586922 1.2945
-0.014751524 0.037072334 1.2945
-0.006126848 0.032446485 1.294
-0.080729604 0.044344429 1.2970001
-0.076255493 0.04550793 1.2947272
-0.035688221 0.0440148 1.2947778
-0.028425917 0.042070355 1.2970001
-0.072132789 0.052822892 1.29575
-0.066864744 0.056502789 1.2927142
-0.044658978 0.056449093 1.293
-0.039719574 0.052205063 1.2945001
-0.065152794 0.061368518 1.2936666
-0.054058477 0.062630922 1.2936666
-0.047139898 0.060773384 1.29575
0.006639523 -0.084494531 1.306
0.01027278 -0.082182243 1.302
0.012247659 -0.075621381 1.304143
0.016703304 -0.065665662 1.3050001
0.021770263 -0.064164989 1.307
-0.098921023 -0.031700559 1.307
-0.095713533 -0.024720661 1.3061174
-0.087889336 -0.021686981 1.302
-0.1019765 -0.013749639 1.307
-0.094946854 -0.014869671 1.3047998
-0.086462565 -0.015694525 1.302
-0.1019765 -0.0080206236 1.307
-0.094210885 -0.0047797416 1.3058233
-0.086462565 -0.0039949701 1.302
-0.093955874 0.0045832139 1.3069999
-0.085634626 0.0045682378 1.3024167
-0.092986353 0.013837778 1.307
-0.085426614 0.015141623 1.3035625
0.01255562 0.019404139 1.302
0.036258169 0.01712952 1.3026251
0.043628659 0.017187046 1.307
0.051561151 0.019478656 1.307
-0.09051846 0.025207672 1.307
-0.085050702 0.025138795 1.3034286
-0.078757979 0.026252659 1.302
0.0052996096 0.02628175 1.3033637
0.01515395 0.024305036 1.3044999
0.024482494 0.025630051 1.3050001
0.034586899 0.025425147 1.3063333
0.044686329 0.025207672 1.3069998
0.054311078 0.026582638 1.307
0.061873384 0.026353477 1.307
-0.09150058 0.033883039 1.307
-0.084590547 0.034863718 1.303875
-0.078757979 0.036525439 1.302
-0.014077513 0.039188754 1.302
-0.0034317742 0.034483306 1.3048573
0.0029790888 0.031853333 1.307
0.02406187 0.03093669 1.307
0.035519905 0.033228293 1.307
0.044002268 0.033893794 1.3067057
0.053394437 0.031853333 1.307
-0.084208846 0.044963606 1.3055716
-0.033902548 0.047621019 1.3036667
-0.025160393 0.045748532 1.3045002
-0.016108479 0.044106923 1.3054616
0.034756035 0.042649344 1.307
0.041248918 0.040103115 1.307
-0.083948307 0.054879393 1.3062308
-0.076284908 0.055358868 1.302
-0.041248918 0.057290167 1.307
-0.035032652 0.051980019 1.3060001
-0.083479948 0.064983413 1.307
-0.075452946 0.065162644 1.3039999
-0.065060936 0.067343786 1.302
-0.055190548 0.068134435 1.3025556
-0.048445765 0.065230429 1.3053335
-0.082115903 0.072949477 1.307
-0.075600006 0.074454196 1.3065835
-0.064979136 0.074711889 1.3060623
-0.055687856 0.074426219 1.3060911
-0.00115457 -0.085438177 1.317
0.0031288231 -0.08353243 1.3155715
0.0067864712 -0.076199375 1.3147779
0.01036483 -0.072550885 1.3136667
0.0080819903 -0.06811963 1.317
0.013531679 -0.063926868 1.3138752
0.021853546 -0.060959894 1.312
0.018288145 -0.056510061 1.3155715
0.021895189 -0.057616726 1.3145001
0.01962769 -0.049646508 1.317
-0.10495441 -0.032787707 1.3155715
-0.11199329 -0.02424597 1.317
-0.10589469 -0.025324106 1.3129377
-0.11199329 -0.01731855 1.317
-0.10673185 -0.015248191 1.3126252
-0.10525516 -0.0042244131 1.3145001
-0.10420518 0.0041346177 1.3146472
0.04849194 0.0080819903 1.317
0.051955651 0.0080819903 1.317
-0.10216476 0.014443491 1.3139231
-0.096122742 0.016924175 1.3120002
0.047668848 0.01290765 1.3120002
0.055204477 0.01523724 1.3134708
0.063070662 0.01794762 1.3148572
-0.10109019 0.024601603 1.3153332
-0.095527589 0.02532164 1.3128335
0.013802241 0.028754666 1.312
0.027604479 0.028754666 1.312
0.056359146 0.023003733 1.3120002
0.063954465 0.022851318 1.3127145
-0.10265272 0.035127237 1.3156365
-0.096314102 0.034921143 1.3131113
-0.0034564044 0.038052592 1.3153334
0.0050678351 0.035482734 1.3140001
0.013939876 0.032809723 1.3151821
0.026129708 0.034201469 1.3149168
0.033043694 0.036005076 1.3127143
-0.10183307 0.044104572 1.3170002
-0.094499417 0.044942748 1.3145001
-0.088564374 0.044857278 1.312
-0.021853546 0.049458027 1.312
-0.012669038 0.046938591 1.3138751
-0.006528683 0.041871205 1.3145
0.028058007 0.04458493 1.3153334
0.031055041 0.042556908 1.312
-0.10044759 0.054264791 1.317
-0.094280481 0.055091135 1.3146667
-0.088564374 0.055592358 1.312
-0.040409949 0.058883071 1.317
-0.034087807 0.055496007 1.3148572
-0.025352322 0.053011592 1.3145001
-0.01962769 0.051955651 1.317
-0.092711985 0.064245254 1.3164445
-0.088564374 0.064410456 1.312
-0.045560583 0.064593457 1.31575
-0.091211028 0.070428766 1.317
-0.085866876 0.075502038 1.3134288
-0.074762128 0.079362877 1.312
-0.065560639 0.079362877 1.312
-0.053638149 0.078503221 1.313
-0.048397698 0.070295081 1.3145001
-0.084283613 0.083129041 1.317
-0.074904591 0.082973428 1.3145001
-0.064504154 0.082933433 1.3138751
-0.056359142 0.082813442 1.3120002
0.0030174865 -0.074071683 1.3244002
0.006389366 -0.06508746 1.3257501
0.010430579 -0.063742436 1.322
0.0081494935 -0.058210667 1.3280001
0.013275239 -0.054777633 1.3254288
-0.11234659 -0.042493787 1.3280001
0.016274439 -0.047657356 1.3260001
-0.11430341 -0.034365647 1.3248236
-0.10701003 -0.037472825 1.322
-0.12340661 -0.025612695 1.3280001
-0.11673935 -0.025774539 1.3224616
-0.12311556 -0.016007934 1.3280001
-0.11619236 -0.014958792 1.3232634
-0.12340661 -0.0046568532 1.3280001
-0.1159969 -0.004639429 1.3231251
-0.12270808 0.0039583249 1.3280001
-0.11543087 0.0049015409 1.3240001
-0.10778266 0.0081126736 1.322
0.049834993 0.0057947668 1.322
0.055052433 0.0049638455 1.3258182
0.062867522 0.0081494935 1.3280001
-0.1222424 0.013970559 1.3280001
-0.11505471 0.015109105 1.3256001
-0.1071204 0.016059782 1.3219999
0.057947665 0.01043058 1.322
0.065678112 0.013751979 1.3260002
0.072407104 0.016645854 1.325
-0.12340661 0.025612695 1.3280001
-0.11508065 0.02557298 1.3259001
-0.10592834 0.025960555 1.3220001
-0.12301854 0.034150258 1.3280001
-0.11495099 0.034831718 1.3244002
-0.1068555 0.033609644 1.322
0.0081126736 0.038245458 1.322
0.016361715 0.036977019 1.3226668
0.022792747 0.037472825 1.322
-0.1222424 0.040747467 1.3280001
-0.11456393 0.044266835 1.3253002
-0.10639192 0.046126343 1.3220001
-0.01043058 0.049834993 1.322
-0.0039069047 0.045735382 1.3252728
0.0039112079 0.043007992 1.3258182
0.016687056 0.042299751 1.3280001
0.023936508 0.043698676 1.3256
-0.112463 0.054019492 1.3280001
-0.10466733 0.055776455 1.3236002
-0.098511033 0.059106618 1.322
-0.034768596 0.059106618 1.322
-0.025523273 0.058014732 1.3235002
-0.015714308 0.055361614 1.3248
-0.0048896959 0.050992541 1.3280001
0.02444848 0.050061174 1.3280001
-0.11060026 0.065195948 1.3280001
-0.10466479 0.065122314 1.3265002
-0.097517647 0.065398082 1.3219999
-0.043018784 0.065610737 1.3262857
-0.034595978 0.063794725 1.3274547
-0.026518194 0.063514307 1.3280001
-0.018045306 0.062285416 1.3280001
-0.11060026 0.071017012 1.3280001
-0.1047506 0.074489601 1.327625
-0.095108673 0.075388946 1.3230002
-0.089239404 0.079967782 1.322
-0.050061174 0.076838076 1.3280001
-0.047585469 0.072348379 1.324
-0.10361498 0.083082497 1.3280001
-0.095519952 0.085674465 1.3258822
-0.086042449 0.087527044 1.3247273
-0.074966505 0.088131696 1.3246667
-0.065118365 0.087217376 1.3265001
-0.055763889 0.084800839 1.325
-0.095465496 0.09197285 1.3280001
0.0023371933 -0.064662345 1.3330001
-0.12198992 -0.051611122 1.3380001
0.0049142423 -0.055018429 1.3353335
0.01051737 -0.050249655 1.3330001
-0.12198993 -0.04457324 1.3380002
-0.11702568 -0.04447078 1.3348751
0.0074288733 -0.047310192 1.3379999
0.013254688 -0.043666694 1.3342501
-0.13020077 -0.032843441 1.3380001
-0.12439482 -0.035219613 1.3356923
-0.11802826 -0.038563691 1.3330001
0.015232302 -0.038085688 1.33675
-0.13176475 -0.025023572 1.3380002
-0.12815611 -0.026488192 1.3330001
-0.13020077 -0.01524874 1.3380001
-0.12670927 -0.014190101 1.3330001
-0.13020077 -0.0046919202 1.3380001
-0.12737703 -0.0046743872 1.3330001
0.057335753 -0.0011700578 1.3346667
-0.13020077 0.0046919202 1.3380001
-0.12644364 0.0051795975 1.3337144
0.05901413 0.0029214916 1.3330001
0.06574028 0.004679135 1.3350835
0.074195221 0.0074186455 1.3363334
0.080633171 0.0070115803 1.3330001
-0.13087106 0.016254151 1.3380002
-0.12602003 0.01562985 1.3343638
0.068947203 0.01051737 1.3330001
0.07486251 0.011695828 1.3342501
-0.13176475 0.025023574 1.3380002
-0.12815611 0.026488191 1.3330001
-0.13176474 0.035580389 1.3380002
-0.12659797 0.035836965 1.3330001
-0.13254674 0.044573244 1.3380002
-0.12496451 0.045032978 1.3342501
0.0063165585 0.047013529 1.3340001
0.01392569 0.046032891 1.3339092
-0.13020077 0.053957079 1.3380001
-0.12412876 0.055041295 1.33575
-0.11672983 0.056222484 1.3330001
-0.011698021 0.05848572 1.3342501
-0.0045898897 0.056430425 1.3345386
0.0038094453 0.051832587 1.3361251
0.016796641 0.050375313 1.3363333
0.022203337 0.050249655 1.3330001
-0.1233584 0.06529589 1.3380002
-0.11569107 0.065441407 1.3330001
-0.040900882 0.067778602 1.3330001
-0.035787988 0.068531483 1.3340001
-0.024565581 0.067685552 1.3344287
-0.016262166 0.065708108 1.3357779
-0.0058648996 0.062167939 1.3379999
-0.13020077 0.078589663 1.3380001
-0.12175532 0.074366927 1.3380001
-0.11478453 0.075043477 1.3333335
-0.044628568 0.074816681 1.3357779
-0.034669783 0.072518997 1.3372859
-0.027537635 0.072071418 1.33675
-0.11415824 0.083704606 1.336077
-0.10634229 0.087352596 1.3330001
-0.066610008 0.089981943 1.3330001
-0.05384969 0.084290184 1.3355
-0.1114331 0.091492444 1.3380001
-0.10578677 0.093292519 1.3357779
-0.095998064 0.092492282 1.3355
-0.07479018 0.092319138 1.3330001
-0.13205959 -0.051641215 1.3490001
-0.12673256 -0.05335306 1.3438572
0.0011773633 -0.052981351 1.3430001
-0.13442685 -0.044649851 1.3474003
-0.12715524 -0.044739813 1.3430002
0.0068339678 -0.043128319 1.3442
-0.14073217 -0.033113454 1.3490001
-0.13481192 -0.035681333 1.3438574
-0.1283326 -0.03885299 1.3430001
0.0070957397 -0.0354787 1.3490001
0.012976244 -0.034200348 1.3454001
-0.14152057 -0.024046674 1.3490001
-0.13642089 -0.024324713 1.3446366
0.0070957402 -0.029565584 1.3490001
0.015374103 -0.028214017 1.3490001
-0.14275952 -0.014698318 1.3490001
-0.13560192 -0.0141494 1.3450001
-0.14275953 -0.0052373321 1.3490001
-0.13560192 -0.0047164666 1.3450001
0.066428252 -0.002752441 1.3450001
0.075365365 -0.0037628924 1.3490001
0.081601009 -0.005913117 1.3490001
-0.14357045 0.005440067 1.3490001
-0.13560192 0.0047164662 1.3450003
0.067109711 0.0011773633 1.3430001
0.075669676 0.0032757137 1.3463335
-0.15019317 0.01064361 1.3490001
-0.14400037 0.013951802 1.3486003
-0.13577868 0.013823041 1.3446366
-0.14296801 0.024815101 1.3478004
-0.13657415 0.024724631 1.3430002
-0.15019317 0.037843946 1.3490001
-0.14396049 0.035395857 1.3460003
-0.13674234 0.034816317 1.3430002
-0.15019317 0.041391816 1.3490001
-0.14388093 0.044816736 1.3452502
-0.1377515 0.044739805 1.3430001
-0.14309742 0.054006469 1.3490001
-0.13549936 0.05419904 1.3440002
0.0082415435 0.052981351 1.3430001
0.012950996 0.050626624 1.3430001
-0.14309742 0.062341146 1.3490001
-0.13443376 0.064857818 1.3451003
-0.12774393 0.067109711 1.3430001
-0.012501091 0.0667587 1.3454001
-0.00706418 0.064754985 1.3430001
-0.14546266 0.072140023 1.3490001
-0.13485958 0.075338811 1.3470002
-0.12597787 0.075672351 1.3430003
-0.042385079 0.077705979 1.3430001
-0.035765368 0.077430993 1.3450001
-0.024171891 0.07526987 1.3450001
-0.016537001 0.073242433 1.3475001
-0.13386478 0.08479058 1.3476156
-0.12483634 0.084794804 1.3433752
-0.11812878 0.087517343 1.3430001
-0.052511018 0.086142138 1.3460001
-0.046034392 0.082797036 1.3464288
-0.037843946 0.081601009 1.3490001
-0.1356177 -0.054275312 1.3556668
-0.12938373 -0.058163326 1.3540001
-0.14402777 -0.044338729 1.3577502
-0.13887978 -0.048667274 1.3540001
-0.14511959 -0.035984136 1.3558183
0.0035610199 -0.036797207 1.3540001
-0.15130652 -0.02025363 1.3590001
-0.14615837 -0.025293838 1.3554287
0.0075177085 -0.024531471 1.3540001
0.013254907 -0.023344465 1.3540001
-0.15116736 -0.014284626 1.3577501
-0.14606269 -0.013852794 1.3545556
0.013388891 -0.015770575 1.3577502
-0.15178308 -0.0040507261 1.3590001
-0.14600182 -0.0043523577 1.3540001
0.079529449 -0.0011870067 1.3540001
0.081903458 -0.0011870067 1.3540001
-0.15326947 0.0050817179 1.357182
-0.14600183 0.0035610199 1.3540001
0.079529449 0.0011870067 1.3540001
0.081903458 0.0011870067 1.3540001
-0.154742 0.014499892 1.3556668
-0.14837584 0.017805099 1.3540001
-0.15315142 0.024441669 1.3574617
-0.14837584 0.024927139 1.3540001
-0.15233253 0.034818862 1.3540001
-0.15169945 0.044868849 1.3540001
-0.14649752 0.05517114 1.3554287
-0.14362781 0.066234976 1.3540001
-0.0071220398 0.067659378 1.3540001
-0.14327635 0.074410222 1.3544168
-0.024927139 0.079529449 1.3540001
-0.014494632 0.073890552 1.3550001
-0.0071483403 0.071483403 1.3590001
-0.14479464 -0.072995648 1.365
-0.14369005 -0.063790649 1.3649999
-0.13432395 -0.062524959 1.3649999
-0.14447555 -0.055125672 1.3649999
-0.1364181 -0.05863585 1.365
-0.15197454 -0.043079399 1.365
-0.14718795 -0.046370193 1.3649999
-0.15197454 -0.035899501 1.365
-0.14958125 -0.035899498 1.365
-0.1531712 -0.025428813 1.3649999
-0.15539356 -0.01384695 1.3649999
-0.15646198 -0.004188275 1.3649999
-0.15867579 0.0040686098 1.365
-0.16234553 0.015157568 1.3649999
-0.16154775 0.02273635 1.3650001
-0.15847065 0.026155349 1.3649999
-0.15795779 0.035899501 1.3649999
-0.15636228 0.045073818 1.3649999
-0.15245321 0.054806568 1.365
-0.14958125 0.061029151 1.365
-0.14564852 -0.072222434 1.373
-0.13811883 -0.070860967 1.3700001
-0.15251949 -0.06457369 1.3742001
-0.14372365 -0.0684589 1.3700002
-0.13531643 -0.066857524 1.37
-0.15407304 -0.055369638 1.373
-0.16043702 -0.042220265 1.376
-0.15575722 -0.0462212 1.373
-0.16043702 -0.034982506 1.376
-0.15649748 -0.035418112 1.3720002
-0.16043702 -0.024125867 1.376
-0.15685496 -0.024741286 1.3700001
-0.16319428 -0.014303192 1.3760002
-0.15913692 -0.014412399 1.3700001
-0.16378962 -0.0048192563 1.3737501
-0.15893675 -0.0076065441 1.3700002
-0.16343063 0.004807421 1.37075
-0.16642149 0.012765668 1.3736001
-0.16523349 0.024031846 1.37075
-0.16323309 0.033890683 1.3734286
-0.16224647 0.045839146 1.376
-0.15893675 0.046840299 1.3700002
-0.15928771 -0.083899632 1.3870001
-0.16171958 -0.071740262 1.3870001
-0.15505615 -0.074753113 1.3848574
-0.16315205 -0.064715095 1.38625
-0.15779154 -0.066183649 1.381
-0.16400257 -0.055205893 1.3840002
-0.15859865 -0.059323158 1.381
-0.16551466 -0.045965161 1.3843753
-0.17144707 -0.034046225 1.3870001
-0.16589865 -0.034805797 1.3827145
-0.17193344 -0.02358917 1.3870001
-0.16604547 -0.024241148 1.3825002
-0.17144707 -0.014591239 1.3870001
-0.16747694 -0.015335237 1.381
-0.17144708 -0.0060796831 1.3870001
-0.16828406 -0.0048427065 1.381
-0.17144707 0.0085115563 1.3870001
