# .PCD v0.7 - Point Cloud Data file format
VERSION 0.7
FIELDS x y z
SIZE 4 4 4
TYPE F F F
COUNT 1 1 1
WIDTH 1464
HEIGHT 1
VIEWPOINT 0 0 0 1 0 0 0
POINTS 1464
DATA ascii
-0.13505483 0.1058942 1.0125716
-0.12502436 0.10566287 1.0146669
-0.11638348 0.10181136 1.0162727
-0.10987877 0.10094553 1.0190001
-0.19239151 0.11222824 1.016
-0.18452157 0.11420424 1.01375
-0.17582458 0.117585 1.0103751
-0.16106836 0.11550879 1.0100001
-0.15560341 0.11474258 1.0134445
-0.14025176 0.11166541 1.0190001
-0.13463658 0.11217589 1.0190001
-0.12655415 0.11166541 1.0190001
-0.18197101 0.12042113 1.0175
-0.17443337 0.12371515 1.0161999
-0.16521081 0.1250459 1.0142223
-0.15810521 0.12294436 1.0172857
-0.20218678 -0.16097294 1.0220001
-0.19845366 -0.16283952 1.0220002
-0.21178514 -0.15230505 1.028
-0.20430684 -0.15422384 1.025
-0.19804443 -0.15407352 1.0222002
-0.20257752 -0.14855555 1.0270001
-0.19650307 -0.14894523 1.0235001
-0.070988081 -0.12670025 1.0250001
-0.071057342 -0.11423317 1.026
-0.069393426 -0.11265167 1.028
-0.12454768 -0.10111614 1.028
-0.11440398 -0.1035226 1.0248332
-0.10759395 -0.10400751 1.0227501
-0.063932776 -0.10562398 1.025375
-0.05490984 -0.10352029 1.0267999
-0.045197226 -0.10278587 1.0263845
-0.038301565 -0.10183711 1.028
-0.24442908 -0.091623351 1.028
-0.23521669 -0.091923758 1.028
-0.22509944 -0.092652626 1.02775
-0.21718024 -0.092735842 1.027
-0.15140384 -0.091923758 1.028
-0.14509535 -0.092824958 1.028
-0.13474728 -0.09328106 1.0260499
-0.12553819 -0.095727615 1.0236667
-0.11779823 -0.098792441 1.0226001
-0.060028873 -0.099450819 1.0220001
-0.054228783 -0.097636767 1.0230001
-0.044594955 -0.095316924 1.0234116
-0.035480455 -0.094021231 1.025818
-0.028298099 -0.091743514 1.028
-0.25370085 -0.084200084 1.0278333
-0.24515302 -0.085652873 1.0259999
-0.23523551 -0.086496174 1.0241666
-0.22450064 -0.085884489 1.0239999
-0.21526703 -0.085148714 1.0246783
-0.20600517 -0.084453642 1.0274285
-0.19472633 -0.083834089 1.0269411
-0.18472306 -0.084458686 1.0264285
-0.1752578 -0.085032932 1.0256519
-0.16584566 -0.083724789 1.0256665
-0.15389177 -0.084915288 1.0270869
-0.14459039 -0.085317977 1.0243999
-0.13621403 -0.086670093 1.0222145
-0.12991323 -0.088699378 1.0220001
-0.042408455 -0.087504774 1.0220002
-0.034721147 -0.085461184 1.0223912
-0.026174102 -0.085964605 1.0265651
-0.25388959 -0.074783176 1.0266362
-0.24502905 -0.075392976 1.0237998
-0.23921953 -0.078843892 1.0220001
-0.22130047 -0.079739846 1.0220001
-0.21413285 -0.077947944 1.0220002
-0.2052927 -0.077994741 1.0226003
-0.19531782 -0.078843899 1.0220002
-0.18456638 -0.078843899 1.0220002
-0.1747109 -0.079227872 1.0220002
-0.16557218 -0.079023086 1.0220002
-0.15679182 -0.079739846 1.0220001
-0.14527245 -0.079483859 1.0220002
-0.13887277 -0.079739846 1.0220001
-0.060028873 -0.070780315 1.0220001
-0.054454058 -0.07217402 1.0220002
-0.033847127 -0.075459175 1.0220001
-0.027879754 -0.078253895 1.026
-0.25426263 -0.065105587 1.0270768
-0.24622084 -0.06481339 1.0234286
-0.071497075 -0.061462395 1.0220001
-0.063890807 -0.063632011 1.0233928
-0.054728545 -0.064593337 1.0233998
-0.045904431 -0.062031597 1.0220002
-0.034844518 -0.064146422 1.023111
-0.029653249 -0.062002249 1.0250001
-0.25333452 -0.05566185 1.0273999
-0.24750166 -0.054699708 1.0229001
-0.073446676 -0.054650005 1.0239413
-0.06561546 -0.056971516 1.0272
-0.054044362 -0.056181453 1.0274374
-0.044857893 -0.054721262 1.0232998
-0.035020869 -0.054778554 1.0244
-0.029718343 -0.05403138 1.0272501
-0.25143853 -0.047764305 1.028
-0.24582499 -0.044487324 1.02525
-0.23921953 -0.041213855 1.0220001
-0.074215218 -0.045857489 1.0256922
-0.05136916 -0.04866552 1.028
-0.044723898 -0.045195743 1.0263236
-0.035775557 -0.045672908 1.0266248
-0.029653249 -0.047624916 1.0250001
-0.24357338 -0.035475031 1.028
-0.23810923 -0.034526203 1.0230002
-0.073382556 -0.036840163 1.0250001
-0.043258239 -0.038752172 1.028
-0.036949746 -0.038031202 1.028
-0.27444217 -0.022388251 1.0273571
-0.26492095 -0.02336267 1.0248125
-0.255465 -0.024250705 1.0244001
-0.24528132 -0.025435986 1.0248694
-0.23765668 -0.025154402 1.0225296
-0.27517647 -0.015469995 1.0265714
-0.26856202 -0.015455194 1.0220002
-0.22548158 -0.016724462 1.0220002
-0.070780315 -0.011647393 1.0220001
-0.068988405 -0.011647393 1.0220001
-0.2727536 -0.0062987469 1.0264118
-0.26722947 -0.0041227005 1.0229001
-0.070780315 -0.0098554865 1.0220001
-0.066001892 -0.0050770692 1.0220001
-0.27126521 0.0027036397 1.028
-0.26531628 0.0054809628 1.0248499
-0.2589305 0.0098554865 1.0220001
-0.06241053 0.0042294157 1.0232859
-0.26229835 0.013806331 1.027
-0.25679335 0.015994929 1.0230002
-0.25338361 0.023855634 1.02675
-0.2472129 0.026686294 1.0243572
-0.056776438 0.029740039 1.028
-0.27441946 0.037400354 1.028
-0.26598409 0.037817031 1.0271
-0.25432238 0.037310231 1.028
-0.24509303 0.035315737 1.027
-0.23813732 0.036583491 1.0233334
-0.060072929 0.035866406 1.0227501
-0.055737391 0.034422707 1.0273333
-0.27392843 0.044276129 1.0267141
-0.26635635 0.043832313 1.0226316
-0.25506949 0.042406809 1.0246841
-0.24540894 0.04298624 1.025
-0.23632737 0.043297742 1.022706
-0.22539626 0.04774151 1.0220002
-0.060904171 0.046155527 1.0233334
-0.057789512 0.044289198 1.0267999
-0.27216643 0.05136916 1.028
-0.26537481 0.055066355 1.0252
-0.2589305 0.057341013 1.0220001
-0.22488429 0.052861247 1.0220001
-0.064273506 0.054695915 1.0246668
-0.26291618 0.061901059 1.0275714
-0.25595704 0.065114252 1.0244377
-0.24997097 0.068988405 1.0220001
-0.081531756 0.068988405 1.0220001
-0.075012542 0.065382764 1.0241818
-0.067790531 0.060960244 1.0256001
-0.25287864 0.072711103 1.0275714
-0.24628226 0.076142281 1.0248125
-0.23921953 0.079739846 1.0220001
-0.10124273 0.079739846 1.0220001
-0.094672404 0.079441197 1.0220002
-0.084279887 0.07770738 1.0227503
-0.078958303 0.070884198 1.0235001
-0.24381049 0.082270928 1.0275
-0.23574543 0.086322479 1.024143
-0.22757214 0.088699378 1.0220001
-0.1030698 0.086275868 1.0244706
-0.095140427 0.084514864 1.0246249
-0.086273938 0.08400175 1.0244001
-0.23198731 0.091534816 1.027
-0.22512293 0.094324157 1.0246999
-0.21816462 0.099002838 1.0220001
-0.10582644 0.095310196 1.0242857
-0.22198799 0.10176281 1.0272501
-0.21471144 0.10400868 1.0247693
-0.2071048 0.10719286 1.0236669
-0.1209537 0.1075144 1.0220001
-0.11401825 0.1063738 1.0232632
-0.10670186 0.10393903 1.0254614
-0.2035501 0.11173981 1.0267142
-0.19473615 0.11608951 1.0265
-0.18766782 0.11852555 1.02425
-0.151014 0.11692454 1.0233334
-0.14489333 0.11581308 1.0240399
-0.13562711 0.11691262 1.0253528
-0.12546541 0.11479026 1.0242106
-0.11726584 0.1127038 1.025923
-0.19015601 0.1216638 1.028
-0.18320881 0.12433538 1.0252501
-0.17530821 0.12841998 1.0220002
-0.16097295 0.12931593 1.0220001
-0.15394717 0.12539507 1.0228076
-0.14751886 0.12477526 1.0266364
-0.13337958 0.1216638 1.028
-0.17428206 0.13198553 1.0265
-0.16438857 0.13394119 1.025375
-0.15579475 0.13383672 1.0266498
-0.14870019 0.13067593 1.028
-0.21180268 -0.1521164 1.0316001
-0.20878781 -0.15094183 1.031
-0.21393734 -0.14751188 1.0355
-0.20702054 -0.14778496 1.0342222
-0.1410469 -0.12193732 1.0380001
-0.13502702 -0.12214732 1.0380001
-0.12466726 -0.12102734 1.0380001
-0.072978117 -0.12349832 1.0328001
-0.068572097 -0.12243427 1.0326251
-0.16243143 -0.11056257 1.0380001
-0.1548541 -0.11472029 1.0365001
-0.14500003 -0.11499336 1.0351431
-0.13503912 -0.11537937 1.0362859
-0.12539832 -0.11479276 1.0362401
-0.11579987 -0.11428674 1.0364445
-0.072307467 -0.11840348 1.031
-0.065112256 -0.11483859 1.0327919
-0.056103408 -0.11207682 1.0345714
-0.24348463 -0.10178776 1.0380001
-0.23446867 -0.10237958 1.0360715
-0.22497125 -0.10150222 1.0356001
-0.21393849 -0.10216875 1.0365716
-0.20551179 -0.1038814 1.0380001
-0.19716233 -0.10161444 1.0380001
-0.18290597 -0.10100778 1.0380001
-0.17443818 -0.103401 1.0372943
-0.16502236 -0.10431537 1.0353335
-0.154898 -0.10461141 1.0332761
-0.14493135 -0.10507736 1.0332502
-0.13489467 -0.10491338 1.0331727
-0.12556599 -0.106348 1.0327309
-0.11674271 -0.10846771 1.0322858
-0.061461344 -0.1084612 1.031
-0.055214655 -0.10862031 1.0325
-0.048201013 -0.10816476 1.0318571
-0.035282325 -0.10042392 1.0320001
-0.26336044 -0.092377372 1.0374286
-0.2539525 -0.094470121 1.034353
-0.24501359 -0.096442372 1.0326471
-0.23539239 -0.096749462 1.0314001
-0.22591779 -0.096123829 1.0315294
-0.2139848 -0.095732868 1.0315715
-0.20480296 -0.095153145 1.0337003
-0.1944938 -0.095388323 1.0340372
-0.18462878 -0.094839886 1.0342002
-0.17504081 -0.094978921 1.0333079
-0.165617 -0.095027149 1.0323201
-0.15601727 -0.095320709 1.031
-0.14461493 -0.097615071 1.031
-0.13544737 -0.098002434 1.031
-0.032237079 -0.097916365 1.031
-0.027043218 -0.094596237 1.0320001
-0.27026406 -0.080988221 1.0380001
-0.26447025 -0.084648125 1.0349002
-0.25825265 -0.0861938 1.031
-0.20456988 -0.088476218 1.031
-0.19523014 -0.088576652 1.031
-0.18528789 -0.089480489 1.031
-0.17398985 -0.089480489 1.031
-0.16468027 -0.088395879 1.031
-0.15868907 -0.087931037 1.031
-0.023103015 -0.08290571 1.0335834
-0.017922353 -0.084853448 1.0352501
-0.27071905 -0.073708378 1.0380001
-0.2643986 -0.075155362 1.0328501
-0.25940302 -0.075922839 1.031
-0.27026406 -0.064608581 1.0380001
-0.26414838 -0.065131404 1.0318751
-0.25940302 -0.063269034 1.031
-0.27026406 -0.058238719 1.0380001
-0.26448107 -0.054626238 1.0348698
-0.25799704 -0.054331027 1.031
-0.071403623 -0.05151907 1.031
-0.064392976 -0.05316674 1.0326002
-0.056778684 -0.052958358 1.0316668
-0.26163763 -0.04614481 1.0366666
-0.25547802 -0.044688806 1.0327274
-0.07140781 -0.044008084 1.034
-0.065195695 -0.046397142 1.0364139
-0.055588301 -0.045086835 1.0345716
-0.049711384 -0.041576795 1.031
-0.033539511 -0.040791299 1.034
-0.29028362 -0.03002934 1.0380001
-0.28482372 -0.030393332 1.0380001
-0.27535993 -0.030029338 1.0380001
-0.2641975 -0.031849299 1.0380001
-0.25484392 -0.035367679 1.0344801
-0.24775346 -0.03484818 1.031
-0.0720281 -0.036016099 1.0356668
-0.053739496 -0.035369113 1.0372002
-0.045503553 -0.034697555 1.0332694
-0.034714624 -0.034369964 1.0330954
-0.29080361 -0.024309466 1.0380001
-0.28433093 -0.024879361 1.0335002
-0.27518776 -0.02685705 1.0325834
-0.26500818 -0.027808243 1.0327142
-0.2551071 -0.028949022 1.0319
-0.24765307 -0.029826829 1.031
-0.050048899 -0.028209379 1.0380001
-0.043430768 -0.026435882 1.0364002
-0.036187999 -0.026188422 1.0367274
-0.29028362 -0.01637964 1.0380001
-0.28454879 -0.015140282 1.0335239
-0.28209522 -0.0061727851 1.036
-0.27745846 -0.0045203855 1.0316668
-0.27453277 0.0049827541 1.0335001
-0.26844147 0.0099422764 1.031
-0.27223831 0.012548608 1.0372001
-0.26617607 0.016103961 1.0335386
-0.28203595 0.02877746 1.0366668
-0.27513364 0.029156178 1.0357778
-0.26346561 0.025088957 1.035737
-0.25666577 0.026676528 1.0315001
-0.29028362 0.038219161 1.0380001
-0.28437909 0.034522254 1.0341668
-0.27470911 0.032973651 1.0314668
-0.26452994 0.033515077 1.0333753
-0.25479931 0.035002802 1.0317501
-0.24855691 0.035249889 1.031
-0.053376723 0.03799824 1.0320001
-0.049856033 0.038071878 1.034
-0.28331172 0.044868428 1.0350556
-0.27793181 0.046999857 1.031
-0.05345929 0.045802165 1.0336366
-0.047318958 0.048228938 1.0380001
-0.27385458 0.054648381 1.0332223
-0.26844147 0.057845972 1.031
-0.061315823 0.057337858 1.0316001
-0.054587465 0.054789715 1.0354288
-0.047708951 0.05368882 1.0380001
-0.27112785 0.063316964 1.0366668
-0.26537147 0.066267624 1.0323335
-0.25940302 0.068692088 1.031
-0.073851034 0.067902468 1.0327142
-0.065172851 0.064487301 1.0346192
-0.058420718 0.06242463 1.0380001
-0.26357278 0.07416074 1.0364617
-0.25589472 0.075825281 1.0314287
-0.080695629 0.076166771 1.03425
-0.075418487 0.072765157 1.0365386
-0.066428542 0.071888417 1.0380001
-0.25145459 0.081202418 1.033
-0.24530235 0.084608853 1.0314286
-0.23951848 0.089480489 1.031
-0.094066113 0.089545578 1.03175
-0.089740857 0.089740857 1.034
-0.2350048 0.094910271 1.0343333
-0.22900505 0.097758412 1.0325
-0.10168883 0.094444282 1.033375
-0.094458856 0.092647664 1.0360836
-0.087540068 0.096639872 1.0380001
-0.23204491 0.10100778 1.0380001
-0.22410585 0.10547945 1.0342501
-0.21636735 0.10837754 1.0314286
-0.10755736 0.10936505 1.031
-0.22203511 0.11101755 1.0380001
-0.21380599 0.1137123 1.0352857
-0.20536754 0.11619017 1.0338
-0.19794171 0.11780091 1.031
-0.12165123 0.11803061 1.033
-0.11344349 0.11536761 1.0342942
-0.10828762 0.11192754 1.0380001
-0.20184998 0.12251015 1.0351428
-0.195022 0.12425243 1.0338184
-0.18713783 0.12740587 1.0323334
-0.1437082 0.12548009 1.0334376
-0.13468264 0.12391619 1.033389
-0.12606768 0.12231553 1.0345715
-0.1182974 0.12102734 1.0380001
-0.1910958 0.13012713 1.0380001
-0.18258999 0.13264479 1.0332859
-0.17539898 0.13625042 1.0338
-0.16694784 0.13800697 1.0316
-0.15212655 0.13630468 1.0313751
-0.14735521 0.13488178 1.0351876
-0.17198622 0.14226019 1.0380001
-0.16500677 0.14173581 1.0341667
-0.15451971 0.14268935 1.034353
-0.14816143 0.14219056 1.0368572
-0.23038536 -0.14043412 1.0470001
-0.22512273 -0.14259113 1.046
-0.2157789 -0.14384992 1.0442144
-0.20867473 -0.14643839 1.044
-0.14181092 -0.14089304 1.0470001
-0.13484271 -0.1430977 1.0463334
-0.23038536 -0.1355388 1.0470001
-0.22793771 -0.13798647 1.0470001
-0.21325178 -0.1312554 1.0470001
-0.20468502 -0.1312554 1.0470001
-0.19489439 -0.13156135 1.0470001
-0.18481582 -0.13309114 1.0470001
-0.1757721 -0.13355009 1.0470001
-0.16456096 -0.13151765 1.0470001
-0.15428561 -0.13259052 1.0470001
-0.14443555 -0.13434507 1.046308
-0.1346034 -0.1346034 1.0444802
-0.12710974 -0.13259593 1.0431
-0.23405685 -0.12024097 1.0470001
-0.22338662 -0.12356824 1.0470001
-0.21504945 -0.12533566 1.0469067
-0.20455885 -0.12540236 1.0452695
-0.19508015 -0.12547664 1.0447202
-0.18507282 -0.12552297 1.0451003
-0.17522392 -0.12537229 1.0456157
-0.16494948 -0.12554699 1.0453004
-0.15467662 -0.12539336 1.0440001
-0.14542587 -0.12562196 1.0427501
-0.13452005 -0.12687595 1.0411876
-0.12499212 -0.12543607 1.0425601
-0.11731589 -0.12298037 1.0422001
-0.25119042 -0.11167418 1.0470001
-0.24521431 -0.11171089 1.046625
-0.23417835 -0.11356367 1.0455002
-0.22481817 -0.1144559 1.0457311
-0.21499169 -0.1148008 1.0438892
-0.20488124 -0.11524877 1.0433334
-0.1949461 -0.11532023 1.0440003
-0.18484852 -0.11530212 1.0438334
-0.17463389 -0.11513006 1.04369
-0.16577345 -0.11578952 1.0425001
-0.15925044 -0.11818299 1.041
-0.1469302 -0.11955191 1.041
-0.12259394 -0.1189435 1.041
-0.11681408 -0.11955191 1.041
-0.26526442 -0.10142463 1.0470001
-0.25456309 -0.10469215 1.0451053
-0.24526289 -0.1061848 1.0423502
-0.23470886 -0.10730949 1.0417501
-0.22513621 -0.10688087 1.0430002
-0.21524559 -0.10690575 1.0410001
-0.20290363 -0.10738377 1.041
-0.19492264 -0.10583974 1.0422502
-0.18562928 -0.10538846 1.0421741
-0.17686382 -0.10750546 1.0410001
-0.27519229 -0.093915664 1.0458573
-0.26544207 -0.096343853 1.0426501
-0.25695729 -0.098801732 1.0416
-0.18799767 -0.09947449 1.041
-0.28178608 -0.084444039 1.0470001
-0.27537784 -0.085189648 1.0430001
-0.26921993 -0.087610558 1.041
-0.014869362 -0.08214213 1.044
-0.28178608 -0.075265341 1.0470001
-0.27629316 -0.07528352 1.0426365
-0.02202888 -0.07985469 1.0470001
-0.017421119 -0.079778425 1.046
-0.28178608 -0.06884025 1.0470001
-0.27616841 -0.064925484 1.0431001
-0.27463141 -0.054767869 1.0437145
-0.26921993 -0.051106159 1.041
-0.27290869 -0.0457233 1.0461428
-0.26717645 -0.044232577 1.0422354
-0.065160356 -0.041432492 1.041
-0.30167326 -0.032737363 1.0470001
-0.29569399 -0.032819275 1.0434374
-0.28451976 -0.032544747 1.0435715
-0.27467063 -0.033994064 1.0443751
-0.26615587 -0.035628375 1.0420437
-0.07047347 -0.034774736 1.044
-0.065021314 -0.034794189 1.0446002
-0.057744499 -0.032754239 1.04275
-0.30290765 -0.02513491 1.0464
-0.29627621 -0.024764955 1.0420001
-0.26556951 -0.028290911 1.041
-0.070675991 -0.02845397 1.0470001
-0.065168768 -0.02845397 1.0470001
-0.054315329 -0.025221355 1.0454351
-0.046807274 -0.022842718 1.0423334
-0.037417009 -0.020990029 1.041
-0.30060241 -0.016521659 1.0470001
-0.29505321 -0.014718926 1.04295
-0.28929737 -0.01003871 1.041
-0.052056339 -0.017964026 1.0470001
-0.044193719 -0.01557749 1.045435
-0.038870744 -0.015542641 1.04325
-0.29249078 -0.0050038779 1.0453846
-0.28661412 -0.0041078408 1.0417501
-0.28430858 0.0040396801 1.044353
-0.27834606 0.0082134902 1.041
-0.28158423 0.012842948 1.04625
-0.27622187 0.01572264 1.0431429
-0.29319686 0.025871916 1.0453845
-0.2848084 0.025074003 1.0432106
-0.2750833 0.024181295 1.0427729
-0.26830733 0.025553079 1.041
-0.30106133 0.032125451 1.0470001
-0.29492232 0.034441639 1.0438638
-0.28929737 0.03011613 1.041
-0.30014348 0.041304149 1.0470001
-0.29323083 0.044003136 1.0439999
-0.28838477 0.0456305 1.041
-0.050193548 0.042892668 1.041
-0.04800329 0.044352844 1.041
-0.28378543 0.054368768 1.044
-0.27727076 0.057804018 1.0418571
-0.052018773 0.059319649 1.041
-0.048368331 0.059319649 1.041
-0.27577522 0.064554222 1.0445
-0.062513784 0.067989446 1.041
-0.055696636 0.064591296 1.044
-0.27243733 0.072611667 1.044
-0.26804501 0.075344898 1.0417501
-0.074001081 0.076803431 1.0436471
-0.065659806 0.073206052 1.0445294
-0.059661549 0.071593866 1.0470001
-0.25505763 0.084229171 1.0443
-0.24549209 0.088523172 1.041
-0.083409138 0.084327005 1.0455
-0.078936815 0.081690431 1.0470001
-0.24315706 0.095137425 1.0442307
-0.23699391 0.099089853 1.0417501
-0.10144567 0.098705217 1.0425
-0.094507158 0.097249128 1.0422857
-0.087551571 0.093553983 1.0418571
-0.24250837 0.10214087 1.0465001
-0.23469302 0.10485891 1.0437001
-0.22893888 0.10738684 1.0425
-0.10188357 0.10096569 1.0470001
-0.096376352 0.10004783 1.0470001
-0.232388 0.11323177 1.0470001
-0.2248794 0.11436398 1.0436
-0.21603346 0.11761209 1.0422857
-0.20898768 0.11955191 1.041
-0.11246844 0.11917319 1.0430001
-0.10749102 0.11625593 1.046
-0.21412596 0.12155222 1.0470001
-0.20552532 0.12441435 1.0435001
-0.14145455 0.12867801 1.041
-0.13415368 0.12837382 1.041
-0.12384369 0.12698466 1.0431429
-0.11558919 0.12365314 1.0447999
-0.10607956 0.12102772 1.0470001
-0.18357399 0.1376805 1.0470001
-0.14264119 0.13532534 1.0437001
-0.13479802 0.13296579 1.046
-0.1271757 0.13247368 1.0453334
-0.18030228 0.14003173 1.044
-0.1750436 0.14446932 1.0443
-0.16526695 0.14748625 1.0439999
-0.15555851 0.14726208 1.0410001
-0.14389117 0.14558028 1.0438803
-0.16200379 0.15209606 1.0464
-0.15480891 0.15206213 1.0449001
-0.14848059 0.15123157 1.0455
-0.20264281 -0.15082744 1.0555
-0.19922689 -0.15289505 1.057
-0.17436212 -0.15258616 1.057
-0.16571352 -0.15212287 1.057
-0.154285 -0.15243174 1.057
-0.14508277 -0.15341724 1.0563333
-0.13870029 -0.15210889 1.05475
-0.22368149 -0.14083649 1.0500001
-0.21451508 -0.1419559 1.0522223
-0.20483065 -0.14501998 1.056
-0.19477901 -0.14288737 1.057
-0.18458545 -0.14444099 1.0545237
-0.17508294 -0.14490008 1.054222
-0.16502732 -0.14546226 1.0552695
-0.15464994 -0.14480239 1.0535187
-0.14501593 -0.14520283 1.0515999
-0.13807499 -0.14728001 1.0500001
-0.23377368 -0.13028494 1.054
-0.22499765 -0.13535716 1.0515
-0.2155727 -0.13576542 1.0517598
-0.20537348 -0.1367383 1.0538499
-0.19552006 -0.13688307 1.0538421
-0.18578777 -0.13804905 1.0512
-0.17365001 -0.13737758 1.0506154
-0.16503046 -0.13643508 1.0504211
-0.15548733 -0.13730267 1.0502501
-0.14728001 -0.1389955 1.0500001
-0.242726 -0.12159301 1.05475
-0.23445615 -0.12427285 1.0515238
-0.22723201 -0.12663451 1.0500001
-0.2728945 -0.11073308 1.057
-0.26597279 -0.1126439 1.0565386
-0.25571799 -0.11428382 1.0525
-0.2448622 -0.11659574 1.0530589
-0.23564799 -0.11813083 1.0500001
-0.28375655 -0.10211159 1.0535555
-0.27543139 -0.10431022 1.0537083
-0.26503569 -0.10611612 1.0525293
-0.25773999 -0.108619 1.0500001
-0.29401675 -0.094013676 1.0562001
-0.28532606 -0.095047317 1.0526001
-0.27829781 -0.097879827 1.0500001
-0.2936801 -0.087769136 1.0561001
-0.28632277 -0.085073315 1.0520953
-0.011966499 -0.080083497 1.0500001
-0.29003727 -0.075057566 1.057
-0.28684711 -0.0747431 1.0525715
-0.02217616 -0.078540564 1.054
-0.015202197 -0.077530168 1.054
-0.0069438573 -0.077318273 1.05625
-0.28477082 -0.065549158 1.0530909
-0.28132209 -0.055683609 1.0511429
-0.2789115 -0.0506275 1.0500001
-0.2807709 -0.043551922 1.057
-0.27764812 -0.045030221 1.0521818
-0.31139025 -0.032340232 1.054
-0.30654842 -0.034674354 1.0512501
-0.2840068 -0.036013596 1.0532857
-0.27778783 -0.038330119 1.0517143
-0.31090677 -0.024978425 1.0555
-0.30766228 -0.024897138 1.0517778
-0.064883597 -0.02433539 1.0511178
-0.058605164 -0.022398831 1.0500001
-0.30444151 -0.015375271 1.0523334
-0.29916251 -0.0101255 1.0500001
-0.06135118 -0.01489934 1.0549999
-0.055406984 -0.014115139 1.05124
-0.047471497 -0.0117035 1.0500001
-0.30165619 -0.0083278948 1.0555
-0.29703817 -0.0035035107 1.0516001
-0.063011296 -0.0050965012 1.057
-0.053530671 -0.007964341 1.0564001
-0.045307066 -0.0064694481 1.0546668
-0.038455423 -0.0032432284 1.057
-0.29282629 0.0034657917 1.052875
-0.28811648 0.0064435001 1.0500001
-0.036138829 0.0064864568 1.057
-0.29096392 0.019459371 1.057
-0.2854279 0.015278046 1.0517143
-0.30340445 0.026253274 1.0545
-0.29669231 0.02407602 1.0505716
-0.28673574 0.021171499 1.0500001
-0.30402344 0.034632765 1.0519445
-0.30030218 0.043428313 1.054
-0.29647174 0.047002774 1.0513334
-0.29238495 0.053922597 1.0543333
-0.28759962 0.056931086 1.0508001
-0.28415337 0.064496227 1.0535001
-0.27871686 0.067722499 1.0510001
-0.052857958 0.066944025 1.0532501
-0.048185106 0.064864568 1.057
-0.28262419 0.071351022 1.057
-0.27733558 0.073255315 1.0524
-0.063142352 0.07743378 1.0515001
-0.056226935 0.074362427 1.0536876
-0.26395789 0.083468609 1.054
-0.25604317 0.088512897 1.0532857
-0.2494555 0.089288503 1.0500001
-0.082464352 0.086156525 1.0522001
-0.073565774 0.08239264 1.0533333
-0.065905064 0.08194866 1.0555557
-0.057760347 0.081235148 1.057
-0.25271687 0.094686441 1.0559286
-0.24785033 0.095825799 1.0510001
-0.085606501 0.091129497 1.0500001
-0.25111854 0.10347443 1.057
-0.24543905 0.10558204 1.0525001
-0.2384095 0.108619 1.0500001
-0.10296728 0.10515497 1.053
-0.095358223 0.10393026 1.0541819
-0.089288503 0.1021755 1.0500001
-0.24116574 0.11180481 1.054
-0.23794311 0.11159265 1.052
-0.2255225 0.1187445 1.0500001
-0.10401101 0.11525992 1.0533637
-0.22425191 0.12089175 1.0526667
-0.21512873 0.12427802 1.0532
-0.20872337 0.1274555 1.0535001
-0.1205855 0.1297905 1.0500001
-0.11377303 0.12736575 1.0508751
-0.10566355 0.12451728 1.0509232
-0.18664935 0.13860101 1.054
-0.13531351 0.13807501 1.0500001
-0.12523465 0.13618222 1.0526429
-0.11737039 0.13298558 1.0565715
-0.18162413 0.14504503 1.0538
-0.17726843 0.14777504 1.0513334
-0.14083649 0.14083649 1.0500001
-0.13556716 0.14425652 1.0534499
-0.12602258 0.14177541 1.057
-0.17329501 0.15205126 1.0537001
-0.16592145 0.15431263 1.0540001
-0.15310174 0.15638927 1.0527779
-0.14506081 0.15455055 1.0539334
-0.13769063 0.15250705 1.0561429
-0.17304961 -0.1711788 1.067
-0.1661932 -0.17085795 1.0650001
-0.18299598 -0.16276748 1.0650001
-0.1746072 -0.16464521 1.063346
-0.16495875 -0.16496006 1.06308
-0.1554985 -0.16326372 1.0628333
-0.14817157 -0.16121812 1.0630001
-0.19555645 -0.15195183 1.0645455
-0.18481848 -0.15516539 1.0636499
-0.17560866 -0.15738346 1.0606002
-0.16424787 -0.15681374 1.0600002
-0.15561642 -0.15733197 1.0600002
-0.14744365 -0.1582851 1.0600001
-0.20536794 -0.14961194 1.0600001
-0.19620803 -0.14735512 1.0600002
-0.18715431 -0.14886853 1.0600001
-0.26577026 -0.1142998 1.0600001
-0.30213529 -0.085388958 1.067
-0.29626614 -0.08449313 1.0609232
-0.30063865 -0.076141827 1.067
-0.29551926 -0.07515981 1.0633751
-0.0239086 -0.077621676 1.0625001
-0.014403832 -0.073031634 1.0631362
-0.004860471 -0.072919257 1.0642631
0.00093540334 -0.073896863 1.067
-0.29344606 -0.065827839 1.0640715
-0.28865507 -0.062628485 1.061
-0.29174191 -0.055604532 1.067
-0.28697896 -0.054537434 1.0624444
-0.29091042 -0.040222343 1.067
-0.28656945 -0.04506129 1.064353
-0.3150214 -0.0306658 1.0600001
-0.29278123 -0.036480729 1.067
-0.28706741 -0.038170066 1.0620002
-0.315061 -0.025444623 1.0637144
-0.067836463 -0.021373134 1.0600001
-0.31277338 -0.015359121 1.0650001
-0.30780488 -0.012087699 1.06075
-0.071553536 -0.015797533 1.0600001
-0.066094115 -0.014476145 1.0604285
-0.30476952 -0.0048177214 1.0636667
-0.062260866 -0.0054911207 1.0600002
-0.05512879 -0.0038103876 1.0604501
-0.045534067 -0.0018585334 1.0600002
-0.039958466 -0.0018585334 1.0600001
-0.30181167 0.0038732386 1.0658572
-0.29653072 0.0062863575 1.062
-0.061053477 0.0023334674 1.0632501
-0.054828651 0.0030357321 1.0645624
-0.045087028 0.0048665018 1.0634998
-0.038358547 0.004419934 1.06075
-0.30026448 0.019643471 1.067
-0.29422328 0.014564941 1.0629474
-0.040222343 0.010289436 1.067
-0.037275866 0.010250864 1.0630001
-0.31137314 0.027541799 1.0650001
-0.30544323 0.022680243 1.0633334
-0.2982946 0.021373134 1.0600001
-0.30026448 0.049576376 1.067
-0.29643607 0.055781949 1.064
-0.29256761 0.063233189 1.0624446
-0.28805679 0.067864642 1.0604285
-0.044675425 0.066606127 1.0617777
-0.29091042 0.072026059 1.067
-0.28480855 0.073378466 1.064
-0.27636039 0.079360247 1.0650001
-0.051753286 0.076856636 1.0605
-0.045476347 0.07458505 1.0639999
-0.27492213 0.085528545 1.0681667
-0.26624683 0.085644916 1.0629092
-0.081075013 0.088530183 1.0630001
-0.075406641 0.087255664 1.0619092
-0.064553596 0.086385027 1.0620556
-0.05493876 0.083809018 1.0622143
-0.047612645 0.081227556 1.0650001
-0.26353025 0.092470296 1.0654286
-0.25799814 0.096354865 1.0609001
-0.0827737 0.093343176 1.0635555
-0.075292252 0.092120878 1.0663847
-0.067483522 0.091040254 1.0662
-0.26097754 0.10008816 1.067
-0.25448629 0.10288309 1.0600001
-0.10344053 0.10903191 1.0630001
-0.093781181 0.10782187 1.0610911
-0.08778467 0.10604985 1.0630001
-0.10203348 0.11206956 1.0600001
-0.096043177 0.11376445 1.0636817
-0.22272769 0.12564737 1.0648
-0.21557197 0.12806435 1.0618571
-0.10299606 0.12781537 1.0616666
-0.09964259 0.12478276 1.0622501
-0.21575837 0.13094577 1.0654
-0.20437036 0.13435307 1.0662729
-0.19481291 0.13656694 1.0617858
-0.12173393 0.13846073 1.0600001
-0.11419225 0.13574977 1.0617368
-0.10516804 0.13412903 1.0636315
-0.19296537 0.14178242 1.0654
-0.18667233 0.14484306 1.062889
-0.13251343 0.14738169 1.0600001
-0.12484548 0.14478984 1.0628
-0.11879622 0.1412459 1.067
-0.18240032 0.15290609 1.0648
-0.17509104 0.15690343 1.0619233
-0.16512071 0.15837631 1.061125
-0.15901856 0.15995397 1.067
-0.14262894 0.15862283 1.0606
-0.13430062 0.15454608 1.0644617
-0.12752666 0.15122354 1.067
-0.1711788 0.16182478 1.067
-0.1674372 0.16182478 1.067
-0.15312035 0.16245568 1.0650001
-0.14518586 0.16275907 1.0639168
-0.19324021 -0.162222 1.0721
-0.18807568 -0.16274878 1.0700001
-0.19509472 -0.15701483 1.0706428
-0.18854471 -0.15852763 1.0700001
-0.3039228 -0.082546934 1.0700001
-0.31063193 -0.070812747 1.077
-0.30501887 -0.074263133 1.0708946
-0.29923263 -0.070352502 1.0700001
-0.031157609 -0.073645264 1.077
-0.024631957 -0.073748954 1.0745714
-0.018760666 -0.070352502 1.0700001
-0.00093803334 -0.070352502 1.0700001
0.0015704022 -0.071197025 1.0733334
-0.31126139 -0.068294965 1.077
-0.30376467 -0.065197088 1.0723529
-0.29816058 -0.063920274 1.0700001
-0.02266008 -0.068924412 1.077
-0.014566847 -0.066841967 1.0739412
-0.0049072569 -0.066080786 1.0744735
0.0028320088 -0.067269258 1.0764287
-0.30270579 -0.054425225 1.0745555
-0.29648802 -0.055199679 1.0702499
-0.30365959 -0.044521246 1.0769999
-0.29519507 -0.045310024 1.0719129
-0.30101228 -0.038567197 1.0730001
-0.29613563 -0.03740273 1.0704286
-0.32076618 -0.021635257 1.0730001
-0.31799328 -0.022512801 1.0700001
-0.32089198 -0.016019329 1.075
-0.31724766 -0.014081895 1.0710001
-0.3136571 -0.005138413 1.073923
-0.3079876 -0.0015633889 1.0700001
-0.31189081 0.0028325103 1.077
-0.30645749 0.0048706005 1.072
-0.061143115 0.0084659699 1.0730001
-0.055779286 0.0076111234 1.0703334
-0.30375049 0.014522296 1.0736428
-0.29923263 0.0140705 1.0700001
-0.061703134 0.012644164 1.0762
-0.05480741 0.014286192 1.0750383
-0.045147773 0.013749919 1.0738399
-0.037240162 0.01686882 1.0741819
-0.32007363 0.029269271 1.077
-0.31449214 0.025613695 1.0708573
-0.30861297 0.021574767 1.0700001
-0.034869418 0.023563923 1.075
-0.31665376 0.03109975 1.075
-0.30486083 0.045963634 1.0700001
-0.3020454 0.055128746 1.075
-0.29923263 0.057220034 1.0700001
-0.3000716 0.061143115 1.0730001
-0.29735658 0.063786268 1.0700001
-0.040335432 0.065662332 1.0700001
-0.037599578 0.067679763 1.0722501
-0.29164654 0.075497359 1.072
-0.28590479 0.076950289 1.0722858
-0.041407473 0.077856772 1.0700001
-0.035665885 0.075315692 1.0744781
-0.2809962 0.083639264 1.072
-0.053778529 0.088454604 1.0721111
-0.045068517 0.085286774 1.0729582
-0.037926879 0.083592452 1.0762001
-0.27379236 0.091786414 1.072
-0.26726744 0.095359705 1.0722222
-0.083131671 0.098162562 1.0715001
-0.075064145 0.097035393 1.072
-0.064936012 0.095265187 1.0734999
-0.056806028 0.09240111 1.0755
-0.26531178 0.10102619 1.077
-0.084360532 0.10320713 1.07525
-0.076477766 0.10102619 1.077
-0.067980245 0.10197036 1.077
-0.2511571 0.11193894 1.0730001
-0.24766867 0.11395247 1.0742
-0.094961412 0.11846922 1.0725001
-0.088463552 0.11293527 1.0735
-0.22691289 0.12757647 1.074
-0.097871505 0.12140211 1.0735
-0.22257851 0.13327976 1.0738572
-0.21566048 0.13617268 1.0730624
-0.20648463 0.13665445 1.0706
-0.1998011 0.13976696 1.0700001
-0.10567883 0.13909385 1.0706002
-0.21275298 0.14256968 1.077
-0.204982 0.14348988 1.0736667
-0.19495124 0.14623976 1.0708332
-0.18854471 0.1491473 1.0700001
-0.12156014 0.14784479 1.0707501
-0.11520885 0.14402886 1.0730525
-0.10456792 0.14244151 1.0746
-0.19415975 0.1523896 1.0758573
-0.18594661 0.15526818 1.0734
-0.13232023 0.15723664 1.0723751
-0.12571086 0.1547567 1.0735714
-0.11928014 0.15075247 1.077
-0.18094225 0.16209742 1.075
-0.17439508 0.16453053 1.0724167
-0.16490264 0.16520646 1.0729473
-0.15585446 0.16656128 1.0724615
-0.14476705 0.16635916 1.0709001
-0.1356712 0.1645655 1.0726799
-0.12935129 0.16145307 1.077
-0.15327026 0.17089479 1.077
-0.14418975 0.17152159 1.075
-0.13583785 0.17187002 1.0752223
-0.028403997 -0.073534794 1.08
-0.31163278 -0.062956356 1.0826668
-0.30897239 -0.063435607 1.08
-0.024701394 -0.066823043 1.0838333
-0.015179701 -0.062756546 1.0819167
-0.0041028 -0.0618576 1.08
0.0047340002 -0.063144274 1.08
-0.30770999 -0.053967599 1.08
-0.012371082 -0.058999225 1.0855
-0.00403179 -0.056550138 1.0846189
0.0048766849 -0.055205449 1.0826205
0.010424443 -0.05685797 1.0810001
-0.3055459 -0.04422909 1.08
-0.32285881 -0.0104148 1.08
-0.3230744 -0.0057758782 1.0824546
-0.31831416 -0.0032191202 1.08
-0.32213151 0.001712656 1.0852001
-0.31538174 0.0049067033 1.0825
-0.3096036 0.0085212002 1.08
-0.31296232 0.015143945 1.0850768
-0.30846745 0.015716881 1.08
-0.061542001 0.0179892 1.08
-0.056402232 0.019341771 1.08
-0.044229086 0.019341771 1.08
-0.053027816 0.023068385 1.085
-0.044495728 0.024578873 1.0847368
-0.037440855 0.024901891 1.084
-0.32150733 0.035604745 1.0846667
-0.31693837 0.036656354 1.0813334
-0.32209259 0.040976275 1.087
-0.31527695 0.042863298 1.0864999
-0.30884966 0.048465639 1.0840001
-0.30734032 0.054579072 1.0847
-0.30779853 0.060035009 1.087
-0.29310077 0.078984596 1.0855
-0.28877398 0.078584403 1.08
-0.29064569 0.080999613 1.087
-0.28642058 0.083460271 1.0818332
-0.043552801 0.089946002 1.08
-0.035191812 0.083939955 1.085
-0.27381399 0.096438587 1.082
-0.062173199 0.0987828 1.08
-0.054572634 0.09638077 1.0837221
-0.045023624 0.093383618 1.0850834
-0.039070401 0.09052898 1.087
-0.2679444 0.1013076 1.08
-0.084379382 0.10434744 1.0845001
-0.074359305 0.10253888 1.0805
-0.062375624 0.10327142 1.0847
-0.056223262 0.10069364 1.087
-0.2543574 0.11495771 1.0823077
-0.24616309 0.11805894 1.0808001
-0.091206864 0.11781238 1.08375
-0.25162646 0.1232432 1.0863999
-0.24490753 0.12435818 1.0850908
-0.23618609 0.1254528 1.0830624
-0.10005835 0.12864645 1.087
-0.096127994 0.12373247 1.0857
-0.24363415 0.13055232 1.087
-0.23357368 0.13281325 1.086
-0.22691569 0.13633972 1.0829999
-0.10005835 0.13055232 1.087
-0.22329554 0.14387573 1.0855454
-0.2155975 0.14577113 1.0827142
-0.20659438 0.14831184 1.081
-0.11224431 0.1476593 1.082
-0.10477305 0.14779606 1.0865
-0.098831892 0.14824784 1.0840001
-0.21123429 0.15215223 1.087
-0.20431481 0.15439904 1.0851763
-0.1954888 0.15652552 1.0820769
-0.1884132 0.1581156 1.08
-0.12303289 0.15722039 1.0831429
-0.11505768 0.15252869 1.0847
-0.10958771 0.15151693 1.087
-0.19439909 0.1610463 1.087
-0.18535472 0.16425146 1.0852727
-0.17515799 0.1685304 1.08
-0.16663679 0.16947719 1.08
-0.13098867 0.16706176 1.0827501
-0.12680767 0.16346255 1.0846363
-0.17319514 0.17319645 1.0855
-0.1642943 0.17411101 1.0832777
-0.15506721 0.17495398 1.0834
-0.1454901 0.17687321 1.0847
-0.1354346 0.1742897 1.0847143
-0.12864645 0.17057566 1.087
-0.024413412 -0.063855238 1.0944445
-0.018222393 -0.06042162 1.0940001
-0.020195769 -0.058663905 1.097
-0.013669973 -0.056350488 1.094125
-0.0064957105 -0.052267253 1.092889
0.00095556665 -0.050645035 1.09
0.011478197 -0.051648818 1.0910001
-0.0024983245 -0.048223853 1.0958
0.0061285743 -0.046728618 1.0947692
0.012006973 -0.044820752 1.0956668
0.013463846 -0.038468134 1.097
-0.32202595 0.0047778334 1.09
-0.31820369 0.0086000999 1.09
-0.31727841 0.014341014 1.0905715
-0.052556161 0.027950326 1.09
-0.045548677 0.029304044 1.09
-0.036311533 0.029622566 1.09
-0.33279845 0.037951898 1.094
-0.32712233 0.036205359 1.09
-0.05186097 0.032654516 1.0955
-0.045719512 0.033460472 1.0952308
-0.037455145 0.032654513 1.0955
-0.33178765 0.041353244 1.097
-0.32444751 0.044516794 1.0946923
-0.31646737 0.046441197 1.0922501
-0.3202472 0.050970275 1.097
-0.31464079 0.054677762 1.0942143
-0.312803 0.061409622 1.0945001
-0.30018994 0.078644007 1.0940001
-0.29827181 0.079603083 1.0940001
-0.29402402 0.085220702 1.0942501
-0.28950471 0.088197485 1.0935
-0.033339541 0.086807452 1.0929
-0.028810335 0.083553784 1.0955
-0.28579175 0.094269328 1.0960001
-0.27806988 0.09778633 1.09
-0.044114839 0.097482033 1.0913334
-0.036649987 0.094032817 1.0936154
-0.28177908 0.10097885 1.097
-0.27515423 0.10451774 1.0949411
-0.2666074 0.10658065 1.090889
-0.084344484 0.1081347 1.0915716
-0.079312034 0.1060679 1.09
-0.054212309 0.1038964 1.0926
-0.045990907 0.10191387 1.0955557
-0.27216205 0.11059588 1.097
-0.26454702 0.1130596 1.0960001
-0.25847816 0.11870593 1.092
-0.08451286 0.11044466 1.0955
-0.26062161 0.12117462 1.097
-0.25533435 0.12556101 1.0933001
-0.24749176 0.1290015 1.09
-0.093988009 0.12670536 1.0921668
-0.25066137 0.13253227 1.0955
-0.24458772 0.13517456 1.0935333
-0.23704773 0.13580793 1.0917778
-0.10097885 0.13367677 1.097
-0.098235466 0.13215429 1.0950001
-0.23252508 0.14143109 1.09375
-0.22752021 0.14561325 1.0927501
-0.22200158 0.1518459 1.0962501
-0.2156978 0.15334244 1.0924445
-0.20640239 0.1576685 1.09
-0.12135696 0.15957963 1.09
-0.11434427 0.15695697 1.091091
-0.10492603 0.15472721 1.0923334
-0.098754443 0.15436785 1.0936667
-0.20360628 0.16134393 1.0955
-0.19390914 0.16514459 1.0936251
-0.18622538 0.1682369 1.0916001
-0.1234465 0.16543129 1.0933001
-0.1155193 0.16175795 1.0955
-0.10578736 0.16060446 1.097
-0.18407002 0.17252958 1.097
-0.17650339 0.17629553 1.0935557
-0.16722417 0.17869097 1.09
-0.1548018 0.17869097 1.09
-0.13327287 0.17738238 1.0937001
-0.12898958 0.1739731 1.0964
-0.1711832 0.18176194 1.097
-0.1612456 0.18368535 1.097
-0.15475267 0.18415114 1.09575
-0.14517003 0.18356198 1.0948125
-0.1374812 0.18363009 1.0966668
-0.026809122 -0.062069975 1.102
-0.024106691 -0.056565057 1.1053749
-0.015342106 -0.053343095 1.1035
-0.013270249 -0.04886876 1.1075
-0.005168973 -0.045115747 1.1054997
0.0033799885 -0.04364733 1.1023334
0.01447815 -0.043434449 1.1010001
-0.001618911 -0.039177645 1.108
0.005637804 -0.036036775 1.1056815
0.013847867 -0.033962179 1.1043042
0.016790422 -0.026226358 1.1079999
0.02039828 -0.025255013 1.108
0.018455587 -0.012627507 1.108
-0.05115613 0.036677979 1.1010001
-0.044775754 0.038012851 1.1023332
-0.037092119 0.037285861 1.1018
-0.32734382 0.049538679 1.108
-0.045333203 0.042425741 1.106125
-0.037850082 0.04173021 1.107
-0.32475829 0.055072077 1.1048571
-0.3194845 0.056947391 1.1010001
-0.32316825 0.061139613 1.107
-0.31758359 0.062871613 1.1033334
-0.30094808 0.084471047 1.1024001
-0.29782647 0.088958874 1.103
-0.030030217 0.087184496 1.105
-0.028065607 0.088071689 1.1040001
-0.30014613 0.090335242 1.108
-0.29448295 0.094609782 1.1056999
-0.28747144 0.098015353 1.1026
-0.033825066 0.096737534 1.1024544
-0.028061721 0.091931894 1.1038572
-0.28385141 0.10508624 1.1042222
-0.27894568 0.10810351 1.1010001
-0.080112427 0.10906873 1.1010001
-0.077549271 0.10856924 1.1057501
-0.051925842 0.10868942 1.1036667
-0.044996612 0.10705321 1.1038123
-0.036665585 0.10379768 1.1065332
-0.28169054 0.1146189 1.108
-0.27546084 0.11539203 1.1038822
-0.26671967 0.11646868 1.101
-0.090090647 0.11915215 1.105
-0.085347109 0.11545782 1.1054666
-0.078679077 0.11170486 1.108
-0.26470411 0.12444576 1.1046667
-0.25771108 0.12837292 1.1010001
-0.090552874 0.1273571 1.10475
-0.088730209 0.12326006 1.1041666
-0.25476152 0.13525935 1.1059999
-0.24226771 0.13995545 1.1010001
-0.10134705 0.13609461 1.1010001
-0.096027926 0.13388917 1.1032857
-0.24493629 0.14210898 1.1065
-0.23559277 0.14548546 1.1038889
-0.22875477 0.14960755 1.1010001
-0.23215185 0.15055872 1.108
-0.22572614 0.15412426 1.1037143
-0.2158853 0.15797271 1.1010001
-0.10171525 0.15983824 1.105
-0.099777818 0.15983824 1.105
-0.2146676 0.16104928 1.108
-0.20442453 0.16542798 1.105125
-0.19677791 0.16873598 1.103
-0.12129473 0.16826828 1.1010001
-0.11460603 0.16756099 1.102846
-0.1060585 0.16510928 1.1041428
-0.098106012 0.16221489 1.108
-0.19207096 0.17367381 1.1046667
-0.18587799 0.17572774 1.102875
-0.17856385 0.17856385 1.1010001
-0.124543 0.17547858 1.1042607
-0.11633117 0.17235042 1.1071428
-0.18174118 0.18174295 1.1046667
-0.17602831 0.18328735 1.10475
-0.16530545 0.18537539 1.103909
-0.1447815 0.18821596 1.1010001
-0.1332586 0.1856471 1.1014999
-0.1275119 0.18350255 1.1075
-0.15344012 0.19173773 1.1060001
-0.14436297 0.19328485 1.1041999
-0.13651821 0.1928125 1.1044666
-0.024371333 -0.052642077 1.1120001
-0.021714859 -0.048711635 1.1158001
-0.014856325 -0.044467457 1.1155237
-0.0078093465 -0.040997751 1.1135001
-0.01079089 -0.038258608 1.1190001
-0.0041601118 -0.035706632 1.1160001
0.0026829287 -0.031971265 1.113625
0.0062448797 -0.025476864 1.1178125
0.013767076 -0.023632694 1.113
0.0083384151 -0.017167326 1.1190001
0.014495402 -0.015121344 1.1162273
0.01667683 -0.0078479201 1.1190001
-0.043282129 0.046219401 1.11575
-0.037805375 0.045306712 1.1153333
-0.33047527 0.055566639 1.1120001
-0.32444045 0.06588883 1.1156363
-0.30770385 0.086000122 1.1190001
-0.30280378 0.094511554 1.1147143
-0.29830509 0.097485334 1.1120001
-0.030220453 0.098460183 1.1120001
-0.026420478 0.097443752 1.1162857
-0.30008739 0.10068078 1.115
-0.29363579 0.10303042 1.115
-0.28823164 0.10625901 1.1120001
-0.073329069 0.10853308 1.1153334
-0.066707321 0.10888989 1.1190001
-0.032243446 0.10572635 1.1146001
-0.027760819 0.10157558 1.1176667
-0.29135403 0.11183286 1.1190001
-0.28589004 0.11329329 1.113
-0.27627343 0.11834719 1.1120001
-0.081960447 0.1170876 1.113
-0.076707929 0.11495325 1.1163077
-0.043344006 0.11275322 1.1151667
-0.035961185 0.11179637 1.1141818
-0.27347401 0.1243543 1.1137273
-0.26710981 0.12770578 1.1120001
-0.084399007 0.12436926 1.1157858
-0.079460189 0.12164276 1.1190001
-0.27243808 0.13223176 1.1172857
-0.26557794 0.13474762 1.1162
-0.25802293 0.13803577 1.1127501
-0.10138474 0.13940403 1.1120001
-0.094207704 0.13605297 1.1164999
-0.089270093 0.13047168 1.1190001
-0.2638863 0.14028157 1.1190001
-0.25397459 0.1428353 1.1148572
-0.24503936 0.14618592 1.1148572
-0.23818639 0.14935376 1.1135001
-0.10193179 0.14505939 1.118
-0.097765207 0.14334179 1.118
-0.24230453 0.15009147 1.1190001
-0.2338789 0.15461858 1.11625
-0.2255979 0.15918688 1.1140001
-0.099079989 0.15107246 1.1190001
-0.22349404 0.16280854 1.1165
-0.21571122 0.16553709 1.1150835
-0.20783049 0.16815138 1.113
-0.10195883 0.16723694 1.1137143
-0.099079989 0.16578731 1.1190001
-0.20437256 0.17151193 1.1154001
-0.19523175 0.17608008 1.1145999
-0.12023045 0.17887945 1.115
-0.11415828 0.1766759 1.1141875
-0.10509949 0.17500322 1.1168261
-0.18523379 0.1852334 1.1145716
-0.17538667 0.18807554 1.1135
-0.16864963 0.1881467 1.1120001
-0.12384318 0.18580055 1.1151577
-0.11673781 0.18344514 1.1190001
-0.10692791 0.18148315 1.1190001
-0.1854071 0.19129305 1.1190001
-0.17461622 0.19129305 1.1190001
-0.16475986 0.19234973 1.1150001
-0.15662107 0.19572845 1.1152
-0.14662251 0.19842912 1.115
-0.13225377 0.19594271 1.1142
-0.12649073 0.19228965 1.1168001
-0.01476745 -0.040364362 1.123
-0.012815551 -0.036802322 1.1245
-0.0064044883 -0.032263305 1.12375
-0.0023675263 -0.025833789 1.1248001
0.0025162282 -0.022868335 1.1233335
-0.00098712661 -0.018755406 1.126
0.0049268156 -0.014785395 1.1244118
0.010829464 -0.010829464 1.123
0.0082260557 -0.0082260557 1.126
0.013903739 -0.0064588902 1.1240001
-0.046312544 0.048283294 1.1240001
-0.036426377 0.048240338 1.123
-0.042713076 0.052862622 1.1255714
-0.037805665 0.050956834 1.125
-0.32832962 0.069407016 1.123
-0.32476467 0.074528061 1.126
-0.31508434 0.078934632 1.1255001
-0.31246576 0.085717335 1.1238573
-0.30814746 0.089589193 1.123
-0.31151691 0.093653858 1.1245
-0.30814746 0.092542686 1.123
-0.30119517 0.10412228 1.1240001
-0.29625741 0.10702996 1.1242001
-0.069899261 0.10927913 1.123
-0.030519396 0.10927913 1.123
-0.026616916 0.10449735 1.1245
-0.29475769 0.11238384 1.1245
-0.072703287 0.11484903 1.1245
-0.068707585 0.11210433 1.125
-0.050209329 0.11321712 1.123
-0.28133109 0.12536508 1.126
-0.27820432 0.12776774 1.1240001
-0.082442321 0.12842758 1.1240001
-0.077632338 0.12396745 1.1245
-0.2687676 0.13487604 1.123
-0.092296042 0.13828132 1.1240001
-0.088472478 0.13353196 1.1255001
-0.26533905 0.14338925 1.1241251
-0.25532523 0.14639369 1.1245
-0.24907765 0.14865899 1.123
-0.094893746 0.14507575 1.1243638
-0.24524941 0.15319778 1.1250001
-0.23791209 0.15709709 1.1242001
-0.10140315 0.15062799 1.123
-0.097659133 0.15240784 1.12525
-0.23182026 0.16227517 1.1252501
-0.22597952 0.16619992 1.1240001
-0.21757376 0.16834892 1.123
-0.098087601 0.1670931 1.1245
-0.22012925 0.17077291 1.126
-0.21437201 0.17177546 1.1248
-0.20481925 0.1760651 1.1255715
-0.19985282 0.1762249 1.123
-0.10140315 0.1781939 1.123
-0.097847387 0.17485434 1.1239232
-0.19381161 0.18395299 1.1245
-0.11411227 0.18635909 1.1237501
-0.10574556 0.18462592 1.1246876
-0.098219104 0.18113774 1.126
-0.19051544 0.19051544 1.126
-0.18400112 0.19228561 1.1248
-0.17374897 0.19494525 1.1245
-0.16544452 0.19754781 1.1242858
-0.15300463 0.19841246 1.126
-0.13093805 0.19985282 1.123
-0.12384088 0.19548802 1.1233751
-0.11655527 0.19221336 1.1256667
-0.10957106 0.19051544 1.126
-0.15497889 0.20038672 1.126
-0.14806899 0.20236097 1.126
-0.13523635 0.20310131 1.126
-0.12832646 0.20038672 1.126
-0.014186219 -0.033155058 1.1336364
-0.0089157 -0.030709634 1.13
-0.013456833 -0.025664857 1.1370001
-0.0066901357 -0.024032474 1.1329334
-0.011624016 -0.01826798 1.1366667
-0.0048845364 -0.015305679 1.1353334
0.0014877033 -0.012403957 1.132
-0.00099764671 -0.0089788204 1.138
0.0051896726 -0.0049710893 1.1344445
0.014506283 -0.0022527145 1.1307273
0.0075758034 0.0037896545 1.1372001
0.014906628 0.0049725235 1.1338401
0.020803301 0.0089157 1.13
0.0089788204 0.01197176 1.138
0.015498297 0.013730939 1.1366668
0.020906394 0.014937347 1.1356001
0.018955287 0.02095058 1.138
0.02095058 0.02095058 1.138
-0.043587871 0.054484833 1.13
-0.036158118 0.055640575 1.13
-0.036694344 0.060499936 1.1313334
-0.3230955 0.078537062 1.1340001
-0.31997457 0.078260034 1.13
-0.32185999 0.084705293 1.1366667
-0.31878579 0.083015069 1.13
-0.32024458 0.091783494 1.138
-0.31713066 0.093452662 1.1340001
-0.30122441 0.10836126 1.1340001
-0.29818064 0.1099603 1.13
-0.024157621 0.10624557 1.1326667
-0.0713256 0.11788537 1.13
-0.064809635 0.11523176 1.1350667
-0.053779989 0.11452773 1.136
-0.025891474 0.11054416 1.136
-0.0802413 0.12977296 1.13
-0.073498599 0.12569574 1.1321176
-0.068198398 0.12372848 1.1368572
-0.090147629 0.1396793 1.13
-0.083809026 0.13544697 1.1325883
-0.075541772 0.13315721 1.1363335
-0.26344711 0.14812686 1.1340001
-0.25687912 0.14843895 1.1313334
-0.091468476 0.14606339 1.13
-0.085830532 0.14379418 1.1355557
-0.25430378 0.15429053 1.1340001
-0.24553941 0.15832338 1.1305001
-0.10005397 0.15850133 1.13
-0.093824282 0.15549672 1.1311427
-0.086717352 0.15396197 1.1351429
-0.24458094 0.16360705 1.1333333
-0.23606034 0.16480201 1.1318183
-0.22824718 0.16969812 1.132
-0.10005397 0.16246387 1.13
-0.093820944 0.16504562 1.1338263
-0.086707078 0.16387929 1.1368573
-0.23245168 0.17059758 1.138
-0.22310485 0.17493181 1.1344446
-0.2156063 0.17611004 1.1314546
-0.20704235 0.17831399 1.13
-0.093516044 0.17495513 1.1348571
-0.088790551 0.17059758 1.138
-0.21050344 0.18256934 1.138
-0.20286693 0.18410526 1.1351429
-0.19733642 0.18685296 1.1311429
-0.10203522 0.18807881 1.13
-0.094075866 0.18561539 1.1327826
-0.19363403 0.19230385 1.1326667
-0.18450019 0.19666789 1.133
-0.17637156 0.19875263 1.1311429
-0.12294461 0.19929351 1.131
-0.11412388 0.196288 1.1336666
-0.10446088 0.19403708 1.1324444
-0.094791248 0.19422743 1.1342223
-0.18256934 0.20152463 1.138
-0.17364636 0.20356075 1.1374286
-0.16459322 0.20306483 1.1329091
-0.15518549 0.20394303 1.133077
-0.14389712 0.20571859 1.1336
-0.13322484 0.20716114 1.132
-0.12551562 0.20456059 1.1345333
-0.11672466 0.20052698 1.138
-0.14066818 0.21050344 1.138
-0.1346823 0.2109025 1.138
-0.12869641 0.21050344 1.138
-0.018405033 -0.031788811 1.1450001
-0.0050013834 -0.011003044 1.141
-0.0024118852 -0.0044138413 1.1458001
0.0015047983 -0.002505075 1.1440001
-0.0020145799 0.00100729 1.149
0.0036802466 0.005190013 1.146
0.0072631836 0.014640626 1.1472223
0.013598227 0.018184947 1.1432858
0.0090656104 0.021153091 1.149
0.015840054 0.024141427 1.1472502
0.021938834 0.026246773 1.1450001
0.019138509 0.033240572 1.149
0.022664025 0.035758793 1.149
0.025182249 0.041298889 1.149
-0.32736924 0.083605066 1.149
-0.01309477 0.099721707 1.149
-0.31053022 0.10552231 1.1463333
-0.30716121 0.1084051 1.145
-0.015727498 0.1057751 1.1454445
-0.30314255 0.11242373 1.1450001
-0.061016876 0.11903292 1.141
-0.055950537 0.11766437 1.1453637
-0.0240908 0.11292562 1.1450001
-0.018131219 0.11180919 1.149
-0.063032478 0.12557007 1.1443335
-0.05805257 0.12315442 1.1483334
-0.073092334 0.13803455 1.1421429
-0.066960007 0.13493054 1.1453079
-0.081022412 0.14704067 1.141
-0.075199127 0.14539503 1.1437829
-0.067344531 0.14433026 1.149
-0.26204416 0.15188746 1.1423334
-0.25864151 0.15759398 1.1450001
-0.081355833 0.15570974 1.1409999
-0.075421512 0.15491748 1.1458699
-0.069167249 0.15344384 1.149
-0.23890042 0.16963938 1.1450001
-0.081689261 0.16637935 1.1409999
-0.075885624 0.16438283 1.1459094
-0.069503009 0.16015911 1.149
-0.24477147 0.17023201 1.149
-0.23588908 0.17164695 1.1450001
-0.2288626 0.17566207 1.1450001
-0.084999152 0.17551801 1.1434002
-0.077258818 0.17455332 1.1468463
-0.2232309 0.18200213 1.1470001
-0.21580873 0.18302666 1.1450001
-0.20714055 0.18753171 1.1470001
-0.084522061 0.18446313 1.1463335
-0.078064971 0.18231948 1.149
-0.20290188 0.19284065 1.1476668
-0.19975288 0.19373018 1.1450001
-0.1070296 0.19905506 1.141
-0.091025174 0.19905506 1.141
-0.087204657 0.19484648 1.1463333
-0.181894 0.20601754 1.1463333
-0.17577155 0.20700516 1.1438571
-0.16558242 0.20880033 1.1427143
-0.15504289 0.20905784 1.141
-0.14855993 0.20979072 1.1450001
-0.12103347 0.20805755 1.141
-0.11478032 0.20535818 1.1447501
-0.10602994 0.20378989 1.1468463
-0.095842563 0.20273179 1.1454445
-0.087634228 0.2004507 1.149
-0.17325388 0.21153089 1.149
-0.16397391 0.21326801 1.1475002
-0.1548509 0.21317554 1.1470002
-0.14564748 0.21234921 1.1458
-0.13450062 0.21598329 1.1458889
-0.12535484 0.2149909 1.1450002
-0.11852445 0.21186666 1.149
-0.13396958 0.22059651 1.149
-0.0050539831 -0.0050539835 1.153
-0.0014158166 0.0054646144 1.1537999
0.001684661 0.0084233051 1.153
0.0037082024 0.014952524 1.1543334
0.007086447 0.024707975 1.155
0.01315 0.027821453 1.1539999
