# .PCD v0.7 - Point Cloud Data file format
VERSION 0.7
FIELDS x y z
SIZE 4 4 4
TYPE F F F
COUNT 1 1 1
WIDTH 1483
HEIGHT 1
VIEWPOINT 0 0 0 1 0 0 0
POINTS 1483
DATA ascii
-0.32789966 -0.073802181 1.13
-0.31997457 -0.070334964 1.13
-0.29208443 -0.073992692 1.13
-0.2843543 -0.074895538 1.1315
-0.27448156 -0.074771419 1.134889
-0.26518625 -0.073861495 1.1378099
-0.25772539 -0.071498007 1.138
-0.36139748 -0.06310115 1.138
-0.35481724 -0.064898759 1.1345
-0.34612969 -0.064734824 1.1302222
-0.33820224 -0.06597618 1.13
-0.32789963 -0.068353698 1.13
-0.29204887 -0.066817075 1.1308
-0.28233051 -0.066702642 1.13
-0.27316716 -0.065877117 1.13
-0.26402089 -0.064875871 1.1345928
-0.25789165 -0.063350558 1.138
-0.36331943 -0.054987933 1.1380002
-0.35541138 -0.05659106 1.1361818
-0.2626504 -0.055475347 1.1339999
-0.25596753 -0.053627271 1.1370003
-0.24841402 -0.050879981 1.138
-0.26092231 -0.04780113 1.136
-0.25409389 -0.04624122 1.1375792
-0.24841402 -0.045891747 1.138
-0.25340223 0.0089788204 1.138
-0.41259813 0.018100161 1.138
-0.4034169 0.016522912 1.1374286
-0.3943814 0.015032122 1.1365459
-0.38439626 0.014770149 1.1356003
-0.37520349 0.016286157 1.1352632
-0.36443052 0.015727926 1.1358001
-0.3549718 0.016027924 1.1358001
-0.3466112 0.017589636 1.1357777
-0.29330811 0.018955287 1.138
-0.28477266 0.018068491 1.138
-0.27458116 0.017831987 1.1371112
-0.26433799 0.016276387 1.136889
-0.2545211 0.015029189 1.136609
-0.24489088 0.015554885 1.1369569
-0.23633894 0.016632525 1.1367692
-0.42000926 0.028931754 1.138
-0.41341063 0.024900198 1.1363159
-0.40509298 0.024336487 1.13325
-0.39538732 0.022807224 1.1312308
-0.38461342 0.021546274 1.13
-0.3747896 0.021133512 1.13
-0.36529604 0.021546276 1.13
-0.3555516 0.021730656 1.1314546
-0.34425735 0.023082195 1.1325002
-0.33508888 0.026168913 1.1354117
-0.3241204 0.026503969 1.1366668
-0.31483823 0.025312098 1.1348889
-0.30482373 0.02482971 1.1331429
-0.29437837 0.023907319 1.1337649
-0.28422809 0.024011103 1.1329093
-0.27495092 0.024242366 1.1313334
-0.26564705 0.022278331 1.1318183
-0.25532493 0.022680869 1.132
-0.24554637 0.023492716 1.1324445
-0.23422316 0.02308676 1.1335294
-0.22530204 0.025380237 1.1355003
-0.21535531 0.027235609 1.1376926
-0.43597159 0.038908221 1.138
-0.42381638 0.035866622 1.1365001
-0.41544327 0.034205195 1.131
-0.40764561 0.03120495 1.13
-0.32432166 0.03074587 1.1313334
-0.31799328 0.030709634 1.13
-0.23081757 0.033681534 1.13
-0.22473547 0.034332324 1.1301737
-0.21513453 0.034762256 1.1352415
-0.20451756 0.032257244 1.138
-0.44331414 0.04709585 1.1370001
-0.43478549 0.044955179 1.1353335
-0.42549545 0.044733495 1.1340001
-0.41626409 0.044974748 1.13
-0.22140655 0.042101916 1.13
-0.21442901 0.044388268 1.1324284
-0.20892662 0.048162315 1.1366667
-0.44420218 0.052127041 1.138
-0.43551329 0.054499317 1.1374785
-0.42504445 0.054619838 1.1328001
-0.41659042 0.054135196 1.13
-0.21298616 0.052008249 1.13
-0.20548418 0.054811873 1.1333045
-0.19757016 0.058297981 1.1348001
-0.43264613 0.063184291 1.138
-0.42491591 0.064824529 1.1346669
-0.41452917 0.064415358 1.1303999
-0.40913156 0.068353698 1.13
-0.20251374 0.062126856 1.13
-0.19502573 0.064773887 1.1330001
-0.431981 0.073825851 1.138
-0.42519188 0.074878 1.1364617
-0.41480419 0.074664742 1.134182
-0.40579176 0.074860223 1.1314117
-0.39684772 0.077863783 1.13
-0.20251374 0.075429656 1.13
-0.19513409 0.074224398 1.1312306
-0.18833256 0.075498529 1.1356667
-0.42372769 0.084074408 1.1380004
-0.41418055 0.08475925 1.1374786
-0.40525153 0.084537365 1.1344707
-0.39697981 0.08354342 1.13
-0.2035044 0.085477509 1.13
-0.19495346 0.084610716 1.1325715
-0.18802221 0.083345748 1.1372
-0.42120638 0.09417785 1.1380001
-0.41550002 0.093753658 1.1356666
-0.40573993 0.090275265 1.1316
-0.22512142 0.095843777 1.13
-0.21470329 0.095166825 1.13
-0.20508957 0.094123475 1.1301597
-0.19486462 0.094454877 1.1341335
-0.43290675 0.10896967 1.13
-0.42126289 0.10157937 1.136
-0.23081757 0.1040165 1.13
-0.20507367 0.10447316 1.1325182
-0.19639415 0.10280471 1.1357501
-0.44488293 0.1183009 1.1340001
-0.43568054 0.11867788 1.13
-0.42399105 0.11986663 1.13
-0.22487377 0.11194157 1.13
-0.21475816 0.11528134 1.1327275
-0.20701459 0.11319043 1.1368573
-0.44497398 0.12383886 1.1370771
-0.43541792 0.125278 1.1351112
-0.42559862 0.12527663 1.133111
-0.41639623 0.12746149 1.13
-0.40913156 0.12977296 1.13
-0.21203387 0.12227522 1.1339999
-0.20661311 0.1269162 1.1340001
-0.43297863 0.13168935 1.138
-0.42439193 0.13413312 1.1362611
-0.41431344 0.13468307 1.1333334
-0.40531805 0.13581797 1.1320001
-0.39673272 0.13739927 1.1308
-0.20325662 0.13434683 1.131
-0.19820908 0.13590613 1.1316
-0.42200455 0.14166582 1.138
-0.41339985 0.14353642 1.1380002
-0.40453652 0.1442064 1.1359049
-0.39601552 0.14457878 1.1324999
-0.38882357 0.14364183 1.13
-0.21246815 0.14648606 1.131091
-0.20543189 0.14517517 1.1337895
-0.19826168 0.14332038 1.1326667
-0.41003278 0.15363759 1.138
-0.4053255 0.1542438 1.13425
-0.39837313 0.15108298 1.1313334
-0.23081757 0.15850133 1.13
-0.22469367 0.15823117 1.13
-0.21428543 0.15526702 1.13272
-0.20674507 0.15331472 1.1377145
-0.41410172 0.16694519 1.1357778
-0.40764561 0.16890298 1.13
-0.23419344 0.16666783 1.1328236
-0.22482586 0.16489378 1.1353334
-0.21483511 0.16240695 1.1355999
-0.41414374 0.17545062 1.1371112
-0.40493688 0.1752544 1.1345333
-0.39594924 0.17709388 1.1313334
-0.386347 0.17930463 1.13
-0.23429048 0.17413625 1.13425
-0.22964634 0.17993934 1.1340001
-0.41302574 0.18057404 1.138
-0.40354806 0.18057404 1.138
-0.39329141 0.18502995 1.1370772
-0.38489699 0.18504609 1.1351765
-0.3752439 0.18618952 1.1318947
-0.36884582 0.18722969 1.13
-0.33780596 0.18921097 1.13
-0.22518711 0.18505105 1.1322857
-0.21970494 0.18988074 1.1340001
-0.38380894 0.19169068 1.138
-0.37421539 0.1944419 1.1365715
-0.36527464 0.19560523 1.1336364
-0.35408741 0.19838692 1.1322857
-0.34456244 0.19749944 1.1335001
-0.335585 0.19483441 1.1335295
-0.32646346 0.19672227 1.1326667
-0.31425589 0.19925827 1.1308
-0.3001619 0.1991173 1.13
-0.29553893 0.1991173 1.13
-0.24072389 0.1991173 1.13
-0.23454723 0.19886202 1.1308
-0.22416744 0.19710472 1.1314286
-0.21773945 0.19518983 1.135
-0.36214575 0.200527 1.138
-0.35383201 0.20252228 1.138
-0.34418806 0.20172414 1.138
-0.33341354 0.20092604 1.138
-0.32435989 0.20389403 1.1380002
-0.31415597 0.20527996 1.1363531
-0.30452365 0.20478427 1.1342105
-0.29450071 0.20461769 1.1330001
-0.28513873 0.20493136 1.1337647
-0.27538499 0.20604326 1.1326667
-0.26456445 0.20611471 1.1318182
-0.25514916 0.20542972 1.1344446
-0.24465156 0.20491779 1.1367501
-0.23551583 0.20455964 1.1347501
-0.22719459 0.20295008 1.1366667
-0.3122634 0.21050344 1.138
-0.30328459 0.21050344 1.138
-0.2945908 0.21107353 1.138
-0.28469208 0.21177317 1.1380001
-0.27435285 0.21150109 1.1380001
-0.26504147 0.21083599 1.138
-0.25639519 0.21050344 1.138
-0.33465144 -0.092455603 1.1463333
-0.32842419 -0.09235888 1.141
-0.301135 -0.093351848 1.1450001
-0.2960819 -0.093025729 1.141
-0.2790772 -0.091025174 1.141
-0.35472035 -0.082164705 1.1430001
-0.34452674 -0.086440854 1.1443686
-0.33559889 -0.087409973 1.1434001
-0.32809073 -0.089024626 1.141
-0.27463153 -0.086579494 1.1409999
-0.37236154 -0.072189115 1.149
-0.36536971 -0.073255301 1.1475457
-0.35687318 -0.076596029 1.1445556
-0.25307 -0.071019642 1.141
-0.37229785 -0.064977854 1.1481112
-0.36654937 -0.066419341 1.1450002
-0.25350013 -0.065406889 1.1412499
-0.24582478 -0.0641414 1.1450002
-0.23931597 -0.062343273 1.1470001
-0.37401244 -0.0547699 1.1463335
-0.36710155 -0.054681789 1.1409999
-0.35909933 -0.05101411 1.141
-0.25186965 -0.057415884 1.141
-0.24488488 -0.055534758 1.1422729
-0.23763868 -0.055639505 1.1470002
-0.37480074 -0.044636194 1.1468003
-0.36529505 -0.046676476 1.1420001
-0.35909933 -0.049013555 1.141
-0.25407028 -0.042011619 1.141
-0.24337013 -0.04477137 1.14125
-0.23931596 -0.045249153 1.1470001
-0.37672645 -0.039284311 1.149
-0.25194961 -0.039147548 1.1450001
-0.24383824 -0.036195107 1.1470001
-0.23797226 -0.034499682 1.149
-0.23651168 -0.026793912 1.149
-0.38498625 -0.0022160378 1.149
-0.37631166 -0.0037328983 1.149
-0.3660492 -0.0022160381 1.149
-0.35960254 -0.0020145799 1.149
-0.27096102 -0.00100729 1.149
-0.26425177 -0.0037753647 1.1477501
-0.25505698 -0.0035481472 1.1471055
-0.24497201 -0.0027103163 1.1477693
-0.23671313 -0.0020145799 1.149
-0.41327906 0.00904983 1.1470001
-0.40381631 0.0080144871 1.143
-0.39493215 0.0054903976 1.1451906
-0.3853564 0.0050124652 1.1453203
-0.37519228 0.0052408106 1.1460373
-0.3651247 0.0048546884 1.1468335
-0.35508195 0.0053397072 1.1461202
-0.34692815 0.0068621486 1.1482729
-0.33945674 0.0090656104 1.149
-0.32736924 0.0090656104 1.149
-0.31286427 0.0082597779 1.149
-0.30722344 0.0070510302 1.149
-0.29352045 0.0086500701 1.1474001
-0.28397936 0.0073689674 1.1466669
-0.27424258 0.0051122424 1.1466366
-0.26453346 0.0051940838 1.1419525
-0.25541893 0.0043957205 1.1425655
-0.24525905 0.0050879554 1.1426668
-0.23605479 0.0052733026 1.1441307
-0.42168716 0.018114563 1.1480001
-0.41477701 0.013042462 1.1446668
-0.40629071 0.012508282 1.1415
-0.37270308 0.011803265 1.141
-0.36610126 0.011003044 1.141
-0.35409796 0.011003044 1.141
-0.34418195 0.013367997 1.1438891
-0.33505726 0.015470467 1.145167
-0.32495785 0.015229159 1.1458336
-0.31462905 0.015053801 1.1451603
-0.30473128 0.014966968 1.1450003
-0.2950972 0.014467142 1.1427779
-0.28507885 0.013003597 1.1409999
-0.27507609 0.013003599 1.1409999
-0.26593068 0.011574629 1.1409999
-0.25907165 0.011003044 1.141
-0.24406751 0.011003044 1.141
-0.23284608 0.012582798 1.1432223
-0.22612451 0.016212197 1.1447897
-0.21920523 0.019105196 1.1470001
-0.43179166 0.027868355 1.149
-0.42498079 0.025006542 1.1475716
-0.41911593 0.025006916 1.141
-0.34109434 0.021005809 1.141
-0.33394951 0.021863189 1.1409999
-0.32620132 0.022117229 1.1409999
-0.315754 0.021005809 1.141
-0.30508438 0.021005809 1.141
-0.29908273 0.021005809 1.141
-0.22106114 0.021005809 1.141
-0.21592134 0.022605045 1.1432222
-0.20705728 0.029008023 1.141
-0.43363672 0.034170713 1.1466001
-0.42786503 0.032563344 1.143
-0.20491378 0.036438655 1.1409999
-0.19885109 0.038435113 1.1436667
-0.20395911 0.044731624 1.1423335
-0.19699736 0.04598679 1.1447649
-0.45374724 0.055757686 1.1468464
-0.44610482 0.057116412 1.143
-0.43912145 0.059016325 1.141
-0.20205589 0.05101411 1.141
-0.19456691 0.054105233 1.1418422
-0.18849473 0.056716826 1.1416668
-0.45479992 0.065408558 1.1464403
-0.444803 0.065083988 1.1474001
-0.43691126 0.065344684 1.1427779
-0.18513952 0.065585315 1.1435264
-0.17898378 0.069382027 1.1470001
-0.45616886 0.07418295 1.1486667
-0.44320756 0.075546749 1.149
-0.43625224 0.075314634 1.143154
-0.18260337 0.07454136 1.1413332
-0.17898378 0.075415254 1.1470002
-0.4542878 0.081590489 1.149
-0.44242415 0.085171953 1.149
-0.43511188 0.085421629 1.144778
-0.42778501 0.08769092 1.141
-0.1827172 0.085690357 1.1409999
-0.17892171 0.085441515 1.1466001
-0.43279895 0.093845852 1.149
-0.42739868 0.096833274 1.1482
-0.18420959 0.09510956 1.1420001
-0.17898379 0.09552598 1.1470001
-0.43011284 0.10375086 1.149
-0.42809826 0.10274358 1.149
-0.19280331 0.10727967 1.1409999
-0.18519729 0.10497121 1.1440003
-0.20313525 0.11707873 1.1414444
-0.19515996 0.11569764 1.1454288
-0.18729439 0.11346591 1.1474001
-0.44668359 0.12948805 1.1450001
-0.20355146 0.12382177 1.143
-0.1980094 0.12548816 1.1465387
-0.45025861 0.13195498 1.149
-0.44460192 0.13471451 1.1467502
-0.43583411 0.13532488 1.1434
-0.42811841 0.13903846 1.141
-0.19841217 0.13216715 1.145
-0.44018573 0.1410206 1.149
-0.43467999 0.14404304 1.1479335
-0.42533529 0.14518501 1.1435454
-0.41660133 0.14788169 1.1423334
-0.19672954 0.14796409 1.143
-0.42306179 0.15210079 1.149
-0.41595697 0.15418521 1.1470001
-0.20219877 0.15704344 1.1409999
-0.19531547 0.15506878 1.1434619
-0.18971504 0.15558642 1.1450001
-0.41601077 0.16015911 1.149
-0.22906336 0.16904676 1.141
-0.21415171 0.16812055 1.1415
-0.20511393 0.16529983 1.1433638
-0.196301 0.16311246 1.1473335
-0.42303339 0.17605932 1.1438571
-0.41911593 0.17504841 1.141
-0.22509015 0.17503683 1.1420003
-0.21544363 0.17522179 1.1448337
-0.20801184 0.17293766 1.1478571
-0.4229345 0.18416034 1.1479092
-0.41418466 0.1846402 1.1434002
-0.40521103 0.1858758 1.1437501
-0.39830428 0.18788326 1.1430001
-0.22199875 0.18419425 1.1450001
-0.21762249 0.18299279 1.1482002
-0.41399619 0.19037779 1.149
-0.40507445 0.19210459 1.149
-0.3948147 0.19476256 1.1463335
-0.38535899 0.19664755 1.1439092
-0.37598276 0.19952027 1.1436667
-0.21380585 0.19975288 1.1450001
-0.38478479 0.20145801 1.149
-0.37500861 0.20401657 1.1473335
-0.36533076 0.20569852 1.1452501
-0.35512814 0.2074628 1.1440771
-0.34448484 0.20709409 1.1434002
-0.33540773 0.20608044 1.1425
-0.32575679 0.20872439 1.1409999
-0.24706833 0.20905782 1.141
-0.23146892 0.208424 1.1430001
-0.22505714 0.20720725 1.1428182
-0.21638602 0.20447148 1.1442944
-0.36665356 0.21052361 1.149
-0.35557339 0.21213527 1.149
-0.34568009 0.21282145 1.1481112
-0.33468717 0.21243249 1.1484287
-0.32452783 0.21395151 1.1466669
-0.31494734 0.21511501 1.1434001
-0.30483568 0.21539576 1.1420667
-0.29477751 0.21704999 1.1422502
-0.284152 0.21760415 1.1422309
-0.2750577 0.21710189 1.1427143
-0.2648392 0.2163496 1.1428667
-0.25500318 0.21538818 1.1433531
-0.24523148 0.21442007 1.143737
-0.23572749 0.21432629 1.1447779
-0.22502895 0.21194206 1.1485001
-0.21791041 0.21119513 1.149
-0.30453733 0.22059651 1.149
-0.28204119 0.22261108 1.149
-0.27458724 0.22180526 1.149
-0.26458153 0.22193956 1.149
-0.25685894 0.22059651 1.149
-0.24477147 0.22059651 1.149
-0.34359255 -0.092817076 1.155
-0.34468165 -0.089960903 1.153
-0.38137805 -0.063901111 1.1570001
-0.37731594 -0.064835377 1.153
-0.38256902 -0.053206213 1.156
-0.37854335 -0.058120809 1.153
-0.23407063 -0.053705979 1.1558571
-0.38323337 -0.04578216 1.1547778
-0.37096238 -0.041442662 1.153
-0.36590838 -0.043464255 1.153
-0.23652641 -0.04548585 1.153
-0.38370654 -0.036024112 1.1552857
-0.37509879 -0.038117755 1.1543332
-0.25120911 -0.035500616 1.1570001
-0.24697132 -0.032008562 1.153
-0.23479931 -0.034964766 1.1548461
-0.24512441 -0.025320062 1.1553998
-0.23369196 -0.024527032 1.1559998
-0.22821824 -0.023328977 1.1570001
-0.39224556 -0.01260634 1.1570002
-0.38399589 -0.014472581 1.1546469
-0.37450972 -0.014845476 1.1543332
-0.36559531 -0.013648823 1.155588
-0.35399187 -0.013554781 1.1569999
-0.34993464 -0.013185943 1.1570001
-0.2718333 -0.011157337 1.1570001
-0.26484248 -0.013176299 1.1559998
-0.2549625 -0.013808837 1.1553158
-0.2447497 -0.014885345 1.1565198
-0.23434879 -0.015357107 1.1560767
-0.22821824 -0.016228853 1.1570001
-0.39504471 -0.004614091 1.1547776
-0.38595581 -0.0074125095 1.153
-0.37410706 -0.0077494415 1.153
-0.36454391 -0.0069681364 1.1536666
-0.35502392 -0.0048020361 1.1549128
-0.34902355 -0.0043103509 1.1565001
-0.3338902 -0.0034117475 1.1569999
-0.32683107 -0.0046207146 1.1569998
-0.31477213 -0.0025921084 1.1570001
-0.30507988 -0.00304291 1.1570001
-0.29279554 -0.0027048087 1.1570001
-0.28517917 -0.0030423705 1.1563846
-0.27544415 -0.0044705356 1.1548822
-0.26710302 -0.0080863731 1.153
-0.25486514 -0.0085195722 1.153
-0.24518859 -0.0075836056 1.1533333
-0.23421486 -0.0058228932 1.1553332
-0.22821824 -0.0050715166 1.1570001
-0.40431866 0.0050539831 1.153
-0.39825389 0.0010107966 1.153
-0.35175723 0.0010107966 1.153
-0.34438771 0.003867286 1.1544117
-0.33513054 0.0050584716 1.1549199
-0.32495418 0.004891654 1.1553332
-0.31478673 0.0042467481 1.1541998
-0.30470812 0.0047936509 1.154739
-0.2947886 0.0043158294 1.1551052
-0.28493235 0.0023585255 1.153
-0.27999067 0.0020215933 1.153
-0.23164932 0.0039332137 1.1538889
-0.22818232 0.005673436 1.1557999
-0.42603752 0.017203415 1.1543332
-0.33558449 0.011118763 1.153
-0.32446572 0.011118763 1.153
-0.22325422 0.012611329 1.1551818
-0.21793218 0.016629491 1.1547143
-0.43565336 0.028302306 1.153
-0.42857778 0.02122673 1.153
-0.21503231 0.02130037 1.1570001
-0.4528369 0.069744967 1.153
-0.44879371 0.069744967 1.153
-0.17790022 0.068734169 1.153
-0.45462525 0.076431781 1.153
-0.44879374 0.075809747 1.153
-0.17603028 0.07587637 1.154
-0.45525825 0.084570572 1.1548666
-0.44793841 0.086695246 1.153
-0.17618196 0.085052446 1.155
-0.45136499 0.0923016 1.1570001
-0.44472 0.094397947 1.1555454
-0.43666419 0.096531071 1.153
-0.17625867 0.094207905 1.1554999
-0.44122195 0.10041603 1.1570001
-0.43643329 0.10342108 1.1555454
-0.18160646 0.10748138 1.153
-0.17864859 0.10401592 1.1556667
-0.18345943 0.11496612 1.1542307
-0.17953169 0.11258767 1.1570001
-0.19363025 0.12574224 1.1545384
-0.18722904 0.12440009 1.1559999
-0.44879371 0.13847914 1.153
-0.19564891 0.13279834 1.1563333
-0.18967472 0.13084513 1.1570001
-0.45198742 0.14593431 1.156
-0.44559529 0.14484107 1.1544117
-0.43767497 0.14858711 1.153
-0.19677484 0.14707398 1.1570001
-0.44325054 0.1528217 1.1570001
-0.4348546 0.15314902 1.1547142
-0.42666474 0.15639688 1.1546665
-0.41948062 0.15768427 1.153
-0.18901898 0.15869507 1.153
-0.42315328 0.16176458 1.1556667
-0.41948065 0.16273826 1.153
-0.20114854 0.16880304 1.153
-0.19367701 0.16668677 1.1546665
-0.18620397 0.16516946 1.155857
-0.43107891 0.17953169 1.1570001
-0.20479229 0.17566524 1.1557498
-0.19804274 0.17319229 1.1570001
-0.18967472 0.17141727 1.1570001
-0.44122195 0.18561751 1.1570001
-0.43514112 0.18652599 1.1559331
-0.4278197 0.18623929 1.153
-0.41846982 0.18901898 1.153
-0.21559128 0.1854644 1.1552498
-0.20928459 0.18223649 1.1570001
-0.43919334 0.19170333 1.1570001
-0.4215022 0.19104058 1.153
-0.41481763 0.19424237 1.1554999
-0.4060179 0.19694112 1.1539999
-0.39926469 0.19912694 1.153
-0.21892034 0.19193536 1.1543332
-0.40132603 0.20252256 1.1570001
-0.39422053 0.20318942 1.1553999
-0.385178 0.20626499 1.1552222
-0.37601635 0.20872951 1.153
-0.214018 0.20793217 1.1570001
-0.37406227 0.21288155 1.1563333
-0.3635349 0.2138304 1.1538
-0.35506579 0.21634936 1.155
-0.34436935 0.21684593 1.1545
-0.33505857 0.21703959 1.1538889
-0.326083 0.21893854 1.153
-0.24562359 0.21934287 1.153
-0.23248324 0.21732128 1.153
-0.22488822 0.21628769 1.1546665
-0.21647149 0.21444756 1.1556666
-0.35196325 0.22010382 1.1570001
-0.34587744 0.22010382 1.1570001
-0.33539629 0.22078003 1.1570001
-0.32472989 0.22234254 1.1563333
-0.31490305 0.22276278 1.155
-0.3037743 0.22534719 1.1557999
-0.29441443 0.22561665 1.1540666
-0.28513306 0.2260029 1.155
-0.2748982 0.2264598 1.1555454
-0.26562887 0.2259672 1.1558572
-0.25442204 0.22381814 1.1552222
-0.24541844 0.22314197 1.1552222
-0.23477425 0.2221095 1.156
-0.22517534 0.22010382 1.1570001
-0.28501925 0.23024686 1.1570001
-0.38595748 -0.060869593 1.1636667
-0.39045769 -0.051241167 1.169
-0.38557333 -0.056538425 1.1619999
-0.23225208 -0.05134666 1.1636667
-0.22937603 -0.050782669 1.1663333
-0.38778561 -0.04580145 1.161
-0.37175575 -0.041873984 1.165
-0.2619077 -0.042970695 1.1670001
-0.23322389 -0.04551065 1.1610001
-0.22897044 -0.044974752 1.166
-0.39116427 -0.034724765 1.1650001
-0.38369104 -0.031946901 1.1630001
-0.37573019 -0.034550019 1.166778
-0.3662397 -0.033495478 1.1686922
-0.35468793 -0.033210766 1.1671817
-0.34843993 -0.031769522 1.169
-0.26300693 -0.034750827 1.1689999
-0.25647774 -0.034255017 1.1663333
-0.23239994 -0.036980428 1.1610001
-0.22790627 -0.035772499 1.1658001
-0.39291725 -0.023980867 1.169
-0.38509676 -0.025696998 1.1646671
-0.37517604 -0.025535021 1.1648403
-0.36460307 -0.025362171 1.1642311
-0.35459527 -0.025688717 1.1630954
-0.34625292 -0.024721412 1.1668336
-0.33570287 -0.022106905 1.169
-0.32418579 -0.0218629 1.169
-0.27389199 -0.023906408 1.1686666
-0.26492175 -0.025576258 1.1667602
-0.25489363 -0.02549189 1.163
-0.22623883 -0.025605358 1.1633158
-0.39551955 -0.016151533 1.1658001
-0.38697138 -0.018931266 1.161
-0.37557191 -0.01933839 1.161
-0.3633582 -0.01730277 1.1610001
-0.35552886 -0.016833011 1.1610001
-0.34508148 -0.015316827 1.1646001
-0.33507484 -0.015625667 1.167609
-0.32524055 -0.015355797 1.1674002
-0.31532496 -0.014134498 1.1682003
-0.30465063 -0.014109073 1.167889
-0.29506847 -0.012794219 1.1673332
-0.28472325 -0.013951162 1.16775
-0.27570322 -0.015970698 1.1650002
-0.26542413 -0.018067222 1.1624547
-0.25513104 -0.018659851 1.1610001
-0.22622716 -0.015417419 1.163353
-0.3979637 -0.0091602895 1.161
-0.34491336 -0.0053758789 1.1624546
-0.33702406 -0.0071281767 1.1614445
-0.32246068 -0.0061993878 1.1610001
-0.31492698 -0.0065902537 1.1620667
-0.30444774 -0.0058908099 1.1623335
-0.29541811 -0.0063727093 1.1625
-0.28506881 -0.0079546981 1.1630001
-0.27887994 -0.0081424797 1.161
-0.22584261 -0.004945951 1.1640769
-0.30025396 0.00101781 1.161
-0.22384265 0.0054530208 1.1621765
-0.21781135 0.0091602895 1.161
-0.21549812 0.015452206 1.1610001
-0.46552667 0.060867261 1.1636667
-0.17423816 0.075511687 1.164
-0.17306028 0.084741525 1.1646667
-0.16909584 0.08915963 1.169
-0.45219868 0.099237785 1.1670001
-0.44749713 0.097370483 1.161
-0.17322545 0.09559387 1.1652858
-0.16953506 0.090897188 1.165
-0.45279801 0.10304866 1.1676667
-0.44526321 0.10521233 1.1636666
-0.17559277 0.10464905 1.1650001
-0.44784778 0.11170574 1.169
-0.18083091 0.11840523 1.161
-0.17849107 0.11479628 1.1656667
-0.18266971 0.12523606 1.1630001
-0.17934409 0.12195398 1.169
-0.19388942 0.13647443 1.16175
-0.18734433 0.13382076 1.163
-0.45292544 0.14351121 1.161
-0.44885421 0.14961807 1.161
-0.19591731 0.14400564 1.1650001
-0.18959232 0.1404008 1.169
-0.45141482 0.15436034 1.1638572
-0.4446727 0.15697582 1.161889
-0.43582624 0.15898192 1.161
-0.19574125 0.15064903 1.169
-0.44503692 0.16488859 1.1670003
-0.43489635 0.1653858 1.1645
-0.4274061 0.16586894 1.1623335
-0.44658646 0.17414114 1.1689999
-0.4350208 0.17417699 1.1671537
-0.42880133 0.17240264 1.1636667
-0.19412668 0.17606725 1.1618001
-0.18657774 0.17536843 1.1630001
-0.44431677 0.18335508 1.1660908
-0.43701658 0.18183425 1.1619999
-0.21136521 0.1876163 1.161
-0.20440231 0.18494974 1.1626364
-0.19606212 0.18285492 1.1662307
-0.18824488 0.18210822 1.1670001
-0.4408969 0.1960267 1.1658001
-0.43460399 0.19587119 1.1643335
-0.42571309 0.1963015 1.1634001
-0.4167932 0.19796404 1.161
-0.22033702 0.19779091 1.169
-0.2141346 0.19520149 1.165182
-0.20646064 0.19360621 1.1667143
-0.43580613 0.20419608 1.169
-0.42510808 0.2042577 1.1684666
-0.41552207 0.20444305 1.166
-0.40612864 0.20561691 1.1634001
-0.39470252 0.20826812 1.1634001
-0.2152129 0.2018902 1.169
-0.41197896 0.21008877 1.169
-0.40463439 0.2119676 1.1689999
-0.39539295 0.21494485 1.1687779
-0.38589442 0.21491842 1.1655334
-0.37590954 0.21674545 1.1638572
-0.36589494 0.21865207 1.1636667
-0.35826913 0.21882915 1.161
-0.21322645 0.21526638 1.1637692
-0.39199489 0.22084944 1.169
-0.3834303 0.22311865 1.1689999
-0.37520576 0.22426626 1.1686193
-0.36541954 0.22522023 1.1668949
-0.35505524 0.22551566 1.1645558
-0.34512132 0.22507167 1.1630002
-0.33516821 0.22594096 1.1626667
-0.32615307 0.22761272 1.1642728
-0.31542233 0.2282244 1.1656667
-0.30877808 0.22911537 1.1650001
-0.29007584 0.22900724 1.161
-0.28193337 0.22900724 1.161
-0.26410112 0.22879948 1.1616668
-0.25614032 0.22847198 1.1627144
-0.24537602 0.22806832 1.1614001
-0.23463632 0.22750814 1.1620001
-0.22493987 0.2257002 1.1643685
-0.216813 0.22356911 1.1666
-0.36244583 0.23126847 1.169
-0.3550005 0.23308097 1.1686665
-0.34462014 0.23226227 1.1689999
-0.33511725 0.23304485 1.169
-0.3240459 0.23455848 1.1683686
-0.31526807 0.23446879 1.1690001
-0.30437252 0.23406966 1.1689999
-0.2941919 0.23469196 1.16775
-0.28516757 0.23513795 1.1665384
-0.27538413 0.23466146 1.164579
-0.26529828 0.23410822 1.1667501
-0.25493255 0.23460354 1.1678572
-0.24413744 0.23406306 1.1674615
-0.23562232 0.23328488 1.1678572
-0.22648595 0.23058526 1.169
-0.30437252 0.2418583 1.169
-0.29435205 0.2421999 1.169
-0.28423551 0.24260844 1.1676668
-0.27501005 0.24156131 1.1681112
-0.2681621 0.24151669 1.169
-0.39349359 -0.061806753 1.1750001
-0.39458624 -0.055867691 1.1758001
-0.36836568 -0.050559998 1.177
-0.2280359 -0.050559998 1.177
-0.39428285 -0.045029398 1.1763334
-0.3721748 -0.04278703 1.1760001
-0.36574072 -0.043101318 1.1762002
-0.35549971 -0.042480472 1.1766365
-0.34691584 -0.041239277 1.1760001
-0.26602209 -0.041462168 1.1750001
-0.22600468 -0.043242898 1.1745001
-0.3725982 -0.037362654 1.1730001
-0.36475006 -0.037325617 1.1745001
-0.35468987 -0.036621522 1.1734002
-0.34451878 -0.035151426 1.1738423
-0.33672273 -0.03336272 1.177
-0.32502857 -0.031986937 1.177
-0.31608596 -0.03267483 1.177
-0.27348918 -0.034165893 1.1750002
-0.26736578 -0.035991549 1.1730002
-0.22401409 -0.034828387 1.1754001
-0.39385039 -0.029821569 1.1730001
-0.34269094 -0.02853616 1.1730002
-0.33409896 -0.026898952 1.1730002
-0.32503128 -0.027141271 1.1737502
-0.31529382 -0.025823779 1.1746298
-0.30461231 -0.025144821 1.1757828
-0.29562369 -0.023376025 1.1763334
-0.28476703 -0.024668064 1.1748948
-0.27673957 -0.028291788 1.1735002
-0.22249624 -0.025752079 1.1750001
-0.31535456 -0.019195491 1.1730002
-0.30541402 -0.018656844 1.1730002
-0.2946561 -0.01779802 1.1730002
-0.28649276 -0.019126937 1.1730001
-0.22302644 -0.015677625 1.174778
-0.22434045 -0.0054961159 1.1756667
-0.22271337 0.0030908345 1.1743335
-0.17099208 0.085496925 1.1750001
-0.16818938 0.08873795 1.177
-0.17074573 0.096539997 1.1756667
-0.16708086 0.094250143 1.1756668
-0.1718374 0.10485394 1.1755
-0.16818938 0.10112 1.177
-0.17614424 0.11413568 1.1750001
-0.18160325 0.12794775 1.177
-0.17923275 0.12257641 1.1750001
-0.18596888 0.13571906 1.1746
-0.19288266 0.14575942 1.1750001
-0.18882611 0.14136162 1.177
-0.45194447 0.17644407 1.177
-0.44380873 0.17675711 1.1740911
-0.4390969 0.17584443 1.1730001
-0.45143688 0.18201441 1.1730001
-0.44526687 0.18201441 1.1730001
-0.1939702 0.18734162 1.1734446
-0.18702602 0.18599886 1.1743335
-0.20242944 0.19556612 1.1747779
-0.19570819 0.19129303 1.1758573
-0.18676244 0.19088978 1.177
-0.43498358 0.20875099 1.1730001
-0.42675695 0.20875101 1.1730001
-0.21315551 0.2059543 1.1736668
-0.20946284 0.2053355 1.177
-0.44087392 0.21219715 1.1750001
-0.43480629 0.21212067 1.1760001
-0.42439258 0.21219891 1.1750001
-0.41528332 0.21594208 1.1754446
-0.40516204 0.21697763 1.1730002
-0.21115042 0.21423542 1.1730002
-0.20946284 0.21255836 1.177
-0.40482393 0.22322066 1.177
-0.39599448 0.22603045 1.1750002
-0.38690919 0.22674675 1.1730002
-0.21343838 0.22578301 1.1733335
-0.20946284 0.22494039 1.177
-0.39312977 0.23009957 1.177
-0.38395616 0.23401111 1.1759092
-0.37475196 0.23467875 1.1748949
-0.36535379 0.23548254 1.1744287
-0.35429108 0.23596536 1.1736668
-0.34483334 0.23788698 1.1730002
-0.33472139 0.23882964 1.1730002
-0.32700893 0.23960088 1.1730001
-0.31364065 0.23857255 1.1730001
-0.30587104 0.2386868 1.1730002
-0.29615903 0.23960088 1.1730001
-0.28279075 0.23857255 1.1730001
-0.27147913 0.23960088 1.1730001
-0.26359525 0.23925811 1.1730002
-0.2539975 0.23857255 1.1730001
-0.24665229 0.23901324 1.1730002
-0.23461635 0.2370892 1.1738002
-0.2249438 0.2352481 1.1750002
-0.21538612 0.2334341 1.1762501
-0.3549518 0.24041794 1.177
-0.34463346 0.24248162 1.177
-0.33476323 0.24330725 1.1765556
-0.32528576 0.24355361 1.1742002
-0.31543678 0.24425916 1.1740528
-0.30513826 0.24446592 1.1748183
-0.29448524 0.24561943 1.1735002
-0.28578809 0.24506804 1.1738573
-0.27387857 0.24577087 1.1730001
-0.26445577 0.24416043 1.1744287
-0.25432238 0.24313058 1.1758573
-0.24491476 0.24342027 1.175182
-0.23558426 0.24088982 1.1764287
-0.22390856 0.24041794 1.177
-0.29200977 0.2507363 1.177
-0.40067786 -0.061085258 1.1810001
-0.39757186 -0.061085258 1.1810001
-0.35961306 -0.061499044 1.189
-0.30791217 -0.062332928 1.189
-0.29759282 -0.06202022 1.189
-0.41284323 -0.052670307 1.1874001
-0.40424392 -0.054744899 1.1835883
-0.39860716 -0.052802514 1.1810001
-0.36428243 -0.054301351 1.1841999
-0.35645691 -0.053842232 1.1867499
-0.34502006 -0.051075477 1.189
-0.33459648 -0.051075477 1.189
-0.32357726 -0.051671114 1.189
-0.31523842 -0.051968928 1.189
-0.30639794 -0.054586567 1.1889998
-0.29516816 -0.054972991 1.1889997
-0.28498036 -0.054306775 1.1889998
-0.27778804 -0.052639011 1.189
-0.40452537 -0.046624862 1.1885
-0.39927307 -0.045471475 1.1842
-0.36432579 -0.046820529 1.1810001
-0.35379416 -0.046560973 1.1834999
-0.34440765 -0.045081168 1.1851903
-0.33494177 -0.044705186 1.1857998
-0.32485333 -0.044747137 1.1869198
-0.31477582 -0.044607028 1.1857271
-0.30481842 -0.044544045 1.185769
-0.29499376 -0.044971976 1.188333
-0.28501102 -0.044885401 1.188333
-0.27524781 -0.044448331 1.1847893
-0.22445442 -0.044687208 1.1853335
-0.21715119 -0.041525818 1.1884286
-0.34062797 -0.038307704 1.1810001
-0.33386481 -0.036406282 1.1813077
-0.32537398 -0.036269452 1.182
-0.31518808 -0.036237013 1.181
-0.30510345 -0.034752153 1.181923
-0.29509613 -0.03395585 1.1833636
-0.28571826 -0.034704205 1.1831818
-0.27767909 -0.036651153 1.1810001
-0.22111975 -0.034757957 1.1810001
-0.21593408 -0.034051646 1.186818
-0.20742898 -0.030228343 1.189
-0.29472771 -0.027609155 1.1810001
-0.2888608 -0.027954269 1.1810001
-0.22052813 -0.024848241 1.1810001
-0.21578011 -0.025196565 1.1865554
-0.20690779 -0.02762245 1.189
-0.22122645 -0.014648223 1.1815716
-0.21651495 -0.016047845 1.1871051
-0.22252679 -0.0051907431 1.1846364
-0.21747595 -0.0060419282 1.1884667
-0.18241243 -0.0072964965 1.189
-0.22208977 0.0034657556 1.1856667
-0.21934161 0.0055095991 1.189
-0.21800552 0.013006664 1.187
-0.16876096 0.085933499 1.1810001
-0.16725485 0.098690748 1.1850001
-0.17112094 0.10785981 1.1830001
-0.16687246 0.10518671 1.1860001
-0.17377959 0.11585617 1.1870002
-0.16990416 0.11361688 1.189
-0.17674929 0.12490564 1.1865386
-0.1836621 0.13397285 1.187
-0.19082403 0.14830482 1.1830001
-0.187949 0.14590012 1.1845
-0.19310425 0.15473762 1.183
-0.18745793 0.15461721 1.1872222
-0.19228789 0.16229047 1.1882
-0.18866655 0.16260764 1.189
-0.20189194 0.19982126 1.1810001
-0.19513462 0.19680519 1.1852666
-0.18877761 0.19291897 1.1810001
-0.20493859 0.20527439 1.185421
-0.19439951 0.20117484 1.189
-0.18866655 0.20117484 1.189
-0.4414306 0.21760708 1.1820002
-0.4347232 0.2169489 1.1818
-0.42609081 0.21657501 1.181
-0.41931406 0.21638675 1.1810001
-0.21088655 0.2181585 1.1850001
-0.20755027 0.21436405 1.1864547
-0.44145268 0.2247912 1.1882001
-0.43475297 0.22319864 1.1871819
-0.42474127 0.22394986 1.1850002
-0.41502166 0.22583793 1.1826469
-0.40541086 0.22792344 1.1810001
-0.21064927 0.22447956 1.1836667
-0.20951369 0.22202197 1.189
-0.44091687 0.23036082 1.189
-0.42215446 0.23036082 1.189
-0.41427496 0.23261912 1.1863333
-0.40575749 0.2323467 1.1845
-0.39416167 0.23537847 1.1843846
-0.38702947 0.23884915 1.1820002
-0.379971 0.23916431 1.1810001
-0.22052813 0.23916431 1.1810001
-0.2137468 0.2365384 1.1816669
-0.39244729 0.24286911 1.189
-0.38413867 0.24458826 1.1862001
-0.37508383 0.24483509 1.1841578
-0.36491993 0.24466617 1.1825556
-0.35530755 0.24598862 1.1839334
-0.34469837 0.24657604 1.1823334
-0.33441588 0.24744706 1.1810001
-0.32302713 0.24848241 1.1810001
-0.31474435 0.24951774 1.1810001
-0.29507285 0.24951774 1.1810001
-0.28161341 0.24848239 1.1810001
-0.2735377 0.24910359 1.1810001
-0.26418859 0.24927123 1.1818001
-0.25607494 0.24675684 1.1810001
-0.24508055 0.24833448 1.1810001
-0.23506825 0.24588291 1.1827145
-0.22518903 0.2450761 1.1837368
-0.21802638 0.24418812 1.1867143
-0.37212133 0.25204185 1.189
-0.36467272 0.25214466 1.1885
-0.35676089 0.25227851 1.1884286
-0.34353778 0.25249824 1.1882001
-0.33444455 0.25373283 1.188
-0.32482332 0.25403219 1.1875715
-0.31440994 0.25482479 1.1864117
-0.30520922 0.25403255 1.1865999
-0.29534122 0.25488064 1.1859232
-0.28501603 0.25531715 1.1865555
-0.27548692 0.25529328 1.1868823
-0.26593912 0.25484025 1.1871334
-0.2543692 0.25245026 1.1865387
-0.24495615 0.25415424 1.1873335
-0.23495342 0.25200188 1.1882728
-0.2282761 0.25120795 1.189
-0.36291456 -0.0627518 1.1930001
-0.35501638 -0.064123437 1.1964668
-0.34576744 -0.062962197 1.197
-0.33579838 -0.061912831 1.197
-0.32944694 -0.061705936 1.1930001
-0.31550297 -0.062473312 1.1943334
-0.30330038 -0.061705936 1.1930001
-0.29388759 -0.061705936 1.1930001
-0.41207016 -0.051247302 1.1930001
-0.36709803 -0.059614211 1.1930001
-0.35377494 -0.056995727 1.1944286
-0.34514281 -0.056216143 1.1957501
-0.33548573 -0.056616291 1.195889
-0.32547355 -0.056537326 1.1942501
-0.31569004 -0.057215512 1.1933076
-0.30330035 -0.057522487 1.193
-0.29388759 -0.058568347 1.1930001
-0.22531156 -0.051350404 1.1954
-0.216738 -0.051304579 1.1943334
-0.4234685 -0.044359736 1.1970001
-0.41533762 -0.04526886 1.1956669
-0.40710229 -0.04261893 1.193
-0.22247007 -0.047661483 1.193
-0.21407329 -0.045656849 1.1936318
-0.2060968 -0.042770464 1.1958001
-0.41207951 -0.035113532 1.1970003
-0.40533805 -0.03445508 1.1955003
-0.21100293 -0.035297886 1.193
-0.20443781 -0.035029728 1.1935717
-0.19655664 -0.034470733 1.1954447
-0.40484697 -0.025394756 1.197
-0.21105523 -0.023636512 1.1930001
-0.20458697 -0.024537565 1.193
-0.19564061 -0.025109837 1.1934001
-0.18783723 -0.02308614 1.197
-0.40610617 -0.019938029 1.197
-0.21173978 -0.014927322 1.193
-0.20498922 -0.01568795 1.1930002
-0.19557644 -0.015687952 1.1930003
-0.18690239 -0.015583678 1.1941767
-0.21258916 -0.0043926258 1.1930001
-0.20498919 -0.0052293176 1.1930002
-0.19567911 -0.0052315611 1.1936402
-0.18650028 -0.0046492554 1.1936668
-0.21492529 0.0043583717 1.195316
-0.20399784 0.0045459336 1.1962385
-0.19548261 0.0037477501 1.1970003
-0.18676342 0.0019478279 1.1958572
-0.21721959 0.01154307 1.197
-0.2025284 0.01154307 1.197
-0.1652464 0.099357016 1.1930001
-0.16545556 0.1056322 1.1930001
-0.17047572 0.11818255 1.1930001
-0.16742514 0.11423799 1.1955001
-0.17272334 0.12457154 1.194091
-0.16894858 0.12067755 1.197
-0.18273152 0.1371821 1.1945
-0.17718008 0.13297464 1.1943333
-0.18555017 0.14445905 1.1958001
-0.18400925 0.15465145 1.1960001
-0.18585896 0.1618984 1.1958572
-0.20185162 0.2081268 1.1930001
-0.19669102 0.20554981 1.193923
-0.18993597 0.20462714 1.197
-0.20283936 0.21585749 1.1944286
-0.19791582 0.21257983 1.1945001
-0.44030845 0.2279982 1.1930001
-0.43577635 0.22834682 1.193
-0.42880398 0.22904406 1.1930001
-0.2104535 0.22720833 1.1943334
-0.20602673 0.22350396 1.1960001
-0.44283414 0.23296013 1.197
-0.43456858 0.23343477 1.1962001
-0.42601061 0.23490241 1.1951334
-0.41604441 0.23657429 1.193
-0.40448761 0.23767245 1.193
-0.21231025 0.23741098 1.1930001
-0.42289612 0.24030572 1.197
-0.41366163 0.24177484 1.1970001
-0.40483931 0.24309401 1.1966363
-0.39594421 0.24602649 1.1941999
-0.38592353 0.24926408 1.1930001
-0.22067717 0.24996133 1.1930001
-0.2148973 0.24505953 1.1945999
-0.39456314 0.25079942 1.197
-0.38455567 0.2531071 1.1963334
-0.37483445 0.25604063 1.1950001
-0.36508381 0.25755113 1.1947778
-0.35445848 0.25645727 1.1947143
-0.34618083 0.25713295 1.193
-0.33641937 0.25832823 1.1930001
-0.32840109 0.25832823 1.1930001
-0.31062141 0.25623652 1.1930001
-0.26168588 0.25749892 1.194
-0.25581816 0.25790989 1.1930001
-0.24525495 0.25780529 1.1930001
-0.23547494 0.25745562 1.1938
-0.22557598 0.25373158 1.1943334
-0.21721959 0.25079942 1.197
-0.34571698 0.26085657 1.1950001
-0.33439606 0.26169604 1.1950001
-0.32564422 0.26170167 1.1956667
-0.31584927 0.26071104 1.1943334
-0.30355197 0.26063827 1.194
-0.29375017 0.2634559 1.1955456
-0.28499442 0.26324245 1.1948462
-0.27518159 0.26394576 1.195182
-0.26600686 0.26151857 1.1952858
-0.2549969 0.26129314 1.197
-0.24456859 0.26164332 1.1958572
-0.23820698 0.26129314 1.197
-0.34457734 -0.070601471 1.202
-0.35089985 -0.067440212 1.202
-0.34555003 -0.064765304 1.2019999
-0.33720106 -0.064278953 1.202
-0.32982481 -0.06006394 1.202
-0.23077197 -0.053741418 1.202
-0.22655697 -0.053741414 1.202
-0.42606759 -0.041096378 1.202
-0.2041689 -0.04475233 1.203143
-0.19644974 -0.041999597 1.202
-0.43171144 -0.033288345 1.2055001
-0.42434567 -0.035081014 1.2027272
-0.4177379 -0.033870641 1.202
-0.19364341 -0.034000289 1.2044002
-0.43124458 -0.024786875 1.2060002
-0.42466798 -0.024295058 1.2049999
-0.41525599 -0.024051473 1.2029523
-0.40920755 -0.025641331 1.202
-0.19104671 -0.027444927 1.204
-0.18924955 -0.026431499 1.2060001
-0.43100968 -0.017268579 1.2060001
-0.4245654 -0.015103717 1.2060002
-0.41822189 -0.014650603 1.2060002
-0.42184675 -0.00740082 1.2060001
-0.41656044 -0.0095153395 1.2060001
-0.21338506 0.0089569036 1.202
-0.20811629 0.0089569027 1.202
-0.19415405 0.008693465 1.202
-0.18459024 0.0063316366 1.2032
-0.21434617 0.0151375 1.2044444
-0.20516348 0.014780601 1.2039999
-0.19539778 0.014789717 1.2047999
-0.18502048 0.014801642 1.206
-0.17867692 0.0158589 1.2060001
-0.22060089 0.023219394 1.204
-0.21448851 0.023507604 1.2058095
-0.20616569 0.021296237 1.2060002
-0.19506449 0.02167383 1.2060002
-0.18713501 0.02220246 1.2060002
-0.17867693 0.020087941 1.2060001
-0.21109958 0.033832319 1.2060002
-0.20828022 0.034889579 1.2060001
-0.16317046 0.10819294 1.2060001
-0.16439663 0.11529072 1.2046667
-0.17073317 0.12778468 1.2046667
-0.16721247 0.12285898 1.2046667
-0.17532156 0.1355249 1.2037144
-0.18225725 0.14427103 1.2037144
-0.17867693 0.14167285 1.2060001
-0.18250154 0.15296139 1.2033334
-0.18763296 0.16721599 1.2046667
-0.19241536 0.20885392 1.202
-0.194556 0.21462116 1.2045001
-0.20327841 0.22700977 1.2029999
-0.1984335 0.2216564 1.204
-0.44426289 0.23743464 1.2037144
-0.43695641 0.23849951 1.202
-0.21133453 0.23700742 1.2033335
-0.20725818 0.23318106 1.2045455
-0.44299191 0.24211253 1.2060001
-0.43382102 0.24309139 1.2048571
-0.42560193 0.24439186 1.2033334
-0.41563937 0.24685298 1.2033335
-0.40599608 0.24883631 1.202
-0.21149117 0.24527515 1.2042223
-0.41197896 0.25127545 1.2060001
-0.40483651 0.25311062 1.2046667
-0.39583531 0.25480014 1.203143
-0.38461995 0.25711581 1.202
-0.22386333 0.25733247 1.2037143
-0.215196 0.25399315 1.2049092
-0.38167086 0.26114321 1.2060001
-0.37496746 0.26335067 1.204
-0.36508328 0.26379043 1.2035999
-0.35479832 0.26497474 1.2041819
-0.34503648 0.26695681 1.2035998
-0.33512571 0.26826724 1.2042222
-0.32491165 0.26692423 1.2026666
-0.31507224 0.26659957 1.2019999
-0.30453473 0.2665996 1.2019999
-0.29715845 0.26765335 1.202
-0.28556716 0.2687071 1.202
-0.27334362 0.2682856 1.202
-0.26469246 0.26725963 1.2042859
-0.25529116 0.26689768 1.2033334
-0.24554826 0.26712963 1.2029229
-0.23560451 0.26420581 1.2041818
-0.22836816 0.26114321 1.2060001
-0.34149498 0.27171582 1.2060001
-0.33515143 0.27171582 1.2060001
-0.32457882 0.27171582 1.2060001
-0.31541589 0.27242067 1.2060002
-0.30573049 0.27191806 1.2053334
-0.29522881 0.27269027 1.2051113
-0.2855196 0.27215493 1.2037778
-0.27575901 0.27153558 1.2052001
-0.2660771 0.27171582 1.2060001
-0.25427103 0.27171582 1.2060001
-0.24643627 0.27220115 1.2044001
-0.43703586 -0.030762233 1.21
-0.1916316 -0.033293609 1.2121667
-0.18937695 -0.035041537 1.2113334
-0.44325599 -0.021959096 1.2160001
-0.43700984 -0.024025289 1.2107273
-0.19128954 -0.028853729 1.2190001
-0.44365165 -0.01493051 1.2165
-0.43581918 -0.014289533 1.2109231
-0.42678177 -0.013082788 1.21
-0.41577086 -0.015923189 1.210889
-0.44402495 -0.005718735 1.2167273
-0.4355332 -0.0050412901 1.2136524
-0.4250415 -0.005499409 1.2112727
-0.41900283 -0.0053038332 1.21
-0.44322532 0.0029388058 1.219
-0.43515077 0.0033837145 1.2185832
-0.42616543 0.0019765075 1.2140001
-0.21586603 0.028640701 1.21
-0.20433018 0.026121382 1.21
-0.19560537 0.026943471 1.21
-0.18425976 0.025817368 1.2102666
-0.17926957 0.025458401 1.21
-0.21427487 0.030762233 1.21
-0.20469214 0.035032332 1.2108332
-0.19486511 0.035355736 1.2123477
-0.18539505 0.034785058 1.2122272
-0.17941773 0.035568118 1.2110001
-0.2035791 0.042211939 1.2190001
-0.19599162 0.042959996 1.219
-0.18579361 0.042593602 1.219
-0.17986219 0.041506659 1.2140001
-0.16179286 0.11757239 1.2126
-0.15922984 0.11755224 1.2190001
-0.1640155 0.12544405 1.2126429
-0.15922984 0.12075821 1.2190001
-0.17222944 0.13611215 1.2118889
-0.16675332 0.13375129 1.2175384
-0.18139111 0.1463858 1.21
-0.17713638 0.14456627 1.2142999
-0.18201856 0.15212907 1.2177501
-0.19530351 0.21799105 1.2130001
-0.20081627 0.22737753 1.2120001
-0.19654217 0.22489636 1.2158
-0.20330308 0.23586248 1.2110001
-0.19912636 0.23617311 1.2190001
-0.45110989 0.24486995 1.2126669
-0.44490907 0.24550071 1.2122728
-0.43686756 0.2468325 1.2110001
-0.42430666 0.24928017 1.21
-0.20662507 0.24425077 1.2145333
-0.44402686 0.25166863 1.2190001
-0.43409863 0.25289705 1.2171818
-0.42468283 0.25577092 1.215625
-0.41521737 0.25557467 1.2113334
-0.40611935 0.25751242 1.2108001
-0.39460522 0.25776631 1.21
-0.38717982 0.25988784 1.21
-0.22170024 0.25988784 1.21
-0.21385057 0.25691772 1.21
-0.20858435 0.2543143 1.2156364
-0.42372236 0.26235521 1.2190001
-0.41535893 0.26347196 1.2185454
-0.40495571 0.26374087 1.2166666
-0.39474225 0.2643452 1.2161055
-0.38545769 0.26620108 1.2146
-0.37536645 0.26816824 1.2106668
-0.36490372 0.26837397 1.21
-0.3585391 0.26837397 1.21
-0.2324166 0.26728839 1.2105714
-0.22432476 0.26515526 1.2127335
-0.21514167 0.26475313 1.2169166
-0.20902494 0.26128393 1.2165
-0.39005968 0.27037013 1.2190001
-0.38442284 0.27380812 1.2184443
-0.37476572 0.27462456 1.2169999
-0.36508584 0.27449438 1.2166471
-0.35473263 0.2755442 1.2156923
-0.34541056 0.27561596 1.2130001
-0.33522666 0.27642563 1.2122222
-0.32450959 0.27686474 1.2123333
-0.31490219 0.27690259 1.2125001
-0.30506906 0.27663654 1.2125001
-0.29484347 0.2785511 1.2122222
-0.2846643 0.27737421 1.2135715
-0.27478179 0.27691981 1.2149
-0.26521307 0.27607742 1.214
-0.25552458 0.27621663 1.2130909
-0.24307305 0.27555484 1.2127273
-0.23598745 0.27372974 1.2149286
-0.22762388 0.2721512 1.219
-0.36654922 0.2810567 1.2190001
-0.35372534 0.2810567 1.2190001
-0.3451761 0.2810567 1.2190001
-0.33401456 0.28200662 1.219
-0.32570282 0.2834315 1.219
-0.3152537 0.28255278 1.219
-0.30456716 0.28212538 1.219
-0.29423681 0.28390646 1.219
-0.2858063 0.28200662 1.219
-0.27464476 0.2810567 1.2190001
-0.26502687 0.2810567 1.2190001
-0.25540894 0.2810567 1.2190001
-0.248997 0.2810567 1.2190001
-0.19039358 -0.03549711 1.2270001
-0.18716657 -0.03549711 1.2270001
-0.45070574 -0.02043773 1.2270001
-0.44923642 -0.017154614 1.223
-0.44387558 0.0064329798 1.223
-0.43744263 0.0075051431 1.223
-0.20549044 0.045936774 1.2237273
-0.19525284 0.046817798 1.223
-0.18540609 0.046665404 1.2236665
-0.17905128 0.048247349 1.223
-0.20212533 0.053607479 1.2256669
-0.19454254 0.054819055 1.2260398
-0.18521626 0.053026132 1.2266924
-0.17846362 0.053756028 1.2263335
-0.19577193 0.06131319 1.2270001
-0.157608 0.11793797 1.223
-0.16135605 0.12844132 1.2243334
-0.15741475 0.12376186 1.2252223
-0.16274966 0.13526723 1.2246001
-0.17278627 0.14509991 1.2242
-0.16708536 0.14320107 1.2261113
-0.1821779 0.15638462 1.2260002
-0.17872457 0.15222177 1.2256668
-0.19330324 0.21800157 1.2250001
-0.19232143 0.22551864 1.2245383
-0.18824224 0.2258907 1.2270001
-0.20049454 0.2337316 1.223
-0.19457853 0.23498125 1.2255999
-0.18824224 0.23126905 1.2270001
-0.20234115 0.24632999 1.2237999
-0.19781516 0.24404557 1.2263335
-0.45104325 0.25452173 1.2250001
-0.44508517 0.25616381 1.2244545
-0.43708619 0.25770265 1.2238001
-0.20482036 0.25489959 1.2258002
-0.19899894 0.25063109 1.2270001
-0.43433514 0.26268002 1.2263335
-0.42519188 0.26665175 1.224
-0.4158462 0.26850036 1.2230002
-0.4063499 0.269113 1.223
-0.21299711 0.26879698 1.2240001
-0.20845322 0.26540411 1.2256668
-0.42058697 0.2721445 1.2270001
-0.41370267 0.27300507 1.2270001
-0.40552759 0.27357873 1.2270001
-0.39550847 0.27446491 1.2250001
-0.38582563 0.27830297 1.2230002
-0.37740147 0.27983463 1.223
-0.36399946 0.27929854 1.223
-0.23373161 0.27876246 1.223
-0.22441879 0.27563366 1.2248461
-0.21692698 0.27304319 1.2256668
-0.39046821 0.28074986 1.2270001
-0.38444445 0.28247094 1.2270001
-0.37549901 0.28342795 1.2252859
-0.36507523 0.28448284 1.2245386
-0.35523358 0.28504744 1.2242
-0.34580114 0.28566357 1.225
-0.33591637 0.28719386 1.2242
-0.3245081 0.28805456 1.223
-0.3148464 0.2876685 1.2238889
-0.30586427 0.28719389 1.2242
-0.29535314 0.28784364 1.224
-0.28504691 0.28719199 1.2238889
-0.2758455 0.28658155 1.2243332
-0.26525742 0.28566355 1.2250001
-0.25440761 0.2866368 1.2253333
-0.24540424 0.28358325 1.2247778
-0.23574291 0.28305483 1.2265002
-0.22911771 0.28074986 1.2270001
-0.33094779 0.29222366 1.2270001
-0.32556945 0.29222366 1.2270001
-0.3177529 0.29236707 1.2270001
-0.30441457 0.29150656 1.2270001
-0.29451841 0.29193681 1.2270001
-0.2843354 0.29186508 1.2270001
-0.27859852 0.29150656 1.2270001
-0.19179012 -0.031423241 1.2360001
-0.189623 -0.032506801 1.2360001
-0.19147977 -0.028125219 1.2340001
-0.189623 -0.02925612 1.2360001
-0.18420909 0.058442891 1.2320002
-0.1782088 0.059402931 1.2320001
-0.2004586 0.063930042 1.2360001
-0.19459653 0.065700635 1.2347693
-0.18542144 0.064810954 1.2353685
-0.17676654 0.064491108 1.2348573
-0.19287369 0.070431396 1.2360001
-0.18745588 0.070431396 1.2360001
-0.1541557 0.12630136 1.2340001
-0.16092795 0.13824683 1.2320001
-0.15827733 0.13447058 1.2345002
-0.16502935 0.14599797 1.2336
-0.15928333 0.14194636 1.2360001
-0.18095452 0.15819976 1.2360001
-0.17424145 0.15178651 1.2345002
-0.18468912 0.16092795 1.2320001
-0.19332954 0.21925083 1.2320001
-0.19116944 0.22141093 1.2320001
-0.18900934 0.2268112 1.2320001
-0.19116944 0.23869179 1.2320001
-0.18921389 0.23679 1.2333335
-0.1950478 0.24552512 1.2337779
-0.20175608 0.25638992 1.2340001
-0.19772831 0.25273806 1.2352002
-0.44456148 0.26547775 1.2343335
-0.43617773 0.26807216 1.2337145
-0.20626664 0.26405349 1.2337143
-0.43234041 0.27269593 1.2360001
-0.42417535 0.27534792 1.2334547
-0.41496667 0.27772391 1.2326669
-0.40583003 0.27838373 1.2320002
-0.39853969 0.27973381 1.2320001
-0.22141093 0.27973381 1.2320001
-0.21446773 0.27694339 1.2340001
-0.20878869 0.27261704 1.2340001
-0.42150483 0.28064203 1.2360001
-0.41596663 0.28232756 1.2360001
-0.40492529 0.28312212 1.2350001
-0.39550737 0.284953 1.234182
-0.38551632 0.28748626 1.2333335
-0.37585855 0.28837425 1.2320001
-0.36829817 0.28837425 1.2320001
-0.2451721 0.28837425 1.2320001
-0.23448291 0.2872214 1.2340001
-0.22591831 0.28382039 1.2345001
-0.216712 0.28064203 1.2360001
-0.38206324 0.29234451 1.2360001
-0.37387767 0.29239756 1.2337779
-0.36524737 0.29236713 1.2346667
-0.35548097 0.29230624 1.2340001
-0.34532601 0.29325852 1.2337143
-0.33638284 0.29597589 1.2346668
-0.32508802 0.296673 1.233143
-0.31458762 0.29598409 1.2340002
-0.30526409 0.29660827 1.2348001
-0.29495525 0.2961936 1.2337145
-0.28544044 0.29680729 1.2345001
-0.27524382 0.294534 1.2336668
-0.26473725 0.2937654 1.2343531
-0.25535706 0.29463285 1.2338462
-0.24606045 0.29152441 1.2346667
-0.33048579 0.30014613 1.2360001
-0.32470682 0.30014613 1.2360001
-0.31531596 0.30014613 1.2360001
-0.18340805 -0.032512937 1.2421429
-0.17790635 -0.031652048 1.245
-0.18418817 -0.026156615 1.2432221
-0.17790635 -0.02728625 1.245
-0.17624682 0.068540432 1.2410001
-0.18413441 0.073436171 1.2410001
-0.17654352 0.072694391 1.2410001
-0.15122412 0.12946525 1.2410001
-0.14687236 0.12728937 1.2410001
-0.15283875 0.13541529 1.2423334
-0.14817789 0.13338186 1.2410001
-0.16155009 0.14775778 1.2423334
-0.15584622 0.14356302 1.2431818
-0.14778233 0.1416702 1.245
-0.1746975 0.15727536 1.2421429
-0.16681182 0.15336698 1.2436666
-0.18088789 0.1623648 1.243
-0.17572345 0.16044314 1.245
-0.18663795 0.23902754 1.245
-0.19111538 0.24768843 1.2410001
-0.18699019 0.24583451 1.243
-0.19273399 0.2554971 1.2420911
-0.18794769 0.25387126 1.245
-0.20210294 0.26632783 1.2416668
-0.19627894 0.26328442 1.2434002
-0.44312871 0.27395394 1.245
-0.43658 0.27613685 1.245
-0.20558333 0.27513695 1.2431818
-0.43112275 0.28050265 1.245
-0.42423478 0.28518361 1.2440001
-0.41335884 0.28768167 1.243
-0.40504366 0.28853732 1.2420001
-0.22248441 0.287761 1.2410001
-0.21461885 0.28643525 1.2435002
-0.20824134 0.28165519 1.2436666
-0.40383649 0.29141715 1.245
-0.39555812 0.29204047 1.243
-0.38538823 0.29603544 1.243
-0.37428609 0.29732764 1.2423334
-0.36396217 0.2974872 1.243
-0.35249364 0.29809648 1.2410001
-0.34596598 0.29918441 1.2410001
-0.27198583 0.29918441 1.2410001
-0.26763403 0.29918441 1.2410001
-0.25131491 0.29918441 1.2410001
-0.24426453 0.29655159 1.2425001
-0.23507465 0.29448098 1.2433333
-0.22520079 0.29207525 1.2436668
-0.21719855 0.29141715 1.245
