# .PCD v0.7 - Point Cloud Data file format
VERSION 0.7
FIELDS x y z
SIZE 4 4 4
TYPE F F F
COUNT 1 1 1
WIDTH 1379
HEIGHT 1
VIEWPOINT 0 0 0 1 0 0 0
POINTS 1379
DATA ascii
-0.17150755 -0.1513302 0.95900005
-0.16464959 -0.1518593 0.95784611
-0.15489735 -0.15108258 0.95790899
-0.14561775 -0.15102755 0.95766664
-0.13458292 -0.15137504 0.95750004
-0.12535121 -0.15193468 0.95749992
-0.11471157 -0.15194845 0.9575882
-0.10468115 -0.1523612 0.95783317
-0.095337674 -0.15481739 0.95560008
-0.087120064 -0.15809937 0.9525001
-0.04501535 -0.1568308 0.95507705
-0.17114724 -0.14592554 0.95900005
-0.16503608 -0.1451561 0.95592862
-0.15517136 -0.14461181 0.95277441
-0.14494698 -0.14501862 0.95250016
-0.13525933 -0.1444473 0.95240021
-0.12513959 -0.14480788 0.95233357
-0.11528894 -0.14481214 0.95296681
-0.10564318 -0.14569861 0.95363653
-0.098286055 -0.14753412 0.95212507
-0.045854051 -0.14089699 0.95100003
-0.17066683 -0.13451572 0.95900005
-0.16495632 -0.13559708 0.95579302
-0.15577184 -0.13489392 0.95240647
-0.11505198 -0.13922957 0.95100003
-0.045248087 -0.13396211 0.95335734
-0.17094707 -0.12582825 0.95900005
-0.16521674 -0.12530732 0.95571882
-0.15515375 -0.12512223 0.95150018
-0.14747402 -0.12468597 0.95100009
-0.045046642 -0.12497015 0.95461112
-0.038252916 -0.12190486 0.95900005
-0.16377078 -0.11542595 0.95758325
-0.15508643 -0.11543904 0.9525885
-0.14840038 -0.11505196 0.95100015
-0.0447153 -0.11583726 0.95749992
-0.036124147 -0.11655963 0.95825005
-0.16032699 -0.10912177 0.95750004
-0.15479293 -0.10544081 0.95510018
-0.14694679 -0.10407909 0.95130014
-0.043951243 -0.10527845 0.95499998
-0.15218626 -0.096652061 0.95733339
-0.14503823 -0.095365636 0.95345181
-0.13714924 -0.092265666 0.95160007
-0.041487228 -0.097456552 0.95283341
-0.037738383 -0.093445145 0.95308346
-0.18117587 -0.082811251 0.95900005
-0.17495854 -0.083254859 0.95811754
-0.16522138 -0.082613274 0.95668745
-0.15721527 -0.081550166 0.95900005
-0.14387403 -0.086355902 0.95736837
-0.13556096 -0.085154101 0.95365745
-0.12827222 -0.082537286 0.95100009
-0.041151173 -0.083691418 0.95150012
-0.035369944 -0.085107565 0.95400012
-0.18151981 -0.075435825 0.95899999
-0.17509164 -0.075397536 0.95559996
-0.16546926 -0.075399987 0.9541893
-0.15524489 -0.075144187 0.95408344
-0.14526135 -0.074732378 0.95560002
-0.13566224 -0.075366445 0.95522225
-0.12633117 -0.074558944 0.95244473
-0.041644856 -0.075479567 0.95181829
-0.035186552 -0.075408295 0.95574981
-0.028691547 -0.074068069 0.95857143
-0.18075551 -0.06809859 0.95900005
-0.17482193 -0.065511711 0.95767725
-0.1651032 -0.065415531 0.95333356
-0.15557028 -0.066863537 0.95100015
-0.144343 -0.067103192 0.95115805
-0.13515301 -0.066661187 0.95284021
-0.1250581 -0.06552875 0.9527275
-0.11652385 -0.063641138 0.95145017
-0.04085179 -0.068364218 0.95100003
-0.035282027 -0.0654319 0.95514274
-0.029089028 -0.0677623 0.95899999
-0.17207135 -0.058196753 0.95862508
-0.16515402 -0.055327184 0.95626658
-0.15624237 -0.054661453 0.9519645
-0.12172166 -0.05919341 0.95100003
-0.11472891 -0.055600747 0.95303255
-0.10625502 -0.054280978 0.95261562
-0.098655678 -0.051412117 0.95100003
-0.041268643 -0.052523728 0.95100003
-0.036136836 -0.055440065 0.95568961
-0.16288818 -0.04541539 0.95712489
-0.15518177 -0.045318045 0.95317674
-0.14683329 -0.042529125 0.95123088
-0.11211252 -0.048128996 0.95200008
-0.1051091 -0.045350153 0.95379436
-0.095511563 -0.044751171 0.95339417
-0.086261898 -0.041711804 0.95160019
-0.079202451 -0.04085179 0.95100003
-0.043029934 -0.044172283 0.95263177
-0.037350331 -0.046527386 0.95682347
-0.16113864 -0.038953517 0.95900005
-0.15373695 -0.036215138 0.95691293
-0.14488921 -0.035305068 0.95325029
-0.13756214 -0.032514691 0.95100009
-0.10354406 -0.038005415 0.95181829
-0.09510392 -0.035327118 0.95408845
-0.085353576 -0.035140596 0.95450008
-0.075932547 -0.033800032 0.95348024
-0.064807832 -0.033058483 0.95300019
-0.054834168 -0.034493014 0.95377427
-0.046234086 -0.036174342 0.9562692
-0.14376986 -0.026842386 0.95693761
-0.13542768 -0.025074529 0.95356262
-0.12627095 -0.022146016 0.95192313
-0.11588569 -0.02084275 0.95100003
-0.09442012 -0.025069658 0.95316684
-0.086396351 -0.025655322 0.95682734
-0.074863695 -0.028225837 0.95784611
-0.065419152 -0.027339643 0.95669997
-0.056032039 -0.027931947 0.95780003
-0.049602676 -0.029425316 0.95900005
-0.13315076 -0.018060429 0.95824999
-0.12466299 -0.016037436 0.95534617
-0.11546834 -0.014921597 0.95345718
-0.10576138 -0.013208818 0.95263666
-0.094060689 -0.014402825 0.95292014
-0.089116357 -0.015500105 0.9581818
-0.17234828 -0.0075665098 0.95900005
-0.1625959 -0.0015133021 0.95899999
-0.12078392 -0.0086874748 0.95900005
-0.11407565 -0.0072392402 0.95768744
-0.10479695 -0.0062676752 0.95631987
-0.095373042 -0.0051416983 0.95551431
-0.089365646 -0.005322536 0.95866668
-0.16141888 0.00084072334 0.95900005
-0.15385237 0.0075665098 0.95900005
-0.092479564 0.00084072334 0.95900005
-0.1432675 -0.270428 0.96700007
-0.15344034 -0.26195064 0.96700007
-0.14373009 -0.2670874 0.96377784
-0.13868751 -0.26809168 0.96266675
-0.1653665 -0.25276351 0.9655
-0.15740986 -0.25402108 0.96477783
-0.17246138 -0.24826412 0.96433336
-0.16439536 -0.2466912 0.96542877
-0.15765145 -0.24462652 0.96273685
-0.1611851 -0.23909797 0.96600008
-0.07245449 -0.19281588 0.96550006
-0.06915497 -0.19144121 0.96200007
-0.024541326 -0.19318809 0.96536374
-0.083585791 -0.18248145 0.96607697
-0.075278401 -0.18523113 0.96478957
-0.022286445 -0.18589804 0.96300012
-0.016929388 -0.18370137 0.96563661
-0.093643233 -0.17354235 0.96616673
-0.085277602 -0.17600121 0.96309108
-0.077869624 -0.17907202 0.96200007
-0.023314722 -0.17466967 0.96252632
-0.014998012 -0.17470643 0.96527314
-0.0055448771 -0.17381857 0.96631837
0.0022606312 -0.17237312 0.96700007
-0.19141895 -0.16157861 0.96700013
-0.18463457 -0.16380158 0.9661001
-0.17395556 -0.1612395 0.96700013
-0.16412134 -0.16242704 0.96666676
-0.1540136 -0.16233443 0.96672732
-0.14488311 -0.16213417 0.96645457
-0.13494426 -0.16207184 0.96700007
-0.12488797 -0.1641005 0.96508712
-0.11563487 -0.16420436 0.9652611
-0.1041381 -0.16350575 0.96576476
-0.094682716 -0.16545157 0.96400028
-0.088552095 -0.16782731 0.96200007
-0.033312455 -0.16150215 0.96200007
-0.025147447 -0.1648441 0.96430033
-0.015663913 -0.16512081 0.96591705
-0.0049626916 -0.16515121 0.96529758
0.0040487386 -0.16451791 0.96677816
-0.19204496 -0.15448372 0.96700007
-0.18456016 -0.15568182 0.9636972
-0.17588225 -0.15504347 0.96276921
-0.16540147 -0.15729797 0.96310008
-0.15526505 -0.15681471 0.96341681
-0.14508037 -0.15647925 0.96308351
-0.13523065 -0.15667447 0.96289998
-0.12491846 -0.15783556 0.96277767
-0.11489261 -0.15761618 0.96252632
-0.10513008 -0.15785392 0.96224993
-0.096985631 -0.15939377 0.96200007
-0.042813111 -0.15393557 0.96391672
-0.035632465 -0.15718022 0.96500021
-0.02589795 -0.15708621 0.96683341
-0.01756026 -0.1573157 0.96700007
-0.0021193416 -0.15810288 0.96700007
0.0043733981 -0.15709166 0.96600008
-0.19194612 -0.14535026 0.96635717
-0.18506719 -0.14534745 0.96393365
-0.17631899 -0.14473686 0.96199995
-0.044303518 -0.14645506 0.96566677
-0.19170961 -0.13818108 0.96700007
-0.18517141 -0.13528176 0.96446693
-0.17626086 -0.13493654 0.96199995
-0.043590058 -0.1383906 0.96550006
-0.18361443 -0.12586747 0.96477294
-0.17587811 -0.12482245 0.96229625
-0.038029801 -0.12423068 0.96400005
-0.18113308 -0.11896571 0.96700007
-0.17485525 -0.11509887 0.96417254
-0.16828734 -0.11323936 0.96199995
-0.041324314 -0.1138527 0.96200007
-0.037165403 -0.11298677 0.96223527
-0.19752264 -0.10088066 0.96700007
-0.17252178 -0.10616529 0.96625
-0.16524966 -0.10481626 0.96325016
-0.15883154 -0.10092128 0.96200007
-0.042084008 -0.10671938 0.96285725
-0.037815377 -0.10709996 0.96574998
-0.20238815 -0.094595991 0.96594113
-0.19482487 -0.094952978 0.96500039
-0.18522732 -0.093745135 0.96390027
-0.17550252 -0.091787539 0.96526659
-0.16505504 -0.094797559 0.96550041
-0.15640898 -0.093547061 0.96271998
-0.14927354 -0.09023881 0.96200007
-0.03814815 -0.099185191 0.96700007
-0.20200591 -0.084607653 0.96512496
-0.19510713 -0.084461004 0.9634335
-0.18626863 -0.084785126 0.96199995
-0.17547709 -0.087739438 0.96233326
-0.16508779 -0.087361343 0.96373332
-0.15473929 -0.085210212 0.96234488
-0.14797607 -0.083232485 0.96199995
-0.20091359 -0.078839511 0.96700007
-0.19419611 -0.074650049 0.96481508
-0.18684185 -0.075241849 0.96219999
-0.028955132 -0.077307388 0.96200007
-0.19152081 -0.065870285 0.96580011
-0.18521942 -0.064663596 0.96296674
-0.1787909 -0.061564792 0.96200007
-0.031204073 -0.061564792 0.96200007
-0.028445104 -0.063364297 0.96377784
-0.18264003 -0.057029322 0.96572727
-0.17585206 -0.054694142 0.9633078
-0.031472836 -0.055106767 0.96285719
-0.029313277 -0.056422967 0.96640003
-0.17285763 -0.047062796 0.96560013
-0.16808623 -0.045053542 0.96287501
-0.034290567 -0.044916894 0.9641428
-0.17039508 -0.039843623 0.96700007
-0.16388004 -0.036470208 0.96428573
-0.15713076 -0.032910593 0.96260005
-0.043276943 -0.033137999 0.96377784
-0.038090993 -0.038092043 0.96560001
-0.19074075 -0.021193417 0.96700007
-0.18435736 -0.022765333 0.96594125
-0.17725016 -0.022659859 0.96625006
-0.1532331 -0.026722243 0.9650588
-0.14639232 -0.023392724 0.96285707
-0.081744067 -0.023409074 0.9630909
-0.075111642 -0.023452673 0.96371442
-0.064616464 -0.022593893 0.96349996
-0.054389615 -0.023550233 0.96442878
-0.047272589 -0.028290033 0.96488899
-0.19074075 -0.019497944 0.96700007
-0.18384916 -0.015586426 0.96525842
-0.17467825 -0.01528941 0.96348405
-0.16582304 -0.013570448 0.96488029
-0.15755475 -0.011012029 0.96625006
-0.14385696 -0.01777691 0.9656924
-0.13554224 -0.014363114 0.96395665
-0.12795329 -0.012091863 0.96233344
-0.08382231 -0.01507451 0.96396792
-0.075448565 -0.018179243 0.96700013
-0.064004116 -0.018014405 0.96700007
-0.056515779 -0.018932786 0.96700007
-0.18151151 -0.0081860209 0.96600008
-0.17459013 -0.0052203871 0.9631111
-0.16568342 -0.0056331772 0.96219355
-0.1551317 -0.0048943828 0.96394759
-0.14799376 -0.0019776139 0.96650004
-0.13224691 -0.0093251029 0.96700007
-0.12485316 -0.0055252588 0.9642694
-0.11547809 -0.0027204426 0.96383327
-0.10613518 -0.0014765258 0.96275002
-0.084411889 -0.0052092383 0.96448404
-0.17266196 0.0018644945 0.96640003
-0.16497903 0.0044308491 0.96388018
-0.15532275 0.0047451765 0.96224993
-0.14558309 0.0051934477 0.96471471
-0.12122634 0.00084773666 0.96700007
-0.11456726 0.0017723012 0.96672732
-0.10466807 0.0042365366 0.96579343
-0.094863288 0.004475384 0.96492893
-0.086964376 0.0032680258 0.96578568
-0.16022223 0.011020577 0.96700007
-0.15329394 0.013429875 0.96474999
-0.14506954 0.014863829 0.96525037
-0.13902882 0.018650208 0.96700007
-0.14157203 0.021193417 0.96700007
-0.13902882 0.022041153 0.96700007
-0.15350872 -0.27230614 0.97427279
-0.14724208 -0.27253595 0.9722501
-0.16119708 -0.26505345 0.97633338
-0.15527345 -0.26547712 0.97450006
-0.14904429 -0.26742935 0.97150004
-0.16391203 -0.25754881 0.97100002
-0.1581682 -0.25936183 0.97000003
-0.18090717 -0.24092378 0.97800004
-0.1745896 -0.24380176 0.97292298
-0.16758691 -0.24359368 0.97107142
-0.17347479 -0.23704162 0.97614288
-0.16708237 -0.23702346 0.97300005
-0.03298055 -0.21371625 0.97799993
-0.026743483 -0.21286464 0.976125
-0.081451103 -0.20234168 0.97800004
-0.076599412 -0.20255186 0.97625017
-0.032437608 -0.20587841 0.97569245
-0.025516583 -0.20509233 0.97488576
-0.01807292 -0.20402655 0.97492868
-0.0094311796 -0.20148429 0.97800004
-0.093911693 -0.19256753 0.97799993
-0.084184945 -0.19440877 0.97654194
-0.077026099 -0.19605349 0.97305894
-0.023374269 -0.1971298 0.97155559
-0.015481713 -0.19469647 0.97375005
-0.0059069805 -0.19333403 0.97600013
0.00085474999 -0.19060925 0.97500002
-0.21005809 -0.18090717 0.97800004
-0.20427781 -0.18200783 0.97700006
-0.19466941 -0.18379264 0.97607177
-0.18535991 -0.18396229 0.97600025
-0.17456222 -0.18221095 0.97639984
-0.16443023 -0.18278848 0.97633362
-0.15484034 -0.18305197 0.97630453
-0.14528729 -0.18209444 0.97631264
-0.13803819 -0.18159309 0.97800004
-0.12260533 -0.18213201 0.9780001
-0.1136886 -0.18433668 0.97800016
-0.10466348 -0.18446663 0.97780675
-0.095041312 -0.18534555 0.97530776
-0.08667656 -0.18659189 0.97246671
-0.078517191 -0.18906486 0.97000003
-0.012761199 -0.18632673 0.97050017
-0.0051118722 -0.185008 0.97250003
0.0043543195 -0.18438852 0.97480953
-0.21337767 -0.17397527 0.97710007
-0.20503198 -0.17449345 0.97461301
-0.19469358 -0.1750391 0.97331023
-0.18534023 -0.17517297 0.97241354
-0.17578861 -0.1749374 0.97339982
-0.16548134 -0.17486432 0.97299969
-0.15527681 -0.17490098 0.97319978
-0.14515735 -0.17504592 0.97400004
-0.13516757 -0.17514652 0.97520691
-0.1250122 -0.17544574 0.97555178
-0.11472417 -0.17488606 0.97617674
-0.10508912 -0.1751471 0.97456014
-0.097100683 -0.17697999 0.97092319
-0.0037416134 -0.17840692 0.97000015
0.005677965 -0.17582956 0.97109973
0.011663075 -0.17494261 0.97344452
-0.21410909 -0.16479637 0.97708708
-0.20464166 -0.16521613 0.97372723
-0.19564314 -0.16585688 0.97179967
-0.18537995 -0.16854267 0.97000015
-0.17540039 -0.16688906 0.97124982
-0.16528723 -0.16723521 0.97114289
-0.15503386 -0.16728647 0.97060001
-0.14426306 -0.16712855 0.97100002
-0.13533831 -0.16743855 0.97157878
-0.12576255 -0.16898748 0.97060001
-0.11377905 -0.16820252 0.97000009
-0.10635106 -0.16789293 0.97050017
-0.012755499 -0.16071931 0.97000003
-0.0076532997 -0.16071931 0.97000003
0.0076532997 -0.16922297 0.97000003
-0.2133252 -0.15474528 0.97724998
-0.20522027 -0.15533237 0.97417641
-0.19727336 -0.15526408 0.97133327
-0.041667968 -0.1505149 0.97000003
-0.035601534 -0.15228079 0.97105879
-0.025350615 -0.15277199 0.97242117
-0.014708149 -0.15403838 0.97219348
-0.005478262 -0.15436167 0.97046852
0.0030370238 -0.15282305 0.97000021
-0.21070018 -0.14581133 0.97757149
-0.20443815 -0.14539923 0.97418755
-0.19692062 -0.14456233 0.97000021
-0.041420221 -0.14471926 0.97220004
-0.035069484 -0.14603405 0.97578573
-0.024693279 -0.1466165 0.97668022
-0.015569189 -0.14548905 0.97659403
-0.0051274276 -0.14520474 0.97433323
0.003049047 -0.14497535 0.97361916
-0.21005809 -0.13746659 0.97799999
-0.20422444 -0.13543317 0.97557163
-0.1956123 -0.13418442 0.97207683
-0.04088128 -0.13521092 0.9733637
-0.037971064 -0.13618226 0.977
-0.016933255 -0.1386812 0.9780001
-0.0048047714 -0.13570115 0.97727299
0.0036411257 -0.13552204 0.97687513
-0.20262748 -0.12832122 0.9780001
-0.19481891 -0.12495306 0.97510362
-0.18787721 -0.123718 0.97060013
-0.040090844 -0.12880249 0.97300005
-0.038522925 -0.12841105 0.97650003
-0.00085737999 -0.12946437 0.97800004
0.00085737999 -0.12946437 0.97800004
-0.21777451 -0.11060202 0.97800004
-0.20662858 -0.11060202 0.97800004
-0.19284254 -0.11497965 0.97716659
-0.18526745 -0.1146221 0.97236657
-0.17942737 -0.11139803 0.97000003
0.0060016601 -0.11746106 0.97800004
-0.22473897 -0.10419837 0.97730786
-0.21519677 -0.10475817 0.97475874
-0.20512877 -0.10516066 0.97350007
-0.19485699 -0.10526627 0.97440743
-0.18519928 -0.10500284 0.97318506
-0.17712715 -0.10455535 0.97114283
-0.034765407 -0.10375557 0.97299993
-0.029903974 -0.10338092 0.97460002
-0.22399135 -0.095612839 0.9770624
-0.21489298 -0.095437393 0.97325701
-0.20721196 -0.095589787 0.97023094
-0.18355708 -0.098895885 0.97128582
-0.17470862 -0.097138122 0.97040904
-0.033398662 -0.097118765 0.97693324
-0.027864851 -0.096883938 0.97800004
-0.22068961 -0.084880628 0.97800004
-0.21475509 -0.085643269 0.97450006
-0.2074468 -0.085167229 0.97149998
-0.22034666 -0.079736337 0.97800004
-0.21382682 -0.075962283 0.97647852
-0.20526843 -0.07484635 0.97316664
-0.1989858 -0.073131531 0.97000003
-0.025721401 -0.072877303 0.97800004
-0.21005809 -0.069447778 0.97800004
-0.20366155 -0.066442944 0.97631586
-0.19635034 -0.063997895 0.97210008
-0.024619579 -0.062910475 0.97416669
-0.19370267 -0.055765435 0.97580957
-0.18591502 -0.053273313 0.97234982
-0.17942737 -0.050171632 0.97000003
-0.024956832 -0.054242257 0.97316128
-0.018899472 -0.05346936 0.97499996
-0.21005809 -0.04029686 0.97800004
-0.1838966 -0.0461572 0.97626668
-0.17708349 -0.043936729 0.9721666
-0.032019746 -0.042732619 0.97214288
-0.025999114 -0.044821627 0.97587883
-0.018576568 -0.047727484 0.9780001
-0.21272817 -0.034081969 0.97753847
-0.20525968 -0.03482433 0.97557157
-0.19579746 -0.033553924 0.97577792
-0.18465318 -0.032093301 0.97766674
-0.17496806 -0.035103742 0.97496295
-0.16710684 -0.033864956 0.97138476
-0.040879406 -0.031512223 0.97150004
-0.034283303 -0.034286559 0.97435719
-0.027992403 -0.0374192 0.97750002
-0.21151301 -0.027571868 0.97679996
-0.20467436 -0.026015244 0.97506261
-0.19485062 -0.025950924 0.97243732
-0.18569466 -0.027644183 0.97228581
-0.17421861 -0.026409866 0.9737097
-0.16496599 -0.025378704 0.97309357
-0.15688136 -0.023545044 0.97080016
-0.050171632 -0.021259166 0.97000003
-0.044269804 -0.025407298 0.9742918
-0.037052758 -0.028056182 0.9772501
-0.20192297 -0.018324789 0.97680008
-0.19502559 -0.015676061 0.97416008
-0.18920659 -0.013605867 0.97000003
-0.17092369 -0.019558433 0.97000003
-0.16416787 -0.018134475 0.97171432
-0.15478165 -0.015718872 0.97154522
-0.14569212 -0.013218286 0.97126317
-0.13860977 -0.011054766 0.97000003
-0.074745238 -0.014363437 0.97259253
-0.065193102 -0.013136806 0.97334987
-0.05486897 -0.015518754 0.97381806
-0.048299074 -0.019148154 0.97799999
-0.19147781 -0.0081378771 0.9772501
-0.18519251 -0.0048932768 0.97347373
-0.17942737 -0.0017007333 0.97000003
-0.15108182 -0.0087871226 0.97000003
-0.14431486 -0.0055825287 0.97222555
-0.13515045 -0.0045888126 0.97193527
-0.12712982 -0.00127555 0.97000003
-0.080784835 -0.0017007333 0.97000003
-0.077683479 -0.0054137092 0.97500008
-0.06773302 -0.0094311796 0.97800004
-0.059159219 -0.0094311796 0.97800004
-0.18148577 0.0025695099 0.97650003
-0.1750346 0.0054690414 0.97395003
-0.1677826 0.0085168164 0.97150004
-0.14055346 0.0044947951 0.97000015
-0.13465096 0.0051124524 0.9721387
-0.12501635 0.0054963161 0.97299993
-0.11571258 0.0064356099 0.97245461
-0.10678177 0.0086251469 0.97000015
-0.09524107 0.0093540335 0.97000009
-0.083750315 0.0062786462 0.97213626
-0.077833094 0.0051328833 0.97566676
-0.17061862 0.01114594 0.97800004
-0.16373523 0.013852677 0.97513336
-0.15616076 0.017340699 0.97266674
-0.14201124 0.014796379 0.97000009
-0.13440473 0.015140859 0.97217625
-0.12566093 0.014841089 0.9760347
-0.11390662 0.011990258 0.97689998
-0.10409707 0.013678978 0.97490013
-0.095482029 0.013827992 0.97537524
-0.085813545 0.013035789 0.9767223
-0.078878954 0.01200332 0.97800004
-0.15322642 0.022379171 0.97642863
-0.14479795 0.025404235 0.97278559
-0.13427554 0.025744352 0.97123516
-0.12651585 0.025374455 0.97566682
-0.14299573 0.032415502 0.97671431
-0.13511157 0.033353176 0.97544438
-0.12713391 0.032474361 0.97766674
-0.16131368 -0.27086896 0.98400003
-0.15867184 -0.27219316 0.98100007
-0.15824184 -0.26918313 0.98100007
-0.094505541 -0.24016546 0.98900002
-0.18317971 -0.23613727 0.98752952
-0.17664944 -0.23491853 0.98475015
-0.13265456 -0.23236226 0.98900002
-0.093638524 -0.23409629 0.98900014
-0.087698445 -0.23277758 0.98799998
-0.17167062 -0.22109094 0.98900002
-0.16820252 -0.22109094 0.98900002
-0.15295291 -0.22141267 0.98850006
-0.14547093 -0.22204138 0.98771441
-0.13564099 -0.22552241 0.98900008
-0.12485136 -0.22369201 0.98900002
-0.1042162 -0.22213137 0.98900002
-0.09455888 -0.22403508 0.98815387
-0.085956 -0.22484544 0.98753577
-0.18120788 -0.21068667 0.98900002
-0.17455037 -0.21435192 0.98835492
-0.16482672 -0.21410094 0.98770976
-0.15493169 -0.21465351 0.98729998
-0.14527671 -0.21461776 0.98657131
-0.1352973 -0.21451303 0.98782349
-0.12467984 -0.21377125 0.98840755
-0.11377908 -0.21434584 0.98892021
-0.10520653 -0.21463135 0.98758072
-0.094926566 -0.21504688 0.9866249
-0.084892116 -0.21519916 0.98637915
-0.07766708 -0.21374986 0.98712504
-0.036980432 -0.21242248 0.98100013
-0.20288345 -0.20028239 0.98900002
-0.1933462 -0.20201643 0.98900002
-0.1845701 -0.20404629 0.98842877
-0.17493482 -0.20512956 0.98699999
-0.16443396 -0.20481458 0.98603213
-0.1547147 -0.20484255 0.98591995
-0.14529206 -0.20509519 0.9863224
-0.1349154 -0.20496629 0.98649985
-0.12498092 -0.205102 0.98622215
-0.11562832 -0.20487039 0.98692852
-0.10514914 -0.20477615 0.98419982
-0.095135055 -0.20514658 0.98444098
-0.085522138 -0.20559274 0.9824447
-0.077591382 -0.20769073 0.98185718
-0.036980432 -0.20898242 0.98100007
-0.013115153 -0.20188734 0.98100001
-0.0077400901 -0.20038232 0.98100007
-0.21335186 -0.19317912 0.98814297
-0.20494202 -0.19489016 0.98734611
-0.19533236 -0.19450493 0.98540735
-0.18465871 -0.1949088 0.98399997
-0.17515598 -0.19532871 0.98516107
-0.16518345 -0.1950278 0.98399991
-0.15495664 -0.19508797 0.98437476
-0.14487633 -0.19518383 0.98451406
-0.13508683 -0.19513649 0.98381239
-0.12504555 -0.19489832 0.98369974
-0.11554624 -0.19556136 0.98380649
-0.10490854 -0.19443358 0.98135322
-0.095118158 -0.1975293 0.98220003
-0.088007689 -0.19808896 0.98100013
-0.01290015 -0.19866231 0.98100007
-0.005593353 -0.19752418 0.98175001
-0.23207325 -0.1817859 0.98900002
-0.2248318 -0.18421182 0.98822224
-0.21553057 -0.18579333 0.98607993
-0.20565182 -0.18724062 0.98215389
-0.19780231 -0.18834218 0.98100007
-0.18318212 -0.18748218 0.98100001
-0.17551793 -0.18670443 0.98142856
-0.16533694 -0.18748218 0.98100001
-0.15517037 -0.18809649 0.98100001
-0.14459017 -0.18719614 0.98175001
-0.13493416 -0.18553011 0.9821431
-0.12601192 -0.18555743 0.98100019
-0.11803637 -0.18683717 0.98100001
-0.23236226 -0.17513871 0.98900008
-0.225521 -0.17510268 0.98503834
-0.21771613 -0.17692694 0.98160011
-0.13330156 -0.17974208 0.98100007
-0.23149523 -0.16560146 0.98900002
-0.22525319 -0.16499624 0.98443741
-0.21881111 -0.1640162 0.98100001
-0.2250751 -0.15547547 0.98695654
-0.21850201 -0.15465209 0.98215389
-0.22342578 -0.14619392 0.9878183
-0.21556829 -0.14438714 0.98250014
-0.032032523 -0.14237913 0.98166668
-0.025744351 -0.14154948 0.9818182
-0.014190165 -0.14147164 0.98100007
-0.22109094 -0.13959076 0.98900002
-0.21491416 -0.13506329 0.9855001
-0.20862211 -0.13114057 0.98200005
-0.032905683 -0.1344644 0.9855454
-0.024915084 -0.13532114 0.98725003
-0.015327548 -0.13385189 0.98282164
-0.0088867703 -0.13215487 0.98100013
0.0060200696 -0.13158153 0.98100013
-0.23338811 -0.12076557 0.98820001
-0.22650523 -0.12134266 0.98866671
-0.21239699 -0.12472436 0.98841196
-0.20530155 -0.12427038 0.9841305
-0.19866231 -0.12126141 0.98100007
-0.034211479 -0.12862322 0.98800004
-0.022253597 -0.12860847 0.98900002
-0.015249404 -0.1250602 0.98796982
-0.0054667136 -0.12504365 0.98410249
0.0038575176 -0.12591746 0.98273689
-0.24242747 -0.11373983 0.98849994
-0.23515613 -0.11489045 0.98476923
-0.22525242 -0.11499593 0.98317236
-0.21478203 -0.1151516 0.98481476
-0.2044954 -0.11519672 0.9833793
-0.19776024 -0.11501341 0.98150009
-0.014739397 -0.11878219 0.98900002
-0.0042263553 -0.11742856 0.98856264
0.0025835366 -0.11706903 0.98390919
-0.24175975 -0.10608531 0.98842859
-0.23518842 -0.10530103 0.98317254
-0.22704266 -0.10750125 0.98100001
-0.19694228 -0.10922127 0.98100007
-0.24016546 -0.099707685 0.98900002
-0.23475975 -0.095350616 0.98686981
-0.22765326 -0.093609817 0.98127276
-0.031187594 -0.092875823 0.98280001
-0.025993694 -0.092368402 0.98839998
-0.23149523 -0.089303404 0.98900002
-0.22604279 -0.084817119 0.98525012
-0.025675593 -0.085695252 0.98862517
-0.22364511 -0.075506426 0.98700017
-0.21834588 -0.073209338 0.98250002
-0.024552677 -0.07439594 0.98514289
-0.21396141 -0.066463239 0.98600018
-0.20711102 -0.063289195 0.98300004
-0.023805445 -0.067116283 0.98150009
-0.23279577 -0.051587887 0.98900002
-0.22628275 -0.051980019 0.98820001
-0.2153108 -0.054044455 0.98900002
-0.20444344 -0.055361494 0.98674995
-0.19752644 -0.052704029 0.98200005
-0.23284781 -0.046049051 0.98842871
-0.22520268 -0.045041379 0.98496753
-0.21540198 -0.045070518 0.98436099
-0.20529181 -0.044907667 0.98496878
-0.19525301 -0.04477147 0.98485708
-0.18657687 -0.042616315 0.9828462
-0.02236026 -0.041280478 0.98100007
-0.015882827 -0.043196872 0.98435301
-0.22446568 -0.035588782 0.98785734
-0.21740517 -0.035784531 0.98185718
-0.20124233 -0.03870045 0.98100007
-0.19350928 -0.037325397 0.98250014
-0.18504418 -0.035649911 0.98220015
-0.030960359 -0.030960359 0.98100007
-0.02441201 -0.033555292 0.98409998
-0.017794775 -0.035686277 0.98755574
-0.22109094 -0.02861177 0.98900002
-0.21520475 -0.024814298 0.98585731
-0.20898242 -0.02150025 0.98100007
-0.041741386 -0.022376698 0.98175001
-0.033766061 -0.024129279 0.9850527
-0.026104568 -0.026600007 0.98792875
-0.21090716 -0.018621715 0.98800004
-0.20535985 -0.014683832 0.98561913
-0.19780231 -0.01118013 0.98100007
-0.052332614 -0.012361877 0.98400003
-0.045660626 -0.016896553 0.98618197
-0.037282005 -0.019941537 0.98900002
-0.2008604 -0.0078032096 0.98900002
-0.19492309 -0.0054663583 0.98527801
-0.18834218 -0.00172002 0.98100007
-0.072516218 -0.0047149197 0.98411775
-0.064979523 -0.0051764827 0.98566651
-0.055808675 -0.0057754098 0.98672003
-0.049420331 -0.0086702332 0.98900002
-0.18530779 0.0038051712 0.98590004
-0.17802207 0.0083134295 0.98100013
-0.072765589 0.0046831532 0.9848572
-0.068494841 0.00086702331 0.98900002
-0.17389013 0.014718924 0.98741198
-0.1666766 0.017593218 0.98430783
-0.12249 0.017814493 0.98100001
-0.11527972 0.016947759 0.98552209
-0.10584254 0.018382488 0.98400015
-0.093609832 0.018534807 0.9812727
-0.084066026 0.018218188 0.98320007
-0.075883396 0.015676096 0.9852857
-0.1624652 0.024386091 0.98750013
-0.15564139 0.026036952 0.98405892
-0.12263743 0.024940291 0.98100007
-0.11599145 0.024486668 0.98772001
-0.10461172 0.024114424 0.98789483
-0.095487364 0.024204081 0.98747826
-0.085283488 0.022443863 0.98809093
-0.078032099 0.021675583 0.98900002
-0.15374857 0.030680353 0.98860008
-0.14511091 0.034547899 0.98525
-0.13457394 0.038130794 0.98400003
-0.12431286 0.035997681 0.98314273
-0.11808123 0.034203641 0.98768765
-0.13307387 0.041469716 0.98842853
-0.12444442 0.042098645 0.98806679
-0.11878219 0.040750097 0.98900002
-0.12248787 -0.25110012 0.99800003
-0.13425009 -0.24385211 0.9978236
-0.1250025 -0.24521925 0.99655998
-0.11616906 -0.24264261 0.99800003
-0.10436466 -0.24085115 0.99800009
-0.098135971 -0.24286078 0.99650002
-0.19160601 -0.23010221 0.99800003
-0.18455458 -0.23156053 0.99299985
-0.17345846 -0.23283738 0.99429399
-0.16494574 -0.23437668 0.99643475
-0.15504131 -0.2332747 0.99706256
-0.14483665 -0.23428699 0.99644005
-0.13495196 -0.23555204 0.9936958
-0.12552273 -0.23536041 0.99433357
-0.11560399 -0.23458192 0.99791402
-0.10487536 -0.23509458 0.99690002
-0.096824326 -0.23422079 0.9932
-0.19160601 -0.22747746 0.99800003
-0.18494211 -0.22506802 0.99508357
-0.17476057 -0.22573617 0.99417263
-0.16448863 -0.22513141 0.9942503
-0.15569103 -0.22642298 0.99400014
-0.14439274 -0.22758436 0.99368739
-0.13355389 -0.22399786 0.99199992
-0.12547581 -0.22471046 0.99290943
-0.11500411 -0.22415742 0.99303472
-0.10513636 -0.22722331 0.99305868
-0.097691059 -0.22813906 0.99200004
-0.080877759 -0.22524022 0.99200004
-0.19368897 -0.21354735 0.99714285
-0.18527347 -0.21549007 0.99361557
-0.16262518 -0.21828298 0.99200004
-0.12479526 -0.21784815 0.99200004
-0.11844678 -0.21689156 0.99199998
-0.22193635 -0.20152171 0.99799997
-0.21514522 -0.20363489 0.99641174
-0.20476975 -0.20485985 0.99557149
-0.19526552 -0.20505828 0.9928751
-0.1876277 -0.20762974 0.99200004
-0.24118443 -0.19218929 0.99799997
-0.23435177 -0.19260593 0.99800009
-0.22405297 -0.19407755 0.99535292
-0.21589312 -0.19815846 0.99336356
-0.24291611 -0.18606974 0.99762505
-0.23642373 -0.18542758 0.9937309
-0.22697954 -0.18871479 0.99200004
-0.24330546 -0.17394866 0.99800009
-0.23781516 -0.17440225 0.99323517
0.016623354 -0.17192046 0.99800003
0.020123007 -0.17148301 0.99800003
-0.24278843 -0.16492116 0.99800009
-0.23652801 -0.16515563 0.99390924
0.012248786 -0.16885827 0.99800003
-0.24060117 -0.15835932 0.99800003
-0.23421744 -0.1552922 0.99430776
-0.23272757 -0.14579532 0.99585718
-0.22718209 -0.14280339 0.99224991
-0.23141457 -0.13386174 0.99800009
-0.22515413 -0.13475196 0.99479336
-0.21828298 -0.13131765 0.99200004
-0.027828906 -0.13131765 0.99200004
-0.24443182 -0.12327737 0.99628574
-0.23531941 -0.12492543 0.99416667
-0.22427033 -0.12591021 0.99455577
-0.2170466 -0.12535524 0.99246144
-0.032014843 -0.12631349 0.99599999
-0.025093613 -0.12501313 0.99425024
-0.01826272 -0.12088181 0.99200004
-0.25256887 -0.11570338 0.99650002
-0.24629927 -0.11575068 0.99274987
-0.022099702 -0.11723544 0.99692863
-0.014700354 -0.11509754 0.99467856
-0.0060098134 -0.1130154 0.9932
-0.25113443 -0.10552137 0.99714291
-0.24623065 -0.10392699 0.99357897
-0.01382363 -0.10866423 0.99800003
-0.0061222888 -0.10842349 0.9974001
-0.24443834 -0.095354147 0.99528575
-0.23799513 -0.091893375 0.99200004
-0.24239281 -0.086789742 0.99714291
-0.23544163 -0.085684247 0.9940002
-0.025002534 -0.085008614 0.99200004
-0.23062864 -0.076872706 0.99650002
-0.22697242 -0.072967924 0.99387503
-0.24366297 -0.061474495 0.99700004
-0.23551922 -0.06097769 0.99650002
-0.22425896 -0.066067643 0.99599999
-0.21688327 -0.061930202 0.99499995
-0.24494033 -0.055260245 0.99622744
-0.23562376 -0.055571165 0.99300009
-0.22469597 -0.056002438 0.995
-0.21535815 -0.05509517 0.99487501
-0.20958646 -0.054788161 0.99199998
-0.24310678 -0.046967257 0.99718189
-0.23742367 -0.044771429 0.99307126
-0.012175146 -0.040873706 0.99200004
-0.23388465 -0.035904378 0.99593753
-0.22767243 -0.032212351 0.99312508
-0.014012909 -0.034530148 0.99430776
-0.0095661869 -0.039134398 0.99200004
-0.23010221 -0.027997226 0.99800003
-0.22403683 -0.025310241 0.99566662
-0.21737142 -0.021057706 0.99260008
-0.032207858 -0.020022189 0.99300003
-0.023894779 -0.023777068 0.99479997
-0.017662203 -0.027454922 0.99739999
-0.21477188 -0.015302275 0.99559999
-0.20958646 -0.011305493 0.99200004
-0.044089597 -0.014186275 0.99593753
-0.035822436 -0.017393623 0.99663639
-0.02887214 -0.01837318 0.99800003
-0.2114121 -0.0087359836 0.99650002
-0.20468916 -0.005807186 0.99449992
-0.19771157 -0.0017414984 0.99350005
-0.053345822 -0.0019580349 0.99350005
-0.048352376 -0.0075063705 0.99560004
-0.20035516 0.00087491336 0.99800003
-0.1941887 0.003370157 0.99585718
-0.18691359 0.0072696847 0.99475002
-0.070654951 0.0069822115 0.99500006
-0.065098591 0.0036183787 0.99514282
-0.056769423 0.0018725599 0.9962858
-0.18238875 0.014213271 0.99542856
-0.17710209 0.017589089 0.9932
-0.071962059 0.015262328 0.99500006
-0.18110706 0.020123007 0.99800003
-0.17442317 0.022292286 0.99580002
-0.16674121 0.025486257 0.99466664
-0.11276504 0.027152512 0.99200004
-0.10497958 0.028450089 0.99200004
-0.093922563 0.028118791 0.99200004
-0.085423864 0.02673424 0.99433327
-0.076122306 0.023788465 0.99499995
-0.16280511 0.030990385 0.99575007
-0.15569757 0.032846946 0.99466676
-0.14685544 0.036995083 0.99457151
-0.11333204 0.034875076 0.99445456
-0.10532325 0.031965896 0.99620003
-0.094964035 0.031790897 0.99661541
-0.087491333 0.030621966 0.99800003
-0.14160065 0.042162988 0.99500006
-0.13449414 0.045870952 0.99549991
-0.12526022 0.047290772 0.99405259
-0.11669289 0.044610601 0.99585712
-0.12386274 0.052369811 0.99800009
-0.13624598 -0.26189831 1.0070001
-0.12535807 -0.26042697 1.0070001
-0.11682431 -0.26042697 1.0070001
-0.1562562 -0.25301144 1.0070001
-0.14398101 -0.25470975 1.0070001
-0.13477311 -0.25403625 1.0047824
-0.12507625 -0.25471628 1.0034544
-0.11482211 -0.25430202 1.0042142
-0.10602469 -0.25245306 1.0040001
-0.16352119 -0.24415834 1.0058333
-0.1553002 -0.24541895 1.0059999
-0.14516127 -0.24545538 1.0035198
-0.1376588 -0.24743389 1.00175
-0.12022343 -0.24834476 1.001
-0.11368438 -0.24716602 1.0016923
-0.10512681 -0.24574125 1.0012858
-0.099162392 -0.24834476 1.001
-0.16234551 -0.23781425 1.001
-0.15407154 -0.23831569 1.001
-0.1456722 -0.23956932 1.001
-0.20157343 -0.22217219 1.0070001
-0.1954862 -0.22297797 1.0025001
-0.21155852 -0.21155719 1.0055001
-0.20384839 -0.21465419 1.0060625
-0.19679162 -0.21677743 1.002125
-0.23394288 -0.20039636 1.0070001
-0.22591554 -0.20273237 1.0040001
-0.21212177 -0.20860107 1.0040001
-0.20973286 -0.20797777 1.001
-0.24146087 -0.19686542 1.0040001
-0.23500831 -0.19614445 1.0039998
-0.22782712 -0.19770236 1.0022857
-0.24706149 -0.18459766 1.0035001
-0.25159895 -0.17214665 1.0070001
-0.24753508 -0.17592843 1.0034001
0.014918236 -0.17287602 1.001
0.022851631 -0.17137736 1.0025001
-0.25159895 -0.16773263 1.0070001
-0.24760261 -0.16452102 1.0035714
0.016225029 -0.16776849 1.0029091
0.02378479 -0.16791818 1.0047059
0.030898117 -0.16684982 1.0070001
-0.24455869 -0.15544771 1.0047895
-0.23921831 -0.15216601 1.001
-0.24192931 -0.14709701 1.00625
-0.23743507 -0.1436875 1.0031
-0.24232951 -0.13197909 1.0070001
-0.23641686 -0.13503018 1.0034376
-0.26430494 -0.12532954 1.0067693
-0.25546667 -0.12453732 1.0035908
-0.24627036 -0.1279757 1.0036666
-0.23781425 -0.12899888 1.001
-0.032157011 -0.12177162 1.0022
-0.028373903 -0.12080846 1.001
-0.26265091 -0.11588276 1.0065001
-0.25802568 -0.11440607 1.003
-0.031316504 -0.11776548 1.00625
-0.025715044 -0.11354508 1.0027498
-0.018428409 -0.111448 1.001
-0.26042697 -0.10858481 1.0070001
-0.25608525 -0.10504884 1.0038126
-0.022755809 -0.10671101 1.006
-0.015155148 -0.10473976 1.0026799
-0.0052692052 -0.10362571 1.0017499
-0.25393698 -0.095982492 1.0044737
-0.24827814 -0.091840036 1.0025001
-0.022056933 -0.093697429 1.0064001
-0.013823134 -0.09911871 1.0065001
-0.0047855983 -0.098368272 1.0057143
0.00087754335 -0.097407311 1.001
-0.24567312 -0.083924644 1.0040001
-0.23774724 -0.081005231 1.0022001
-0.24188811 -0.078569494 1.0070001
-0.23502812 -0.075219534 1.0044737
-0.25413585 -0.063501023 1.0052632
-0.24556503 -0.065055683 1.0040001
-0.23491241 -0.066228777 1.0035908
-0.22618935 -0.06349726 1.0013335
-0.25399128 -0.054761183 1.0039999
-0.24834476 -0.050019968 1.001
-0.22201847 -0.058795404 1.001
-0.25193763 -0.047917429 1.006
-0.24641399 -0.043976013 1.00325
-0.24298821 -0.036005322 1.0052857
-0.23758261 -0.033465192 1.0016667
-0.012138503 -0.032192778 1.0034001
-0.0089425007 -0.033123471 1.0057143
-0.23397495 -0.026162362 1.0044285
-0.22682346 -0.021714529 1.0022857
-0.021973899 -0.021221718 1.0027143
-0.015322206 -0.025186105 1.0046
-0.22321248 -0.016544629 1.0039999
-0.21835808 -0.013187696 1.0030001
-0.042122081 -0.011408064 1.001
-0.034635209 -0.013455494 1.0022632
-0.026179835 -0.016235555 1.0050714
-0.2147636 -0.0072607724 1.0040001
-0.20725605 -0.0026346026 1.00175
-0.050019968 -0.0026326301 1.001
-0.044853691 -0.0075921728 1.0031819
-0.035909642 -0.0094503416 1.0061429
-0.20198099 0.0044106347 1.0048572
-0.19593954 0.007767851 1.003
-0.063864037 0.0080315191 1.0018572
-0.056524225 0.0052855113 1.0043001
-0.19296989 0.013012802 1.00625
-0.18748577 0.015341569 1.003
-0.071081012 0.01579578 1.001
-0.068158202 0.013629537 1.00325
-0.18201441 0.021982417 1.0030001
-0.17524965 0.026982047 1.0045455
-0.16895002 0.02840283 1.002
-0.081611529 0.02895893 1.001
-0.073800318 0.026203392 1.003
-0.069308676 0.024085248 1.0050001
-0.17214663 0.031486653 1.0070001
-0.16459146 0.033849534 1.0040002
-0.15500225 0.037213307 1.0037857
-0.14830482 0.039489448 1.001
-0.111448 0.039489448 1.001
-0.10553876 0.037096836 1.0036842
-0.094544016 0.036071785 1.0034705
-0.084940188 0.033529915 1.0035001
-0.077529766 0.031425286 1.005
-0.14479035 0.044483915 1.0036668
-0.13908376 0.047728073 1.002
-0.1128796 0.045548312 1.0040001
-0.10913886 0.041368149 1.0040001
-0.14124852 0.050319791 1.0070001
-0.13435626 0.0519468 1.0043001
-0.12498385 0.054951347 1.0040001
-0.11603311 0.051638156 1.0040001
-0.14166933 -0.26120284 1.01
-0.13291338 -0.26258016 1.0100001
-0.1254364 -0.26238343 1.01
-0.16026343 -0.25234851 1.01
-0.15313312 -0.25457063 1.0110002
-0.14875281 -0.25544751 1.01
-0.1354713 -0.25898924 1.01
-0.12130436 -0.25943196 1.01
-0.11185974 -0.25884166 1.01
-0.16424789 -0.24792133 1.01
-0.2045351 -0.22224377 1.01
-0.20586327 -0.21693116 1.01
-0.2417233 -0.20099336 1.01
-0.23463984 -0.2018788 1.01
-0.2417233 -0.19922251 1.01
-0.23906699 -0.19922251 1.01
-0.2629348 -0.18253572 1.0190001
-0.25530943 -0.18294322 1.0138826
-0.26276466 -0.17777134 1.0190001
-0.25626209 -0.17506629 1.0146365
-0.25525001 -0.16456822 1.0140589
0.016383022 -0.16569564 1.0138571
0.025527429 -0.16371028 1.0132611
0.0336789 -0.16304208 1.0147142
-0.25450283 -0.15544727 1.0165715
-0.248896 -0.15238729 1.0118001
0.027664093 -0.15974796 1.018
0.034839608 -0.15990488 1.0190001
-0.25270391 -0.14509381 1.0181669
-0.24603917 -0.14414801 1.0131766
-0.26135844 -0.13380256 1.0175
-0.25476998 -0.1337083 1.0161365
-0.2456432 -0.136259 1.0133749
-0.23995243 -0.13901304 1.01
-0.27280113 -0.1227982 1.0136
-0.27261677 -0.11588929 1.0169001
-0.26687446 -0.11383137 1.0118002
-0.030990167 -0.11333547 1.01
-0.27186808 -0.10809212 1.0190001
-0.26499665 -0.10547812 1.0134093
-0.024179142 -0.10277839 1.0100001
-0.018594099 -0.10005397 1.01
-0.26275453 -0.09797363 1.016
-0.25749353 -0.093606807 1.0105001
-0.021914477 -0.096290886 1.0100001
-0.015230254 -0.094588332 1.0116959
-0.0056483238 -0.093827128 1.0123184
-0.25346431 -0.086592942 1.0136666
-0.24829085 -0.080694094 1.0115
-0.020829072 -0.087053522 1.0154001
-0.015628045 -0.08800704 1.0168
-0.0053476668 -0.089156128 1.017
-0.27067697 -0.07057254 1.0190001
-0.26456267 -0.072096884 1.0170714
-0.2541829 -0.074950434 1.0158421
-0.24576841 -0.074401423 1.0123754
-0.23950972 -0.07349097 1.01
-0.2646848 -0.065281942 1.0145001
-0.25524625 -0.06850034 1.0100001
-0.24526502 -0.068684325 1.0100001
-0.23995243 -0.069949232 1.01
-0.26360327 -0.055731796 1.0156001
-0.25909677 -0.053471114 1.011
-0.26174372 -0.049132783 1.0190001
-0.2549997 -0.044974688 1.0145
-0.25154504 -0.037463035 1.0175
-0.24674076 -0.035417333 1.0100001
-0.24229176 -0.026066933 1.0155715
-0.2367252 -0.022676179 1.0127273
-0.01312598 -0.022528406 1.0118001
-0.0062281834 -0.024798552 1.0156788
0.00089332333 -0.022333084 1.0190001
-0.23408882 -0.017533626 1.017
-0.22619314 -0.013511715 1.0142
-0.02310151 -0.013648121 1.0110002
-0.015953902 -0.015674291 1.0142633
-0.0098265568 -0.018759791 1.0190001
-0.2227851 -0.0086139804 1.0165
-0.21446109 -0.0026634387 1.0138571
-0.2098477 -0.00088543334 1.01
-0.0504697 -0.00088543334 1.01
-0.044689618 -0.0032202159 1.0145001
-0.035004314 -0.0062187444 1.0141251
-0.025368815 -0.0082311872 1.0154376
-0.017866466 -0.0098265568 1.0190001
-0.21200846 0.002232651 1.01825
-0.20647794 0.0059141479 1.0144118
-0.05370798 0.0059690983 1.0138572
-0.048167136 0.00089200831 1.0175
-0.20302241 0.014273448 1.0175
-0.19578765 0.015930844 1.013
-0.065157324 0.015228762 1.0152106
-0.058468625 0.012051317 1.01825
-0.19192316 0.021424638 1.01825
-0.18509306 0.025593767 1.0147648
-0.17885754 0.028333865 1.01
-0.070938557 0.029262695 1.0115
-0.068380877 0.027529962 1.013
-0.18197101 0.031220291 1.0175
-0.17545539 0.033080824 1.0136667
-0.16504097 0.037495326 1.0103334
-0.1567217 0.039844498 1.01
-0.10182483 0.039844498 1.01
-0.094795547 0.039868169 1.0106001
-0.084832691 0.037983924 1.0115
-0.074068025 0.035243753 1.0140802
-0.16169152 0.041986197 1.0190001
-0.1543286 0.043638106 1.0157692
-0.14754689 0.047069605 1.0129999
-0.11103334 0.046219621 1.01
-0.1049554 0.045192782 1.0136669
-0.095322788 0.043401327 1.0162144
-0.085097067 0.041568641 1.0175
-0.078612454 0.040199548 1.0190001
-0.14313003 0.054011781 1.0166
-0.13542563 0.057056196 1.0133336
-0.12511475 0.058943182 1.012143
-0.11467308 0.056565132 1.0133752
-0.10794472 0.053850003 1.0164286
-0.1339985 0.061639309 1.0190001
-0.12488182 0.061995238 1.0175
-0.11652917 0.061924051 1.0178
-0.2686764 -0.18061525 1.0250001
-0.27126521 -0.17753902 1.028
-0.26644176 -0.17422596 1.0241177
0.0099133467 -0.17032932 1.028
0.011715773 -0.17032932 1.028
-0.27126521 -0.16402082 1.028
-0.26497608 -0.1649487 1.0245713
0.0099133467 -0.16852689 1.028
0.015284332 -0.16507457 1.0256001
0.021997537 -0.1611767 1.02425
-0.27086937 -0.15838343 1.0265
-0.26474252 -0.15488568 1.0252221
-0.2589305 -0.15320802 1.0220001
0.027896188 -0.15793018 1.0265
0.03531884 -0.1559412 1.0261738
0.040776104 -0.15530179 1.026
-0.26254937 -0.14574458 1.0271429
-0.25807521 -0.14450236 1.0227503
-0.2627703 -0.13812374 1.0244001
-0.25779995 -0.13831906 1.0232
-0.27945942 -0.12130875 1.0250001
-0.28027734 -0.11805894 1.028
-0.2770111 -0.11403329 1.02425
-0.27363315 -0.10472564 1.025818
-0.26789004 -0.10124273 1.0220001
-0.26527232 -0.095294625 1.0263635
-0.26096562 -0.084070332 1.028
-0.25753909 -0.084720738 1.025375
-0.022133933 -0.082846902 1.0235001
-0.01451394 -0.083238937 1.0235883
-0.0053888704 -0.083547235 1.0247998
0.00089989835 -0.08278802 1.0265
-0.27410358 -0.072114311 1.024
-0.26489323 -0.076252587 1.0232859
-0.25841329 -0.078063659 1.0235001
-0.021411533 -0.078626655 1.0262001
-0.016428404 -0.078768387 1.026875
-0.00434221 -0.07742241 1.028
-0.27397111 -0.066392966 1.02575
-0.26968196 -0.060924828 1.0220001
-0.27073744 -0.056664228 1.026
-0.26764402 -0.052593865 1.0238001
-0.26433221 -0.046163719 1.0263846
-0.25779995 -0.041799817 1.0232
-0.25422195 -0.035545327 1.0265
-0.24817908 -0.031358365 1.0220001
-0.24572492 -0.024764329 1.0245715
-0.0031391243 -0.022868507 1.0227501
0.0017971667 -0.021566 1.0250001
-0.24237305 -0.017096316 1.0265
-0.23542659 -0.013465399 1.0240772
-0.012567016 -0.013462971 1.024
-0.0060205078 -0.016266461 1.0252999
0.00089989835 -0.01799665 1.0265
-0.23355506 -0.0087832147 1.027625
-0.22498085 -0.0050505861 1.0250001
-0.2180362 -0.0017932217 1.0235001
-0.040915202 -0.0014932556 1.0220001
-0.03495191 -0.0017921698 1.0223002
-0.024996167 -0.0031638436 1.0242105
-0.016480165 -0.0070406557 1.0255001
-0.22102889 0.0041450551 1.0274
-0.21552815 0.005690882 1.0248332
-0.20875713 0.0098554865 1.0220001
-0.052417364 0.0080890032 1.0250001
-0.045227293 0.002937827 1.025
-0.034830574 0.0024253319 1.0268461
-0.027487006 0.00135182 1.028
-0.21191116 0.01257162 1.02425
-0.20636983 0.015236137 1.0223752
-0.19979759 0.01881502 1.0220001
-0.061312456 0.017647155 1.0235001
-0.057019364 0.015471676 1.0258999
-0.20157723 0.021598876 1.0265
-0.19500029 0.023043476 1.0239999
-0.18904616 0.025982646 1.0220001
-0.066778049 0.024018092 1.0248001
-0.18394265 0.032300346 1.0235001
-0.17516041 0.036472183 1.0272499
-0.16933517 0.038525995 1.0220001
-0.067742653 0.034541983 1.0235001
-0.1612903 0.04458493 1.024
-0.15579243 0.047590725 1.02425
-0.10213868 0.049277432 1.0220001
-0.094617926 0.047938939 1.024
-0.085150093 0.04662225 1.0248333
-0.075803317 0.042948972 1.0253332
-0.068292335 0.040436249 1.0250001
-0.15140384 0.052270375 1.028
-0.14675829 0.055426702 1.0238751
-0.10421105 0.054931246 1.0247858
-0.095832184 0.051583819 1.0271428
-0.14206748 0.061315089 1.0235001
-0.13550411 0.064534873 1.0247501
-0.12479021 0.065540344 1.0240771
-0.11471447 0.065048516 1.024647
-0.10763479 0.061463684 1.026
-0.2734206 -0.17481577 1.031875
-0.27341262 -0.16630718 1.031
0.009971207 -0.16588461 1.034
0.01450594 -0.1632107 1.0343001
-0.27149647 -0.15340142 1.0330001
0.017862521 -0.15865986 1.0361668
0.025332497 -0.15507007 1.0349232
0.033930946 -0.15134928 1.03225
0.042842172 -0.15166491 1.031
-0.27135605 -0.1461428 1.0380001
-0.26675203 -0.14517879 1.032091
0.028209379 -0.14832674 1.0380001
0.035307746 -0.14722475 1.0354002
0.044405438 -0.14599699 1.035591
-0.29089028 -0.12163398 1.0380001
-0.28563523 -0.12150659 1.0343333
-0.2915836 -0.11634744 1.0380001
-0.28494811 -0.1150105 1.0349413
-0.28162283 -0.10694528 1.0355999
-0.27686378 -0.10307886 1.0324445
-0.27406844 -0.095070034 1.0356668
-0.26822856 -0.093530834 1.0325001
-0.27026406 -0.084628135 1.0380001
-0.26590705 -0.085232325 1.0343126
-0.28109527 -0.071403623 1.031
-0.27294549 -0.078462251 1.0366668
-0.26663378 -0.078634366 1.031
-0.021723362 -0.074220791 1.0325
-0.014396689 -0.07374303 1.0344801
-0.0057109566 -0.073223934 1.0338001
-0.28151897 -0.067053892 1.0336667
-0.2775656 -0.063614435 1.0330001
-0.020889213 -0.068113491 1.036
-0.01740534 -0.066630676 1.0371429
-0.0027279363 -0.068431355 1.0368572
-0.27454531 -0.055271104 1.0335555
-0.27206475 -0.048330285 1.0324
-0.26633248 -0.043384477 1.031
-0.26247925 -0.037692282 1.036
-0.2570239 -0.034017168 1.0328572
-0.25270373 -0.026681524 1.0354
-0.24819542 -0.022617998 1.0320001
-0.24566354 -0.014862006 1.0318573
-0.0035420523 -0.012280028 1.0343637
0.0013599292 -0.01359732 1.03425
-0.24223001 -0.0099422764 1.031
-0.2351691 -0.0054254704 1.0317501
-0.22757812 -0.0021094058 1.0315
-0.020788396 -0.00090384332 1.031
-0.013963955 -0.0042919843 1.0346
-0.0081587601 -0.0086759934 1.0342858
-0.23022494 0.00272994 1.0380001
-0.22471783 0.0043998649 1.0330001
-0.21873009 0.0090384334 1.031
-0.051668979 0.00815826 1.034
-0.045708776 0.006346941 1.0338572
-0.035988044 0.005748888 1.0350001
-0.025529996 0.0030236235 1.034
-0.01816278 0.00090822665 1.036
-0.22027302 0.011784153 1.034
-0.21723932 0.011767058 1.0325
-0.053374361 0.014158254 1.0355002
-0.1954641 0.026814727 1.0342858
-0.062243462 0.023165915 1.0332857
-0.057671517 0.021344204 1.036
-0.19291577 0.03002934 1.0380001
-0.18945293 0.031726565 1.034
-0.17560333 0.038468573 1.0325
-0.17241016 0.042683523 1.0358572
-0.16617012 0.045298059 1.0333573
-0.15817258 0.049711388 1.031
-0.082249746 0.049711388 1.031
-0.074498124 0.047740765 1.0334617
-0.068478294 0.045354679 1.0346251
-0.1624703 0.051128954 1.0353333
-0.15482108 0.054493599 1.0346155
-0.1495681 0.058014296 1.034
-0.10174368 0.057272885 1.0322858
-0.094627157 0.056591664 1.035524
-0.085503884 0.054637853 1.0357919
-0.075170979 0.052016139 1.0376365
-0.067641847 0.050655555 1.0380001
-0.15014669 0.06096866 1.0380001
-0.14433718 0.064757466 1.0355
-0.13425449 0.068484701 1.0337143
-0.12542972 0.069366626 1.0314287
-0.11410656 0.069137312 1.0318573
-0.10504764 0.064683631 1.0348002
-0.096275881 0.061332654 1.0380001
-0.13437371 0.070675105 1.0380001
-0.12456838 0.071833007 1.0372001
-0.11409026 0.071819171 1.0370001
-0.10768095 0.070675112 1.0380001
0.01119098 -0.16216151 1.042125
0.0082608303 -0.15879151 1.0470001
0.015693586 -0.15643765 1.0444286
0.022058938 -0.15259258 1.0422857
-0.27495947 -0.14706959 1.0419999
0.025992289 -0.14716795 1.044
0.034394745 -0.14253062 1.0435501
0.044493861 -0.14112055 1.0434545
0.050482851 -0.14043412 1.0470001
0.0367148 -0.13859837 1.0470001
0.042222019 -0.13859837 1.0470001
-0.29477304 -0.12137713 1.041
-0.29455832 -0.11472044 1.0410001
-0.28838477 -0.11133842 1.041
-0.29168013 -0.10880923 1.0430001
-0.28504518 -0.104765 1.0428001
-0.28271553 -0.094926186 1.0431999
-0.27761596 -0.091808565 1.041
-0.28270394 -0.089033388 1.0470001
-0.27530351 -0.085145749 1.043286
-0.27731773 -0.079625882 1.044
-0.28512806 -0.06309554 1.0431
-0.012732706 -0.065001324 1.0424
-0.0050623994 -0.065087765 1.0438
0.00091786997 -0.063333027 1.0470001
-0.28237295 -0.057728875 1.0452857
-0.27834606 -0.05384399 1.041
-0.01560379 -0.059661549 1.0470001
-0.26363569 -0.032793734 1.0448999
-0.25826862 -0.03011613 1.041
-0.26232344 -0.027515717 1.04625
-0.25687954 -0.023641506 1.044
-0.25364596 -0.018574812 1.0419999
-0.00091260998 -0.01003871 1.041
0.0031070821 -0.01078037 1.0422001
-0.011504672 -0.001643224 1.0416
-0.0041580293 -0.0041532484 1.0434548
0.0019616042 -0.0064063044 1.0444286
-0.043320481 0.0076287538 1.044
-0.035702251 0.0073245498 1.044
-0.023382204 0.0056184311 1.0431429
-0.015580558 0.0029039588 1.0454999
-0.051666349 0.015304721 1.0444286
-0.04758985 0.01006764 1.044
-0.20347653 0.026580751 1.0455
-0.19803637 0.028290911 1.041
-0.064470939 0.027312549 1.0423334
-0.056838352 0.025005637 1.0444615
-0.20101354 0.03028971 1.0470001
-0.19522576 0.032998163 1.0454999
-0.18592672 0.037003726 1.044
-0.17978416 0.03924223 1.041
-0.063589193 0.030970877 1.0452001
-0.18364023 0.043561183 1.0460625
-0.17593209 0.046042364 1.0433999
-0.16883285 0.048368331 1.041
-0.17427169 0.051364556 1.04625
-0.16529271 0.054184411 1.0453125
-0.15673703 0.058244422 1.0435001
-0.082770705 0.058991551 1.0432501
-0.074593812 0.056203093 1.0433334
-0.068544373 0.054836817 1.0425
-0.15339124 0.06349726 1.0463333
-0.14735496 0.066585027 1.044
-0.10182899 0.067126147 1.04175
-0.095182329 0.065234281 1.0440001
-0.086248688 0.062918685 1.0456363
