# .PCD v0.7 - Point Cloud Data file format
VERSION 0.7
FIELDS x y z
SIZE 4 4 4
TYPE F F F
COUNT 1 1 1
WIDTH 1439
HEIGHT 1
VIEWPOINT 0 0 0 1 0 0 0
POINTS 1439
DATA ascii
-0.088364139 -0.10228209 1.2028
-0.089569032 -0.097999059 1.202
-0.079031497 -0.081139006 1.202
-0.081139006 -0.079031497 1.202
-0.074047461 -0.075734168 1.2032001
-0.070836417 -0.068721898 1.2060001
-0.06849397 -0.06849397 1.202
0.085354023 -0.06006394 1.202
0.077977747 -0.051633913 1.202
0.081841506 -0.052336413 1.202
0.057956435 -0.041096378 1.202
0.065229043 -0.04387958 1.2024999
0.074534386 -0.046288386 1.2031111
0.081800893 -0.048022922 1.204
-0.034358516 -0.03365289 1.2037778
-0.02845134 -0.030558847 1.202
-0.011591286 -0.032666352 1.202
-0.0057618571 -0.032381233 1.2035384
0.0044823964 -0.031387296 1.2035
0.011591286 -0.030558847 1.202
0.055890229 -0.036203802 1.202889
0.061915457 -0.038246863 1.2052002
-0.023702145 -0.026230685 1.2033333
-0.015346657 -0.025901457 1.2041539
-0.0052862996 -0.02854602 1.2060001
0.01477534 -0.028498679 1.204
0.022694269 -0.023219395 1.204
0.048175167 -0.022503449 1.2033334
0.027421258 -0.01476219 1.2030001
0.034773864 -0.012527956 1.202
0.043286044 -0.014325985 1.2042857
0.0356365 -0.0087105595 1.2045002
0.041233141 -0.0095153395 1.2060001
-0.071599998 -0.27250746 1.2190001
-0.064591266 -0.27169368 1.2177501
-0.057470761 -0.27138969 1.2140001
-0.083715521 -0.26304072 1.2175714
-0.074995801 -0.26443645 1.2140001
-0.064585507 -0.26544222 1.2118949
-0.057493549 -0.26667672 1.21
-0.091548257 -0.25184676 1.2190001
-0.085250571 -0.25467607 1.2155001
-0.075083457 -0.25542215 1.2106954
-0.066828296 -0.25800201 1.21
-0.092331931 -0.24472237 1.219
-0.085170463 -0.24486022 1.214375
-0.092665419 -0.23514289 1.2170769
-0.085017905 -0.23485811 1.2122002
-0.078042112 -0.23685405 1.21
-0.09277267 -0.22499326 1.2163334
-0.08533188 -0.22493489 1.211
-0.093484521 -0.21447028 1.2163334
-0.084909834 -0.21498203 1.2106664
-0.078496732 -0.2132141 1.21
-0.094440207 -0.20548023 1.2168572
-0.085032806 -0.20513296 1.2124001
-0.078496732 -0.20472796 1.21
-0.10223482 -0.19271441 1.2190001
-0.093867421 -0.19474933 1.2174211
-0.08525306 -0.19485025 1.213158
-0.078496739 -0.19624184 1.21
-0.11220895 -0.18238407 1.219
-0.10437349 -0.18548149 1.2173333
-0.094719313 -0.18517953 1.2139499
-0.084775217 -0.18510282 1.2114116
-0.079133198 -0.18733139 1.21
-0.12161313 -0.17376359 1.2190001
-0.11494271 -0.17454775 1.2172143
-0.10526837 -0.17544535 1.2128803
-0.094782621 -0.17664887 1.21
-0.08556851 -0.17856239 1.21
-0.12172779 -0.16550678 1.2180001
-0.11490472 -0.16490908 1.2136002
-0.12075821 -0.15816119 1.2190001
-0.11467297 -0.15478511 1.2148889
-0.1073562 -0.15454054 1.2106154
-0.11297183 -0.14671156 1.2180001
-0.10621557 -0.14503768 1.2115555
-0.11007164 -0.13785671 1.2190001
-0.1040176 -0.1352323 1.2126315
-0.10284393 -0.1254777 1.213909
-0.10099492 -0.11800226 1.2126669
-0.098202445 -0.1146566 1.2110001
-0.093955874 -0.10669384 1.2110001
-0.08091414 -0.075586632 1.2145001
-0.077113837 -0.074039467 1.2123334
-0.073457949 -0.068487242 1.2143334
-0.069063798 -0.065874487 1.2120001
0.077168874 -0.042122662 1.2113334
0.081814036 -0.042499047 1.2120001
-0.037249569 -0.032992471 1.2140001
0.056683511 -0.031631187 1.2108001
0.065526143 -0.034246419 1.2133501
0.074481122 -0.035410225 1.216421
0.081217907 -0.038471639 1.2190001
-0.031345218 -0.027093383 1.2120001
-0.024441576 -0.021515921 1.2121251
-0.013800988 -0.021386908 1.2111429
-0.0053147469 -0.023388196 1.2128502
0.0053244876 -0.024476361 1.2142801
0.014723772 -0.023741577 1.2150589
0.021061216 -0.021909827 1.2134001
0.049856033 -0.020154567 1.21
0.055378426 -0.024488192 1.2147001
0.063245043 -0.026522117 1.219
-0.020989152 -0.017429886 1.2173334
-0.014929196 -0.016421806 1.2165
-0.0053432835 -0.017098507 1.219
0.0036334328 -0.0177397 1.2190001
0.024930822 -0.015555046 1.2154001
0.04777395 -0.014861254 1.2110001
0.053581662 -0.014852013 1.2166922
0.028743273 -0.0074466988 1.2143334
0.034726828 -0.0036881883 1.2134117
0.04474882 -0.0053216103 1.2152777
0.051536933 -0.007208501 1.218375
0.037135817 0.0029388058 1.219
0.042746268 0.0010686567 1.2190001
-0.07379096 -0.28204066 1.2270001
-0.06920144 -0.28146696 1.2270001
-0.08497794 -0.27322015 1.2270001
-0.075296901 -0.27537152 1.2270001
-0.067658506 -0.27599832 1.2250001
-0.10003731 -0.2613878 1.2270001
-0.093328916 -0.26422194 1.2260002
-0.086051293 -0.26791608 1.2255456
-0.078267924 -0.269113 1.223
-0.10003731 -0.25385809 1.2270001
-0.095318839 -0.2558648 1.2255715
-0.10165082 -0.24525276 1.2270001
-0.096922994 -0.24522811 1.2238889
-0.10046758 -0.23385067 1.2270001
-0.097924255 -0.23551853 1.223
-0.10154325 -0.22481504 1.2270001
-0.097566865 -0.22515431 1.223
-0.11151112 -0.21262409 1.2270001
-0.1050432 -0.2145932 1.2251334
-0.098907068 -0.21630898 1.223
-0.11366247 -0.20557249 1.2269999
-0.10512514 -0.20488331 1.2235998
-0.098996408 -0.20120931 1.223
-0.13418983 -0.19227602 1.2270001
-0.11493496 -0.19492377 1.2263999
-0.10567658 -0.19559598 1.2233077
-0.099175103 -0.19674197 1.223
-0.13445875 -0.18501523 1.227
-0.12472776 -0.18494116 1.2265
-0.1154159 -0.18619268 1.2232498
-0.1082885 -0.1897729 1.223
-0.13295263 -0.17559752 1.2263333
-0.12570381 -0.17572035 1.223923
-0.11793797 -0.17905128 1.223
-0.13230741 -0.16672885 1.2270001
-0.1266728 -0.16487439 1.2256668
-0.12296434 -0.15571618 1.2250001
-0.11901013 -0.15224719 1.223
-0.12155071 -0.14951813 1.2270001
-0.11644176 -0.14453691 1.2254617
-0.11258525 -0.13515416 1.2260002
-0.1082885 -0.1318761 1.223
-0.11079401 -0.12800473 1.2270001
-0.10727537 -0.12551148 1.2236668
-0.10309425 -0.1170534 1.2250001
-0.097566865 -0.11043283 1.223
-0.093278207 -0.10399985 1.223
0.078267924 -0.031092737 1.223
0.081484407 -0.033237062 1.223
-0.033237062 -0.026804084 1.223
-0.028948409 -0.022515429 1.223
0.066416189 -0.023697816 1.2237271
0.074826926 -0.027021658 1.2240909
0.081750922 -0.027967419 1.2270001
-0.022562185 -0.016115179 1.2256669
-0.014366989 -0.012651528 1.223
-0.0053608166 -0.012865961 1.2229999
0.0055346666 -0.014455898 1.2251538
0.014740513 -0.016299384 1.2248182
0.022261698 -0.014889683 1.2258574
0.058578692 -0.014374703 1.2238001
0.061851025 -0.016672885 1.2270001
-0.01290804 -0.0096810302 1.2270001
-0.0053783501 -0.0096810302 1.2270001
0.00107567 -0.0096810302 1.2270001
0.027714413 -0.0053755445 1.2254002
0.048247349 -0.0010721633 1.223
0.055513043 -0.0047534117 1.2244285
0.035089258 0.0056993444 1.2242306
0.044555265 0.0046551004 1.2246667
0.052128792 0.0016126283 1.2260002
-0.091953568 -0.28126797 1.2340001
-0.084983751 -0.28343621 1.2327275
-0.07812386 -0.28261396 1.2320001
-0.10149345 -0.27269593 1.2360001
-0.09476269 -0.27419707 1.2330002
-0.085324213 -0.27865374 1.2320002
-0.078843892 -0.27865374 1.2320001
-0.11269024 -0.26222152 1.2360001
-0.10461923 -0.26461339 1.233905
-0.097420812 -0.26720518 1.2320001
-0.11281064 -0.25511816 1.2360001
-0.10584524 -0.25489259 1.2320002
-0.11196786 -0.24710639 1.2352002
-0.10685164 -0.24518496 1.2328001
-0.1050609 -0.23516524 1.2333335
-0.11160668 -0.22212979 1.2360001
-0.10684034 -0.22485603 1.2337779
-0.12236303 -0.21375796 1.2352002
-0.11595469 -0.21554501 1.2328573
-0.10908539 -0.21925083 1.2320001
-0.14194636 -0.2004586 1.2360001
-0.13517411 -0.20208395 1.2360001
-0.12446529 -0.20435356 1.2345456
-0.11916589 -0.20521013 1.2320002
-0.14291507 -0.19488475 1.2350001
-0.13500667 -0.19565581 1.2320002
-0.12504618 -0.19500963 1.2320002
-0.11988592 -0.19872981 1.2320001
-0.14315839 -0.18526645 1.2345456
-0.13587071 -0.18468913 1.2320001
-0.14194636 -0.17662029 1.2360001
-0.13859399 -0.17381895 1.2337143
-0.13351309 -0.16545238 1.2335385
-0.12852634 -0.16092795 1.2320001
-0.13219431 -0.15819976 1.2360001
-0.12692276 -0.15394792 1.2332002
-0.12426829 -0.14532171 1.2345456
-0.11988592 -0.14256704 1.2320001
-0.12157543 -0.13631184 1.2360001
-0.11688948 -0.13453795 1.2326669
-0.11395352 -0.12667307 1.2350001
-0.10920345 -0.12217578 1.2333335
-0.10485196 -0.11728135 1.233
-0.037801865 -0.031321548 1.2320001
-0.035699621 -0.028125219 1.2340001
-0.02925612 -0.02058764 1.2360001
0.068043359 -0.020521013 1.2320001
0.074126646 -0.021503268 1.2333335
0.081135496 -0.022714432 1.2340001
-0.023477132 -0.014808654 1.2360001
-0.018360907 -0.011880587 1.2320001
0.0086404271 -0.011880587 1.2320001
0.015768778 -0.012312608 1.2320001
0.021601066 -0.011880587 1.2320001
0.065793552 -0.014598545 1.2336668
0.072598517 -0.016795179 1.2360001
-0.014496207 -0.006489086 1.2340001
-0.0054074558 -0.0043221423 1.2334001
0.0053126002 -0.0056033353 1.234182
0.015343317 -0.0061723529 1.2345884
0.023388371 -0.0052698632 1.2337502
0.059467223 -0.0032413288 1.2333335
0.062254731 -0.0081188101 1.2350001
-0.0043342402 0.0010835599 1.2360001
0.028471796 0.0036060221 1.2333335
0.032967053 0.0091883428 1.233
0.047162328 0.0082804086 1.2320002
0.054435622 0.0056962301 1.2336001
0.036959767 0.013146493 1.2348573
0.044534445 0.014756272 1.2352501
0.052372064 0.013363908 1.2360001
-0.10150485 -0.28050265 1.245
-0.095501877 -0.28432274 1.245
-0.088123411 -0.28830498 1.2410001
-0.11169172 -0.27359012 1.245
-0.10555439 -0.2754811 1.2444999
-0.099321947 -0.27831975 1.245
-0.12115095 -0.26194799 1.245
-0.11621825 -0.26454866 1.2441112
-0.10988227 -0.268722 1.2410001
-0.1177828 -0.2551924 1.244
-0.11460225 -0.2458491 1.245
-0.11202247 -0.23446327 1.245
-0.10770639 -0.2360837 1.2410001
-0.13206545 -0.22156435 1.245
-0.12187859 -0.22229199 1.245
-0.11558114 -0.22462444 1.2437999
-0.10988227 -0.22846809 1.2410001
-0.1416702 -0.21239617 1.245
-0.13520545 -0.21534683 1.2437501
-0.12744994 -0.21581066 1.2443333
-0.15171155 -0.20191824 1.245
-0.1450747 -0.2050758 1.2431176
-0.13526763 -0.20779718 1.2410001
-0.12837732 -0.20670922 1.2410001
-0.15171155 -0.19536954 1.245
-0.1482005 -0.19505569 1.243
-0.15171155 -0.18882085 1.245
-0.14825967 -0.18423282 1.2435
-0.14422943 -0.17503658 1.244
-0.14137389 -0.16826594 1.2436666
-0.13765332 -0.16208497 1.2442
-0.13401106 -0.15434662 1.2427778
-0.12988254 -0.15171155 1.245
-0.13333276 -0.14598796 1.2446001
-0.12857758 -0.1441627 1.2444285
-0.13352071 -0.13788651 1.245
-0.1249436 -0.13487937 1.2441112
-0.12115095 -0.12879109 1.245
-0.1161999 -0.12361053 1.2434
-0.11096408 -0.11824042 1.245
-0.10430434 -0.11411569 1.2436666
-0.099321947 -0.11023645 1.245
-0.071489975 -0.063304096 1.245
-0.06527096 -0.060908169 1.2438571
-0.07094425 -0.056755401 1.245
-0.064166911 -0.054999433 1.2448003
-0.057301123 -0.052935325 1.245
-0.063522384 -0.048242085 1.245
-0.054260653 -0.045061287 1.245
-0.047368933 -0.041256808 1.245
-0.051298149 -0.038200751 1.245
-0.045006253 -0.03486219 1.2450001
-0.040383648 -0.029469149 1.245
-0.034562584 -0.024739534 1.245
-0.02596038 -0.01548807 1.2442
0.077275097 -0.013604114 1.2415001
0.081595749 -0.01631915 1.2410001
-0.020737549 -0.0098230503 1.245
-0.015927454 -0.0037102285 1.2442
0.0097914897 -0.0010879433 1.2410001
0.014143263 -0.0010879433 1.2410001
0.066744357 -0.0054467302 1.243
0.07308916 -0.0087263398 1.2443334
-0.012733583 0.0018190834 1.245
-0.004965927 0.0035129981 1.2432222
0.0051378929 0.0031164254 1.2432859
0.015427704 0.0020264776 1.2444285
0.023523096 0.0026496623 1.2438571
0.059836883 0.0087035466 1.2410001
0.06300585 0.0041418993 1.2434
0.0349264 0.0152803 1.245
0.044605676 0.018495036 1.2410001
0.055153433 0.017053211 1.2416667
0.060029749 0.01200595 1.245
0.046266582 0.021654041 1.2438571
0.053044468 0.021610711 1.245
-0.12495319 -0.28149828 1.2550001
-0.1167452 -0.28226671 1.2550001
-0.10521998 -0.28395671 1.2516667
-0.098844171 -0.28645083 1.25
-0.13391843 -0.27188385 1.2589999
-0.12551641 -0.27524704 1.2558752
-0.11634899 -0.27497682 1.2503573
-0.10739167 -0.27943751 1.25
-0.13355052 -0.26820478 1.2590001
-0.1260612 -0.26571852 1.2544374
-0.11835 -0.26847917 1.25
-0.16224733 -0.25716755 1.2590001
-0.12439883 -0.25565523 1.2543126
-0.12268659 -0.2461049 1.2570001
-0.11805499 -0.24444227 1.2515
-0.13443351 -0.23111966 1.2590001
-0.12477987 -0.23421812 1.2575455
-0.11743679 -0.2357868 1.25
-0.14360963 -0.22418423 1.2574545
-0.13465662 -0.22458684 1.2531431
-0.12540637 -0.22617202 1.2518182
-0.11871528 -0.2282986 1.25
-0.16224733 -0.21364929 1.2589999
-0.15461352 -0.21497183 1.2575002
-0.14596023 -0.2157955 1.2518182
-0.16249259 -0.20541517 1.2589999
-0.15520273 -0.20568588 1.2520002
-0.16048138 -0.19712499 1.2590001
-0.15606439 -0.19486077 1.2526667
-0.15416498 -0.18510123 1.2530833
-0.15214288 -0.17637236 1.2565556
-0.14773586 -0.17319602 1.2520001
-0.1512101 -0.16666222 1.2590001
-0.14568418 -0.16449511 1.2546668
-0.14442571 -0.15560459 1.2575715
-0.13899112 -0.15434887 1.2516667
-0.14210437 -0.14513963 1.2589999
-0.13657042 -0.14424783 1.25125
-0.14017287 -0.13796541 1.2590001
-0.13395439 -0.13518414 1.2524377
-0.1268975 -0.13171917 1.25
-0.13205774 -0.12720557 1.2574002
-0.12513423 -0.12483393 1.2528
-0.11944583 -0.1216375 1.25
-0.12311935 -0.1187068 1.2576667
-0.11500715 -0.11582661 1.2538753
-0.10673166 -0.11237113 1.2514286
-0.11147606 -0.10926861 1.2590001
-0.10447975 -0.10505484 1.2572634
-0.09737137 -0.10370577 1.2511111
-0.10043883 -0.097127654 1.2590001
-0.094422691 -0.095239311 1.256
-0.091609038 -0.088297866 1.2590001
-0.089033686 -0.084250875 1.2589999
-0.086598456 -0.074278794 1.2583333
-0.079995833 -0.071229167 1.25
-0.081741266 -0.066297717 1.2581111
-0.076153547 -0.064314492 1.2533076
-0.069037497 -0.064654164 1.25
-0.081123665 -0.05684175 1.2590001
-0.07519722 -0.054627847 1.2534286
-0.069037497 -0.051504165 1.25
-0.074161172 -0.045811754 1.2555001
-0.064927243 -0.044085361 1.251
-0.056983333 -0.041641667 1.25
-0.071742013 -0.038630318 1.2590001
-0.063620239 -0.03616951 1.2561539
-0.055026315 -0.034855973 1.2503334
-0.049312498 -0.031779166 1.25
-0.060704783 -0.028696807 1.2590001
-0.054487735 -0.026136994 1.2555625
-0.045222733 -0.025076212 1.2530419
-0.036788691 -0.022699406 1.25
-0.051874995 -0.018763296 1.2590001
-0.04428757 -0.016389659 1.2584286
-0.03520469 -0.01539728 1.2548127
-0.028126389 -0.013515278 1.25
0.082187496 -0.012054167 1.25
-0.040837765 -0.0099335099 1.2590001
-0.034202714 -0.0082739796 1.2585
-0.025214965 -0.0056978944 1.2553184
-0.017898612 -0.0018263889 1.25
0.068306945 -0.0018263889 1.25
0.075958788 -0.0047074431 1.2514707
0.082874328 -0.0044923592 1.2543638
-0.021951832 0.0050280723 1.2589999
-0.015858538 0.0061531179 1.2550002
-0.0063380306 0.0078587094 1.2526155
0.0058776517 0.0084678037 1.25
0.015287043 0.0073505128 1.2523078
0.024349416 0.0080596348 1.2531667
0.066699348 0.0055041923 1.2547274
0.074965082 0.0022061318 1.2575001
0.082337759 0.0024281912 1.2590001
-0.014348403 0.012692818 1.2590001
-0.0041372092 0.013235037 1.258
0.005506563 0.014594745 1.2562501
0.014584324 0.013849286 1.2581111
0.029800531 0.012140957 1.2590001
0.034555923 0.016070176 1.2554001
0.058079164 0.018629167 1.25
0.062504679 0.01528897 1.2556667
0.038568951 0.022041153 1.2570001
0.044448409 0.026625097 1.2537224
0.055463132 0.026449792 1.2535335
0.060704783 0.020970743 1.2590001
0.04793657 0.032508992 1.2570001
0.053530578 0.032559838 1.2590001
-0.1340809 -0.28035098 1.2640001
-0.14189419 -0.27380887 1.2645
-0.13563225 -0.27591854 1.2640001
-0.16067547 -0.26040506 1.2640001
-0.15673748 -0.26345235 1.268
-0.14206408 -0.26618907 1.2674285
-0.13529348 -0.26469135 1.2644211
-0.16229555 -0.25789428 1.268
-0.1411749 -0.2590059 1.268
-0.13463399 -0.25445682 1.2668887
-0.12920523 -0.25419965 1.2640001
-0.13280244 -0.24449152 1.2676666
-0.1267674 -0.24400508 1.2640001
-0.14328678 -0.23214395 1.2670001
-0.13544658 -0.23650174 1.2654544
-0.12909442 -0.23658077 1.2640001
-0.17508022 -0.22296663 1.2676363
-0.16490489 -0.22188902 1.2662222
-0.15493682 -0.22374952 1.266
-0.14682414 -0.22716187 1.2640001
-0.17417167 -0.21597052 1.266909
-0.16677004 -0.21552676 1.2640001
-0.17081791 -0.20713061 1.268
-0.16684219 -0.20423229 1.265143
-0.16410889 -0.19567044 1.2657777
-0.16101445 -0.18766278 1.2666668
-0.15862639 -0.18302815 1.2653333
-0.15665644 -0.17366143 1.2653334
-0.16118394 -0.16340716 1.268
-0.15573764 -0.16460992 1.2654999
-0.15525934 -0.15486328 1.2665881
-0.14904034 -0.15347277 1.2640001
-0.15222239 -0.14650653 1.2674286
-0.14698158 -0.14587209 1.2644
-0.14206208 -0.13651103 1.266
-0.13740522 -0.1318647 1.2640001
-0.13317969 -0.12485487 1.266
-0.12854037 -0.12189174 1.2640001
-0.12326089 -0.11486827 1.2666668
-0.11810716 -0.11200556 1.265
-0.11470401 -0.1066304 1.2658181
-0.10859445 -0.10194582 1.2640001
-0.11004972 -0.096710362 1.268
-0.10482746 -0.094125934 1.2649412
-0.098621495 -0.09197285 1.2640001
-0.10218865 -0.086079903 1.2670001
-0.09570121 -0.084983669 1.2644445
-0.10115682 -0.078924544 1.268
-0.095697895 -0.074852325 1.2659999
-0.086705841 -0.077812932 1.268
-0.09319444 -0.066131905 1.266909
-0.086768702 -0.065075472 1.2642858
-0.08530128 -0.054559689 1.2661538
-0.083082698 -0.045184158 1.2659999
-0.078121521 -0.042662106 1.2640001
-0.082037069 -0.037127882 1.268
-0.074660249 -0.034427479 1.2668887
-0.067370079 -0.032989845 1.2650001
-0.070031643 -0.027790334 1.268
-0.063667044 -0.025168516 1.2666667
-0.057621546 -0.022162132 1.2640001
-0.061138734 -0.017785814 1.268
-0.055207122 -0.01419351 1.2661052
-0.047670126 -0.012826884 1.2645714
-0.05169002 -0.0072254864 1.268
-0.043987852 -0.005408376 1.2662499
-0.03620838 -0.0036939811 1.2643334
-0.028810773 -0.0011081067 1.2640001
-0.041129693 0.0011116134 1.268
-0.034134641 0.0041285986 1.2677143
-0.026779242 0.0049864803 1.2640001
0.069071978 0.0092342226 1.2640001
0.07574673 0.0070207366 1.2644445
0.0845327 0.0063320389 1.2640001
-0.030013559 0.010004519 1.268
-0.024030894 0.014045659 1.265
-0.015052868 0.01664239 1.2654285
-0.0057674148 0.016861105 1.2651999
0.0055405335 0.018837813 1.2640001
0.016637631 0.017588438 1.2651428
0.02502455 0.015535508 1.2655555
0.032158762 0.018298663 1.265
0.067339018 0.015687825 1.265143
0.074033454 0.013561682 1.2679999
0.082978256 0.013804744 1.2668571
-0.021054026 0.021054026 1.2640001
-0.015077665 0.022063944 1.2674286
-0.0041899267 0.023685915 1.2679999
0.0041250917 0.023964809 1.2671427
0.013937921 0.023001846 1.2679999
0.02334388 0.021676458 1.268
0.034615181 0.023509568 1.2669998
0.06381958 0.024416922 1.2659999
0.0022232267 0.030013559 1.268
0.038906466 0.030013559 1.268
0.045043841 0.03602282 1.2656
0.055511933 0.036193706 1.2664
0.06187981 0.030754635 1.268
0.047058295 0.041870769 1.268
0.05249285 0.042858873 1.268
-0.16021433 -0.26104853 1.2780001
-0.1545939 -0.26275918 1.2763332
-0.146437 -0.26380363 1.2750832
-0.16213511 -0.25718331 1.2755001
-0.15573281 -0.25880778 1.2780001
-0.14441769 -0.25636539 1.277
-0.13949959 -0.25333124 1.273
-0.14228825 -0.24536321 1.2780001
-0.13854302 -0.24599753 1.2729999
-0.1532948 -0.23161621 1.2763335
-0.14536667 -0.23537755 1.2755001
-0.18262194 -0.22071485 1.2780001
-0.17521149 -0.22744012 1.273
-0.16516751 -0.22654732 1.273
-0.15607063 -0.22833484 1.2746667
-0.18150157 -0.21511295 1.2780001
-0.17677961 -0.21364148 1.2742499
-0.1740611 -0.20515683 1.2759999
-0.17173216 -0.19725403 1.2770001
-0.16724665 -0.19369073 1.2746667
-0.16387405 -0.18433721 1.2765714
-0.17141815 -0.17365889 1.2780001
-0.16511692 -0.1746199 1.2758124
-0.15958752 -0.17855947 1.273
-0.16638701 -0.16542356 1.2762142
-0.16360798 -0.1562179 1.2765
-0.15958752 -0.15289155 1.273
-0.16195714 -0.14403106 1.278
-0.1555717 -0.14328384 1.2740715
-0.14871904 -0.14088954 1.2755001
-0.16133472 -0.13780674 1.2780001
-0.15471466 -0.13814531 1.2770001
-0.14508548 -0.13529859 1.2754999
-0.13949959 -0.1305716 1.273
-0.14004751 -0.12772331 1.2780001
-0.13614497 -0.12401213 1.2744285
-0.13232633 -0.1184424 1.2770001
-0.12670954 -0.113285 1.2758571
-0.1235631 -0.10790627 1.2755001
-0.11682706 -0.10342282 1.2739999
-0.11290789 -0.095979728 1.2751428
-0.11091762 -0.088510022 1.2780001
-0.10640388 -0.084338829 1.2742499
-0.10236764 -0.075194187 1.2738333
-0.10195458 -0.067222804 1.2780001
-0.096508488 -0.063646249 1.2737142
-0.092104524 -0.056109827 1.2749999
-0.088163733 -0.050219849 1.273
-0.090750776 -0.044815201 1.2780001
-0.088163733 -0.044639867 1.273
-0.090750776 -0.036972541 1.2780001
-0.085494556 -0.034281172 1.2741538
-0.07849177 -0.030875906 1.273
-0.082267933 -0.026305918 1.2767501
-0.075132228 -0.024413088 1.2751055
-0.067584649 -0.022898752 1.27425
-0.07058394 -0.017926078 1.2780001
-0.063904837 -0.014345699 1.2750832
-0.059147824 -0.01004397 1.273
-0.061620899 -0.00784266 1.2780001
-0.054600473 -0.0045750043 1.2757272
-0.047987856 -0.0022319932 1.273
-0.050417099 0.0033611401 1.2780001
-0.044728477 0.0044761975 1.2755001
-0.037943885 0.0066959797 1.273
-0.031662278 0.011548038 1.2746667
0.076366059 0.018015373 1.2729999
0.082955755 0.018227944 1.273
-0.01004397 0.022319933 1.273
0.0066959802 0.027899917 1.273
0.015464525 0.027262205 1.2729999
0.02495607 0.025518453 1.2746665
0.032735903 0.027155919 1.2729999
0.068075798 0.025667923 1.273
0.074256085 0.024138294 1.2753531
0.081787743 0.022407599 1.2780001
0.0069358363 0.031995527 1.276
0.013713697 0.03106096 1.27675
0.024648361 0.030250261 1.2780001
0.035881359 0.033130921 1.2760768
0.041291878 0.039059885 1.273
0.059147824 0.037943885 1.273
0.064549841 0.034639057 1.2745383
0.071704321 0.030250261 1.2780001
0.044322658 0.045070309 1.2746665
0.056349341 0.045992244 1.273909
0.062287461 0.042146921 1.2763335
0.048176341 0.050417099 1.2780001
0.053066563 0.050825797 1.2770001
-0.16366595 -0.25597018 1.2840002
-0.15471649 -0.25646994 1.2853078
-0.1478439 -0.25332171 1.2830001
-0.15017651 -0.24954142 1.2880001
-0.14666322 -0.24510199 1.2857778
-0.17321354 -0.23057649 1.2830001
-0.1653402 -0.23057649 1.2830001
-0.15502115 -0.23490863 1.2870001
-0.14621922 -0.23844981 1.2830001
-0.1810869 -0.21033074 1.2830001
-0.18239029 -0.20490855 1.2842501
-0.17808753 -0.20395708 1.2830001
-0.18164928 -0.19739595 1.2830001
-0.17617032 -0.19433229 1.2843336
-0.16908942 -0.19083484 1.2830001
-0.17357643 -0.18538633 1.2876155
-0.16803963 -0.18378633 1.2830001
-0.17642909 -0.17586087 1.2859167
-0.16983926 -0.17883737 1.2830001
-0.17416193 -0.1667227 1.2850001
-0.16983926 -0.16084115 1.2830001
-0.17050114 -0.15808053 1.2880001
-0.16719063 -0.15367813 1.28425
-0.16609006 -0.14809383 1.2830001
-0.16084115 -0.13609636 1.2830001
-0.15461616 -0.13397504 1.28425
-0.1477939 -0.13339692 1.2830001
-0.15130565 -0.12985186 1.2880001
-0.14350937 -0.1258879 1.2852727
-0.13834588 -0.12034968 1.2830001
-0.13478601 -0.11517392 1.2855
-0.12934779 -0.11135157 1.2830001
-0.13211016 -0.10952722 1.2880001
-0.125092 -0.10503002 1.2855
-0.11810015 -0.1012287 1.2830001
-0.1157029 -0.093913645 1.2855
-0.11280618 -0.086859912 1.2867501
-0.10931464 -0.081138566 1.2855
-0.10649944 -0.075507075 1.2855
-0.10267432 -0.065214708 1.2870001
-0.10049405 -0.059844773 1.2880001
-0.09627232 -0.054205179 1.2852223
-0.093879774 -0.044799767 1.284
-0.092605509 -0.038616873 1.2830001
-0.073109619 -0.014846876 1.2830001
-0.068235643 -0.01387208 1.2830001
-0.070860088 -0.0078733433 1.2830001
-0.064816661 -0.0050142948 1.2848182
-0.057812832 -0.0020245737 1.2830001
-0.062103067 0.0011291467 1.2880001
-0.055942994 0.0031585421 1.2865001
0.078733429 0.02699432 1.2830001
0.082267717 0.027049111 1.2855
0.015208048 0.035490315 1.2850834
0.024776937 0.034915879 1.2846667
0.033426423 0.036683533 1.2852223
0.068115026 0.037717927 1.28425
0.073785536 0.034595422 1.2856923
0.08016941 0.03048696 1.2880001
0.038716231 0.042477131 1.2863334
0.041616242 0.048364822 1.2830001
0.06514062 0.045529421 1.2855
0.046987873 0.054759622 1.2863334
0.055507027 0.055886328 1.2863336
0.063716128 0.052747279 1.2880001
-0.1713616 -0.2519334 1.2945001
-0.16537312 -0.25308076 1.2954615
-0.15694866 -0.25241962 1.292625
-0.16032217 -0.24559993 1.2970001
-0.15445425 -0.24530324 1.2954376
-0.17169254 -0.23536658 1.2970001
-0.16353002 -0.2361476 1.2941428
-0.15604448 -0.23888376 1.2945001
-0.18009187 -0.18122452 1.2920001
-0.17782657 -0.1846225 1.2920001
-0.18009187 -0.17103066 1.2920001
-0.17782657 -0.17103066 1.2920001
-0.18009187 -0.16650003 1.2920001
-0.17629525 -0.16382292 1.2932501
-0.16032217 -0.13075921 1.2970001
-0.1566108 -0.13050717 1.2945001
-0.15333213 -0.12704416 1.2955714
-0.14732921 -0.12366398 1.2941428
-0.14400052 -0.11769877 1.2962857
-0.13882937 -0.11272428 1.2945
-0.13306221 -0.10610691 1.2945
-0.12637396 -0.10186832 1.294
-0.12386999 -0.097568251 1.2962857
-0.11923543 -0.094249845 1.2953334
-0.11557237 -0.084689684 1.295
-0.11256663 -0.075726643 1.2970001
-0.10911227 -0.073622465 1.2920001
-0.10568742 -0.063802049 1.2962857
-0.10211514 -0.055033125 1.2962857
-0.098540843 -0.0509694 1.2920001
-0.10119626 -0.046618503 1.2970001
-0.097334199 -0.046512425 1.294
-0.05776532 0.00339796 1.2920001
0.080418386 0.028316334 1.2920001
0.014732383 0.039673552 1.293
0.024918374 0.039642867 1.2920001
0.031714294 0.039642867 1.2920001
0.077246949 0.037830621 1.2920001
0.082358062 0.03468629 1.2947778
0.017495461 0.042947549 1.296
0.024966588 0.0431263 1.2945
0.035160072 0.044649109 1.2938181
0.069091856 0.046438783 1.2920001
0.074620299 0.044932485 1.2952144
0.083761699 0.042828381 1.2970001
0.039796282 0.052303687 1.2970001
0.042948525 0.054944832 1.2941428
0.066826552 0.055216845 1.2919999
0.071633309 0.05116665 1.2970001
0.04559806 0.064563356 1.2946472
0.05445914 0.06524235 1.2941875
0.062164087 0.062850691 1.2939999
0.046618503 0.071633309 1.2970001
0.057988871 0.072770342 1.2970001
-0.17297237 -0.24587157 1.3044999
-0.16496874 -0.24553958 1.302
-0.1730928 -0.2382151 1.3032501
-0.16664732 -0.23855677 1.302
-0.17383116 -0.15782061 1.3045001
-0.16094021 -0.12783903 1.302
-0.15592989 -0.1234601 1.3040001
-0.15310545 -0.11647152 1.3057501
-0.14646447 -0.11407688 1.3024546
-0.14237168 -0.10725417 1.3061668
-0.13597926 -0.10398193 1.3034286
-0.13212487 -0.096858695 1.3060001
-0.12628445 -0.093062416 1.303154
-0.12482493 -0.08474122 1.3062857
-0.11927839 -0.084465079 1.302
-0.13176738 -0.072185613 1.307
-0.12388998 -0.075193346 1.3069999
-0.11613947 -0.074477658 1.302
-0.12361945 -0.06862089 1.307
-0.1138461 -0.065637581 1.3055294
-0.10843489 -0.0627781 1.302
-0.11114293 -0.05614436 1.307
-0.10672277 -0.054788157 1.302
-0.10386922 -0.049081061 1.302
0.084084608 0.038427804 1.302
0.016692784 0.04595872 1.3040001
0.025159458 0.048033886 1.3045001
0.033522561 0.048382938 1.3036667
0.077616557 0.049081061 1.302
0.084409632 0.045349017 1.3040835
0.037200253 0.054084416 1.30575
0.069894001 0.058435969 1.307
0.07490547 0.053466588 1.3045001
0.081352033 0.051561151 1.307
0.039094426 0.064707816 1.3040001
0.041167825 0.068616696 1.3045001
0.055929579 0.069626622 1.302
0.065186955 0.066045225 1.3045001
0.044518884 0.075730331 1.3056841
0.054419212 0.075830162 1.3048573
0.061834659 0.074431188 1.3061668
0.046977937 0.081352033 1.307
0.052706953 0.081352033 1.307
-0.18150067 -0.24257673 1.3145001
-0.17827894 -0.24268937 1.312
-0.1805793 -0.23808864 1.312
-0.17827894 -0.23808864 1.312
-0.17827894 -0.16217633 1.312
-0.17417461 -0.15514173 1.3157501
-0.16306263 -0.12272719 1.3145001
-0.15987594 -0.12191978 1.312
-0.16267076 -0.1169831 1.3160001
-0.15607439 -0.11374147 1.3138751
-0.15347578 -0.10830516 1.3162857
-0.14558986 -0.10428946 1.3151819
-0.1384058 -0.10083303 1.312
-0.1420121 -0.098138452 1.317
-0.13653094 -0.094825052 1.3147273
-0.13337724 -0.085330062 1.3153334
-0.12997109 -0.083963625 1.312
-0.1418324 -0.077261217 1.3153334
-0.13622954 -0.076313294 1.3143079
-0.12939599 -0.077637598 1.312
-0.12191978 -0.064410448 1.312
-0.11846922 -0.063260265 1.312
-0.11559376 -0.058084428 1.312
0.013816851 0.046831239 1.3136667
0.018435862 0.051857024 1.3145001
0.025840249 0.052832566 1.3141429
0.033638284 0.056152251 1.3131113
0.076825947 0.057236254 1.3145
0.082971238 0.054163974 1.3145001
0.036297724 0.063958094 1.3145001
0.067861013 0.06671083 1.312
0.071109354 0.063420989 1.3153334
0.034984041 0.075588934 1.3138751
0.064535379 0.076056972 1.3145001
0.036332794 0.082473949 1.3157501
0.044897493 0.085395694 1.3131765
0.055630263 0.085748896 1.3141431
0.061192211 0.084283613 1.317
0.048876796 0.091980748 1.317
0.051955651 0.0923656 1.317
-0.18195567 -0.16225347 1.322
-0.17963776 -0.16109452 1.322
-0.18200535 -0.15794495 1.3280001
-0.17836075 -0.15669189 1.324
-0.16573033 -0.12400801 1.322
-0.1626398 -0.11280479 1.322
-0.16109452 -0.10778266 1.322
-0.15568607 -0.10391948 1.3220001
-0.14873235 -0.10160157 1.322
-0.15269569 -0.09738224 1.3256
-0.145144 -0.095210813 1.3245001
-0.13791545 -0.091557309 1.322
-0.14263751 -0.086256988 1.3247273
-0.13735145 -0.085892297 1.324
-0.13791545 -0.079967782 1.322
0.011234775 0.047657352 1.3260001
0.017131383 0.055176519 1.325
0.0251352 0.057620961 1.3233335
0.031291738 0.059106618 1.322
0.079967782 0.059106618 1.322
0.083830953 0.058333982 1.322
0.027708277 0.06310036 1.3280001
0.032345992 0.065526582 1.3245715
0.075170077 0.063938804 1.3260001
0.086733893 0.063449621 1.3280001
0.09197285 0.064031735 1.3280001
0.029105334 0.073345438 1.3280001
0.031339079 0.073121011 1.324
0.029105334 0.080330722 1.3280001
0.034537639 0.086717159 1.3252727
0.040563367 0.089239404 1.322
0.045664623 0.095357589 1.325231
0.055010658 0.095630839 1.3238002
0.047732748 0.10128656 1.3280001
0.051225387 0.10128656 1.3280001
-0.18459575 -0.15571338 1.3355001
-0.17732266 -0.15202312 1.3360001
-0.175947 -0.14896846 1.3380001
-0.15191756 -0.094656333 1.3330001
-0.14841178 -0.092319138 1.3330001
-0.14841178 -0.089981943 1.3330001
0.0082031898 0.044534884 1.33675
0.013456942 0.056465335 1.3348751
0.018035838 0.063013397 1.3360001
0.025035584 0.066219278 1.3345001
0.075958781 0.067778602 1.3330001
0.084164895 0.066631556 1.3334168
0.093487732 0.064272813 1.3330001
0.028655823 0.074272737 1.3342501
0.068947203 0.072452992 1.3330001
0.075305313 0.072490163 1.3380001
0.085344568 0.073453203 1.3364615
0.027601849 0.085490406 1.3358573
0.03155211 0.089981943 1.3330001
0.0293245 0.090319462 1.3380001
0.036109541 0.09545213 1.3359169
0.041523535 0.097670965 1.3342501
0.059710205 0.096009031 1.3355
0.044417936 0.10514882 1.336077
0.053455532 0.10470077 1.3352224
-0.19040236 -0.1513758 1.3490001
-0.18643895 -0.15251087 1.3460001
-0.18171635 -0.14867651 1.3460001
-0.1773935 -0.14782791 1.3490001
-0.013008856 0.03902657 1.3490001
-0.0011826233 0.03902657 1.3490001
0.0035388528 0.037287515 1.3472859
-0.02128722 0.048487555 1.3490001
-0.015159082 0.045262218 1.3490001
-0.001971039 0.045728102 1.3490001
0.0035412947 0.044890154 1.3475
-0.020893013 0.051641215 1.3490001
-0.015669759 0.052922394 1.3490001
-0.0023652466 0.054400668 1.3490001
0.0047258907 0.054371737 1.3482503
0.01061994 0.056642309 1.3460001
0.0073322644 0.062205989 1.3490001
0.013544973 0.066092238 1.3480771
0.020800086 0.068679534 1.3430001
0.016793251 0.074032225 1.3490001
0.023355627 0.075744882 1.3458004
0.069464438 0.077705979 1.3430001
0.075452767 0.076398864 1.3448002
0.082596898 0.077882186 1.3460001
0.01773935 0.087514125 1.3490001
0.023125241 0.084957935 1.3460002
0.066130474 0.083843529 1.3470001
0.078053139 0.081601009 1.3490001
0.024786871 0.094447099 1.3466669
0.031788811 0.096543789 1.3430001
0.062679037 0.093427241 1.3490001
0.01773935 0.1064361 1.3490001
0.024829831 0.10523516 1.3487604
0.035082929 0.10538837 1.3440003
0.043562442 0.10949479 1.3430001
0.054282323 0.10855675 1.3460001
0.062679037 0.10052298 1.3490001
0.017148038 0.11412315 1.3490001
0.024835089 0.1158971 1.3490005
0.035439909 0.11577151 1.3475003
0.04429796 0.11478665 1.3475002
0.050852802 0.11353184 1.3490001
-0.19146094 -0.1474584 1.3565001
-0.18599193 -0.14626877 1.3565001
-0.17710623 -0.14377362 1.3578889
-0.18228267 -0.13581845 1.3590001
-0.17513433 -0.13614339 1.3590001
-0.16798599 -0.13939263 1.3590001
-0.013105289 0.028593361 1.3590001
-0.0035741699 0.02978475 1.3590001
-0.022022085 0.038684011 1.3577502
-0.014376297 0.035774294 1.3562728
-0.0047502182 0.035619278 1.3543574
0.0047480268 0.036797207 1.3540001
-0.024277655 0.045153838 1.3554286
-0.012107467 0.044394054 1.3540001
-0.0064098365 0.044631455 1.3540001
-0.032167532 0.053612549 1.3590001
-0.025650647 0.055139542 1.3551764
-0.012760322 0.05608606 1.3540001
-0.0071220398 0.054602303 1.3540001
-0.023809174 0.064275891 1.3577501
-0.015431087 0.064098366 1.3540001
-0.0047480259 0.064098358 1.3540001
0.0035610199 0.064853728 1.3540001
-0.022966163 0.073827349 1.3582858
-0.015155155 0.075186111 1.3558751
-0.0050254436 0.075396262 1.3578887
0.004752629 0.074908324 1.35625
0.012859239 0.076166257 1.3540001
0.074781418 0.079529449 1.3540001
0.085464478 0.079529449 1.3540001
-0.02104789 0.083000168 1.3590001
-0.01310529 0.085118204 1.3590001
-0.0059569501 0.082205907 1.3590001
0.005523717 0.086754851 1.3590001
0.013621444 0.085127644 1.3559233
0.020179113 0.083090469 1.3540001
0.067659378 0.086651482 1.3540001
0.074623153 0.085860156 1.3540001
0.082694799 0.084673144 1.3540001
-0.0119139 0.095311195 1.3590001
-0.0038389233 0.0970321 1.3590001
0.0047655604 0.095311195 1.3589998
0.014253941 0.095048204 1.35525
0.020179113 0.098521553 1.3540001
0.065860115 0.095814757 1.3560002
0.072674789 0.09411981 1.3590001
-0.012888673 0.10516725 1.3590001
-0.003097614 0.10484233 1.3590001
0.0047589857 0.10474807 1.3577499
0.013425339 0.10421267 1.3543847
0.063560739 0.1039628 1.3552501
0.072674789 0.10126815 1.3590001
-0.012867013 0.11365861 1.3590001
-0.0047655599 0.11079927 1.3590001
0.0071483403 0.11437344 1.3590001
0.013399036 0.11534021 1.3543571
0.046886764 0.11929417 1.3540001
0.054672439 0.11449003 1.3556668
0.015249139 0.12536341 1.357182
0.025070081 0.12586036 1.3550527
0.035153657 0.12518355 1.3540001
0.04467988 0.12588952 1.3565
0.05242116 0.12271316 1.3590001
0.017870849 0.13581845 1.3590001
0.025860174 0.13602872 1.3589998
0.035741698 0.13581847 1.3589998
0.04169865 0.13224429 1.3590001
0.017275155 0.1435625 1.3590001
0.025359588 0.14398798 1.359
0.03494744 0.14256968 1.3590001
-0.19106512 -0.14240134 1.3650001
-0.18445505 -0.14171754 1.3649999
-0.17351425 -0.14096537 1.365
-0.19026735 -0.13761474 1.365
-0.1866774 -0.13641809 1.365
-0.032309551 0.029916249 1.365
-0.023002272 0.028054796 1.3649999
-0.017949751 0.0287196 1.365
-0.0071799001 0.029916249 1.365
-0.035071049 0.03617565 1.3649999
-0.025877558 0.03515159 1.3649999
-0.017949751 0.0335062 1.365
-0.0083765499 0.032309551 1.365
-0.035386648 0.045643654 1.3649999
-0.029317925 0.043677725 1.365
-0.036138829 0.05512568 1.3649999
-0.042680517 0.066613518 1.3650001
-0.035386648 0.064960994 1.3649999
-0.029916249 0.064619094 1.365
-0.042361408 0.07347431 1.365
-0.035899498 0.0741923 1.3649999
-0.027822115 0.075688116 1.3649999
-0.034702852 0.084449291 1.3649999
-0.026086967 0.085680142 1.3649999
-0.015898351 0.08701355 1.3649999
-0.0045104497 0.086987242 1.3649999
0.00311129 0.084004834 1.365
-0.02423216 0.096031174 1.3649999
-0.0167531 0.095732003 1.3649999
-0.0059832497 0.093509652 1.3649999
0.073865943 0.096058361 1.3649999
0.082568854 0.092142053 1.3650001
-0.024172328 0.10442767 1.3649999
-0.01747109 0.10458722 1.365
-0.0075787832 0.10530519 1.3649999
0.067012399 0.1076985 1.365
0.074591182 0.10171524 1.3650001
-0.023288649 0.11552276 1.3649999
-0.016753102 0.11607505 1.3649999
-0.0044602407 0.11585748 1.3649999
0.0023933002 0.11487839 1.3649999
0.05863585 0.1172717 1.365
0.065815747 0.11224576 1.365
0.07060235 0.11128845 1.365
-0.032309551 0.12564825 1.365
-0.024597807 0.12471751 1.3649999
-0.014359799 0.12445159 1.3649999
-0.0040686103 0.12181897 1.365
0.005615049 0.12417544 1.3649999
0.0119665 0.12564825 1.365
0.05384925 0.12325495 1.365
-0.024284955 0.1338136 1.3649999
-0.014188848 0.13368289 1.3649999
0.006282412 0.13252899 1.3649999
0.013715448 0.13466915 1.3649999
0.02034305 0.13522145 1.3650001
0.044617951 0.13453765 1.3649999
-0.021539699 0.1412047 1.365
-0.015556451 0.14000805 1.365
0.0073508499 0.14411084 1.3649999
0.01350505 0.14496562 1.3649999
0.02034305 0.14718795 1.365
0.036138833 0.14623062 1.365
-0.19336636 -0.14172193 1.3700001
-0.18856223 -0.1405209 1.3700001
-0.033776212 0.0180944 1.376
-0.027744746 0.0180944 1.376
-0.051870614 0.027744746 1.376
-0.045020338 0.025300121 1.3743638
-0.034884408 0.024053019 1.3721004
-0.026594311 0.023505939 1.37
-0.052272711 0.034982506 1.376
-0.045639273 0.03482997 1.3700004
-0.037232038 0.032084752 1.37
-0.052473761 0.044029705 1.376
-0.045666229 0.04566557 1.3707502
-0.039634101 0.044438232 1.3700001
-0.053479005 0.056695785 1.376
-0.045652751 0.055261679 1.3703753
-0.055112522 0.065614738 1.3751429
-0.046285983 0.064393871 1.3700001
-0.039634101 0.062453732 1.3700001
-0.054890983 0.074330188 1.3738574
-0.047058675 0.074791633 1.37
-0.05287227 0.0838717 1.3751431
-0.045666229 0.084119685 1.3707502
-0.039033584 0.084672853 1.3700001
-0.051870614 0.094090879 1.376
-0.0454203 0.094439022 1.3713335
-0.035670694 0.095241956 1.3700004
-0.027623767 0.096082665 1.3700001
0.078067169 0.096082665 1.3700001
0.081269927 0.095682323 1.3700002
-0.054041944 0.1056713 1.3760002
-0.046065714 0.10538195 1.3746667
-0.035373405 0.10598443 1.3703336
-0.026823079 0.10849335 1.3700002
0.063794151 0.10833233 1.3730001
0.072782621 0.10545073 1.3700001
-0.053680055 0.11640731 1.3760002
-0.045705348 0.11545537 1.371875
-0.03482997 0.1152992 1.3700004
-0.026823079 0.11249679 1.3700002
-0.0084072333 0.1189023 1.3700001
0.063387878 0.11623335 1.37
-0.052353133 0.12617828 1.376
-0.045666229 0.12497587 1.3707502
-0.035536461 0.12455424 1.3700002
-0.0051316884 0.12610851 1.37
0.0012010334 0.1261085 1.3700002
0.055733789 0.12388352 1.3720001
0.065139838 0.12183563 1.376
-0.051870614 0.13148597 1.376
-0.04550777 0.13459183 1.3732002
-0.035082821 0.13470536 1.3700004
-0.015613433 0.1369178 1.3700001
-0.0048041339 0.13451575 1.3700002
0.0033028417 0.13601704 1.37
0.048408829 0.13655591 1.3736001
0.051870614 0.13148597 1.376
-0.043426558 0.14475518 1.3760002
-0.034856007 0.14421944 1.3709004
-0.024821358 0.14492472 1.37
-0.014240826 0.14463875 1.3700001
-0.0048153112 0.14436398 1.3722503
0.0028024113 0.14372367 1.37
0.043957818 0.14148173 1.3700001
-0.042220265 0.15078667 1.376
-0.034384426 0.15397401 1.3733335
-0.02402067 0.15373227 1.3700002
-0.014222764 0.15468045 1.3700004
-0.0048248447 0.15436444 1.3756251
0.0048084077 0.15386146 1.3711252
0.014154662 0.15477578 1.3718461
0.024055734 0.15275744 1.3720001
0.031262372 0.15149458 1.3715
-0.030961528 0.16124122 1.376
-0.023796879 0.16263029 1.3760003
-0.014466755 0.16454071 1.3750001
-0.0052272705 0.16204542 1.3760002
0.0043081907 0.16147099 1.3760002
0.013269226 0.16043702 1.376
-0.053501215 0.015807176 1.3870001
-0.045487985 0.014304668 1.385667
-0.037185073 0.015046981 1.3809999
-0.063634016 0.025939984 1.3870001
-0.056129638 0.024054153 1.3858001
-0.047700662 0.021550044 1.381
-0.071740262 0.036478102 1.3870001
-0.064877376 0.034743179 1.3858001
-0.057093162 0.035119016 1.3814288
-0.074519552 0.046379298 1.3870002
-0.065722182 0.045150679 1.3841583
-0.056700021 0.046611052 1.3810002
-0.074844785 0.055569526 1.3865716
-0.065503769 0.055798627 1.3836253
-0.056901801 0.054964714 1.3810002
-0.081467755 0.066876516 1.3870001
-0.075040661 0.065486886 1.3870002
-0.065593518 0.065589577 1.3855002
-0.05811248 0.061744511 1.381
0.10357483 0.065734401 1.3834001
-0.075388074 0.075388074 1.3870003
-0.065523826 0.075225011 1.3840003
-0.059323158 0.077483311 1.381
-0.073901929 0.084440038 1.3870001
-0.065574117 0.085001484 1.3851252
-0.057708919 0.085150927 1.381
-0.074866958 0.094669342 1.3870002
-0.065451503 0.094535343 1.3825003
-0.056901801 0.094432779 1.3810002
-0.074172139 0.10457055 1.3870001
-0.065451495 0.10423129 1.3825002
-0.057247709 0.1022157 1.3809999
-0.073361516 0.11389274 1.3870001
-0.065333068 0.11445365 1.3845296
-0.057342049 0.11413378 1.3810002
0.072801031 0.11041091 1.3840001
-0.072956204 0.12037773 1.3870001
-0.065379985 0.12393201 1.3870002
-0.056953352 0.12529337 1.3822001
0.057022784 0.12618652 1.3840001
0.062733978 0.12425376 1.3850001
-0.064270951 0.13462158 1.3870002
-0.056225676 0.13562691 1.3828752
-0.049637742 0.13922782 1.381
0.055876542 0.13117519 1.3855001
-0.062012769 0.14226459 1.3870001
-0.055580135 0.14537852 1.3842003
-0.048454024 0.14536208 1.3817501
-0.052285276 0.15320802 1.3870001
-0.046081234 0.15520744 1.3831431
-0.03995233 0.15617728 1.381
0.021792181 0.15859865 1.381
-0.035014443 0.16535899 1.3840002
-0.024964135 0.16794601 1.3822
-0.018160149 0.16828406 1.381
-0.0043238453 0.16724633 1.3809999
0.0048505967 0.16664951 1.3825002
0.01455968 0.16319105 1.3840001
-0.066111624 0.0085698552 1.3965001
-0.056134723 0.0085422397 1.3920001
-0.073534794 0.015932539 1.3980001
-0.065972239 0.01465962 1.3935001
-0.057599105 0.013911647 1.3920001
-0.082113862 0.02328602 1.3980001
-0.075371288 0.024654372 1.3962858
-0.067117609 0.023430146 1.3920001
-0.083164357 0.034841489 1.398
-0.076231673 0.033839833 1.3928573
-0.06955824 0.03172832 1.3920001
-0.084824957 0.044856846 1.3955001
-0.077693701 0.041897651 1.3920001
-0.092408732 0.054660868 1.3980001
-0.085480005 0.054948322 1.3929001
-0.079320796 0.058575362 1.3920001
0.11715072 0.059795681 1.3920001
-0.093478322 0.064732909 1.3979999
-0.086000249 0.065764271 1.3928573
-0.078100473 0.067117602 1.3920001
0.10616784 0.068581983 1.3920001
0.11471008 0.065897278 1.3920001
0.12273509 0.066463605 1.3953334
0.13113706 0.064955741 1.3980001
-0.092408732 0.075250611 1.3980001
-0.085422397 0.075659834 1.3920001
0.099271983 0.074760377 1.3980001
0.10535497 0.075041182 1.3961538
0.1149859 0.075847551 1.3953753
0.12414815 0.075199388 1.3956923
-0.091918498 0.087016173 1.3980001
-0.085446402 0.085444435 1.3923751
-0.077577479 0.086294062 1.3920001
0.09436965 0.082930915 1.3980001
0.11572977 0.083164349 1.398
0.12229763 0.081937656 1.3950001
-0.092856288 0.096003257 1.3962858
-0.085422397 0.095184967 1.3920001
-0.079320796 0.096405283 1.3920001
-0.092408732 0.10466454 1.3980001
-0.085564427 0.10511518 1.3942502
-0.079320796 0.10494751 1.3920001
-0.091918498 0.11152778 1.3980001
-0.084850684 0.11416829 1.3933848
-0.078274809 0.11523306 1.3920001
-0.082113862 0.12378358 1.3980001
-0.076057337 0.12507376 1.3928573
-0.06955824 0.12691328 1.3920001
0.059795681 0.12813359 1.3920001
0.06223632 0.12813359 1.3920001
-0.074780986 0.13386482 1.3945001
-0.06955824 0.1342352 1.3920001
0.056258328 0.13330156 1.3950001
-0.072309218 0.14094169 1.3980001
-0.065984063 0.14418554 1.3938
-0.055602502 0.15548608 1.3925456
0.02201573 0.16265234 1.3950001
-0.073850393 0.0080004605 1.404
-0.066465363 0.0061542001 1.404
-0.081059612 0.015297582 1.4040002
-0.076312073 0.01353924 1.4040002
-0.08356037 0.02502708 1.4040002
-0.093543842 0.035694361 1.404
-0.087741308 0.034639355 1.4040002
-0.093851544 0.04492566 1.4040002
-0.088620484 0.041848559 1.404
-0.10215972 0.057849478 1.404
-0.096620932 0.054156963 1.4040002
0.12185316 0.056618638 1.404
-0.10215972 0.060311161 1.404
-0.098643027 0.064179517 1.4040002
0.12677652 0.063593403 1.4040002
0.13169987 0.067696199 1.404
-0.09688469 0.074026227 1.4040002
0.1292382 0.070157878 1.404
0.13169987 0.070157878 1.404
-0.09551318 0.084435627 1.4040002
0.09805692 0.082876563 1.4040002
0.10613628 0.083413079 1.404
0.11200644 0.086158797 1.404
-0.098467201 0.097236358 1.404
-0.095759347 0.10560608 1.404
-0.092312999 0.11446812 1.404
-0.088620484 0.11816064 1.404
-0.084107399 0.12513541 1.4039999
-0.081235439 0.13293073 1.404
-0.077542916 0.13908492 1.404
-0.093449749 -0.011991338 1.4150001
-0.085593358 -0.012156736 1.4150001
-0.10296012 -0.00372145 1.4150001
-0.094276741 -0.004961933 1.4150003
-0.084278353 -0.0049608378 1.4137503
-0.075869858 -0.003008845 1.4121429
-0.1039525 0.0052100294 1.4150003
-0.094236732 0.0049586459 1.4143752
-0.084054798 0.0049444009 1.41
-0.074503116 0.0034835546 1.41
-0.067985497 0.0037082999 1.4100001
-0.1116435 0.0148858 1.4150001
-0.10413348 0.014874569 1.4140627
-0.093965247 0.014835666 1.4103124
-0.086114973 0.014421167 1.41
-0.12032688 0.021088216 1.4150001
-0.11288399 0.024809666 1.4150001
-0.1039976 0.024759531 1.4121875
-0.093943603 0.024722004 1.41
-0.086527005 0.023485901 1.4100001
-0.12082307 0.035477825 1.4150001
-0.11405131 0.034709699 1.4140627
-0.10385623 0.034617648 1.4103124
-0.094561659 0.033992749 1.41
-0.12139016 0.044125766 1.4150001
-0.11405132 0.044626985 1.4140627
-0.1038324 0.044499602 1.41
-0.097033851 0.043263499 1.4100001
-0.12032688 0.052100301 1.4150001
-0.11402693 0.054533049 1.4137503
-0.10418557 0.053858642 1.41
0.1248461 0.058096699 1.4100001
-0.12032688 0.068226583 1.4150001
-0.11402693 0.064448148 1.4137502
-0.10532792 0.06463623 1.4104545
0.1297905 0.060568899 1.4100001
-0.12032688 0.074428998 1.4150001
-0.11412445 0.074429005 1.4150003
-0.10420615 0.07450176 1.4116666
-0.12032688 0.080631413 1.4150001
-0.11345652 0.083684914 1.4150002
-0.10395102 0.084147669 1.4115627
-0.097651899 0.087763101 1.4100001
0.095179699 0.087763101 1.4100002
0.10259631 0.087763101 1.4100002
-0.11146628 0.093745098 1.4150001
-0.10392774 0.094026893 1.4112501
-0.096827835 0.094355635 1.4100002
0.094195634 0.091715768 1.4137501
0.1042006 0.091795757 1.4150001
0.11020796 0.091635779 1.4125001
-0.10369113 0.10387994 1.4119231
-0.097651899 0.10383239 1.4100001
-0.10047915 0.1116435 1.4150001
-0.094943486 0.11555198 1.4105555
-0.092336014 0.12269937 1.4137501
-0.086836472 0.12641971 1.411
0.0556245 0.13720711 1.4100001
-0.10258228 -0.022518061 1.427
-0.095527865 -0.024643475 1.4257145
-0.08882124 -0.021267056 1.427
-0.12134732 -0.01125903 1.427
-0.11429621 -0.013761035 1.427
-0.10486336 -0.014985738 1.4240001
-0.095216349 -0.016700849 1.4216002
-0.08595629 -0.016906515 1.4210002
-0.12184773 -0.0042534112 1.427
-0.11494536 -0.0049984246 1.425125
-0.1062441 -0.0065846439 1.4210002
-0.12301532 0.0054210145 1.427
-0.11470143 0.0049852752 1.4221251
-0.10837967 0.0012457434 1.4210001
-0.1237643 0.014999765 1.426
-0.11709988 0.014948919 1.4210002
-0.12487941 0.025508869 1.4244287
-0.11834562 0.024914864 1.4210001
-0.13285656 0.036779501 1.427
-0.12619337 0.034577888 1.4226365
-0.13218935 0.044202119 1.427
-0.12665057 0.045262009 1.4210002
-0.13135535 0.051291138 1.427
-0.125452 0.055318538 1.4248573
-0.12510891 0.064673275 1.4242001
-0.12600066 0.074849807 1.4230002
-0.12378813 0.084356375 1.4234002
-0.11751512 0.087617278 1.4210001
-0.12109222 0.092382252 1.424
-0.11666308 0.094828375 1.4232502
0.094676495 0.095922239 1.4210001
0.10215095 0.095922239 1.4210001
-0.11133929 0.10133127 1.427
-0.10837967 0.10588818 1.4210001
-0.10316034 0.11415024 1.4246
-0.098413721 0.11834562 1.4210001
0.063532911 0.13329454 1.4210001
-0.12416994 -0.053885069 1.439
-0.11795243 -0.052353218 1.439
-0.15012127 -0.042891793 1.439
-0.13372147 -0.041630268 1.439
-0.12527896 -0.045123719 1.4389999
-0.11597238 -0.04538032 1.4378749
-0.10853366 -0.044422161 1.434
-0.15300475 -0.035142433 1.439
-0.14454257 -0.033834275 1.4376153
-0.13475364 -0.034978602 1.439
-0.12602413 -0.035287805 1.4375
-0.11566927 -0.03520529 1.4341253
-0.10552612 -0.035175368 1.4330003
-0.097988531 -0.032662846 1.4330001
-0.15327509 -0.024915084 1.439
-0.14471076 -0.025412213 1.4380525
-0.134983 -0.025230465 1.439
-0.12586008 -0.025170961 1.4356251
-0.11557623 -0.025125271 1.4330003
-0.10636362 -0.025962776 1.4330002
-0.15169819 -0.016084423 1.439
-0.1429403 -0.015429401 1.4389999
-0.13479714 -0.015120747 1.4370002
-0.12587757 -0.015326412 1.4330003
-0.117335 -0.017838938 1.4330001
-0.15012127 -0.0063076164 1.439
-0.14255214 -0.0050460938 1.439
-0.13451572 -0.0050303135 1.4340001
-0.12711102 -0.0053676707 1.4330002
-0.15012127 0.0063076168 1.439
-0.14255214 0.0050460934 1.439
-0.13442017 0.0050250539 1.4330002
-0.12831834 0.0044866549 1.433
-0.15012127 0.01513828 1.439
-0.1429403 0.014847159 1.4389999
-0.13442016 0.015075157 1.4330002
-0.12939513 0.01507516 1.4330001
-0.15012127 0.025230467 1.439
-0.14381367 0.025230464 1.439
-0.13567643 0.025125265 1.4330003
-0.12939513 0.021356476 1.4330001
-0.15169817 0.035953414 1.439
-0.14468372 0.035625104 1.4373637
-0.13670428 0.034375932 1.4330002
-0.15292464 0.044433661 1.439
-0.14516965 0.045589995 1.4366
-0.13721186 0.045923404 1.4330001
-0.1513828 0.052983977 1.439
-0.14415927 0.055165332 1.4376155
-0.13538653 0.055178948 1.4330003
