# .PCD v0.7 - Point Cloud Data file format
VERSION 0.7
FIELDS x y z
SIZE 4 4 4
TYPE F F F
COUNT 1 1 1
WIDTH 1485
HEIGHT 1
VIEWPOINT 0 0 0 1 0 0 0
POINTS 1485
DATA ascii
-0.16546394 0.13226186 1.0560001
-0.15567495 0.13065577 1.057
-0.29550681 -0.13520829 1.0600001
-0.30193454 -0.12394226 1.0630001
-0.153329 -0.12173393 1.0600001
-0.30572993 -0.11424555 1.061625
-0.15239973 -0.11522906 1.0600002
-0.14851746 -0.11444708 1.0613847
-0.31130433 -0.10500713 1.0600001
-0.3035996 -0.10367927 1.0623333
-0.29736534 -0.10407787 1.0600001
-0.17272875 -0.10363866 1.0650001
-0.15185639 -0.10491727 1.0617858
-0.14828837 -0.10594537 1.0653334
-0.31304249 -0.093229115 1.0650002
-0.30533472 -0.094557926 1.0645999
-0.29465204 -0.090734124 1.067
-0.28623343 -0.090734124 1.067
-0.16522783 -0.093942903 1.0624001
-0.15187177 -0.094190508 1.0612942
-0.14872913 -0.095099337 1.067
-0.32209054 -0.082627296 1.067
-0.31468493 -0.084860317 1.0656666
-0.30471465 -0.085125402 1.0644073
-0.29508564 -0.084792912 1.0637915
-0.28555939 -0.084659025 1.0644999
-0.27486089 -0.083447836 1.067
-0.26783714 -0.08200369 1.067
-0.24376611 -0.082128406 1.067
-0.18489039 -0.085650101 1.0678846
-0.17565507 -0.08348269 1.0648947
-0.16440031 -0.084009111 1.0662501
-0.1554295 -0.084955201 1.0631537
-0.32333773 -0.073688991 1.067
-0.31532735 -0.07543686 1.0622799
-0.30510321 -0.075676441 1.0602499
-0.2940309 -0.076035894 1.0600002
-0.28493297 -0.075426385 1.0621666
-0.2748867 -0.074926525 1.0664285
-0.26467323 -0.075590745 1.0685
-0.25528601 -0.074503325 1.0685
-0.24559537 -0.074520461 1.0669999
-0.20157942 -0.071558356 1.067
-0.1960201 -0.075837791 1.0680001
-0.18524976 -0.075403936 1.0618399
-0.17475046 -0.075292796 1.0602999
-0.16489069 -0.075461634 1.06264
-0.15516764 -0.075259402 1.0627035
-0.14872913 -0.072026059 1.067
-0.32089946 -0.066041924 1.061
-0.31734455 -0.069230363 1.0600001
-0.30510923 -0.069694996 1.0600001
-0.29271901 -0.069694996 1.0600001
-0.28416961 -0.067253701 1.0610501
-0.27524933 -0.065457493 1.0615714
-0.26481429 -0.066594332 1.0615556
-0.25539374 -0.065922923 1.0622106
-0.24468966 -0.065348305 1.0633
-0.23533496 -0.064952336 1.0674706
-0.22517963 -0.065052055 1.0672333
-0.21575488 -0.062581211 1.0654168
-0.20471729 -0.063948363 1.0640907
-0.19477212 -0.064713389 1.0612757
-0.18518968 -0.066067323 1.0601304
-0.17442337 -0.067278899 1.0600001
-0.16414087 -0.065699592 1.0601153
-0.14607802 -0.064209171 1.0603331
-0.33918232 -0.056685265 1.0600001
-0.23551747 -0.057717785 1.0600001
-0.22488253 -0.058543801 1.0600001
-0.21354549 -0.058172096 1.0600001
-0.20381916 -0.057924289 1.0600001
-0.19793379 -0.057614535 1.0600001
-0.14487594 -0.055494923 1.0629199
-0.13854818 -0.056441776 1.06425
-0.35281157 -0.044914555 1.0600001
-0.14341502 -0.047539752 1.0632857
-0.13624041 -0.0443381 1.0678751
-0.36238289 -0.036845863 1.0640001
-0.35851109 -0.036984812 1.0600001
-0.13182311 -0.035444882 1.0600001
-0.12810603 -0.032524332 1.0600001
-0.12357455 -0.02407665 1.0621428
-0.11762003 -0.022034725 1.0620002
-0.12269042 -0.015089032 1.0613043
-0.11676387 -0.014105274 1.0632666
-0.376353 -0.00092926668 1.0600001
-0.36891887 -0.00092926668 1.0600001
-0.1209743 -0.0083752349 1.0615001
-0.11531455 -0.005178032 1.0627222
-0.37489253 0.0042361724 1.0623181
-0.36853701 0.0051807244 1.0604285
-0.11155087 0.003104277 1.0633334
-0.1090661 0.006521231 1.0633334
-0.37295866 0.014298308 1.067
-0.36624411 0.01522985 1.0615454
-0.35033354 0.018585334 1.0600001
-0.1065925 0.015836881 1.0627649
-0.3642962 0.024521461 1.0655001
-0.35626218 0.025273504 1.0605454
-0.11095444 0.026577026 1.0600001
-0.10633267 0.024956299 1.0625263
-0.36200109 0.032739118 1.067
-0.35806245 0.032128736 1.06225
-0.12322076 0.039215051 1.0600001
-0.11470615 0.035489973 1.0613333
-0.10819832 0.032688521 1.0652858
-0.13195586 0.048321865 1.0600001
-0.12378806 0.046026498 1.0623748
-0.1164683 0.042826798 1.0652858
-0.1324205 0.05529137 1.0600002
-0.12685129 0.05402318 1.0635294
-0.37260377 0.063762598 1.0643334
-0.36673677 0.066612802 1.062
-0.13237825 0.063274615 1.0600002
-0.12877144 0.065317146 1.0644166
-0.36381117 0.073991917 1.0664287
-0.35445303 0.076491527 1.0639999
-0.34468433 0.076648138 1.0627896
-0.33640179 0.076995976 1.0610001
-0.12677883 0.07551486 1.063375
-0.36013028 0.081380092 1.067
-0.354563 0.082757764 1.0666668
-0.3453421 0.084290184 1.0653751
-0.3380672 0.081961319 1.0600001
-0.12732483 0.085197099 1.0625386
-0.34573367 0.090393975 1.0630001
-0.14300381 0.098399006 1.0600001
-0.13466677 0.095035255 1.0623598
-0.12845124 0.09113095 1.0643334
-0.3523148 0.10887192 1.066
-0.34721047 0.10690579 1.0624446
-0.33918232 0.1087242 1.0600001
-0.15362321 0.10626197 1.0627369
-0.14501625 0.10495123 1.0629998
-0.13774224 0.10334209 1.0647143
-0.35380521 0.1132966 1.0661112
-0.34443805 0.11232268 1.0652728
-0.33457661 0.11504052 1.0643574
-0.32593942 0.11670581 1.06075
-0.31687993 0.1198754 1.0600001
-0.15453824 0.11527826 1.0644228
-0.33019736 0.12066703 1.067
-0.32421109 0.12268592 1.0657693
-0.31496683 0.12406223 1.0640002
-0.30523717 0.12563796 1.0626
-0.29549387 0.12815826 1.0604285
-0.15164317 0.12385012 1.0622309
-0.14961194 0.12730953 1.0600001
-0.30213529 0.13109009 1.067
-0.29491338 0.13572848 1.0676364
-0.28510943 0.1352246 1.0637369
-0.27498028 0.13609618 1.0632727
-0.26493797 0.13613579 1.0632381
-0.25543815 0.13625634 1.0638
-0.2453022 0.13764447 1.0632501
-0.23466226 0.13781829 1.0622002
-0.2254277 0.13781276 1.0603751
-0.21512523 0.13846073 1.0600001
-0.2056777 0.13815098 1.0600001
-0.19483624 0.13784121 1.0600001
-0.18506828 0.13759378 1.0619001
-0.17490549 0.13765959 1.0621667
-0.1642855 0.13716479 1.0607501
-0.15483102 0.13531552 1.0625652
-0.14872913 0.13189188 1.067
-0.27500859 0.1412459 1.067
-0.26430339 0.14207737 1.067
-0.25578082 0.14207737 1.067
-0.24482487 0.14268027 1.0662729
-0.23397642 0.14188127 1.0664999
-0.22450805 0.14236218 1.0648335
-0.21501639 0.14266475 1.0636002
-0.20511357 0.14265043 1.0635
-0.19635366 0.14117177 1.0644286
-0.18434432 0.14367788 1.0685
-0.17385139 0.14231494 1.067
-0.16536027 0.14190085 1.0656668
-0.15808316 0.1412459 1.067
-0.30798483 -0.12404527 1.0760001
-0.31175801 -0.11696925 1.076
-0.30673689 -0.11913023 1.0700001
-0.14580281 -0.11193894 1.0730001
-0.31424117 -0.1097499 1.0700001
-0.30059016 -0.10051027 1.0715001
-0.29715836 -0.10282695 1.0760833
-0.28230682 -0.1010262 1.077
-0.27462593 -0.10168741 1.0765001
-0.17571232 -0.10244858 1.0741
-0.1462763 -0.10489907 1.0727273
-0.30168259 -0.095713913 1.0703751
-0.29516998 -0.095858961 1.0714761
-0.28488138 -0.095276415 1.0715832
-0.27487367 -0.094973788 1.0709614
-0.26601908 -0.094304442 1.0747916
-0.25501174 -0.092614502 1.0769999
-0.24444923 -0.092494652 1.0766
-0.23437205 -0.093327567 1.0769999
-0.22943331 -0.092528656 1.077
-0.19439007 -0.092864424 1.0759091
-0.18419719 -0.094092824 1.0744444
-0.17523566 -0.094666891 1.0720454
-0.16931504 -0.092396282 1.0700001
-0.14810219 -0.094663091 1.0721428
-0.28109729 -0.088487811 1.0700001
-0.27505222 -0.088279366 1.0700001
-0.26478469 -0.086086005 1.07152
-0.25514492 -0.085331984 1.072185
-0.24515972 -0.086198114 1.0710499
-0.23514979 -0.085595816 1.0729333
-0.22702998 -0.08368779 1.0769999
-0.21117936 -0.082142793 1.077
-0.20390268 -0.084992841 1.0747999
-0.19457418 -0.085539408 1.0721999
-0.17423968 -0.088175133 1.0700001
-0.16790795 -0.08723709 1.0700001
-0.15084331 -0.083589286 1.0714
-0.14897402 -0.086161822 1.0747778
-0.32455954 -0.0787948 1.0700001
-0.24107456 -0.075042665 1.0700001
-0.23495848 -0.075279258 1.0714574
-0.22509345 -0.074542083 1.0723928
-0.21551643 -0.074351087 1.0735199
-0.20609047 -0.075607345 1.0708076
-0.15090415 -0.078039989 1.0725
-0.14879555 -0.074397221 1.0742501
-0.24107456 -0.067538396 1.0700001
-0.21535043 -0.066363022 1.0702
-0.20855607 -0.067851074 1.0700001
-0.14164303 -0.051591832 1.0700001
-0.13826612 -0.052342258 1.0700001
-0.14164303 -0.047839701 1.0700001
-0.11193894 -0.010347296 1.0730001
-0.1115353 -0.0057742274 1.0717143
-0.10741685 -0.0036256423 1.0721428
-0.38471603 0.0077223815 1.0740001
-0.3799035 0.0084423004 1.0700001
-0.10554054 0.004380703 1.0736957
-0.09913785 0.0066091898 1.077
-0.38359377 0.014603732 1.0747499
-0.37725824 0.015558078 1.0708572
-0.10392416 0.014129336 1.0744444
-0.38175941 0.026122035 1.077
-0.37509087 0.025313269 1.072818
-0.36848295 0.028200831 1.07225
-0.10270164 0.025990391 1.0715001
-0.37436342 0.031157609 1.077
-0.36650315 0.034848306 1.07425
-0.11162597 0.038459368 1.0700001
-0.10547977 0.035043765 1.0731249
-0.11331991 0.046082906 1.0727499
-0.10774356 0.042079825 1.0762001
-0.12330268 0.0567053 1.0711539
-0.11654978 0.054333497 1.0753683
-0.3805005 0.068924412 1.077
-0.37619907 0.06742654 1.0712001
-0.12496341 0.064428158 1.0748124
-0.3805005 0.071756914 1.077
-0.37413549 0.074027963 1.0742666
-0.36652955 0.077382371 1.0708573
-0.12642357 0.073294416 1.0746
-0.37168828 0.080883898 1.077
-0.36472973 0.085029498 1.0746875
-0.35475203 0.087430365 1.0702727
-0.34926105 0.087862454 1.0700001
-0.12375281 0.086707331 1.0727
-0.11990959 0.089696147 1.077
-0.36161712 0.091584489 1.077
-0.35594583 0.092283301 1.0741251
-0.34988642 0.09192726 1.0700001
-0.13101198 0.097868145 1.0700001
-0.12507533 0.095481262 1.0755651
-0.11896542 0.095046438 1.077
-0.14164303 0.1097499 1.0700001
-0.13434629 0.10497835 1.0716842
-0.12903102 0.10266205 1.0743333
-0.35414189 0.11800366 1.0741538
-0.34496728 0.11731786 1.0717857
-0.33800468 0.11850488 1.0700001
-0.15102337 0.112564 1.0700001
-0.14520393 0.11527146 1.0722221
-0.13735679 0.11238538 1.075
-0.35784042 0.12179793 1.077
-0.3443073 0.12242737 1.077
-0.33447772 0.12429596 1.0735333
-0.32587934 0.12748815 1.0712501
-0.31611723 0.12851056 1.0700001
-0.1479387 0.12464769 1.0727692
-0.32363224 0.13252433 1.0762727
-0.31413749 0.1340521 1.0742776
-0.30576614 0.13517928 1.0712352
-0.28922692 0.1391416 1.0700001
-0.1519614 0.13882893 1.0700001
-0.14891279 0.13386424 1.0728334
-0.30396342 0.14082189 1.0756668
-0.29560703 0.14199136 1.075
-0.28381744 0.14296713 1.071125
-0.27487454 0.14491175 1.0714545
-0.26567793 0.1463833 1.0714999
-0.25419357 0.14621302 1.0710714
-0.24497303 0.1466897 1.0706428
-0.23601195 0.14697677 1.0710588
-0.22573203 0.14767432 1.0702
-0.21509112 0.14802946 1.0705454
-0.20439307 0.1481846 1.0713845
-0.1941772 0.146248 1.0709999
-0.1756134 0.14666808 1.0706315
-0.16528265 0.14671795 1.0715882
-0.15445977 0.14446135 1.0733157
-0.14956547 0.14015883 1.0730001
-0.26531178 0.15012303 1.077
-0.25681424 0.15012303 1.077
-0.24422531 0.15169664 1.077
-0.23409814 0.15247348 1.0743334
-0.22484708 0.1533999 1.0744286
-0.21590607 0.15324679 1.0754615
-0.20517945 0.15242724 1.0746
-0.19522752 0.15278617 1.0757999
-0.1851725 0.15261307 1.0751818
-0.17440775 0.15178554 1.0754001
-0.16557309 0.15269804 1.0769999
-0.1576764 0.15012303 1.077
-0.31441811 -0.12405646 1.0847272
-0.30884966 -0.1282914 1.0840001
-0.29174414 -0.12163925 1.0840001
-0.28531232 -0.12332721 1.0857141
-0.27621907 -0.12304974 1.0867692
-0.26540557 -0.12226533 1.0863076
-0.31609029 -0.11722501 1.08275
-0.29376775 -0.11360817 1.0833846
-0.285092 -0.11498711 1.0839998
-0.2744765 -0.11492119 1.0833598
-0.26455697 -0.11520783 1.0841427
-0.25518551 -0.11406823 1.0855713
-0.24617532 -0.11276417 1.087
-0.23455855 -0.11203812 1.087
-0.22605777 -0.11234065 1.087
-0.2182225 -0.11149359 1.087
-0.19235708 -0.11394399 1.087
-0.18656588 -0.11369175 1.0861334
-0.14615072 -0.11406748 1.0855714
-0.2937938 -0.10610881 1.0806667
-0.2855345 -0.10572059 1.0810908
-0.2755188 -0.10654283 1.08
-0.26529756 -0.10517406 1.0807999
-0.25551841 -0.10543904 1.0835198
-0.24534163 -0.10555771 1.0847332
-0.23494357 -0.10558562 1.0849998
-0.22451824 -0.1052039 1.0864546
-0.21511291 -0.10326824 1.087
-0.20488138 -0.10234539 1.087
-0.19494003 -0.10535839 1.0860869
-0.18529917 -0.10548033 1.0839199
-0.1789452 -0.1069884 1.08
-0.14240535 -0.10479396 1.0841051
-0.13817582 -0.10291716 1.087
-0.26334566 -0.098872967 1.08
-0.25502336 -0.097074836 1.08
-0.24486847 -0.097760499 1.0814117
-0.23465563 -0.097694367 1.0803077
-0.22473574 -0.095175847 1.084517
-0.21457128 -0.094016358 1.0856665
-0.20485818 -0.09515515 1.0836841
-0.19557106 -0.097650908 1.0814285
-0.18660682 -0.098039821 1.0805
-0.1434098 -0.095198914 1.0839258
-0.13817582 -0.0962466 1.087
-0.22439563 -0.085797794 1.0813999
-0.21589863 -0.084853485 1.0817143
-0.2073492 -0.088683598 1.08
-0.14428614 -0.084929056 1.083111
-0.14648999 -0.076279514 1.0845386
-0.10225441 0.0085212002 1.08
-0.098467201 0.0085212002 1.08
-0.38913479 0.0123084 1.08
-0.10158656 0.015192633 1.0829999
-0.097622804 0.012710473 1.0849999
-0.38345399 0.021776401 1.08
-0.10109939 0.024955923 1.0811666
-0.098152474 0.020011669 1.087
-0.37490535 0.035880018 1.0802222
-0.10257509 0.03583445 1.0814
-0.37303919 0.040712401 1.08
-0.36830521 0.040712401 1.08
-0.1062422 0.045128752 1.0836667
-0.1129655 0.056722086 1.0813333
-0.1094869 0.05236505 1.086
-0.12148115 0.066485524 1.0816667
-0.11646544 0.063908458 1.0855384
-0.38186899 0.078147233 1.0826668
-0.37824661 0.077164203 1.08
-0.1244061 0.074265853 1.0833
-0.38186395 0.083802536 1.0862501
-0.37527272 0.085048847 1.0818888
-0.36735839 0.088999197 1.08
-0.12308399 0.085212 1.08
-0.3735404 0.09158235 1.0865715
-0.36595464 0.094738238 1.08425
-0.35694361 0.095626801 1.08
-0.1202436 0.097520396 1.08
-0.11835 0.097520396 1.08
-0.36433944 0.10069364 1.087
-0.13129662 0.10851964 1.0826668
-0.12559654 0.10498601 1.0836999
-0.1410732 0.11835 1.08
-0.13416821 0.11525565 1.0846314
-0.36309767 0.12519063 1.0845555
-0.35446417 0.12525731 1.0823888
-0.34542859 0.12651615 1.081
-0.33769202 0.12844919 1.08
-0.14314193 0.12503876 1.0838823
-0.13822298 0.12149477 1.0843999
-0.35258657 0.13055232 1.087
-0.34432846 0.1328745 1.0852
-0.33493486 0.13444509 1.0835334
-0.32564342 0.13700196 1.0818181
-0.3181248 0.1382328 1.08
-0.14715858 0.1343122 1.0853333
-0.32338539 0.14122166 1.0860001
-0.31469876 0.14261328 1.0845
-0.30474788 0.14500712 1.084625
-0.29443669 0.14698382 1.084
-0.28622639 0.1477385 1.082
-0.27741238 0.14864761 1.08
-0.1519614 0.1481742 1.08
-0.14725189 0.14559083 1.0845624
-0.28429276 0.15151693 1.087
-0.27458724 0.15145203 1.0838001
-0.26371387 0.15501301 1.0847691
-0.25494355 0.15581295 1.0840527
-0.2457142 0.15628709 1.0834615
-0.23471436 0.15661637 1.0827143
-0.22965774 0.15914042 1.087
-0.21417508 0.15706097 1.0857999
-0.20447563 0.15660556 1.0848334
-0.19452393 0.15656917 1.0824001
-0.18462104 0.15643679 1.0836667
-0.17491098 0.15659563 1.0834999
-0.16344412 0.15639997 1.0821428
-0.15479475 0.15427309 1.0832777
-0.14600019 0.15288296 1.0852307
-0.26206416 -0.14185125 1.097
-0.25629395 -0.14185125 1.097
-0.24331094 -0.1432938 1.097
-0.32217062 -0.13175336 1.097
-0.31692946 -0.13253359 1.0955
-0.28326824 -0.13339545 1.0931001
-0.2749466 -0.13469386 1.09524
-0.26404056 -0.13481887 1.0963182
-0.25465709 -0.13549863 1.0961601
-0.24520028 -0.13500515 1.09685
-0.23635711 -0.13441652 1.097
-0.22407687 -0.13175336 1.097
-0.21363553 -0.1323029 1.097
-0.20715089 -0.13252273 1.097
-0.33274937 -0.12405973 1.097
-0.32519731 -0.12459505 1.0939584
-0.31677034 -0.12852371 1.09
-0.28539589 -0.12836444 1.09
-0.27451509 -0.12721659 1.0910667
-0.26423594 -0.12749299 1.0923333
-0.25490376 -0.12553942 1.0931071
-0.24503256 -0.12562214 1.0951154
-0.23551381 -0.1259297 1.0965201
-0.2249766 -0.12594973 1.0967001
-0.21434595 -0.12553002 1.0967778
-0.20471698 -0.12537815 1.09508
-0.19758868 -0.12225789 1.0923333
-0.15224107 -0.12588546 1.0961429
-0.14714061 -0.12149519 1.097
-0.32402298 -0.11677551 1.0944287
-0.25322518 -0.11849027 1.09
-0.24477844 -0.11730057 1.0909413
-0.23543267 -0.11695345 1.0908
-0.2244997 -0.11698512 1.0917778
-0.2147058 -0.11590397 1.0926154
-0.20442794 -0.11573748 1.0939599
-0.19603817 -0.11635861 1.09
-0.14417309 -0.11601324 1.0951667
-0.13509804 -0.11247235 1.0965385
-0.32332468 -0.10290226 1.097
-0.21378632 -0.1078053 1.09
-0.20571984 -0.10811555 1.09
-0.19875787 -0.10989016 1.09
-0.1404683 -0.10989016 1.09
-0.13447858 -0.10480057 1.0921818
-0.13453382 -0.094568111 1.0926363
-0.14072603 -0.082327768 1.092
-0.13576753 -0.08610788 1.0954287
-0.14360364 -0.074678473 1.0941429
-0.13880585 -0.079180241 1.097
-0.14742553 -0.068925291 1.092
-0.094975732 0.016413832 1.0906668
-0.10042655 0.026781291 1.0910001
-0.097120643 0.023476975 1.0949092
-0.10126189 0.036309402 1.0941429
-0.099055439 0.03173621 1.097
-0.10318001 0.044403315 1.0931667
-0.11029343 0.057544399 1.0940001
-0.10718773 0.052997898 1.094125
-0.11336232 0.065775245 1.0919286
-0.12212873 0.076852784 1.0912223
-0.11714917 0.07485196 1.0937647
-0.38318226 0.088867702 1.09
-0.12325408 0.084286235 1.095
-0.38205791 0.094241232 1.0931667
-0.37584984 0.095795482 1.0905335
-0.36980429 0.098423369 1.09
-0.38075212 0.1007027 1.0940001
-0.37499276 0.10302886 1.0949167
-0.36843669 0.10230935 1.0906668
-0.12422366 0.10989016 1.09
-0.13170981 0.1189549 1.0913334
-0.12737966 0.11465604 1.094
-0.37171543 0.1290015 1.09
-0.36625504 0.12845545 1.09
-0.1404683 0.1290015 1.09
-0.13534035 0.12554055 1.0940557
-0.37181467 0.13590823 1.0948001
-0.36543712 0.13399851 1.0941
-0.35549456 0.13575926 1.0936
-0.34577861 0.13746509 1.09
-0.3382706 0.13855717 1.09
-0.14347076 0.13539766 1.0931429
-0.13880585 0.13239449 1.097
-0.35166284 0.14201152 1.097
-0.34533894 0.14265187 1.09575
-0.33517554 0.14252296 1.0955
-0.32542974 0.14542766 1.0937333
-0.31495827 0.14742905 1.0920001
-0.30578133 0.14811283 1.09
-0.14484321 0.14412431 1.092375
-0.3202472 0.15098742 1.097
-0.31364888 0.1526188 1.0966251
-0.30478606 0.15433727 1.09508
-0.29502052 0.15507653 1.0941429
-0.28523242 0.15585616 1.0931876
-0.2754291 0.15609953 1.0914286
-0.26583865 0.15881518 1.09
-0.24462506 0.15957963 1.09
-0.23506939 0.15957963 1.09
-0.22264703 0.15957963 1.09
-0.21309136 0.15957963 1.09
-0.20258014 0.15957963 1.09
-0.19780231 0.15957963 1.09
-0.17869097 0.15957963 1.09
-0.15384623 0.15830554 1.09
-0.14475696 0.1552958 1.0935
-0.29524294 0.16060446 1.097
-0.28476715 0.16231233 1.0965385
-0.27511078 0.16373175 1.0960869
-0.26533553 0.16409843 1.094625
-0.25477436 0.16480368 1.0942
-0.24485461 0.1642317 1.0949048
-0.23569043 0.16434699 1.0962942
-0.22486395 0.16408134 1.0966667
-0.21445398 0.1635635 1.0953335
-0.20495065 0.1638163 1.0957648
-0.19538182 0.16254254 1.0959091
-0.18464284 0.16157542 1.0963334
-0.17513876 0.16438195 1.0956668
-0.16445333 0.16289033 1.0935456
-0.15537478 0.16209953 1.0954001
-0.27120036 0.17022149 1.097
-0.26350671 0.17022149 1.097
-0.26736316 -0.14188586 1.1010001
-0.24612854 -0.14381629 1.1010001
-0.32382792 -0.1336816 1.1010001
-0.3194845 -0.13609461 1.1010001
-0.27444139 -0.13931197 1.1010001
-0.26832837 -0.13899024 1.1010001
-0.24677201 -0.13802503 1.1010001
-0.23406345 -0.13641635 1.101
-0.22615795 -0.13489065 1.1016666
-0.21717225 -0.13416418 1.1010001
-0.34001955 -0.12108959 1.105
-0.33533463 -0.12176491 1.1023334
-0.15153797 -0.12258167 1.1010001
-0.14524028 -0.12325292 1.1026874
-0.13626176 -0.12079737 1.1023334
-0.34334254 -0.1153617 1.1079999
-0.33478913 -0.11503488 1.104476
-0.3270826 -0.11235332 1.1016666
-0.14188586 -0.11872083 1.1010001
-0.13452384 -0.11677495 1.1019999
-0.12552439 -0.11380768 1.1028821
-0.11872083 -0.11099915 1.1010001
-0.34327397 -0.10529397 1.1079999
-0.33490455 -0.10483749 1.1072999
-0.32750374 -0.10603245 1.1038572
-0.13030335 -0.10520788 1.1010001
-0.12451209 -0.10520789 1.101
-0.11663287 -0.104211 1.1021427
-0.3422378 -0.096810885 1.1079999
-0.3349652 -0.096462205 1.1079999
-0.32804632 -0.099220552 1.1060001
-0.13030335 -0.095555797 1.1010001
-0.12448647 -0.094836697 1.1019653
-0.11552324 -0.094770305 1.104714
-0.13252793 -0.0831751 1.1022307
-0.12510902 -0.084497757 1.1049613
-0.11522804 -0.084240049 1.1045197
-0.14236848 -0.071908146 1.1010001
-0.13546517 -0.074507095 1.1037855
-0.12516907 -0.076651879 1.1067998
-0.11548593 -0.076665379 1.1069999
-0.14303559 -0.066478841 1.1064614
-0.13687688 -0.067197278 1.1073333
-0.10976217 -0.061194841 1.108
-0.093294956 0.025261501 1.1039999
-0.088392548 0.024283666 1.108
-0.095693462 0.03401383 1.1056815
-0.10278286 0.046262048 1.104
-0.10694412 0.056132089 1.1040001
-0.11231722 0.068747759 1.1045001
-0.10953928 0.063980669 1.1057501
-0.11264918 0.074939363 1.103
-0.10968787 0.073770404 1.10725
-0.12065126 0.085903689 1.1010001
-0.11518904 0.084241197 1.1032856
-0.10946498 0.080403484 1.105
-0.12125396 0.093124352 1.1065
-0.11753295 0.090335242 1.108
-0.38222638 0.10888755 1.1056668
-0.37556729 0.10820258 1.102
-0.38290483 0.11325902 1.108
-0.37785384 0.11267621 1.1079999
-0.12644251 0.11872083 1.1010001
-0.13142753 0.12530985 1.1023334
-0.12719174 0.12384637 1.1060001
-0.3658146 0.13956937 1.1010001
-0.14188586 0.13899024 1.1010001
-0.13619812 0.13499226 1.1048124
-0.37155622 0.14506216 1.1041428
-0.36553308 0.14453253 1.105684
-0.35589388 0.14561786 1.1033845
-0.34442997 0.14693838 1.1018889
-0.33665541 0.1470031 1.1021429
-0.3281714 0.14960755 1.1010001
-0.14225896 0.14468031 1.1039166
-0.13890257 0.14181662 1.108
-0.37105441 0.15055872 1.108
-0.353185 0.15125427 1.1073999
-0.3445771 0.15262049 1.1064998
-0.33490822 0.15210043 1.1062498
-0.32499516 0.15529262 1.1053748
-0.31607297 0.15698953 1.1019999
-0.30983239 0.15925965 1.1010001
-0.14767712 0.15925965 1.1010001
-0.32297277 0.16075787 1.108
-0.3152619 0.16296612 1.1064999
-0.30472228 0.1646466 1.1051174
-0.2948986 0.16663437 1.1040525
-0.28591239 0.16759782 1.1022221
-0.27556747 0.16891176 1.1010001
-0.26446754 0.16891176 1.1010001
-0.2596415 0.16891176 1.1010001
-0.24355467 0.16891176 1.1010001
-0.23293735 0.16730307 1.101
-0.22489393 0.16891176 1.1010001
-0.21524182 0.16891176 1.1010001
-0.20558973 0.16891176 1.1010001
-0.19410506 0.16717222 1.10225
-0.184955 0.16702513 1.1012856
-0.17405953 0.16794653 1.101
-0.16487414 0.16839691 1.1033636
-0.15399112 0.16707975 1.1056249
-0.14881241 0.16237445 1.1046667
-0.29237536 0.17192836 1.108
-0.28415325 0.17249835 1.1075
-0.27551189 0.17391658 1.1072499
-0.26496834 0.17462808 1.1066248
-0.25505805 0.17424002 1.1041499
-0.24542108 0.17326343 1.1048748
-0.23453921 0.17389376 1.1039999
-0.22504105 0.17375939 1.1038332
-0.21485855 0.17298369 1.1023333
-0.20517793 0.17324688 1.104
-0.19567874 0.17241062 1.1061001
-0.18483223 0.17319143 1.1067499
-0.17520702 0.17429452 1.1054735
-0.16729471 0.17365213 1.1077272
-0.352312 -0.11327796 1.1120001
-0.34913677 -0.11489343 1.1120001
-0.35406369 -0.10400004 1.1135386
-0.34910581 -0.10387603 1.1120001
-0.36787125 -0.093194053 1.1190001
-0.35482389 -0.094825901 1.1175789
-0.34555051 -0.093572676 1.1125294
-0.33630881 -0.092448793 1.1126667
-0.35315642 -0.086915709 1.1190002
-0.34479943 -0.085371464 1.115909
-0.33853507 -0.088299334 1.115
-0.13160519 -0.071164295 1.1120001
-0.12575608 -0.072139144 1.1120002
-0.11600754 -0.072139144 1.1120002
-0.14330344 -0.062065661 1.1120001
-0.13359839 -0.064214781 1.1131999
-0.12450359 -0.065476455 1.1147599
-0.11453585 -0.065674998 1.1128399
-0.14184116 -0.058003772 1.1120001
-0.13457784 -0.055319656 1.1144686
-0.12439393 -0.054845549 1.1172665
-0.11442914 -0.05476262 1.1155999
-0.10888989 -0.05101148 1.1190001
-0.13612817 -0.047517337 1.1160001
-0.12371375 -0.046760518 1.1190001
-0.11499383 -0.047196522 1.1190001
-0.088711649 0.027295893 1.1120001
-0.09276323 0.036967907 1.1138572
-0.088139519 0.033299416 1.117125
-0.10119611 0.046207491 1.1135
-0.096483499 0.043160181 1.1169231
-0.10471512 0.055605531 1.1163638
-0.11015843 0.06921459 1.1120001
-0.10800959 0.064693987 1.1157143
-0.12185667 0.096510477 1.1120001
-0.11851431 0.09456078 1.1120001
-0.38214248 0.11600754 1.1120001
-0.37921795 0.11600754 1.1120001
-0.13160519 0.1296555 1.1120001
-0.12770578 0.12868065 1.1120001
-0.1320221 0.13611421 1.1155455
-0.12763301 0.13234039 1.1182001
-0.36556998 0.14915256 1.1120001
-0.14135373 0.14915256 1.1120001
-0.13710724 0.14508341 1.1153077
-0.37493572 0.15631026 1.1166668
-0.36402991 0.15370224 1.1185
-0.35535237 0.15603857 1.1135834
-0.34509808 0.15812121 1.1120002
-0.33524868 0.15756105 1.1125456
-0.14307903 0.15220687 1.1153334
-0.13831958 0.15009147 1.1190001
-0.35284168 0.16220918 1.118
-0.34468955 0.16235884 1.117
-0.33438617 0.16347 1.1179001
-0.32562688 0.16577965 1.1145333
-0.31559581 0.16793475 1.113
-0.30805367 0.16864963 1.1120001
-0.14724165 0.16608457 1.115
-0.32078373 0.17167325 1.1190001
-0.3142969 0.17233877 1.1178571
-0.30483177 0.17336696 1.1153079
-0.29499456 0.17590234 1.1146876
-0.2858592 0.17665105 1.1122502
-0.27532646 0.17811961 1.1120001
-0.26808468 0.17839816 1.1120001
-0.25053731 0.17839816 1.1120001
-0.24468818 0.17839816 1.1120001
-0.23786421 0.17839816 1.1120001
-0.2245412 0.17839818 1.1120001
-0.21544258 0.17839816 1.1120001
-0.20569405 0.17839816 1.1120001
-0.19514957 0.17743281 1.1134617
-0.1852974 0.17804739 1.1132858
-0.16395089 0.17655912 1.1126925
-0.15517665 0.17513779 1.1147368
-0.14830729 0.17221117 1.1173999
-0.29135403 0.18246414 1.1190001
-0.28495789 0.18213977 1.1169999
-0.27509266 0.18209109 1.1167001
-0.26439041 0.18245445 1.1147695
-0.25464025 0.18348047 1.1160525
-0.24428731 0.18392734 1.116611
-0.23519656 0.18360017 1.1152778
-0.22603427 0.18337014 1.1145555
-0.21555644 0.18291274 1.11575
-0.20508127 0.18277127 1.1164668
-0.19549647 0.18314464 1.1171539
-0.18478081 0.18184501 1.1152
-0.1746556 0.18261801 1.1147858
-0.16629881 0.18249531 1.1164546
-0.36278 -0.1015386 1.1245
-0.36415443 -0.094730467 1.1229999
-0.37096044 -0.087364741 1.1248
-0.3646014 -0.086168483 1.1246499
-0.35655189 -0.084174462 1.123
-0.36148578 -0.076403603 1.1260002
-0.35467613 -0.074795753 1.1244397
-0.34693378 -0.076431766 1.1237059
-0.35536557 -0.06811174 1.126
-0.13305011 -0.043755837 1.1242001
-0.12558146 -0.043041062 1.1244
-0.11515921 -0.042613182 1.1239376
-0.10933751 -0.044323914 1.1236
-0.13523635 -0.037510812 1.126
-0.1224037 -0.03849794 1.126
-0.11430927 -0.038103089 1.126
-0.10872495 -0.034267392 1.126
-0.089589193 0.038395371 1.123
-0.094196834 0.045198429 1.1242858
-0.10219581 0.055864852 1.1245
-0.098495759 0.052278638 1.1251428
-0.10548054 0.06309063 1.1245
-0.12493208 0.13494591 1.1248463
-0.13283713 0.14417464 1.1245
-0.37411502 0.15619466 1.1248001
-0.36580977 0.15721776 1.1238573
-0.14228636 0.15576044 1.1245
-0.13741691 0.15286961 1.125
-0.36314195 0.16282231 1.125625
-0.35475847 0.1662254 1.1243638
-0.34477076 0.16697063 1.123
-0.33711979 0.16750506 1.123
-0.1454241 0.1651582 1.1253999
-0.35042995 0.17077291 1.126
-0.3437669 0.17151324 1.126
-0.33409995 0.17148902 1.1251428
-0.32544586 0.17433272 1.1246365
-0.31602341 0.17683075 1.123
-0.3066707 0.17770164 1.123
-0.15062799 0.1781939 1.123
-0.1458115 0.17407696 1.1246667
-0.32081616 0.18064418 1.126
-0.31489339 0.18138452 1.126
-0.30348676 0.18145017 1.1248749
-0.29487973 0.18539055 1.1243848
-0.28490117 0.187305 1.1245
-0.27482182 0.18715481 1.1236001
-0.2656056 0.1877944 1.1235001
-0.25432831 0.18803887 1.123
-0.24907765 0.18803886 1.123
-0.22348075 0.18803887 1.123
-0.21570076 0.1877944 1.1235001
-0.20552237 0.1877944 1.1235
-0.19407275 0.18693314 1.1237501
-0.18443167 0.18727753 1.125
-0.17444107 0.18823978 1.1242001
-0.16347253 0.18543904 1.1242858
-0.15570627 0.18163481 1.1251429
-0.28330538 0.19051544 1.126
-0.27540833 0.19051544 1.126
-0.26428482 0.19149943 1.1253333
-0.25589311 0.19234429 1.1251429
-0.24566409 0.19140103 1.1254001
-0.23456369 0.19161323 1.1253079
-0.2242315 0.19252193 1.1253573
-0.21469159 0.19154619 1.1257274
-0.20433521 0.19150256 1.1260002
-0.19742534 0.19051544 1.126
-0.17472142 0.19051544 1.126
-0.37313795 -0.082365751 1.132
-0.36792123 -0.081033804 1.13
-0.37236068 -0.074338026 1.1340001
-0.36643717 -0.073909007 1.1305715
-0.37311983 -0.06883762 1.138
-0.36496705 -0.066806301 1.1343637
-0.35959989 -0.068353698 1.13
-0.13274486 -0.040615965 1.13
-0.1277917 -0.040615965 1.13
-0.13213751 -0.034717053 1.1316
-0.12563014 -0.034447748 1.1316361
-0.1160739 -0.033959754 1.1306314
-0.10797903 -0.030709634 1.13
-0.13023233 -0.028830061 1.1340001
-0.12339249 -0.025940152 1.1356471
-0.1146664 -0.025477162 1.1354003
-0.10795955 -0.025518989 1.1344446
-0.12171289 -0.018955287 1.138
-0.11472937 -0.018955287 1.138
-0.091426402 0.045772329 1.1322223
-0.088665709 0.044835187 1.1364
-0.10005397 0.058447365 1.13
-0.095039867 0.054666966 1.13375
-0.1033773 0.064808965 1.1322857
-0.09768258 0.061800618 1.1370001
-0.11054416 0.075691402 1.136
-0.10874349 0.073825851 1.138
-0.1115383 0.080667362 1.136
-0.10874349 0.080809377 1.138
-0.12501793 0.13928305 1.13
-0.11986663 0.1396793 1.13
-0.13190736 0.1474448 1.1313334
-0.12497583 0.14453936 1.1344445
-0.11830266 0.14216202 1.1340001
-0.37247813 0.15850133 1.13
-0.14364183 0.15883155 1.13
-0.13591345 0.15608847 1.1316668
-0.37475628 0.16576752 1.1336
-0.3663058 0.1669559 1.1313335
-0.35860926 0.16939829 1.13
-0.14222212 0.16563286 1.1313332
-0.13793299 0.16280518 1.1346667
-0.37411752 0.17226033 1.138
-0.36363566 0.17400998 1.1371112
-0.35513389 0.17459019 1.1336666
-0.3459096 0.17609836 1.1316668
-0.33566958 0.17649904 1.1315385
-0.32789963 0.178314 1.13
-0.1431517 0.17632666 1.1333847
-0.35117161 0.18057404 1.138
-0.34418809 0.18057404 1.138
-0.33421165 0.18256934 1.138
-0.32427785 0.18502283 1.1346667
-0.31437442 0.18621437 1.1340001
-0.30525917 0.18637159 1.1320001
-0.1931735 0.18921097 1.13
-0.18524843 0.18921097 1.13
-0.16313137 0.18893091 1.1317142
-0.1546295 0.18572403 1.1340001
-0.14812335 0.18242644 1.1340001
-0.3135936 0.19088304 1.138
-0.30456728 0.19140564 1.138
-0.29372618 0.19320755 1.1368572
-0.28424728 0.19565028 1.1346154
-0.27467495 0.19541049 1.1322857
-0.26546696 0.19691353 1.1318182
-0.25430787 0.19775994 1.1316667
-0.24554445 0.19715491 1.1318462
-0.2353704 0.19656563 1.1317778
-0.2247857 0.19832987 1.1317778
-0.21576633 0.19662501 1.1332728
-0.20429403 0.19534676 1.1340001
-0.19342169 0.19408837 1.1353334
-0.18488704 0.19484504 1.134842
-0.17576545 0.19350347 1.1350911
-0.1669191 0.19242132 1.1333333
-0.15663053 0.19055051 1.138
-0.27435285 0.20052698 1.138
-0.26570657 0.20185716 1.138
-0.25839049 0.20252228 1.138
-0.24242814 0.200527 1.138
-0.23344931 0.20052698 1.138
-0.37204683 -0.063348815 1.1470001
-0.36802816 -0.063348815 1.1470001
-0.11403154 -0.021005809 1.141
-0.10502905 -0.024006639 1.141
-0.12103347 -0.016004426 1.141
-0.1151813 -0.015048995 1.1445793
-0.10825233 -0.01682389 1.146
-0.085560039 0.045299295 1.1482
-0.091025174 0.058016047 1.141
-0.088276699 0.054405808 1.146143
-0.10102794 0.069019087 1.141
-0.095638342 0.065827884 1.1463335
-0.10354684 0.075472459 1.1440002
-0.099721707 0.073532164 1.149
-0.10457405 0.081448466 1.1470001
-0.12748048 0.14956371 1.1450001
-0.13134249 0.15741047 1.1436667
-0.12872459 0.15403973 1.1484287
-0.13411587 0.16533378 1.1445556
-0.37408328 0.17651421 1.1440002
-0.36574093 0.17802851 1.1430001
-0.35809904 0.17904952 1.141
-0.13696308 0.17530265 1.1441112
-0.37169001 0.18030491 1.149
-0.36418432 0.18219253 1.1482
-0.35477439 0.18492042 1.1453334
-0.34515432 0.18509564 1.1421429
-0.33550972 0.18728843 1.1424286
-0.32866406 0.18838339 1.1430001
-0.15104178 0.18905228 1.141
-0.14400482 0.18614925 1.1444668
-0.1387623 0.18200213 1.1470001
-0.3515442 0.1903778 1.149
-0.34550047 0.1903778 1.149
-0.33408451 0.19239239 1.149
-0.32368621 0.19306417 1.146143
-0.31453279 0.19579911 1.1442727
-0.30447614 0.19609542 1.1428183
-0.29519191 0.19766396 1.1422
-0.28907996 0.19905506 1.141
-0.21105838 0.19905506 1.141
-0.20450735 0.19883795 1.1416668
-0.19620739 0.19878253 1.1427144
-0.18905228 0.19905506 1.141
-0.17370512 0.19829737 1.1415714
-0.16478658 0.19734471 1.1426667
-0.15539986 0.19518743 1.1445296
-0.14756092 0.19267996 1.1472857
-0.30453733 0.20078647 1.149
-0.29487494 0.20286834 1.1470002
-0.28457448 0.20265026 1.1443335
-0.27454132 0.20532526 1.1443334
-0.26504022 0.20626844 1.1427779
-0.25541872 0.20618308 1.1463335
-0.24565966 0.20575292 1.1476668
-0.23539801 0.20501173 1.1447144
-0.22513901 0.20442377 1.1436669
-0.21498388 0.20459917 1.1450002
-0.20565176 0.20364261 1.1477695
-0.19380869 0.20386368 1.1467779
-0.18513176 0.20470586 1.1446002
-0.17578958 0.2036358 1.1458572
-0.16634223 0.20223035 1.1476668
-0.15814453 0.2004507 1.149
-0.27196831 0.21052361 1.149
-0.26491728 0.21052361 1.149
-0.25887352 0.21052361 1.149
-0.11055906 -0.10244463 1.1570001
-0.1064098 -0.10134178 1.156
-0.37384427 -0.061801199 1.1556667
-0.37326363 -0.059843898 1.1570001
-0.11118764 -0.011118763 1.153
-0.10853045 -0.01217164 1.1570001
-0.11258767 -0.0091287298 1.1570001
-0.083027348 0.049614951 1.155
-0.08464355 0.056292154 1.1551175
-0.092741437 0.067278028 1.1552857
-0.085162468 0.062606491 1.1565001
-0.078101359 0.063901111 1.1570001
-0.10006887 0.078842141 1.153
-0.096810602 0.073199622 1.1543334
-0.10107967 0.081874527 1.153
-0.12625951 0.15637192 1.1545
-0.1321369 0.16504565 1.155
-0.12780222 0.16127422 1.1570001
-0.13526529 0.17439383 1.1543334
-0.38036376 0.18156029 1.1570001
-0.37390825 0.18340854 1.1558571
-0.36478636 0.18706186 1.1547778
-0.35883281 0.18901898 1.153
-0.14050074 0.18901898 1.153
-0.13752784 0.18554261 1.1547143
-0.36109197 0.19170333 1.1570001
-0.35387012 0.19335122 1.1547143
-0.34507313 0.19567251 1.1556666
-0.33549851 0.19732453 1.1557498
-0.32624573 0.19805583 1.155
-0.15263031 0.19912694 1.153
-0.14481682 0.19490223 1.1551818
-0.13895956 0.19170333 1.1570001
-0.32254845 0.20184636 1.1570001
-0.3145144 0.20288783 1.1552222
-0.30514327 0.20646842 1.1552857
-0.29515699 0.2080946 1.1548181
-0.28571239 0.2074545 1.1543334
-0.2789799 0.20923491 1.153
-0.25674236 0.20923491 1.153
-0.24764518 0.20923491 1.153
-0.23376405 0.20947687 1.1543332
-0.22512245 0.20926093 1.155
-0.21226731 0.20923491 1.153
-0.2054255 0.20778988 1.1543334
-0.19682081 0.208101 1.1547143
-0.17433459 0.20874901 1.1545
-0.16510281 0.20622811 1.1553999
-0.15534416 0.20228879 1.1556667
-0.29414797 0.21198939 1.1570001
-0.28468114 0.2126656 1.1570001
-0.27631834 0.21352129 1.1554
-0.26520732 0.21428049 1.1552857
-0.25526634 0.21232748 1.1570001
-0.24427947 0.21184282 1.1562001
-0.23498027 0.21198939 1.1570001
-0.22078001 0.2126656 1.1570001
-0.2146571 0.21162295 1.155
-0.2089465 0.21198939 1.1570001
-0.19170333 0.21198939 1.1570001
-0.18535662 0.21169624 1.1554
-0.17953169 0.21198939 1.1570001
-0.11338403 -0.10157744 1.161
-0.10585224 -0.10076319 1.161
-0.1124097 -0.097077101 1.1656667
-0.10529043 -0.097119376 1.1644286
-0.098383039 -0.095308572 1.169
-0.080406986 0.05597955 1.161
-0.078371368 0.058015171 1.161
-0.09058509 0.067175463 1.161
-0.084673293 0.065668322 1.1613334
-0.077692829 0.061407875 1.161
-0.093963124 0.075044014 1.1639091
-0.086886436 0.071043745 1.166
-0.098727569 0.080406986 1.161
-0.12374623 0.15769883 1.1666001
-0.11990433 0.15884762 1.169
-0.13163325 0.1683726 1.164
-0.12554806 0.16469733 1.1668668
-0.13285956 0.17445628 1.165
-0.38119364 0.18668938 1.1636667
-0.37641722 0.18740867 1.1627142
-0.36946502 0.18829484 1.161
-0.13602167 0.18511921 1.1666001
-0.38102931 0.19328168 1.169
-0.37515315 0.19376493 1.1671818
-0.3652375 0.19617675 1.165
-0.35691205 0.19711588 1.1610001
-0.34910882 0.19847295 1.161
-0.14153783 0.19768338 1.1643333
-0.13794437 0.19458756 1.1655715
-0.36244583 0.20257342 1.169
-0.35439759 0.20263204 1.165
-0.34564042 0.2036453 1.1653334
-0.33507079 0.20519362 1.1652857
-0.32559714 0.20569599 1.1650001
-0.31681243 0.20814434 1.1650001
-0.29211146 0.20865105 1.161
-0.1620153 0.20889068 1.1623334
-0.15426072 0.20629875 1.1638
-0.14675857 0.2033844 1.1658
-0.32281932 0.21126001 1.169
-0.31481609 0.21301737 1.1681999
-0.3042666 0.21437205 1.1653334
-0.29368263 0.21529365 1.1663333
-0.28462845 0.21758096 1.1627778
-0.27438045 0.21853699 1.1635001
-0.26406515 0.21844274 1.163
-0.25509146 0.2169833 1.1628463
-0.24452512 0.2159998 1.1622002
-0.23456474 0.21570253 1.1633333
-0.22564347 0.21578068 1.1646668
-0.21447298 0.21652265 1.1649998
-0.20465615 0.21361662 1.1650001
-0.19560216 0.21512847 1.1654446
-0.18461519 0.21665542 1.1663333
-0.17517819 0.21538724 1.1643847
-0.16620205 0.21303263 1.1657273
-0.15577315 0.21008877 1.169
-0.29275787 0.22033702 1.169
-0.28490087 0.22238666 1.169
-0.2756775 0.22238664 1.169
-0.26578382 0.22321306 1.1685556
-0.25547382 0.22238663 1.169
-0.24595761 0.22033702 1.169
-0.23365971 0.22033702 1.169
-0.17831926 0.22033702 1.169
-0.11221654 -0.092653729 1.1743335
-0.10444975 -0.092911415 1.1750001
-0.098886244 -0.09373758 1.1750001
-0.11143836 -0.089769788 1.177
-0.10593524 -0.089081906 1.177
-0.093741089 0.078288086 1.1750001
-0.088779151 0.074382536 1.1730001
-0.10163591 0.085126519 1.177
-0.096826077 0.081376582 1.1750001
-0.12382039 0.15580735 1.177
-0.1233996 0.16864613 1.1730001
-0.13173757 0.17805275 1.174
-0.12608306 0.17418401 1.1756668
-0.38699484 0.18749882 1.1730001
-0.13326083 0.18405023 1.1743335
-0.38541287 0.19424793 1.174143
-0.37396932 0.19778214 1.1730002
-0.13490811 0.19346417 1.1747143
-0.38253877 0.20052435 1.1730001
-0.37577593 0.20227146 1.1755456
-0.36452255 0.20636138 1.1746002
-0.35506767 0.20786957 1.1730002
-0.34551889 0.20875099 1.1730001
-0.33215058 0.20875099 1.1730001
-0.14354277 0.20656493 1.1746002
-0.13906124 0.20395824 1.1750001
-0.35288814 0.21152651 1.177
-0.34537509 0.21134681 1.1760001
-0.33372506 0.2122601 1.1742002
-0.32573739 0.21637973 1.1748183
-0.3161183 0.21794967 1.1738002
-0.30644235 0.21903428 1.1730001
-0.29718736 0.21903427 1.1730001
-0.20463768 0.21903428 1.1730001
-0.19435437 0.21903428 1.1730001
-0.17173111 0.21903428 1.1730001
-0.16507041 0.21760641 1.1750001
-0.15548892 0.21377377 1.1746001
-0.14781608 0.21168301 1.1750001
-0.32296488 0.22184487 1.177
-0.31333441 0.22184487 1.177
-0.30397943 0.22154331 1.1754
-0.29394621 0.22366084 1.174143
-0.28468326 0.22645813 1.1755002
-0.27512676 0.22643296 1.1734446
-0.2635271 0.22678402 1.1735716
-0.25419661 0.22564411 1.1752857
-0.24483986 0.22424458 1.1748184
-0.2357367 0.22337699 1.1751819
-0.22508699 0.22234321 1.1747779
-0.21513313 0.22281545 1.175182
-0.20512405 0.22265056 1.1758001
-0.19406192 0.22293159 1.1762002
-0.18491603 0.22330843 1.1748184
-0.17476846 0.22318591 1.1750001
-0.16818938 0.22184488 1.177
-0.26449409 0.23009957 1.177
-0.258991 0.23009957 1.177
-0.11492311 -0.090074867 1.1810001
-0.10042831 -0.090074867 1.1810001
-0.096701071 -0.090903148 1.1810001
-0.11317963 -0.084738679 1.1843846
-0.10422456 -0.084553033 1.181
-0.097011931 -0.085056394 1.1856667
-0.11140709 -0.078086741 1.1876668
-0.10556075 -0.078518502 1.1863335
-0.091704153 0.079271272 1.1820002
-0.088302247 0.077913746 1.1850001
-0.10215095 0.088600315 1.189
-0.094938621 0.085234277 1.1866001
-0.088600315 0.080261461 1.189
-0.12404044 0.15739585 1.189
-0.12336058 0.17778799 1.1825
-0.11794818 0.17606185 1.1836667
-0.13170777 0.18771449 1.1830001
-0.12614001 0.18405868 1.1852666
-0.11882865 0.1803277 1.189
-0.39032444 0.19671524 1.1810001
-0.38825375 0.19671524 1.1810001
-0.13453464 0.19623996 1.1844286
-0.37508214 0.20742108 1.183
-0.36961758 0.20810401 1.1810001
-0.13744271 0.20499861 1.1855001
-0.37168825 0.21017469 1.1810001
-0.36628738 0.21134417 1.1836667
-0.35422409 0.21707632 1.1868182
-0.34515819 0.21646956 1.1838572
-0.33638337 0.21788712 1.1827143
-0.16047822 0.21845745 1.1810001
-0.15367229 0.21828863 1.1832857
-0.14436081 0.21531187 1.18575
-0.34397769 0.22202197 1.189
-0.33387497 0.2224679 1.1876667
-0.32463536 0.2243951 1.1850001
-0.31538451 0.22569799 1.1842
-0.30500808 0.22616561 1.1834002
-0.29402784 0.22837663 1.1823335
-0.2888608 0.22881088 1.1810001
-0.25365913 0.22881086 1.1810001
-0.24537638 0.22881088 1.1810001
-0.23454231 0.22832498 1.1825
-0.22586586 0.22759843 1.1836668
-0.21422665 0.22784904 1.182143
-0.20480657 0.22809023 1.1832223
-0.19477466 0.22766392 1.1827143
-0.18539746 0.22863729 1.1836667
-0.1754657 0.22841899 1.1843334
-0.16507646 0.22451596 1.1864288
-0.1568716 0.22228953 1.1882
-0.30332577 0.23036082 1.189
-0.29478914 0.2324976 1.1882001
-0.28461438 0.23364338 1.1866001
-0.27557123 0.23293979 1.1862001
-0.26542443 0.23322359 1.1850001
-0.25495782 0.23292944 1.1884286
-0.24487212 0.23340969 1.1886001
-0.23512588 0.23304115 1.189
-0.2253575 0.23077777 1.189
-0.21524665 0.23244554 1.189
-0.20534427 0.23202857 1.189
-0.19492069 0.23161165 1.189
-0.18449712 0.23244552 1.189
-0.17511593 0.23140319 1.189
-0.11609083 -0.080531478 1.1930001
-0.093759932 -0.081974685 1.1949999
-0.11355511 -0.074653134 1.1956668
-0.10518199 -0.073138081 1.1948825
-0.096603513 -0.074928209 1.1963335
-0.11018385 -0.068209052 1.197
-0.10388763 -0.068209052 1.197
-0.08590281 0.078571245 1.1950001
-0.11295325 0.087852523 1.1930001
-0.10821311 0.08812131 1.1938
-0.091687359 0.088201143 1.1930001
-0.087286413 0.083356537 1.1960001
-0.11330763 0.09290015 1.194
-0.10598046 0.091851652 1.194
-0.096080258 0.091891542 1.1945
-0.13117126 0.11648007 1.197
-0.12659217 0.11533529 1.1970001
-0.13257042 0.12277629 1.197
-0.12697376 0.12067755 1.197
-0.12445774 0.15583363 1.1930001
-0.12225665 0.18770815 1.1945001
-0.11762273 0.18625045 1.1964285
-0.13169198 0.19596994 1.1935714
-0.127727 0.19316562 1.1962001
-0.13350949 0.20477267 1.1954
-0.36232898 0.21767722 1.1956667
-0.14119154 0.21858543 1.1930001
-0.13801275 0.21313578 1.1956668
-0.35461739 0.22261941 1.1950001
-0.343144 0.22561455 1.197
-0.33599827 0.22557378 1.194
-0.32320595 0.22981203 1.197
-0.16263446 0.22877932 1.1938
-0.15459292 0.22622585 1.195182
-0.14642087 0.22172303 1.1930001
-0.32005784 0.23191077 1.197
-0.31402352 0.23283413 1.1950001
-0.30537796 0.2343623 1.1952224
-0.2951833 0.23708528 1.194
-0.28586933 0.23845685 1.193
-0.27536088 0.23800862 1.193
-0.2645629 0.23682557 1.194
-0.25468406 0.23704079 1.1941429
-0.24514581 0.23780897 1.1950001
-0.23518732 0.23702371 1.1950002
-0.22503532 0.23580928 1.1947143
-0.21440922 0.23692508 1.1945
-0.20472357 0.23587833 1.1945
-0.19536929 0.23513414 1.1935713
-0.18536606 0.23668352 1.1945999
-0.17495199 0.23508692 1.1950001
-0.16631716 0.23217551 1.1962
-0.293194 0.24072547 1.197
-0.28411695 0.24240446 1.197
-0.27458516 0.2410053 1.197
-0.2696881 0.24030572 1.197
-0.24240446 0.24030572 1.197
-0.21617022 0.24030572 1.197
-0.089569032 -0.081139006 1.202
-0.11485911 -0.071655229 1.202
-0.09288083 -0.073612191 1.202
-0.088413112 -0.074783973 1.2045455
-0.11265051 -0.066532575 1.2046667
-0.10449398 -0.065967128 1.2040001
-0.094788842 -0.066194937 1.2044616
-0.088054657 -0.067211524 1.2060002
-0.11593961 0.096922949 1.205
-0.10614785 0.095176198 1.2036002
-0.12355915 0.10631045 1.2046667
-0.11566424 0.1012855 1.2060001
-0.12412822 0.11418884 1.202857
-0.11896823 0.1160107 1.2052002
-0.13104869 0.12514064 1.2036002
-0.12528589 0.12370584 1.2043333
-0.11947038 0.12264216 1.2060001
-0.1321575 0.13004299 1.2060001
-0.12792847 0.13004299 1.2060001
-0.12299458 0.15717931 1.2060002
-0.11947038 0.1568269 1.2060001
-0.12249112 0.1650836 1.2060002
-0.11947038 0.16493256 1.2060001
-0.12264216 0.17233337 1.2060002
-0.11947038 0.17127612 1.2060001
-0.12518215 0.19639175 1.2033333
-0.11927225 0.19421498 1.204
-0.13299209 0.20898858 1.204
-0.12841764 0.20300795 1.2040001
-0.36898375 0.21779555 1.2060001
-0.13651045 0.21602644 1.2040001
-0.36399785 0.22389364 1.2046667
-0.35506138 0.22755769 1.2045001
-0.34581116 0.22827974 1.2031429
-0.33652249 0.22891812 1.2033334
-0.14484464 0.22598933 1.2060002
-0.34572402 0.23153992 1.2060001
-0.33366179 0.23223214 1.2052001
-0.32489604 0.23569371 1.2047693
-0.31506875 0.2379739 1.202889
-0.3045347 0.23920199 1.202
-0.20359765 0.23946734 1.2033334
-0.19705188 0.23920201 1.202
-0.17283203 0.23909891 1.2036
-0.16521406 0.23603937 1.2037778
-0.15764114 0.23276937 1.2036
-0.32034978 0.24211253 1.2060001
-0.31466809 0.24359804 1.2055001
-0.30500737 0.24486193 1.2047368
-0.29529843 0.24625684 1.2029999
-0.28605834 0.24755548 1.2033334
-0.27454919 0.2452198 1.2036
-0.26493078 0.24276757 1.2039999
-0.25437534 0.24276829 1.204
-0.24641813 0.24325454 1.2046667
-0.23545761 0.24284859 1.2044002
-0.22474964 0.24268727 1.2036
-0.21484937 0.24227969 1.2033334
-0.20734276 0.24184485 1.2046667
-0.1955931 0.24211255 1.2060001
-0.18452677 0.24147013 1.2028
-0.29709005 0.25057063 1.2060001
-0.2833457 0.25057063 1.2060001
-0.0859221 -0.073192894 1.21
-0.11428063 -0.062717289 1.212625
-0.1050159 -0.061524469 1.21
-0.094643958 -0.061406605 1.21
-0.086982869 -0.062585235 1.21
-0.11284468 -0.056954842 1.2181667
-0.10479736 -0.054855499 1.2156669
-0.094609387 -0.05420991 1.2125599
-0.085744798 -0.053885855 1.2112501
-0.10152239 -0.047020894 1.2190001
-0.094346099 -0.045502171 1.21775
-0.085317202 -0.044787142 1.2164999
-0.090835817 -0.039540295 1.2190001
-0.086561196 -0.039540295 1.2190001
-0.12198816 0.098651297 1.21
-0.11986663 0.098651297 1.21
-0.1059734 0.098729327 1.2162001
-0.1236854 0.10628881 1.21
-0.11580867 0.1056364 1.212
-0.10877724 0.10131417 1.2165
-0.11623911 0.11493654 1.2130769
-0.1304743 0.12835276 1.21
-0.12357931 0.12782238 1.21
-0.1165678 0.12508559 1.2140001
-0.13167709 0.13514167 1.21375
-0.12511316 0.13506046 1.2110525
-0.11723723 0.13539262 1.2140527
-0.1245866 0.14475127 1.2107501
-0.11716212 0.14515722 1.2125555
-0.12198815 0.15381116 1.21
-0.11605768 0.15473206 1.213294
-0.11500619 0.16506298 1.2147501
-0.12026288 0.17773364 1.2140001
-0.11566731 0.17504694 1.2142224
-0.11434627 0.18060298 1.2190001
-0.12198816 0.19836336 1.21
-0.11762346 0.19666614 1.21425
-0.1304743 0.20897104 1.21
-0.12365647 0.20554204 1.212158
-0.11862089 0.20304477 1.2190001
-0.38257909 0.21907462 1.2190001
-0.37576804 0.21875134 1.2142501
-0.1324425 0.21514566 1.2125
-0.12770726 0.21379679 1.2173334
-0.38257909 0.22121193 1.2190001
-0.37471601 0.22258587 1.2177501
-0.36490375 0.22806484 1.21
-0.14417934 0.22726332 1.2105715
-0.13638468 0.22474238 1.2142501
-0.36239806 0.23343046 1.2158333
-0.35434899 0.2344657 1.212
-0.3444989 0.23508474 1.2147502
-0.33477268 0.2369988 1.2122859
-0.32883766 0.23761174 1.21
-0.16123652 0.23867249 1.21
-0.15392143 0.23559141 1.2134615
-0.14509386 0.23397222 1.2135384
-0.13839103 0.23243283 1.2190001
-0.33520198 0.24187262 1.2190001
-0.32601658 0.24247372 1.2113334
-0.31504771 0.24291557 1.21
-0.28110316 0.24928017 1.21
-0.27526894 0.24874978 1.21
-0.2654117 0.2473629 1.2110001
-0.25649282 0.24694122 1.2106668
-0.2453597 0.24748544 1.2116001
-0.23442943 0.24715862 1.21
-0.22488253 0.24715863 1.21
-0.2147183 0.24726926 1.2152728
-0.20475462 0.24652076 1.2151999
-0.19553883 0.24741705 1.2158889
-0.18632062 0.24674988 1.2145
-0.17525637 0.24484695 1.2148889
-0.16548029 0.24260534 1.2143333
-0.15388656 0.24044774 1.2190001
-0.14640597 0.24044774 1.2190001
-0.28107995 0.25340533 1.2145001
-0.27440828 0.25181088 1.21325
-0.26448551 0.25133169 1.2165002
-0.25436133 0.25010422 1.2140001
-0.24451812 0.25092828 1.2180002
-0.23474221 0.25094372 1.2160002
-0.22582121 0.25141966 1.2165002
-0.11325306 -0.052598685 1.2245002
-0.1082885 -0.050391678 1.223
-0.11294536 -0.045823537 1.2270001
-0.10568029 -0.044784635 1.2247144
-0.098102942 -0.042350449 1.223
-0.10277538 -0.037061717 1.2270001
-0.094934218 -0.035435043 1.2249999
-0.085930213 -0.034906454 1.22525
-0.092507616 -0.02904309 1.2270001
-0.084260821 -0.023306184 1.2270001
-0.078523912 -0.02043773 1.2270001
-0.11126799 0.10769177 1.2243334
-0.10676879 0.10355055 1.2240001
-0.11294534 0.11509669 1.2270001
-0.11330058 0.12533967 1.2262001
-0.11324137 0.1340283 1.2263335
-0.13402042 0.1404534 1.223
-0.11217289 0.14531688 1.2252858
-0.1121055 0.15472816 1.2256668
-0.11064954 0.16436151 1.2254002
-0.1110784 0.17510419 1.2254002
-0.11461189 0.19591659 1.2256669
-0.11520516 0.20499697 1.2251334
-0.10792556 0.2018674 1.2270001
-0.12510101 0.2162163 1.2243333
-0.1183237 0.21190698 1.2270001
-0.3829385 0.22481503 1.2270001
-0.37563893 0.22731923 1.2260001
-0.13180508 0.22493045 1.2256669
-0.12692906 0.22158802 1.2270001
-0.34416443 0.23909242 1.223
-0.14275084 0.23863597 1.2243334
-0.13830908 0.23480377 1.223
-0.33344281 0.24338107 1.223
-0.18191038 0.24909927 1.223
-0.17476264 0.24938519 1.223
-0.16394836 0.2473588 1.2250001
-0.15588509 0.24440296 1.2263335
-0.14577244 0.24247986 1.2256669
-0.28074986 0.25923645 1.2270001
