# .PCD v0.7 - Point Cloud Data file format
VERSION 0.7
FIELDS x y z
SIZE 4 4 4
TYPE F F F
COUNT 1 1 1
WIDTH 1441
HEIGHT 1
VIEWPOINT 0 0 0 1 0 0 0
POINTS 1441
DATA ascii
-0.12535897 0.015288188 1.1626
-0.11540879 0.015319753 1.1650004
-0.10502588 0.015296184 1.1630801
-0.095470592 0.015877837 1.1609999
-0.084817499 0.017811673 1.1610001
-0.076335751 0.018829484 1.161
-0.024766708 0.01153518 1.1610001
-0.014509575 0.013732039 1.1634616
-0.0079809977 0.018216608 1.1674001
-0.13237971 0.024473708 1.1685556
-0.12583643 0.024557767 1.1670002
-0.11572112 0.02340875 1.1681427
-0.10481416 0.024879422 1.1661432
-0.094893657 0.025512297 1.1638799
-0.08457277 0.025475822 1.1622798
-0.074320622 0.025453381 1.1613197
-0.064309262 0.025803696 1.1611738
-0.058015171 0.02646306 1.161
-0.011219054 0.025499251 1.1634001
-0.0052807475 0.02574273 1.1668336
0.001844682 0.02808016 1.169
-0.10145751 0.031769522 1.169
-0.094058715 0.03376684 1.1671538
-0.084862523 0.035231557 1.166273
-0.074492551 0.035630796 1.166667
-0.064301871 0.035723779 1.1642002
-0.054692514 0.036362823 1.1617998
-0.045401305 0.036459789 1.1623333
-0.035733745 0.035821486 1.1618332
-0.025723115 0.035995211 1.1615218
-0.015183389 0.036206417 1.161909
-0.0051124739 0.03580752 1.1669203
0.0036773076 0.036471654 1.169
-0.076861747 0.042017758 1.169
-0.063742653 0.042750433 1.168
-0.053943675 0.043858882 1.1672858
-0.045028817 0.044006914 1.1673332
-0.035544448 0.044240989 1.1667501
-0.025538003 0.044946175 1.1652004
-0.015773864 0.044720523 1.1652223
-0.0051241168 0.043554991 1.1689999
0.0025620584 0.042530168 1.169
-0.1409132 0.056365285 1.169
-0.13416705 0.05581671 1.1682501
-0.12566702 0.055884246 1.1681427
-0.11558265 0.055628106 1.167889
-0.10594719 0.055646926 1.1666472
-0.094706252 0.055666219 1.1645296
-0.08489494 0.055425301 1.163667
-0.074489728 0.05611911 1.1639334
-0.065050796 0.05628062 1.1672857
-0.031769522 0.050216343 1.169
-0.024742166 0.050801959 1.169
-0.016827868 0.051070217 1.1684287
-0.1404008 0.0614894 1.169
-0.13421705 0.062498305 1.1686922
-0.12553243 0.063217312 1.1677501
-0.11559357 0.064189106 1.1686524
-0.1051534 0.064316176 1.1645204
-0.09528587 0.064349137 1.1615713
-0.084478237 0.064122051 1.1609998
-0.07430014 0.064122051 1.1609998
-0.064155705 0.064155705 1.1616399
-0.054540459 0.064741522 1.1639091
-0.045001928 0.066478215 1.1666666
-0.038578887 0.067257576 1.1683334
-0.11170574 0.070712812 1.169
-0.10603822 0.071229286 1.1678572
-0.094738044 0.073767021 1.1670001
-0.084793679 0.074581936 1.1653202
-0.074525394 0.074529044 1.1645204
-0.064282224 0.07448893 1.1638803
-0.054243755 0.074483804 1.1638335
-0.045105964 0.074433565 1.1630952
-0.03608821 0.074798763 1.1646523
-0.028695054 0.078911394 1.169
-0.082498275 0.081473455 1.169
-0.075771175 0.080891788 1.1680001
-0.063685447 0.081546657 1.169
-0.05399061 0.083162569 1.1675
-0.045180403 0.084711149 1.1671054
-0.03581972 0.083923653 1.1674001
-0.026901614 0.084547929 1.169
-0.10240979 -0.19217958 1.177
-0.094715066 -0.19251804 1.1743335
-0.086122639 -0.19204064 1.1730002
-0.075324073 -0.19088978 1.177
-0.066919766 -0.19045728 1.1743335
-0.12382039 -0.18057142 1.177
-0.11416909 -0.18432032 1.1767778
-0.10521527 -0.1855185 1.1743335
-0.098719679 -0.1881844 1.1730001
-0.082707107 -0.18642153 1.1730002
-0.074979834 -0.1861185 1.1738001
-0.064638346 -0.18478414 1.175261
-0.055287533 -0.18286595 1.1760001
-0.13155918 -0.17180081 1.177
-0.12459408 -0.17390266 1.1764287
-0.11489356 -0.17705059 1.1757693
-0.10746048 -0.17790109 1.1730001
-0.07095477 -0.17995775 1.1730001
-0.065186381 -0.17548159 1.1731907
-0.054591954 -0.17511591 1.1750001
-0.044851352 -0.17482658 1.1766801
-0.03405061 -0.17231672 1.177
-0.13390066 -0.16501449 1.177
-0.12657873 -0.16677968 1.1758001
-0.060671471 -0.16967446 1.1730001
-0.052818764 -0.16743082 1.1730002
-0.044368975 -0.16509384 1.177
-0.036114283 -0.16406202 1.177
-0.050445449 -0.157511 1.1743335
-0.044334192 -0.15568195 1.1760402
-0.035412755 -0.15540612 1.1765556
-0.029923264 -0.15167999 1.177
-0.042024914 -0.14614412 1.1740001
-0.035005827 -0.14516476 1.1744001
-0.028685058 -0.14486988 1.177
-0.031986937 -0.13929795 1.177
-0.029923264 -0.13929795 1.177
-0.031986937 -0.091833465 1.177
-0.029923264 -0.091833465 1.177
-0.063313395 -0.081872426 1.1762002
-0.054338425 -0.083352208 1.1758573
-0.043780141 -0.084350534 1.1765556
-0.035041243 -0.085544422 1.1756001
-0.025755769 -0.086545043 1.1752002
-0.01608609 -0.084241934 1.175154
-0.17128488 -0.071196727 1.177
-0.16447476 -0.071609467 1.177
-0.15503347 -0.073776327 1.177
-0.14585316 -0.073745973 1.177
-0.13546541 -0.073113002 1.177
-0.12650007 -0.072532184 1.1763334
-0.11350203 -0.071196727 1.177
-0.10393131 -0.072819203 1.1759092
-0.094936118 -0.073745325 1.1752859
-0.085565858 -0.075259298 1.1759475
-0.075339653 -0.074736804 1.1753531
-0.065838672 -0.076772608 1.1748463
-0.053815935 -0.078838632 1.1730002
-0.044511996 -0.078593791 1.1730002
-0.011730677 -0.076767415 1.1738001
-0.0054935832 -0.074310057 1.1754445
0.0024041121 -0.073867641 1.1756668
-0.17318563 -0.064788483 1.177
-0.16509385 -0.065005705 1.177
-0.15566245 -0.064944685 1.1758801
-0.14513297 -0.064850017 1.1741202
-0.13484016 -0.064850017 1.1741202
-0.12459991 -0.065346099 1.1746365
-0.11418292 -0.06624648 1.1745557
-0.1072891 -0.068212561 1.1730001
-0.089464709 -0.068898112 1.1730001
-0.0010283299 -0.067869782 1.1730001
0.0049746451 -0.064649336 1.1736668
0.012911254 -0.062956646 1.1730002
-0.17292368 -0.055294305 1.177
-0.16509385 -0.05468734 1.177
-0.15534249 -0.0545252 1.1734803
-0.14499454 -0.054501481 1.1730002
-0.13506889 -0.054501478 1.1730002
0.0065556038 -0.055529814 1.1730002
0.014361138 -0.054136239 1.1744739
-0.17025305 -0.047464486 1.177
-0.16461234 -0.045469597 1.177
-0.15561728 -0.044311319 1.1755601
-0.14505526 -0.044234883 1.1734803
-0.13580813 -0.043669745 1.1730002
-0.12319393 -0.042161528 1.1730001
0.01748161 -0.047645956 1.1730001
0.023651591 -0.04010487 1.1730001
-0.15498188 -0.036939751 1.177
-0.14511856 -0.035205875 1.175737
-0.13531615 -0.034539789 1.1730002
-0.12363691 -0.033934891 1.1730002
-0.11825795 -0.032906562 1.1730001
-0.10694632 -0.033934891 1.1730001
0.02507218 -0.035373405 1.1752223
-0.14422783 -0.026254509 1.177
-0.13506261 -0.025772631 1.1760402
-0.12466274 -0.025755659 1.1752402
-0.11421764 -0.025161691 1.1737275
-0.10483553 -0.0258165 1.1730002
-0.097691342 -0.022417594 1.1730001
0.026768729 -0.025738055 1.1743335
-0.16303019 -0.011350203 1.177
-0.15482512 -0.012576835 1.1758001
-0.14521398 -0.01529754 1.1761667
-0.13522069 -0.015814036 1.1750871
-0.12437952 -0.015813423 1.1750871
-0.11426584 -0.015801078 1.1742176
-0.10386133 -0.017995775 1.1730002
-0.095271751 -0.016997691 1.1730002
-0.086551107 -0.016453281 1.1730002
0.027493821 -0.014972455 1.1748464
-0.19088978 -0.0010318366 1.177
-0.18432356 -0.002345083 1.177
-0.17457525 -0.0052552824 1.1756668
-0.16580474 -0.0052520223 1.1740001
-0.15588814 -0.0077620866 1.1733638
-0.14499453 -0.0092549697 1.1730001
-0.13882455 -0.0092549697 1.1730001
-0.11620129 -0.0092549697 1.1730001
0.0058761714 -0.003672607 1.1730002
0.016040372 -0.0036909212 1.1737061
0.024440968 -0.0054457276 1.1755716
-0.19157767 0.0041273464 1.177
-0.18505765 0.0054283584 1.177
-0.17539352 0.0048659784 1.1737275
-0.16648662 0.005552982 1.1730002
-0.15733449 0.0087408051 1.1730001
-0.01131163 0.0051416499 1.1730001
-0.0051433332 0.0051461388 1.1736403
0.0049810736 0.004983996 1.1753335
0.014723617 0.0025323711 1.1766365
0.02166857 0.0010318366 1.177
-0.18263508 0.011350203 1.177
-0.1738255 0.01486605 1.1765295
-0.16506375 0.014955141 1.1743335
-0.15563112 0.015714491 1.1735457
-0.1457358 0.018403083 1.1734446
-0.13882455 0.01953827 1.1730001
-0.01131163 0.01131163 1.1730001
-0.004429359 0.014736153 1.1756001
0.0010318366 0.015993468 1.177
-0.16303019 0.02166857 1.177
-0.15511945 0.023388296 1.177
-0.14527668 0.025617806 1.1766667
-0.13647409 0.026883487 1.1730002
-0.12237126 0.02879324 1.1730002
-0.1143316 0.028512789 1.1730002
-0.10694632 0.029821569 1.1730001
-0.0010283299 0.02159493 1.1730001
0.0041210344 0.025744017 1.1746001
-0.14259982 0.033225141 1.177
-0.13494232 0.035025991 1.1750002
-0.12468042 0.035036858 1.1754001
-0.11430279 0.035013363 1.1746001
-0.10521571 0.035211202 1.1743335
-0.09769135 0.036872976 1.1730002
0.0080842441 0.033950422 1.1735716
0.011324488 0.036030125 1.1743335
-0.15580735 0.048496325 1.177
-0.14430974 0.047611892 1.177
-0.13460778 0.044650383 1.177
-0.12494675 0.044330735 1.1760477
-0.11436401 0.044298697 1.1752402
-0.10449557 0.044064578 1.1761305
-0.095236845 0.044575308 1.1750002
-0.085364655 0.04458303 1.1731741
-0.075170919 0.045143683 1.1730002
-0.065316774 0.046802744 1.1733335
-0.055187047 0.047988731 1.1730002
-0.04421819 0.04833151 1.1730001
-0.035991549 0.04833151 1.1730001
-0.01131163 0.047303177 1.1730001
-0.005142088 0.047580861 1.1735002
0.0059955232 0.045606721 1.1744119
0.012114436 0.043560032 1.1760001
-0.16303019 0.055719182 1.177
-0.1555557 0.054596175 1.1750802
-0.1457275 0.05412611 1.1733812
-0.13522539 0.051159412 1.1730002
-0.12383588 0.05156894 1.173889
-0.11414462 0.050730944 1.1730002
-0.10396051 0.051613498 1.174143
-0.096148856 0.051159412 1.1730002
-0.08476378 0.050975781 1.1730002
-0.075068086 0.051416494 1.1730002
-0.064075164 0.051915158 1.1737275
-0.054632779 0.054633345 1.1758801
-0.044356633 0.054673601 1.1766801
-0.03518483 0.054807123 1.1748948
-0.026066808 0.055905912 1.1736668
-0.015309778 0.055588339 1.1742501
-0.0072228573 0.051739242 1.177
-0.16199836 0.061910197 1.177
-0.15519433 0.063289747 1.1762501
-0.14548272 0.065113723 1.1740437
-0.13508517 0.06758932 1.1730002
-0.12374237 0.068212561 1.1730002
-0.11620129 0.068898112 1.1730001
-0.051130999 0.061425984 1.1743335
-0.044234667 0.06172049 1.1734002
-0.034572177 0.064245686 1.1741766
-0.025795918 0.065005712 1.177
-0.01712849 0.062735669 1.177
-0.14337726 0.073236205 1.1766001
-0.13486469 0.074480318 1.1760477
-0.12507623 0.074553058 1.1762002
-0.11487841 0.075714536 1.1757274
-0.10466029 0.0765993 1.1747502
-0.096746296 0.078734748 1.174
-0.031932585 0.072104082 1.1750001
-0.02566099 0.075017236 1.1751819
-0.018416137 0.077349171 1.1764287
-0.1269159 0.081515096 1.177
-0.11247019 0.082031019 1.177
-0.1042155 0.081515096 1.177
-0.094480224 0.082797758 1.1756668
-0.086158693 0.085131675 1.1752501
-0.074573368 0.084884137 1.1760001
-0.06522692 0.086856917 1.1747779
-0.05502281 0.088652335 1.1743335
-0.041133199 0.089464709 1.1730001
-0.03496322 0.089464709 1.1730001
-0.023431251 0.086296245 1.1734446
-0.017506966 0.086594231 1.1748463
-0.064489789 0.092607334 1.177
-0.054654825 0.093089961 1.1762729
-0.044675648 0.093004853 1.175182
-0.035066228 0.092826292 1.1765001
-0.025769617 0.092771664 1.1758001
-0.017197279 0.092521362 1.177
-0.13237929 -0.19075127 1.189
-0.12310372 -0.19062898 1.1850001
-0.1146792 -0.19282232 1.1832224
-0.10629525 -0.19429941 1.1810001
-0.13388717 -0.18337806 1.1885
-0.12575574 -0.18521425 1.1815999
-0.11740793 -0.18822542 1.1810001
-0.14243743 -0.17339528 1.1884286
-0.1354011 -0.17513391 1.183154
-0.12596677 -0.1791144 1.1810001
-0.041413732 -0.17497303 1.1810001
-0.036467094 -0.17290235 1.1810001
-0.14478332 -0.16510569 1.1871176
-0.13888392 -0.16432378 1.1810001
-0.032254927 -0.16557528 1.181
-0.02578116 -0.16352302 1.1843334
-0.01863618 -0.16047822 1.1810001
-0.14470743 -0.1584976 1.1875001
-0.030542631 -0.15685451 1.1810001
-0.024933979 -0.15481828 1.1852
-0.016913941 -0.15393074 1.1840588
-0.038437448 -0.14024475 1.1850001
-0.023624653 -0.1450422 1.181
-0.016973533 -0.14482571 1.1856666
-0.032859128 -0.13754754 1.1836668
-0.024939625 -0.13554689 1.1829046
-0.016636286 -0.13467243 1.1862501
-0.022642765 -0.12674342 1.1875001
-0.016806483 -0.12563442 1.1864736
-0.042736623 -0.11153216 1.189
-0.03439777 -0.11153217 1.189
-0.021889489 -0.11570159 1.189
-0.01702516 -0.11604902 1.1889998
-0.05354277 -0.10145751 1.1882
-0.044363495 -0.10477908 1.1863911
-0.034299999 -0.10498278 1.1856399
-0.024965715 -0.10506938 1.1865999
-0.01576612 -0.10484099 1.1859999
-0.0085410122 -0.10270834 1.1882001
-0.15114172 -0.090685032 1.189
-0.14801463 -0.090685032 1.189
-0.13654873 -0.090685032 1.189
-0.12820987 -0.090685032 1.189
-0.083041079 -0.090685032 1.189
-0.064487308 -0.091809303 1.1885556
-0.054873932 -0.094341166 1.1846665
-0.044699188 -0.094402678 1.1811665
-0.034511443 -0.095596701 1.181
-0.024854157 -0.095272414 1.18125
-0.015543615 -0.094319746 1.1822798
-0.0065918509 -0.094399862 1.1876665
-0.17442101 -0.08095637 1.189
-0.16521181 -0.08296632 1.1886923
-0.15494749 -0.085276172 1.1861999
-0.14461878 -0.085318424 1.1867999
-0.13488623 -0.084942535 1.187
-0.12626015 -0.083442792 1.1881111
-0.1151804 -0.082346179 1.189
-0.10441034 -0.083058685 1.1880001
-0.094089538 -0.084383331 1.1863333
-0.084845908 -0.085341379 1.1845293
-0.075575076 -0.08498162 1.1843685
-0.065898985 -0.085953489 1.1831335
-0.055563431 -0.087659061 1.1810001
-0.046590451 -0.088004179 1.1810001
-0.012646618 -0.086879596 1.1826001
-0.005189165 -0.085144848 1.1844
0.0017320011 -0.084542811 1.1856667
-0.19075127 -0.071922608 1.189
-0.18430439 -0.074585669 1.1887143
-0.17528848 -0.074868321 1.184
-0.16480541 -0.076496936 1.1823334
-0.15552606 -0.078872576 1.1815716
-0.14450434 -0.078834005 1.1810001
-0.13525349 -0.078403719 1.181
-0.12509567 -0.076373354 1.1825556
-0.11495827 -0.076113626 1.1824737
-0.10513087 -0.078031622 1.181923
-0.094855465 -0.079168387 1.1815716
-0.086968839 -0.079721436 1.1810001
-0.07558006 -0.079721436 1.1810001
-0.069368005 -0.079721436 1.1810001
-0.0034511443 -0.079031207 1.1810001
0.0020706865 -0.079721436 1.1810001
-0.19311398 -0.064834587 1.1889999
-0.18488812 -0.065439664 1.1847999
-0.17876928 -0.065916859 1.1810001
-0.19412653 -0.055344179 1.1889998
-0.184855 -0.055038713 1.1846
-0.17807904 -0.053579014 1.1810001
-0.19207792 -0.045200374 1.189
-0.18526158 -0.044751734 1.1871998
-0.17556687 -0.044305019 1.1825652
-0.16710441 -0.041206662 1.1810001
-0.19075127 -0.036482483 1.189
-0.18503779 -0.034107592 1.1888179
-0.17523038 -0.034557469 1.1851737
-0.16511826 -0.034057181 1.1833332
-0.15482602 -0.031792723 1.1816154
0.027954271 -0.034166332 1.1810001
0.032877117 -0.033976659 1.1871176
-0.1824124 -0.026058916 1.189
-0.17497082 -0.024994204 1.188
-0.16543086 -0.024967993 1.1867999
-0.1546354 -0.024906453 1.1838
-0.14701876 -0.02174221 1.1810001
0.033471543 -0.025152327 1.1855333
-0.19179362 -0.011465923 1.189
-0.18348773 -0.014509846 1.1886923
-0.1752132 -0.015324934 1.1864543
-0.16551372 -0.016159279 1.1853635
-0.15534897 -0.017973129 1.1826667
0.033785343 -0.015941979 1.1845293
-0.20318884 -0.0026606834 1.1872224
-0.1949614 -0.0054177525 1.1845789
-0.18556841 -0.0072595412 1.1825384
-0.1791144 -0.00931809 1.1810001
0.027436595 -0.0025883582 1.1810001
0.033132836 -0.0058856476 1.1849999
-0.20347056 0.0053284317 1.1873529
-0.19572774 0.0056226896 1.1812857
0.00931809 0.00931809 1.1810001
0.016121775 0.0072474033 1.181
0.025080927 0.0054129558 1.1841578
0.031062227 0.0027101273 1.189
-0.20245183 0.012849302 1.1883334
-0.19461539 0.015508191 1.1865237
-0.18526383 0.015883675 1.1826842
-0.17773394 0.018291065 1.1810001
-0.16876096 0.019671524 1.1810001
0.0059685549 0.015437559 1.1813809
0.015586115 0.015586114 1.1849998
0.023601621 0.014752108 1.1876668
-0.19075127 0.021889489 1.189
-0.1840291 0.024746764 1.1884999
-0.17504151 0.024783731 1.1864119
-0.1656879 0.025563709 1.184
-0.15633684 0.026918925 1.1810001
0.0077145696 0.024060117 1.1818889
0.014058958 0.024119876 1.1876668
-0.17318012 0.032610871 1.189
-0.16530627 0.033914402 1.1886361
-0.15474993 0.034276433 1.1846797
-0.14579517 0.036048766 1.181
0.00931809 0.030024957 1.1810001
0.012454803 0.034249611 1.1840001
-0.18137006 0.047948405 1.189
-0.17447473 0.045889702 1.1879333
-0.16530453 0.04488701 1.1859089
-0.15466084 0.043590494 1.184
-0.14546143 0.043208648 1.1815716
-0.13977134 0.042449076 1.1810001
-0.12424119 0.04451976 1.1810001
0.014743956 0.047132231 1.1842
-0.18280329 0.055375203 1.1889999
-0.17482451 0.055152677 1.1869999
-0.16727352 0.054260407 1.1826667
-0.011388777 0.057979226 1.1810001
-0.0043714498 0.056023572 1.181
0.0051893406 0.054981213 1.1832399
0.013793064 0.055102766 1.1858001
0.021889489 0.059414331 1.189
-0.18084888 0.063062578 1.189
-0.17489041 0.065426886 1.1885787
-0.16584307 0.066007048 1.1838
-0.15641348 0.068218313 1.1815716
-0.014433498 0.066790722 1.1818001
-0.0051889191 0.065415859 1.1843599
0.0031239528 0.063258611 1.1872222
-0.17407356 0.071922608 1.189
-0.16512178 0.073445819 1.1883334
-0.1547115 0.074702747 1.1860526
-0.14613172 0.077731758 1.1822001
-0.13666531 0.079721436 1.1810001
-0.12403413 0.078479029 1.1810001
-0.02174221 0.071438693 1.1810001
-0.014576956 0.074618101 1.1831176
-0.15322642 0.080261461 1.189
-0.14386153 0.083486192 1.1874001
-0.1343808 0.084762283 1.1868463
-0.1251884 0.085078746 1.1834445
-0.1155142 0.085601129 1.1817501
-0.10459375 0.085953347 1.1812667
-0.095695309 0.087116741 1.1810001
-0.076615408 0.086968839 1.1810001
-0.013320219 0.084097177 1.1843333
-0.13029458 0.090685032 1.189
-0.12543024 0.090685032 1.189
-0.11482339 0.091390528 1.1880001
-0.10513044 0.092121452 1.1873335
-0.094506241 0.091389693 1.1846001
-0.084475815 0.093451254 1.186
-0.075267531 0.093750648 1.1841999
-0.065756425 0.097081631 1.1843334
-0.054915275 0.097511351 1.1818889
-0.044074807 0.097474329 1.1814445
-0.034166329 0.09732227 1.181
-0.024848239 0.097322278 1.1810001
-0.014579258 0.096000433 1.1826
-0.0093496498 0.098690748 1.1850001
-0.062541395 0.1011086 1.189
-0.055515166 0.10165565 1.1884286
-0.045863695 0.10215096 1.189
-0.033299305 0.10198088 1.187
-0.024309248 0.10300713 1.1868182
-0.01655107 0.10243794 1.1868182
-0.13596223 -0.19139299 1.1930001
-0.14366902 -0.18393536 1.1962
-0.1374308 -0.18631579 1.1933637
-0.15180886 -0.17454521 1.197
-0.14657685 -0.17555594 1.1936153
-0.15343495 -0.16390701 1.1946666
-0.14955845 -0.16733813 1.1930001
-0.15467137 -0.15362006 1.194778
-0.14836319 -0.15493718 1.193
-0.011523783 -0.15085503 1.1950001
-0.0094127702 -0.15165018 1.1930001
-0.1605536 -0.14376369 1.197
-0.15845487 -0.14796117 1.197
-0.012227454 -0.1439545 1.1956667
-0.0094285496 -0.14875981 1.1950001
-0.033893395 -0.13556772 1.1956667
-0.02823831 -0.13073291 1.1930001
-0.011878833 -0.13591753 1.1956668
-0.052118707 -0.12137713 1.197
-0.045122914 -0.12172692 1.1970001
-0.033929631 -0.12230989 1.197
-0.026518289 -0.12419919 1.195154
-0.011504496 -0.12445774 1.1930001
-0.0094443299 -0.12382565 1.197
-0.062612407 -0.11088344 1.197
-0.055363938 -0.11422304 1.1965559
-0.045387249 -0.11571479 1.1941766
-0.034520268 -0.11611724 1.1932666
-0.026146583 -0.11504496 1.193
-0.012214597 -0.11447396 1.1943334
-0.0094443299 -0.11752944 1.197
-0.080801487 -0.10178889 1.197
-0.073718242 -0.10257591 1.197
-0.064794496 -0.10463595 1.1959335
-0.055546958 -0.10621322 1.1930002
-0.049155578 -0.10876979 1.1930001
-0.011504496 -0.10981565 1.1930001
-0.0083826864 -0.10685866 1.1950001
-0.18259038 -0.09129519 1.197
-0.17518763 -0.09231405 1.1966002
-0.1638992 -0.093369745 1.1948668
-0.154883 -0.094661705 1.1947501
-0.14511774 -0.09402582 1.1943334
-0.13488065 -0.093895495 1.1950002
-0.12471051 -0.094524838 1.1965557
-0.11498097 -0.093543835 1.1970003
-0.10528678 -0.09269435 1.197
-0.095388174 -0.093291774 1.1956668
-0.084554501 -0.095272817 1.1956669
-0.074556552 -0.095511526 1.1950003
-0.065366454 -0.097090982 1.193
-0.059614211 -0.099357016 1.1930001
-0.0017477811 -0.093991816 1.1956667
0.0010458634 -0.090990111 1.1930001
-0.19343387 -0.082200646 1.197
-0.18508844 -0.084465347 1.1945655
-0.17506357 -0.086332023 1.1932354
-0.16629228 -0.087703109 1.193
-0.13282464 -0.088898383 1.1930001
-0.12317052 -0.086484857 1.193
-0.11550083 -0.087254807 1.1934
-0.10615513 -0.087329589 1.193
-0.096846946 -0.08848004 1.1930001
-0.2021786 -0.07310611 1.197
-0.1955706 -0.07451763 1.1936318
-0.18773247 -0.077916816 1.1930001
-0.21092337 -0.062962197 1.197
-0.20505731 -0.064722255 1.1946
-0.19856463 -0.065889396 1.193
-0.21225752 -0.054613862 1.1959093
-0.20498922 -0.055430748 1.1930002
-0.1997599 -0.054907825 1.1930001
-0.21182282 -0.046622012 1.1969999
-0.20504296 -0.045238074 1.1942633
-0.19781758 -0.044673312 1.193
-0.20192875 -0.037027769 1.1969999
-0.1952008 -0.034162719 1.1937059
0.038174011 -0.032421764 1.1930001
0.041625008 -0.03113131 1.197
-0.19352855 -0.026222417 1.1965001
-0.18720952 -0.024054859 1.193
0.038729381 -0.025120884 1.194
0.04323405 -0.025814503 1.1970001
-0.19473101 -0.014381398 1.1948181
-0.18720953 -0.017779674 1.193
0.038696945 -0.015687948 1.1930001
0.040925428 -0.01783929 1.197
-0.21057096 -0.0020969866 1.1950001
-0.20513387 -0.006734929 1.1947143
-0.1997599 -0.0094127702 1.1930001
0.037556272 -0.0034389128 1.1947143
-0.21261784 0.0058349678 1.1947143
-0.2081268 0.0045320741 1.1930001
0.033894565 0.0054135625 1.1956667
-0.21280995 0.013629536 1.1958001
-0.20583543 0.016892741 1.1935713
-0.19871403 0.019871403 1.1930001
0.027216116 0.017011059 1.194
0.031364504 0.015274163 1.197
-0.2033679 0.022876266 1.197
-0.19509824 0.024921233 1.1943336
-0.18860401 0.027541069 1.1930001
0.018064374 0.026442679 1.1945001
0.023410216 0.023411384 1.1956667
-0.19203471 0.030431731 1.197
-0.18489887 0.034086078 1.1946366
-0.17591421 0.035768524 1.1930001
-0.16629227 0.038696945 1.1930001
0.015492161 0.033427007 1.1956668
-0.18440318 0.045360193 1.1939999
-0.17605366 0.041485909 1.193
-0.16629227 0.040788669 1.1930001
-0.19444585 0.056142718 1.1951177
-0.18820971 0.05521743 1.1934444
0.018056046 0.056258988 1.194
0.024054857 0.057522487 1.1930001
-0.19413345 0.061912831 1.197
-0.18598337 0.065111615 1.1940668
0.0069509312 0.065971002 1.1944546
0.014915539 0.063785933 1.1957694
0.022846809 0.064347163 1.1954
-0.18299474 0.071995586 1.1945
-0.17495522 0.075442761 1.193923
-0.165097 0.077842109 1.193
-0.0052366806 0.075431548 1.1950004
0.0040465682 0.072672784 1.1964287
-0.17104732 0.081850857 1.197
-0.16380791 0.082802787 1.1955713
-0.15518881 0.084482685 1.1942308
-0.14600231 0.087603249 1.1943333
-0.13753103 0.088375457 1.1930001
-0.0064110626 0.084167413 1.1967781
-0.14166495 0.09234456 1.197
-0.13451716 0.094176464 1.19525
-0.12498002 0.095244467 1.1955001
-0.11506035 0.097258136 1.1947143
-0.10539988 0.097550042 1.1943332
-0.095303543 0.097397611 1.1946
-0.085312568 0.098759376 1.193
-0.075302161 0.099357016 1.1930001
-0.0087394901 0.093691707 1.1963334
-0.1122826 0.10178889 1.197
-0.10598637 0.10178889 1.197
-0.094705641 0.10257591 1.197
-0.08490061 0.10481725 1.1956003
-0.074382171 0.10476484 1.1950003
-0.065204464 0.10513776 1.1941429
-0.055328116 0.10606514 1.1942308
-0.044286277 0.10601092 1.1933333
-0.035220962 0.10601091 1.1933333
-0.025623651 0.10798539 1.193
-0.015345757 0.10743492 1.1936666
-0.0094338097 0.10377425 1.1956667
-0.071881846 0.11070853 1.197
-0.064641193 0.11186284 1.1970001
-0.055998202 0.11151941 1.1970001
-0.044948023 0.1117579 1.1970001
-0.035153899 0.1117579 1.1970001
-0.025174798 0.11276037 1.1965001
-0.016440131 0.11298217 1.197
-0.14331046 -0.18862185 1.202
-0.15617515 -0.17488775 1.2048572
-0.16176078 -0.16281804 1.2060001
-0.15844047 -0.1659763 1.2037144
-0.16308001 -0.15399596 1.2048001
-0.15911674 -0.15806299 1.202
-0.16475256 -0.14491981 1.2046666
-0.15771058 -0.14551361 1.2037778
-0.04116476 -0.14143613 1.204
-0.0085910838 -0.14306174 1.2037144
-0.052862998 -0.13004299 1.2060001
-0.045227237 -0.13168761 1.2060002
-0.036447708 -0.13433689 1.2050002
-0.0090798112 -0.1357841 1.2044001
-0.14220147 -0.12211353 1.2060001
-0.13427202 -0.1215849 1.2060001
-0.060742475 -0.12306997 1.205
-0.055166401 -0.12462901 1.2038183
-0.045149501 -0.12701263 1.2023332
-0.035169017 -0.12684552 1.2019999
-0.0073955604 -0.12574206 1.2053334
-0.17021886 -0.11206956 1.2060001
-0.16463049 -0.11403304 1.2060002
-0.15531652 -0.11493927 1.206
-0.14436403 -0.11476076 1.2059999
-0.13484873 -0.11495297 1.2059999
-0.081409022 -0.1110123 1.2060001
-0.075065456 -0.1110123 1.2060001
-0.064371638 -0.11532599 1.2037144
-0.056902681 -0.11907413 1.202
-0.007987936 -0.115326 1.2037144
-0.18493083 -0.10190247 1.2054287
-0.17332847 -0.10354929 1.2060001
-0.16482317 -0.10460211 1.2052
-0.15531412 -0.1046021 1.2051998
-0.14478695 -0.10462876 1.2055198
-0.13456173 -0.10488661 1.2053041
-0.1250551 -0.10181922 1.2048001
-0.11558977 -0.10175502 1.2056365
-0.1044765 -0.10178529 1.2060002
-0.094837397 -0.10280265 1.2050771
-0.085818067 -0.10482504 1.2042856
-0.07542868 -0.10707578 1.2033333
-0.06849397 -0.10853659 1.202
-0.20193666 -0.09198162 1.2060001
-0.19473101 -0.093910016 1.2056925
-0.18521929 -0.095576614 1.2029998
-0.17514268 -0.097067595 1.2035
-0.16712527 -0.097577557 1.202
-0.14295919 -0.097999059 1.202
-0.13488042 -0.097999059 1.202
-0.12645039 -0.097999059 1.202
-0.1134541 -0.096945308 1.202
-0.10436498 -0.097249508 1.2025
-0.0948378 -0.097999059 1.202
-0.089569032 -0.097999059 1.202
-0.0010537533 -0.09589155 1.202
-0.20272762 -0.085342333 1.2051111
-0.19643775 -0.086798303 1.2025332
-0.18862185 -0.089569032 1.202
-0.21039474 -0.070836417 1.2060001
-0.20568211 -0.075811669 1.2044002
-0.21435772 -0.063885771 1.2045001
-0.20969692 -0.06849397 1.202
-0.22207092 -0.053895712 1.2054287
-0.21754541 -0.055529822 1.2026668
-0.2229308 -0.04576426 1.2060002
-0.21623738 -0.044511333 1.2023076
-0.20969692 -0.041096378 1.202
-0.22149597 -0.037004098 1.2060001
-0.21536182 -0.034675837 1.205619
-0.20643057 -0.034041997 1.2024704
-0.21180443 -0.027136341 1.2060002
-0.20456961 -0.024645435 1.2048888
-0.19743508 -0.023086779 1.2019999
0.045010321 -0.021526676 1.202
-0.21039474 -0.01162986 1.2060001
-0.20465676 -0.014706826 1.2047694
-0.19760594 -0.017082727 1.2028
0.044944361 -0.016075535 1.2046667
-0.21180266 -0.0058140536 1.2050002
-0.20828022 -0.0084580798 1.2060001
0.041233141 -0.0063435598 1.2060001
-0.22184137 0.0084501896 1.205
-0.21725291 0.0047427667 1.2030001
0.037951335 0.006589903 1.2025
-0.2232375 0.014710872 1.2050771
-0.21684293 0.016518736 1.2026668
0.035712142 0.014314964 1.2031429
-0.22181313 0.021779556 1.2060001
-0.21462342 0.024206433 1.2054285
-0.2054159 0.026360411 1.2027272
-0.19915938 0.02845134 1.202
0.026362771 0.026362067 1.2028
0.032010604 0.023806954 1.2037779
-0.21145201 0.03066054 1.2060001
-0.20424342 0.032967292 1.2060002
-0.19576512 0.034955099 1.2043157
-0.18862185 0.038988873 1.202
0.017937651 0.034824356 1.2036
0.023143861 0.033376586 1.204154
0.03066054 0.03066054 1.2060001
-0.19453409 0.046037275 1.2048235
-0.18777886 0.042782385 1.202
0.017094649 0.0445273 1.2036
-0.2030714 0.056842018 1.2052002
-0.19867779 0.05239369 1.2033334
0.020054627 0.05277358 1.204
-0.2024653 0.061849713 1.2060001
-0.19594486 0.066182263 1.204154
0.0162278 0.067650959 1.202
0.021601943 0.067967087 1.202
-0.19266796 0.072206937 1.2053336
-0.1854185 0.076350063 1.2040001
-0.17808431 0.079031497 1.202
0.0068043675 0.077139497 1.2023636
0.014051618 0.073510654 1.2044616
0.02325972 0.070836417 1.2060001
-0.1818487 0.081409022 1.2060001
-0.17397214 0.085264713 1.2046667
-0.16538404 0.088362746 1.2035002
-0.15490174 0.089569032 1.202
-0.0022585436 0.087504104 1.2025715
0.00422356 0.084028497 1.20375
0.01162986 0.081409022 1.2060001
-0.17127612 0.09198162 1.2060001
-0.16493256 0.093038872 1.2060002
-0.15534848 0.094055466 1.2054669
-0.14512119 0.09531717 1.2035999
-0.13698792 0.097999059 1.202
-0.12539664 0.097999059 1.202
-0.0046417746 0.09478379 1.2040001
-0.14167285 0.1004397 1.2060001
-0.13390908 0.10311908 1.2043334
-0.12465497 0.1031576 1.2037499
-0.11531323 0.10594934 1.204
-0.10440683 0.10599317 1.2045001
-0.095225282 0.10717173 1.2024444
-0.0069118342 0.10557035 1.202889
-0.094656698 0.11186592 1.2054287
-0.085467651 0.11184794 1.2036
-0.075341702 0.11306993 1.2028888
-0.064321741 0.11620146 1.2028
-0.054524962 0.11643788 1.2037779
-0.045914833 0.1173392 1.2039999
-0.034039654 0.11637093 1.2040001
-0.024276655 0.11779629 1.2040002
-0.014139931 0.11649217 1.2035999
-0.0073945853 0.11304501 1.2051111
-0.02220246 0.1215849 1.2060001
-0.15805423 -0.17714803 1.21
-0.16501263 -0.16359593 1.210889
-0.17158325 -0.15453441 1.2156668
-0.16752924 -0.15600733 1.2105715
-0.050939303 -0.15353034 1.2190001
-0.048089549 -0.15068059 1.2190001
-0.0074805967 -0.15068059 1.2190001
-0.17123227 -0.14505035 1.2106668
-0.16866189 -0.14108196 1.21
-0.15922984 -0.14426865 1.2190001
-0.052109241 -0.14457688 1.2179999
-0.045931116 -0.14436549 1.2132727
-0.0037236412 -0.14488171 1.2151667
0.0026716418 -0.14266565 1.2190001
-0.17229231 -0.1349171 1.2181667
-0.1648057 -0.13503762 1.2128801
-0.15482078 -0.13386194 1.2169411
-0.1448765 -0.13422853 1.2151251
-0.13507113 -0.13436897 1.2140955
-0.12770447 -0.13197911 1.2190001
-0.10312536 -0.13197909 1.2190001
-0.094617218 -0.13325328 1.219
-0.087629855 -0.13251343 1.2190001
-0.071599998 -0.13144477 1.2190001
-0.063861273 -0.13411747 1.2165626
-0.055234339 -0.13571075 1.2128422
-0.045625106 -0.13687424 1.2103077
-0.0040820371 -0.13489196 1.2135788
0.0053432835 -0.13571939 1.219
0.014961192 -0.13251343 1.2190001
0.020304477 -0.13144477 1.2190001
-0.17425941 -0.12423169 1.2141428
-0.16449967 -0.12523377 1.2105999
-0.15500124 -0.1252761 1.211
-0.14598802 -0.12583345 1.21
-0.13471735 -0.12573203 1.21
-0.12466077 -0.12466675 1.2154002
-0.11443105 -0.1246748 1.2165002
-0.1051423 -0.1244253 1.2157393
-0.094861127 -0.12470952 1.2158
-0.084968492 -0.12469185 1.2166191
-0.074926466 -0.12395755 1.2157502
-0.065718658 -0.1257256 1.2114999
-0.057281397 -0.12835276 1.21
-0.0028616418 -0.1246293 1.2134615
0.0042117643 -0.12578715 1.219
0.021016916 -0.12538905 1.219
-0.18259038 -0.11467817 1.2180001
-0.17503925 -0.11525666 1.2108421
-0.16532806 -0.11835126 1.21
-0.15522552 -0.11703792 1.21
-0.14886092 -0.11915946 1.21
-0.1304743 -0.1177451 1.21
-0.12443616 -0.11486753 1.2132002
-0.11487161 -0.11487203 1.2132499
-0.10522559 -0.11479179 1.2124002
-0.094565339 -0.11475531 1.2120001
-0.0852037 -0.11495519 1.2118665
-0.075399294 -0.11575285 1.2113335
-0.068101227 -0.1181694 1.21
-0.0038595796 -0.11433482 1.2160625
0.0010686567 -0.11862089 1.2190001
0.02244179 -0.11862089 1.2190001
0.030991044 -0.11220895 1.2190001
-0.18396674 -0.10578328 1.2106668
-0.17741321 -0.10740262 1.21
-0.12526689 -0.10733029 1.21
-0.11534778 -0.10731478 1.2102858
-0.10516744 -0.10728896 1.21
-0.095203809 -0.10846338 1.21
-0.0053190873 -0.10537411 1.2142001
0.037402984 -0.097247757 1.2190001
-0.21285467 -0.081949048 1.2140001
-0.20783627 -0.083431661 1.2108001
-0.21503067 -0.075349286 1.2145883
-0.20897104 -0.078496732 1.21
-0.22472228 -0.064342186 1.2163999
-0.21816602 -0.065345488 1.2105715
-0.23118858 -0.052859139 1.2108001
-0.22658232 -0.056026988 1.210889
-0.2321475 -0.04476377 1.2110001
-0.22771125 -0.044905793 1.21
-0.23331469 -0.036302362 1.2152307
-0.22563973 -0.034488503 1.2105
-0.2318985 -0.027785074 1.2190001
-0.22534825 -0.024204606 1.215091
-0.2158348 -0.023773655 1.21
-0.20897104 -0.021215335 1.21
-0.22230361 -0.016019205 1.2182857
-0.2146308 -0.015072003 1.2107999
-0.20897104 -0.016972266 1.21
0.046285745 -0.013201348 1.2117144
0.0517684 -0.012568069 1.2150002
-0.22121193 -0.0053432831 1.2190001
-0.21655016 -0.0062856199 1.2135456
0.045481194 -0.0050520655 1.2134376
0.052112099 -0.0066934298 1.2176362
-0.22359471 0.0053127753 1.2134001
-0.2195787 0.0031822999 1.21
0.043115273 0.0047913487 1.21425
-0.23018636 0.016972266 1.21
-0.22806484 0.016972266 1.21
0.038863946 0.014905963 1.2145001
0.041677609 0.011755223 1.2190001
-0.23092158 0.024441468 1.2120001
-0.22581074 0.025264718 1.2108002
-0.21851793 0.028640701 1.21
0.035419088 0.024776855 1.2137144
-0.23296715 0.030991044 1.2190001
-0.22381963 0.033980101 1.2165715
-0.21512473 0.035289198 1.2119474
-0.20628211 0.037564117 1.2104001
-0.19836336 0.039248366 1.21
0.026166588 0.037172738 1.2114545
0.032398969 0.03516889 1.2156
-0.21299247 0.042855673 1.2160002
-0.20436887 0.044907771 1.2109998
-0.19694901 0.042077079 1.21
0.018033033 0.0445522 1.21
0.024282705 0.04495617 1.2140478
0.031833146 0.044928543 1.2161429
-0.21052536 0.054501493 1.2190001
-0.20595004 0.053412668 1.2125001
0.02490464 0.050869167 1.2173334
0.032059699 0.050226863 1.2190001
-0.20576407 0.066135384 1.2102666
-0.21052536 0.073737308 1.2190001
-0.20456827 0.074282698 1.2134707
-0.19587363 0.076086193 1.2110001
-0.18881646 0.079557501 1.21
0.015930202 0.077876054 1.2113334
0.022124875 0.075097807 1.2133
-0.20304477 0.080149248 1.2190001
-0.19403109 0.082736515 1.21775
-0.1854361 0.085576884 1.2136428
-0.17856239 0.087336451 1.21
0.0078559853 0.087253228 1.2108001
0.015094133 0.084758833 1.2172142
0.024273772 0.083049901 1.219
-0.18424959 0.092926562 1.218375
-0.17556463 0.094914705 1.2121578
-0.16489027 0.097708389 1.21
-0.15487194 0.098651297 1.21
-0.1495681 0.098651297 1.21
-0.0015929034 0.097219698 1.2120001
0.0047701737 0.094294548 1.2156843
0.011755223 0.091904476 1.2190001
-0.17276952 0.10131417 1.2165
-0.16445389 0.10289558 1.2138462
-0.15437895 0.10426644 1.2135558
-0.14516553 0.10436022 1.2122
-0.1361274 0.10788155 1.2112
-0.12580693 0.10883466 1.21
-0.1177451 0.10925896 1.21
-0.10713743 0.10925896 1.21
-0.0028048551 0.10448799 1.2150909
0.0010686567 0.10259104 1.2190001
-0.14373432 0.11060596 1.2190001
-0.13392733 0.11395033 1.2168182
-0.12472633 0.11406811 1.216
-0.11524128 0.11360867 1.212846
-0.10502628 0.11465428 1.2126843
-0.09493582 0.11657197 1.2118182
-0.085001603 0.11687894 1.212
-0.076297805 0.11725015 1.2111429
-0.064763755 0.11890318 1.2110001
-0.056220632 0.11986663 1.21
-0.0413699 0.11986663 1.21
-0.035005301 0.11986663 1.21
-0.028640701 0.11986663 1.21
-0.011668433 0.11986663 1.21
-0.0043150121 0.11674528 1.2113998
0.0010686567 0.11755224 1.2190001
-0.10152239 0.12075821 1.2190001
-0.094576113 0.12075821 1.2190001
-0.083355218 0.12075821 1.2190001
-0.074805968 0.12075821 1.2190001
-0.062842093 0.12285139 1.215
-0.054609753 0.1247431 1.2146429
-0.045105372 0.12432302 1.2155
-0.034520403 0.12522776 1.2147646
-0.024551742 0.12555942 1.212105
-0.015357948 0.12531474 1.2142857
-0.0049443203 0.12339855 1.2162728
0.0010686567 0.12182686 1.2190001
-0.033128355 0.13144477 1.2190001
-0.025353201 0.13211147 1.21775
-0.018167162 0.13144477 1.2190001
-0.17318287 -0.16027483 1.2270001
-0.06131319 -0.16027483 1.2270001
-0.057625175 -0.16242619 1.2270001
-0.17514367 -0.15365599 1.2256668
-0.15369371 -0.15208369 1.2260002
-0.14575329 -0.15166947 1.2270001
-0.13538074 -0.15259148 1.2270001
-0.092507616 -0.15166947 1.2270001
-0.084812447 -0.15348983 1.2270001
-0.075894497 -0.15334275 1.2270001
-0.064468488 -0.15439449 1.227
-0.055508688 -0.15517761 1.2254443
-0.0037635299 -0.15322118 1.2265002
0.0036572781 -0.15209974 1.2270001
-0.17476262 -0.14795855 1.223
-0.15498903 -0.14445826 1.2249045
-0.14502607 -0.14503029 1.2253997
-0.13488457 -0.14511833 1.2252855
-0.12496457 -0.14346376 1.2267334
-0.11523116 -0.14333305 1.227
-0.104096 -0.14394575 1.2267894
-0.094552182 -0.14505222 1.2255998
-0.084921964 -0.14512302 1.2261997
-0.075296909 -0.14521545 1.2269999
-0.065760665 -0.14531757 1.2263331
-0.057039093 -0.14645751 1.2229999
-0.0010721633 -0.1490307 1.223
0.0057990332 -0.14650765 1.2246001
0.01434936 -0.14281225 1.2248181
0.02043773 -0.14091277 1.2270001
-0.17597944 -0.13413 1.2240001
-0.1547489 -0.13830908 1.223
-0.1248977 -0.1359023 1.22425
-0.11500289 -0.13542658 1.2259998
-0.10575332 -0.13617335 1.2246667
-0.096341528 -0.1376964 1.2230002
-0.083896786 -0.13562867 1.2229998
-0.075349323 -0.13545686 1.2243332
-0.068404019 -0.13702247 1.223
0.015010286 -0.13580738 1.2229999
0.023189586 -0.1344123 1.2246001
-0.17853171 -0.12629464 1.2243334
-0.11793797 -0.12973176 1.223
-0.081484407 -0.12973176 1.223
-0.077195764 -0.12973176 1.223
0.0077731842 -0.12383485 1.223
0.015010287 -0.1254431 1.2229998
0.025788348 -0.12533027 1.2229998
0.031092737 -0.12222662 1.223
-0.0010721633 -0.11043283 1.223
0.0055549988 -0.11482188 1.2259998
0.01521575 -0.1152211 1.2259474
0.024846217 -0.11434855 1.2229997
0.032760546 -0.11353019 1.223
-0.0019936652 -0.10567827 1.2247144
0.00107567 -0.10864267 1.2270001
0.01828639 -0.10864267 1.2270001
0.025553074 -0.10543719 1.2258887
0.032888148 -0.10492051 1.2233334
-0.0010721633 -0.099711187 1.223
0.034590282 -0.096466817 1.2254002
0.03549711 -0.088204943 1.2270001
-0.22265711 -0.073501922 1.2240001
-0.22515431 -0.069690615 1.223
-0.24202575 -0.03442144 1.2270001
-0.23809052 -0.033267122 1.2241429
-0.2423843 -0.025457524 1.2270001
-0.23670769 -0.024349317 1.2254443
-0.24202575 -0.01828639 1.2270001
-0.23268783 -0.015467907 1.2254002
-0.22678597 -0.014180667 1.2234445
-0.23180689 -0.008067525 1.2270001
-0.22561719 -0.0057747131 1.2255
0.053072084 -0.001608245 1.223
-0.22681978 0.0032263089 1.2262002
0.047226619 0.0053689983 1.2243334
0.052244596 0.0019355047 1.2262002
0.039670043 0.018226776 1.223
0.04295725 0.015036588 1.2250001
0.038484439 0.024724279 1.2262001
0.041951131 0.02043773 1.2270001
-0.23332614 0.034945689 1.2265
-0.22706573 0.038262118 1.2236668
0.036137074 0.033270959 1.2243334
-0.22337709 0.044773214 1.2256669
-0.21639831 0.045924325 1.2229999
0.033237062 0.043958697 1.223
-0.22051235 0.050556488 1.2270001
-0.21555977 0.053890601 1.2253333
0.027235696 0.054830525 1.2263335
0.03119443 0.054859169 1.2270001
-0.2132249 0.064502209 1.2263335
-0.21446128 0.075455099 1.2248182
-0.2136523 0.082174353 1.2264287
-0.20506558 0.084820516 1.224684
-0.19633563 0.086902738 1.2237999
0.017184421 0.089135081 1.2250001
0.023615209 0.088026538 1.2245001
-0.20115028 0.091431953 1.2270001
-0.19407699 0.093708307 1.2258002
-0.18657368 0.095969185 1.2238889
0.0096494695 0.096494704 1.223
0.013664353 0.094725452 1.2258574
0.027920078 0.091282919 1.2250001
-0.19039358 0.10003731 1.2270001
-0.18501525 0.10057514 1.2270001
-0.17451058 0.10470863 1.2250001
-0.16597387 0.10800131 1.2246001
-0.157608 0.1082885 1.223
0.004899885 0.10286719 1.2265557
0.011832369 0.10003731 1.2270001
-0.16027483 0.11186968 1.2270001
-0.15414691 0.11150961 1.2247144
-0.14519855 0.11511888 1.2255715
-0.13695492 0.11764545 1.2236668
-0.12615788 0.11865274 1.223
-0.11472148 0.11901013 1.223
-0.0010721633 0.11043283 1.223
0.0010745012 0.11282028 1.2256668
-0.13295265 0.12256034 1.2263335
-0.12477773 0.12262636 1.2270001
-0.11527597 0.12316421 1.2270001
-0.10467862 0.12474331 1.2259333
-0.095139369 0.12522005 1.2252856
-0.084973931 0.12495819 1.2252221
-0.075109854 0.12551117 1.2255456
-0.066675559 0.12582952 1.225154
-0.054680329 0.12973176 1.223
-0.045245294 0.1293029 1.223
-0.038955268 0.12901698 1.223
-0.011793797 0.12865961 1.223
-0.0061649391 0.12839156 1.223
0.0010721633 0.12651527 1.223
-0.092507616 0.13015607 1.2270001
-0.087129273 0.13015607 1.2270001
-0.064898759 0.13316795 1.227
-0.055177983 0.13508004 1.2261111
-0.045178134 0.13338308 1.2270001
-0.035439245 0.13445611 1.2250001
-0.024170721 0.13696353 1.2253336
-0.015400403 0.13431419 1.2256666
-0.0053783501 0.13123174 1.2270001
0.00107567 0.13015607 1.2270001
-0.09423659 -0.17222409 1.2355556
-0.085324213 -0.17280853 1.2320002
-0.07558129 -0.1717397 1.2352002
-0.17388858 -0.16308805 1.2320001
-0.14388098 -0.16335002 1.2340002
-0.13660625 -0.16374677 1.2344615
-0.1246094 -0.16145045 1.2360001
-0.11810804 -0.16145045 1.2360001
-0.10077108 -0.162534 1.2360001
-0.094954453 -0.16416623 1.2336003
-0.08532422 -0.16524817 1.2320002
-0.074786015 -0.16455436 1.2329527
-0.064973734 -0.16547555 1.2320002
-0.058322877 -0.16740827 1.2320001
-0.17823966 -0.15484598 1.2352002
-0.15099145 -0.15617572 1.2320001
-0.14478864 -0.15643403 1.2332311
-0.13426551 -0.15633595 1.2322859
-0.12510584 -0.15475151 1.2327621
-0.11546329 -0.15437469 1.2328335
-0.10492872 -0.15469253 1.2339201
-0.095353283 -0.15599057 1.2320002
-0.085632794 -0.15815066 1.2320002
-0.073443629 -0.15725575 1.2320002
-0.068043359 -0.15768778 1.2320001
-0.0039601955 -0.1576878 1.2320002
0.0061203027 -0.15444762 1.2320002
0.014495159 -0.15075441 1.2336
-0.17792055 -0.14411348 1.2360001
-0.13068645 -0.14796731 1.2320001
-0.12636624 -0.14796731 1.2320001
-0.11502568 -0.14796731 1.2320001
-0.10908539 -0.14796731 1.2320001
0.016655263 -0.14729543 1.2336
0.023146804 -0.14296679 1.2336
-0.18095452 -0.13111076 1.2360001
-0.17748876 -0.13860685 1.2320001
0.026436258 -0.1386576 1.234286
-0.18095452 -0.12894364 1.2360001
0.011880587 -0.11124549 1.2320001
0.0055802758 -0.10458515 1.2320002
0.014950214 -0.10453781 1.2320002
0.022681119 -0.1016793 1.2320002
0.0058925645 -0.095471151 1.2344445
0.015152964 -0.095254444 1.2347502
0.024855604 -0.095104665 1.2328002
0.032185592 -0.093532614 1.2320001
0.0065013599 -0.089935482 1.2360001
0.015350431 -0.087587766 1.2360001
0.025283068 -0.087045975 1.2360001
0.03318952 -0.084929042 1.2335387
0.034996536 -0.078292176 1.2346667
-0.243012 -0.031321548 1.2320001
-0.24157192 -0.015120747 1.2320002
-0.23797177 -0.01440071 1.2320002
-0.24147749 -0.005411488 1.2352002
-0.23566611 -0.0044427519 1.2331113
-0.23433714 0.0026580533 1.2349092
0.048602398 0.0086404271 1.2320001
0.053018853 0.0068547539 1.2342223
0.047079191 0.015151868 1.2345001
0.050927319 0.01191916 1.2360001
0.039961971 0.02592128 1.2320001
0.043037318 0.024631701 1.2350001
-0.243801 0.035757478 1.2360001
-0.23642999 0.037841607 1.2333335
0.036752496 0.036750741 1.233
0.040091719 0.031423241 1.2360001
-0.23186839 0.043634038 1.2340001
-0.22772117 0.047059469 1.2340001
-0.2234838 0.054114439 1.2345002
-0.21876808 0.058747187 1.2333335
0.024841227 0.056162775 1.2320001
0.031321548 0.05508272 1.2320001
-0.21708021 0.065148957 1.2344
-0.22405612 0.077208616 1.2346668
-0.21888876 0.074582413 1.233
-0.22212979 0.08343412 1.2360001
-0.21636429 0.086929999 1.2335387
-0.20737024 0.089644425 1.2320001
-0.21237776 0.092102602 1.2360001
-0.20461211 0.09458182 1.2349092
-0.19734608 0.096620582 1.2328001
0.017452179 0.095597737 1.233143
0.023573687 0.095385075 1.2336001
-0.19469854 0.10157271 1.2352002
-0.18381986 0.10519648 1.2342224
-0.17682648 0.10843245 1.2344002
0.0070264838 0.10683382 1.2330002
0.014883171 0.10457274 1.2345002
0.022483869 0.1026673 1.2360001
-0.17336959 0.11160668 1.2360001
-0.16462398 0.11330942 1.234286
-0.15556519 0.11662017 1.2340001
-0.14580719 0.11988592 1.2320001
0.0049338806 0.11416966 1.2351112
0.01191916 0.11160668 1.2360001
-0.16145045 0.12027516 1.2360001
-0.15494908 0.12027516 1.2360001
-0.14447467 0.12316465 1.2360001
-0.13515393 0.12614357 1.2333335
-0.12528619 0.12744629 1.2320002
-0.11529569 0.1277163 1.2320002
-0.10692528 0.12852634 1.2320001
-0.076683789 0.12852634 1.2320001
0.0032506799 0.12677652 1.2360001
-0.1325555 0.13183314 1.2360001
-0.12469771 0.13296451 1.2349092
-0.11556898 0.13316496 1.2336001
-0.10457523 0.13378614 1.2340002
-0.095121846 0.13511887 1.2330002
-0.084973894 0.13535735 1.2332002
-0.074478418 0.13470194 1.2329526
-0.065451227 0.13889486 1.2320001
-0.051842563 0.13932689 1.2320001
-0.045362242 0.13824682 1.2320002
-0.03656752 0.13870969 1.2320002
-0.014047123 0.13832222 1.2326669
-0.0054112254 0.1363655 1.2345001
0.0010826832 0.13642073 1.2350001
-0.070431396 0.14194636 1.2360001
-0.064460553 0.14267826 1.234286
-0.055962458 0.14247192 1.2335001
-0.044425961 0.14194636 1.2360001
-0.03416295 0.14267825 1.2342857
-0.025264578 0.14303184 1.2334548
-0.0166749 0.14272134 1.2352002
-0.13424835 -0.17135765 1.245
-0.12397503 -0.17416985 1.2446923
-0.11733087 -0.17190337 1.245
-0.10368776 -0.17281292 1.245
-0.099002846 -0.17298299 1.2410001
-0.18008925 -0.16044314 1.245
-0.17762056 -0.16345625 1.243
-0.13381703 -0.16863121 1.2410001
-0.12530261 -0.16670756 1.2428668
-0.11501116 -0.16583364 1.2410001
-0.10608883 -0.16572993 1.2418889
-0.099002846 -0.16863121 1.2410001
-0.18500078 -0.15407635 1.245
-0.18429914 -0.1454747 1.245
-0.17951065 -0.14687234 1.2410001
0.025979264 -0.14669776 1.2421429
-0.18227215 -0.1375227 1.245
0.0087035466 -0.08485958 1.2410001
0.014505912 -0.082321048 1.2410001
0.024090171 -0.082217433 1.2410001
0.0087315999 -0.079675846 1.245
0.01598222 -0.077002309 1.243
0.025383467 -0.07594116 1.2434763
0.034380354 -0.074063316 1.2436664
0.040383648 -0.073127151 1.245
0.059111584 0.0061650123 1.2410001
0.061021261 0.0065399334 1.243
0.054508064 0.015262328 1.2435
0.04797237 0.026169084 1.2436666
0.052025784 0.021465182 1.245
-0.24261136 0.038078018 1.2410001
0.043003131 0.034708109 1.245
-0.2423019 0.042566549 1.245
-0.23650721 0.045898274 1.2432222
0.038200751 0.04474945 1.245
-0.23267728 0.054870166 1.245
-0.22723813 0.055558048 1.2426001
-0.23102356 0.060757384 1.245
-0.22473462 0.064604506 1.2440588
-0.22301961 0.071671881 1.245
-0.22472091 0.085678391 1.2423334
-0.22368793 0.09384045 1.2446667
-0.21602266 0.096340537 1.2427142
-0.20743454 0.098277546 1.2410001
-0.22156435 0.10150485 1.245
-0.21441294 0.10366056 1.2446667
-0.20516357 0.10441227 1.2428827
-0.19490924 0.10636739 1.2410001
-0.1867636 0.10843169 1.2410001
0.018495036 0.10988227 1.2410001
0.023779333 0.10801722 1.2410001
-0.20300969 0.11023645 1.245
-0.19488446 0.11169173 1.245
-0.18425736 0.11545861 1.2445296
-0.17501424 0.11600417 1.2432855
-0.16706176 0.11691819 1.2435
0.0092554083 0.1165055 1.2420001
0.014893691 0.11405551 1.243
0.024011901 0.1113279 1.245
-0.17485029 0.12158753 1.245
-0.16529404 0.1230913 1.245
-0.15479262 0.12574059 1.2428665
-0.14539881 0.12797187 1.2423334
0.0059942086 0.12476589 1.243
-0.15171155 0.13206545 1.245
-0.14428969 0.13337518 1.245
-0.13595901 0.13595961 1.2440001
-0.12628146 0.1378006 1.2432858
-0.11314611 0.1381688 1.2410001
-0.10879433 0.1381688 1.2410001
0.0054397169 0.13490497 1.2410001
-0.13206545 0.14079705 1.245
-0.12115095 0.14079705 1.245
-0.11278317 0.14152467 1.245
-0.10467926 0.14240769 1.2438
-0.095214367 0.14316931 1.2431818
-0.084676944 0.14428209 1.2436666
-0.075233556 0.14474732 1.2437499
-0.065757304 0.14786375 1.2432222
-0.055151332 0.14783762 1.2424546
-0.04470152 0.14719029 1.2436664
-0.035229042 0.14781037 1.2427778
-0.024225149 0.14835238 1.2420001
-0.015254 0.14765477 1.243
-0.0054484839 0.14340582 1.243
0.0038156919 0.14232114 1.244
-0.060029749 0.15171155 1.245
-0.0545725 0.15171155 1.245
-0.04474945 0.15171155 1.245
-0.033834949 0.15171155 1.245
-0.025103349 0.15171155 1.245
-0.0174632 0.15171155 1.245
-0.18211435 -0.17107712 1.2590001
-0.17851739 -0.17080535 1.2570001
-0.13040416 -0.17314166 1.25
-0.1282125 -0.1742375 1.25
-0.18372039 -0.16367213 1.253
-0.177525 -0.1676625 1.25
-0.19384597 -0.15328409 1.2504166
-0.18826416 -0.15670417 1.25
0.025204167 -0.15232083 1.25
-0.20198137 -0.14569148 1.2590001
-0.1957249 -0.14422722 1.2549503
-0.18903124 -0.14465 1.25
-0.19302107 -0.13582072 1.2581428
-0.1865219 -0.13516454 1.2535455
-0.19094414 -0.12803191 1.2590001
-0.18780333 -0.12642469 1.2576667
0.0091319447 -0.077073611 1.25
0.014611111 -0.07342083 1.25
0.023560418 -0.071777083 1.25
0.040545832 -0.071229167 1.25
0.018629167 -0.069037497 1.25
0.025625538 -0.065036669 1.2519568
0.03511598 -0.064739853 1.2517503
0.040599894 -0.065465085 1.2516667
0.026915794 -0.055241644 1.2567145
0.035032712 -0.055298671 1.2566001
0.02648936 -0.047460102 1.2590001
0.033111699 -0.048011962 1.2590001
0.06252715 0.0093244463 1.25125
0.05758933 0.017004047 1.25125
0.062722579 0.015409316 1.2551666
0.049312498 0.0295875 1.25
0.055061795 0.025588382 1.2544
0.061808508 0.020970743 1.2590001
0.047267642 0.035877343 1.2538183
0.052292947 0.033579182 1.2557501
-0.24217917 0.047120832 1.25
-0.23889166 0.048216663 1.25
0.041990757 0.041987602 1.2538
-0.24392286 0.051874995 1.2590001
-0.23852639 0.054061111 1.25
-0.23483327 0.065893777 1.2513334
-0.22902916 0.069037497 1.25
-0.23480655 0.073860757 1.2574545
-0.22789565 0.073042981 1.251
-0.22245416 0.099720836 1.25
-0.22105545 0.10778221 1.2545
-0.21649197 0.10769762 1.251
-0.21383685 0.11348098 1.2567273
-0.20501125 0.11475541 1.2534286
-0.19571462 0.11766899 1.2522727
-0.18848333 0.11944583 1.25
0.0076708333 0.11944583 1.25
0.016188199 0.1182552 1.251875
0.021634379 0.11696136 1.2546667
-0.20481952 0.12125189 1.2589999
-0.19424343 0.12464997 1.2582726
-0.18517753 0.1252493 1.2551178
-0.1751927 0.12668382 1.2529167
-0.16578393 0.12727322 1.25
