# .PCD v0.7 - Point Cloud Data file format
VERSION 0.7
FIELDS x y z
SIZE 4 4 4
TYPE F F F
COUNT 1 1 1
WIDTH 1422
HEIGHT 1
VIEWPOINT 0 0 0 1 0 0 0
POINTS 1422
DATA ascii
-0.22473182 -0.11444171 0.94699991
-0.2151058 -0.11604878 0.94096023
-0.20401083 -0.11603858 0.94140029
-0.19487622 -0.11560816 0.94191688
-0.18485378 -0.11553664 0.94133365
-0.17516813 -0.11502877 0.94140661
-0.16504297 -0.11501769 0.94131279
-0.15526132 -0.11504278 0.94319367
-0.14535789 -0.11479824 0.94300026
-0.1357052 -0.1166387 0.94111133
-0.1255578 -0.11724222 0.94000036
-0.11689974 -0.11642885 0.94000024
-0.10714781 -0.11676396 0.94016701
-0.23020916 -0.10139176 0.94800007
-0.22441275 -0.10466945 0.94456673
-0.21613021 -0.10518086 0.94000036
-0.20354447 -0.10960086 0.94000006
-0.1926668 -0.10844717 0.94000018
-0.18459095 -0.10795274 0.9400003
-0.17411351 -0.10830592 0.94000024
-0.16398926 -0.10673456 0.94000036
-0.15508817 -0.10806873 0.9410001
-0.14596069 -0.10838085 0.94064289
-0.13926727 -0.10960086 0.94000006
-0.23020916 -0.09474311 0.94800001
-0.22396418 -0.094835602 0.94242871
-0.21672955 -0.098063938 0.94000018
-0.23020916 -0.084770165 0.94800001
-0.22432868 -0.085381538 0.94207704
-0.22395334 -0.075127065 0.94371885
-0.21837766 -0.073341928 0.94000006
-0.25015509 -0.06149992 0.94800007
-0.24449442 -0.061712656 0.94700003
-0.23491888 -0.061096739 0.94690001
-0.22437961 -0.064604968 0.94723994
-0.21799719 -0.063697904 0.94119996
-0.25237128 -0.05512831 0.94800007
-0.24529605 -0.054787148 0.94328147
-0.2353939 -0.054612618 0.94141698
-0.22537823 -0.054397065 0.943308
-0.21723206 -0.054898176 0.94064301
0.0065094805 -0.054645311 0.94673687
0.011753847 -0.052358039 0.94800001
-0.25140169 -0.045501631 0.94800001
-0.2459019 -0.044867463 0.94200027
-0.23897934 -0.048619933 0.94000006
-0.22306266 -0.047811382 0.94029999
-0.2175536 -0.047795862 0.94000006
-0.25172868 -0.034894545 0.94766665
-0.24700387 -0.034829091 0.9419412
-0.060156867 -0.031314533 0.94000006
-0.057684667 -0.031314533 0.94000006
-0.25115237 -0.025763478 0.94800007
-0.24567208 -0.024498571 0.9429546
-0.2398034 -0.020601667 0.94000006
-0.062577583 -0.02425391 0.94338894
-0.055764493 -0.024220947 0.94284642
-0.24409805 -0.015408701 0.94513333
-0.23905426 -0.014458626 0.94000018
-0.062330998 -0.019114841 0.94800007
-0.053530041 -0.015610298 0.94488466
-0.048697516 -0.011554029 0.94150007
-0.2416985 -0.0055756001 0.94742858
-0.23758966 -0.0045786705 0.94190907
-0.051699821 -0.0062621902 0.94700009
-0.045107543 -0.0042418391 0.94346684
-0.035274062 -0.0032602812 0.94199991
-0.26079291 0.0078121522 0.94800007
-0.25454015 0.0066116671 0.94791305
-0.24478373 0.0074777915 0.94780004
-0.23554382 0.0052753421 0.94513631
-0.22991461 0.0090647331 0.94000006
-0.043783743 0.0023740132 0.94742858
-0.036674473 0.0015431838 0.94771433
-0.26054358 0.014336132 0.94800001
-0.25471538 0.014632476 0.94503707
-0.24474712 0.014489786 0.94275683
-0.23568757 0.015497841 0.9452647
-0.22798353 0.015166333 0.94092304
-0.25493553 0.024930034 0.94373918
-0.24145153 0.020601667 0.94000006
-0.23532431 0.022867851 0.94108027
-0.22659652 0.023455312 0.94066674
-0.061303545 0.026276857 0.9424001
-0.25495085 0.034158438 0.94522232
-0.24928017 0.035434868 0.94000006
-0.062441148 0.035234682 0.94345009
-0.058923688 0.032365367 0.94666672
-0.25015509 0.045709401 0.94800007
-0.24849218 0.043073118 0.94483346
-0.062769577 0.042426284 0.94554555
-0.24226741 0.0544223 0.94533342
-0.23925404 0.054113712 0.94000006
-0.065101266 0.058508731 0.94000006
-0.072113372 0.067001 0.94119996
-0.06600257 0.064577498 0.9454546
-0.23020916 0.075628281 0.94800007
-0.22535166 0.07708329 0.94257146
-0.10085699 0.078536183 0.94300002
-0.094333656 0.077197455 0.94392866
-0.084614992 0.075963631 0.94415385
-0.075450353 0.073659115 0.94579172
-0.068148553 0.070641801 0.94800007
-0.22232959 0.083433241 0.94433337
-0.21732242 0.086765207 0.94257146
-0.12419748 0.087190591 0.9424001
-0.11449599 0.086970404 0.9435001
-0.10527539 0.081404462 0.94560003
-0.083939083 0.080614761 0.94800007
-0.2160808 0.091418803 0.94800007
-0.1804706 0.098887995 0.94000006
-0.17666125 0.096326798 0.94020015
-0.16481332 0.098888002 0.94000006
-0.15904486 0.099712066 0.94000006
-0.13135621 0.096415803 0.94000006
-0.12652111 0.09391363 0.94500011
-0.11571532 0.090801053 0.94733334
-0.2002482 0.1063046 0.94000006
-0.19409116 0.10835784 0.94033337
-0.18416078 0.10628253 0.94140762
-0.17578182 0.10375437 0.94566661
-0.16472332 0.1040444 0.94499999
-0.1551801 0.1054856 0.94352186
-0.14719394 0.10427409 0.94150001
-0.13322502 0.10307014 0.94510001
-0.12882499 0.10068925 0.94400001
-0.19325948 0.11327384 0.94450009
-0.18552728 0.11359978 0.9464348
-0.17868219 0.11136472 0.94800007
-0.18198146 -0.17191592 0.95660001
-0.17513868 -0.1726798 0.95526683
-0.12475076 -0.17221349 0.95825005
-0.14395787 -0.16095753 0.95749998
-0.13451344 -0.16172238 0.95779991
-0.12478904 -0.1638049 0.95630765
-0.11781652 -0.16238688 0.95436376
-0.18262379 -0.15198408 0.95900005
-0.17460875 -0.15279926 0.95690465
-0.1644287 -0.15411401 0.95695007
-0.15448914 -0.1548048 0.95677769
-0.1449855 -0.15470825 0.95469242
-0.13552043 -0.15476225 0.95423359
-0.12539558 -0.15491682 0.95419377
-0.11558068 -0.15510091 0.9540627
-0.10979023 -0.15504727 0.95600003
-0.21431109 -0.14184602 0.95866668
-0.20541674 -0.141802 0.95900005
-0.19344281 -0.14361082 0.95899999
-0.18478565 -0.14531022 0.9580999
-0.17438546 -0.14516212 0.95603311
-0.16500914 -0.14557116 0.95362532
-0.15519156 -0.14518265 0.95175022
-0.14535798 -0.14536002 0.9529168
-0.13543916 -0.14547114 0.95366693
-0.12531064 -0.14536057 0.95291686
-0.11550422 -0.14693207 0.95204371
-0.10875471 -0.14751354 0.9528001
-0.23430315 -0.1327696 0.95899993
-0.22482719 -0.13415796 0.9567368
-0.21522763 -0.1352922 0.95342857
-0.20559204 -0.13611169 0.95332158
-0.19432734 -0.13592139 0.95426482
-0.18493751 -0.1357546 0.95533329
-0.17520052 -0.1355885 0.95469445
-0.16521358 -0.13517869 0.95320612
-0.15507005 -0.13506104 0.95100009
-0.14511549 -0.13510954 0.95133346
-0.13582157 -0.13619329 0.95177799
-0.12644601 -0.13895166 0.95100003
-0.23462521 -0.12510413 0.95568007
-0.22607036 -0.12637016 0.95186979
-0.21759832 -0.12922505 0.95100003
-0.19091959 -0.12922505 0.95100003
-0.18461701 -0.12767753 0.95188254
-0.17540796 -0.12696983 0.95113653
-0.16465773 -0.12776606 0.95100015
-0.15521719 -0.12755764 0.95100009
-0.14589925 -0.12922505 0.95100003
-0.24162388 -0.11215249 0.95899999
-0.23484319 -0.11524197 0.95375866
-0.22927026 -0.11755311 0.95100003
-0.2419602 -0.10357712 0.95899999
-0.23512338 -0.10555945 0.95346439
-0.24195105 -0.095342375 0.95866668
-0.23566622 -0.095267363 0.95325011
-0.24128759 -0.088275947 0.95900005
-0.23599075 -0.085576423 0.95499998
-0.23445712 -0.07535968 0.95512503
-0.22927025 -0.070865348 0.95100003
-0.26220345 -0.063870981 0.95862508
-0.25500062 -0.06496983 0.95544004
-0.24483798 -0.067104228 0.95517397
-0.23501749 -0.066226259 0.95316678
-0.22927025 -0.065863088 0.95100003
-0.2629064 -0.055444285 0.95747364
-0.2566075 -0.05492755 0.95220017
-0.00083875086 -0.05367808 0.95675004
0.0023524952 -0.053105596 0.95327282
0.013339359 -0.05419115 0.95100003
-0.26225156 -0.046174232 0.95761549
-0.25621986 -0.045067675 0.9520002
0.0060538477 -0.047524303 0.95505881
0.015096806 -0.045333341 0.95468962
0.020952333 -0.041904666 0.95600003
-0.26130137 -0.036126383 0.95840007
-0.2565946 -0.035102565 0.95338905
0.019336637 -0.039513998 0.95900005
0.021858806 -0.039513998 0.95900005
-0.2556434 -0.025245527 0.95423543
-0.065029383 -0.02084275 0.95100003
-0.25325954 -0.015343368 0.95676476
-0.24857576 -0.015012478 0.95150012
-0.063939795 -0.015138842 0.95312017
-0.058063038 -0.013179456 0.95160007
-0.27260381 -0.0043435185 0.95874995
-0.26536217 -0.0035958067 0.95727992
-0.2540842 -0.0037789817 0.9565416
-0.24637049 -0.0045481473 0.95300019
-0.062182095 -0.0053440249 0.95553863
-0.056551695 -0.0044459975 0.95364028
-0.27245772 0.0053636497 0.95853841
-0.26543674 0.0044458224 0.95320016
-0.25439426 0.0020250999 0.95142871
-0.24493009 0.0041698124 0.95172018
-0.053915698 0.0035238496 0.95640004
-0.045827463 0.0066913976 0.95359111
-0.035475925 0.0060674828 0.95408344
-0.27239436 0.010929403 0.95900005
-0.26596048 0.014977071 0.95500016
-0.044967186 0.011681265 0.95790905
-0.036948763 0.011757306 0.95787501
-0.26343596 0.024893485 0.95361125
-0.06096749 0.026440268 0.9526667
-0.058955085 0.025225705 0.95485717
-0.062905654 0.048153985 0.95250005
-0.25098309 0.055399634 0.95750004
-0.2467394 0.056153066 0.95592868
-0.063314624 0.054291617 0.9528001
-0.24301513 0.062702835 0.95728576
-0.23960614 0.065576419 0.95900005
-0.06215464 0.066058733 0.9538334
-0.059691355 0.067257866 0.95900005
-0.22927025 0.079202451 0.95100003
-0.092541806 0.079202451 0.95100003
-0.072986878 0.077699363 0.95300013
-0.065692417 0.074543528 0.95536005
-0.059691355 0.072302207 0.95900005
-0.23047566 0.081295051 0.95600003
-0.22645578 0.084860109 0.95460004
-0.11105832 0.088513963 0.95250005
-0.10570189 0.085608013 0.95530444
-0.095041953 0.083039232 0.95566678
-0.085780345 0.08344017 0.95460016
-0.076423056 0.082436405 0.95625001
-0.22259331 0.093717292 0.95814288
-0.2189405 0.091527499 0.95200008
-0.12342902 0.096283793 0.9529376
-0.11516116 0.094771042 0.95423818
-0.10883729 0.091256618 0.95500004
-0.17368716 0.10707849 0.9517501
-0.16655308 0.10899553 0.95150012
-0.15171885 0.10884869 0.9526667
-0.14508928 0.10875911 0.95363653
-0.13509169 0.10729993 0.95281827
-0.12736751 0.10438732 0.95585722
-0.19317132 0.11829522 0.9525001
-0.18352422 0.11745377 0.95123088
-0.17541268 0.11443888 0.95333356
-0.16410637 0.11405329 0.95623809
-0.15478624 0.11458874 0.95543343
-0.14502363 0.11283549 0.95693749
-0.13535646 0.11013476 0.95899999
-0.19152185 0.1212693 0.95400006
-0.18546911 0.12161846 0.95485723
-0.17907406 0.12022343 0.95900005
-0.18216431 -0.17120072 0.96200007
-0.17381977 -0.1712897 0.96250004
-0.16543795 -0.17209685 0.96635723
-0.15683128 -0.17081894 0.96700007
-0.14284363 -0.17081894 0.96700007
-0.13497899 -0.17340659 0.96606249
-0.12786168 -0.17461143 0.96472734
-0.19141895 -0.1625959 0.96700013
-0.18422215 -0.16541776 0.96393782
-0.17509368 -0.16549069 0.96312511
-0.16550356 -0.16536351 0.96391451
-0.15488671 -0.16486852 0.96440023
-0.14532323 -0.16587485 0.96405268
-0.13524652 -0.16741195 0.963
-0.12818971 -0.16867065 0.96200007
-0.21491243 -0.15207887 0.96618181
-0.20465638 -0.15370223 0.96619266
-0.19446483 -0.15492107 0.96414316
-0.18582244 -0.15603286 0.96252167
-0.17574185 -0.1583558 0.96199995
-0.16576576 -0.15883154 0.96200001
-0.15714484 -0.15939377 0.96200007
-0.23401767 -0.14170821 0.96600008
-0.22404546 -0.14363331 0.96438885
-0.21508241 -0.14685056 0.96325004
-0.20459874 -0.14625256 0.96319997
-0.19635949 -0.14649683 0.96222222
-0.24219108 -0.133442 0.96459997
-0.23539041 -0.13768932 0.96281248
-0.22666013 -0.13863929 0.96233338
-0.24323791 -0.12514082 0.96450001
-0.24513961 -0.11521621 0.96399999
-0.25008231 -0.10257614 0.96700007
-0.24639238 -0.10527019 0.96392858
-0.25008231 -0.095794246 0.96700007
-0.24672595 -0.094328344 0.96323532
-0.24480419 -0.08423958 0.96440923
-0.27099314 -0.0709273 0.96700007
-0.2649104 -0.074171908 0.96569574
-0.2545248 -0.074626021 0.96508032
-0.2443406 -0.074944578 0.96292603
-0.2724072 -0.063516252 0.96600002
-0.26603025 -0.066175476 0.96247625
-0.25637943 -0.069998324 0.96200007
-0.0025432101 -0.060189303 0.96700007
-0.2725015 -0.054836523 0.96483332
-0.26826301 -0.055584647 0.96199995
-0.0036662931 -0.054552555 0.96475005
-0.27127573 -0.047473252 0.96700007
-0.26729432 -0.045294128 0.96369231
-0.0016913093 -0.049002819 0.96375006
0.0059233443 -0.044520054 0.96433347
0.012249445 -0.041821163 0.96375006
-0.26520184 -0.036055472 0.96391672
0.016385611 -0.037425611 0.96481252
0.021980369 -0.036349233 0.96433336
-0.26196682 -0.024544913 0.96550006
-0.25890946 -0.021927185 0.96200007
-0.28409848 -0.01507028 0.96660894
-0.2751064 -0.013183689 0.96557164
-0.26439664 -0.013843722 0.96495473
-0.25828108 -0.014009835 0.96280003
-0.28272018 -0.0080534983 0.96700007
-0.27685171 -0.0058229961 0.96280003
-0.26410532 -0.008156945 0.96250004
-0.2573424 -0.0075940765 0.96244454
-0.28060085 0.0016954733 0.96700007
-0.27747005 0.0049431478 0.96285713
-0.06152638 0.0051514525 0.96381813
-0.056930326 0.0068173651 0.96261537
-0.27352977 0.015767081 0.96252632
-0.060471881 0.013846365 0.96700007
-0.05454848 0.014596536 0.96556032
-0.045826413 0.016504353 0.96417391
-0.037467964 0.015242494 0.96587509
-0.27212521 0.022430832 0.96550006
-0.26902971 0.022770539 0.96200007
-0.24878924 0.059878085 0.96200007
-0.24570532 0.066153057 0.96235287
-0.05692314 0.064035349 0.96533334
-0.23567079 0.078839511 0.96700007
-0.062316269 0.078192353 0.96320009
-0.057713654 0.074415445 0.96533334
-0.2351127 0.081757054 0.96540004
-0.10236165 0.088020556 0.96233338
-0.095190741 0.087932661 0.96260005
-0.083729386 0.087951064 0.96280003
-0.074068964 0.086796045 0.96415788
-0.065249331 0.083696455 0.96496695
-0.05849383 0.08053498 0.96700007
-0.22348863 0.096985631 0.96200007
-0.11199119 0.097465865 0.96340007
-0.1054195 0.093302116 0.96461117
-0.094837204 0.092432559 0.9654212
-0.08606638 0.09115205 0.96657145
-0.12414867 0.10372759 0.96336365
-0.11716723 0.10111458 0.96383333
-0.20113538 0.11916004 0.96400005
-0.17288743 0.11806946 0.96200007
-0.16761647 0.11785863 0.96200001
-0.15096025 0.11891282 0.96200007
-0.14488202 0.11774429 0.96346664
-0.13532628 0.11523101 0.96392876
-0.12920365 0.11294921 0.96580011
-0.20345679 0.12122634 0.96700007
-0.19785972 0.12091293 0.96450007
-0.18367478 0.1263822 0.96410531
-0.17600752 0.12367069 0.96440911
-0.16498086 0.12183336 0.96508336
-0.15507549 0.12155795 0.96472734
-0.14835392 0.12122634 0.96700007
-0.1388831 0.12421354 0.9653334
-0.16235369 -0.18225695 0.97300005
-0.1540512 -0.1825413 0.97299993
-0.14439182 -0.18430109 0.97308671
-0.1351354 -0.18420118 0.97199988
-0.12840536 -0.18282884 0.97000003
-0.16351773 -0.17725083 0.97176474
-0.15470091 -0.17594567 0.9715935
-0.14512521 -0.17612509 0.97174174
-0.13482144 -0.17875521 0.97054553
-0.21259168 -0.16071931 0.97000003
-0.20551696 -0.16181557 0.97275007
-0.19333175 -0.16522756 0.97150004
-0.24092378 -0.15004151 0.97800004
-0.23309374 -0.15191194 0.97679996
-0.22452208 -0.15354644 0.97195005
-0.21368064 -0.15664583 0.9701767
-0.20629895 -0.15799813 0.97000009
-0.25243619 -0.14160359 0.97499996
-0.24513519 -0.14401153 0.97430009
-0.23533684 -0.14639632 0.97426689
-0.22671622 -0.14783318 0.97100002
-0.25424153 -0.13541193 0.97488016
-0.24752544 -0.13509117 0.97160012
-0.25376156 -0.12474191 0.97461116
-0.24880862 -0.12578863 0.97112507
-0.25380892 -0.11450679 0.97517651
-0.24915743 -0.1173506 0.97000003
-0.25454152 -0.10474306 0.97478563
-0.25450438 -0.094902873 0.97392315
-0.27363995 -0.083107747 0.9758572
-0.26481116 -0.083485238 0.97440916
-0.25475565 -0.084959343 0.97257131
-0.24915743 -0.081635199 0.97000003
-0.28064641 -0.075090885 0.97700006
-0.27515516 -0.07512635 0.97195822
-0.26494995 -0.078841142 0.97000015
-0.25562021 -0.079084098 0.97000009
-0.28207803 -0.069447778 0.97800004
-0.27705333 -0.065218039 0.97119999
-0.011941953 -0.060562763 0.97300005
-0.0068239733 -0.060562763 0.97300005
-0.28122064 -0.052300178 0.97800004
-0.27774245 -0.054184139 0.97263646
-0.012773909 -0.05649313 0.97149998
-0.0077550448 -0.054383814 0.97017658
-0.28036326 -0.04887066 0.97800004
-0.27441782 -0.044365361 0.97325003
-0.0042588464 -0.048032567 0.97266674
0.0046131075 -0.042922389 0.97530013
-0.27208403 -0.034891114 0.97675008
-0.26927546 -0.036033046 0.97100002
0.0084555484 -0.03696163 0.97555566
0.013916625 -0.033559386 0.97219038
0.022109533 -0.032313932 0.97000003
-0.28403413 -0.023166629 0.9740625
-0.27430853 -0.023104491 0.97599995
-0.26689082 -0.024764823 0.97407699
0.017328033 -0.028361918 0.97509098
0.025113378 -0.025244035 0.97436005
-0.28458938 -0.016723877 0.97000009
-0.27476466 -0.018285409 0.97141188
-0.26725498 -0.018109303 0.97042859
0.028293541 -0.01971974 0.97800004
-0.29149607 -0.0077067763 0.97700006
-0.2862002 -0.0055385609 0.97258329
-0.28424254 0.0025619122 0.97366667
-0.060376033 0.019558433 0.97000003
-0.056407649 0.018708067 0.97000009
-0.041667968 0.019558433 0.97000003
-0.037071053 0.018111825 0.97212505
-0.27648559 0.02337018 0.97280008
-0.060687251 0.02478775 0.97500002
-0.054238491 0.024304254 0.97460002
-0.044689544 0.024392184 0.97414792
-0.036867335 0.023720846 0.9780001
-0.048013277 0.030008299 0.97800004
-0.054090891 0.066784389 0.97100013
-0.052763447 0.075238965 0.97286963
-0.048330851 0.076982073 0.97574997
-0.2372523 0.084186301 0.97000003
-0.062525295 0.088047467 0.97037506
-0.055267803 0.084586293 0.97457707
-0.047368493 0.083040059 0.97650003
-0.10272219 0.095569648 0.97160006
-0.093874216 0.0968078 0.97228575
-0.084808618 0.09561114 0.97449988
-0.075140856 0.093931772 0.97400004
-0.065460257 0.093302704 0.97538877
-0.057444457 0.091739655 0.9780001
-0.1226735 0.10691586 0.97175002
-0.11507531 0.10460921 0.97426081
-0.083165862 0.10031346 0.97800004
-0.13294065 0.11933479 0.97000003
-0.12581643 0.11400631 0.97460878
-0.11746106 0.11060202 0.97799999
-0.20284452 0.12535624 0.97491664
-0.1953695 0.12683696 0.97316676
-0.17313258 0.12743227 0.97200012
-0.16524042 0.1270058 0.97305882
-0.15462707 0.12684998 0.97295243
-0.1456102 0.12543499 0.97330439
-0.13440384 0.12399799 0.97345018
-0.12761812 0.12162435 0.977
-0.20148429 0.13117914 0.97800004
-0.19304398 0.13204901 0.97650003
-0.18433301 0.13501652 0.97420841
-0.17523867 0.13445996 0.97539419
-0.16633172 0.13225088 0.9780001
-0.15518579 0.13117914 0.97800004
-0.14661197 0.13117914 0.97800004
-0.18176456 0.14146771 0.97800004
-0.17833504 0.14146771 0.97800004
-0.24441485 -0.15222177 0.98100007
-0.23822276 -0.15222177 0.98100007
-0.24475884 -0.14809372 0.98100007
-0.258863 -0.13330156 0.98100007
-0.26295018 -0.12394945 0.98600006
-0.258863 -0.12556146 0.98100001
-0.26301864 -0.11524376 0.9861539
-0.25861725 -0.11536419 0.98100001
-0.26238659 -0.10591736 0.98685724
-0.258863 -0.10578122 0.98100007
-0.28345278 -0.092401333 0.98646164
-0.27577871 -0.091878451 0.98716682
-0.26493755 -0.093019225 0.98899996
-0.25843301 -0.094171092 0.98100007
-0.29152259 -0.083803944 0.98842859
-0.2853826 -0.08535438 0.98551726
-0.27571341 -0.087484851 0.98220003
-0.26465362 -0.088218749 0.98175001
-0.29088634 -0.074997514 0.98900002
-0.28569388 -0.075443923 0.98523545
-0.28438598 -0.065334752 0.98500007
-0.28204611 -0.044197917 0.98387504
-0.27892992 -0.043287169 0.98100013
-0.0022798909 -0.044562161 0.98627281
0.0023656848 -0.042601395 0.98175001
-0.2817826 -0.032946885 0.98900002
-0.27589157 -0.033161189 0.9837274
0.0051811971 -0.034961179 0.98600018
-0.29139435 -0.027961284 0.98633337
-0.28447425 -0.027629903 0.98483342
-0.2756983 -0.026408926 0.98225003
0.0089592412 -0.028033756 0.98900002
0.015984263 -0.024734601 0.98575014
0.022073589 -0.022073589 0.98100013
0.0193568 -0.01791176 0.98866659
0.024939928 -0.015400645 0.98582774
0.031117203 -0.01449369 0.98345464
-0.29335883 -0.0037400064 0.98516661
-0.28925002 -0.0025800299 0.98100013
0.028033756 -0.0089592412 0.98900002
0.032746829 -0.0081423046 0.98820007
-0.29070967 0.00086263998 0.98400003
-0.28867668 0.00200669 0.98100013
-0.033813909 0.019941537 0.98900002
-0.055040639 0.028380331 0.98100007
-0.043000501 0.028380331 0.98100007
-0.036120422 0.026660312 0.98100001
-0.054144729 0.032700591 0.98727798
-0.044835649 0.034528363 0.98624992
-0.037197091 0.033122219 0.98671442
-0.050740588 0.069660813 0.98100007
-0.047780085 0.067928515 0.98500007
-0.051313926 0.086861007 0.98100013
-0.045792595 0.087622747 0.98570001
-0.10415195 0.099405237 0.98600006
-0.094601095 0.098901153 0.98100007
-0.075680874 0.098901153 0.98100001
-0.06444446 0.098049559 0.98280001
-0.054592367 0.096174777 0.98458338
-0.04859864 0.093366258 0.98742861
-0.1123159 0.10772217 0.98300004
-0.10714141 0.1042124 0.98746169
-0.08375147 0.10194231 0.98266673
-0.075436637 0.10260488 0.98460013
-0.065496415 0.10277976 0.98740011
-0.057761814 0.10195136 0.9883334
-0.12271158 0.11582941 0.98159999
-0.11590312 0.11267106 0.98487496
-0.21026061 0.12892523 0.98700005
-0.20717192 0.12761024 0.98220003
-0.1341484 0.12864225 0.98220003
-0.12802051 0.12654746 0.98385715
-0.21095283 0.1320402 0.98700011
-0.20570588 0.13147502 0.98449999
-0.19486599 0.13600835 0.98440009
-0.18834218 0.1384616 0.98100007
-0.17200199 0.1384616 0.98100007
-0.16438684 0.13613406 0.98280019
-0.15498124 0.13592909 0.98413634
-0.14532982 0.13416775 0.98480016
-0.13392152 0.13219398 0.98672736
-0.12766282 0.13212129 0.98871428
-0.18757334 0.14176226 0.98600006
-0.1741429 0.14311619 0.98341662
-0.16573359 0.1425707 0.98694462
-0.15808725 0.14190282 0.98900002
-0.26517677 -0.13345934 0.995
-0.26698357 -0.12262112 0.99200004
-0.26825956 -0.11409686 0.99350005
-0.27034822 -0.10761434 0.99800003
-0.26669154 -0.10521271 0.99350005
-0.26560935 -0.095241159 0.99336356
-0.29347646 -0.074495539 0.99336362
-0.28959456 -0.073920533 0.99200004
-0.29365513 -0.064206496 0.99515009
-0.28855115 -0.064217232 0.99259996
-0.28785291 -0.057920199 0.99600005
-0.28611594 -0.040873706 0.99200004
-0.004696128 -0.042265154 0.99199998
-0.29314083 -0.034232683 0.99481249
-0.28559315 -0.034781754 0.99284017
-0.0024520371 -0.03677338 0.99227273
0.0026118536 -0.032223724 0.99350005
0.006877121 -0.025102802 0.99612498
0.013054124 -0.022075502 0.99281812
0.0090407701 -0.016331716 0.99800009
0.014675546 -0.01467752 0.99475008
0.020002026 -0.012175146 0.99200004
-0.30093774 -0.0034891334 0.99500006
-0.29829109 -0.00260896 0.99200004
-0.027122313 -0.0017498266 0.99800003
0.016273387 -0.0092740804 0.99800003
0.024710311 -0.0055196877 0.99488908
0.03118987 -0.0036572781 0.99380004
0.02817221 0.0022747745 0.99800003
-0.032371793 0.01837318 0.99800003
-0.032371793 0.020123007 0.99800003
-0.060096815 0.038323924 0.99350005
-0.055409793 0.037714567 0.99274999
-0.044383224 0.039163984 0.99275005
-0.038323924 0.039193574 0.99350005
-0.06062369 0.044050306 0.99500006
-0.055325929 0.044482362 0.99650007
-0.045642812 0.043593697 0.99708712
-0.038140554 0.043770116 0.99633336
-0.042741884 0.089845181 0.99500006
-0.045498673 0.095260575 0.99575001
-0.10278961 0.10344711 0.99575001
-0.096705973 0.1019544 0.9974001
-0.072880514 0.10714941 0.99366677
-0.063993409 0.10769837 0.99414283
-0.055761423 0.10510132 0.9952727
-0.04957024 0.10001013 0.99200004
-0.12143017 0.11881068 0.99650002
-0.11648435 0.11687204 0.99566674
-0.10903542 0.11164963 0.995
-0.065181039 0.111114 0.99800003
-0.12428728 0.12453426 0.99542856
-0.20119369 0.13761431 0.99350005
-0.1987716 0.1378345 0.99300003
-0.15045002 0.13827488 0.99200004
-0.1430468 0.13802722 0.99650007
-0.13504393 0.13741155 0.99564284
-0.12803033 0.13641581 0.99620008
-0.20123008 0.14173597 0.99800003
-0.19495757 0.14379267 0.99556255
-0.18532883 0.14760749 0.99481249
-0.17483416 0.14819436 0.9932
-0.16397035 0.14766462 0.99414283
-0.15474255 0.14427909 0.99500006
-0.14537799 0.14288652 0.99642855
-0.13631149 0.14191094 0.99800003
-0.18110706 0.15223491 0.99800003
-0.17499122 0.15279186 0.99658829
-0.16702384 0.15215909 0.99750012
-0.27332497 -0.11337142 1.0025001
-0.27373391 -0.10826132 1.0040001
-0.29836476 -0.074591182 1.001
-0.29360715 -0.055101771 1.0044737
-0.2891444 -0.051850013 1.0025001
-0.29243165 -0.04366786 1.00625
-0.28826684 -0.043064058 1.0025001
-0.29222193 -0.039489448 1.001
0.0052652601 -0.02369367 1.001
-0.030714016 -0.00087754335 1.001
-0.02895893 -0.00087754335 1.001
0.016312812 -0.0052086813 1.0037692
0.021363636 -0.0020480396 1.0015
-0.030769248 0.0050944849 1.0028001
-0.027037179 0.0048816707 1.002
0.01853887 0.00088280335 1.0070001
0.024432855 0.0055284789 1.0032499
0.030714016 0.0070203468 1.001
-0.031372175 0.014479466 1.001
-0.028279638 0.013953653 1.0035714
0.026728254 0.014688115 1.0051665
0.03132217 0.015222314 1.0044286
-0.030714016 0.020183496 1.001
0.027366903 0.020304477 1.0070001
-0.051775057 0.04826488 1.001
-0.044169683 0.04797237 1.001
-0.036856819 0.045924768 1.001
-0.052072931 0.05149024 1.003
-0.044862542 0.051021121 1.0034001
-0.038197421 0.050875068 1.0039999
-0.041745111 0.095789641 1.0025001
-0.037729908 0.097181499 1.00475
-0.10444218 0.10771216 1.0035715
-0.098971866 0.10543349 1.0050001
-0.052586239 0.10658312 1.0031
-0.045345977 0.10359881 1.0033333
-0.037247013 0.10293405 1.005091
-0.11326904 0.11659589 1.0033333
-0.10793783 0.111448 1.001
-0.063148439 0.11351236 1.002
-0.055353522 0.11371251 1.0055001
-0.122513 0.12398259 1.003
-0.11619818 0.12207535 1.005
-0.12831201 0.13973847 1.0025001
-0.20212747 0.14420962 1.001
-0.19730414 0.14842165 1.00475
-0.15269254 0.14830482 1.001
-0.144243 0.14775777 1.00175
-0.13431552 0.14487918 1.0040001
-0.12905468 0.14257872 1.006
-0.19290327 0.15150356 1.00475
-0.18623543 0.15308091 1.0027143
-0.17473866 0.15829737 1.005
-0.16558166 0.1554967 1.0036
-0.15505953 0.15065955 1.005
-0.14831096 0.15095937 1.0070001
-0.17347085 0.16243581 1.0070001
-0.16861543 0.16155301 1.0070001
-0.29706287 -0.051797848 1.01
-0.29408684 -0.045955867 1.0108572
0.014510733 -0.0020708328 1.0135001
0.015726376 0.0055670519 1.0157501
0.020364966 0.0079688998 1.01
0.016174883 0.014169508 1.0180626
0.021734321 0.015528397 1.012
0.025221648 0.024781888 1.0141252
0.031082217 0.020425456 1.013
0.026240498 0.034699671 1.0148753
0.03101318 0.035442978 1.0107501
0.027664969 0.041648094 1.018
0.031174267 0.041862585 1.016
-0.050919428 0.058066018 1.0190001
-0.04514195 0.056412086 1.0141667
-0.037301291 0.053879347 1.013
-0.041615367 0.087657899 1.01
-0.038389735 0.088314153 1.0117142
-0.036522459 0.094321087 1.0112002
-0.1009394 0.1089083 1.01
-0.095113672 0.10713467 1.0125387
-0.0504697 0.1089083 1.01
-0.043928262 0.10824179 1.0108572
-0.035065327 0.1070919 1.0118002
-0.11067917 0.11776263 1.01
-0.1053574 0.1142519 1.0138184
-0.097165979 0.11245078 1.016857
-0.051380116 0.11427832 1.0105
-0.045088209 0.11254547 1.0142857
-0.036588561 0.11244916 1.018
-0.12350146 0.12810993 1.0106
-0.11496694 0.12633254 1.0140001
-0.10874283 0.12211374 1.0167501
-0.12450778 0.13368522 1.0141053
-0.11560106 0.13106078 1.0170001
-0.20635767 0.149185 1.0190001
-0.14078391 0.14786737 1.01
-0.13400865 0.14818309 1.0104287
-0.12747049 0.14509991 1.0154002
-0.20099775 0.15275829 1.0190001
-0.19534151 0.15541479 1.0143334
-0.18690126 0.15673953 1.0120001
-0.16172922 0.15685211 1.0122501
-0.15471326 0.15649681 1.0142502
-0.14473079 0.15468261 1.0167896
-0.13457049 0.15468234 1.0176157
-0.12887277 0.152982 1.0185
-0.17387392 0.16549113 1.0102001
-0.16548836 0.16410522 1.0146959
-0.15543826 0.16258486 1.0190001
-0.149185 0.16169152 1.0190001
-0.17062476 0.17062476 1.0190001
0.011647393 -0.00089595333 1.0220001
0.009427893 0.0049382634 1.0242501
0.011654231 0.0052023157 1.0226002
0.0098844171 0.011681584 1.0250001
0.013977198 0.017314792 1.024143
-0.031450417 0.028754666 1.0250001
-0.029740039 0.029740039 1.028
0.015951281 0.024496151 1.0253749
0.020606926 0.027774552 1.0220001
-0.033681724 0.0353554 1.0264999
-0.027765865 0.035630044 1.0277272
0.018228859 0.034434918 1.026875
0.021144822 0.035756353 1.0232857
-0.034176845 0.041674688 1.026
-0.029740039 0.040554598 1.028
0.025145505 0.045095082 1.0260433
0.031450417 0.047624916 1.0250001
-0.0403179 0.058236968 1.0220001
-0.036812332 0.057917204 1.02425
0.029740039 0.052270375 1.028
0.031542465 0.053171586 1.028
-0.051119309 0.063079379 1.0230001
-0.044716056 0.063081831 1.0239089
-0.035619777 0.062184393 1.0256922
-0.029740039 0.063986145 1.028
-0.091265678 0.10802346 1.024
-0.088959746 0.10872858 1.0250001
-0.10363226 0.11849377 1.0228573
-0.094764486 0.11581852 1.0248572
-0.044575267 0.11741466 1.0247693
-0.038695626 0.11698809 1.0265
-0.11112481 0.12790012 1.0250001
-0.10493135 0.12400568 1.0250001
-0.045060664 0.12286542 1.028
-0.12284917 0.13799973 1.025
-0.11715189 0.13413331 1.0253334
-0.21054903 0.1496242 1.0220001
-0.12556131 0.14354087 1.0254999
-0.21202642 0.15515472 1.0243335
-0.20536207 0.15476571 1.0250001
-0.19979759 0.15768778 1.0220001
-0.14424849 0.15858375 1.0220001
-0.13887277 0.15858375 1.0220001
-0.12613773 0.15570456 1.0253333
-0.16324136 0.16862495 1.0231252
-0.15589868 0.16702375 1.0232003
-0.14505014 0.1625416 1.0229377
-0.13495499 0.16260645 1.024
-0.12778425 0.16108179 1.0265
-0.17032932 0.17573661 1.028
-0.16703548 0.17262959 1.0250001
-0.15951476 0.17213175 1.028
0.0099422764 -0.00090384332 1.031
0.0081345895 0.00090384332 1.031
-0.028704988 0.028704988 1.034
0.014461493 0.029826829 1.031
-0.033442203 0.03796142 1.031
-0.026458129 0.035056911 1.031875
0.014738521 0.036819842 1.0334547
-0.033231664 0.046333518 1.0331539
-0.02763845 0.043502614 1.0337502
0.017241519 0.044353895 1.0352668
0.02199352 0.048506256 1.031
-0.033182394 0.054832306 1.0350715
0.018017605 0.052232854 1.0380001
0.024716567 0.055380676 1.0355002
0.03093932 0.058238719 1.0380001
-0.044649858 0.067788251 1.031
-0.034068972 0.066067405 1.0340589
0.024569459 0.06096866 1.0380001
0.032109294 0.062008638 1.0380001
-0.043497048 0.071342424 1.0380001
-0.035349224 0.072168417 1.0380001
-0.08702144 0.10968328 1.034
-0.031634517 0.10936505 1.031
-0.027831243 0.10861374 1.0353333
-0.091288179 0.11749963 1.031
-0.085447885 0.11536862 1.0350692
-0.07916826 0.1137475 1.0380001
-0.033677891 0.11624087 1.0340002
-0.028379014 0.11329907 1.036
-0.10303713 0.12734334 1.0322858
-0.094695941 0.12467937 1.0347828
-0.087288648 0.12257133 1.0372002
-0.043290678 0.12160381 1.0318573
-0.036874969 0.12244236 1.0361001
-0.11343643 0.13647032 1.0351876
-0.10665455 0.1324349 1.0366365
-0.098277837 0.13012713 1.0380001
-0.12247913 0.14579166 1.0315001
-0.11715919 0.143534 1.0373335
-0.21120061 0.15828764 1.0317501
-0.20708138 0.15734546 1.0315
-0.12228649 0.15463997 1.0332859
-0.21111536 0.16288643 1.0380001
-0.20848887 0.16135225 1.034
-0.15184568 0.1690187 1.031
-0.14474879 0.16798195 1.0314616
-0.13452019 0.16809143 1.0323638
-0.12512343 0.16495109 1.0346192
-0.16396485 0.17636202 1.0324616
-0.15544671 0.17337167 1.0341177
-0.14479652 0.1730843 1.0360001
-0.13619368 0.17228955 1.0380001
-0.12527391 0.17016625 1.0380001
-0.16428091 0.1806208 1.0353333
-0.02648936 0.046584312 1.0419999
0.012931491 0.044881169 1.0412501
-0.030145058 0.054810077 1.0419999
-0.028070519 0.052656807 1.0464001
0.018434722 0.057129391 1.041
-0.03011613 0.06844575 1.041
0.01927527 0.067004509 1.0470001
0.024692385 0.065262303 1.043348
0.032144152 0.066417724 1.041
-0.043501079 0.076050833 1.041
-0.034314793 0.076872677 1.0438502
0.01927527 0.070675991 1.0470001
0.025324672 0.072731838 1.0460769
0.032953337 0.072844796 1.0442144
-0.036255866 0.081690431 1.0470001
-0.07639806 0.11752761 1.0442307
-0.03011613 0.11955191 1.041
-0.025385715 0.11463069 1.0445454
-0.091260999 0.12867801 1.041
-0.084046602 0.12610307 1.0427648
-0.0766427 0.12276314 1.0461428
-0.06884025 0.12024097 1.0470001
-0.0320458 0.12361038 1.0444286
-0.02845397 0.12024097 1.0470001
-0.11042581 0.13962933 1.041
-0.10356467 0.13587721 1.0430001
-0.095008738 0.13420783 1.0437502
-0.086960077 0.1334234 1.046
-0.11340764 0.14600328 1.0423335
-0.107068 0.14435282 1.0466844
-0.11601365 0.15441084 1.0445771
-0.1087676 0.15282536 1.0470001
-0.12066703 0.16600561 1.04475
-0.11790133 0.16117744 1.0458
-0.16153197 0.17978416 1.041
-0.15351084 0.17751074 1.0414284
-0.14452441 0.17763087 1.04175
-0.13424413 0.17588168 1.0425
-0.12424704 0.17514534 1.0435557
-0.16186897 0.18333128 1.0448571
-0.15494117 0.18153103 1.0458
-0.1443796 0.18137223 1.0453637
-0.13459228 0.18146358 1.046
-0.12601045 0.1813449 1.0470001
-0.023760006 0.047212005 1.0560001
-0.025444293 0.055687059 1.0539092
-0.026051024 0.063614443 1.0560001
0.018432209 0.06666816 1.0513334
-0.027257647 0.075547516 1.0541251
0.018307723 0.074969612 1.0500001
0.024239833 0.076248087 1.0500001
0.03381604 0.077759087 1.0505716
-0.034156688 0.083639085 1.0530001
-0.027042208 0.082519211 1.054625
0.01794677 0.081221409 1.0552001
0.025601778 0.083647981 1.05425
0.033945892 0.083618164 1.0550499
0.028725736 0.091737032 1.057
0.03057901 0.091737032 1.057
-0.023414364 0.11818905 1.0516001
-0.018532734 0.11675622 1.057
-0.080083497 0.1297905 1.0500001
-0.074113145 0.12611476 1.0511429
-0.068293735 0.12641533 1.0556
-0.032686692 0.12797125 1.0532
-0.024684152 0.12464605 1.0531739
-0.018223854 0.12447819 1.057
-0.09297049 0.1389955 1.0500001
-0.083243825 0.13628627 1.0516472
-0.07539843 0.1344178 1.0557059
-0.069497749 0.13158241 1.057
-0.032369163 0.1310263 1.0549999
-0.025019189 0.13065577 1.057
-0.019459371 0.13065577 1.057
-0.10198046 0.14507201 1.0509232
-0.095472224 0.14464003 1.0526819
-0.086622372 0.14525466 1.055316
-0.077837482 0.14177541 1.057
-0.11184075 0.15786575 1.0500001
-0.10488865 0.15496096 1.0513999
-0.095849618 0.15328974 1.0567694
-0.08988376 0.15104178 1.057
-0.11466905 0.16537423 1.0515001
-0.10631657 0.16420022 1.0558
-0.11659021 0.17452559 1.0515791
-0.16210005 0.1887209 1.0542001
-0.15500481 0.18725857 1.0548126
-0.14526001 0.18767923 1.0553846
-0.13447696 0.18681829 1.0545385
-0.12499075 0.1862675 1.0533531
-0.11694548 0.18387261 1.0566251
-0.16216141 0.19181378 1.057
-0.15845487 0.19181378 1.057
-0.021514276 0.034609921 1.067
-0.018708067 0.03367452 1.067
-0.021433624 0.046594832 1.0630001
-0.018887782 0.044134557 1.0666001
-0.021373134 0.054826736 1.0600001
-0.019087913 0.054330915 1.0658572
-0.023404021 0.065750882 1.0623335
-0.019643471 0.062672019 1.067
-0.022867849 0.074835628 1.0648335
-0.032913394 0.087958597 1.0606
-0.024980776 0.086480051 1.0628184
0.017289883 0.086260401 1.0603001
0.022859961 0.087536916 1.0600001
0.036551151 0.087351061 1.0600001
0.041166164 0.08699128 1.0624001
-0.03086831 0.090734124 1.067
-0.028007746 0.09056405 1.0650001
0.018467948 0.09345907 1.0639
0.025164679 0.094556808 1.0633043
0.034257237 0.094661176 1.0635653
0.040970664 0.092230774 1.067
-0.01899532 0.10868183 1.0656667
0.028227439 0.10263084 1.0662
0.033031046 0.10376605 1.0663335
-0.021373134 0.111512 1.0600001
-0.016303152 0.11472422 1.0628752
-0.063457161 0.12673356 1.0614001
-0.054506481 0.12727305 1.0620768
-0.048458628 0.12953363 1.0630001
-0.014561987 0.12530777 1.0629474
-0.072482802 0.13753146 1.0600001
-0.064863347 0.13525836 1.0624641
-0.058618605 0.13345088 1.067
-0.032428484 0.13685466 1.0635556
-0.025094274 0.13569251 1.06015
-0.016615648 0.13525569 1.0624737
-0.081908219 0.1472224 1.0600001
-0.074847676 0.14513108 1.0620869
-0.066183127 0.14308515 1.0651176
-0.033682499 0.14451385 1.0641999
-0.025172994 0.14452316 1.0635599
-0.017917233 0.14343311 1.0655456
-0.09342324 0.15734975 1.061143
-0.085275173 0.15461975 1.0627896
-0.076087989 0.15239589 1.0654616
-0.031803712 0.15059994 1.067
-0.025255889 0.15059994 1.067
-0.019643471 0.15059994 1.067
-0.1015259 0.16673324 1.0625
-0.096548796 0.16323496 1.0648572
-0.11123701 0.17568663 1.0603335
-0.10503756 0.17477064 1.0627741
-0.1135141 0.18623906 1.0618824
-0.1065599 0.18293044 1.0652223
-0.1616924 0.19421673 1.0600001
-0.15421204 0.19481952 1.0627369
-0.14472605 0.19409706 1.0625001
-0.13563474 0.1933865 1.0624375
-0.12476391 0.19366877 1.0620834
-0.11678007 0.1925267 1.0640001
-0.021675583 0.037694912 1.075
-0.016004018 0.035583962 1.0737998
-0.021605011 0.04133001 1.0715001
-0.015363364 0.044525389 1.0730833
-0.015728464 0.05553088 1.0736428
-0.016419398 0.065193735 1.072294
-0.021574767 0.074104629 1.0700001
-0.017099859 0.074831076 1.0730908
-0.022043783 0.085361034 1.0700001
-0.018078182 0.0842655 1.076
-0.033426352 0.09462861 1.0752307
-0.025159877 0.095364466 1.0733043
-0.019500574 0.094988585 1.0763334
0.016906954 0.09769091 1.0715001
0.021574767 0.09661743 1.0700001
0.038459368 0.097555466 1.0700001
0.041037936 0.098052241 1.072
-0.021699779 0.10472503 1.0762
-0.017722614 0.10556111 1.0742726
0.018054573 0.10442541 1.075857
0.024626795 0.10509751 1.0723
0.036699314 0.10554746 1.0733333
0.04174551 0.10466451 1.0755454
-0.012249663 0.11481748 1.0749999
0.019827571 0.1133004 1.077
0.025565106 0.11327239 1.0757222
0.034558758 0.11189973 1.0759091
0.040599309 0.11141206 1.077
-0.010337654 0.12498882 1.0720001
-0.0073015378 0.12651987 1.075
-0.054551799 0.1356609 1.0729443
-0.045150641 0.13393264 1.0758749
-0.03678162 0.13548845 1.0757778
-0.011281999 0.13446715 1.0726001
-0.0074449456 0.13391307 1.0765556
-0.070352502 0.1491473 1.0700001
-0.063930228 0.14715512 1.0706668
-0.055437114 0.1443368 1.0749165
-0.042676486 0.14313617 1.0769999
-0.038612127 0.14314191 1.0742501
-0.014108736 0.14511591 1.0733076
-0.082661331 0.15874986 1.0715001
-0.074033156 0.15665936 1.0726
-0.066113383 0.1529633 1.0748333
-0.05759437 0.15012303 1.077
-0.024388865 0.15289943 1.0700001
-0.017121475 0.15187708 1.0734
-0.093935482 0.16714081 1.0705454
-0.085002035 0.16495119 1.0728076
-0.077649668 0.16364352 1.0751538
-0.10036957 0.17728829 1.0700001
-0.095041282 0.17503402 1.073423
-0.085299641 0.17427091 1.0753702
-0.078291588 0.17120817 1.0760001
-0.10402176 0.18654084 1.0726249
-0.095767483 0.18342818 1.0759333
-0.087335721 0.18080856 1.077
-0.1519614 0.1998011 1.0700001
-0.1447698 0.19948842 1.0700001
-0.13507681 0.19855039 1.0700001
-0.12482629 0.19803602 1.0706002
-0.11370441 0.19636649 1.0733078
-0.10692319 0.19218713 1.074625
-0.15289943 0.20167716 1.0700001
-0.14390595 0.20359626 1.0729092
-0.13490289 0.20327562 1.0737368
-0.12539373 0.20316602 1.0745556
-0.11704273 0.20262052 1.075909
-0.017042398 0.031244399 1.08
-0.012841633 0.047092121 1.08525
-0.011965798 0.05546863 1.0834
-0.0085527599 0.056068093 1.0840001
-0.011385445 0.065475784 1.0824
-0.011409466 0.075115778 1.0846001
-0.0085764304 0.073376127 1.087
-0.014086499 0.084859066 1.0835834
-0.034084797 0.098467201 1.08
-0.015775731 0.094994612 1.0843333
-0.032649569 0.10363853 1.0817144
-0.026385374 0.10523033 1.0834999
-0.014753743 0.10292871 1.0826364
0.016095599 0.108882 1.08
0.044499598 0.10793521 1.08
-0.024761232 0.11141666 1.0862499
-0.011046 0.11203799 1.08
-0.0068708747 0.11685748 1.0815001
0.017989198 0.11203799 1.08
0.024616798 0.11771879 1.08
0.035539594 0.11697371 1.0820769
0.043261498 0.11555067 1.0828571
-0.0047404105 0.12462172 1.0820625
0.025672087 0.12441338 1.0846666
0.03439977 0.12140844 1.0855714
0.045423314 0.12102296 1.087
-0.050180398 0.1391796 1.08
-0.043931525 0.13709663 1.08
-0.038866725 0.13745314 1.0813333
-0.0043212851 0.13595182 1.0827777
0.027624266 0.13186219 1.0865715
-0.050180398 0.1448604 1.08
-0.045678776 0.14589091 1.0810666
-0.011179955 0.14724283 1.0807999
-0.0064201588 0.14463137 1.085375
-0.063741952 0.15634483 1.0852222
-0.054718651 0.1524785 1.0841429
-0.048599768 0.15151693 1.087
-0.013187402 0.15546884 1.0835556
-0.0085764304 0.15532866 1.087
-0.073258244 0.16573414 1.0831538
-0.068992414 0.16397774 1.0865715
-0.081424803 0.1789452 1.08
-0.074640878 0.17495012 1.0840454
-0.069019839 0.17411515 1.087
-0.093109101 0.18780625 1.0825555
-0.084617615 0.18537511 1.0825
-0.076016366 0.18395709 1.0860525
-0.1107756 0.198828 1.08
-0.10436354 0.19601402 1.0829333
-0.095623918 0.19166149 1.0861429
-0.083450019 0.19235706 1.087
-0.14486042 0.20810664 1.08
-0.1347612 0.20892721 1.08
-0.12474091 0.20853271 1.08
-0.11349758 0.20566227 1.0819167
-0.10751498 0.20329842 1.0853333
-0.1445459 0.2111147 1.0847501
-0.13464738 0.21299748 1.0850908
-0.12490114 0.21351673 1.0852143
-0.11689211 0.21164487 1.0862501
-0.011478197 0.036818244 1.0910001
-0.011198833 0.04384239 1.0950001
-0.010524091 0.052618116 1.0913334
-0.008150151 0.05561113 1.09375
-0.0079755234 0.064551301 1.0917779
-0.006576695 0.075451955 1.0931334
-0.0114668 0.086956568 1.09
-0.0067115845 0.085374527 1.0942
-0.011471623 0.093688056 1.0905001
-0.0069867824 0.092504613 1.0942857
-0.031533699 0.10797903 1.09
-0.028666999 0.10797903 1.09
-0.00095556659 0.12517923 1.09
0.0033577064 0.12734817 1.0935833
0.021978034 0.12804593 1.09
0.035706047 0.12655737 1.090889
0.043666765 0.12550272 1.09175
0.050645035 0.1232681 1.09
-0.00095556665 0.1347349 1.09
0.0038405447 0.13527367 1.0943501
0.018272363 0.13175336 1.097
0.024619868 0.13565829 1.0928
0.03458631 0.13367209 1.0938001
0.042199224 0.13139305 1.0940001
-0.0018065176 0.14495215 1.0917778
0.0019220916 0.14391841 1.0962501
0.025198905 0.14432752 1.0958462
-0.060965151 0.15805073 1.09
-0.054073762 0.15667076 1.0937001
-0.046415202 0.1545922 1.0939001
-0.0038256417 0.15464307 1.0922501
0.00096170331 0.15435338 1.097
0.024042582 0.15098742 1.097
-0.064046346 0.16552785 1.092
-0.057061005 0.16292605 1.0958
-0.0114668 0.16149077 1.09
-0.0057511525 0.16108727 1.0937501
-0.063709676 0.17511261 1.0939201
-0.072523125 0.18725324 1.0905715
-0.0650227 0.18490899 1.0936208
-0.10081229 0.1982801 1.09
-0.094543561 0.19647984 1.0925
-0.085936397 0.19640057 1.0920001
-0.075555466 0.19465798 1.0947728
-0.068280935 0.19137897 1.097
-0.10364754 0.2057084 1.0927334
-0.095121145 0.20273584 1.0960001
-0.086313345 0.20130999 1.0957143
-0.079821378 0.200996 1.097
-0.14476816 0.21590686 1.0936
-0.13454203 0.21803024 1.0928572
-0.12455505 0.21862289 1.0917143
-0.11528496 0.21562098 1.0923846
-0.10715563 0.21094988 1.0962501
-0.13463847 0.22151233 1.097
-0.12661695 0.22272286 1.0962501
-0.010662313 0.045553062 1.1056668
-0.0072693196 0.047510508 1.1059999
-0.0061360821 0.052650556 1.1053333
-0.005613998 0.066430114 1.1046
-0.0022017083 0.074305788 1.1059998
0.00097134669 0.078679077 1.108
-0.0019334884 0.084180072 1.1036999
0.00097134669 0.08515472 1.108
-0.0048510977 0.094388828 1.1067142
0.0029140401 0.090335242 1.108
-0.0033944533 0.11882822 1.1065
0.0087421201 0.1291891 1.108
0.0086960951 0.13526748 1.1021667
0.013817746 0.13542128 1.1063124
0.020269411 0.13802503 1.1010001
0.036927827 0.1381395 1.1041429
0.041679949 0.13667555 1.1056668
0.0060876352 0.14599599 1.1039286
0.015088255 0.14421259 1.1079999
0.02456495 0.145897 1.1021427
0.035836123 0.14478497 1.1047081
0.041739635 0.14366002 1.10725
-0.05115613 0.15925965 1.1010001
-0.04348705 0.15773658 1.1023333
-0.037929971 0.1558366 1.1023749
0.0057357387 0.15529074 1.1048331
0.015693003 0.15586932 1.1067647
0.023726858 0.15567879 1.1036189
0.034060076 0.153561 1.1049997
-0.053511206 0.16607451 1.1017998
-0.046479933 0.16427182 1.1046873
-0.039825212 0.16124354 1.108
-0.010655884 0.16565055 1.105
-0.003078694 0.16512305 1.1038181
0.004842707 0.16568333 1.1051998
0.014407596 0.16494796 1.1056895
0.024475459 0.16548634 1.1067775
0.03075931 0.16091977 1.108
-0.05516056 0.17517905 1.1039997
-0.049538679 0.1748424 1.108
0.0061492324 0.17381933 1.1076666
0.01440831 0.17370915 1.1079999
0.023700858 0.17328826 1.1079999
-0.055454422 0.1849643 1.1031303
-0.049538679 0.18844125 1.108
-0.071618579 0.19748196 1.1010001
-0.064947017 0.19530557 1.1038235
-0.054990754 0.1943316 1.105818
-0.049214896 0.19588824 1.1079999
-0.095555782 0.20848534 1.101
-0.084873758 0.20630923 1.1024116
-0.075261712 0.20407221 1.1047143
-0.068965614 0.20106876 1.108
-0.14864233 0.21910267 1.1010001
-0.11223806 0.21810362 1.1018
-0.10520098 0.21561421 1.1047499
-0.095283903 0.21369962 1.105857
-0.085826419 0.21145101 1.1071428
-0.15055872 0.22243838 1.108
-0.1441866 0.22497293 1.1057999
-0.13560821 0.22621332 1.1030768
-0.12440655 0.22674799 1.1031817
-0.11646831 0.22437926 1.1055832
-0.10781948 0.22114325 1.108
-0.14239943 0.23098624 1.108
-0.13579755 0.23122945 1.1075714
-0.12336102 0.23069483 1.108
-0.11818051 0.23085672 1.108
-0.0087736798 0.039968986 1.1120001
-0.0068239733 0.044518303 1.1120001
-0.0053693643 0.056144584 1.1137501
-0.0027429147 0.065590791 1.1168001
0.0016349833 0.068996303 1.1190001
0.0029425318 0.07599473 1.1185
0.0036495635 0.086026587 1.1162728
-0.00097485335 0.092611067 1.1120001
0.0019497066 0.092611067 1.1120001
-0.01079089 0.1079089 1.1190001
-0.0075850291 0.10497262 1.1163751
-0.01079089 0.11085187 1.1190001
-0.0047630463 0.11462843 1.1163335
0.00098099001 0.11869979 1.1190001
-0.00097748335 0.12218542 1.115
0.003653548 0.12438586 1.1171818
0.01079089 0.12850969 1.1190001
0.017141243 0.13810021 1.1172501
0.0438684 0.13550462 1.1120001
0.013842918 0.14603303 1.1120002
-0.033353657 0.15990137 1.1190001
0.012889728 0.15261871 1.1120001
-0.04299831 0.16810156 1.1148335
-0.036907773 0.16304936 1.115375
-0.046750266 0.17429702 1.1157
0.0040943837 0.17664342 1.1120002
0.014866514 0.17717959 1.1120001
0.022811569 0.17683838 1.1120001
-0.051667225 0.18327242 1.1120001
-0.048056092 0.1849099 1.1150001
0.0061888769 0.18431321 1.1143334
0.013255041 0.18280716 1.1161819
0.02052715 0.18083441 1.115
-0.062390611 0.19984493 1.1120001
-0.056541495 0.19984493 1.1120001
-0.046665046 0.19493647 1.1153637
0.00490495 0.19129305 1.1190001
-0.073161989 0.20778382 1.1127501
-0.066295683 0.20459495 1.1166364
-0.055446878 0.20481576 1.1160556
-0.046811532 0.20412835 1.1154376
-0.17363523 0.21876077 1.1190001
-0.10235959 0.21934199 1.1120001
-0.093923323 0.21883276 1.1131251
-0.084506065 0.21591268 1.1144167
-0.076502323 0.21275462 1.1172223
-0.053954449 0.21091287 1.1190001
-0.049851649 0.21015891 1.115
-0.15470795 0.22604479 1.1156471
-0.14928669 0.22734684 1.113
-0.11264877 0.22764377 1.1135
-0.10462004 0.22488841 1.1153126
-0.095684111 0.22294696 1.116625
-0.088616095 0.22137673 1.1190001
-0.15009147 0.23347563 1.1190001
-0.14786473 0.23306009 1.1170001
-0.13191186 0.23549142 1.1146001
-0.12511626 0.235577 1.115
-0.11523798 0.23372014 1.1147693
-0.10888989 0.23053265 1.1190001
-0.0068914765 0.04134886 1.123
-0.0029613799 0.058240473 1.126
-0.0024618991 0.061572462 1.1237501
0.0024632141 0.065553188 1.1245
0.0041887136 0.075612724 1.1237501
0.0059161852 0.083793998 1.1245002
-0.010829464 0.10337215 1.123
-0.0054190052 0.10643117 1.1241251
-0.0025602174 0.11209516 1.1236001
0.0033153144 0.116551 1.124091
0.0072913244 0.12375035 1.1239001
0.013144594 0.12618257 1.1245
-0.033049058 0.16524865 1.1238183
-0.025004841 0.16393404 1.1246365
-0.043236148 0.17472142 1.126
-0.03849794 0.17077291 1.126
-0.045163106 0.18388912 1.1234286
0.016256031 0.18644091 1.1237501
0.021686541 0.18336228 1.1245
-0.04399303 0.19469027 1.1235
0.0078864936 0.19322041 1.1245
0.012419386 0.19099954 1.1242001
-0.063429713 0.20801006 1.123
-0.058085304 0.20969778 1.123
-0.042389899 0.20110427 1.1245
-0.081713222 0.21954276 1.123
-0.07450527 0.2164264 1.1242
-0.065713495 0.2122056 1.1249093
-0.058085304 0.21166678 1.123
-0.17274718 0.22210349 1.126
-0.16347642 0.22481133 1.1251819
-0.10238765 0.22938772 1.123
-0.095280617 0.22724856 1.1233751
-0.086380772 0.22443227 1.1248001
-0.076008745 0.22078733 1.126
-0.16248105 0.23079021 1.126
-0.15630949 0.23318124 1.1242001
-0.13290705 0.23923269 1.123
-0.12700006 0.23923269 1.123
-0.11124812 0.2352947 1.123
-0.10545266 0.23298435 1.1242001
-0.09603332 0.23084661 1.126
-0.089828528 0.23000051 1.126
-0.13227497 0.24184602 1.126
-0.12733933 0.24184602 1.126
-0.0027316932 0.036519304 1.1335
-0.0037267096 0.042517453 1.1345001
0.00099764671 0.04190116 1.138
-0.0017887506 0.056224138 1.1332
0.0014894566 0.057061356 1.132
-0.00099063327 0.060428634 1.13
0.0029824199 0.064619102 1.1340001
0.0079250671 0.075288132 1.13
0.012941353 0.077966645 1.1353334
0.0089283241 0.084327266 1.1316
0.013541819 0.084695995 1.1365883
-0.00198565 0.097342432 1.133
0.0016533933 0.096983291 1.1326667
-0.0024430307 0.10364576 1.1358181
0.00099764671 0.10874349 1.138
-0.00099414005 0.11034954 1.1340001
0.0059619173 0.11491755 1.1333333
0.012278594 0.11810804 1.1353333
0.01490212 0.12248341 1.1330769
-0.033387557 0.16959818 1.1313334
-0.024811421 0.16870749 1.132
-0.018822033 0.16642639 1.13
-0.041751545 0.17695694 1.1340001
-0.035651576 0.17408462 1.136
-0.026936458 0.17259288 1.138
-0.042702939 0.18543278 1.1328572
0.018822033 0.18921097 1.13
0.022055181 0.18815756 1.1332
-0.041509114 0.1946407 1.1328
-0.038908221 0.19853169 1.138
0.0079390937 0.19847909 1.132
0.015695723 0.19539857 1.1329333
0.020913759 0.19519335 1.136
-0.040615965 0.20109856 1.13
-0.037411749 0.20102581 1.138
0.0079811737 0.20252228 1.138
0.015496779 0.2026553 1.1380002
0.02095058 0.20152463 1.138
-0.0713256 0.21892996 1.13
-0.065712012 0.21430701 1.13
-0.1733408 0.22663411 1.1317143
