# .PCD v0.7 - Point Cloud Data file format
VERSION 0.7
FIELDS x y z
SIZE 4 4 4
TYPE F F F
COUNT 1 1 1
WIDTH 1432
HEIGHT 1
VIEWPOINT 0 0 0 1 0 0 0
POINTS 1432
DATA ascii
-0.065005705 -0.11453386 1.177
-0.058814693 -0.11453388 1.177
-0.16432747 -0.10508177 1.1759335
-0.15693261 -0.10388561 1.1732858
-0.14746252 -0.10262734 1.1730001
-0.12182248 -0.1067251 1.1743335
-0.11652422 -0.10396414 1.1762729
-0.093557753 -0.10681619 1.1764287
-0.085862078 -0.10370284 1.1743335
-0.07492882 -0.10440379 1.1750871
-0.06669417 -0.10627916 1.177
-0.16199836 -0.09802448 1.177
-0.15452795 -0.096271046 1.1755264
-0.14530702 -0.095304437 1.1733481
-0.13779622 -0.094606362 1.1730002
-0.12119603 -0.094165646 1.1730002
-0.11487261 -0.095147669 1.1754763
-0.082828537 -0.097031713 1.1761112
-0.076231293 -0.095546924 1.1759475
-0.15167999 -0.08873795 1.177
-0.14483514 -0.086229973 1.1756668
-0.13595642 -0.084246904 1.1737502
-0.12340086 -0.084857829 1.1741112
-0.11448576 -0.085606404 1.1765201
-0.10834285 -0.085126519 1.177
-0.13415097 -0.077901475 1.1762729
-0.12521012 -0.076581635 1.1758237
-0.11404717 -0.075780824 1.1768183
-0.10646679 -0.074010834 1.177
-0.10731101 -0.069133058 1.177
-0.14280288 -0.24078439 1.189
-0.16585055 -0.23314041 1.1889998
-0.15515509 -0.23283637 1.1878002
-0.14435281 -0.23434922 1.1867501
-0.13611689 -0.23384328 1.1834
-0.16559848 -0.22495949 1.1879998
-0.15457101 -0.22481488 1.1826664
-0.14503951 -0.22539154 1.1825999
-0.13547528 -0.22583358 1.1816666
-0.12535478 -0.22455332 1.1817499
-0.1150746 -0.22186363 1.1826001
-0.10701529 -0.22341178 1.189
-0.16530837 -0.21535091 1.1871665
-0.15582249 -0.21505444 1.1817058
-0.14391272 -0.21638675 1.1810001
-0.13355929 -0.21845745 1.1810001
-0.12268819 -0.21638678 1.1810001
-0.1150746 -0.2146064 1.1825999
-0.10698753 -0.21457295 1.1881429
-0.096873946 -0.21437463 1.1882001
-0.17372613 -0.20447563 1.189
-0.16513906 -0.20515022 1.1832857
-0.15840752 -0.20706867 1.1810001
-0.11319754 -0.20741378 1.1810001
-0.10432006 -0.20704198 1.1824546
-0.094909683 -0.205991 1.1841431
-0.17321028 -0.19518241 1.1882728
-0.16531391 -0.19526482 1.181909
-0.15840752 -0.19464454 1.1810001
-0.090074867 -0.19982126 1.1810001
-0.17295416 -0.18475194 1.1876667
-0.16593851 -0.18543601 1.181706
-0.1732946 -0.17499517 1.1875457
-0.16722867 -0.1756788 1.1825386
-0.17384164 -0.16551262 1.1874001
-0.16798446 -0.16539609 1.1810001
-0.1803277 -0.15114172 1.189
-0.17485996 -0.15500808 1.1883682
-0.16786461 -0.15334642 1.182778
-0.050731823 -0.15323082 1.1810001
-0.046590451 -0.15219547 1.1810001
-0.19283599 -0.14280286 1.189
-0.18476863 -0.14459255 1.1873999
-0.17507178 -0.14518495 1.1847777
-0.16683316 -0.14507167 1.182
-0.050731823 -0.14494807 1.1810001
-0.048661135 -0.14287737 1.1810001
-0.19453023 -0.13471565 1.1888257
-0.1850743 -0.13474792 1.1835001
-0.17842416 -0.13908112 1.1810001
-0.16876096 -0.13977134 1.1810001
-0.12403412 -0.13314517 1.1810001
-0.052049533 -0.13525349 1.181
-0.045173664 -0.1346491 1.181
-0.19214109 -0.12543027 1.189
-0.18465805 -0.1254133 1.1843684
-0.17787197 -0.12237759 1.1810001
-0.12320585 -0.12527654 1.181
-0.11630356 -0.12320586 1.181
-0.053792402 -0.12584305 1.1812105
-0.044794526 -0.12597743 1.1859999
-0.038469885 -0.12476456 1.186
-0.18511504 -0.11575381 1.1873157
-0.1766988 -0.11464721 1.1819412
-0.12299877 -0.11657967 1.181
-0.11475054 -0.11509565 1.1809999
-0.10607562 -0.11266418 1.181
-0.053968824 -0.11521435 1.1839999
-0.047799498 -0.11719067 1.189
-0.18181679 -0.10766055 1.189
-0.17436609 -0.10513812 1.1849999
-0.16763288 -0.10173874 1.1818001
-0.11250732 -0.10543246 1.181
-0.10462465 -0.10462467 1.1816399
-0.09561827 -0.10301609 1.1818571
-0.088004179 -0.10042831 1.1810001
-0.063940316 -0.10301609 1.1818571
-0.055257324 -0.10497849 1.1856664
-0.048990764 -0.10944745 1.189
-0.17337865 -0.097634077 1.189
-0.16513982 -0.094732158 1.1861999
-0.15727241 -0.091378286 1.1818001
-0.11078174 -0.098357618 1.1810001
-0.1044969 -0.09448275 1.1821666
-0.094749846 -0.094918013 1.1876664
-0.085956566 -0.093134038 1.1834615
-0.074027047 -0.091627881 1.1810001
-0.066317551 -0.09522143 1.1857998
-0.056287259 -0.098328978 1.189
-0.16226019 -0.086168148 1.189
-0.155669 -0.084253982 1.1849998
-0.14701876 -0.081792124 1.1810001
-0.10391887 -0.085148513 1.1819412
-0.094635025 -0.084101737 1.1889998
-0.08520586 -0.084323667 1.1875262
-0.075669661 -0.084996872 1.1824
-0.068575308 -0.084766366 1.1872224
-0.16573471 -0.075570859 1.189
-0.15506613 -0.076460592 1.1879473
-0.14505671 -0.075592265 1.1857271
-0.13591738 -0.073742427 1.1819999
-0.1242412 -0.072732866 1.1810001
-0.11837425 -0.072128922 1.1810001
-0.1028191 -0.076634698 1.1812857
-0.094803527 -0.075105831 1.1859522
-0.084604621 -0.07626576 1.189
-0.075003132 -0.076351181 1.1865999
-0.068447515 -0.075727865 1.1866001
-0.14315031 -0.06914299 1.189
-0.13389449 -0.066240579 1.1882941
-0.12553172 -0.066827223 1.185706
-0.11540499 -0.065567076 1.1841666
-0.10445357 -0.064958006 1.1827391
-0.094503373 -0.065427922 1.1846797
-0.087557964 -0.067058273 1.189
-0.072617508 -0.06914299 1.189
-0.069837898 -0.068795539 1.189
-0.15114172 -0.059414331 1.189
-0.14280286 -0.059414331 1.189
-0.12820987 -0.059414331 1.189
-0.1177863 -0.059414331 1.189
-0.10527802 -0.059414331 1.189
-0.094197124 -0.05793504 1.1886001
-0.17218944 -0.25440535 1.1962001
-0.16806079 -0.25121728 1.1956667
-0.18393816 -0.24266152 1.1962001
-0.17485841 -0.24500062 1.1951056
-0.16484803 -0.2449687 1.1962001
-0.15513639 -0.24229167 1.1930001
-0.18450044 -0.23478252 1.1950002
-0.17545602 -0.23551846 1.1930002
-0.16390172 -0.23860623 1.193
-0.15467156 -0.23810822 1.193
-0.19273429 -0.22421539 1.197
-0.18546933 -0.22528397 1.1952404
-0.17570503 -0.22486059 1.1930002
-0.10324166 -0.22217126 1.193
-0.097962528 -0.22207165 1.193
-0.19263434 -0.21542069 1.1969999
-0.18516831 -0.21446066 1.1933203
-0.17560044 -0.21482031 1.1930002
-0.10327901 -0.21675517 1.193
-0.094413601 -0.21554844 1.1950002
-0.088296995 -0.2145212 1.1969999
-0.19203471 -0.20777526 1.197
-0.18563688 -0.20457226 1.1945655
-0.17842428 -0.20561671 1.1930001
-0.090990111 -0.20708093 1.1930001
-0.089196451 -0.20777526 1.197
-0.1834226 -0.19614591 1.1955713
-0.17791298 -0.19511162 1.193
-0.18246904 -0.18561503 1.1962001
-0.17779677 -0.18511781 1.193
-0.18246904 -0.17512976 1.1962001
-0.17824499 -0.17555563 1.193
-0.18367907 -0.16346678 1.1952858
-0.17884263 -0.16420054 1.1930001
-0.21302211 -0.15320802 1.1970001
-0.20492697 -0.15320802 1.1970003
-0.19426589 -0.15421116 1.1966366
-0.18543746 -0.15503617 1.1936318
-0.21272784 -0.1446117 1.1953335
-0.20482406 -0.14515482 1.1930002
-0.19670275 -0.14634041 1.193
-0.18616366 -0.14955845 1.1930001
-0.21162295 -0.13711768 1.197
-0.20509353 -0.1349825 1.1936002
-0.1997599 -0.13177878 1.1930001
-0.20239305 -0.12646775 1.1962001
-0.19681905 -0.12403832 1.1932857
-0.042183157 -0.12097152 1.1930001
-0.036643792 -0.12040871 1.1943334
-0.19381109 -0.11493725 1.1949999
-0.18930127 -0.11190738 1.1930001
-0.043856807 -0.11447278 1.1943336
-0.036694292 -0.1142766 1.1959336
-0.19203471 -0.10703574 1.197
-0.18633918 -0.10479859 1.1941112
-0.17884263 -0.10144874 1.1930001
-0.051247302 -0.10563219 1.1930001
-0.045693576 -0.10567049 1.1946843
-0.038826689 -0.10808511 1.197
-0.19203471 -0.095492668 1.197
-0.18533319 -0.095198415 1.1955003
-0.17578 -0.093774073 1.1935
-0.168384 -0.090990111 1.1930001
-0.09517356 -0.090990111 1.1930001
-0.062542632 -0.092663489 1.1930001
-0.055137765 -0.094137259 1.1938423
-0.047313709 -0.095675528 1.1955715
-0.18475145 -0.086084872 1.195889
-0.1749177 -0.084842145 1.1947603
-0.16629227 -0.083967879 1.193
-0.095173568 -0.086806655 1.1930001
-0.088898383 -0.084714927 1.1930001
-0.063909404 -0.084865011 1.1951334
-0.055998202 -0.08786089 1.1970001
-0.048271019 -0.089196451 1.197
-0.17407069 -0.074825428 1.1954001
-0.16469271 -0.073641099 1.1930001
-0.15478778 -0.071118712 1.193
-0.14955845 -0.070072845 1.1930001
-0.084192 -0.072338879 1.193
-0.07774251 -0.070770092 1.1930001
-0.065287217 -0.07390368 1.1947778
-0.17142911 -0.066578016 1.1960001
-0.16418429 -0.065086357 1.1944741
-0.15478778 -0.064843521 1.1930001
-0.14572364 -0.0644949 1.1930002
-0.13770534 -0.06310042 1.193
-0.12487608 -0.062542632 1.1930001
-0.11190738 -0.061705936 1.1930001
-0.083738796 -0.06421601 1.1930001
-0.074604928 -0.0644949 1.1930002
-0.066709369 -0.065078579 1.1952223
-0.16265234 -0.059814084 1.197
-0.15381785 -0.05631943 1.1948463
-0.14508976 -0.055525839 1.1930003
-0.13494468 -0.056179434 1.1941431
-0.12466707 -0.056150146 1.1950002
-0.11506293 -0.057092477 1.1950001
-0.10524032 -0.057855397 1.1945
-0.095721893 -0.053687595 1.1946
-0.084838517 -0.055508617 1.1947603
-0.074444957 -0.055569481 1.1960404
-0.067159683 -0.05561661 1.1970001
-0.14344575 -0.049210515 1.1943334
-0.13909982 -0.049155578 1.1930001
-0.093393929 -0.049320389 1.197
-0.084299386 -0.049320389 1.197
-0.073665775 -0.048061151 1.1970001
-0.067369558 -0.047641397 1.197
-0.19427153 -0.25268513 1.2060002
-0.18346031 -0.25406089 1.2050002
-0.17642461 -0.2547155 1.2036002
-0.20193666 -0.24211253 1.2060001
-0.19433619 -0.24503201 1.2047501
-0.18661897 -0.24706687 1.2026666
-0.17808431 -0.24973954 1.202
-0.20358129 -0.23412435 1.2060002
-0.19572267 -0.23582268 1.2038181
-0.21277356 -0.22519636 1.2060001
-0.20490682 -0.22497335 1.2047999
-0.19647099 -0.22499008 1.2022352
-0.21081765 -0.21631539 1.2060001
-0.20479873 -0.21501298 1.2055556
-0.19779909 -0.21397066 1.2033333
-0.087461524 -0.21180442 1.202
-0.20193666 -0.20616572 1.2060001
-0.19654056 -0.20498419 1.2045001
-0.20472796 -0.19518107 1.2099998
-0.19463612 -0.19563904 1.2050475
-0.18791936 -0.19318812 1.202
-0.19453587 -0.18502048 1.206
-0.18769364 -0.18452749 1.2028
-0.20472795 -0.17502649 1.2099997
-0.1937429 -0.17471218 1.2060001
-0.18803389 -0.17465907 1.2042222
-0.22096734 -0.16281804 1.2060001
-0.21427035 -0.16368596 1.2057145
-0.20504007 -0.16339876 1.2056001
-0.19480562 -0.16417412 1.2048571
-0.18777733 -0.16667771 1.2033334
-0.22370526 -0.15500867 1.2055554
-0.21672776 -0.15661387 1.2030001
-0.20495501 -0.15832643 1.202
-0.1982161 -0.1570975 1.2026668
-0.22345005 -0.14513175 1.2052941
-0.21777569 -0.14366169 1.202
-0.22167218 -0.13779622 1.2060001
-0.21564454 -0.13464372 1.2041818
-0.21039474 -0.12581395 1.2060001
-0.20628603 -0.12477596 1.2038462
-0.20334983 -0.11647044 1.2056001
-0.19878709 -0.11328813 1.2040001
-0.032666352 -0.11169785 1.202
-0.1963186 -0.10396643 1.2046666
-0.041939382 -0.10179257 1.202
-0.035005938 -0.10396565 1.2034544
-0.20193666 -0.098325178 1.2060001
-0.19603494 -0.095078513 1.203143
-0.043003503 -0.094912186 1.2048572
-0.034654632 -0.096680552 1.2060002
-0.19329524 -0.087064266 1.2048572
-0.18672125 -0.081931517 1.2033334
-0.06006394 -0.082192764 1.202
-0.055289615 -0.083777428 1.2036002
-0.047232602 -0.08707843 1.2040001
-0.18173651 -0.075700171 1.2035
-0.17808431 -0.070601471 1.202
-0.061958041 -0.075826406 1.2037144
-0.058149301 -0.079294503 1.2060001
-0.18079145 -0.068721898 1.2060001
-0.17552662 -0.064410053 1.2044617
-0.16895179 -0.060766444 1.202
-0.063898832 -0.063054428 1.2028
-0.17127612 -0.058149301 1.2060001
-0.16393578 -0.056755397 1.2045001
-0.15720694 -0.053279854 1.2034999
-0.13646105 -0.052160792 1.202
-0.12434289 -0.051633913 1.202
-0.1144527 -0.053002913 1.2043999
-0.10582435 -0.053629205 1.2038182
-0.06294214 -0.054505095 1.2033334
-0.1527795 -0.048812449 1.2052001
-0.14544742 -0.046862744 1.204
-0.13399275 -0.047227535 1.2048572
-0.12481321 -0.048815865 1.2040001
-0.11841312 -0.049691219 1.2060001
-0.10149696 -0.049691219 1.2060001
-0.095071875 -0.048064124 1.205
-0.08504349 -0.047505006 1.2042222
-0.074725017 -0.043778107 1.2033333
-0.065124385 -0.045363676 1.2034545
-0.070836417 -0.039118621 1.2060001
-0.067664638 -0.039118621 1.2060001
-0.22121193 -0.26182088 1.2190001
-0.21554849 -0.26203147 1.2160001
-0.2045615 -0.26381963 1.2157333
-0.19562332 -0.26309022 1.2112308
-0.18881646 -0.26200935 1.21
-0.22408766 -0.25397134 1.2175294
-0.21458685 -0.25549209 1.2128235
-0.2048651 -0.2547541 1.2107998
-0.19553465 -0.25611621 1.21
-0.18775569 -0.25699484 1.21
-0.2318985 -0.24258506 1.2190001
-0.22479597 -0.24503645 1.21525
-0.21455924 -0.24535975 1.2115999
-0.20520791 -0.24562973 1.2105453
-0.2318985 -0.23510446 1.2190001
-0.22494072 -0.23528582 1.2129092
-0.21530144 -0.23482621 1.2103999
-0.2071147 -0.23681615 1.21
-0.2318985 -0.22548656 1.2190001
-0.22553512 -0.22470427 1.2122222
-0.21866949 -0.22473098 1.21
-0.2318985 -0.21800596 1.2190001
-0.22501546 -0.21496922 1.2159585
-0.21575229 -0.21525186 1.2102351
-0.20791027 -0.21109256 1.21
-0.2318985 -0.20197611 1.2190001
-0.22455403 -0.204999 1.2164999
-0.21459587 -0.20459141 1.2103809
-0.20635031 -0.20435357 1.21
-0.23261094 -0.19841392 1.2190001
-0.22518153 -0.19521391 1.2168262
-0.21496542 -0.19471662 1.2124765
-0.24771461 -0.18231282 1.2190001
-0.2228149 -0.18621343 1.219
-0.21570215 -0.18554376 1.2184117
-0.20483823 -0.18573235 1.2106396
-0.25307733 -0.17535685 1.219
-0.24502771 -0.17495434 1.219
-0.23539878 -0.17437081 1.21775
-0.22379173 -0.17374009 1.2171818
-0.21481664 -0.17520164 1.2127371
-0.19836336 -0.17396575 1.21
-0.25294283 -0.16597059 1.219
-0.24510643 -0.16555625 1.2168572
-0.23454444 -0.16444908 1.2115
-0.22561859 -0.16548325 1.2105334
-0.21604282 -0.1683083 1.21
-0.20446277 -0.16786632 1.21
-0.1976562 -0.16795473 1.21
-0.25113431 -0.15816119 1.2190001
-0.24525341 -0.15494327 1.2171577
-0.23486185 -0.15448064 1.210727
-0.22806484 -0.15805423 1.21
-0.24343999 -0.14768834 1.2190001
-0.23356499 -0.14566152 1.2128333
-0.22806484 -0.1432035 1.21
-0.23249155 -0.13970691 1.2165
-0.22528443 -0.1348812 1.2140666
-0.21745716 -0.13153507 1.21
-0.22169295 -0.12587306 1.2182857
-0.21568517 -0.12432541 1.2134376
-0.21452086 -0.11530995 1.2151251
-0.20748596 -0.11435064 1.21
-0.21191028 -0.1067528 1.2177501
-0.20550787 -0.10551786 1.2119476
-0.030762233 -0.10713743 1.21
-0.20134315 -0.093332216 1.2126
-0.19783299 -0.093877845 1.21
-0.0413699 -0.092993878 1.21
-0.037834011 -0.09299387 1.21
-0.20197611 -0.088698506 1.2190001
-0.19615962 -0.083929725 1.2153335
-0.18987723 -0.081679031 1.21
-0.053038333 -0.081679031 1.21
-0.044246476 -0.083895415 1.2114002
-0.037306402 -0.085264318 1.2158334
-0.19089723 -0.078916222 1.2165
-0.18669111 -0.074536912 1.2130909
-0.061044052 -0.07272125 1.2110001
-0.054241046 -0.075140245 1.2132175
-0.045143239 -0.075598463 1.2146002
-0.039540295 -0.074449748 1.2190001
-0.18389508 -0.066532865 1.2142501
-0.17875993 -0.061237503 1.2113334
-0.061495438 -0.06527485 1.2117779
-0.055886183 -0.067102693 1.2181666
-0.044961412 -0.067974493 1.2178888
-0.03686865 -0.065722376 1.2190001
-0.18060298 -0.058776118 1.2190001
-0.17367432 -0.05526787 1.2124
-0.16635004 -0.052684773 1.2117001
-0.0604637 -0.056220632 1.21
-0.058544677 -0.054284073 1.2142001
-0.16226624 -0.047900315 1.2142857
-0.15540613 -0.044767797 1.2117857
-0.14493929 -0.042719968 1.21
-0.13535383 -0.042642817 1.21
-0.12486551 -0.043697622 1.2118667
-0.11490993 -0.045417901 1.212682
-0.10534823 -0.045515582 1.2127274
-0.094893962 -0.043854985 1.2128124
-0.085370854 -0.04310815 1.2112
-0.078850321 -0.042077079 1.21
-0.061922472 -0.044229779 1.210889
-0.15219109 -0.039378114 1.2140001
-0.14404991 -0.03867254 1.2141668
-0.13448781 -0.035956789 1.2136501
-0.12458082 -0.035137326 1.2146002
-0.11581832 -0.036577038 1.2168571
-0.10579702 -0.039540295 1.2190001
-0.095110446 -0.039540295 1.2190001
-0.084423877 -0.039540295 1.2190001
-0.073719196 -0.037033223 1.2147778
-0.065369427 -0.035784397 1.2154119
-0.12398434 -0.02877483 1.2156668
-0.23428091 -0.27300507 1.2270001
-0.22396906 -0.27226898 1.2243334
-0.21549588 -0.27280492 1.2256668
-0.20881294 -0.27256587 1.2256668
-0.23443277 -0.26455152 1.227
-0.22571842 -0.26542467 1.224111
-0.21561435 -0.26743346 1.2236154
-0.20907184 -0.26804084 1.223
-0.24202575 -0.25385809 1.2270001
-0.23573668 -0.25560921 1.2255999
-0.22837079 -0.25839135 1.223
-0.24294774 -0.24479176 1.2270001
-0.23632683 -0.24571002 1.2232498
-0.24288628 -0.23815334 1.2270001
-0.23725994 -0.23510861 1.2246
-0.23746707 -0.22510739 1.2256669
-0.23534846 -0.21473722 1.2243333
-0.25134823 -0.2018674 1.2270001
-0.24455056 -0.2038627 1.2263848
-0.23585661 -0.20559533 1.2239997
-0.26569048 -0.19082384 1.2270001
-0.25509828 -0.19452509 1.2259092
-0.24564584 -0.19522996 1.2235998
-0.23618224 -0.19467422 1.2229998
-0.22837079 -0.19191724 1.223
-0.26482901 -0.1848111 1.2239522
-0.25517488 -0.18548422 1.2229998
-0.24477486 -0.18612751 1.2229998
-0.23498242 -0.18530555 1.2229997
-0.22655639 -0.18498942 1.2229998
-0.2721445 -0.17748556 1.2270001
-0.26496521 -0.17485386 1.2236397
-0.25803396 -0.17476262 1.223
-0.24481063 -0.17654955 1.223
-0.23265944 -0.1775196 1.2230002
-0.22658384 -0.17762172 1.223
-0.26469424 -0.16525404 1.2244736
-0.2576766 -0.16475576 1.223
-0.26253682 -0.1583079 1.2256669
-0.25565988 -0.15551412 1.2244117
-0.24981405 -0.15117502 1.223
-0.25192189 -0.14521545 1.2270001
-0.24558353 -0.14424887 1.2238888
-0.23837765 -0.14116818 1.223
-0.24525276 -0.13768576 1.2270001
-0.23528115 -0.13428944 1.225476
-0.22837079 -0.1318761 1.223
-0.23322481 -0.12507109 1.2270001
-0.22655636 -0.12494826 1.2229998
-0.23126905 -0.11939937 1.2270001
-0.22512133 -0.11584635 1.225
-0.2192574 -0.11204107 1.223
-0.22051235 -0.10864267 1.2270001
-0.21528442 -0.10441766 1.2254001
-0.21156159 -0.098798573 1.2250001
-0.20733358 -0.095704086 1.2243334
-0.20236593 -0.08488676 1.2256669
-0.19727805 -0.080412246 1.223
-0.036480732 -0.080477998 1.2240001
-0.19446 -0.076010287 1.2255001
-0.035764154 -0.075247742 1.2248461
-0.19146925 -0.06884288 1.2270001
-0.18655643 -0.06486588 1.223
-0.053425211 -0.063666575 1.2245384
-0.044973239 -0.063117214 1.2240909
-0.036319528 -0.06526795 1.2229998
-0.17443125 -0.052652892 1.2256668
-0.055841915 -0.057991505 1.2250001
-0.044102471 -0.059161853 1.2270001
-0.038186286 -0.058624014 1.2270001
-0.16780452 -0.047329478 1.2270001
-0.14395531 -0.034798782 1.2241429
-0.13774508 -0.031841412 1.2243334
-0.11249232 -0.034631621 1.2250001
-0.10491479 -0.036162496 1.2253335
-0.094837219 -0.035785239 1.2246667
-0.084866188 -0.035448484 1.2254001
-0.07624878 -0.03328931 1.225
-0.063766457 -0.032424219 1.2246001
-0.059161849 -0.03549711 1.2270001
-0.1337035 -0.028457914 1.2250001
-0.12973176 -0.028948409 1.223
-0.1158138 -0.021154843 1.2270001
-0.072787009 -0.028325975 1.2270001
-0.06678573 -0.027598344 1.2265557
-0.11724803 -0.01828639 1.2270001
-0.2519224 -0.27138677 1.2333335
-0.24250074 -0.27370727 1.2360001
-0.23780547 -0.27293527 1.233
-0.20845029 -0.2754136 1.2320001
-0.25246945 -0.2654722 1.2360001
-0.24455899 -0.26520893 1.2347693
-0.23797174 -0.26821324 1.2320001
-0.25391424 -0.25427538 1.2360001
-0.24730448 -0.25516897 1.2338183
-0.25556695 -0.24473661 1.2352501
-0.24805222 -0.24469209 1.2320002
-0.25463659 -0.2359065 1.2360001
-0.24693225 -0.23395757 1.2331766
-0.25138593 -0.22538048 1.2360001
-0.24515884 -0.22541867 1.2355556
-0.25340682 -0.21524246 1.2356924
-0.24564587 -0.21512266 1.2337779
-0.27414069 -0.2004586 1.2360001
-0.265111 -0.20118098 1.2360001
-0.25579599 -0.20604879 1.2335387
-0.24733222 -0.20791025 1.2320001
-0.28298977 -0.19486022 1.2360001
-0.27526397 -0.19513245 1.2352002
-0.26517874 -0.19620365 1.2323079
-0.2574127 -0.19908983 1.2320001
-0.28226736 -0.18908122 1.2360001
-0.27589282 -0.18501034 1.2341334
-0.28064203 -0.1787874 1.2360001
-0.27623013 -0.17419097 1.234154
-0.27350715 -0.16554467 1.2342223
-0.26893327 -0.16092795 1.2320001
-0.27197355 -0.15928333 1.2360001
-0.26504263 -0.15491296 1.2340001
-0.25705269 -0.15012741 1.2320001
-0.25613996 -0.14484136 1.234286
-0.2525287 -0.13582683 1.2351112
-0.24501109 -0.13511507 1.2330002
-0.24235626 -0.12605415 1.2360001
-0.23829505 -0.12339158 1.233143
-0.23335272 -0.11601339 1.2342224
-0.2268112 -0.11124549 1.2320001
-0.22402647 -0.10687136 1.2345002
-0.21876808 -0.10271611 1.2333335
-0.21419947 -0.095198989 1.2340001
-0.2112942 -0.089935482 1.2360001
-0.20615228 -0.085053027 1.2333335
-0.20121428 -0.077888325 1.2340001
-0.19688882 -0.073561102 1.2340001
-0.19256158 -0.065988451 1.2340001
-0.18792927 -0.062643096 1.2320001
-0.18292177 -0.057364393 1.2346667
-0.17770383 -0.052010879 1.2360001
-0.053238206 -0.056362264 1.2337779
-0.044894099 -0.055710416 1.2340001
-0.037832551 -0.056207485 1.233
-0.17172848 -0.048602398 1.2320001
-0.16344105 -0.043655664 1.2346667
-0.15928333 -0.040091719 1.2360001
-0.15422672 -0.037202224 1.2360001
-0.14642999 -0.033091713 1.2336
-0.11232555 -0.031321548 1.2320001
-0.10408006 -0.032169726 1.2335002
-0.095323116 -0.031773906 1.2328001
-0.085324213 -0.031321548 1.2320001
-0.061563041 -0.031321548 1.2320001
-0.059467223 -0.034235585 1.2333335
-0.14194636 -0.02925612 1.2360001
-0.13549758 -0.026232496 1.2340001
-0.12420613 -0.027001332 1.2320001
-0.11352599 -0.026129341 1.2333335
-0.10871718 -0.028533747 1.2360001
-0.093186162 -0.02925612 1.2360001
-0.085473925 -0.027379246 1.234154
-0.075005382 -0.024167206 1.2324213
-0.064116977 -0.023369508 1.2332308
-0.059595801 -0.02817256 1.2360001
-0.11520733 -0.017075364 1.2328001
-0.073422588 -0.016053518 1.2346668
-0.066069543 -0.016516836 1.2355001
-0.075849198 -0.0097520398 1.2360001
-0.24696313 -0.27198583 1.2410001
-0.26088461 -0.26269785 1.2416668
-0.25784257 -0.26437023 1.2410001
-0.26357982 -0.25432396 1.24175
-0.26496485 -0.24521954 1.2425002
-0.26258597 -0.23542739 1.2428461
-0.25811958 -0.23197855 1.2423334
-0.26085654 -0.22811306 1.245
-0.25700313 -0.22504179 1.2427778
-0.24696313 -0.22955604 1.2410001
-0.26303944 -0.21210511 1.245
-0.25867364 -0.21829 1.245
-0.29541913 -0.20264585 1.245
-0.2852757 -0.20328888 1.2424546
-0.27524966 -0.20301025 1.2410001
-0.26496264 -0.20641467 1.2425001
-0.2929756 -0.19567801 1.2437693
-0.28786978 -0.19517703 1.2410001
-0.2922903 -0.18707453 1.245
-0.28570732 -0.18425579 1.2419412
-0.28373638 -0.17571352 1.2432222
-0.2815941 -0.1680833 1.245
-0.27801934 -0.1653554 1.2436666
-0.27177104 -0.15607736 1.245
-0.26631379 -0.152803 1.245
-0.26167235 -0.14540707 1.2444286
-0.25784257 -0.14034469 1.2410001
-0.26167235 -0.13480942 1.2444286
-0.25659919 -0.13381703 1.2410001
-0.24696313 -0.13272908 1.2410001
-0.26085654 -0.12988254 1.245
-0.25452301 -0.12671389 1.243
-0.24724743 -0.12463232 1.2424285
-0.24356283 -0.11614446 1.244
-0.23646347 -0.11223595 1.243
-0.23193312 -0.10750782 1.245
-0.22572376 -0.10359157 1.2438571
-0.22156435 -0.099321947 1.245
-0.21774428 -0.093864702 1.245
-0.2117413 -0.087315999 1.245
-0.20997307 -0.088123411 1.2410001
-0.20191824 -0.075310051 1.245
-0.19973534 -0.073127151 1.245
-0.19100375 -0.06221265 1.245
-0.18882085 -0.060029749 1.245
-0.029469149 -0.06221265 1.245
-0.1833636 -0.0545725 1.245
-0.052809961 -0.051718511 1.2420001
-0.045582287 -0.051802106 1.2421429
-0.03403892 -0.053666312 1.2436666
-0.17108238 -0.045765504 1.243
-0.16590039 -0.042566549 1.245
-0.054701868 -0.045666445 1.2444285
-0.043813918 -0.048491564 1.245
-0.037473116 -0.048387617 1.245
-0.16044314 -0.038200751 1.245
-0.1547676 -0.03514469 1.245
-0.14952865 -0.031652048 1.245
-0.055544723 -0.033764813 1.2423334
-0.14353701 -0.026649037 1.2444285
-0.13584943 -0.022155995 1.2430001
-0.12988254 -0.020737549 1.245
-0.10496254 -0.024767412 1.2428668
-0.095424436 -0.026353622 1.2440001
-0.084512047 -0.021943841 1.2427143
-0.079675846 -0.020737549 1.245
-0.056412838 -0.024257146 1.2435
-0.12728937 -0.018495036 1.2410001
-0.1113279 -0.0130974 1.245
-0.1079355 -0.017444497 1.2436666
-0.074104637 -0.013078114 1.243
-0.064227231 -0.011975091 1.2418001
-0.05778899 -0.015919391 1.2437999
-0.071432993 -0.007086535 1.244
-0.065204538 -0.0085038422 1.2437999
-0.28360331 -0.25199288 1.2576667
-0.27385181 -0.25343949 1.2515
-0.28316635 -0.24588503 1.2589999
-0.27524397 -0.24518286 1.2541668
-0.27396694 -0.23569979 1.2572144
-0.26753363 -0.233678 1.2514286
-0.27261966 -0.22515956 1.2589999
-0.26562482 -0.22530229 1.2529414
-0.28144944 -0.21081115 1.2590001
-0.2747288 -0.21416934 1.2577692
-0.26616347 -0.21609263 1.2525001
-0.3045496 -0.20330274 1.25525
-0.29477915 -0.20492084 1.25
-0.28495613 -0.20794095 1.2550001
-0.27432361 -0.20747779 1.25
-0.26847917 -0.20930417 1.25
-0.30416974 -0.19511075 1.2574
-0.29806668 -0.19505833 1.25
-0.30198899 -0.18572821 1.2578572
-0.29624093 -0.18437614 1.2534001
-0.29341549 -0.1763535 1.2573
-0.28801745 -0.1733354 1.253
-0.29027924 -0.16445479 1.2590001
-0.28508389 -0.16364391 1.2562002
-0.27889615 -0.16250551 1.2525001
-0.29027924 -0.15783243 1.2590001
-0.28371674 -0.15532504 1.2578572
-0.27518111 -0.15406339 1.2530627
-0.26774862 -0.15085973 1.25
-0.28227723 -0.14541554 1.2589999
-0.27550924 -0.14504012 1.2561768
-0.26715544 -0.14444311 1.2520001
-0.27488506 -0.13565618 1.2568827
-0.26728216 -0.13500996 1.2520834
-0.27217817 -0.12736967 1.2590001
-0.26508224 -0.12476265 1.2553127
-0.25708249 -0.1229525 1.25
-0.26192653 -0.11800284 1.2580001
-0.25482896 -0.11549192 1.2547224
-0.24708411 -0.11380447 1.25125
-0.25275263 -0.10871674 1.2590001
-0.24418873 -0.10556608 1.2565833
-0.23607953 -0.10387355 1.2531667
-0.22948723 -0.1010161 1.2525001
-0.23376861 -0.097348399 1.2590001
-0.2250697 -0.095353939 1.2538751
-0.21807083 -0.09095417 1.25
-0.2225842 -0.088665776 1.2590001
-0.21499638 -0.084931903 1.2555001
-0.20930417 -0.082187496 1.25
-0.21154697 -0.077628538 1.2590001
-0.20569788 -0.074895538 1.2547272
-0.20283575 -0.06666486 1.2584286
-0.19696985 -0.063254297 1.2539091
-0.031779166 -0.060270835 1.25
-0.0295875 -0.060270835 1.25
-0.19318894 -0.055573303 1.2578
-0.18685386 -0.05380892 1.2527143
-0.031779166 -0.051504165 1.25
-0.0295875 -0.056983329 1.25
-0.19094414 -0.049667548 1.2590001
-0.18442558 -0.045860406 1.2568752
-0.17626008 -0.044173732 1.2542943
-0.1676625 -0.041276388 1.25
-0.054755386 -0.044463176 1.2510769
-0.045344364 -0.043513101 1.251389
-0.035077825 -0.044452433 1.2531334
-0.029800531 -0.047460102 1.2590001
-0.18321806 -0.038630318 1.2590001
-0.17538261 -0.037502047 1.2581999
-0.16478905 -0.036126822 1.2565
-0.15663287 -0.032569043 1.2523333
-0.053117327 -0.035537049 1.2536666
-0.04705875 -0.036222193 1.2589999
-0.037526593 -0.038630318 1.2590001
-0.16077571 -0.029064715 1.2590001
-0.15358768 -0.027548533 1.2570908
-0.14623868 -0.023086667 1.2542
-0.13917083 -0.020820834 1.25
-0.10264305 -0.021551391 1.25
-0.09582454 -0.021794908 1.25
-0.088762499 -0.020820834 1.25
-0.052703004 -0.025254574 1.2525001
-0.049667548 -0.024649821 1.2590001
-0.14238031 -0.017659573 1.2590001
-0.13457309 -0.016344948 1.2552859
-0.12757429 -0.015392952 1.2545
-0.10390629 -0.014417408 1.2514286
-0.095472857 -0.016334636 1.2537334
-0.085639738 -0.016315861 1.2550834
-0.079587966 -0.015363364 1.25225
-0.053099018 -0.015013305 1.2532222
-0.11364479 -0.0056869355 1.2564999
-0.10658297 -0.0070351828 1.2573847
-0.098231375 -0.0099335099 1.2590001
-0.073151983 -0.0040195165 1.2516667
-0.064101867 -0.0034347801 1.2506667
-0.05643272 -0.0060030762 1.2546923
-0.072614297 0.0011002166 1.2550001
-0.065014474 0.0019297627 1.2570001
-0.058497336 0.0011037233 1.2590001
-0.29239643 -0.24573901 1.2671111
-0.28607035 -0.24342227 1.2653334
-0.28260866 -0.23485608 1.2666665
-0.27813476 -0.2327024 1.2640001
-0.28197923 -0.2245459 1.268
-0.27730367 -0.22411458 1.2640001
-0.29143205 -0.21164837 1.2640001
-0.28443557 -0.21516065 1.2664
-0.27702665 -0.218297 1.2640001
-0.31217837 -0.19407034 1.2650001
-0.30842301 -0.19391866 1.2640001
-0.31014013 -0.18563943 1.268
-0.30656099 -0.18511812 1.2644445
-0.30235881 -0.17896974 1.268
-0.2970725 -0.17461504 1.266
-0.30235881 -0.16118394 1.268
-0.29568693 -0.16433612 1.2658181
-0.3031925 -0.15645957 1.268
-0.2948131 -0.15448496 1.2656469
-0.28847709 -0.15254936 1.2640001
-0.29013109 -0.14562134 1.268
-0.28675562 -0.14440605 1.2657144
-0.28273815 -0.13512501 1.266
-0.28123817 -0.12783553 1.268
-0.27550766 -0.12478793 1.2658181
-0.26926991 -0.12078363 1.2640001
-0.27123368 -0.1167194 1.268
-0.26481557 -0.1140973 1.2656666
-0.25818884 -0.11191877 1.2640001
-0.26122913 -0.10782649 1.268
-0.25474322 -0.10562291 1.2656
-0.24755101 -0.10261068 1.2640001
-0.24311617 -0.097530417 1.2662858
-0.234777 -0.09293557 1.2655385
-0.22937807 -0.09197285 1.2640001
-0.23010395 -0.087817453 1.268
-0.22407483 -0.084858418 1.2653333
-0.21755826 -0.081630528 1.2640001
-0.22121105 -0.078924544 1.268
-0.2148158 -0.074193761 1.2663332
-0.20943215 -0.072026931 1.2640001
-0.21065073 -0.066140994 1.268
-0.20662214 -0.064682417 1.2648889
-0.20173152 -0.056260958 1.2666668
-0.19771695 -0.053215418 1.2646667
-0.19441195 -0.046242416 1.2659999
-0.18893218 -0.042662106 1.2640001
-0.029918879 -0.040999945 1.2640001
-0.19008587 -0.036683239 1.268
-0.18506402 -0.03539693 1.2654544
-0.17486642 -0.032001033 1.2655385
-0.16776736 -0.03302158 1.2640001
-0.043273728 -0.033283815 1.2656666
-0.034411419 -0.034411084 1.2662855
-0.027790334 -0.035571627 1.268
-0.17452331 -0.027790334 1.268
-0.16435137 -0.0252307 1.2661332
-0.15605251 -0.02278515 1.2644445
-0.046758395 -0.027422633 1.2657143
-0.038906466 -0.027790334 1.268
-0.16229555 -0.018897427 1.268
-0.15381995 -0.016865471 1.2672727
-0.14488244 -0.014104814 1.2657143
-0.13380317 -0.011315311 1.2656
-0.12763214 -0.011096846 1.266
-0.09418907 -0.012189173 1.2640001
-0.085368045 -0.012194433 1.2646667
-0.049864799 -0.016621599 1.2640001
-0.1411749 -0.0077812932 1.268
-0.13505536 -0.008262096 1.2662224
-0.12363104 -0.0062921289 1.2666668
-0.11755311 -0.00221709 1.265
-0.1032652 -0.0038786659 1.2643334
-0.094944842 -0.0058983974 1.2663157
-0.085015275 -0.0082108602 1.2659999
-0.07810048 -0.0062909597 1.2666668
-0.052784853 -0.0045952364 1.2657143
-0.11280596 0.0020634229 1.2668571
-0.10412111 0.0022232267 1.268
-0.071585096 0.00610686 1.266
-0.064992882 0.0059457128 1.2643636
-0.055739816 0.0043542008 1.2658461
-0.070031643 0.010004519 1.268
-0.065214656 0.010745595 1.268
-0.057803892 0.010004519 1.268
-0.29630959 -0.24268588 1.2742499
-0.30138221 -0.23864093 1.2780001
-0.29449183 -0.23645227 1.2765714
-0.28820613 -0.2346383 1.2729999
-0.29204571 -0.22556983 1.278
-0.28705916 -0.2253073 1.2729999
-0.2937524 -0.21679124 1.276
-0.28848514 -0.21817735 1.273
-0.31677142 -0.19202805 1.275
-0.31365293 -0.18617725 1.2755001
-0.30913109 -0.18190746 1.273
-0.30442053 -0.17449142 1.2748749
-0.30477291 -0.16592048 1.2741538
-0.3110238 -0.1568117 1.2746667
-0.30579123 -0.15395989 1.2734544
-0.29685509 -0.15065955 1.273
-0.30328101 -0.1455911 1.2774999
-0.29575852 -0.14433564 1.275
-0.29279 -0.13625203 1.2774444
-0.28697208 -0.13415228 1.2737142
-0.28430039 -0.12592001 1.27675
-0.27788317 -0.12164363 1.273
-0.28121537 -0.11988066 1.2780001
-0.27507389 -0.1151699 1.2754999
-0.26821122 -0.11122767 1.273
-0.27113196 -0.10867686 1.2780001
-0.26363507 -0.10522749 1.2757272
-0.25500524 -0.1021137 1.273
-0.26104853 -0.099713817 1.2780001
-0.25519788 -0.098495916 1.27675
-0.24584025 -0.094530202 1.276125
-0.23770729 -0.090395726 1.273
-0.23401704 -0.085460268 1.2759999
-0.22803532 -0.082211755 1.273
-0.23191866 -0.079546981 1.2780001
-0.22504242 -0.07559704 1.2762144
-0.21929336 -0.073655784 1.273
-0.22146177 -0.067596264 1.2780001
-0.21544458 -0.064560525 1.2757272
-0.21231201 -0.057699572 1.2780001
-0.2066016 -0.05424935 1.2749231
-0.20319858 -0.045167718 1.2774444
-0.19753142 -0.042965874 1.273
-0.20054802 -0.0392133 1.2780001
-0.1943558 -0.035000853 1.2762142
-0.18562745 -0.030875906 1.2729999
-0.031247906 -0.03013191 1.273
-0.026834328 -0.032431845 1.2755001
-0.19158497 -0.0280095 1.2780001
-0.18430842 -0.025367886 1.27675
-0.17457834 -0.023614027 1.2733846
-0.16851549 -0.022319933 1.273
-0.044540804 -0.023666494 1.2754999
-0.03407025 -0.025271203 1.2756666
-0.027539432 -0.023954216 1.2770001
-0.18038118 -0.019046459 1.2780001
-0.17375787 -0.017287087 1.2768888
-0.16504721 -0.013951043 1.276158
-0.1554942 -0.012287519 1.2743635
-0.14731157 -0.01004397 1.273
-0.050219849 -0.011159967 1.273
-0.048176341 -0.019046459 1.2780001
-0.026482055 -0.015292865 1.2763335
-0.16133472 -0.00784266 1.2780001
-0.1530439 -0.006946356 1.2780001
-0.14529565 -0.0040515149 1.2761251
-0.13552383 -0.0037609802 1.2757272
-0.12579729 -0.003073374 1.2754999
-0.092069723 -0.0016739948 1.273
-0.084982313 -0.0033523729 1.2754999
-0.079391375 -0.0022341849 1.2755001
-0.050219849 -0.0044639865 1.273
-0.14340864 0.00112038 1.2780001
-0.13668635 0.00112038 1.2780001
-0.1232418 0.00112038 1.2780001
-0.11513001 0.0053664269 1.2749999
-0.10520929 0.0058093187 1.2739999
-0.096412294 0.0031722186 1.2763332
-0.051029596 0.0052167512 1.2746667
-0.112038 0.01008342 1.2780001
-0.10443146 0.01081719 1.2763333
-0.063739367 0.015209553 1.2754999
-0.056370791 0.014374203 1.2751428
-0.31051534 -0.23373336 1.2880001
-0.30258092 -0.2350045 1.2846667
-0.29779032 -0.23248827 1.28425
-0.30148217 -0.22357103 1.2880001
-0.29770783 -0.22481237 1.2857778
-0.30148217 -0.21792531 1.2880001
-0.31830803 -0.19008501 1.2830001
-0.31268421 -0.18221167 1.2830001
-0.30638555 -0.14396971 1.2830001
-0.30184481 -0.13795255 1.2863334
-0.29614338 -0.1330293 1.2844286
-0.29222193 -0.1270411 1.2870001
-0.28658828 -0.12314466 1.2840002
-0.28229776 -0.11577376 1.2863334
-0.27835786 -0.11269331 1.2855
-0.27385008 -0.10668287 1.2855
-0.26743612 -0.10206135 1.2850001
-0.26243526 -0.095449537 1.2870001
-0.25556746 -0.093722843 1.2852727
-0.24712774 -0.09175697 1.28425
-0.24325554 -0.085520931 1.2870001
-0.23840985 -0.083519682 1.284
-0.2336406 -0.075699821 1.2850001
-0.22757711 -0.071609937 1.2830001
-0.23147507 -0.068877943 1.2880001
-0.22539406 -0.065363824 1.2855
-0.21932885 -0.061861984 1.2830001
-0.22168912 -0.058339242 1.2880001
-0.21518731 -0.054741856 1.2839092
-0.21225338 -0.045943145 1.2861251
-0.20718141 -0.043415867 1.2830001
-0.21115042 -0.039520133 1.2880001
-0.2050177 -0.035193164 1.2853531
-0.19852072 -0.032055754 1.2830001
-0.2032464 -0.028228667 1.2880001
-0.1948757 -0.025039084 1.2849231
-0.18671072 -0.022495268 1.2830001
-0.035992425 -0.021370504 1.2830001
-0.025869556 -0.02362003 1.2830001
-0.19082579 -0.019195493 1.2880001
-0.18425824 -0.017184421 1.2855
-0.1760515 -0.012606116 1.2840002
-0.16983926 -0.01012287 1.2830001
-0.044857927 -0.014396436 1.2843161
-0.034323882 -0.016031947 1.2860558
-0.02766918 -0.015521735 1.2830001
-0.1732118 -0.0062821931 1.2865715
-0.16536842 -0.0054240958 1.2848182
-0.15578997 -0.003600996 1.2840002
-0.13272208 -0.0011247633 1.2830001
-0.12934779 -0.0011247633 1.2830001
-0.085482016 -0.0011247633 1.2830001
-0.047094755 -0.0053568715 1.2867501
-0.03048696 -0.0079040267 1.2880001
-0.15308894 0.0037630918 1.2871667
-0.14548223 0.0053478312 1.2839377
-0.13479801 0.0049886093 1.2844287
-0.12570594 0.0052110711 1.2845627
-0.11810015 0.0078733433 1.2830001
-0.093726404 0.0064750602 1.28425
-0.085176297 0.0038370532 1.2863334
-0.078397885 0.002821771 1.2867501
-0.048553307 0.0045165867 1.2880001
-0.1524348 0.01016232 1.2880001
-0.1438387 0.011914387 1.2874446
-0.13625036 0.010915085 1.2880001
-0.12430044 0.010801911 1.2872858
-0.11598212 0.012066065 1.2844287
-0.10020147 0.013513598 1.28425
-0.095439687 0.013382819 1.2872858
-0.089202583 0.01016232 1.2880001
-0.066361032 0.018371135 1.2830001
-0.051929835 0.015893575 1.2846667
-0.048553307 0.011291467 1.2880001
-0.063454226 0.02397245 1.2867501
-0.055568926 0.024408592 1.2849447
-0.048553307 0.021453787 1.2880001
-0.059844773 0.03048696 1.2880001
-0.31147966 -0.23219393 1.2920001
-0.30658993 -0.23249201 1.2936667
-0.31183866 -0.22543053 1.2934999
-0.30583218 -0.22596958 1.2934285
-0.30450416 -0.2172329 1.2928333
-0.31041101 -0.1398555 1.2970001
-0.30437467 -0.13525964 1.2934285
-0.29788783 -0.13025513 1.2920001
-0.29420519 -0.12470912 1.2932501
-0.28882658 -0.12119391 1.2920001
-0.29221842 -0.11938885 1.2970001
-0.28680345 -0.11409036 1.2942222
-0.28256121 -0.10756861 1.2961668
-0.27576733 -0.10355187 1.2945
-0.27216056 -0.098037057 1.2953334
-0.26684517 -0.094712988 1.293875
-0.25484699 -0.091744922 1.2920001
-0.26304832 -0.086755328 1.2964444
-0.2543585 -0.086056232 1.2943685
-0.24702965 -0.082772613 1.2934285
-0.24400176 -0.076114245 1.2958889
-0.23763378 -0.072913386 1.2928333
-0.23468611 -0.065080531 1.2959286
-0.22766332 -0.061729606 1.2920001
-0.23081844 -0.056851834 1.2970001
-0.22450994 -0.054603029 1.2951818
-0.21860209 -0.052102052 1.2920001
-0.22248018 -0.04813455 1.2970001
-0.21734533 -0.044893973 1.2941428
-0.21373869 -0.036046673 1.295125
-0.20840821 -0.03058164 1.2920001
-0.21035178 -0.028425917 1.2970001
-0.20416789 -0.025135282 1.2948571
-0.19708169 -0.021520413 1.2920001
-0.20125549 -0.019329622 1.2970001
-0.19481549 -0.017322276 1.29575
-0.18544538 -0.012731343 1.2942222
-0.03673033 -0.011164725 1.2919999
-0.1811831 -0.0062460313 1.29575
-0.17502825 -0.00302187 1.2936667
-0.16552848 -0.0011337493 1.2932501
-0.15970412 -0.0011326533 1.2920001
-0.043344263 -0.0036816713 1.292625
-0.036084477 -0.0048285699 1.2963752
-0.17169254 0.0011370367 1.2970001
-0.16477253 0.0041094762 1.2962308
-0.15769053 0.0046564639 1.2919999
-0.08381635 0.0079285735 1.2920001
-0.076939479 0.007201232 1.2970001
-0.045082483 0.0041686478 1.2964444
-0.15630616 0.01019388 1.2920001
-0.14525358 0.013624715 1.2945001
-0.1348563 0.014943953 1.2945
-0.12568907 0.015004443 1.2942222
-0.092651047 0.017442862 1.2920001
-0.086380862 0.014364958 1.2955295
-0.075044416 0.01212839 1.2970001
-0.069091856 0.019255107 1.2920001
-0.047041051 0.015006877 1.2947778
-0.094249845 0.021575935 1.2953334
-0.067334868 0.025346333 1.2945
-0.052102052 0.028316334 1.2920001
-0.047661297 0.023831744 1.2945001
-0.062758557 0.032922093 1.2948571
-0.056227427 0.031238921 1.29575
-0.32073903 -0.14039466 1.302
-0.31738752 -0.14093381 1.307
-0.3116585 -0.13749641 1.307
-0.30590057 -0.13240471 1.302
-0.30133867 -0.12838168 1.3036667
-0.29733902 -0.12236425 1.3045001
-0.29268843 -0.11377681 1.3034286
-0.29162097 -0.1074973 1.3045001
-0.28622249 -0.10455184 1.3042223
-0.27964789 -0.10158638 1.302
-0.28301343 -0.098921023 1.307
-0.27493823 -0.094692513 1.3042728
-0.27155539 -0.087081052 1.307
-0.26620728 -0.083687909 1.3032501
-0.2583414 -0.081801765 1.302
-0.26238897 -0.079060428 1.307
-0.25343108 -0.076370053 1.3051251
-0.24768814 -0.0741923 1.302
-0.24401489 -0.065820262 1.3041428
-0.23779583 -0.061256211 1.302
-0.2417645 -0.057290167 1.307
-0.23588157 -0.054519027 1.3034285
-0.22866447 -0.052124847 1.302
-0.23351471 -0.047894578 1.307
-0.22565794 -0.044409607 1.3037857
-0.22200386 -0.036997963 1.3053335
-0.21752936 -0.033522561 1.3036667
-0.21271177 -0.02458217 1.3045001
-0.207214 -0.022616774 1.3030001
-0.21197362 -0.019478656 1.307
-0.20492542 -0.016916839 1.305889
-0.19484305 -0.01256536 1.3031112
-0.1883343 -0.01027278 1.302
-0.1934194 -0.0054941578 1.3055001
-0.18598177 -0.0039978921 1.3028334
-0.17806152 -0.00114142 1.302
-0.032340232 -0.0019023666 1.302
-0.028608555 -0.0034301046 1.3053335
-0.18791175 0.0011458034 1.307
-0.1758239 0.0020563095 1.3040001
-0.16778874 0.0057071 1.302
-0.041380771 0.0061741881 1.3040001
-0.035471685 0.0037403281 1.3053334
-0.028645083 0.0034374099 1.307
-0.13297543 0.018833429 1.302
-0.12593667 0.018643193 1.302
-0.1198491 0.0171213 1.302
-0.082153812 0.016499743 1.304143
-0.075710759 0.016446199 1.3039231
-0.04276932 0.01441126 1.3045001
-0.033228297 0.01031223 1.307
-0.092920095 0.024876291 1.3045001
-0.085851967 0.02346815 1.30575
-0.072949477 0.022534132 1.307
-0.069626622 0.027394079 1.302
-0.046545364 0.024987629 1.304143
-0.066426069 0.035029128 1.3042728
-0.054285388 0.035241265 1.3036667
-0.049269542 0.034374099 1.307
-0.06454692 0.040866986 1.307
-0.05614436 0.040103115 1.307
-0.31783494 -0.14300655 1.312
-0.32090208 -0.13917258 1.312
-0.31518358 -0.13645025 1.3153334
-0.3094002 -0.13227147 1.312
-0.30451652 -0.1253195 1.3145001
-0.30134276 -0.11661157 1.317
-0.29818219 -0.11512496 1.3132501
-0.29456413 -0.1045877 1.3142223
-0.28869686 -0.10121642 1.312
-0.29210621 -0.098138452 1.317
-0.28552714 -0.09524329 1.3147275
-0.27892026 -0.092590027 1.312
-0.28113776 -0.087170042 1.317
-0.27527797 -0.084497437 1.3138185
-0.27317125 -0.078741677 1.317
-0.26517138 -0.076667666 1.3151251
-0.25628418 -0.072852865 1.313875
-0.25252941 -0.065339424 1.3153334
-0.24805693 -0.063260265 1.312
-0.25054169 -0.057728499 1.317
-0.24582502 -0.054829538 1.3140001
-0.24253821 -0.045992661 1.3153335
-0.23544192 -0.043691795 1.3147274
-0.22888714 -0.040256534 1.312
-0.23351178 -0.035214383 1.317
-0.22661556 -0.033599205 1.3133638
-0.2234093 -0.026843751 1.317
-0.21663609 -0.02615322 1.3134288
-0.21048416 -0.017252799 1.312
-0.20422359 -0.012665204 1.3136668
-0.1989823 -0.01035168 1.312
-0.20320432 -0.0080819903 1.317
-0.1989823 -0.0080513069 1.312
-0.1850518 0.0027970674 1.3134286
-0.17578849 0.005299625 1.314
-0.03258862 0.007284516 1.312
-0.027940596 0.00577285 1.317
-0.040908337 0.017287865 1.3145
-0.035301495 0.014385167 1.3160001
-0.026555112 0.015009411 1.317
-0.093520164 0.02886425 1.317
-0.084042527 0.027056782 1.3132502
-0.0765775 0.025940295 1.3127694
-0.04346031 0.025385199 1.3161668
-0.038100809 0.02193683 1.317
-0.02770968 0.02193683 1.317
-0.093520164 0.031173388 1.317
-0.084745444 0.031635217 1.317
-0.075093009 0.034252115 1.3148574
-0.045081947 0.03441339 1.3124547
-0.071583338 0.04387366 1.317
-0.064391755 0.043144085 1.3142225
-0.055000566 0.044958722 1.3148572
-0.047500491 0.044128299 1.3166155
-0.32059437 -0.1370642 1.325
-0.3160415 -0.1330559 1.3244001
-0.31223756 -0.12617119 1.3265001
-0.30835989 -0.1241921 1.324
-0.31084496 -0.11758555 1.3280001
-0.30567065 -0.11564132 1.32575
-0.30252519 -0.10471804 1.3272501
-0.297851 -0.10198789 1.322
-0.30153126 -0.098958135 1.3280001
-0.29491171 -0.0952067 1.3243999
-0.28742042 -0.091557309 1.322
-0.29221755 -0.087315999 1.3280001
-0.28644076 -0.0852139 1.3255001
-0.28182083 -0.074872769 1.3262
-0.27506346 -0.074077085 1.3262857
-0.26484495 -0.07201685 1.325
-0.26194799 -0.067524374 1.3280001
-0.25679344 -0.064154714 1.3237144
-0.25432587 -0.055243444 1.322
-0.25226548 -0.049062356 1.322
-0.24685706 -0.044941638 1.322
-0.23874438 -0.040563367 1.322
-0.23758543 -0.038245458 1.322
-0.1912273 0.0057947668 1.322
-0.18543252 0.0057947668 1.322
-0.032450691 0.018543255 1.322
-0.028311575 0.015066394 1.3219999
-0.098511033 0.028973833 1.322
-0.041142844 0.027235404 1.322
-0.03459046 0.025771193 1.3240001
-0.028973833 0.025496975 1.322
-0.10105775 0.032526962 1.325
-0.09516599 0.035173621 1.3252728
-0.086186223 0.036185615 1.3236365
-0.079195149 0.037472825 1.322
-0.04102695 0.035000388 1.322
-0.036672719 0.032015868 1.3280001
-0.082193464 0.041678838 1.3280001
-0.074057296 0.044648044 1.324
-0.064901389 0.04867604 1.322
-0.056016076 0.049834993 1.322
-0.043195341 0.045805614 1.3227501
-0.072181225 0.052389599 1.3280001
-0.064031735 0.053941887 1.3280001
-0.054648183 0.055815902 1.3263334
-0.047004364 0.05398513 1.3262857
-0.052971706 0.062285416 1.3280001
-0.047732748 0.061703306 1.3280001
-0.050061174 0.089644425 1.3280001
-0.046568532 0.095465496 1.3280001
-0.046465963 0.10105775 1.325
-0.32313833 -0.13346767 1.3355001
-0.32100555 -0.12550886 1.3379999
-0.3160558 -0.12448531 1.3339092
-0.31467792 -0.11447433 1.336182
-0.30889904 -0.11335388 1.3330001
-0.31289244 -0.10703443 1.3380002
-0.30780834 -0.10447254 1.3330001
-0.3048279 -0.095589988 1.3344287
-0.29799214 -0.092319138 1.3330001
-0.29554412 -0.084996559 1.3342501
-0.28864336 -0.080633171 1.3330001
-0.29098058 -0.078295976 1.3330001
-0.28708521 -0.077516913 1.3330001
-0.27462822 -0.066099256 1.3353333
-0.26590899 -0.065110691 1.3342501
-0.26484913 -0.059766091 1.33675
-0.25825986 -0.059598431 1.3330001
-0.10204926 0.03636238 1.3380001
-0.098348409 0.038636014 1.3355
-0.036638677 0.036250606 1.3338333
-0.09346354 0.04193132 1.3360001
-0.085200079 0.044710524 1.3350002
-0.078295976 0.047912464 1.3330001
-0.040900882 0.040900882 1.3330001
-0.03870834 0.042227283 1.3380001
-0.073714614 0.055772755 1.3346667
-0.066193417 0.057305951 1.3340001
-0.059598431 0.059598431 1.3330001
-0.072333761 0.062949926 1.3379999
-0.065386824 0.065390326 1.3366667
-0.055415414 0.066235892 1.3342501
-0.047912464 0.065441415 1.3330001
-0.063575514 0.073428549 1.3380001
-0.056303039 0.07272476 1.3380002
-0.053957082 0.083281577 1.3380001
-0.051939283 0.09333197 1.3363334
-0.33231714 -0.13127118 1.3490001
-0.32769945 -0.13147223 1.3430001
-0.33231714 -0.12654069 1.3490001
-0.32653397 -0.12513399 1.3466001
-0.32246763 -0.11629422 1.3454001
-0.31906545 -0.11184952 1.3430001
-0.11471447 0.028974272 1.3490001
-0.10949479 0.029434083 1.3430001
-0.11376838 0.03334998 1.3490001
-0.1068015 0.035099741 1.3468182
-0.034143537 0.03885299 1.3430001
-0.10116237 0.042118866 1.3470001
-0.09460073 0.045698006 1.3464286
-0.087322131 0.048379727 1.3460001
-0.035123214 0.043982364 1.34675
-0.028382961 0.042574439 1.3490001
-0.091061994 0.050852802 1.3490001
-0.084536843 0.05180186 1.3472859
-0.078482881 0.05491668 1.3442
-0.082652241 0.064518675 1.3490001
-0.076354913 0.065813996 1.3454002
-0.069464438 0.069464438 1.3430001
-0.081601009 0.073322646 1.3490001
-0.075634412 0.072874956 1.348
-0.065912589 0.076427996 1.3443847
-0.054158714 0.077705979 1.3430002
-0.063335665 0.084785059 1.3485717
-0.055122018 0.084663123 1.3430003
-0.061890621 0.09263882 1.3490001
-0.05595956 0.094441548 1.3466002
-0.05651344 0.10125326 1.3430001
-0.34431171 -0.12152178 1.3590001
-0.33605751 -0.12376103 1.3562728
-0.32880086 -0.12226169 1.3540001
-0.34465212 -0.11386283 1.3590001
-0.33467272 -0.11624914 1.3577501
-0.32737646 -0.11656405 1.3540001
-0.12152178 0.02621058 1.3590001
-0.11870067 0.028488159 1.3540001
-0.1156468 0.036571685 1.3565001
-0.10841649 0.039315868 1.3590001
-0.11318205 0.04169865 1.3590001
-0.10465165 0.044000339 1.3565001
-0.09638717 0.048787087 1.3573335
-0.035401732 0.048228413 1.3550001
-0.027894657 0.048073769 1.3540001
-0.095724106 0.052536253 1.3575716
-0.085624471 0.056488015 1.3565001
-0.045187347 0.057083711 1.3565001
-0.035741702 0.051229771 1.3590001
-0.02621058 0.051229771 1.3590001
-0.08732003 0.064478651 1.3570001
-0.084403716 0.072989166 1.3560002
-0.076110885 0.076903686 1.3565
-0.070033394 0.081903458 1.3540001
-0.067659378 0.087838493 1.3540001
-0.065076143 0.095963627 1.3551112
-0.062054675 0.10247252 1.3560002
-0.057186719 0.10603371 1.3590001
-0.34583184 -0.1220583 1.365
-0.34391719 -0.11655371 1.365
-0.33785418 -0.11447952 1.3650001
-0.12534909 0.026625464 1.3649999
-0.14240135 0.037096146 1.3650001
-0.12445159 0.036241401 1.3649999
-0.11846835 0.039489448 1.365
-0.14240135 0.043079399 1.365
-0.12397294 0.043797392 1.3649999
-0.11476961 0.045799062 1.3649999
-0.10650186 0.047695048 1.3649999
-0.11208621 0.052253712 1.3650001
-0.10466086 0.054401543 1.3649999
-0.095731996 0.057439201 1.3649999
-0.089748748 0.05863585 1.365
-0.04188275 0.05384925 1.365
-0.035899498 0.05384925 1.365
-0.02752295 0.05384925 1.3650001
-0.094269425 0.063688368 1.3649999
-0.089748748 0.064220212 1.3650001
-0.092142053 0.07060235 1.365
-0.088252932 0.075089797 1.3649999
-0.084064655 0.081671357 1.3649999
-0.073648371 0.08409185 1.3649999
-0.087355457 0.094535351 1.3650001
-0.072197884 0.09559904 1.3649999
-0.068209052 0.099321947 1.365
-0.08735545 0.10410855 1.365
-0.071200676 0.10351022 1.365
-0.065283902 0.1057041 1.3649999
-0.057439201 0.10889515 1.365
-0.061029151 0.11128845 1.365
-0.05863585 0.11128845 1.365
-0.33869138 -0.1116961 1.3700001
-0.15199296 0.026538452 1.376
-0.14421007 0.025802577 1.3754002
-0.134912 0.025294462 1.3740001
-0.12851056 0.024020666 1.3700001
-0.16164331 0.039807681 1.376
-0.15304975 0.035549067 1.3732001
-0.14428312 0.034714688 1.3715003
-0.13457516 0.034843121 1.3706003
-0.12851056 0.034829967 1.3700001
-0.16440056 0.045322154 1.3760002
-0.15394844 0.045240257 1.3734286
-0.14413117 0.045762405 1.3709232
-0.13451575 0.045639273 1.3700002
-0.12570816 0.048441678 1.37
-0.11770126 0.049242366 1.3700001
-0.15319926 0.051870614 1.376
-0.1438747 0.054461405 1.3749093
-0.13488393 0.055403359 1.37375
-0.12518099 0.055373773 1.3730004
-0.11602522 0.0559339 1.3709233
-0.10849335 0.058049943 1.3700002
-0.042128213 0.05777847 1.3730001
-0.034874678 0.057726927 1.3717999
