# .PCD v0.7 - Point Cloud Data file format
VERSION 0.7
FIELDS x y z
SIZE 4 4 4
TYPE F F F
COUNT 1 1 1
WIDTH 1460
HEIGHT 1
VIEWPOINT 0 0 0 1 0 0 0
POINTS 1460
DATA ascii
-0.14495239 0.0054278825 1.0120627
-0.13551331 0.0055412822 1.0150297
-0.12838362 0.0087487828 1.0184
-0.32114974 0.01339985 1.0190001
-0.31502983 0.015240337 1.0175003
-0.30461273 0.015186263 1.0148003
-0.29484588 0.015264798 1.0115792
-0.2879872 0.017044591 1.0100001
-0.1331712 0.013615673 1.0101876
-0.12585695 0.015523346 1.0134287
-0.31296095 0.021737536 1.0190001
-0.30462182 0.023608971 1.0176156
-0.29472131 0.024813326 1.0169313
-0.28523892 0.024743672 1.0140347
-0.27517942 0.026645407 1.0115654
-0.26496637 0.027509974 1.0122001
-0.25659859 0.028510952 1.01
-0.2417233 0.0292193 1.01
-0.22445735 0.028776582 1.0100001
-0.21870203 0.0292193 1.01
-0.20807683 0.0292193 1.01
-0.13237227 0.028776582 1.01
-0.12364899 0.025096742 1.0113847
-0.11653376 0.02631334 1.0167828
-0.29211673 0.031266317 1.0190001
-0.28434122 0.033721913 1.0181667
-0.27522507 0.033903815 1.0176501
-0.26522923 0.034440465 1.0168892
-0.2547878 0.034881018 1.0142225
-0.24499208 0.034581941 1.0132226
-0.23512627 0.03569153 1.0131366
-0.22450522 0.03457173 1.0110716
-0.21492872 0.035429399 1.0110648
-0.20521447 0.034528058 1.011552
-0.1950382 0.035080947 1.0108752
-0.18499124 0.036845103 1.0112002
-0.17510563 0.036563706 1.0107828
-0.1648304 0.037887231 1.0100001
-0.15448117 0.03834131 1.0108001
-0.14464147 0.036432859 1.0108335
-0.13485104 0.034752335 1.0126899
-0.12489317 0.034710277 1.015036
-0.11554375 0.033478428 1.0175791
-0.27295047 0.045960665 1.0187693
-0.26608273 0.045049015 1.0190001
-0.2549668 0.044696964 1.0190005
-0.24479488 0.044775367 1.0185719
-0.23518313 0.042357229 1.0177648
-0.22365172 0.043870881 1.0177503
-0.21476306 0.045275249 1.0171542
-0.20569943 0.04427626 1.0176877
-0.19482668 0.043355364 1.0178752
-0.18475847 0.045076549 1.0181253
-0.17508039 0.04542366 1.0172004
-0.16512159 0.044957768 1.0153753
-0.15548295 0.044650633 1.0168753
-0.14497223 0.042541713 1.0180001
-0.13517554 0.041859739 1.018625
-0.12738791 0.041807532 1.0190001
-0.29181895 0.058661565 1.0190001
-0.28437084 0.05595272 1.0180771
-0.274764 0.055017304 1.0149359
-0.26524344 0.054842234 1.0138713
-0.25511229 0.052696288 1.0131668
-0.24441828 0.052774366 1.0138572
-0.23499733 0.05448053 1.0149202
-0.22444846 0.055406708 1.0141003
-0.21489055 0.055048347 1.0129066
-0.20505986 0.055110559 1.0140835
-0.19527964 0.055966351 1.0156003
-0.18496175 0.056124598 1.0176252
-0.17514722 0.055274379 1.0190005
-0.16794479 0.055386044 1.0190001
-0.2917594 0.062353969 1.0190001
-0.28440937 0.063386694 1.0183572
-0.27506465 0.064985149 1.0154003
-0.26521957 0.064754337 1.0118003
-0.25494128 0.06664151 1.0101876
-0.24592909 0.067735642 1.0100001
-0.21673441 0.065817207 1.0100001
-0.20276423 0.061537612 1.01
-0.19542778 0.061347879 1.0100001
-0.18379414 0.061560299 1.010375
-0.17431284 0.06390129 1.0136253
-0.1645741 0.065411218 1.013621
-0.15678293 0.06680502 1.0161502
-0.27392542 0.072359197 1.0190001
-0.26481679 0.071969643 1.0170714
-0.25464374 0.073886938 1.0172696
-0.24520843 0.075101927 1.0163219
-0.23494911 0.07521677 1.0142415
-0.22470115 0.075883366 1.015679
-0.21485852 0.075472452 1.0127503
-0.20542119 0.075933665 1.0122802
-0.19518195 0.076892428 1.0120003
-0.18523878 0.077110723 1.0110002
-0.17546338 0.077475406 1.0100001
-0.16318016 0.076511852 1.0100001
-0.15406987 0.074899383 1.0116366
-0.14506269 0.075811528 1.0165361
-0.13801846 0.078165792 1.0190001
-0.24209063 0.081292421 1.0190001
-0.23494403 0.082855739 1.0190001
-0.2224375 0.081292421 1.0190001
-0.21443543 0.081768699 1.0185715
-0.20539564 0.082391895 1.0190001
-0.19413276 0.083047152 1.0186
-0.18468139 0.083560005 1.0172002
-0.17491201 0.083859257 1.0155911
-0.16492757 0.083651252 1.0145655
-0.15519015 0.084149085 1.0169233
-0.1447401 0.083803624 1.0183481
-0.13667847 0.08307907 1.0190001
-0.27277088 -0.17137825 1.0235001
-0.26878601 -0.17112708 1.0220001
-0.28119415 -0.16266498 1.0274
-0.27408659 -0.16465428 1.0231428
-0.26878601 -0.16843922 1.0220001
-0.28197688 -0.15495312 1.027625
-0.27616552 -0.15563013 1.0230001
-0.14156061 -0.15499993 1.0220001
-0.13530153 -0.15410239 1.0231998
-0.28203142 -0.14467748 1.024
-0.27828309 -0.14424849 1.0220001
-0.13442175 -0.14548159 1.0240526
-0.28295431 -0.13551678 1.0269411
-0.27657032 -0.13700376 1.0245385
-0.14218077 -0.1321398 1.0226002
-0.1324299 -0.13542274 1.0230002
-0.12828632 -0.13386753 1.0261999
-0.13421738 -0.12574236 1.0236799
-0.1287121 -0.12655394 1.0253
-0.29469675 -0.11625652 1.028
-0.15140384 -0.11175045 1.028
-0.14689778 -0.11084924 1.028
-0.13157713 -0.11986137 1.028
-0.28027734 -0.10003468 1.028
-0.27547085 -0.10143656 1.028
-0.16441628 -0.10197134 1.0273333
-0.1539018 -0.1046776 1.0277272
-0.14521965 -0.10438536 1.028
-0.13529465 -0.10172445 1.028
-0.12523158 -0.10180739 1.0276999
-0.11986137 -0.10273832 1.028
-0.30280769 -0.091022544 1.028
-0.29389086 -0.092077449 1.0276999
-0.28440848 -0.094331987 1.0263749
-0.27510434 -0.094007924 1.0251199
-0.26489601 -0.09379974 1.0267999
-0.25510705 -0.094437465 1.027423
-0.24546424 -0.092548504 1.0277857
-0.2373796 -0.091743514 1.028
-0.21839404 -0.092224158 1.028
-0.18114388 -0.091022544 1.028
-0.17393419 -0.092824981 1.028
-0.16439402 -0.094758496 1.0246894
-0.15481937 -0.095294587 1.0230311
-0.14526504 -0.094135351 1.0239654
-0.13487999 -0.094419375 1.0256997
-0.12690787 -0.094845526 1.0266875
-0.3131963 -0.083561182 1.0263999
-0.30447811 -0.085990958 1.0249999
-0.29528973 -0.086225294 1.0245
-0.28610775 -0.08810208 1.0220002
-0.2723698 -0.088699378 1.0220001
-0.26420835 -0.08738108 1.0226924
-0.25401291 -0.087314181 1.0232502
-0.24543388 -0.085844949 1.0240767
-0.23534147 -0.085338354 1.0246249
-0.22513428 -0.084914446 1.025346
-0.21652846 -0.083911411 1.0271817
-0.20492421 -0.084121481 1.0259472
-0.19511899 -0.084688261 1.0252607
-0.18463422 -0.085019559 1.0247777
-0.17520279 -0.08536154 1.0248798
-0.16526309 -0.085736409 1.0228076
-0.15525591 -0.086907469 1.0220002
-0.14578441 -0.087291457 1.0220002
-0.13528894 -0.087803438 1.0220002
-0.12590492 -0.085120872 1.0241427
-0.11926056 -0.080808796 1.028
-0.32173315 -0.071195856 1.028
-0.31469256 -0.07491906 1.0258999
-0.30850661 -0.077649288 1.0220002
-0.23205191 -0.079739846 1.0220001
-0.22174846 -0.078395918 1.0220001
-0.2154396 -0.078108422 1.022706
-0.20577061 -0.079441197 1.0220002
-0.19531782 -0.079739846 1.0220002
-0.18456638 -0.079739846 1.0220002
-0.17739877 -0.079739846 1.0220001
-0.12247647 -0.077166386 1.0235001
-0.11604754 -0.074100882 1.0254285
-0.33224729 -0.062183719 1.028
-0.32550114 -0.064938143 1.0254616
-0.31753337 -0.067953765 1.0226002
-0.1128087 -0.064929731 1.0235
-0.10639717 -0.063732527 1.0267999
-0.34242746 -0.051919997 1.027
-0.33509117 -0.054378189 1.0269499
-0.32867709 -0.055278074 1.0225002
-0.11136263 -0.05624244 1.0223752
-0.1041997 -0.05505595 1.0246786
-0.098987505 -0.051294208 1.0265
-0.34332609 -0.044641931 1.0269411
-0.33582711 -0.045187928 1.0273792
-0.32625249 -0.043095745 1.0228825
-0.31627151 -0.0403179 1.0220001
-0.10339302 -0.048919052 1.0220001
-0.096537732 -0.044543963 1.0244
-0.34426349 -0.038752172 1.028
-0.33282501 -0.036256503 1.028
-0.32479453 -0.034787491 1.0247271
-0.31656185 -0.034490556 1.0226316
-0.30910391 -0.031358365 1.0220001
-0.091964483 -0.035825305 1.0239091
-0.089155018 -0.034223095 1.0272499
-0.32452086 -0.026966957 1.0272105
-0.31496271 -0.02578876 1.0262998
-0.30565557 -0.024143357 1.0239499
-0.090939268 -0.023294786 1.0220001
-0.087017305 -0.02465133 1.0244999
-0.30371806 -0.015616115 1.0265882
-0.29799408 -0.013797681 1.0220001
-0.10325862 -0.012767335 1.0220002
-0.094536334 -0.01483337 1.0232689
-0.086631477 -0.015585525 1.0258334
-0.31244546 -0.003240949 1.0265
-0.3052192 -0.0068955678 1.0253332
-0.2974565 -0.0089595336 1.0220001
-0.122626 -0.0026884442 1.0226667
-0.11409755 -0.0044174604 1.0230713
-0.10459381 -0.0053041517 1.0245452
-0.09588892 -0.0078875758 1.0267646
-0.088619314 -0.0093125375 1.028
-0.32464895 0.0077684354 1.0230001
-0.31628007 0.0021766382 1.0228573
-0.13170514 0.0017919067 1.0220001
-0.12517355 0.0048404154 1.0244192
-0.11486974 0.003440399 1.0273181
-0.10653158 0.0025393048 1.0274545
-0.33134609 0.017123053 1.028
-0.32601866 0.015350709 1.023579
-0.12230602 0.014274567 1.0250001
-0.1168556 0.017580437 1.0260909
-0.32441941 0.023457792 1.0267646
-0.31568286 0.026209025 1.024318
-0.30526358 0.029079285 1.0228573
-0.29835245 0.029566459 1.0220001
-0.11271311 0.023880575 1.0242001
-0.10732005 0.027324032 1.0253
-0.313236 0.032314934 1.028
-0.3041968 0.033185001 1.0273076
-0.2946991 0.035299998 1.0240526
-0.28491315 0.03763004 1.0220002
-0.27505764 0.038525995 1.0220001
-0.26968196 0.038525995 1.0220001
-0.1209537 0.038525995 1.0220001
-0.11303946 0.036734086 1.0220002
-0.10551004 0.035302375 1.0256519
-0.29122806 0.044400036 1.0275713
-0.28485477 0.044930041 1.0249999
-0.27600637 0.043796308 1.0220002
-0.26490349 0.044499017 1.0220001
-0.25749701 0.044618476 1.0220001
-0.23424202 0.047087327 1.0220001
-0.22770014 0.046973553 1.0220002
-0.20203745 0.047485523 1.0220001
-0.19549702 0.048560668 1.0220002
-0.1881502 0.049277432 1.0220001
-0.1630635 0.049277432 1.0220001
-0.15440263 0.048978779 1.0220002
-0.14469647 0.047709517 1.0220002
-0.13528895 0.04748553 1.0220002
-0.12464757 0.045942463 1.0229229
-0.11540126 0.04459168 1.0252726
-0.10714944 0.042320993 1.0271
-0.30130565 0.056776438 1.028
-0.29509491 0.054765221 1.0241667
-0.28804901 0.051517315 1.0220001
-0.23115595 0.051965293 1.0220001
-0.22846811 0.051069338 1.0220001
-0.19292863 0.051666643 1.0220002
-0.18526323 0.054254957 1.0220002
-0.17351629 0.056445062 1.0220001
-0.16468427 0.054938167 1.0225356
-0.1547257 0.054947041 1.0251034
-0.14489496 0.05468636 1.0251153
-0.13496837 0.054953109 1.0252068
-0.12607093 0.054137982 1.0257499
-0.11926056 0.051969972 1.028
-0.30113402 0.063471161 1.028
-0.29526517 0.06599649 1.0264999
-0.28588966 0.067662209 1.0230001
-0.1630635 0.060028873 1.0220001
-0.15345864 0.063123778 1.0242172
-0.14524744 0.065001428 1.0264481
-0.1373671 0.065605052 1.0274999
-0.29229355 0.07239747 1.028
-0.28419566 0.073953494 1.0261999
-0.27534372 0.076469205 1.0261538
-0.26557228 0.07660678 1.024
-0.25666732 0.07920824 1.0244001
-0.24997097 0.079739846 1.0220001
-0.23205191 0.079739846 1.0220001
-0.14278446 0.071952201 1.0227501
-0.13457437 0.075167559 1.0233927
-0.12939337 0.079072699 1.0250001
-0.27487007 0.080207989 1.028
-0.26392677 0.081752919 1.028
-0.25447002 0.083322339 1.0275
-0.24492978 0.08490479 1.0248126
-0.23428443 0.085749075 1.0224286
-0.22521101 0.085487477 1.0235
-0.21507366 0.086381271 1.0244707
-0.20493433 0.087198466 1.0226003
-0.1959381 0.087183155 1.0220002
-0.18520634 0.088443398 1.0220002
-0.1747109 0.088699378 1.0220001
-0.16619934 0.088699378 1.0220001
-0.1554479 0.088699378 1.0220001
-0.14476046 0.088443398 1.0220002
-0.13404998 0.086112931 1.0226316
-0.12896757 0.084720984 1.0259
-0.23476256 0.091145866 1.026
-0.22890818 0.091022544 1.028
-0.21313694 0.091473155 1.028
-0.2052279 0.09181308 1.02675
-0.19481231 0.091884948 1.0266362
-0.18519878 0.092343867 1.0269285
-0.17505807 0.091909103 1.026909
-0.16501981 0.091624491 1.0255455
-0.15474503 0.091768801 1.02625
-0.14484234 0.09176439 1.0262001
-0.13508184 0.091857351 1.0272499
-0.12887351 0.091022544 1.028
-0.28488004 -0.15760997 1.0332501
-0.13105728 -0.15274952 1.031
-0.12896644 -0.15258034 1.036
-0.13105728 -0.14642262 1.031
-0.12721787 -0.14434648 1.0341114
-0.28459734 -0.13189252 1.0322502
-0.27824244 -0.13292269 1.0338334
-0.1255504 -0.13518307 1.0349232
-0.29066411 -0.1224514 1.0316
-0.28419212 -0.1246031 1.0329093
-0.27599019 -0.12273511 1.0358462
-0.26501912 -0.12152213 1.036
-0.25661436 -0.12102734 1.0380001
-0.17016625 -0.12102734 1.0380001
-0.16386345 -0.12298232 1.0362501
-0.15485221 -0.12252361 1.0352502
-0.14429837 -0.12319466 1.0366668
-0.13721617 -0.12153289 1.0319999
-0.12683071 -0.12386838 1.0327274
-0.29330975 -0.11418445 1.0329502
-0.28484485 -0.11484131 1.0314801
-0.27479485 -0.11479955 1.0311
-0.26481393 -0.11517946 1.0345002
-0.25546539 -0.11514706 1.0378519
-0.24842456 -0.1141115 1.0380001
-0.17332086 -0.11411149 1.0380001
-0.16495983 -0.1149702 1.0338849
-0.15554015 -0.11521101 1.031261
-0.14453436 -0.11537054 1.0325928
-0.13502966 -0.1150919 1.0337203
-0.12722066 -0.11452009 1.0349447
-0.29402831 -0.1041721 1.0350001
-0.28483537 -0.10500166 1.031
-0.2742663 -0.10588356 1.031
-0.26450235 -0.10518721 1.0322353
-0.25455046 -0.10467549 1.0333334
-0.24582481 -0.10327917 1.0367371
-0.23472638 -0.10316955 1.0375791
-0.22466862 -0.10313545 1.0365001
-0.2149591 -0.10254284 1.0362501
-0.20491098 -0.10216594 1.0380001
-0.19503903 -0.10161443 1.0380001
-0.18298124 -0.10285101 1.0365455
-0.17498851 -0.1045623 1.0350387
-0.16609442 -0.10697696 1.0321668
-0.15839855 -0.10778332 1.031
-0.14069827 -0.10876248 1.031
-0.134996 -0.10697246 1.0311667
-0.12522428 -0.10613532 1.0321001
-0.11840348 -0.10032661 1.031
-0.30273587 -0.095300764 1.0333002
-0.29512069 -0.096685596 1.0320001
-0.28832603 -0.098518923 1.031
-0.27205685 -0.09851893 1.031
-0.26572993 -0.098518923 1.031
-0.2503646 -0.098518923 1.031
-0.24491598 -0.096747078 1.0313751
-0.23439671 -0.095449924 1.0320002
-0.22497018 -0.095240682 1.0324446
-0.21468171 -0.095155336 1.0329201
-0.20533766 -0.095369913 1.0338521
-0.19518939 -0.094852284 1.0325001
-0.18548883 -0.095337182 1.0325202
-0.17612897 -0.096470222 1.031
-0.12244352 -0.095232822 1.0346001
-0.1178746 -0.094350629 1.0377144
-0.32231054 -0.081165135 1.031
-0.31905669 -0.083153591 1.031
-0.23319158 -0.089480489 1.031
-0.2232493 -0.089028567 1.031
-0.21443686 -0.087333873 1.031
-0.20585032 -0.088802606 1.031
-0.19468786 -0.089480489 1.031
-0.18890326 -0.089480489 1.031
-0.12183326 -0.087258577 1.0325
-0.11526253 -0.08430963 1.0360001
-0.10898545 -0.081742153 1.036
-0.33050275 -0.073616035 1.0366668
-0.32458353 -0.075174607 1.0319002
-0.31905669 -0.077730522 1.031
-0.11256893 -0.076855287 1.0313751
-0.10696781 -0.074388303 1.0354738
-0.34074894 -0.060557503 1.031
-0.3344425 -0.06504263 1.0320001
-0.32756299 -0.068913355 1.0316
-0.10259833 -0.066367701 1.0332668
-0.097910814 -0.062142808 1.0373334
-0.34167138 -0.055889606 1.0316
-0.33894125 -0.057845972 1.031
-0.09602394 -0.055075314 1.0355556
-0.35080516 -0.040791299 1.034
-0.34526813 -0.041124873 1.031
-0.092490427 -0.04544498 1.035154
-0.088198625 -0.042009514 1.0372001
-0.35080123 -0.034054995 1.036
-0.34491143 -0.034590781 1.0340002
-0.33714733 -0.034060542 1.0315001
-0.08628647 -0.035150934 1.0347501
-0.3442758 -0.026591636 1.0380001
-0.33524224 -0.025276281 1.0340372
-0.32610673 -0.022234546 1.031
-0.31589323 -0.020788396 1.031
-0.082969733 -0.025440279 1.0340002
-0.33295158 -0.017087404 1.0380001
-0.3249453 -0.015332328 1.0344784
-0.31475285 -0.015374192 1.0317001
-0.30821058 -0.01355765 1.031
-0.081935249 -0.01493818 1.03275
-0.07916826 -0.01273972 1.0380001
-0.32331294 -0.0050417897 1.0372728
-0.31635275 -0.0070016142 1.0321054
-0.10032661 -0.00090384332 1.031
-0.094150625 -0.0030742947 1.0320001
-0.085007504 -0.0052114548 1.0343752
-0.07916826 -0.0081898198 1.0380001
-0.32437894 0.0013605866 1.0350001
-0.12021116 0.0072307461 1.031
-0.1147881 0.0090384334 1.031
-0.10406087 0.0066974885 1.0322002
-0.094714232 0.0047360351 1.0353217
-0.086976103 0.0032476741 1.0365715
-0.33598325 0.018213879 1.0314286
-0.12021116 0.012653807 1.031
-0.11412017 0.01420494 1.031706
-0.10543214 0.015303668 1.0352761
-0.096306212 0.011526413 1.0380001
-0.34273195 0.022729335 1.0370001
-0.33554414 0.024491541 1.0344585
-0.32621181 0.028406192 1.0319002
-0.11117273 0.020788396 1.031
-0.10515201 0.024199786 1.0345265
-0.33274934 0.031849299 1.0380001
-0.32403588 0.034809958 1.0336472
-0.31540239 0.036492459 1.0320002
-0.30584225 0.037421685 1.0326668
-0.29917213 0.038865265 1.031
-0.10102246 0.033969954 1.0335001
-0.098179147 0.036085356 1.0328572
-0.3230429 0.040949099 1.0380001
-0.31576306 0.040949099 1.0380001
-0.30222207 0.043349415 1.0373334
-0.29648182 0.045288455 1.0331668
-0.11177529 0.049108822 1.031
-0.1042343 0.045878556 1.0331306
-0.09755595 0.044615798 1.0347273
-0.31182244 0.057726748 1.0370001
-0.30494967 0.054842401 1.0341251
-0.29917213 0.05151907 1.031
-0.12209717 0.056980118 1.0316668
-0.11454944 0.055326901 1.0345386
-0.10528293 0.052118104 1.0373847
-0.098581165 0.050655555 1.0380001
-0.3131111 0.065246537 1.0345296
-0.30562189 0.06574326 1.0311364
-0.29917213 0.069595933 1.031
-0.14145148 0.063720956 1.031
-0.13393314 0.064830206 1.031
-0.12598261 0.06428846 1.0350002
-0.1182974 0.06187864 1.0380001
-0.31394309 0.070796445 1.0380001
-0.30413148 0.07453382 1.0351876
-0.29565325 0.075856119 1.0320001
-0.28687987 0.077911295 1.031
-0.13165985 0.072006188 1.031
-0.12778415 0.074444346 1.0356251
-0.29366055 0.081438832 1.036
-0.28466564 0.082729943 1.0341252
-0.27458307 0.084452935 1.0327729
-0.26522592 0.087372065 1.0321668
-0.25540599 0.088024035 1.0320715
-0.24653235 0.08917103 1.0316001
-0.2232493 0.089480489 1.031
-0.21963392 0.089480489 1.031
-0.12656115 0.085179992 1.0336667
-0.27281198 0.090815999 1.0380001
-0.26480418 0.091907978 1.0380001
-0.25406641 0.092999958 1.0380001
-0.24441282 0.093869194 1.0345001
-0.23525146 0.094204932 1.0343333
-0.22480613 0.09385892 1.0354002
-0.21562394 0.095587231 1.0334501
-0.20509283 0.097085528 1.0338237
-0.19480729 0.096669935 1.0317501
-0.18475607 0.097355656 1.0319232
-0.17522907 0.096689232 1.0318824
-0.16521446 0.096913815 1.0319376
-0.1551213 0.096880548 1.0327779
-0.14478458 0.09690097 1.0341177
-0.13466701 0.097067423 1.0335627
-0.12680832 0.094589904 1.0345296
-0.21020538 0.10100778 1.0380001
-0.20110558 0.10100778 1.0380001
-0.19426137 0.10247707 1.0358462
-0.18629308 0.1016828 1.0355999
-0.17562613 0.10100778 1.0380001
-0.16463828 0.10184179 1.0356668
-0.15691982 0.10148469 1.0366668
-0.13467704 0.10100778 1.0380001
-0.1268528 -0.15149325 1.041
-0.26251084 -0.14135198 1.0470001
-0.25526986 -0.14125 1.0470001
-0.24480903 -0.14148311 1.0470001
-0.23956406 -0.14226985 1.0470001
-0.16200405 -0.14089304 1.0470001
-0.15591501 -0.1417326 1.0467273
-0.12398916 -0.14562179 1.0424999
-0.27504194 -0.1326005 1.0449375
-0.26434454 -0.13420188 1.0454286
-0.25511149 -0.13466884 1.0438848
-0.24527037 -0.13449712 1.044621
-0.23861825 -0.13409549 1.045875
-0.22120667 -0.1312554 1.0470001
-0.21325178 -0.1312554 1.0470001
-0.20835648 -0.1312554 1.0470001
-0.17408934 -0.13247924 1.0470001
-0.16466603 -0.13433121 1.0461926
-0.15485567 -0.1346966 1.0452002
-0.1474445 -0.13314064 1.0434546
-0.12296531 -0.13576685 1.0428751
-0.27481249 -0.12678589 1.0423125
-0.2647652 -0.12667185 1.0424999
-0.25436929 -0.12552534 1.0410002
-0.24492829 -0.12520808 1.0425003
-0.23535289 -0.12468792 1.0463575
-0.22484814 -0.12381309 1.0468639
-0.21457432 -0.12497836 1.0470004
-0.20481159 -0.12467205 1.0470004
-0.19504738 -0.12024097 1.0470001
-0.18290091 -0.12317815 1.0470001
-0.17509311 -0.12563267 1.0447503
-0.16640915 -0.12782879 1.0423334
-0.15496364 -0.12769741 1.0421541
-0.14699146 -0.12742727 1.0414286
-0.12445304 -0.12494988 1.0445454
-0.25096774 -0.11498886 1.041
-0.2440235 -0.11516491 1.0417744
-0.23506571 -0.11474047 1.0433335
-0.2253439 -0.1150205 1.0431292
-0.21515793 -0.11485738 1.0438068
-0.20497638 -0.11434862 1.044621
-0.19512476 -0.11451293 1.0449603
-0.18520197 -0.11463711 1.0449313
-0.1771494 -0.1165231 1.0420909
-0.124399 -0.11656912 1.0422857
-0.30246139 -0.10508516 1.0423334
-0.29796717 -0.10723168 1.041
-0.2426713 -0.10710723 1.0410001
-0.23371266 -0.10772709 1.041375
-0.22500904 -0.10738377 1.041
-0.21472409 -0.10716651 1.0410001
-0.20520687 -0.10690575 1.0410001
-0.19516818 -0.10625388 1.0410001
-0.1864717 -0.1062755 1.0412143
-0.30481175 -0.09947449 1.041
-0.11498886 -0.092173606 1.041
-0.092211552 -0.052561678 1.0414286
-0.088523172 -0.050193548 1.041
-0.091260999 -0.048368331 1.041
-0.084957458 -0.044109792 1.0420715
-0.078386106 -0.042038441 1.0470001
-0.3458792 -0.03011613 1.041
-0.082324736 -0.035806254 1.0423636
-0.077777132 -0.034048419 1.0465001
-0.35175636 -0.023790104 1.044
-0.34582001 -0.023732184 1.0412143
-0.081222288 -0.0273783 1.041
-0.077912174 -0.024750402 1.0455999
-0.35374707 -0.01560379 1.0470001
-0.34428746 -0.015553475 1.0438697
-0.33599758 -0.013023621 1.0416318
-0.32945222 -0.01095132 1.041
-0.076905139 -0.014650743 1.0443751
-0.3552157 -0.0082608303 1.0470001
-0.3411417 -0.0076489169 1.0470001
-0.33439276 -0.0052222516 1.044353
-0.32817456 -0.0047455719 1.0410001
-0.081222288 -0.00091260998 1.041
-0.077104069 -0.0051893401 1.0446
-0.32945222 0.00091260998 1.041
-0.083192356 0.0055571902 1.0428462
-0.07985469 0.0018357399 1.0470001
-0.10129971 0.01916481 1.041
-0.094331853 0.016170666 1.0438753
-0.086157098 0.012773291 1.0448824
-0.34466237 0.026871294 1.041
-0.10106906 0.025268251 1.0443001
-0.097552396 0.022018798 1.0465001
-0.3432661 0.033291362 1.0438124
-0.33597958 0.035967 1.0430001
-0.3288438 0.038633823 1.041
-0.099761158 0.03020292 1.044
-0.33261454 0.043801073 1.0452
-0.32528332 0.045344185 1.0438638
-0.31465486 0.045650113 1.0431252
-0.30632925 0.045101169 1.0414002
-0.094911441 0.048368331 1.041
-0.32295913 0.052056339 1.0470001
-0.31518114 0.053629298 1.0443158
-0.30791461 0.051653724 1.041
-0.11133842 0.059319649 1.041
-0.10409629 0.057440665 1.0436667
-0.095702559 0.054462172 1.0444288
-0.089033388 0.050482851 1.0470001
-0.32102108 0.065481082 1.04475
-0.31789246 0.062970094 1.041
-0.12183344 0.067076832 1.041
-0.11470198 0.065378159 1.0435387
-0.10626822 0.062997706 1.0465
-0.32143179 0.072716869 1.0446
-0.31489378 0.075825676 1.0433685
-0.3068195 0.078666978 1.041
-0.12298094 0.075412758 1.0435716
-0.11726561 0.073364995 1.0460625
-0.31207579 0.081690431 1.0470001
-0.30417886 0.083340392 1.0446428
-0.29495504 0.086324491 1.0438001
-0.28522202 0.087768644 1.0416667
-0.12256768 0.084977791 1.0446316
-0.1179463 0.083526172 1.0470001
-0.29096478 0.090869129 1.0470001
-0.28410599 0.092037566 1.0450908
-0.27589008 0.09498322 1.044706
-0.26471144 0.096343592 1.04265
-0.25539911 0.097641908 1.0422
-0.2449445 0.098744407 1.0410001
-0.23486131 0.097868145 1.0433334
-0.22625627 0.098853223 1.043
-0.21811379 0.09947449 1.041
-0.12274699 0.095401667 1.0444
-0.27077165 0.10004783 1.0470001
-0.26526445 0.10078212 1.0470001
-0.25483277 0.10334036 1.04625
-0.24579611 0.10319575 1.0453999
-0.23485133 0.10228474 1.0467693
-0.2248628 0.10435258 1.045579
-0.21494694 0.10491186 1.0445219
-0.20519374 0.10543976 1.0443602
-0.19522817 0.10720909 1.0422499
-0.18428499 0.10646103 1.0438573
-0.17481188 0.10617153 1.0440003
-0.16496707 0.10723627 1.0432501
-0.15505385 0.10530654 1.0445
-0.14412229 0.10456841 1.04445
-0.13507368 0.10553498 1.0442729
-0.12634903 0.10286503 1.0450908
-0.20162545 0.11167418 1.0470001
-0.19639374 0.1117581 1.0461428
-0.18632762 0.11106227 1.0470001
-0.17898464 0.11106227 1.0470001
-0.16456099 0.11132453 1.0470001
-0.15879151 0.11106227 1.0470001
-0.13492689 0.11106227 1.0470001
-0.26038489 -0.16030814 1.057
-0.2552222 -0.16242614 1.057
-0.24555871 -0.16216141 1.057
-0.23999889 -0.16216141 1.057
-0.2929101 -0.15708113 1.054
-0.26386514 -0.15373118 1.0552353
-0.25465068 -0.15422735 1.0550002
-0.24514054 -0.15448794 1.0552002
-0.23600721 -0.15318017 1.057
-0.22437847 -0.15157129 1.057
-0.21617107 -0.15210079 1.057
-0.2047867 -0.15104178 1.057
-0.1239218 -0.15098859 1.0523334
-0.27395415 -0.14419305 1.0534999
-0.26571676 -0.14531067 1.0519049
-0.25509033 -0.1459564 1.0512631
-0.24519418 -0.14564377 1.050421
-0.23459269 -0.14493398 1.0544285
-0.22500917 -0.14569037 1.0558
-0.21505533 -0.14555426 1.0565859
-0.20444976 -0.14506075 1.0569998
-0.19552034 -0.14397615 1.057
-0.18532732 -0.14362867 1.0569999
-0.17508699 -0.14372589 1.0560001
-0.16516045 -0.14541718 1.0543684
-0.12270634 -0.14485303 1.0524
-0.11953613 -0.14270204 1.057
-0.27525026 -0.13770182 1.0506668
-0.26878601 -0.13807501 1.0500001
-0.23402703 -0.13590524 1.051
-0.22545634 -0.13551913 1.0515653
-0.21562234 -0.1357972 1.0520002
-0.20493048 -0.13550654 1.0520399
-0.19530796 -0.13500759 1.0555171
-0.18555108 -0.13578992 1.0551001
-0.17582801 -0.13707949 1.0524286
-0.16783784 -0.13838182 1.0500001
-0.12156299 -0.13379028 1.0525
-0.11805351 -0.13473298 1.057
-0.233807 -0.1297905 1.0500001
-0.22631149 -0.1292645 1.0500001
-0.2181585 -0.1297905 1.0500001
-0.20158949 -0.1297905 1.0500001
-0.19543879 -0.12514311 1.0510367
-0.18660201 -0.12650368 1.0509232
-0.12201377 -0.12533388 1.0527999
-0.11830062 -0.12633146 1.057
-0.12166643 -0.11760466 1.0530001
-0.11953613 -0.11582958 1.057
-0.076401502 -0.043263499 1.0500001
-0.073241934 -0.035425343 1.0504668
-0.069037497 -0.0303765 1.0500001
-0.35623351 -0.021171499 1.0500001
-0.072828911 -0.024888564 1.0516
-0.068573155 -0.025514215 1.0523334
-0.35397801 -0.013518847 1.0502106
-0.34825584 -0.0119665 1.0500001
-0.073072873 -0.015857307 1.0527273
-0.069497749 -0.017606096 1.057
-0.35502988 -0.0051908782 1.0548462
-0.34473234 -0.0051194937 1.0537273
-0.33846697 -0.0018427533 1.052
-0.074182175 -0.0031710009 1.0504445
-0.35536516 0.0023165916 1.057
-0.34007564 0.0027799099 1.057
-0.33557135 0.0027703638 1.0525556
-0.080083497 0.0064435001 1.0500001
-0.075956091 0.004006892 1.0540667
-0.083652854 0.01624836 1.0515001
-0.077207811 0.011095312 1.05475
-0.094617754 0.0251588 1.0530001
-0.086016558 0.022817515 1.0550834
-0.3458713 0.038594723 1.0532
-0.098868713 0.03049222 1.054
-0.34330723 0.042706992 1.0544001
-0.33710498 0.046262752 1.0512002
-0.33307055 0.05154239 1.0536001
-0.32463664 0.055384934 1.0518001
-0.093706891 0.059464298 1.0500001
-0.3230955 0.062593997 1.0500001
-0.10413057 0.066730723 1.0511765
-0.096120529 0.063890271 1.0533637
-0.32502064 0.076350659 1.0525
-0.11346158 0.075761661 1.0509232
-0.10679015 0.073643617 1.0544001
-0.32317111 0.082064107 1.05475
-0.31523871 0.085619271 1.0533335
-0.30573946 0.088249356 1.0522224
-0.29916251 0.089288503 1.0500001
-0.11494892 0.084497325 1.0527779
-0.31042328 0.091737032 1.057
-0.30377871 0.092744321 1.0558001
-0.29510862 0.095418155 1.0536001
-0.28607672 0.096681364 1.0503078
-0.2789115 0.098493502 1.0500001
-0.1205855 0.094197832 1.0500001
-0.11727393 0.094575278 1.0520771
-0.29161438 0.1015256 1.0560001
-0.28546742 0.1016678 1.0553334
-0.27593279 0.1025451 1.0537692
-0.2658098 0.10460885 1.053077
-0.25486398 0.10742557 1.0533333
-0.24358797 0.10716198 1.0515001
-0.23536211 0.10674142 1.052091
-0.22613616 0.10923266 1.0500001
-0.21723799 0.1095395 1.0500001
-0.15221514 0.10872596 1.0522858
-0.14695212 0.10897002 1.0516001
-0.13095821 0.10974815 1.052
-0.12433433 0.10561305 1.0517693
-0.11639766 0.1021343 1.0550001
-0.24555871 0.11026976 1.057
-0.23629233 0.11101107 1.057
-0.22468343 0.11280569 1.0547001
-0.21497789 0.11357144 1.0545385
-0.20602971 0.11320942 1.0517778
-0.19427736 0.11559527 1.0524286
-0.1843863 0.11433118 1.0534002
-0.1747243 0.11416474 1.0520556
-0.16557048 0.11514913 1.0521668
-0.15534928 0.11394458 1.0544
-0.14478548 0.11302178 1.0543637
-0.13570876 0.11425766 1.0550001
-0.12694924 0.11150528 1.057
-0.2544297 -0.1711788 1.067
-0.24399029 -0.17190549 1.0628126
-0.23470749 -0.17265114 1.0666364
-0.2285502 -0.172426 1.067
-0.21140115 -0.1711788 1.067
-0.20364633 -0.17228621 1.0646
-0.19924091 -0.1711788 1.067
-0.30026448 -0.16182478 1.067
-0.29714647 -0.16244839 1.067
-0.25257018 -0.16665606 1.062
-0.24521461 -0.16486551 1.0603912
-0.23488505 -0.16494872 1.0617141
-0.22571623 -0.1643136 1.0641303
-0.21459384 -0.16484323 1.0658332
-0.20454413 -0.16499917 1.0642692
-0.19547139 -0.16525765 1.0659999
-0.18562718 -0.16395299 1.0646111
-0.17633623 -0.16292815 1.062
-0.30291998 -0.1554046 1.0685
-0.29756224 -0.15434155 1.067
-0.2344407 -0.15704605 1.0600002
-0.22537062 -0.15657932 1.0604286
-0.21462664 -0.15595046 1.0607499
-0.20509431 -0.1556658 1.0608077
-0.19513525 -0.15524791 1.0617499
-0.18507251 -0.15531218 1.06084
-0.17475027 -0.15523194 1.0602998
-0.16760264 -0.15540026 1.0637274
-0.1217256 -0.15344164 1.064
-0.11835088 -0.15003537 1.0630001
-0.29652286 -0.14872913 1.067
-0.20784599 -0.14899242 1.0600001
-0.1950615 -0.14859818 1.0600002
-0.18492408 -0.14868267 1.0600002
-0.1744487 -0.14876713 1.0600002
-0.16819726 -0.14961194 1.0600001
-0.11558756 -0.14451981 1.063
-0.10603371 -0.14212836 1.0666001
-0.11377288 -0.13513859 1.0617144
-0.10494653 -0.13503061 1.0662726
-0.095437899 -0.13468653 1.0685
-0.11446065 -0.12548545 1.0630435
-0.10944219 -0.12815025 1.067
-0.088863313 -0.12815025 1.067
-0.12164123 -0.11324889 1.0632501
-0.11700143 -0.11833248 1.0628572
-0.070155248 -0.012160243 1.067
-0.067862667 -0.016678583 1.0636668
-0.3525593 -0.0027893586 1.0611112
-0.34718543 -0.001673206 1.0606
-0.06989225 -0.0018637934 1.0630001
-0.3529613 0.0034225069 1.0646667
-0.34618866 0.0043442436 1.0654118
-0.33918232 0.0065048668 1.0600001
-0.072467305 0.0065314588 1.0643334
-0.077691421 0.015465978 1.0626
-0.090758383 0.028187754 1.0600001
-0.084159061 0.026992125 1.061643
-0.09384805 0.033671342 1.062158
-0.086828753 0.032679852 1.0650002
-0.35077626 0.046770163 1.067
-0.34542397 0.046875279 1.0609
-0.34414783 0.053364627 1.0654002
-0.33560249 0.056202937 1.0636365
-0.32988966 0.057614535 1.0600001
-0.33213773 0.063478164 1.0665556
-0.32849532 0.061419703 1.0615001
-0.093641624 0.067279048 1.0624617
-0.088863313 0.066413641 1.067
-0.10303733 0.07747326 1.0623637
-0.096438155 0.074043512 1.064611
-0.33082095 0.08699251 1.067
-0.32589361 0.086361594 1.0617778
-0.11159843 0.08700899 1.0626
-0.1075293 0.083061539 1.0645556
-0.32286683 0.092154451 1.0648571
-0.31490761 0.095034741 1.06275
-0.30549949 0.097351603 1.0606923
-0.11234219 0.095280923 1.063154
-0.31336012 0.10102355 1.067
-0.30458507 0.10228977 1.0661112
-0.29458687 0.10434963 1.0637778
-0.28543112 0.10727119 1.064
-0.27536044 0.10762541 1.0608184
-0.26484099 0.1087242 1.0600001
-0.12173393 0.1087242 1.0600001
-0.11422179 0.10606309 1.0626191
-0.1094422 0.10382977 1.067
-0.2824918 0.11131299 1.067
-0.27483851 0.11155525 1.0663333
-0.26553512 0.11187787 1.0644445
-0.2558423 0.11247519 1.0630001
-0.24528715 0.11429818 1.0626155
-0.23551287 0.11443748 1.0624002
-0.22417586 0.11731718 1.0630001
-0.21460962 0.11802256 1.0628333
-0.20711307 0.11750869 1.061
-0.1923582 0.1198754 1.0600001
-0.18492407 0.11894614 1.0600001
-0.17516677 0.11941077 1.0600001
-0.16355093 0.11894614 1.0600001
-0.15392013 0.1180051 1.0622858
-0.14547496 0.11735167 1.0614445
-0.13340938 0.11740706 1.0612
-0.12444872 0.11460485 1.0628093
-0.11575092 0.11338826 1.0654
-0.21483095 0.12066703 1.067
-0.20424175 0.12030514 1.0638001
-0.1975621 0.12021467 1.0630001
-0.18895146 0.12066703 1.067
-0.16276018 0.12066703 1.067
-0.14218131 0.12066703 1.067
-0.1348961 0.12119011 1.0661111
-0.12815025 0.12066703 1.067
-0.30073085 -0.17260718 1.072
-0.29740795 -0.17313607 1.0718751
-0.22371887 -0.17277797 1.0711251
-0.21688996 -0.17182052 1.0710001
-0.19571804 -0.17248525 1.0707501
-0.18666863 -0.17166011 1.0700001
-0.31135955 -0.16085343 1.0730001
-0.30423054 -0.16415438 1.0712632
-0.29700825 -0.16712685 1.0710001
-0.22306433 -0.1690336 1.0700001
-0.2166857 -0.16978402 1.0700001
-0.1913588 -0.16978404 1.0700001
-0.18760666 -0.16884601 1.0700001
-0.1232269 -0.16085343 1.0730001
-0.11707708 -0.16145307 1.077
-0.32007363 -0.1510672 1.077
-0.31380692 -0.154193 1.0733125
-0.29923263 -0.15665157 1.0700001
-0.12356604 -0.15764607 1.0712858
-0.11472805 -0.15517195 1.0727142
-0.10531786 -0.15421003 1.0747778
-0.097039692 -0.15159172 1.077
-0.32070306 -0.14760524 1.077
-0.31396472 -0.14532767 1.0754761
-0.30492932 -0.14486173 1.0718274
-0.29923263 -0.14633319 1.0700001
-0.11287668 -0.14852194 1.0700001
-0.10475806 -0.14688273 1.0714737
-0.094921291 -0.1442899 1.0730475
-0.089363016 -0.14768414 1.0730001
-0.3115761 -0.13879299 1.077
-0.30520296 -0.13784882 1.077
-0.10224564 -0.13038664 1.0700001
-0.089113168 -0.13038664 1.0700001
-0.11178114 -0.12164496 1.0715001
-0.10479768 -0.1248438 1.0707499
-0.094889909 -0.12495138 1.0716799
-0.087643079 -0.12389755 1.0729091
-0.1210063 -0.112564 1.0700001
-0.1139164 -0.1143725 1.0727241
-0.10460826 -0.11496954 1.0749999
-0.095230132 -0.11502729 1.0755333
-0.086777814 -0.11587539 1.0769998
-0.1210063 -0.10787383 1.0700001
-0.11595748 -0.10618984 1.0737619
-0.10480287 -0.10857954 1.077
-0.094821632 -0.10655633 1.0769999
-0.088122539 -0.10700593 1.077
-0.070352502 -0.010318367 1.0700001
-0.067335233 -0.012239801 1.0742501
-0.070418246 -0.00657237 1.0710001
-0.068924412 -0.0053502969 1.077
-0.35301319 0.0065662339 1.0700001
-0.3470723 0.0084423004 1.0700001
-0.070921458 0.0042303549 1.0715001
-0.068924412 0.00283251 1.077
-0.34707233 0.010318367 1.0700001
-0.076153405 0.014568884 1.0725
-0.079374276 0.027712747 1.0715001
-0.093803331 0.038459368 1.0700001
-0.084054738 0.036212303 1.0728124
-0.078925207 0.035579298 1.075
-0.093054287 0.041883498 1.0752858
-0.085547455 0.042469908 1.0765294
-0.077421933 0.04154348 1.077
-0.35235426 0.055063963 1.0718001
-0.34604374 0.057987034 1.0703
-0.33863002 0.059096098 1.0700001
-0.35028708 0.062315222 1.077
-0.3442094 0.063968994 1.0752857
-0.3371183 0.065749802 1.0725384
-0.33476773 0.070725076 1.0756668
-0.093409948 0.076662906 1.0723636
-0.088791683 0.073703997 1.0758572
-0.33300182 0.088175133 1.0700001
-0.10402912 0.086390413 1.0727618
-0.09640418 0.082499593 1.0755001
-0.34084538 0.095361166 1.077
-0.33402386 0.095111698 1.0741427
-0.32582858 0.096247695 1.0710833
-0.31986937 0.098493502 1.0700001
-0.10705369 0.094679661 1.0743808
-0.33483702 0.10239952 1.0769999
-0.32416454 0.10226326 1.0745556
-0.31573811 0.10395169 1.0723571
-0.30547237 0.10679268 1.0732499
-0.2957485 0.10814184 1.0700001
-0.10846861 0.10449925 1.0717778
-0.303271 0.1108374 1.0760001
-0.29470113 0.11298742 1.074
-0.28548303 0.11527874 1.0736315
-0.27517185 0.11628667 1.0737334
-0.26534238 0.11762101 1.0733125
-0.25503388 0.11796398 1.0721667
-0.24502282 0.11868965 1.0708573
-0.23558049 0.11919703 1.0706
-0.22981817 0.11913023 1.0700001
-0.1238204 0.11913023 1.0700001
-0.11357159 0.11796353 1.0721666
-0.10886228 0.11261528 1.0705001
-0.25429645 0.12242737 1.077
-0.24575092 0.12300678 1.0755454
-0.23432264 0.12328757 1.0746
-0.22503886 0.12429402 1.0740499
-0.2149983 0.12568401 1.0735
-0.20557962 0.12564932 1.0733684
-0.19459116 0.1257894 1.0734444
-0.18483438 0.12604682 1.0718095
-0.17546964 0.12522648 1.0739999
-0.16568735 0.12369453 1.0747143
-0.15491989 0.12234873 1.0747143
-0.14439812 0.12476757 1.0730624
-0.13492495 0.1260522 1.072111
-0.12563981 0.12347175 1.0738461
-0.11729387 0.12241334 1.0752858
-0.21574284 0.13171172 1.077
-0.20866157 0.13123962 1.077
-0.19166651 0.13123962 1.077
-0.18694566 0.13186908 1.077
-0.1202436 -0.1637964 1.08
-0.11407069 -0.16210268 1.0813333
-0.32285881 -0.1505412 1.08
-0.1013076 -0.15432841 1.08
-0.3251355 -0.14403209 1.0812631
-0.3181248 -0.14201999 1.08
-0.33202308 -0.13356823 1.0852
-0.32515919 -0.13490985 1.0839999
-0.31557038 -0.13462222 1.0817599
-0.30652359 -0.1337833 1.0802667
-0.33289525 -0.12648994 1.0866666
-0.32468495 -0.12543643 1.0867143
-0.31526238 -0.12488537 1.0853041
-0.30778715 -0.12838468 1.0816
-0.31561264 -0.11683004 1.087
-0.085212 -0.11172239 1.08
-0.11271785 -0.10284834 1.0823001
-0.10521547 -0.10338236 1.0834999
-0.096499152 -0.10265496 1.0809166
-0.086655252 -0.10425569 1.0811428
-0.11420611 -0.095882781 1.0856249
-0.1055037 -0.0978802 1.087
-0.093648389 -0.095472962 1.0860399
-0.085826389 -0.095015392 1.0862173
-0.06453786 -0.011072884 1.0826668
-0.059869319 -0.010453373 1.0840001
-0.064753488 -0.0054183258 1.0846999
-0.058564179 -0.0071411077 1.0862499
-0.071010001 0.0075743999 1.08
-0.068564728 0.0042088768 1.0841428
-0.074430749 0.014954817 1.0847272
-0.06956438 0.010482303 1.087
-0.080776066 0.02280736 1.0840001
-0.078288667 0.023128806 1.0846667
-0.091839597 0.046393201 1.08
-0.084573254 0.047070261 1.0821538
-0.078584403 0.044499598 1.08
-0.091481917 0.050505642 1.087
-0.086717226 0.050505642 1.087
-0.350963 0.066400483 1.082
-0.34697554 0.06803143 1.0808001
-0.34365833 0.073001884 1.0845556
-0.33784717 0.072971106 1.081
-0.088683598 0.0766908 1.08
-0.094516993 0.08603581 1.082647
-0.088873833 0.081287161 1.0823334
-0.34226817 0.097047001 1.08
-0.33895439 0.099413998 1.08
-0.10176335 0.095585696 1.084875
-0.097108364 0.091397755 1.086
-0.33291391 0.10702324 1.0819167
-0.32546794 0.10737339 1.0823846
-0.31433761 0.108882 1.08
-0.10577597 0.10132893 1.087
-0.32147953 0.11202631 1.086
-0.31435835 0.11460459 1.0833333
-0.30565923 0.11543768 1.0825
-0.29627776 0.11772633 1.0817144
-0.10793521 0.11835 1.08
-0.31161028 0.12102295 1.087
-0.29395372 0.1220166 1.0861429
-0.28458658 0.12376275 1.0842499
-0.27543631 0.12469501 1.0827273
-0.26546082 0.12521195 1.0823809
-0.25504601 0.12651527 1.081
-0.24481355 0.12746295 1.081
-0.23521218 0.12781799 1.08
-0.22439161 0.1297116 1.08
-0.2030886 0.1282914 1.08
-0.19788119 0.1297116 1.08
-0.17326438 0.1284492 1.08
-0.16395994 0.12691425 1.0810909
-0.15454824 0.12639777 1.0815384
-0.14675401 0.1284492 1.08
-0.12388057 0.12768397 1.084875
-0.11457779 0.12521948 1.0836999
-0.10820522 0.12185035 1.0808001
-0.27444574 0.13055232 1.087
-0.26396346 0.13102879 1.087
-0.25466144 0.13372028 1.0850714
-0.24532922 0.13384731 1.085375
-0.23528536 0.13349859 1.085111
-0.22451413 0.13473268 1.0834736
-0.21433692 0.13546742 1.0832353
-0.204845 0.13491759 1.0853
-0.19500981 0.1351814 1.0833333
-0.18410148 0.13567792 1.0831875
-0.17440265 0.13433681 1.0843844
-0.16458049 0.13345654 1.0857999
-0.15554862 0.13282645 1.0854117
-0.1451247 0.13347873 1.0846249
-0.13463186 0.13318381 1.0837647
-0.21250488 0.14008169 1.087
-0.19439909 0.14008169 1.087
-0.18518735 0.14008169 1.087
-0.17438741 0.14008169 1.087
-0.33523148 -0.12295134 1.092889
-0.32680377 -0.12183475 1.09
-0.34332809 -0.1144427 1.097
-0.33496875 -0.11519801 1.0957143
-0.32470196 -0.11493237 1.0925667
-0.31878757 -0.11104736 1.092
-0.33510992 -0.10709879 1.097
-0.32563558 -0.10715563 1.0962501
-0.1118013 -0.092689969 1.09
-0.1049046 -0.093520902 1.09
-0.097467802 -0.092689969 1.09
-0.11148467 -0.086565711 1.0931667
-0.10475737 -0.086624578 1.0943
-0.094840743 -0.085253097 1.0927202
-0.085270591 -0.08494857 1.0908334
-0.09383861 -0.077568881 1.0965385
-0.086434513 -0.077949978 1.0955001
-0.063067399 -0.0015926111 1.09
-0.057333998 -0.0019111333 1.09
-0.064288698 0.0043408922 1.0926471
-0.057544399 0.00095907331 1.0940001
-0.072741561 0.016591648 1.0918335
-0.068971969 0.012451954 1.0927501
-0.076438464 0.02318915 1.0945001
-0.082178734 0.050645035 1.09
-0.35069296 0.0716675 1.09
-0.34687069 0.075489767 1.09
-0.090778835 0.087912135 1.09
-0.088867702 0.086956568 1.09
-0.1003345 0.098423369 1.09
-0.094877198 0.094881751 1.0932001
-0.089030758 0.091904476 1.092
-0.1045831 0.10414383 1.0944616
-0.099055439 0.10097885 1.097
-0.34093785 0.11332714 1.0955
-0.33509579 0.11455859 1.0944
-0.3257139 0.11593823 1.0929412
-0.31820369 0.11849026 1.09
-0.32505575 0.12149519 1.097
-0.3143031 0.12350759 1.0951819
-0.30430388 0.12511782 1.0950001
-0.29509637 0.12739776 1.0926154
-0.28762555 0.12804593 1.09
-0.11346111 0.12844218 1.0906668
-0.10741621 0.1256386 1.0940001
-0.29364061 0.13247474 1.0961429
-0.28493139 0.13308589 1.0950001
-0.27473503 0.13491186 1.0934666
-0.26525187 0.13632531 1.0937059
-0.25697622 0.13855432 1.09375
-0.24366949 0.13855717 1.09
-0.2352149 0.13864191 1.0906668
-0.22838043 0.13855717 1.09
-0.20544684 0.13855717 1.09
-0.16569526 0.13779271 1.09
-0.15390269 0.13765246 1.0904001
-0.14492761 0.13823865 1.09
-0.13405411 0.1381564 1.0911429
-0.12552823 0.13390678 1.0930527
-0.11723474 0.13193323 1.0931668
-0.25425193 0.14103532 1.0944
-0.24475349 0.14137039 1.097
-0.23446955 0.14183392 1.095
-0.2247155 0.14302637 1.0940589
-0.21427973 0.14392345 1.0944445
-0.20546436 0.14236088 1.0935
-0.19486722 0.14327452 1.095
-0.18495257 0.14344439 1.0939286
-0.17543489 0.14393719 1.0941579
-0.16499589 0.14269833 1.0942501
-0.15487427 0.14143322 1.0950001
-0.14374067 0.14358215 1.09675
-0.13632566 0.14261694 1.0958183
-0.34264955 -0.12065125 1.1010001
-0.34387797 -0.1143335 1.101
-0.35065615 -0.10199139 1.108
-0.3446995 -0.10476301 1.1031427
-0.33445045 -0.10330606 1.1026249
-0.32789555 -0.10413981 1.1033334
-0.34405327 -0.096817262 1.1061578
-0.33596161 -0.097592458 1.1044
-0.10509199 -0.081521943 1.1018
-0.10354638 -0.076048523 1.1057273
-0.096599035 -0.07331425 1.1012353
-0.084880613 -0.073184043 1.1027998
-0.10102005 -0.067994267 1.108
-0.094204158 -0.065058999 1.1049582
-0.084533341 -0.065075338 1.1054229
-0.07846605 -0.063935302 1.105
-0.094220616 -0.059252147 1.108
-0.085478507 -0.059252147 1.108
-0.062368259 0.0072531011 1.103
-0.057050839 0.0038696064 1.103
-0.070460327 0.018338989 1.1010001
-0.066604637 0.013322594 1.105125
-0.073948987 0.02523501 1.1033635
-0.080257952 0.032878503 1.103
-0.076663919 0.033729751 1.1046666
-0.093104802 0.098526813 1.1040001
-0.089078538 0.096830904 1.1045001
-0.10304735 0.1078894 1.10375
-0.095691085 0.1018371 1.1063333
-0.34001955 0.11915215 1.105
-0.33396265 0.11872083 1.1010001
-0.1072344 0.11325043 1.1059999
-0.3404811 0.12222531 1.1065
-0.3344872 0.12410349 1.1059284
-0.32537946 0.12615474 1.1040832
-0.31606427 0.12761222 1.1015713
-0.30983239 0.12837292 1.1010001
-0.10829814 0.12860611 1.103
-0.32248709 0.1311318 1.108
-0.31467131 0.13298601 1.1059999
-0.30528945 0.13494724 1.1046085
-0.295003 0.13696137 1.1033
-0.28641477 0.13788541 1.1042856
-0.27572832 0.13931197 1.1010001
-0.26929358 0.13995545 1.1010001
-0.13030335 0.13995545 1.1010001
-0.12451209 0.13879719 1.1010001
-0.1149037 0.1355547 1.1039332
-0.10871653 0.13201438 1.10725
-0.28343898 0.14162235 1.108
-0.27495888 0.14391156 1.1056665
-0.26508716 0.14433371 1.1049333
-0.25535589 0.14639464 1.1069285
-0.24509078 0.14562526 1.1056921
-0.23581204 0.14682667 1.1032999
-0.22457218 0.14799885 1.101
-0.21588528 0.14928581 1.101
-0.20516761 0.14772184 1.1013333
-0.19554488 0.14702028 1.1015
-0.18435512 0.14864233 1.101
-0.174703 0.14883539 1.1010001
-0.16396309 0.14766963 1.1029999
-0.15527892 0.14605516 1.1033076
-0.14690498 0.14651887 1.101
-0.13410284 0.14619599 1.1031666
-0.12501581 0.14323893 1.1054666
-0.11781373 0.14218056 1.1054286
-0.23366599 0.15113835 1.1075
-0.22518741 0.15145683 1.1066667
-0.21397492 0.15276155 1.1058571
-0.20456016 0.15249215 1.1067499
-0.19499575 0.15231013 1.1065999
-0.18562146 0.1526664 1.1056666
-0.17557704 0.15132493 1.1065
-0.16707163 0.15055872 1.108
-0.15250142 0.15055872 1.108
-0.14477177 0.15188795 1.1066667
-0.13812964 0.15107042 1.107
-0.091232069 -0.15009147 1.1190001
-0.086327121 -0.15058196 1.1190001
-0.091886066 -0.14518653 1.1190001
-0.086855344 -0.14450736 1.1190002
-0.077685438 -0.14414746 1.1185555
-0.091232069 -0.13831958 1.1190001
-0.088289097 -0.13831958 1.1190001
-0.33145013 -0.10138474 1.1120001
-0.32852557 -0.1023596 1.1120001
-0.35192207 -0.098460183 1.1120001
-0.34680405 -0.091879934 1.1120001
-0.332425 -0.098460183 1.1120001
-0.10445001 -0.072235137 1.1135001
-0.091616929 -0.056084123 1.1168572
-0.085062571 -0.054537591 1.1164545
-0.079460189 -0.056897417 1.1190001
-0.084365144 -0.048068509 1.1190001
-0.061415758 0.0087736798 1.1120001
-0.057046451 0.0079516172 1.1137143
-0.064439178 0.015415441 1.115077
-0.057551414 0.011444882 1.1190001
-0.071699716 0.026827533 1.1127501
-0.067371987 0.023004903 1.1165
-0.072593607 0.031897344 1.1159999
-0.1004099 0.10820872 1.1120001
-0.094988793 0.10552268 1.1153078
-0.088950984 0.10165827 1.115
-0.11015843 0.11893211 1.1120001
-0.10351668 0.11609444 1.1140001
-0.098299973 0.11399056 1.1185
-0.34022382 0.12673093 1.1120001
-0.33437467 0.12926555 1.1120001
-0.32852557 0.1296555 1.1120001
-0.10566705 0.12344161 1.1160834
-0.33423841 0.13293666 1.115889
-0.32517707 0.13553169 1.1143335
-0.31669113 0.13823247 1.112375
-0.30707881 0.13940403 1.1120001
-0.11093831 0.13784425 1.1120001
-0.10671771 0.13603441 1.1145557
-0.32274571 0.14126256 1.1190001
-0.31444612 0.14243256 1.1174001
-0.30464032 0.1433537 1.1161667
-0.29482287 0.1442408 1.1145
-0.28550559 0.14598753 1.1129376
-0.27503267 0.14889468 1.1125001
-0.26516011 0.14915256 1.1120001
-0.252487 0.14915256 1.1120001
-0.24761274 0.14915256 1.1120001
-0.13160519 0.14915256 1.1120001
-0.12439848 0.14885187 1.1155999
-0.11415995 0.14506653 1.1155335
-0.1068167 0.14209726 1.1178571
-0.28612208 0.15074547 1.1190001
-0.27492112 0.15251741 1.117
-0.26496613 0.1527936 1.1152729
-0.25462082 0.15378848 1.1148235
-0.2447294 0.15468474 1.1152999
-0.23544759 0.15584248 1.1158463
-0.22504269 0.15711898 1.1142309
-0.2154543 0.15758315 1.1135
-0.20470318 0.15785521 1.1133636
-0.19481207 0.15807098 1.1136365
-0.18433414 0.15794912 1.1149001
-0.17476298 0.15655686 1.1150001
-0.1655748 0.1548837 1.1158001
-0.15523259 0.1548465 1.1155334
-0.14534317 0.15737805 1.1150002
-0.1350967 0.1544269 1.1152942
-0.12654771 0.15205345 1.1190001
-0.21366557 0.1617187 1.118
-0.20487753 0.16174762 1.1182001
-0.197179 0.16186334 1.1190001
-0.17363523 0.16186334 1.1190001
-0.093097396 -0.14334093 1.12375
-0.084048085 -0.14445816 1.1235001
-0.076890677 -0.14097106 1.1245
-0.093527183 -0.13881403 1.123
-0.083682217 -0.13881403 1.123
-0.076890677 -0.13899945 1.1245
-0.084666714 -0.053162821 1.123
-0.060906064 0.017149178 1.1242001
-0.056462593 0.015067897 1.1242858
-0.06484773 0.025427368 1.1242001
-0.072948746 0.034995656 1.1245
-0.069005504 0.030560162 1.1245
-0.092603832 0.1083663 1.1237501
-0.089828528 0.10562255 1.126
-0.095849596 0.114992 1.1238573
-0.10511724 0.12681194 1.1248001
-0.098866373 0.12185901 1.1240001
-0.34162036 0.13290705 1.123
-0.33604968 0.13772246 1.124125
-0.10454162 0.1354453 1.125
-0.33167458 0.14214624 1.126
-0.32497075 0.14477977 1.1246154
-0.31519791 0.14697249 1.1240715
-0.30540389 0.14826663 1.1242857
-0.2983025 0.14865899 1.123
-0.11321712 0.14865899 1.123
-0.10654064 0.14501359 1.1252501
-0.30370599 0.15103038 1.126
-0.29464489 0.15176152 1.1251429
-0.28489825 0.15452762 1.1245
-0.27513793 0.15667552 1.1240001
-0.26551792 0.15803024 1.1248751
-0.25515756 0.15860982 1.12375
-0.16342646 0.15850396 1.123
-0.15653497 0.15850396 1.123
-0.13248567 0.15747184 1.125
-0.12596574 0.15458103 1.1255
-0.11726118 0.15142019 1.1240001
-0.26158857 0.16090165 1.126
-0.25552851 0.16180304 1.1254001
-0.24521078 0.1617597 1.1243334
-0.23509914 0.16196314 1.1246364
-0.22462061 0.16351226 1.1243334
-0.21528755 0.16459993 1.1242858
-0.20433524 0.16485015 1.126
-0.19420753 0.16364604 1.1245
-0.18466319 0.16269067 1.1247143
-0.17508599 0.16381808 1.1247144
-0.16542381 0.16148123 1.1248751
-0.15482405 0.16172802 1.1248751
-0.14419354 0.16225845 1.1240001
-0.13745818 0.16151989 1.1248001
-0.096091434 -0.14463246 1.13
-0.091260649 -0.13659203 1.1340001
-0.084900685 -0.1356369 1.134889
-0.075898141 -0.13650578 1.1350909
-0.054337554 0.017453432 1.1328572
-0.061499484 0.02603963 1.1315
-0.057539839 0.02210217 1.1356
-0.072772093 0.037379894 1.1320001
-0.065669052 0.033336122 1.1350001
-0.077055842 0.041615363 1.1356
-0.093392469 0.11525303 1.1333333
-0.10241946 0.12735386 1.1311429
-0.097430475 0.1247424 1.1357144
-0.34430614 0.1375227 1.1339999
-0.10209675 0.13429625 1.1347274
-0.34388566 0.14204103 1.1370001
-0.33630356 0.14426288 1.1331111
-0.32750338 0.14839688 1.13
-0.11194157 0.14958563 1.13
-0.10407261 0.14558487 1.1327999
-0.33121872 0.15164229 1.138
-0.324063 0.15436557 1.136
-0.31485304 0.15494801 1.1344002
-0.3049691 0.15597303 1.1350001
-0.29536372 0.15673433 1.1344
-0.28565013 0.15854283 1.1326667
-0.27638668 0.15949197 1.13
-0.13175423 0.15949197 1.13
-0.12433938 0.15716703 1.1346666
-0.11356761 0.15394932 1.1344
-0.10626252 0.15155813 1.1355
-0.29031518 0.16062111 1.138
-0.28408033 0.16222498 1.1370001
-0.27493384 0.16471624 1.13525
-0.26536122 0.16475762 1.1336923
-0.2547853 0.16700134 1.1332728
-0.24472421 0.16664557 1.1322223
-0.23505265 0.16738133 1.1321819
-0.22527164 0.16830105 1.131091
-0.21494991 0.16885087 1.1322223
-0.20604096 0.16832376 1.1322857
-0.19435349 0.16751435 1.1340001
