# .PCD v0.7 - Point Cloud Data file format
VERSION 0.7
FIELDS x y z
SIZE 4 4 4
TYPE F F F
COUNT 1 1 1
WIDTH 1434
HEIGHT 1
VIEWPOINT 0 0 0 1 0 0 0
POINTS 1434
DATA ascii
-0.0076269209 -0.20445657 1.153
-0.031443402 -0.19170333 1.1570001
-0.027180029 -0.19581664 1.1553332
-0.01212956 -0.19508374 1.153
-0.0058626211 -0.19447729 1.153
-0.033212692 -0.18529806 1.155
-0.028639236 -0.18834512 1.153
-0.011792627 -0.18834512 1.153
-0.0045026401 -0.18525147 1.153
0.001516195 -0.18244879 1.153
-0.034011863 -0.17511189 1.1545999
-0.0010107966 -0.17891102 1.153
-0.031923376 -0.16772079 1.156
-0.028524805 -0.16365981 1.1538
-0.025518015 -0.15492015 1.155
0.0090971701 -0.15667348 1.153
0.011118763 -0.15667348 1.153
0.095014885 -0.15768428 1.153
-0.022610303 -0.14521524 1.1547778
0.091982499 -0.14151153 1.153
-0.014172194 -0.13644335 1.1545999
-0.0067439047 -0.13114204 1.1536666
0.01819434 -0.13039277 1.153
0.087939315 -0.13154796 1.153
0.091982499 -0.13342516 1.153
-0.0037764409 -0.1262192 1.1551818
0.0039324346 -0.12150065 1.1538888
0.015450749 -0.12365414 1.153
0.022237526 -0.1202848 1.153
0.047760144 -0.1220537 1.153
0.055658109 -0.12244551 1.1543332
0.064851612 -0.12150065 1.1538889
0.075830512 -0.1223385 1.1533077
0.08468312 -0.12622648 1.1558571
0.092247248 -0.12705179 1.1563333
0.0072557316 -0.1155974 1.1549999
0.015163492 -0.1142353 1.15316
0.023103923 -0.11393122 1.153
0.047700934 -0.11404344 1.1541427
0.052743774 -0.11867349 1.1570001
0.067679927 -0.11700451 1.1561112
0.073759452 -0.11684717 1.1565001
0.080129966 -0.11867349 1.1570001
0.016325396 -0.10543067 1.1549999
0.024810463 -0.1036526 1.153
0.035377886 -0.10177945 1.153
0.044370525 -0.10439889 1.1548822
0.025786653 -0.094606981 1.1545236
0.034768309 -0.094653904 1.1550951
0.041586436 -0.09838742 1.1570001
0.0048313099 -0.31359592 1.1689999
0.013322704 -0.31154627 1.169
-0.0023058525 -0.30437255 1.169
0.0053673722 -0.30488503 1.1644787
0.014481139 -0.30501488 1.165
0.022468966 -0.30128843 1.1650001
-0.0039764624 -0.29391107 1.1650001
0.002183025 -0.29647627 1.1621429
-0.01229788 -0.28336364 1.169
-0.0057942788 -0.28477395 1.1652223
-0.013783933 -0.27487478 1.1671177
-0.00713774 -0.27607405 1.1628182
-0.015083977 -0.26476091 1.165
-0.0081424797 -0.26971966 1.161
-0.022166515 -0.25304225 1.1670001
-0.017844988 -0.25591126 1.1630001
-0.023646455 -0.24444535 1.1652857
-0.01933839 -0.24834564 1.161
-0.023898106 -0.23464362 1.1647335
-0.01933839 -0.23613192 1.161
-0.033409238 -0.22197673 1.169
-0.025513215 -0.22549057 1.1638571
-0.01323153 -0.22900724 1.161
-0.035395943 -0.21480945 1.1668001
-0.028230339 -0.21519656 1.1613637
-0.035188526 -0.20534483 1.1648183
-0.028498679 -0.20661543 1.1610001
-0.043204416 -0.19472256 1.1677999
-0.036175091 -0.19532388 1.1637274
-0.028498679 -0.19847295 1.161
-0.043661974 -0.18557541 1.1665384
-0.038167872 -0.18473254 1.1610001
-0.042370178 -0.17664044 1.1674001
-0.038484946 -0.17423759 1.1635455
-0.035111703 -0.16532345 1.1650002
-0.02951649 -0.1618318 1.161
-0.032910213 -0.15533115 1.1669999
-0.029033009 -0.15432796 1.1620001
-0.026785878 -0.14506479 1.1646924
-0.02283746 -0.13837366 1.1663333
-0.015321343 -0.13382913 1.1653636
-0.0053963843 -0.12474252 1.165
0.086334795 -0.12249597 1.1620001
0.094400831 -0.12353947 1.1646365
0.10145751 -0.12400362 1.169
-0.0010248233 -0.11990433 1.169
0.0017068699 -0.11840114 1.1676668
0.055252597 -0.11468913 1.1623334
0.063355736 -0.11431821 1.1626843
0.075413361 -0.11340623 1.1624287
0.084979676 -0.11528518 1.1655002
0.093685716 -0.11585362 1.1682941
0.0092234099 -0.10863127 1.169
0.012252294 -0.10622044 1.165
0.049058445 -0.10483442 1.161
0.054541904 -0.10549639 1.1672002
0.064480148 -0.10720997 1.1675001
0.074898452 -0.10560342 1.1676669
0.083967194 -0.10705987 1.169
0.02748087 -0.09058509 1.161
0.039185684 -0.092111804 1.161
0.044914756 -0.094924212 1.1643335
0.050728753 -0.097870626 1.169
0.076861747 -0.099407859 1.169
0.027787065 -0.086145334 1.1660908
0.035612535 -0.085018836 1.1661669
0.043243997 -0.086740255 1.1675
0.033819169 -0.078911394 1.169
-0.0030955102 -0.32090122 1.177
0.0041273469 -0.32296488 1.177
0.01238204 -0.32090122 1.177
-0.0030937567 -0.31538609 1.1756667
0.0048845671 -0.3190394 1.1730002
0.013718664 -0.31553513 1.1736668
-0.006650473 -0.30494812 1.1748184
0.01953827 -0.30952734 1.1730001
0.02159493 -0.30541402 1.1730001
-0.0144425 -0.2945067 1.1766667
-0.0084323054 -0.29636469 1.1730001
-0.01647763 -0.28602654 1.1745557
-0.02166857 -0.27343673 1.177
-0.018767022 -0.27482119 1.1730002
-0.022226632 -0.26391438 1.1752857
-0.01953827 -0.26736581 1.1730001
-0.025734302 -0.25483361 1.174143
-0.028381582 -0.24453627 1.174143
-0.03464023 -0.23157363 1.177
-0.028969198 -0.23601182 1.174143
-0.041772291 -0.22381431 1.1765001
-0.035652362 -0.22578892 1.1740911
-0.044067793 -0.21517354 1.1750001
-0.050559998 -0.20120814 1.177
-0.044980556 -0.20506793 1.1749049
-0.050559998 -0.19501713 1.177
-0.047601465 -0.19529393 1.1740001
-0.050559998 -0.18882611 1.177
-0.047356948 -0.18427797 1.1743335
-0.043606859 -0.17373781 1.1750001
-0.040241629 -0.16509387 1.177
-0.038134709 -0.16387384 1.1756667
-0.040241629 -0.15580735 1.177
-0.037206218 -0.15511495 1.1752223
-0.040585574 -0.14480108 1.177
-0.035048783 -0.14533851 1.1758001
-0.029332828 -0.14254381 1.174
-0.041067101 -0.13723429 1.177
-0.034824487 -0.13594449 1.177
-0.026267398 -0.13437201 1.1760477
-0.017499644 -0.13190039 1.174143
-0.025233097 -0.1274787 1.177
-0.01560905 -0.12671988 1.1764667
-0.0069869361 -0.12287797 1.1756667
0.0983769 -0.12168572 1.1730001
-0.032502856 -0.11453387 1.177
-0.029923264 -0.11350203 1.177
-0.0025787149 -0.11804448 1.1760001
0.0041273464 -0.11453386 1.177
0.095634691 -0.11105964 1.1730002
0.0082546938 -0.10731101 1.177
0.057684664 -0.10094641 1.1750001
0.065186158 -0.10193603 1.1745386
0.07095477 -0.10180467 1.1730001
0.087206826 -0.1028858 1.1745386
0.094551943 -0.10525967 1.1748668
0.10008816 -0.10627918 1.177
0.04833151 -0.091521367 1.1730001
0.053583972 -0.096035324 1.1754
0.069133058 -0.09802448 1.177
0.075460628 -0.097035915 1.1753531
0.084403343 -0.09677285 1.1761428
0.091833465 -0.09802448 1.177
0.027110917 -0.082701512 1.1743335
0.045614317 -0.084387057 1.175182
0.050559998 -0.089769788 1.177
0.029855467 -0.077212416 1.1743335
0.035247192 -0.075480804 1.1745387
0.04147926 -0.077029407 1.1755002
-0.0039609554 -0.33292872 1.189
0.0055592353 -0.33216432 1.189
0.011465923 -0.33146942 1.189
-0.014227133 -0.3228505 1.1873335
-0.005046152 -0.32588613 1.1826001
0.0053943051 -0.32741994 1.1834002
0.015377787 -0.32432896 1.1850001
0.022931846 -0.32000348 1.189
-0.021889489 -0.31270701 1.189
-0.014987143 -0.3145749 1.1869999
-0.0082852021 -0.31588668 1.1814001
0.017915685 -0.31726956 1.182143
0.02430319 -0.3145932 1.1864547
0.030228343 -0.31374934 1.189
-0.024777228 -0.30250207 1.1874001
-0.015102921 -0.30479342 1.1834445
-0.0086278617 -0.30887744 1.1810001
0.025538469 -0.30853233 1.1810001
-0.023866845 -0.29473001 1.1834617
-0.017083166 -0.29688469 1.1810001
-0.024265153 -0.28543687 1.1849999
-0.024077499 -0.27537039 1.1853335
-0.030228343 -0.26163152 1.189
-0.025973877 -0.26594648 1.1850001
-0.031166377 -0.25452179 1.1850001
-0.027264038 -0.25918093 1.1810001
-0.043778978 -0.24234794 1.189
-0.033694431 -0.24501869 1.1850002
-0.051075477 -0.23140317 1.189
-0.04419785 -0.23457015 1.1833999
-0.035761427 -0.23718995 1.1823332
-0.053090759 -0.22380725 1.1874001
-0.046469197 -0.22612101 1.1819232
-0.054044753 -0.21511631 1.1853998
-0.048661131 -0.21638675 1.1810001
-0.053597979 -0.20566323 1.1843846
-0.053176973 -0.19537129 1.1827145
-0.051337019 -0.18487585 1.1870002
-0.048743542 -0.18252726 1.1830001
-0.051075477 -0.17824298 1.189
-0.047520675 -0.17523791 1.1853638
-0.055244904 -0.16469236 1.189
-0.045730788 -0.16523325 1.1853999
-0.052743249 -0.15677042 1.189
-0.045407958 -0.15469088 1.1834761
-0.045590427 -0.14549775 1.1818572
-0.044328649 -0.1347899 1.18275
-0.036237016 -0.13252395 1.1810001
-0.04233066 -0.12538134 1.1865386
-0.034349702 -0.12513906 1.1813333
-0.024848239 -0.12279171 1.181
-0.015323082 -0.12237759 1.181
-0.00931809 -0.12113517 1.1810001
-0.040515151 -0.11946775 1.1850001
-0.034593444 -0.11786239 1.1814001
-0.024859637 -0.11497976 1.1815999
-0.015664499 -0.11546373 1.1848332
-0.0056830961 -0.11445063 1.1832856
0.0035201677 -0.11305951 1.181
-0.023890315 -0.10603774 1.1850001
-0.017868971 -0.10557584 1.189
-0.0034721845 -0.10862982 1.1876667
0.0051938598 -0.10519133 1.1854444
0.012424121 -0.10456967 1.1810001
0.061085258 -0.10042831 1.1810001
0.09587279 -0.10084244 1.1810001
0.10042831 -0.10249899 1.1810001
-0.01730312 -0.098190002 1.189
0.0093812095 -0.099023886 1.189
0.056686282 -0.092878185 1.1822308
0.065191567 -0.094238162 1.1834998
0.075123467 -0.091704734 1.182
0.085243262 -0.091455325 1.1810001
0.094256066 -0.093854964 1.1827141
0.10076845 -0.090379946 1.1850001
0.048661135 -0.082827464 1.1810001
0.055348441 -0.084709994 1.1849999
0.064365521 -0.087557964 1.189
0.076562263 -0.085924186 1.1862501
0.084583521 -0.084249198 1.1849998
0.092836149 -0.087112837 1.1865001
0.027954269 -0.079721436 1.1810001
0.036275592 -0.071519345 1.1823335
0.045925833 -0.074829958 1.182647
0.053823568 -0.076474257 1.1873529
0.037113685 -0.068331786 1.187
0.043968562 -0.068939537 1.187
0.051075477 -0.069837898 1.189
-0.0062962202 -0.34104526 1.197
0.00104937 -0.34104526 1.197
-0.015290818 -0.33459917 1.1970003
-0.0061867954 -0.33641136 1.194091
0.004448426 -0.3367897 1.194
0.015434219 -0.33369073 1.1964285
0.02273635 -0.33195069 1.197
0.030431731 -0.33055153 1.197
-0.023296013 -0.32257634 1.197
-0.017795455 -0.32632226 1.194
-0.0094127702 -0.32944694 1.1930001
0.018629691 -0.32841143 1.1938
0.025221091 -0.32496339 1.1948463
0.032803178 -0.32488692 1.195154
-0.031481098 -0.31271225 1.197
-0.025139291 -0.31435826 1.1947144
-0.019871403 -0.31550211 1.1930001
0.02823831 -0.31794244 1.1930001
0.032421764 -0.31749421 1.193
-0.032460339 -0.3046864 1.1943334
-0.025805851 -0.30547827 1.1933333
-0.019871403 -0.30852968 1.1930001
-0.031193335 -0.29541102 1.196
-0.02823831 -0.29458484 1.1930001
-0.030431729 -0.28437927 1.197
-0.02823831 -0.28447482 1.1930001
-0.03113131 -0.27423537 1.197
-0.028238308 -0.27506202 1.1930001
-0.033226166 -0.26474872 1.1950001
-0.02823831 -0.26878688 1.1930001
-0.051419131 -0.25079942 1.197
-0.043185614 -0.25370538 1.1970003
-0.036843803 -0.25531438 1.1954616
-0.053032394 -0.24418002 1.1965556
-0.046143033 -0.24630862 1.1937271
-0.036605217 -0.24891546 1.1930001
-0.055157136 -0.23516046 1.1945558
-0.049155578 -0.2395027 1.1930001
-0.062332578 -0.22393556 1.197
-0.057730805 -0.22645168 1.1933637
-0.062577926 -0.21674764 1.1963334
-0.059654187 -0.21454294 1.1938
-0.057968706 -0.20498133 1.1950001
-0.056436419 -0.1953515 1.1952858
-0.061912831 -0.18154101 1.197
-0.056256574 -0.18378383 1.1956668
-0.06187145 -0.17513047 1.1962
-0.055661321 -0.17465831 1.194167
-0.053861961 -0.16576934 1.193
-0.046017986 -0.12864119 1.1930001
-0.013596224 -0.11190738 1.1930001
-0.012854404 -0.10540905 1.1948181
-0.0057912138 -0.1047129 1.1951056
0.0026146581 -0.10197168 1.1930001
-0.012592441 -0.097591408 1.197
-0.0054567242 -0.098430902 1.1970001
0.0050672791 -0.097655259 1.1956667
0.01154307 -0.097591408 1.197
0.065492198 -0.083210833 1.1945384
0.07315769 -0.082585067 1.1950001
0.088898383 -0.081577346 1.1930001
0.095483899 -0.08403936 1.1948463
0.10205671 -0.086877666 1.194
0.057561763 -0.072211556 1.1938
0.063982017 -0.075217746 1.1964287
0.075344764 -0.078282997 1.197
0.085763663 -0.07625404 1.1959336
0.091819875 -0.077128693 1.197
0.03777732 -0.065060943 1.197
0.045712363 -0.064570338 1.1952502
0.05498923 -0.065479629 1.1967649
0.061912831 -0.068209052 1.197
0.047221649 -0.059814084 1.197
-0.020599915 -0.3427977 1.205
-0.014527445 -0.3442094 1.2035384
-0.0055418485 -0.34541589 1.204
0.005468328 -0.34375745 1.2038183
0.01162986 -0.34149498 1.2060001
-0.02196436 -0.33470535 1.2044001
-0.013698793 -0.33720106 1.202
0.016361229 -0.33829075 1.204
0.025641331 -0.33333731 1.202
0.030558847 -0.33403981 1.202
-0.032352157 -0.32204142 1.2060001
-0.025974933 -0.32604986 1.2044002
0.02845134 -0.32982481 1.202
-0.033074293 -0.31700385 1.2040001
-0.02845134 -0.31928727 1.202
-0.037223265 -0.30385092 1.2045001
-0.036216851 -0.29499707 1.2048571
-0.035316423 -0.28532439 1.2044444
-0.03559665 -0.27486834 1.2038182
-0.051805738 -0.26114321 1.2060001
-0.042150132 -0.26133081 1.202
-0.03832962 -0.26654407 1.2033334
-0.054257218 -0.25514585 1.2049092
-0.048006706 -0.25638336 1.2035002
-0.061271109 -0.24296904 1.205
-0.056687459 -0.24651998 1.2030001
-0.062769629 -0.23577571 1.2033334
-0.066017091 -0.22501636 1.2037778
-0.065337576 -0.21477574 1.2042222
-0.061270233 -0.20572779 1.205
-0.061056763 -0.19585742 1.2060002
-0.057253931 -0.19143187 1.202
-0.062291674 -0.18747316 1.2042857
-0.055848926 -0.1875681 1.202
0.013698793 -0.10010657 1.202
-0.0046227309 -0.094340801 1.2029229
0.0050940178 -0.093282588 1.2023333
0.014099827 -0.09408658 1.2034546
0.020087941 -0.093038879 1.2060001
-0.0021145199 -0.0898671 1.2060001
0.0052862996 -0.0898671 1.2060001
0.01480164 -0.0898671 1.2060001
0.097999059 -0.082192764 1.202
0.10404924 -0.083167039 1.2042223
0.067829452 -0.07309939 1.2026668
0.074621618 -0.075222254 1.2037144
0.08414422 -0.072123714 1.2028
0.095253848 -0.074603334 1.2034286
0.10096833 -0.077708609 1.2060001
0.036965527 -0.065121718 1.2046667
0.041798878 -0.060766444 1.202
0.055427425 -0.060485441 1.202
0.063135788 -0.064036995 1.2031429
0.087351657 -0.067979068 1.2053334
0.092686452 -0.068017058 1.2060001
0.046366666 -0.055510893 1.2038666
0.054585021 -0.055335708 1.2040001
0.060968656 -0.057444464 1.2060001
-0.024579102 -0.36179966 1.219
-0.013892537 -0.36013728 1.2190001
-0.0053427354 -0.36102021 1.218375
0.0010686567 -0.36120594 1.2190001
-0.024256229 -0.3547816 1.2152941
-0.015000404 -0.35431999 1.2143637
-0.0050586406 -0.35498288 1.2150625
0.0031933677 -0.35378838 1.2146251
-0.031703483 -0.34161392 1.2190001
-0.025206912 -0.34577248 1.2146
-0.013789967 -0.34899223 1.21
-0.0031823001 -0.34899223 1.21
0.0042430665 -0.34899223 1.21
0.013835553 -0.34376028 1.2140001
-0.034176648 -0.33378342 1.2152307
-0.026775856 -0.33639666 1.212
-0.041677609 -0.32487163 1.2190001
-0.035923403 -0.32567987 1.2121999
-0.028640701 -0.32989842 1.21
-0.042211939 -0.31471938 1.2190001
-0.038236253 -0.31543824 1.2115
-0.050226863 -0.30029252 1.2190001
-0.043971304 -0.30401251 1.2141538
-0.039248366 -0.30762231 1.21
-0.050226863 -0.29494923 1.2190001
-0.044853121 -0.29492512 1.2135791
-0.039248366 -0.29489315 1.21
-0.050226863 -0.28853729 1.2190001
-0.04439966 -0.28546464 1.2142353
-0.039248366 -0.2832247 1.21
-0.062573306 -0.27185646 1.2180002
-0.053506915 -0.27439764 1.2172143
-0.044430539 -0.27494764 1.2129999
-0.039248366 -0.27686009 1.21
-0.071599998 -0.26182088 1.2190001
-0.064873241 -0.26467952 1.2152224
-0.055083159 -0.2658667 1.2112498
-0.046030477 -0.2655673 1.2105
-0.072364777 -0.25447869 1.218375
-0.064838886 -0.2550832 1.2123752
-0.057917863 -0.25734201 1.21
-0.07190726 -0.24455507 1.2181667
-0.065586939 -0.24587081 1.2114999
-0.071599998 -0.23474824 1.2190001
-0.068133563 -0.23533143 1.2122223
-0.071849495 -0.22408371 1.2160002
-0.069025807 -0.22619228 1.2113334
-0.07206624 -0.21442054 1.2148334
-0.068242662 -0.21356769 1.21
-0.072285943 -0.20597178 1.2145556
-0.066633455 -0.20493902 1.2112498
-0.071306311 -0.19901912 1.2140001
-0.065786526 -0.19558872 1.2103333
-0.066828303 -0.18987723 1.21
0.014850734 -0.090165168 1.21
0.022276102 -0.090695553 1.21
-0.0010664649 -0.087447941 1.2165
0.0053238566 -0.084163494 1.21532
0.014700617 -0.08476299 1.2131177
0.022919074 -0.084695265 1.212
0.10625375 -0.081814036 1.2120001
0.0074805967 -0.076943278 1.219
0.015290748 -0.077342093 1.2169167
0.024517825 -0.076755665 1.2161
0.031767946 -0.073126622 1.2160002
0.075314432 -0.071424954 1.21
0.098651297 -0.072132133 1.21
0.10471433 -0.076138213 1.2146666
0.11007164 -0.078011937 1.2190001
0.03619625 -0.064240232 1.2145
0.068331458 -0.064072609 1.2131251
0.0751376 -0.06569615 1.2153335
0.084235542 -0.063763425 1.2146112
0.095324561 -0.06404116 1.21355
0.10242448 -0.065079346 1.217
0.039459206 -0.057586916 1.2165
0.043293931 -0.052408509 1.2130001
0.057281397 -0.051977567 1.21
0.065269127 -0.054003879 1.2147144
0.071599998 -0.056638803 1.2190001
0.086133733 -0.058348656 1.2190001
0.095377609 -0.057974622 1.219
0.10223482 -0.058063675 1.2190001
0.047124449 -0.047389641 1.214875
0.054442462 -0.045573145 1.21375
0.063282117 -0.045057025 1.2170769
0.054976448 -0.038590379 1.219
0.061625868 -0.038827855 1.2190001
-0.0349526 -0.3638038 1.2245555
-0.027340164 -0.36667985 1.223
-0.015027381 -0.36391091 1.2245002
-0.008055252 -0.36566949 1.2250001
-0.032975137 -0.35510331 1.2254617
-0.028948409 -0.35434997 1.223
-0.013938123 -0.35917473 1.223
-0.03456565 -0.34545037 1.2256669
-0.042811669 -0.33324257 1.2270001
-0.039166398 -0.33639935 1.2240001
-0.043694444 -0.32516906 1.2241429
-0.050556488 -0.31086862 1.2270001
-0.045106255 -0.31546259 1.2250001
-0.052397706 -0.30416563 1.2260002
-0.046103027 -0.30914041 1.223
-0.053912021 -0.29489538 1.2250001
-0.064002365 -0.28209445 1.2270001
-0.055134781 -0.28487486 1.226238
-0.048247349 -0.28305113 1.223
-0.072787009 -0.27286163 1.2270001
-0.066721976 -0.2756274 1.2247142
-0.056824658 -0.27769029 1.223
-0.074886374 -0.26501396 1.2252858
-0.069690615 -0.269113 1.223
-0.076894186 -0.25537598 1.2250001
-0.074777029 -0.24615164 1.2243334
-0.073783182 -0.23567547 1.2256669
-0.073695578 -0.22537819 1.2254002
-0.0766908 -0.21501537 1.2263335
-0.076372571 -0.20975564 1.2270001
0.0048889751 -0.07522355 1.223889
0.014857121 -0.072753944 1.2230002
0.024659757 -0.071834944 1.223
0.1075016 -0.073597386 1.2238001
0.11139073 -0.075572461 1.2256669
0.01505938 -0.069918551 1.2270001
0.023923578 -0.069083303 1.2265002
0.033069715 -0.065067269 1.2256668
0.077195764 -0.061113309 1.223
0.10725176 -0.065424755 1.2233999
0.11096891 -0.062721558 1.223
0.038028222 -0.0565059 1.2254002
0.041951131 -0.050556488 1.2270001
0.069690615 -0.050391678 1.223
0.075562418 -0.05462148 1.22475
0.08437708 -0.055283606 1.2254617
0.095402122 -0.053680807 1.2247142
0.10459054 -0.055692971 1.2243334
0.11061342 -0.057989746 1.2250001
0.046140719 -0.043456808 1.2240001
0.068836741 -0.044611435 1.2241429
0.072883435 -0.046652514 1.2262002
0.048405148 -0.039799791 1.2270001
0.055554144 -0.034886073 1.2245001
0.064953275 -0.036821511 1.2255455
-0.04225884 -0.36190903 1.2360001
-0.039961971 -0.36181787 1.2320001
-0.014040694 -0.36829817 1.2320001
-0.04225884 -0.35540766 1.2360001
-0.038587358 -0.35573027 1.2320002
-0.043784559 -0.34426701 1.2345456
-0.039241936 -0.34633708 1.2320002
-0.046952512 -0.33492631 1.2340001
-0.047601249 -0.32454202 1.2340001
-0.053039502 -0.31280872 1.2346667
-0.048602398 -0.31645563 1.2320001
-0.062846482 -0.30014613 1.2360001
-0.056397717 -0.30515066 1.2337143
-0.070431396 -0.2925612 1.2360001
-0.06458579 -0.29372141 1.2337145
-0.058477171 -0.29454595 1.2320002
-0.072502375 -0.2849538 1.2343335
-0.065343224 -0.28702417 1.2320002
-0.075870946 -0.27537432 1.2328002
-0.081697322 -0.26455298 1.233143
-0.078843892 -0.2678532 1.2320001
-0.082275912 -0.25608936 1.2325716
-0.078843892 -0.25165242 1.2320001
-0.077849172 -0.24543859 1.2333335
-0.076783374 -0.23467596 1.2336
-0.077223815 -0.22357105 1.2320001
-0.077763841 -0.21925083 1.2320001
0.0067019416 -0.071593508 1.2336
0.11372221 -0.072564952 1.2354287
0.0088788811 -0.066486403 1.2352002
0.015349849 -0.065072984 1.2330668
0.02522634 -0.06424316 1.2322356
0.031321548 -0.062643096 1.2320001
0.018420519 -0.059595801 1.2360001
0.025403462 -0.058632638 1.2360001
0.034503654 -0.056622922 1.2342223
0.040091719 -0.050927319 1.2360001
0.078843892 -0.050762508 1.2320001
0.085015632 -0.051379681 1.2320002
0.093964636 -0.050762508 1.2320001
0.10645688 -0.052995253 1.2337143
0.11160668 -0.054177999 1.2360001
0.044425961 -0.044425961 1.2360001
0.076908484 -0.043980341 1.2329233
0.085479081 -0.044358488 1.2342402
0.095016845 -0.045118216 1.2341177
0.10155908 -0.045907278 1.2342857
0.048602398 -0.037801865 1.2320001
0.054205053 -0.032585952 1.233143
0.065914817 -0.032570425 1.2325716
0.074176878 -0.035407163 1.2352002
0.08451768 -0.037924599 1.2360001
0.057187889 -0.027570583 1.2360001
0.064455159 -0.026900515 1.2356668
-0.045378894 -0.36122143 1.2423334
-0.045946196 -0.35507813 1.2445556
-0.048531823 -0.34461856 1.244
-0.057846848 -0.31106326 1.245
-0.074361347 -0.30326065 1.2443333
-0.064802729 -0.30557474 1.2431538
-0.059836883 -0.30462414 1.2410001
-0.075071007 -0.29511082 1.2434
-0.06745249 -0.29918441 1.2410001
-0.081858747 -0.28268555 1.245
-0.078622676 -0.28504691 1.2436666
-0.082404472 -0.27504539 1.245
-0.079675846 -0.27831975 1.245
-0.084041648 -0.26631379 1.245
-0.082950197 -0.25430784 1.245
-0.084353492 -0.24619994 1.245
-0.079675846 -0.24339335 1.245
-0.082404472 -0.23739037 1.245
-0.079547852 -0.23537448 1.243
0.12115095 -0.152803 1.245
0.12204427 -0.14928845 1.243
0.0054572499 -0.07094425 1.245
0.11858582 -0.070716314 1.2410001
0.013078114 -0.061021261 1.243
0.017081849 -0.058510195 1.2436666
0.025309268 -0.055098593 1.2432222
0.033263803 -0.053982064 1.244
0.10988227 -0.051133335 1.2410001
0.11314611 -0.051133335 1.2410001
0.097914904 -0.040253904 1.2410001
0.10609118 -0.04294293 1.2418889
0.11198278 -0.048242088 1.245
0.085258313 -0.033566687 1.2424546
0.094647966 -0.035794362 1.2431538
0.10378695 -0.035442021 1.244
0.057721782 -0.022507541 1.2423334
0.066038713 -0.021407323 1.2416667
0.0750686 -0.025960114 1.2431178
0.082498722 -0.028709957 1.2436666
0.063304096 -0.01855465 1.245
-0.049312498 -0.36052915 1.25
-0.052358542 -0.35454279 1.2554286
-0.049312498 -0.35505 1.25
-0.053901564 -0.34464049 1.2546667
-0.049312498 -0.34957084 1.25
-0.05277748 -0.33661523 1.2571111
-0.053199463 -0.32383245 1.2590001
-0.071628049 -0.31406495 1.2570001
-0.066012926 -0.31406355 1.253
-0.057184525 -0.3167401 1.2545
-0.083265364 -0.30273271 1.2580001
-0.078242496 -0.30529916 1.25
-0.069037497 -0.30792916 1.25
-0.08527182 -0.29407182 1.2556154
-0.079265274 -0.29770139 1.25
-0.092198156 -0.28503999 1.2570001
-0.086482845 -0.28486249 1.2532145
-0.091609038 -0.27924201 1.2590001
-0.086515486 -0.27683872 1.2531251
-0.087535165 -0.26772815 1.2533334
-0.09095417 -0.25532916 1.25
-0.086327314 -0.25386804 1.25
-0.09095417 -0.24765833 1.25
-0.085005358 -0.2465625 1.25
0.11778726 -0.15411404 1.2557
0.11992361 -0.14852925 1.2550001
0.12297186 -0.14501956 1.2575455
0.12748003 -0.13630983 1.2590001
-0.029800531 -0.11147606 1.2590001
-0.024281912 -0.10374999 1.2590001
-0.017659573 -0.10043883 1.2590001
-0.015452126 -0.098231375 1.2590001
-0.0042513949 -0.084020033 1.2563573
-0.012140957 -0.073949464 1.2590001
-0.0046901666 -0.074455962 1.25825
0.0016492291 -0.073088795 1.2537501
0.0053614741 -0.064800024 1.2555001
0.012054167 -0.060270835 1.25
0.0082095936 -0.0560041 1.2581111
0.01505174 -0.054412819 1.2521429
0.024264881 -0.052130353 1.25
0.035066668 -0.051504165 1.25
0.015924182 -0.046312608 1.2558001
0.025288435 -0.045072272 1.2541203
0.035422903 -0.045907427 1.255765
0.042270396 -0.044065334 1.2539092
0.11541121 -0.043628771 1.2511111
0.025341451 -0.038556676 1.2566
0.047357243 -0.037815016 1.2563335
0.096433342 -0.032509722 1.25
0.10793959 -0.033422917 1.25
0.1150082 -0.035443392 1.2547226
0.054263037 -0.023506064 1.253
0.077438883 -0.021551391 1.25
0.085998818 -0.024860075 1.2536252
0.095094718 -0.027685672 1.2556922
0.10418055 -0.026940495 1.2562001
0.11412499 -0.029359043 1.2590001
0.056334041 -0.015705483 1.2555455
0.065024011 -0.014538421 1.251875
0.074700706 -0.015374487 1.2530625
0.082144156 -0.016279796 1.2567778
0.066665865 -0.0089829518 1.2584286
0.075053185 -0.0088297864 1.2589999
-0.057293475 -0.35521284 1.2648889
-0.058422234 -0.34424245 1.2653334
-0.056411423 -0.33391309 1.2661818
-0.090040676 -0.32125625 1.268
-0.08448261 -0.32125625 1.268
-0.074629925 -0.32250845 1.2667999
-0.065029375 -0.32292366 1.268
-0.056821637 -0.32551023 1.2653334
-0.091708101 -0.31514239 1.268
-0.084399544 -0.31538853 1.2667499
-0.076088697 -0.31611019 1.2651999
-0.060945865 -0.3180266 1.2640001
-0.09092997 -0.30435973 1.268
-0.08665394 -0.30539417 1.2640001
-0.09495151 -0.29484203 1.2657143
-0.089756638 -0.29697257 1.2640001
-0.096035905 -0.28626087 1.2640001
0.11004972 -0.15229103 1.268
0.11413498 -0.14294577 1.2640001
0.12152237 -0.14146829 1.2640001
0.12577817 -0.13465002 1.2651999
0.1318647 -0.1318647 1.2640001
-0.041129693 -0.12227747 1.268
-0.037794851 -0.12116585 1.268
0.12964848 -0.12964848 1.2640001
0.13207334 -0.12874201 1.266
-0.041129693 -0.11783101 1.268
-0.035247914 -0.11530863 1.2662499
-0.029918879 -0.11413498 1.2640001
-0.032476556 -0.10519781 1.2665
-0.026752859 -0.10463693 1.2640001
-0.030013559 -0.098933585 1.268
-0.023472125 -0.095308192 1.2662858
-0.014908982 -0.093899377 1.2651111
-0.0077666822 -0.092854775 1.266
-0.021120653 -0.086705841 1.268
-0.015336923 -0.085156716 1.2654117
-0.0088648535 -0.08384674 1.2640001
-0.014006329 -0.07803525 1.268
-0.0088648535 -0.077567466 1.2640001
-0.0040097386 -0.067301303 1.2649231
0.0016630366 -0.062656239 1.2650001
-0.0011081067 -0.058729652 1.2640001
0.0038788118 -0.055427685 1.2645
0.0099729598 -0.049864799 1.2640001
0.034351308 -0.040999945 1.2640001
0.029918879 -0.03656752 1.2640001
0.03549682 -0.036603753 1.2653333
0.044671431 -0.034680054 1.2659999
0.050708737 -0.031461813 1.2666668
0.051449817 -0.026648328 1.2666668
0.089756638 -0.021054026 1.2640001
0.095334426 -0.022170462 1.2645
0.10614374 -0.022447487 1.2645
0.11311367 -0.02550311 1.265
0.057803892 -0.010004519 1.268
0.086346403 -0.013980729 1.266
0.094931781 -0.017118845 1.2679999
0.10369739 -0.018146416 1.2673334
0.065259412 -0.0055471961 1.266
0.07436911 -0.003327827 1.2661539
0.081575587 -0.0077672666 1.266
0.073366478 0.0011116134 1.268
-0.061874431 -0.35315257 1.2739999
-0.061560631 -0.34473622 1.2767501
-0.06274128 -0.33051211 1.2780001
-0.05938014 -0.33611399 1.2780001
-0.083699755 -0.32326701 1.273
-0.077306218 -0.32827133 1.2780001
-0.062123816 -0.32549903 1.273
-0.095075123 -0.31302097 1.2758571
-0.1015557 -0.30020311 1.273
-0.096012942 -0.30550888 1.2748181
-0.1015557 -0.29685509 1.273
-0.099323705 -0.2979711 1.273
0.11519566 -0.15239553 1.2729999
0.11539914 -0.14817025 1.278
0.12411889 -0.1345524 1.2754999
0.12884369 -0.12884369 1.2780001
0.13278541 -0.12467471 1.2754999
-0.0414 -0.11300788 1.2763335
-0.038367022 -0.11137232 1.2746667
0.13444561 -0.11988066 1.2780001
-0.041454058 -0.1064361 1.2780001
-0.037145242 -0.10528788 1.2742499
-0.032212824 -0.096390471 1.2768888
-0.026602801 -0.093217894 1.275
-0.030250261 -0.086269259 1.2780001
-0.024626078 -0.084691048 1.27675
-0.018971942 -0.081467755 1.273
-0.021203937 -0.079235762 1.273
-0.018971942 -0.079235762 1.273
0.037303217 -0.031494778 1.2739999
0.043523867 -0.030131912 1.273
0.038315888 -0.027155921 1.273
0.045121331 -0.026133608 1.2739999
0.051029593 -0.021975696 1.2746667
0.11584587 -0.023806134 1.2758571
0.052657861 -0.019046459 1.2780001
0.088163733 -0.01004397 1.273
0.094859719 -0.012275962 1.2729999
0.10525229 -0.012916493 1.2733572
0.11167244 -0.015031229 1.2752222
0.059263982 -0.0067069381 1.2755001
0.062908001 -0.0026047227 1.2738333
0.079235762 -0.0011159966 1.273
0.084482118 -0.0049516633 1.2751428
0.099713817 -0.00784266 1.2780001
0.10587591 -0.0072824699 1.2780001
0.11077297 -0.0055916719 1.2763335
0.066283345 0.0030783052 1.276125
0.075080365 0.004732314 1.2753075
0.081787743 0.00112038 1.2780001
-0.061861984 -0.36104903 1.2830001
-0.065448865 -0.35507178 1.2871667
-0.063442029 -0.34499523 1.2846667
-0.085815147 -0.33422741 1.2880001
-0.078884661 -0.3324517 1.2855
-0.063901693 -0.33567682 1.2863334
-0.092599317 -0.32556683 1.2850001
-0.086722203 -0.32773131 1.2846668
-0.070860088 -0.32955566 1.2830001
-0.068610564 -0.32955566 1.2830001
-0.10010394 -0.31155944 1.2830001
-0.10197854 -0.3074353 1.2830001
0.12420613 -0.1332393 1.2880001
0.12874869 -0.12649038 1.286
0.13159731 -0.12147444 1.2830001
0.13532226 -0.11577231 1.2863334
-0.041616242 -0.10910204 1.2830001
-0.038241953 -0.10235346 1.2830001
-0.028119083 -0.091105826 1.2830001
-0.028119083 -0.088856302 1.2830001
0.045118745 -0.022562113 1.2867501
0.11697538 -0.021370504 1.2830001
0.12081869 -0.021453787 1.2880001
0.051842123 -0.018029088 1.2855
0.11691887 -0.014242407 1.2857274
0.12081869 -0.014678908 1.2880001
0.058937132 -0.0026288312 1.2846668
0.087470584 -0.0026259089 1.2846668
0.094756253 -0.0045089154 1.2867501
0.10469585 -0.003530395 1.2860001
0.114649 -0.0063882698 1.2863334
0.059786696 0.004515491 1.2867501
0.063891686 0.0059126783 1.2842501
0.076108985 0.0078733433 1.2830001
0.084829286 0.0036339785 1.2863334
0.10726893 0.0011291467 1.2880001
0.059844773 0.01016232 1.2880001
0.06605804 0.012935688 1.2872308
0.074077077 0.013047679 1.2858572
0.080922179 0.010915085 1.2880001
-0.067837872 -0.35325179 1.294
-0.065379605 -0.34565914 1.2970001
-0.083250016 -0.33639804 1.2920001
-0.066960238 -0.3370446 1.2945001
0.12369591 -0.13221054 1.2945001
0.12635463 -0.12509127 1.2958889
0.13025513 -0.12119391 1.2920001
0.12848514 -0.11938885 1.2970001
0.13232118 -0.11439019 1.2945
0.13699012 -0.10651018 1.2945
0.1398555 -0.098922193 1.2970001
0.044344429 -0.021603696 1.2970001
0.047661297 -0.019292366 1.2945001
0.052200679 -0.015890021 1.2945001
0.056704257 -0.0041574454 1.2936667
0.11779594 -0.0079285735 1.2920001
0.056740053 0.0045393799 1.2945
0.088027127 0.0064234822 1.2928333
0.095353268 0.0040577142 1.2948571
0.10466342 0.0046839747 1.2941874
0.11142959 0.0056851832 1.2970001
0.057275265 0.013794349 1.2955714
0.062913746 0.017195737 1.2919999
0.075510219 0.018500004 1.2919999
0.08365608 0.014132584 1.2942727
0.06563393 0.024152046 1.2953335
0.07430201 0.02436142 1.2946923
0.080729604 0.021603696 1.2970001
0.071633309 0.030699991 1.2970001
-0.073331416 -0.35176161 1.307
-0.069626622 -0.35155737 1.302
-0.079060428 -0.3403036 1.307
-0.068366267 -0.34565067 1.307
-0.072185613 -0.33801198 1.307
0.11679523 -0.13397498 1.3061668
0.12122065 -0.13380475 1.3045001
0.11474402 -0.12587467 1.307
0.12187026 -0.12454087 1.3053335
0.12742212 -0.11649283 1.3042223
0.1312633 -0.11071774 1.302
0.12947577 -0.10770551 1.307
0.13395859 -0.10396785 1.3032501
0.13770156 -0.098793902 1.3053334
0.042394724 -0.021770263 1.307
0.047362618 -0.016702428 1.3050001
0.053376973 -0.011915903 1.3034286
0.054185711 -0.0052575455 1.3040001
0.11300058 -0.00114142 1.302
0.053852756 0.0022916067 1.307
0.095879279 0.0079899402 1.302
0.11253836 0.0051440606 1.3032501
0.05546407 0.015437662 1.3045001
0.086263821 0.017617319 1.3050001
0.093621954 0.011903643 1.3055001
0.1053109 0.01144817 1.30575
0.11114293 0.01031223 1.307
0.058286935 0.024003426 1.3036667
0.062896445 0.02744668 1.3045001
0.07809785 0.02781108 1.3036667
0.083059087 0.023568483 1.3050001
0.066797361 0.031848673 1.304143
0.074336223 0.032784265 1.3045001
-0.074860029 -0.35125256 1.3136667
-0.073034622 -0.34566709 1.3147274
-0.075912319 -0.33930507 1.312
0.11674394 -0.13457185 1.312
0.11703149 -0.12450771 1.3120002
0.118151 -0.118151 1.317
0.12403145 -0.11481535 1.3140835
0.12848908 -0.10659391 1.3145001
0.13200952 -0.10114068 1.3140001
0.13658629 -0.09638261 1.3155715
0.045936655 -0.014202682 1.3136668
0.049646508 -0.0080819903 1.317
0.051857028 -0.0046051298 1.3145001
0.11661157 -0.0023091401 1.317
0.054264791 0.0080819903 1.317
0.054264791 0.01385484 1.317
0.088564374 0.019553173 1.312
0.094604805 0.0170274 1.3142223
0.10505871 0.016404118 1.3146924
0.11254749 0.014601908 1.3145001
0.056990124 0.025331501 1.3132501
0.060959894 0.028754666 1.312
0.085221939 0.026105963 1.3136667
0.091211028 0.02193683 1.317
0.064562224 0.035164524 1.315125
0.074843533 0.035365984 1.3134286
0.081974469 0.031173389 1.317
-0.081494935 -0.35042822 1.3280001
-0.077649876 -0.35116285 1.322
-0.077649876 -0.34768599 1.322
0.11887424 -0.1142216 1.3268001
0.12342852 -0.11068004 1.322
0.11874976 -0.10536131 1.3280001
0.12520809 -0.10513528 1.3258182
0.12922768 -0.097793922 1.3280001
0.13427851 -0.094317928 1.325
0.1369891 -0.086539857 1.3280001
0.037642896 -0.02522462 1.3280001
0.040747467 -0.023284268 1.3280001
0.04249344 -0.015093746 1.3244001
0.04793914 -0.0051407735 1.3245715
0.050061174 -0.0011642133 1.3280001
0.11991397 -0.0023284266 1.3280001
0.051533386 0.00478095 1.326
0.11758555 0.0046568532 1.3280001
0.051707115 0.015688388 1.3255
0.098511033 0.018543255 1.322
0.10314684 0.019702207 1.322
0.11616096 0.015095323 1.325
0.053145442 0.025464779 1.3258182
0.088862434 0.027298523 1.325
0.095194116 0.024155285 1.326
0.10471805 0.023271777 1.3272501
0.11176448 0.022120053 1.3280001
0.056607302 0.034612417 1.3261539
0.062197164 0.037472825 1.322
0.077649876 0.037472825 1.322
0.08305189 0.034270652 1.325
0.058443509 0.042610206 1.3280001
0.065417677 0.043405794 1.327077
0.073014259 0.043034986 1.3266667
0.11754141 -0.11207335 1.3363333
0.11649454 -0.10654174 1.3355001
0.12387125 -0.10166791 1.3330001
0.11802826 -0.099330716 1.3330001
0.12536943 -0.095626399 1.3350589
0.13205142 -0.092319138 1.3330001
0.12878454 -0.087806933 1.3355
0.13349974 -0.084168084 1.334923
0.13606569 -0.077416681 1.3380001
0.0293245 -0.035189401 1.3380001
0.03336418 -0.032784265 1.3355
0.0293245 -0.02815152 1.3380001
0.034795336 -0.026611874 1.3342501
0.037463035 -0.019903401 1.3355
0.041561887 -0.012292182 1.3355
0.043902367 -0.0046831532 1.3355001
0.12503985 -0.0039732293 1.3330001
0.13207754 -0.0021113639 1.3380001
0.046429336 0.0042926469 1.3352224
0.12385641 0.0044497261 1.3353333
0.13207754 0.0021113642 1.3380001
0.1524874 0.0035189399 1.3380001
0.18415786 0.0058649001 1.3380001
0.046257824 0.015811486 1.3359169
0.11824962 0.018734805 1.3355
0.12223042 0.012106183 1.3363334
0.045686316 0.025773419 1.3363334
0.050249655 0.028046321 1.3330001
0.09660399 0.028435851 1.3330001
0.10478558 0.027910689 1.3344287
0.11276958 0.024540531 1.3330001
0.045686316 0.035145566 1.3363334
0.051251315 0.035558727 1.3330001
0.085499547 0.035373148 1.3360001
0.094424888 0.031670459 1.3380001
0.10204926 0.031670459 1.3380001
0.047009747 0.044001024 1.3358573
0.053677544 0.044952024 1.3330001
0.064272813 0.047912464 1.3330001
0.076626554 0.045909159 1.3330001
0.08093562 0.043400262 1.3379999
0.048092179 0.05043814 1.3380001
0.055961054 0.054327644 1.3355
0.065490507 0.054968752 1.334
0.073789038 0.052706957 1.3360002
0.058649 0.062167939 1.3380001
0.064513899 0.062167939 1.3379999
0.12597787 -0.090656973 1.3430001
0.12676279 -0.085947521 1.3430001
0.13068733 -0.081238069 1.3430001
0.13333791 -0.075520888 1.3460001
0.025017118 -0.035114568 1.3473637
0.032966174 -0.034143537 1.3430001
0.025050564 -0.025179479 1.3474213
0.032966174 -0.022369904 1.3430001
0.027200336 -0.014191481 1.3490001
0.035425767 -0.014170114 1.3471253
0.027200336 -0.0047304933 1.3490001
0.035405386 -0.0047196443 1.3463752
0.041207716 -0.00353209 1.3430001
0.16674989 -0.0023652466 1.3490001
0.027988754 0.0027594545 1.3490001
0.035478696 0.0047304933 1.3490003
0.04221689 0.0052140369 1.3430002
0.1283326 0.0082415435 1.3430001
0.13493443 0.0063703856 1.3454001
0.14546266 0.0059131165 1.3490001
0.15522651 0.0055896849 1.3462002
0.16510768 0.004718658 1.3452502
0.17510663 0.0049610566 1.3478001
0.18567187 0.0031536622 1.3490001
0.036297437 0.014464394 1.3490002
0.042216886 0.013623775 1.3430002
0.12596756 0.015075647 1.3456668
0.13403063 0.011432026 1.3490001
0.14782791 0.011826233 1.3490001
0.15531789 0.012417546 1.3490001
0.16561723 0.012772795 1.3468183
0.17228751 0.012166088 1.3430001
0.029565584 0.027200336 1.3490001
0.035470016 0.024829565 1.3487004
0.041207716 0.024724629 1.3430001
0.10949479 0.029434083 1.3430001
0.11492311 0.027109601 1.3445001
0.12181021 0.020104596 1.3490001
0.16556728 0.020104596 1.3490001
0.029565584 0.033113454 1.3490001
0.035435304 0.035439245 1.3475003
0.041207716 0.0353209 1.3430001
0.087648839 0.038125943 1.3450001
0.094399475 0.035993744 1.3460002
0.10457298 0.033984765 1.3470002
0.11234922 0.03193083 1.3490001
0.036297437 0.044666771 1.3490002
0.042838898 0.045200638 1.3450001
0.084465511 0.044889715 1.3475001
0.038553521 0.0536911 1.3490001
0.044647049 0.054574076 1.3474003
0.051411536 0.056905895 1.3430001
0.077138424 0.055908013 1.3454001
0.081601009 0.050852802 1.3490001
0.03902657 0.062679037 1.3490001
0.045108635 0.063692726 1.3490002
0.05401428 0.065531053 1.3467501
0.064529531 0.066304348 1.3465
0.072140023 0.060313791 1.3490001
0.12805487 -0.073408738 1.3550001
0.13318215 -0.071457803 1.3540001
0.017076589 -0.042492911 1.3590001
0.020179113 -0.041545235 1.3540001
0.015928682 -0.035190627 1.3560001
0.020653917 -0.036322404 1.3540001
0.015431087 -0.024927139 1.3540001
0.021366121 -0.021366119 1.3540001
0.014765321 -0.013918086 1.3554287
0.021366119 -0.014244081 1.3540001
0.17592859 -0.011516769 1.3590001
0.014856942 -0.0049542626 1.3560835
0.021366119 -0.0047480268 1.3540001
0.16895062 -0.0043523577 1.3540001
0.17589468 -0.0041632899 1.3556668
0.18551345 -0.0039676474 1.3565001
0.19419657 -0.0053612548 1.3590001
0.016241418 0.0027740656 1.3556668
0.023581833 0.0056002727 1.3547143
0.14362781 0.0071220403 1.3540001
0.17211597 0.0011870067 1.3540001
0.18220553 0.0029675167 1.3540001
0.025481487 0.013996859 1.3556668
0.032049179 0.013057073 1.3540001
0.12938373 0.017805099 1.3540001
0.13579357 0.015905891 1.3540001
0.14430609 0.014583224 1.3540001
0.15414129 0.016787665 1.3540001
0.16356952 0.017330296 1.3540001
0.017870849 0.027401969 1.3590001
0.02474867 0.02485087 1.35525
0.118305 0.025718478 1.3540001
0.12562026 0.024348222 1.3576365
0.13581845 0.021445021 1.3590001
0.14528111 0.021435706 1.3583751
0.15528752 0.024179928 1.3563334
0.16103724 0.022948796 1.3540001
0.017870849 0.034550309 1.3590001
0.024671305 0.035719477 1.3554707
0.098521553 0.039171219 1.3540001
0.10524794 0.038379882 1.3540001
0.1144035 0.036392979 1.3565001
0.12033039 0.032167532 1.3590001
0.027331835 0.045161773 1.3556668
0.032049179 0.046293259 1.3540001
0.088431999 0.045106255 1.3540001
0.094429269 0.044886947 1.3555386
0.10452777 0.043097638 1.3580002
0.11556483 0.04169865 1.3590001
0.02833299 0.054123018 1.3547144
0.034207374 0.054926038 1.3540001
0.084883541 0.053945392 1.3573335
0.029784748 0.063937932 1.3590001
0.034806632 0.064410046 1.3547693
0.045106255 0.067659378 1.3540001
0.051041286 0.067659378 1.3540001
0.07447926 0.063385926 1.3556668
0.02978475 0.071483403 1.3590001
0.035661701 0.072520271 1.3560834
0.045306951 0.074871555 1.3555627
0.05486118 0.074335113 1.3545001
0.064029604 0.0732053 1.356143
0.072674789 0.070292011 1.3590001
0.013562034 -0.044276047 1.3649999
0.0083765499 -0.034702849 1.3650001
0.011567616 -0.036697265 1.3649999
0.0071798996 -0.025129652 1.3649999
0.01076985 -0.02512965 1.365
0.0071798996 -0.014359801 1.3649999
0.01076985 -0.0167531 1.365
0.18404478 -0.011248509 1.365
0.19684893 -0.011368174 1.365
0.0078978892 -0.00550459 1.365
0.010769849 -0.0035899498 1.3650001
0.18468297 -0.0083765499 1.3650001
0.1938573 -0.0083765499 1.365
0.01384695 0.0052994499 1.3649999
0.0167531 0.0143598 1.3649999
0.02034305 0.0167531 1.365
0.015855612 0.024830487 1.3649999
0.12624657 0.029317925 1.365
0.13378546 0.026086967 1.365
0.14582035 0.025813449 1.3649999
0.15436785 0.029118484 1.3650001
0.015338877 0.036008283 1.3649999
0.02034305 0.039489448 1.365
0.12086165 0.037096146 1.3650001
0.015257287 0.044276051 1.3649999
0.021539701 0.045472704 1.3649999
0.099321947 0.049062651 1.365
0.1053052 0.046071023 1.365
0.1141604 0.042840071 1.365
0.0167531 0.051455949 1.365
0.023334675 0.05384925 1.3649999
0.087355442 0.056242552 1.3650001
0.093338698 0.051455949 1.365
0.026924625 0.064319931 1.3649999
0.075388953 0.068209052 1.365
0.027522951 0.074192308 1.3649999
0.035899498 0.077782251 1.365
0.065815747 0.075388953 1.365
0.07060235 0.072995648 1.365
0.037096146 0.080175549 1.3650001
0.043079399 0.080175549 1.365
0.05384925 0.080175549 1.365
0.0056777941 -0.053529266 1.3742858
0.0108093 -0.051644433 1.3700001
-0.0020104889 -0.043024462 1.376
0.0048074215 -0.045715537 1.3722503
0.0108093 -0.046840299 1.3700002
-0.0030157333 -0.034781456 1.3760003
0.0037632382 -0.035470523 1.3700002
-0.0036171265 -0.024090799 1.3740002
0.0024020667 -0.024020668 1.37
0.18647401 -0.021992497 1.3745002
0.19743001 -0.024527965 1.376
0.20225519 -0.023723768 1.376
-0.0036171265 -0.014454481 1.3740002
0.0024020667 -0.014412401 1.37
0.17895396 -0.015613433 1.3700002
0.18521848 -0.015845194 1.3710909
0.19462575 -0.014116884 1.3727273
0.20145099 -0.015681813 1.376
-0.0039896425 -0.0051007168 1.3755386
0.0033847308 -0.0044765789 1.37
-0.0033995539 0.0044961837 1.3760003
0.0048084077 0.0048143249 1.3718749
0.011609989 0.0076065441 1.3700002
-0.0028146843 0.014877619 1.3760002
0.0048074215 0.014434757 1.37225
0.012010334 0.014412401 1.37
-0.0033990757 0.024444813 1.3754548
0.0048044627 0.024026258 1.3703753
0.012010334 0.024020668 1.37
0.1369178 0.027623767 1.3700001
0.14292297 0.027623767 1.3700002
-0.0036188802 0.034982506 1.376
0.0048049232 0.034854431 1.3709003
0.0108093 0.034829967 1.3700001
0.12643157 0.036127873 1.3735
0.13495889 0.032537047 1.3745002
0.1450147 0.031736501 1.3746668
0.15310533 0.032206476 1.3751429
-0.012786711 0.04511537 1.376
-0.0047447542 0.04591956 1.376
0.0048097228 0.045727044 1.3726251
0.013511626 0.046840303 1.37
0.10650729 0.048805084 1.3712001
0.11574139 0.047406979 1.3724
0.12326694 0.043765534 1.3740001
-0.0020104891 0.054685298 1.376
0.004822873 0.055475358 1.375625
0.014072631 0.055780679 1.3704288
0.021618601 0.057649598 1.3700001
0.08767543 0.058850631 1.3700001
0.09461806 0.055732917 1.3720001
0.1050411 0.055008862 1.37525
0.11399472 0.052473761 1.376
-0.0012062934 0.06152096 1.376
0.0062727258 0.064416058 1.3760002
0.01445218 0.065053381 1.3741251
0.022018947 0.065256149 1.37
0.078067169 0.066056833 1.3700001
0.084440537 0.062124107 1.376
0.090471998 0.06152096 1.376
0.0084440531 0.071171306 1.376
0.015901141 0.074461192 1.3760003
0.022339221 0.074944489 1.37
0.066253208 0.078295104 1.3740001
0.073426098 0.074023977 1.3730001
0.0180944 0.080821656 1.376
0.024071515 0.083056279 1.3730001
0.034252245 0.083534062 1.3710002
0.04493764 0.08385697 1.3730001
0.054619491 0.081575237 1.3724
-0.0032966421 -0.053923886 1.3844286
0.0012119915 -0.055755559 1.3825001
-0.013645511 -0.04282799 1.3870001
-0.0057243826 -0.046278231 1.3839999
-0.020670922 -0.031614356 1.3870001
-0.014580391 -0.034019601 1.3858752
-0.007437014 -0.034763716 1.3809999
-0.020670922 -0.020670922 1.3870001
-0.014570856 -0.024280597 1.3847504
-0.0084747365 -0.024213534 1.381
0.19545703 -0.022464776 1.381
0.20460434 -0.020581502 1.381
-0.020670922 -0.014591239 1.3870001
-0.014562311 -0.01455968 1.3840003
-0.0084747365 -0.01452812 1.381
0.19734029 -0.018160149 1.381
0.20339368 -0.018160149 1.381
-0.021157296 -0.004620559 1.3870001
-0.014555078 -0.0048486241 1.3832502
-0.0084747365 -0.0036320302 1.381
-0.020670922 0.0036478098 1.3870001
-0.014576776 0.0048584864 1.3855004
-0.0079978304 0.0055764769 1.3822
-0.020670922 0.014996551 1.3870001
-0.014572502 0.014570529 1.3851252
-0.0074475342 0.014024287 1.3827144
-0.021481546 0.024724046 1.3870001
-0.01456231 0.024263505 1.3840003
-0.0079904664 0.023487126 1.381
-0.020670922 0.034046229 1.3870001
-0.014363261 0.034908179 1.3832108
-0.0084747365 0.035109628 1.381
0.13507693 0.038568702 1.3809999
0.14493968 0.036539845 1.3827144
-0.020670922 0.044381686 1.3870001
-0.015592686 0.04595165 1.3855
-0.0060533835 0.044795036 1.381
0.12680954 0.046039905 1.382
0.13522391 0.042484142 1.3846
-0.013365739 0.055118188 1.3859092
-0.0065476485 0.056251667 1.3828001
0.09806481 0.059323158 1.381
0.1041182 0.059323158 1.381
0.11569633 0.056519575 1.3834002
0.1228096 0.052285276 1.3870001
-0.013375304 0.065255262 1.3870001
-0.0048581106 0.065691136 1.3840002
0.0024213532 0.06658721 1.381
0.079035886 0.069308393 1.3870001
0.085051566 0.066019438 1.386
0.094192564 0.064579472 1.3845999
0.10337785 0.063363716 1.3832502
-0.013375304 0.071740262 1.3870001
-0.0046892902 0.074995585 1.386143
0.0046047796 0.075436644 1.3834002
0.011380361 0.075788364 1.381
0.071429923 0.078693986 1.381
-0.0024318732 0.081467755 1.3870001
0.0060763359 0.084309742 1.3864546
0.014311583 0.085164472 1.3838
0.024213534 0.088379398 1.381
0.035109621 0.088379398 1.381
0.04691365 0.087764271 1.3840002
0.055750299 0.08484073 1.3825001
0.065593518 0.081379645 1.3855001
-0.013481379 -0.060870472 1.3980001
-0.0056376676 -0.062014353 1.3980001
-0.020834859 -0.051474359 1.3980001
-0.014590929 -0.054124478 1.3937649
-0.00579652 -0.057355039 1.3920001
-0.024213884 -0.043778282 1.3948002
-0.01586416 -0.045151841 1.3920001
-0.02496396 -0.034559704 1.3937143
-0.024682727 -0.024678517 1.3936002
-0.031129729 -0.013971612 1.3980001
-0.025626719 -0.014643841 1.3920001
-0.031129729 -0.0041669719 1.3980001
-0.025848597 -0.0049922178 1.3920001
-0.030639499 0.0049023195 1.3980001
-0.02526054 0.005165725 1.3924617
-0.030639499 0.011030219 1.3980001
-0.025288465 0.014569391 1.3938463
-0.031252287 0.026349971 1.3980001
-0.026126947 0.024173383 1.3926002
-0.031129729 0.034071125 1.3980001
-0.025626719 0.034168962 1.3920001
-0.030639499 0.041669719 1.3980001
-0.025288465 0.044271395 1.3938463
0.14339286 0.040444139 1.3980001
-0.023417084 0.05395576 1.3935
-0.017328544 0.057843167 1.3920001
0.12360299 0.054262161 1.396
-0.022060439 0.061278999 1.3980001
-0.01494892 0.06608016 1.3938464
-0.0085422397 0.067117602 1.3920001
0.086154595 0.068581983 1.3920001
0.096893415 0.068581983 1.3920001
0.10557961 0.067672528 1.3950001
0.11422615 0.06282369 1.396
-0.013842569 0.075714193 1.3930001
-0.0061015999 0.078100473 1.3920001
-0.020924279 -0.060311161 1.404
-0.015297582 -0.063827842 1.4040002
-0.0055387802 -0.065849945 1.404
-0.024001379 -0.053233832 1.4040002
-0.030771 -0.044310242 1.404
-0.028309319 -0.048002761 1.404
-0.031826008 -0.034287687 1.4040002
-0.032001842 -0.024616802 1.4040002
-0.03421735 -0.014523911 1.404
-0.034639355 -0.0054508634 1.4040002
-0.033725016 0.0041848561 1.404
-0.032177676 0.015297582 1.4040002
-0.03393602 0.024089295 1.4040002
-0.034463521 0.03405324 1.4040002
-0.031591561 0.044720519 1.4039999
-0.02707848 0.055387799 1.404
-0.020924279 0.066465363 1.404
-0.031012082 -0.081871897 1.4150001
-0.025164092 -0.08382123 1.4150002
-0.017987009 -0.083112381 1.4150001
-0.031508274 -0.073684707 1.4150001
-0.024795147 -0.074381605 1.4140627
-0.015491795 -0.073539548 1.4137501
-0.0061805001 -0.070457697 1.4100001
-0.032666061 -0.064367302 1.4150001
-0.024996102 -0.064585194 1.4113333
-0.015080419 -0.066996619 1.4100001
-0.0074166004 -0.067985497 1.4100001
-0.033455793 -0.054519173 1.4133334
-0.026782168 -0.056448568 1.41
-0.040935948 -0.040935948 1.4150001
-0.035913382 -0.044579964 1.4125
-0.041432142 -0.033989243 1.4150001
-0.036731359 -0.03480269 1.4122223
-0.042176433 -0.024809666 1.4150001
-0.037083 -0.024722001 1.41
-0.042557783 -0.014738227 1.4138889
-0.037495032 -0.015657267 1.41
-0.043151923 -0.0052942699 1.4136363
-0.0383191 -0.0049443999 1.4100001
-0.042176433 0.0049619335 1.4150001
-0.037259586 0.0054741572 1.41
-0.042176433 0.014885799 1.4150001
-0.037083 0.014833201 1.41
-0.041957892 0.024255488 1.4135715
-0.037824661 0.023980338 1.4100001
-0.040935948 0.032252565 1.4150001
-0.037879013 0.035405058 1.4120001
-0.034672897 0.044580687 1.4125
0.14761752 0.040935948 1.4150001
-0.030984687 0.054536335 1.4137501
-0.0284303 0.0568606 1.4100001
-0.033656862 -0.084227003 1.4218572
-0.01494892 -0.08097332 1.4210001
-0.041283108 -0.07130719 1.427
-0.036397528 -0.075171851 1.4226366
-0.013703178 -0.076820843 1.4210001
-0.0062287166 -0.073498853 1.4210001
-0.042117108 -0.064218171 1.427
-0.037573557 -0.064997941 1.4218572
-0.042534113 -0.055044144 1.427
-0.038618043 -0.054812707 1.4210001
-0.043696221 -0.044941965 1.4240001
-0.045568258 -0.034954451 1.424
-0.047440819 -0.024967469 1.4240001
-0.051291138 -0.012510033 1.427
-0.047545511 -0.015138155 1.4218572
-0.051291138 -0.0075060199 1.427
-0.04812672 -0.0042365789 1.4222
