# .PCD v0.7 - Point Cloud Data file format
VERSION 0.7
FIELDS x y z
SIZE 4 4 4
TYPE F F F
COUNT 1 1 1
WIDTH 1445
HEIGHT 1
VIEWPOINT 0 0 0 1 0 0 0
POINTS 1445
DATA ascii
-0.13881403 -0.26778311 1.123
-0.22271381 -0.25590232 1.1254547
-0.21724559 -0.25760996 1.123
-0.22438671 -0.24607572 1.1247143
-0.22531304 -0.23475735 1.1248947
-0.22506322 -0.2252398 1.1246365
-0.24184602 -0.21025798 1.126
-0.23789753 -0.21025798 1.126
-0.22626194 -0.2153272 1.1243638
-0.24440095 -0.20375454 1.1260002
-0.2357769 -0.20491435 1.1257272
-0.22580279 -0.2057514 1.1247501
-0.24464583 -0.19433601 1.12525
-0.23615828 -0.19551516 1.1232725
-0.22840324 -0.19630864 1.123
-0.24448395 -0.18434678 1.1244999
-0.23792 -0.1867262 1.123
-0.24331826 -0.17503296 1.125077
-0.23890452 -0.17359956 1.123
-0.24250412 -0.16814058 1.126
-0.23610385 -0.16433361 1.1244999
-0.22938772 -0.16145745 1.123
-0.2321443 -0.15714699 1.125625
-0.22663587 -0.15470186 1.1240001
-0.11124812 -0.15062799 1.123
-0.10438754 -0.15335879 1.124154
-0.097581469 -0.15277639 1.1243334
-0.22223438 -0.14530516 1.1250001
-0.21757376 -0.14176753 1.123
-0.16616115 -0.14231448 1.123
-0.13093805 -0.14078303 1.123
-0.12109309 -0.14078303 1.123
-0.11356616 -0.14341572 1.1234616
-0.10753894 -0.14700243 1.1254001
-0.095151529 -0.14646257 1.1255715
-0.21378279 -0.13566856 1.1255001
-0.20871329 -0.13290705 1.123
-0.16342644 -0.13553236 1.123
-0.15850396 -0.13192254 1.123
-0.13292004 -0.13488948 1.1245002
-0.12545589 -0.13714084 1.1242859
-0.11605274 -0.13730542 1.1255386
-0.21025798 -0.12931359 1.126
-0.20413107 -0.12795049 1.1248749
-0.19504537 -0.12365313 1.1248
-0.16112928 -0.12437475 1.123
-0.15537421 -0.12445656 1.1231499
-0.13620433 -0.12503488 1.1245002
-0.19051544 -0.1184552 1.126
-0.18335834 -0.11435284 1.1245
-0.17380472 -0.11335036 1.1243334
-0.16403304 -0.11409957 1.1241667
-0.1548961 -0.11543059 1.1253998
-0.1459868 -0.11392033 1.123
-0.13742781 -0.11575573 1.1237501
-0.17077291 -0.10957106 1.126
-0.16369851 -0.10759679 1.1260002
-0.15414762 -0.10645382 1.126
-0.14509234 -0.10561085 1.1258799
-0.13833876 -0.10703272 1.126
-0.15168846 -0.099041708 1.126
-0.14576571 -0.099370755 1.126
-0.23444696 -0.30428222 1.138
-0.22407143 -0.30248648 1.1380001
-0.21513458 -0.30268642 1.137
-0.20506053 -0.30144477 1.1373334
-0.19853169 -0.30029166 1.138
-0.23577715 -0.29330811 1.138
-0.22551566 -0.29451975 1.1371112
-0.21585678 -0.29545575 1.1317778
-0.20640609 -0.29699147 1.1313335
-0.19627923 -0.29557753 1.1326666
-0.18921097 -0.29223683 1.13
-0.24143049 -0.28133637 1.138
-0.23511206 -0.28322077 1.138
-0.22441514 -0.28482118 1.1337777
-0.21892996 -0.28431177 1.13
-0.24143049 -0.27435285 1.1380001
-0.2344785 -0.27477616 1.1333334
-0.2250986 -0.27468023 1.13112
-0.21892996 -0.27391011 1.13
-0.24043284 -0.26736933 1.138
-0.23498955 -0.26510242 1.1349092
-0.2346323 -0.25520086 1.1373687
-0.22816968 -0.25495186 1.1316001
-0.23409602 -0.24450812 1.1355383
-0.22844005 -0.24627145 1.13
-0.23408034 -0.23440236 1.1324446
-0.2288363 -0.23081757 1.13
-0.24043284 -0.22147755 1.138
-0.2341534 -0.22509295 1.1333334
-0.22784567 -0.2288363 1.13
-0.25297111 -0.21463275 1.1375556
-0.24503183 -0.214977 1.1346667
-0.23463349 -0.21515812 1.1324764
-0.2288363 -0.21298617 1.13
-0.26118389 -0.20212321 1.138
-0.25454754 -0.20513049 1.1344211
-0.24798854 -0.20836322 1.13
-0.23081757 -0.20704235 1.13
-0.26105088 -0.19620384 1.138
-0.25442377 -0.19498475 1.1334285
-0.26038578 -0.18855523 1.138
-0.25427365 -0.18542239 1.1344446
-0.25266901 -0.17600593 1.1356
-0.24820864 -0.17457965 1.1305715
-0.25040931 -0.16560934 1.138
-0.24526623 -0.1639476 1.1326666
-0.24411453 -0.15637133 1.1373334
-0.2358022 -0.15424652 1.1344212
-0.22910631 -0.1517434 1.1313334
-0.10203523 -0.15156689 1.13
-0.23469639 -0.14565644 1.1380002
-0.22626738 -0.14377071 1.1336668
-0.10368872 -0.14424805 1.1320868
-0.096925318 -0.1428006 1.1328
-0.24109794 -0.13734269 1.138
-0.2361353 -0.13514277 1.1380002
-0.22365715 -0.13451585 1.1356472
-0.21778058 -0.13361824 1.1308889
-0.13175423 -0.13175423 1.13
-0.12469223 -0.13238633 1.1322501
-0.11411201 -0.13293137 1.1329474
-0.10788468 -0.13700244 1.1347275
-0.095774077 -0.13867289 1.138
-0.23344932 -0.12420701 1.138
-0.22392632 -0.12461513 1.1380004
-0.2150465 -0.12498333 1.1356364
-0.20613499 -0.12391125 1.1339999
-0.19783151 -0.1226071 1.1340001
-0.1319298 -0.12477899 1.1326668
-0.12647538 -0.12634891 1.1360002
-0.11503601 -0.12765883 1.1366668
-0.22390042 -0.11757978 1.138
-0.21630794 -0.11636186 1.1380001
-0.1933929 -0.1171139 1.1362858
-0.18445534 -0.11346054 1.1353334
-0.17695867 -0.11134193 1.1340001
-0.13339972 -0.11501867 1.1335
-0.21848463 -0.10874349 1.138
-0.17286246 -0.10735135 1.1365001
-0.16549134 -0.10347513 1.1324615
-0.15795098 -0.10225537 1.13
-0.13534255 -0.10403053 1.1332381
-0.16062111 -0.09876702 1.138
-0.15384273 -0.095551401 1.1321818
-0.14475921 -0.09415786 1.1325599
-0.13613831 -0.095312946 1.1344211
-0.14266348 -0.088790558 1.138
-0.13867289 -0.087792903 1.138
-0.24242114 -0.31259567 1.149
-0.23402491 -0.3141872 1.1450001
-0.22505914 -0.31457737 1.1460911
-0.21542296 -0.31418842 1.1472002
-0.20747221 -0.31171694 1.1470001
-0.24311069 -0.30486855 1.1485556
-0.23524241 -0.30452609 1.14125
-0.22560786 -0.30653936 1.1409999
-0.21505949 -0.30708495 1.141
-0.20393378 -0.30659354 1.1439091
-0.19854695 -0.30575663 1.1450001
-0.25366104 -0.29372385 1.1482002
-0.24557781 -0.29455999 1.1454446
-0.23479825 -0.29574844 1.1409999
-0.25470126 -0.28540531 1.1471335
-0.2456549 -0.28557959 1.1414001
-0.23528729 -0.28796852 1.1409999
-0.25366104 -0.27479661 1.1482002
-0.24754432 -0.27476212 1.1426473
-0.25202397 -0.26733476 1.149
-0.24494967 -0.26468951 1.1443685
-0.24351065 -0.25558132 1.1478002
-0.23906612 -0.25307 1.141
-0.2441365 -0.24475098 1.1474618
-0.23906612 -0.24506779 1.141
-0.26155964 -0.23134093 1.149
-0.25434074 -0.2321803 1.149
-0.24489269 -0.23496109 1.1476668
-0.23906612 -0.23906612 1.141
-0.26329193 -0.22528338 1.1485001
-0.25552145 -0.22448464 1.1439476
-0.24554536 -0.22523269 1.1423336
-0.23906612 -0.22606254 1.141
-0.27096102 -0.21052361 1.149
-0.26470813 -0.21512647 1.1463335
-0.25768253 -0.21635823 1.1420909
-0.27136391 -0.20568863 1.149
-0.2652421 -0.20619473 1.1428668
-0.27064657 -0.19820352 1.1476668
-0.26600444 -0.19466141 1.1450002
-0.26293221 -0.1861289 1.1476668
-0.25997987 -0.18268856 1.1450001
-0.2608881 -0.17829032 1.149
-0.2576957 -0.17430282 1.1460001
-0.26267385 -0.16404712 1.1480001
-0.25613752 -0.16483247 1.1452355
-0.26107222 -0.15904398 1.141
-0.2542567 -0.15671767 1.1415333
-0.24597715 -0.15249671 1.1409999
-0.24426755 -0.14564024 1.141
-0.23586524 -0.14263946 1.141
-0.24106668 -0.13203651 1.141
-0.23335025 -0.13417996 1.1409999
-0.22906336 -0.13503733 1.141
-0.10304063 -0.13410354 1.143
-0.096481539 -0.13471615 1.1442944
-0.23550957 -0.126146 1.1409999
-0.22906336 -0.12803543 1.141
-0.20505673 -0.12103347 1.141
-0.19905506 -0.12103347 1.141
-0.12229788 -0.12315626 1.142143
-0.1152214 -0.12323297 1.1428667
-0.10516597 -0.12522934 1.1443337
-0.096345223 -0.12715711 1.1477501
-0.22506225 -0.11803265 1.141
-0.21305893 -0.11303127 1.1409999
-0.20514326 -0.11507849 1.1414803
-0.19622605 -0.11375462 1.142
-0.18648015 -0.11188809 1.1409999
-0.12508638 -0.11515956 1.143182
-0.11546565 -0.11790741 1.1481429
-0.10626909 -0.11818871 1.149
-0.21413146 -0.10549977 1.1435883
-0.2057756 -0.10539722 1.1450003
-0.1956889 -0.10561336 1.1465387
-0.18502252 -0.10622562 1.1464002
-0.1762249 -0.10427796 1.1437502
-0.16904676 -0.10102794 1.141
-0.12675753 -0.10568938 1.1445557
-0.21116094 -0.098540843 1.1470001
-0.20486869 -0.097831212 1.1468463
-0.19887505 -0.098934464 1.1476668
-0.18030491 -0.099721707 1.149
-0.17293249 -0.098846443 1.1482
-0.16548194 -0.097477444 1.1463335
-0.15576911 -0.093620107 1.1434
-0.1318562 -0.091798395 1.1423334
-0.12930307 -0.096136145 1.1463333
-0.15157129 -0.089336716 1.1450001
-0.14507285 -0.085169822 1.1430001
-0.13522063 -0.0849557 1.1443686
-0.14068483 -0.078904383 1.149
-0.13716707 -0.07881204 1.1476668
-0.25215581 -0.32234558 1.1570001
-0.24484044 -0.32302317 1.1556665
-0.23436981 -0.3230232 1.1556667
-0.22513939 -0.32358924 1.1544545
-0.21554399 -0.32146695 1.1543332
-0.25298169 -0.31542185 1.1555455
-0.24663438 -0.31486315 1.153
-0.2395588 -0.31840095 1.153
-0.2112565 -0.31840095 1.153
-0.20588478 -0.31559178 1.1548181
-0.19795264 -0.31237254 1.155
-0.26135215 -0.30192426 1.1570001
-0.25485665 -0.30433297 1.1547499
-0.24845381 -0.30505842 1.153
-0.19609454 -0.30829298 1.153
-0.26295355 -0.29471242 1.156111
-0.25775313 -0.29616341 1.153
-0.2645883 -0.28472939 1.1569998
-0.25896612 -0.28362954 1.153
-0.26455149 -0.27468473 1.1561999
-0.25876391 -0.27594748 1.153
-0.26351601 -0.26676178 1.1569999
-0.25587082 -0.26467568 1.1549999
-0.24966678 -0.26179633 1.153
-0.25571862 -0.2547566 1.1567893
-0.24865599 -0.25573158 1.153
-0.27325332 -0.24079561 1.1570001
-0.26473317 -0.24096949 1.1570002
-0.25538173 -0.24492612 1.1557366
-0.2490892 -0.24648999 1.153
-0.28096202 -0.23481122 1.1570001
-0.27569476 -0.23462918 1.1565998
-0.26600102 -0.23506647 1.1537058
-0.25528231 -0.23731261 1.153
-0.24899292 -0.23888494 1.153
-0.28217918 -0.22355244 1.1569999
-0.27536377 -0.2247417 1.1547776
-0.26836652 -0.22557612 1.153
-0.28136772 -0.21564087 1.1570001
-0.27515101 -0.21546489 1.1538888
-0.26988271 -0.21833208 1.153
-0.27617964 -0.20582527 1.1546665
-0.27389565 -0.19567396 1.155
-0.26988271 -0.19104058 1.153
-0.27081898 -0.18764611 1.1570001
-0.26689649 -0.18440372 1.1551819
-0.27081898 -0.17141727 1.1570001
-0.26539311 -0.17478774 1.1554443
-0.26528984 -0.16842198 1.155
-0.10006887 -0.1202848 1.153
-0.096170463 -0.12335364 1.1547143
-0.12102821 -0.11259907 1.1536666
-0.11421692 -0.11265753 1.1545384
-0.10404949 -0.11374515 1.1546841
-0.19339909 -0.10074273 1.153
-0.18651147 -0.10098486 1.1535714
-0.17891102 -0.10006887 1.153
-0.12413249 -0.10356209 1.1543334
-0.20284092 -0.094083861 1.1539999
-0.19588721 -0.094540365 1.1560475
-0.1855727 -0.096479416 1.1567142
-0.17632766 -0.096359693 1.1545999
-0.16456231 -0.093937747 1.1563333
-0.15795779 -0.092140295 1.155
-0.12774654 -0.095555574 1.1565001
-0.15433337 -0.088816553 1.1556667
-0.13112435 -0.084545292 1.155
-0.14175525 -0.076952048 1.155
-0.13559666 -0.077303596 1.1552222
-0.26132995 -0.33101794 1.169
-0.25518101 -0.33248201 1.169
-0.24442567 -0.33406591 1.1680769
-0.23633406 -0.33274636 1.165
-0.26340136 -0.3241719 1.1683332
-0.25518277 -0.32637531 1.1634001
-0.24347486 -0.3288292 1.1636667
-0.23524912 -0.32826287 1.1616668
-0.19813544 -0.32171476 1.1650001
-0.26438075 -0.31479451 1.1677501
-0.25784519 -0.31382474 1.1610001
-0.20277445 -0.31894037 1.1623334
-0.19768308 -0.31690362 1.1623335
-0.27198812 -0.30437252 1.169
-0.26581281 -0.30536693 1.1637692
-0.25954154 -0.30839643 1.161
-0.27176604 -0.29502815 1.1665001
-0.26734474 -0.29482564 1.1610001
-0.27347597 -0.28370318 1.1666
-0.26971966 -0.28498679 1.161
-0.27477494 -0.27477205 1.1673332
-0.26971966 -0.27582651 1.161
-0.27523196 -0.26480153 1.1670954
-0.26642302 -0.26424468 1.1625999
-0.29166475 -0.25190157 1.169
-0.2847811 -0.2536644 1.1676667
-0.27533931 -0.25486809 1.1675603
-0.26541251 -0.25499949 1.164619
-0.2926603 -0.24522555 1.1689999
-0.28508705 -0.24426857 1.1640002
-0.2759428 -0.24538372 1.1620667
-0.2653746 -0.24608861 1.1625386
-0.29389367 -0.23512991 1.1680769
-0.28585193 -0.23461755 1.162143
-0.29249474 -0.22514972 1.1674
-0.2868188 -0.22554669 1.1610001
-0.290025 -0.21418807 1.169
-0.28570572 -0.21485673 1.1635455
-0.290025 -0.20803913 1.169
-0.28486103 -0.205916 1.1659231
-0.27989775 -0.20254417 1.161
-0.10179123 -0.20188026 1.1650001
-0.09849789 -0.20211053 1.1663333
-0.28199872 -0.19632962 1.1672858
-0.27732208 -0.19345996 1.1630001
-0.28182641 -0.18959232 1.169
-0.275583 -0.18474019 1.1642501
-0.26971966 -0.18015237 1.161
-0.27361557 -0.17663492 1.1627142
-0.093202315 -0.1219918 1.1610001
-0.11603034 -0.11094129 1.161
-0.10076319 -0.11094129 1.161
-0.094885804 -0.11529531 1.16388
-0.087250955 -0.11483351 1.1654
-0.12193491 -0.10411447 1.1615001
-0.11599139 -0.10577358 1.1650003
-0.10494296 -0.10633427 1.1645792
-0.097282633 -0.10752384 1.1681111
-0.085060336 -0.1096561 1.169
-0.19195898 -0.091399334 1.161
-0.18469462 -0.092022993 1.1628182
-0.1748758 -0.092743993 1.1665385
-0.16605532 -0.091860764 1.1661428
-0.15979616 -0.09058509 1.161
-0.12407488 -0.094305776 1.1640589
-0.1188795 -0.097358204 1.169
-0.1940051 -0.086659886 1.1630001
-0.18604068 -0.086877406 1.1678572
-0.17524479 -0.08915963 1.169
-0.16374668 -0.088237628 1.1684285
-0.15768692 -0.087033711 1.168
-0.12720563 -0.085143983 1.1652352
-0.14269695 -0.073893003 1.161
-0.13433453 -0.073426411 1.1641581
-0.12890506 -0.078776389 1.1670001
-0.14196302 -0.0674069 1.1650001
-0.13689084 -0.067807317 1.1675
-0.25237042 -0.34198767 1.1750001
-0.2459399 -0.34060937 1.1738001
-0.27306736 -0.33489195 1.1754001
-0.26511851 -0.33462682 1.1736668
-0.25575918 -0.33680853 1.1740001
-0.24782753 -0.33832058 1.1730001
-0.27280971 -0.32472509 1.1736156
-0.26787996 -0.32546645 1.1730001
-0.27378073 -0.315781 1.1743335
-0.26839414 -0.31775397 1.1730001
-0.27581152 -0.30598757 1.1734446
-0.27643743 -0.2952652 1.1747144
-0.27801222 -0.28542882 1.1754
-0.2844505 -0.27451077 1.1753531
-0.27867743 -0.2776491 1.1730001
-0.30026448 -0.26105466 1.177
-0.29396963 -0.26236403 1.1756668
-0.28515089 -0.2641663 1.1734002
-0.3017385 -0.25574809 1.177
-0.29544714 -0.25557953 1.1730002
-0.28279075 -0.25811082 1.1730001
-0.30267206 -0.24420136 1.177
-0.29832995 -0.2459994 1.1730002
-0.30150267 -0.23422691 1.177
-0.29883268 -0.23548755 1.1730001
-0.30026448 -0.22597224 1.177
-0.29701349 -0.22464436 1.1736668
-0.29493243 -0.21569595 1.175182
-0.2930575 -0.20650747 1.1752857
-0.28869289 -0.20223778 1.174
-0.10180467 -0.20052435 1.1730001
-0.096663021 -0.20052435 1.1730001
-0.2866784 -0.19461738 1.1746001
-0.10163591 -0.19862856 1.177
-0.095960803 -0.19811265 1.177
-0.28224283 -0.18541324 1.1750001
-0.092549697 -0.11003131 1.1730001
-0.087408051 -0.11054547 1.1730001
-0.11202025 -0.10223357 1.1750002
-0.10401112 -0.10136384 1.1747143
-0.095136441 -0.10441012 1.1753334
-0.087147854 -0.10630424 1.1750001
-0.12031461 -0.091521367 1.1730001
-0.11619098 -0.0971248 1.1755002
-0.10352454 -0.097901434 1.1755456
-0.19024105 -0.082266398 1.1730001
-0.18407106 -0.08306621 1.1730002
-0.17558788 -0.084887743 1.1746001
-0.16621001 -0.08512184 1.1742309
-0.15836282 -0.084323063 1.1730001
-0.12251168 -0.085395955 1.1760001
-0.19056541 -0.078284577 1.1750001
-0.1846346 -0.078392588 1.1766001
-0.17541222 -0.079451419 1.177
-0.1305979 -0.071983099 1.1730001
-0.126047 -0.075750135 1.1744287
-0.14139538 -0.063242294 1.1730001
-0.13428941 -0.063757144 1.1740528
-0.12790391 -0.064982213 1.1766001
-0.14136162 -0.05881469 1.177
-0.13471201 -0.057897508 1.177
-0.12897958 -0.057782851 1.177
-0.28416625 -0.34120482 1.1830001
-0.2634173 -0.34224367 1.1830001
-0.25883585 -0.3416633 1.1810001
-0.29261765 -0.33635554 1.1878573
-0.28497213 -0.33499447 1.1846521
-0.27850735 -0.33441588 1.1810001
-0.2908175 -0.32313055 1.189
-0.28489807 -0.32473904 1.1862631
-0.27926201 -0.32493913 1.1842
-0.29185987 -0.31479168 1.189
-0.28442609 -0.31470305 1.1838236
-0.2908175 -0.30853757 1.189
-0.28410557 -0.3050577 1.1835999
-0.28358421 -0.29557577 1.1862309
-0.29486379 -0.28288105 1.1885
-0.28546175 -0.28498501 1.1840769
-0.30430591 -0.27417186 1.1879333
-0.29456493 -0.27454925 1.1833529
-0.2888608 -0.27850735 1.1810001
-0.31192213 -0.26509503 1.187
-0.30572596 -0.26622126 1.1859411
-0.29610404 -0.26710042 1.1815716
-0.32000348 -0.25120795 1.189
-0.31385905 -0.25455493 1.1867777
-0.30698234 -0.25512403 1.1830001
-0.32000348 -0.24703853 1.189
-0.31437868 -0.24491075 1.1865555
-0.30646163 -0.24511752 1.1810001
-0.31292626 -0.23606654 1.1870002
-0.30637792 -0.23483694 1.1826668
-0.31166464 -0.2282761 1.189
-0.3056865 -0.22520369 1.1845
-0.30305341 -0.21581693 1.1871819
-0.29921421 -0.2174221 1.1810001
-0.30154714 -0.20603733 1.187857
-0.29677358 -0.20357339 1.1841112
-0.30124107 -0.19909012 1.189
-0.29434147 -0.19582905 1.1852667
-0.28983915 -0.19010955 1.1850001
-0.1018073 -0.1952991 1.1850001
-0.095310465 -0.19452876 1.1846923
-0.28706887 -0.18802953 1.1850001
-0.092737183 -0.10131574 1.1810001
-0.088004179 -0.10146365 1.1810001
-0.11463009 -0.093498409 1.1842941
-0.1051884 -0.092849769 1.1838236
-0.095026366 -0.095223583 1.1849998
-0.088302247 -0.097651899 1.1850001
-0.16361241 -0.081136122 1.1844286
-0.12113517 -0.081792124 1.1810001
-0.11761176 -0.085494846 1.1853638
-0.10277636 -0.087766431 1.189
-0.099023886 -0.087557957 1.189
-0.18498206 -0.074058458 1.1843333
-0.17530732 -0.075016171 1.1846189
-0.16682695 -0.07615155 1.1880587
-0.15882526 -0.075505108 1.188
-0.12283275 -0.074361846 1.1814001
-0.11863317 -0.076352313 1.185889
-0.1810226 -0.067405738 1.189
-0.17511591 -0.06671083 1.1889999
-0.16907027 -0.06817013 1.189
-0.12359253 -0.065427683 1.1847333
-0.11987101 -0.068795539 1.189
-0.14128184 -0.055055544 1.1850001
-0.13541526 -0.053282388 1.1846925
-0.12632152 -0.055885531 1.186
-0.13297492 -0.048097312 1.189
-0.12820987 -0.047948405 1.189
-0.30016276 -0.33572215 1.1930001
-0.29623687 -0.3336553 1.1946
-0.29553339 -0.32500702 1.1951334
-0.29614589 -0.31393608 1.1936666
-0.29384047 -0.30589595 1.1960001
-0.28970414 -0.30120862 1.1930001
-0.29277423 -0.29403347 1.197
-0.28886741 -0.29472429 1.1930001
-0.31166288 -0.2801818 1.197
-0.30294326 -0.28304732 1.1943334
-0.2963101 -0.2872366 1.1943334
-0.28970414 -0.28970414 1.1930001
-0.32005784 -0.27283621 1.197
-0.31469476 -0.27441004 1.1952223
-0.30783245 -0.27854827 1.1930001
-0.32110721 -0.26479104 1.197
-0.31689659 -0.26460341 1.193
-0.3231906 -0.25588256 1.1949999
-0.31898832 -0.25832823 1.1930001
-0.32233506 -0.24577788 1.1930001
-0.31716222 -0.23446888 1.194
-0.31349975 -0.22523583 1.1950001
-0.30762997 -0.2149072 1.1941429
-0.30590582 -0.20533462 1.1950001
-0.30262554 -0.19598365 1.1955001
-0.29770693 -0.19230413 1.1943334
-0.10284323 -0.19209023 1.1930001
-0.09517356 -0.19139299 1.1930001
-0.29429263 -0.18855534 1.1958572
-0.28809282 -0.18490171 1.1950001
-0.10225936 -0.18706663 1.1943334
-0.096366666 -0.1860584 1.1955265
-0.10178889 -0.17524479 1.197
-0.11190738 -0.090990111 1.1930001
-0.092558905 -0.091513053 1.1930001
-0.088048898 -0.093287557 1.1956667
-0.11314084 -0.084255807 1.1949999
-0.10559046 -0.084391557 1.194
-0.095524229 -0.084841706 1.1948001
-0.089196451 -0.089196451 1.197
-0.19139299 -0.073210433 1.1930001
-0.18720953 -0.070770085 1.1930001
-0.16294549 -0.071955398 1.193
-0.15635657 -0.070595779 1.1930001
-0.11630551 -0.074394614 1.1952224
-0.10178889 -0.078702748 1.197
-0.098640777 -0.078702748 1.197
-0.18448636 -0.065384433 1.1947144
-0.17396192 -0.062054556 1.193
-0.16448304 -0.065091424 1.1941767
-0.15504727 -0.067045718 1.1949999
-0.12027428 -0.06379766 1.1930001
-0.11857881 -0.065060943 1.197
-0.17509925 -0.058977094 1.1960001
-0.16684984 -0.059814084 1.197
-0.14119154 -0.051247302 1.1930001
-0.12257392 -0.053876281 1.1933333
-0.11844673 -0.057651062 1.1956667
-0.13514253 -0.045255288 1.1950001
-0.12515381 -0.046189643 1.1956669
-0.3031297 -0.33403981 1.202
-0.3040624 -0.32515588 1.2032499
-0.30229819 -0.31538296 1.204
-0.30131909 -0.3066054 1.2060001
-0.29766998 -0.30399513 1.2029999
-0.30131909 -0.29286101 1.2060001
-0.29690385 -0.29573062 1.2033334
-0.32352155 -0.2801739 1.2060001
-0.3136614 -0.28338367 1.2046667
-0.3037343 -0.28844088 1.2030001
-0.33092237 -0.27277309 1.2060001
-0.32562581 -0.27443293 1.204
-0.31858477 -0.27854213 1.202
-0.33092237 -0.26537225 1.2060001
-0.32609209 -0.26572293 1.2023636
-0.33092237 -0.25797144 1.2060001
-0.32798994 -0.25363544 1.2030001
-0.32560977 -0.24552453 1.202
-0.32161218 -0.23545197 1.2044002
-0.32034978 -0.22625363 1.2060001
-0.31657809 -0.22285342 1.2031429
-0.31484357 -0.21497266 1.2045715
-0.31163308 -0.20704852 1.2050002
-0.30874974 -0.20232064 1.202
-0.30662897 -0.19429603 1.2037778
-0.30239448 -0.18763064 1.2046667
-0.29524931 -0.18445756 1.2044616
-0.28725317 -0.18145631 1.202
-0.10151157 -0.18089432 1.202
-0.093784049 -0.18206514 1.202
-0.089569032 -0.18124557 1.202
-0.28609458 -0.17783113 1.2060001
-0.10071672 -0.17664833 1.2030001
-0.096027307 -0.17713101 1.2037144
-0.27171582 -0.15647447 1.2060001
-0.26960129 -0.15647447 1.2060001
-0.25691417 -0.13004299 1.2060001
-0.25459015 -0.12676689 1.205
-0.24559543 -0.12449934 1.2046669
-0.23894075 -0.1215849 1.2060001
-0.24422705 -0.11777876 1.2060001
-0.23605093 -0.11636908 1.2060001
-0.23346204 -0.10574046 1.2079999
-0.22692643 -0.10351536 1.2060002
-0.22449154 -0.094977178 1.2060002
-0.21726693 -0.094624773 1.2060001
-0.084827147 -0.093784049 1.202
-0.1106441 -0.081139006 1.202
-0.10853659 -0.081139006 1.202
-0.091676541 -0.083246507 1.202
-0.088158578 -0.086276665 1.2051113
-0.19072935 -0.070601471 1.202
-0.11360767 -0.075298645 1.2055001
-0.10434846 -0.076719724 1.2043334
-0.095575698 -0.075525336 1.2037143
-0.19136406 -0.067664638 1.2060001
-0.18622328 -0.062659457 1.2046667
-0.16227801 -0.061117694 1.202
-0.15486425 -0.062523209 1.20375
-0.14783511 -0.061789919 1.2028
-0.11619982 -0.064843923 1.2037778
-0.096210659 -0.068721898 1.2060001
-0.18079145 -0.058149301 1.2060001
-0.17346001 -0.056007225 1.2054287
-0.16564551 -0.05655887 1.2049093
-0.15541723 -0.057092048 1.2060002
-0.14675024 -0.055349976 1.2042857
-0.11802037 -0.054795176 1.202
-0.13299561 -0.04116476 1.204
-0.12370643 -0.042464856 1.2035
-0.11927225 -0.048551552 1.204
-0.13088107 -0.037996486 1.204
-0.12676337 -0.039086182 1.205
-0.31444499 -0.32483342 1.2148825
-0.3086831 -0.32247305 1.21
-0.3131164 -0.31525373 1.219
-0.30781764 -0.31461221 1.2116001
-0.3109791 -0.30777311 1.2190001
-0.30600768 -0.30436322 1.2136154
-0.3109791 -0.29174328 1.2190001
-0.30552775 -0.29621559 1.21325
-0.34143582 -0.28265968 1.2190001
-0.33444798 -0.28499526 1.2167273
-0.32616085 -0.28413567 1.2138751
-0.31654122 -0.28605372 1.2130001
-0.34125769 -0.27464473 1.219
-0.33522534 -0.27572775 1.212
-0.32989842 -0.27898163 1.21
-0.34218389 -0.26524061 1.2190001
-0.33607191 -0.26490375 1.2116001
-0.33457056 -0.25605828 1.2148572
-0.33074924 -0.24418804 1.2190001
-0.32898802 -0.24700128 1.2145001
-0.33021492 -0.23510447 1.2190001
-0.32556626 -0.23414069 1.212625
-0.33021492 -0.22869253 1.2190001
-0.32540804 -0.22504167 1.2155454
-0.32311878 -0.21445817 1.2150834
-0.31822997 -0.21215333 1.21
-0.31615484 -0.20576438 1.2133335
-0.31219912 -0.1966743 1.2126669
-0.30970353 -0.19050492 1.2140001
-0.30360305 -0.18373398 1.2143
-0.29701465 -0.18139111 1.21
-0.30029252 -0.17846566 1.2190001
-0.29389384 -0.17601714 1.2149333
-0.28539306 -0.17400154 1.2134286
-0.27898163 -0.17078343 1.21
-0.10110597 -0.17241228 1.2140001
-0.093890168 -0.17441042 1.2139447
-0.088334687 -0.17134801 1.2140001
-0.29174328 -0.16991641 1.2190001
-0.28503019 -0.16589472 1.216
-0.27633321 -0.16346064 1.21175
-0.26837397 -0.16017577 1.21
-0.097247757 -0.16991641 1.2190001
-0.28212535 -0.15816119 1.2190001
-0.27478817 -0.15424849 1.2145998
-0.26747489 -0.15268765 1.2155714
-0.271795 -0.14604974 1.219
-0.26703843 -0.14484762 1.217889
-0.27037013 -0.13892537 1.2190001
-0.26490006 -0.13589855 1.2154667
-0.25755489 -0.13500419 1.2108182
-0.26302004 -0.12590589 1.2171249
-0.25592899 -0.1230947 1.2135
-0.2482194 -0.12198816 1.21
-0.25377077 -0.11608057 1.2182307
-0.24555665 -0.11435673 1.2146666
-0.2354902 -0.1113805 1.21
-0.24460877 -0.10576475 1.2170001
-0.22170024 -0.10077284 1.21
-0.24151641 -0.097247764 1.2190001
-0.23416936 -0.094949603 1.2126843
-0.22541291 -0.092817083 1.21
-0.21887152 -0.090872347 1.21
-0.23094732 -0.088334687 1.2140001
-0.22385859 -0.08688771 1.2154546
-0.21533807 -0.083334364 1.2153333
-0.20966184 -0.081949048 1.2140001
-0.085450649 -0.08427202 1.21
-0.21266268 -0.077477604 1.2190001
-0.20494461 -0.076687679 1.2168889
-0.19846275 -0.074418813 1.2171251
-0.11180481 -0.073617205 1.21
-0.10578737 -0.072614305 1.21
-0.091943838 -0.074276552 1.2139001
-0.086342029 -0.076187395 1.2136154
-0.19509898 -0.065032274 1.2160769
-0.18881646 -0.061524466 1.21
-0.11263231 -0.064105444 1.2120833
-0.10536218 -0.065979674 1.214
-0.095914841 -0.065939844 1.2156875
-0.088698506 -0.069462679 1.2190001
-0.18416497 -0.055842698 1.2157
-0.17519327 -0.052128281 1.2135834
-0.1641383 -0.051714573 1.2115384
-0.15474631 -0.052070562 1.2122308
-0.14700805 -0.051269047 1.2134001
-0.11549111 -0.05508304 1.2147273
-0.1735688 -0.045855805 1.2165
-0.16589734 -0.046091437 1.2186428
-0.15762685 -0.047555219 1.2190001
-0.13841647 -0.042592414 1.2145001
-0.12026288 -0.041506659 1.2140001
-0.1179953 -0.045578599 1.2148
-0.13256548 -0.035067871 1.2121249
-0.12412136 -0.034507558 1.2129546
-0.11849925 -0.036293779 1.2177501
-0.13144477 -0.028853729 1.2190001
-0.12503283 -0.028853729 1.2190001
-0.32057685 -0.32164901 1.223
-0.31843251 -0.32057685 1.223
-0.32162532 -0.31624696 1.2270001
-0.3176721 -0.31444862 1.2242
-0.31422943 -0.30499059 1.225
-0.33436707 -0.29174876 1.2241429
-0.32538974 -0.29103142 1.2250001
-0.31429067 -0.29436997 1.2235715
-0.34506798 -0.2842758 1.2236668
-0.33987579 -0.28841195 1.223
-0.325928 -0.28935522 1.2270001
-0.35174409 -0.2721445 1.2270001
-0.34642461 -0.27481514 1.2240908
-0.35369983 -0.26569045 1.2270001
-0.34664249 -0.2645804 1.2247143
-0.35174409 -0.25708511 1.2270001
-0.34542534 -0.2544522 1.2260908
-0.3385019 -0.25452575 1.2235715
-0.34322354 -0.24571952 1.2259091
-0.33580753 -0.24511462 1.2237999
-0.33617485 -0.23521473 1.2251334
-0.33472937 -0.22462668 1.22525
-0.32915413 -0.22193781 1.223
-0.33166492 -0.21549255 1.2270001
-0.32872528 -0.21550484 1.223
-0.32432458 -0.20798187 1.2250001
-0.31895325 -0.20189458 1.2250001
-0.31561947 -0.19443958 1.2254002
-0.31233966 -0.18783079 1.2243334
-0.30771089 -0.18333994 1.223
-0.30306831 -0.17662191 1.2252858
-0.29723206 -0.1722216 1.2240001
-0.092206046 -0.17047396 1.223
-0.29275107 -0.16495255 1.2250001
-0.28888357 -0.16108575 1.2250001
-0.10003731 -0.16888019 1.2270001
-0.094197951 -0.16795819 1.2270001
-0.087575004 -0.1635602 1.2265557
-0.28458703 -0.15625224 1.2250001
-0.27876246 -0.15224719 1.223
-0.26569048 -0.15166947 1.2270001
-0.28074986 -0.14951813 1.2270001
-0.27572763 -0.14440855 1.2237999
-0.26380631 -0.14572544 1.2245002
-0.27411941 -0.13611852 1.2250001
-0.269113 -0.1318761 1.223
-0.27201518 -0.12822609 1.2240001
-0.26759794 -0.12438281 1.2240911
-0.26407522 -0.11754522 1.2245001
-0.25648749 -0.11268134 1.2241429
-0.24766973 -0.11472148 1.223
-0.25344491 -0.10667398 1.2250001
-0.24865453 -0.10196423 1.2243334
-0.24522908 -0.095425166 1.2258002
-0.23987441 -0.091431953 1.2270001
-0.23354629 -0.087444514 1.2254001
-0.22552006 -0.082406767 1.2243334
-0.22361837 -0.077047013 1.2263335
-0.21565689 -0.074642777 1.223857
-0.2070252 -0.073093832 1.2235715
-0.086845227 -0.071834944 1.223
-0.21344365 -0.068074539 1.2270001
-0.20521624 -0.065301448 1.2244998
-0.19835022 -0.062185474 1.223
-0.10507201 -0.061113309 1.223
-0.093122825 -0.063065425 1.2245001
-0.086901486 -0.065758914 1.2263335
-0.21190698 -0.054859169 1.2270001
-0.2053908 -0.057189826 1.2266365
-0.19473107 -0.05616051 1.2252855
-0.18643729 -0.052536003 1.223
-0.15117502 -0.050391678 1.223
-0.11205801 -0.053736243 1.2237273
-0.10468394 -0.054561798 1.226652
-0.095927991 -0.056788962 1.2255716
-0.084977932 -0.055934839 1.2270001
-0.20115028 -0.044102471 1.2270001
-0.19541337 -0.042668242 1.2270001
-0.18371472 -0.046732467 1.2255001
-0.17610282 -0.043958697 1.223
-0.16385894 -0.042217344 1.2243334
-0.15503642 -0.045014203 1.2248461
-0.14562875 -0.045806549 1.2255455
-0.11310315 -0.044861928 1.225154
-0.10735186 -0.047114342 1.2270001
-0.1713746 -0.038996179 1.2243334
-0.16516425 -0.038235176 1.2270001
-0.14091277 -0.039799791 1.2270001
-0.13638741 -0.034901414 1.2250001
-0.11583323 -0.035986725 1.2253333
-0.13123174 -0.026891749 1.2270001
-0.12493289 -0.024518467 1.2250001
-0.11855251 -0.028294414 1.2256669
-0.3243573 -0.31208864 1.2346667
-0.32209873 -0.30531317 1.2350001
-0.31882262 -0.30368924 1.2328001
-0.33265293 -0.29581189 1.2360001
-0.325075 -0.29441273 1.2346667
-0.31824052 -0.2973361 1.2333335
-0.35425746 -0.27217346 1.2320001
-0.35461748 -0.26101288 1.2320001
-0.34669712 -0.26029286 1.2320001
-0.34591952 -0.24198017 1.2350001
-0.34388435 -0.23457539 1.2345002
-0.34511384 -0.22574167 1.2360001
-0.34348851 -0.21887912 1.2360001
-0.3360002 -0.21524654 1.2338184
-0.33333105 -0.20633359 1.2355001
-0.3261663 -0.20460911 1.2336001
-0.32129657 -0.19905066 1.2340001
-0.31930539 -0.19374567 1.2346667
-0.31502441 -0.18573461 1.2348573
-0.3099753 -0.18252902 1.2320001
-0.31098172 -0.1787874 1.2360001
-0.30486956 -0.17498267 1.2346667
-0.30014613 -0.16795179 1.2360001
-0.29733378 -0.16542232 1.2333335
-0.10077108 -0.16578469 1.2360001
-0.095367581 -0.16354258 1.2329234
-0.089644425 -0.16092795 1.2320001
-0.29208606 -0.15794203 1.2340001
-0.28661242 -0.15311559 1.2337145
-0.26461306 -0.15012741 1.2320001
-0.093446821 -0.15766676 1.2346668
-0.085994452 -0.15576592 1.2333335
-0.28280917 -0.14736417 1.2360001
-0.27973381 -0.14256704 1.2320001
-0.26395905 -0.14820752 1.2340001
-0.28064203 -0.13977924 1.2360001
-0.2754136 -0.13284656 1.2320001
-0.2710934 -0.11988592 1.2320001
-0.26322722 -0.11311946 1.2336
-0.26146847 -0.10772568 1.2350001
-0.25587445 -0.10317034 1.2336001
-0.2548219 -0.095484383 1.2344617
-0.24787223 -0.09234456 1.2320001
-0.25230604 -0.087278128 1.2352002
-0.24515885 -0.088458389 1.2355556
-0.23544811 -0.084122702 1.2345456
-0.23127167 -0.078292176 1.2346667
-0.22527942 -0.072862476 1.2338184
-0.21925083 -0.070203468 1.2320001
-0.22343007 -0.066964008 1.2360001
-0.21675919 -0.064387493 1.2334547
-0.087484322 -0.062643096 1.2320001
-0.21294497 -0.058911122 1.233
-0.20415989 -0.05347351 1.2348001
-0.19559662 -0.051870029 1.2326669
-0.09403915 -0.052424666 1.2330002
-0.088650987 -0.055132866 1.2332002
-0.20190334 -0.047315452 1.2360001
-0.1948304 -0.04654282 1.2346668
-0.18823436 -0.045434128 1.2340001
-0.15152095 -0.042148031 1.2328001
-0.14592555 -0.041614491 1.233
-0.10384622 -0.044067454 1.2331766
-0.097054005 -0.047262851 1.2346667
-0.16164799 -0.036361795 1.2320001
-0.15564135 -0.038051713 1.2343335
-0.14550212 -0.038943283 1.2340001
-0.13912436 -0.034643237 1.2350001
-0.11252581 -0.034465082 1.2328891
-0.10817979 -0.036778793 1.2340001
-0.13263002 -0.025443496 1.2350001
-0.12341994 -0.02096636 1.2328001
-0.11647069 -0.024713233 1.2334288
-0.12667395 -0.017863836 1.2350001
-0.33507514 -0.31215471 1.245
-0.33361983 -0.30233166 1.245
-0.32679731 -0.30368662 1.2434
-0.33070934 -0.29796585 1.245
-0.32691073 -0.29857513 1.243
-0.35140568 -0.22411633 1.2410001
-0.34596598 -0.22194043 1.2410001
-0.34052625 -0.21432483 1.2410001
-0.33182272 -0.20126952 1.2410001
-0.32892153 -0.20199482 1.2410001
-0.33070934 -0.19755244 1.245
-0.32651487 -0.19790111 1.2432858
-0.31761193 -0.18445505 1.245
-0.31106326 -0.17790635 1.245
-0.30451456 -0.17135765 1.245
-0.29278755 -0.15456843 1.2434
-0.093790188 -0.15431568 1.244
-0.087398112 -0.15194942 1.2410001
-0.2864303 -0.14681308 1.2442
-0.091681801 -0.14952865 1.245
-0.083953984 -0.14827822 1.2436666
-0.27177104 -0.11023645 1.245
-0.2681329 -0.11096408 1.245
-0.26479077 -0.10520037 1.2444285
-0.26225427 -0.096619189 1.243
-0.25784257 -0.091387242 1.2410001
-0.24473685 -0.083271503 1.2416667
-0.23825958 -0.081595749 1.2410001
-0.24391823 -0.077670038 1.2446363
-0.23575458 -0.074525282 1.2426469
-0.22955604 -0.070716314 1.2410001
-0.23310252 -0.067202136 1.245
-0.22612953 -0.063487642 1.2428182
-0.22194043 -0.058748938 1.2410001
-0.21698083 -0.056602862 1.2416667
-0.20562129 -0.051133335 1.2410001
-0.093298428 -0.043345265 1.2423332
-0.087245874 -0.045801446 1.244
-0.16210355 -0.033726241 1.2410001
-0.15518028 -0.032935012 1.2410001
-0.1454504 -0.033910722 1.2421428
-0.1035203 -0.034868538 1.243
-0.096133418 -0.036974389 1.2445556
-0.15376909 -0.02753544 1.244
-0.14807339 -0.028013883 1.245
-0.13599467 -0.025539929 1.245
-0.11145093 -0.022143722 1.2423334
-0.10829008 -0.026056366 1.2431818
-0.12291414 -0.014986835 1.2435001
-0.11513351 -0.015713016 1.2438234
-0.33473054 -0.31223086 1.251875
-0.32984585 -0.31231248 1.25
-0.33521706 -0.30643937 1.250625
-0.32984585 -0.30683333 1.25
-0.33422917 -0.29916251 1.25
-0.34847501 -0.2202625 1.25
-0.34683126 -0.21752292 1.25
-0.33116522 -0.19363813 1.2550001
-0.32754993 -0.19301081 1.2533334
-0.32372907 -0.18573022 1.2578572
-0.31779167 -0.18300417 1.25
-0.31421772 -0.17572248 1.2554168
-0.3087503 -0.1725017 1.2533334
-0.31014624 -0.16776595 1.2590001
-0.30510083 -0.16477296 1.255
-0.29916251 -0.1610875 1.25
-0.30181512 -0.15674748 1.2574002
-0.29686058 -0.15350631 1.253
-0.0966525 -0.1518825 1.25
-0.29362664 -0.14754389 1.256
-0.28825676 -0.14412838 1.2550001
-0.09442237 -0.14548203 1.2553334
-0.086518578 -0.14617486 1.2556001
-0.28541023 -0.13884646 1.2570001
-0.27924201 -0.12582445 1.2590001
-0.27435425 -0.1157249 1.2548001
-0.27168134 -0.10448756 1.2546667
-0.26781732 -0.10374737 1.251
-0.26613846 -0.096216798 1.2545
-0.26268613 -0.089401588 1.2590001
-0.084735319 -0.042505186 1.25125
-0.10300833 -0.031779166 1.25
-0.094478369 -0.03341933 1.2518182
-0.086719863 -0.036106873 1.2550908
-0.15162329 -0.022393281 1.2563335
-0.14439845 -0.024425149 1.254167
-0.13769291 -0.023068169 1.2531667
-0.10341142 -0.025579555 1.2540667
-0.095708981 -0.028409043 1.2585
-0.089401588 -0.029800531 1.2590001
-0.13235883 -0.016129499 1.2546667
-0.12602083 -0.012054167 1.25
-0.11140972 -0.012784722 1.25
-0.10658879 -0.01538287 1.2535001
-0.12341403 -0.006300285 1.2559091
-0.11510483 -0.0056672483 1.2524585
-0.10824583 -0.0073365308 1.2556667
-0.11589094 0.001986702 1.2590001
-0.33014914 -0.18786265 1.268
-0.32518896 -0.1825711 1.266
-0.32333469 -0.17666686 1.2674286
-0.31762335 -0.17267644 1.2653333
-0.31298053 -0.16647725 1.266
-0.30916175 -0.16067547 1.2640001
-0.30575258 -0.15365092 1.2664
-0.30167153 -0.14694804 1.2666668
-0.29515111 -0.14442831 1.2662224
-0.28921583 -0.14072955 1.2640001
-0.09529718 -0.14072955 1.2640001
-0.085324213 -0.14183766 1.2640001
-0.078675576 -0.14183766 1.2640001
-0.29087219 -0.13487576 1.268
-0.28630829 -0.13420212 1.2651428
-0.093926057 -0.13687806 1.2671111
-0.08448261 -0.13895166 1.268
-0.28323302 -0.12498768 1.2645
-0.27813476 -0.12078363 1.2640001
-0.083194107 -0.032659926 1.2653333
-0.10157645 -0.021792764 1.2640001
-0.094112918 -0.02329028 1.2651428
-0.086478226 -0.027143514 1.2661817
-0.14434041 -0.018219637 1.2651428
-0.13584575 -0.01473852 1.2657144
-0.10269825 -0.015712872 1.2674285
-0.094455928 -0.017779853 1.2675999
-0.087817453 -0.018897427 1.268
-0.13005877 -0.0044464534 1.268
-0.12748988 -0.0045912289 1.2645714
-0.10821047 -0.0027737734 1.266
-0.13005877 0.0011116134 1.268
-0.12385897 0.0041243411 1.2662857
-0.11386726 0.0058070403 1.2654117
-0.12294444 0.010893811 1.268
-0.11560779 0.012227746 1.268
-0.33200595 -0.18411578 1.2780001
-0.32921901 -0.18413945 1.273
-0.33189741 -0.17655067 1.273
-0.32623184 -0.17383207 1.2748181
-0.31805906 -0.17074749 1.273
-0.32322961 -0.16861719 1.2780001
-0.31714353 -0.16382857 1.2765
-0.31319669 -0.15760276 1.275
-0.30913109 -0.15065955 1.273
-0.30417109 -0.14495558 1.2729999
-0.2979711 -0.14284757 1.273
-0.30079266 -0.13865316 1.2755001
-0.29602262 -0.13489451 1.2734165
-0.09145499 -0.13358784 1.2744285
-0.084982313 -0.13417822 1.2754999
-0.084091902 -0.022978894 1.2752222
-0.14332385 -0.013897796 1.2758571
-0.13740239 -0.011727829 1.27425
-0.10287333 -0.011179691 1.2755001
-0.095035344 -0.012295542 1.2753334
-0.085431166 -0.015144945 1.2766666
-0.13451408 -0.0049239737 1.2765
-0.1064361 -0.0067222798 1.2780001
-0.1329053 0.0043497281 1.2763333
-0.12833962 0.0066959802 1.273
-0.10825168 0.0011159966 1.273
-0.1309135 0.01231103 1.2763335
-0.12548612 0.015489885 1.2747858
-0.11509887 0.01620606 1.2746665
-0.12436218 0.02128722 1.2780001
-0.1176399 0.02128722 1.2780001
-0.3358348 -0.18707672 1.2855
-0.32351032 -0.16456927 1.2840002
-0.091283351 -0.12847069 1.2855
-0.085681885 -0.12784359 1.286
-0.14654398 -0.012063561 1.2844286
-0.084357247 -0.011247633 1.2830001
-0.14246623 -0.0063897311 1.2863334
-0.13759604 -0.0018746055 1.2830001
-0.10343479 -0.0044182655 1.2856923
-0.0946339 -0.0056300261 1.2850834
-0.085721612 -0.0049370495 1.2853076
-0.13795547 0.0052605844 1.2863334
-0.10952722 0.00338744 1.2880001
-0.13486113 0.014463685 1.2855
-0.12934779 0.019120976 1.2830001
-0.11164087 0.016918207 1.2863334
-0.13211016 0.021453787 1.2880001
-0.12501267 0.02545443 1.2846669
-0.11523464 0.024687571 1.2852727
-0.12307698 0.03048696 1.2880001
-0.1163021 0.03048696 1.2880001
-0.34224802 -0.18988512 1.2970001
-0.086291678 -0.12384983 1.2927142
-0.086793803 -0.11863083 1.2970001
-0.15416707 -0.014354859 1.2956363
-0.15122588 -0.00682222 1.2970001
-0.14617568 -0.0036559924 1.2947778
-0.10080615 -0.0011326533 1.2920001
-0.095236033 -0.0011337493 1.2932501
-0.083816342 -0.0011326533 1.2920001
-0.14252232 0.0037784334 1.2936667
-0.11029255 0.00682222 1.2970001
-0.10540809 0.0025577848 1.296375
-0.095132075 0.0011370367 1.2970001
-0.085081376 0.0022696902 1.2939999
-0.078153081 0.00339796 1.2920001
-0.14321183 0.014777532 1.2965
-0.13897114 0.016551642 1.293
-0.11029255 0.012507404 1.2970001
-0.13505094 0.023829553 1.2945
-0.11326534 0.02718368 1.2920001
-0.12433618 0.032947764 1.2958889
-0.11793236 0.032495577 1.296
-0.343741 -0.19478656 1.307
-0.084465079 -0.12213194 1.302
-0.091166906 -0.11366743 1.3053335
-0.08422026 -0.11434003 1.3026249
-0.09128233 -0.10808744 1.307
-0.087462984 -0.10808744 1.307
-0.17072469 -0.024061868 1.307
-0.16596489 -0.024691567 1.3055716
-0.15865737 -0.021686981 1.302
-0.17215696 -0.016900599 1.307
-0.16480982 -0.01487791 1.3054999
-0.1582008 -0.013468755 1.302
-0.16299053 -0.0051561147 1.307
-0.15580872 -0.004240186 1.3027143
-0.14952601 -0.00114142 1.302
-0.15260017 0.0036457377 1.307
-0.14648223 0.0053266268 1.302
-0.10430197 0.0065735751 1.3038751
-0.095413893 0.005570983 1.3050001
-0.084587261 0.0068600266 1.3038751
-0.079060428 0.0080206236 1.307
-0.152621 0.014895442 1.307
-0.14809923 0.015694523 1.302
-0.11114293 0.01718705 1.307
-0.10644199 0.011610447 1.3055714
-0.095101669 0.01031223 1.307
-0.085935257 0.01031223 1.307
-0.15264647 0.025334986 1.307
-0.14485499 0.02507581 1.3034706
-0.13638987 0.02764428 1.3030001
-0.15124604 0.03093669 1.307
-0.14385039 0.034269933 1.307
-0.13504671 0.034333829 1.3054374
-0.12709074 0.037035286 1.3027143
-0.1177898 0.036022671 1.3045001
-0.14271617 0.042903967 1.307
-0.13497564 0.042165555 1.307
-0.12489257 0.04170724 1.307
-0.36446199 -0.21402581 1.3149167
-0.35787496 -0.21297145 1.3160001
-0.36599869 -0.20897716 1.317
-0.35318726 -0.20482054 1.314
-0.354453 -0.19050403 1.317
-0.34983471 -0.19050404 1.317
-0.35201934 -0.18694888 1.3136667
-0.34641343 -0.18745753 1.3138751
-0.093165122 -0.10696736 1.312
-0.17203093 -0.031173389 1.317
-0.19127376 -0.022706544 1.317
-0.18440853 -0.025157936 1.3163334
-0.17582965 -0.025603252 1.3135387
-0.16562688 -0.023003733 1.312
-0.19050404 -0.01847312 1.317
-0.18435991 -0.015511592 1.3161665
-0.17622687 -0.01361383 1.3124169
-0.18126749 -0.0069274204 1.317
-0.17508896 -0.0048427661 1.3156667
-0.1676397 -0.0040256535 1.3120002
-0.17280065 0.0038485667 1.317
-0.1661422 0.0046158144 1.3160625
-0.15783118 0.0057509332 1.3120002
-0.1637878 0.013746292 1.3165456
-0.15780564 0.014032276 1.3120002
-0.1043774 0.014730435 1.3147779
-0.094495021 0.012102164 1.3145001
-0.085373297 0.012996959 1.3134286
-0.079362877 0.01035168 1.312
-0.16279437 0.025400538 1.317
-0.15834238 0.025687501 1.3120002
-0.11386848 0.028754666 1.312
-0.16279437 0.034637101 1.317
-0.15516895 0.034945957 1.3123126
-0.1460737 0.034735639 1.312
-0.11496221 0.034788236 1.3139999
-0.16135114 0.044162299 1.317
-0.15436216 0.044929598 1.314
-0.14638324 0.046355423 1.3129092
-0.13564384 0.047660772 1.3142729
-0.12487969 0.047243293 1.3143079
-0.1180005 0.041128527 1.3153334
-0.16048522 0.051955651 1.317
-0.15425055 0.05380296 1.3170002
-0.14547582 0.054264788 1.3170002
-0.1383175 0.054726623 1.317
-0.36357558 -0.20908237 1.325
-0.35642639 -0.20466617 1.3265001
-0.35419211 -0.19629243 1.327143
-0.20364635 -0.033747982 1.3274001
-0.19497932 -0.034822185 1.3238751
-0.18560259 -0.034686849 1.3242502
-0.17713073 -0.03334029 1.3227501
-0.21072261 -0.024448479 1.3280001
-0.20438506 -0.025549244 1.3246251
-0.19532821 -0.026121022 1.3220003
-0.1889094 -0.028973833 1.322
-0.21072261 -0.0174632 1.3280001
-0.20480999 -0.015125832 1.3273998
-0.19533795 -0.014694396 1.3236669
-0.18775044 -0.01043058 1.322
-0.21072261 -0.0034926396 1.3280001
-0.20478581 -0.0046561956 1.32725
-0.19520615 -0.0046466612 1.325375
-0.18592921 -0.0043046838 1.3220003
-0.17963776 -0.0011589533 1.322
-0.21072261 0.0034926396 1.3280001
-0.20448318 0.0044222572 1.3268
-0.19537021 0.0046496205 1.3264999
-0.18543251 0.0046358136 1.3220003
-0.17778346 0.0050993948 1.3220001
-0.20257312 0.01047792 1.3280001
-0.19374625 0.014334962 1.3260002
-0.18543249 0.015066395 1.3220003
-0.17519508 0.01525955 1.3220004
-0.16705486 0.01672204 1.3219999
-0.11125952 0.019702207 1.322
-0.10394436 0.018734368 1.3237144
-0.095903121 0.017419016 1.3244002
-0.088080451 0.0173843 1.322
-0.19209521 0.025612693 1.3280001
-0.18514369 0.02549896 1.326
-0.17512865 0.025370734 1.3248421
-0.16688929 0.025496973 1.322
-0.11157577 0.025573902 1.32575
-0.10547773 0.022585738 1.3280001
-0.097793922 0.022120053 1.3280001
-0.1842881 0.035131846 1.3279998
-0.1739919 0.034796547 1.3231251
-0.16727561 0.034768596 1.322
-0.11245384 0.034121327 1.327
-0.18510991 0.04424011 1.3279997
-0.17378706 0.04498757 1.3229476
-0.16630982 0.045778658 1.3220001
-0.11697872 0.045492515 1.3238002
-0.1839457 0.051923912 1.3280001
-0.1744711 0.05542101 1.3251765
-0.16480318 0.055861536 1.3220003
-0.15607239 0.058333982 1.322
-0.14602812 0.059106618 1.322
-0.13451587 0.055861536 1.3220003
-0.12527119 0.055679388 1.3231251
-0.1189826 0.053320967 1.3280001
-0.17346777 0.06519594 1.3280001
-0.16476007 0.064974375 1.3235002
-0.15529974 0.064901397 1.3220003
-0.14486915 0.064901389 1.3220003
-0.1345498 0.064863317 1.3279999
-0.12664054 0.063514307 1.3280001
-0.17113936 0.07450965 1.3280001
-0.16474004 0.074123569 1.3252
-0.15496621 0.074585415 1.3246667
-0.14613403 0.07307031 1.3265001
-0.16415408 0.081993885 1.3280001
-0.15561651 0.080718793 1.3280001
-0.36541978 -0.20392947 1.3348184
-0.35875916 -0.20216723 1.3330001
-0.36257654 -0.19731995 1.335
-0.35875916 -0.19866143 1.3330001
-0.21614823 -0.043186989 1.3380002
-0.20551768 -0.042833757 1.3350002
-0.19608714 -0.042966511 1.3356923
-0.18884978 -0.041054301 1.3380001
-0.22247522 -0.032452445 1.3379999
-0.21572913 -0.035174061 1.337375
-0.20775144 -0.037029669 1.3338333
-0.18415786 -0.03870834 1.3380001
-0.22423466 -0.025219074 1.3380002
-0.21608299 -0.026008477 1.3345386
-0.23107706 -0.01290278 1.3379999
-0.22521214 -0.01524874 1.3379998
-0.21588151 -0.014796071 1.3344706
-0.23208247 -0.0041892142 1.3380002
-0.22521216 -0.0046919202 1.3379999
-0.21595691 -0.0049481094 1.3337693
-0.08093562 -0.0011729799 1.3380001
-0.23264104 0.0046919202 1.3380002
-0.22521216 0.0046919202 1.3379999
-0.21620776 0.0049528303 1.3353078
-0.20917881 0.0081801768 1.3330001
-0.23225003 0.0117298 1.3380001
-0.22459117 0.014834746 1.3379999
-0.21574898 0.015244354 1.3374999
-0.2061497 0.015729886 1.3343891
-0.19866145 0.016360354 1.3330001
-0.092319138 0.019866142 1.3330001
-0.08881335 0.019866142 1.3330001
-0.22227971 0.02404609 1.3380001
-0.2158283 0.025805563 1.3379999
-0.20535788 0.025848841 1.3369472
-0.19564794 0.026037795 1.3334546
-0.1055232 0.026675992 1.3357779
-0.095911495 0.023392756 1.3342501
-0.089981943 0.022203337 1.3330001
-0.21582831 0.035189398 1.3379999
-0.20543815 0.034988973 1.3374735
-0.19480173 0.035098176 1.3345625
-0.11193455 0.037832845 1.3346667
-0.10806723 0.033523556 1.3370001
-0.21559371 0.044338644 1.3379999
-0.20620696 0.04452201 1.3364376
-0.19632423 0.044406671 1.3330001
-0.11377906 0.043400258 1.3379999
-0.2143202 0.052113824 1.3380002
-0.20527148 0.054916799 1.3379998
-0.19457982 0.05479309 1.335143
-0.18463828 0.057728678 1.3330001
-0.12036546 0.059598431 1.3330001
-0.11700577 0.054995641 1.3346667
-0.20136158 0.066077866 1.3380002
-0.1945807 0.065641671 1.3370625
-0.18463829 0.065441407 1.3330001
-0.17879529 0.065441415 1.3330001
-0.139063 0.067778602 1.3330001
-0.12358303 0.066667475 1.3341112
-0.20245633 0.075305313 1.3380002
-0.19479288 0.074992523 1.3379999
-0.18515988 0.075002775 1.33675
-0.17588614 0.074831523 1.3337144
-0.16944651 0.078295976 1.3330001
-0.14295833 0.076737851 1.3330001
-0.13742372 0.074340194 1.3375002
-0.20204583 0.083574824 1.3380002
-0.19479288 0.08437635 1.3379999
-0.18525264 0.084219947 1.3379999
-0.17574508 0.08435674 1.3364375
-0.16589828 0.086168803 1.3342501
-0.15504646 0.085357688 1.3370911
-0.1458727 0.081897818 1.3372859
-0.19510567 0.090319462 1.3379999
-0.18591732 0.090905949 1.3380001
-0.17389427 0.091199197 1.3380002
-0.16656315 0.091492444 1.3380001
-0.37288052 -0.20295885 1.3460001
-0.36851472 -0.1989744 1.3430001
-0.23061155 -0.052035425 1.3490001
-0.22555012 -0.0527784 1.3452501
-0.23061155 -0.046122309 1.3490001
-0.22523865 -0.044468105 1.3430003
-0.23419602 -0.034554914 1.3475001
-0.2266877 -0.035954863 1.3430003
-0.24108621 -0.023145629 1.3490001
-0.23457652 -0.024757592 1.3446003
-0.22899716 -0.027668038 1.3430001
-0.052429631 -0.020893013 1.3490001
-0.24424303 -0.013464548 1.3472002
-0.23628777 -0.014400061 1.3430003
-0.060313791 -0.01064361 1.3490001
-0.053312141 -0.013575184 1.3465
-0.048487555 -0.01419148 1.3490001
-0.24493742 -0.0043832078 1.3460001
-0.23743494 -0.0051019075 1.3430002
-0.081238069 -0.00353209 1.3430001
-0.075301282 -0.0033309348 1.3479092
-0.06395264 -0.0048214644 1.3490002
-0.054400668 -0.0047304933 1.3490003
-0.045907233 -0.0051225093 1.3485001
-0.24466762 0.0044494877 1.346231
-0.23665002 0.0047094533 1.3430002
-0.081238069 0.0035320898 1.3430001
-0.077461824 0.0017739349 1.3490001
-0.057948545 0.0023652466 1.3490001
-0.047304932 0.0011826233 1.3490001
-0.24411432 0.014176751 1.3478
-0.23625757 0.014913271 1.3430003
-0.22958584 0.016483087 1.3430001
-0.24107544 0.024031771 1.348
-0.23478723 0.024454288 1.3441253
-0.22723112 0.025992556 1.3430003
-0.10184193 0.028845401 1.3430001
-0.097081773 0.02712319 1.3450001
-0.24007253 0.03193083 1.3490001
-0.235083 0.035439689 1.3475002
-0.22605376 0.035320897 1.3430003
-0.10473864 0.03548627 1.3451819
-0.24066386 0.043757062 1.3490001
-0.23464774 0.044806432 1.3450001
-0.22570746 0.044947576 1.3430003
-0.11252034 0.045530386 1.3454001
-0.10919555 0.042180229 1.3490001
-0.23473904 0.054618157 1.3476156
-0.22462852 0.053972811 1.3430003
-0.21592841 0.056748915 1.3430001
-0.11471447 0.050852802 1.3490001
-0.23218839 0.063073248 1.3490001
-0.22412336 0.064574547 1.3438574
-0.21428013 0.064754978 1.3430003
-0.20646672 0.065183125 1.3430003
-0.12417544 0.068592153 1.3490001
-0.11944496 0.062679037 1.3490001
-0.22358337 0.074385725 1.3468183
-0.21440177 0.075394653 1.3437502
-0.2076084 0.074958794 1.3430001
-0.19426495 0.076528616 1.3430001
-0.13280658 0.076057665 1.3430002
-0.12723355 0.073663376 1.348
-0.22115056 0.082783632 1.3490001
-0.21470127 0.084939457 1.3456253
-0.20692161 0.085653178 1.3430002
-0.19426495 0.085947521 1.3430001
-0.18720077 0.088302247 1.3430001
-0.15187986 0.088302247 1.3430001
-0.14507237 0.08586669 1.3454001
-0.13737337 0.082268447 1.3470001
-0.21342461 0.093645044 1.3483334
-0.20503512 0.094270281 1.3441253
-0.19535175 0.095004171 1.3430003
-0.18468906 0.09520945 1.3430003
-0.17498821 0.096345365 1.3456669
-0.16441585 0.094124012 1.3454001
-0.15606298 0.092554614 1.3466002
-0.20318635 0.10159384 1.3475001
-0.19486418 0.10275066 1.347154
-0.18565747 0.10204452 1.3472
-0.2353562 -0.053187616 1.3568573
-0.24232872 -0.044557985 1.3590001
-0.23658068 -0.045176748 1.3560834
-0.24340157 -0.035215177 1.3570001
-0.23799483 -0.037390709 1.3540001
-0.25413263 -0.023369573 1.359
-0.24586232 -0.025538176 1.3548335
