# .PCD v0.7 - Point Cloud Data file format
VERSION 0.7
FIELDS x y z
SIZE 4 4 4
TYPE F F F
COUNT 1 1 1
WIDTH 1465
HEIGHT 1
VIEWPOINT 0 0 0 1 0 0 0
POINTS 1465
DATA ascii
-0.33384129 0.013264989 1.1069999
-0.32582545 0.016233411 1.1021999
-0.18049426 0.018338989 1.1010001
-0.17363057 0.017266534 1.101
-0.16527537 0.013989847 1.1025262
-0.15908387 0.010670349 1.1065
-0.3249239 0.021339711 1.106375
-0.315254 0.021191565 1.1042222
-0.30503145 0.024764081 1.1037645
-0.29492381 0.026689941 1.103
-0.28586286 0.028020145 1.1021429
-0.27701527 0.029921509 1.1010001
-0.18167865 0.025124682 1.1023332
-0.1764538 0.022579614 1.1059284
-0.16918468 0.021027436 1.107
-0.3020888 0.030111747 1.108
-0.29431805 0.030111749 1.108
-0.28469265 0.032232895 1.1066667
-0.27442378 0.034443878 1.1055999
-0.26505363 0.036740761 1.1049998
-0.25590405 0.037711501 1.1029166
-0.24585278 0.039022062 1.101
-0.23408188 0.039083678 1.1027143
-0.22572125 0.03874629 1.101
-0.18352382 0.03596532 1.1037499
-0.17969914 0.030111747 1.108
-0.25416902 0.041767906 1.108
-0.24509247 0.042035148 1.1065
-0.23448308 0.041767906 1.108
-0.22356892 0.04278028 1.1040001
-0.21539794 0.04670335 1.1032141
-0.20511146 0.046691924 1.1019046
-0.19547166 0.045055356 1.1038332
-0.18781416 0.044289395 1.1062223
-0.21146822 0.051411681 1.1065
-0.20550536 0.051376831 1.1057501
-0.1874699 0.051481374 1.108
-0.28372231 -0.26128164 1.1131251
-0.27743316 -0.26117158 1.113
-0.28537774 -0.25418243 1.112
-0.2751036 -0.25541157 1.1120001
-0.26499104 -0.25429466 1.1146191
-0.25519058 -0.25217083 1.1137273
-0.24501313 -0.25118718 1.1120001
-0.23531786 -0.25094286 1.1138
-0.22658065 -0.25160423 1.115
-0.30415422 -0.24078877 1.1120001
-0.29504743 -0.24655099 1.1128572
-0.28563204 -0.24793769 1.1120001
-0.26353535 -0.24826264 1.1120001
-0.25398681 -0.24663791 1.1120002
-0.24436323 -0.24615048 1.1120002
-0.23558487 -0.24631813 1.1127501
-0.22569683 -0.2467337 1.1124288
-0.21934199 -0.24858759 1.1120001
-0.30317938 -0.23883906 1.1120001
-0.15639734 -0.23166355 1.115
-0.1516916 -0.22778277 1.1127501
-0.14419669 -0.22459897 1.1134547
-0.13576177 -0.22339685 1.1168334
-0.14232859 -0.21934199 1.1120001
-0.13339911 -0.21712995 1.1135882
-0.12562387 -0.21376909 1.1154667
-0.12390807 -0.20622589 1.114889
-0.1449746 -0.18090491 1.1120001
-0.13459024 -0.18237866 1.1125001
-0.12826285 -0.18201907 1.1120001
-0.16085079 -0.17059933 1.1120001
-0.15378445 -0.17329098 1.1126001
-0.14544101 -0.17472154 1.1134398
-0.13497117 -0.17472014 1.1142757
-0.12515923 -0.17488444 1.1132857
-0.11893211 -0.17254904 1.1120001
-0.16085079 -0.16864963 1.1120001
-0.15396385 -0.16535901 1.1155652
-0.14529184 -0.16732465 1.1170001
-0.1344835 -0.16734044 1.1178236
-0.12425698 -0.16572502 1.1174998
-0.11738602 -0.16739212 1.1140001
-0.15289679 -0.15877749 1.118
-0.12654771 -0.15990137 1.1190001
-0.41103479 -0.14322454 1.1190001
-0.40595332 -0.14337972 1.1126001
-0.40495405 -0.13667443 1.1120001
-0.40456414 -0.11795725 1.1120001
-0.39481559 -0.10625901 1.1120001
-0.11651202 -0.072862007 1.1147778
-0.40608734 -0.06345357 1.1135001
-0.1228193 -0.064481974 1.1134707
-0.11584471 -0.065894641 1.1183684
-0.40388632 -0.057725474 1.1161112
-0.39632645 -0.05356748 1.1144167
-0.1257378 -0.055490438 1.1165383
-0.11869979 -0.0588594 1.1190001
-0.39410153 -0.048508722 1.1162857
-0.13269022 -0.046619087 1.1156669
-0.12850969 -0.04708752 1.1190001
-0.13797659 -0.033765912 1.11625
-0.39481559 -0.021446772 1.1120001
-0.38701677 -0.020471919 1.1120001
-0.15110226 -0.021446772 1.1120001
-0.1447646 -0.023876257 1.1137272
-0.13978012 -0.028347017 1.115
-0.39425546 -0.015725177 1.1159232
-0.38477549 -0.014845254 1.11455
-0.37704003 -0.013124578 1.113889
-0.15163578 -0.013841324 1.11475
-0.14522782 -0.016392132 1.1165
-0.13978012 -0.016617216 1.115
-0.38356709 -0.0055589434 1.1190001
-0.37462103 -0.0066952496 1.1176667
-0.36696014 -0.0039040158 1.1140001
-0.15245217 -0.0046324818 1.1162
-0.36334679 0.003494143 1.1162857
-0.35617277 0.0066510304 1.1125455
-0.34802267 0.0087736798 1.1120001
-0.15456222 0.0048780246 1.1128572
-0.14906621 0.0024437085 1.115
-0.35119444 0.01079089 1.1190001
-0.34303784 0.014322177 1.1137501
-0.33643845 0.016578753 1.1123751
-0.16309913 0.017309893 1.112375
-0.15660466 0.013214435 1.1165003
-0.33242497 0.021121822 1.1120001
-0.32313034 0.023955137 1.1152501
-0.31451142 0.025931798 1.1137778
-0.30902851 0.028270746 1.1120001
-0.17442994 0.026494056 1.1133572
-0.16669776 0.023029316 1.1155454
-0.3129358 0.031064684 1.1190001
-0.30482489 0.032601818 1.1163846
-0.29493457 0.035221353 1.1158499
-0.28492245 0.036910471 1.1137999
-0.2758835 0.038019281 1.1120001
-0.26710981 0.039968986 1.1120001
-0.18148489 0.036427841 1.113
-0.1767675 0.033452377 1.1156667
-0.29135403 0.040220588 1.1190001
-0.28526539 0.041172825 1.1182001
-0.27534929 0.042731471 1.1172501
-0.2645269 0.0444455 1.1148825
-0.2549867 0.045529857 1.1144003
-0.24534491 0.046879169 1.114
-0.23561247 0.04632242 1.1142105
-0.22591932 0.046748437 1.1142143
-0.19343877 0.048881929 1.1120001
-0.18397483 0.045381445 1.1157
-0.17919417 0.04381755 1.1190001
-0.25146043 0.051338475 1.1190001
-0.24328552 0.051011477 1.1190001
-0.23151363 0.050030489 1.1190001
-0.22333872 0.051338475 1.1190001
-0.21423376 0.054052085 1.115875
-0.20485938 0.05414968 1.1149
-0.19455065 0.05407007 1.1145557
-0.18521439 0.053032037 1.1146364
-0.26778311 -0.26089162 1.123
-0.33595213 -0.24842687 1.126
-0.12733933 -0.22012925 1.126
-0.12120092 -0.2118535 1.1240001
-0.11944233 -0.2112451 1.126
-0.15062799 -0.16047296 1.123
-0.14440455 -0.16265896 1.1236
-0.13512 -0.16256483 1.1238573
-0.12542488 -0.16086677 1.123
-0.15136375 -0.15473993 1.1242858
-0.14506015 -0.15492831 1.1256399
-0.13595425 -0.1565942 1.1260002
-0.12526928 -0.15669115 1.1251431
-0.11944233 -0.15103038 1.126
-0.15103038 -0.14806899 1.126
-0.14905612 -0.14806899 1.126
-0.11364522 -0.061421316 1.1240001
-0.4052555 -0.053180244 1.1233751
-0.12235761 -0.052236557 1.1242858
-0.11673985 -0.056232318 1.1253333
-0.40337801 -0.04832625 1.125
-0.39826924 -0.046333149 1.1245
-0.13308458 -0.043374393 1.1245
-0.12629567 -0.047031555 1.1255001
-0.13674159 -0.035322826 1.1254001
-0.14078303 -0.022643423 1.123
-0.13918486 -0.028626673 1.126
-0.40176055 -0.010858393 1.126
-0.39508674 -0.011400299 1.1238573
-0.38887617 -0.010829464 1.123
-0.14413032 -0.012404658 1.123
-0.39395446 -0.0063152439 1.1257001
-0.38525108 -0.004532103 1.1241999
-0.37641037 -0.0027352974 1.1236668
-0.15062799 -0.0068914765 1.123
-0.14708187 -0.0058468273 1.1260002
-0.39188927 0.0029613799 1.126
-0.38464487 0.0025658282 1.1256002
-0.37451586 0.0036194646 1.1260002
-0.36735663 0.0057697189 1.1234287
-0.36030123 0.010858393 1.126
-0.35437849 0.01184552 1.126
-0.16047296 0.018705437 1.123
-0.15615162 0.017601714 1.1242858
-0.34196886 0.022421878 1.126
-0.33490661 0.024415607 1.12525
-0.32405609 0.027128231 1.1252501
-0.31930509 0.027894072 1.123
-0.16506879 0.024850344 1.1248001
-0.15794027 0.020729659 1.126
-0.32180327 0.032575179 1.126
-0.31458345 0.035186976 1.1240587
-0.3056159 0.037551519 1.123
-0.17310558 0.034956675 1.1243848
-0.16879864 0.032575179 1.126
-0.31226107 0.041788366 1.126
-0.30462512 0.042290021 1.1255716
-0.29509589 0.043244839 1.1247145
-0.28475463 0.04598172 1.1246365
-0.27495584 0.047677767 1.123
-0.26778311 0.048240338 1.123
-0.25892264 0.048240338 1.123
-0.17725751 0.043389846 1.1248751
-0.28133109 0.050343461 1.126
-0.27526316 0.051303763 1.1254001
-0.26442888 0.052676447 1.1252002
-0.25579694 0.053386498 1.1247145
-0.24579534 0.054214492 1.1243638
-0.23601277 0.053117719 1.1243334
-0.22487941 0.054049131 1.1246364
-0.21602981 0.057126671 1.1235001
-0.20547852 0.057522733 1.123
-0.19542259 0.058085304 1.123
-0.18509035 0.055563424 1.125
-0.21399443 0.062011082 1.1257502
-0.20520331 0.061569177 1.1257694
-0.19508651 0.060710043 1.1247143
-0.34340984 -0.24317153 1.1362503
-0.33651036 -0.2446682 1.135
-0.34188586 -0.23444699 1.1380002
-0.3362157 -0.23567253 1.1355001
-0.34119517 -0.22746345 1.138
-0.11551135 -0.21150051 1.1326667
-0.12227722 -0.20663707 1.1340001
-0.11751278 -0.2083876 1.136
-0.13535303 -0.15397973 1.1302667
-0.12568183 -0.15293185 1.1303334
-0.15156689 -0.1456231 1.13
-0.14469779 -0.14485207 1.1314399
-0.13505207 -0.14492753 1.1335152
-0.12519535 -0.14481995 1.13304
-0.11898606 -0.14606337 1.13
-0.14225255 -0.13592048 1.1347272
-0.13468231 -0.13544239 1.1380002
-0.12502427 -0.13508774 1.1374289
-0.11194157 -0.060428634 1.13
-0.40913156 -0.052503567 1.13
-0.1151151 -0.053655509 1.1334287
-0.41142026 -0.047330063 1.1326667
-0.40737385 -0.046143349 1.132
-0.13241465 -0.041276384 1.13
-0.12500513 -0.044004649 1.1332942
-0.11882398 -0.047992826 1.1326667
-0.13379943 -0.034661025 1.1335295
-0.12780783 -0.037284631 1.1372001
-0.14042096 -0.0219079 1.136
-0.13857891 -0.02724224 1.1340001
-0.40120649 -0.0049531665 1.13
-0.39670363 -0.004052591 1.13
-0.14661373 -0.0029718999 1.13
-0.39248344 0.0049742064 1.1334286
-0.38440523 0.007797075 1.135
-0.37545443 0.0084423004 1.133
-0.36950624 0.0089157 1.13
-0.39007986 0.010974113 1.138
-0.37287042 0.011971759 1.138
-0.36412284 0.01456779 1.136
-0.35569963 0.016434871 1.1359999
-0.34894314 0.01888866 1.1340001
-0.15222731 0.018161612 1.13
-0.35402673 0.024663486 1.1367502
-0.34568748 0.026222603 1.1317143
-0.33572391 0.027750447 1.1305001
-0.32839495 0.028233049 1.13
-0.16250229 0.026980134 1.1321819
-0.15616128 0.023397911 1.1332726
-0.35296741 0.031725165 1.138
-0.34362841 0.033778936 1.1368892
-0.3345663 0.034855153 1.1358184
-0.3261455 0.035342749 1.1318462
-0.31898391 0.038634699 1.13
-0.17137957 0.037644066 1.13
-0.16489151 0.034622487 1.1336668
-0.15862583 0.032922339 1.138
-0.3401975 0.040903512 1.138
-0.33261541 0.041302569 1.138
-0.3241218 0.044179209 1.1366668
-0.31555131 0.045458455 1.13325
-0.30477032 0.047653489 1.1324
-0.29536778 0.048024051 1.1311429
-0.28728366 0.048541032 1.13
-0.17459491 0.044702586 1.1330769
-0.16745473 0.040867567 1.1370001
-0.3135936 0.050879981 1.138
-0.30361715 0.051212531 1.138
-0.29372039 0.053367712 1.1362857
-0.28470841 0.054384321 1.1346669
-0.27393875 0.05645144 1.1332728
-0.26548523 0.057149511 1.1304445
-0.2552532 0.058117155 1.13
-0.24405259 0.057730254 1.1305001
-0.2345612 0.057029799 1.1313335
-0.22628894 0.057598252 1.13
-0.18277924 0.056057576 1.1331428
-0.17843322 0.053509984 1.1355
-0.2843293 0.060856447 1.138
-0.27235755 0.060856447 1.138
-0.26459727 0.061343294 1.1346668
-0.25435695 0.062263787 1.1363333
-0.24486578 0.062713221 1.1354287
-0.23569123 0.062245384 1.136
-0.22480552 0.063323691 1.1337647
-0.21571815 0.066947818 1.1313334
-0.2048267 0.066751689 1.1312307
-0.19507039 0.066039108 1.1331578
-0.18580738 0.06387385 1.1360873
-0.22047991 0.070832916 1.138
-0.21499287 0.070832916 1.138
-0.20533724 0.070770666 1.1370001
-0.1945411 0.071331732 1.138
-0.35232794 -0.24191178 1.1450001
-0.34909657 -0.24206695 1.141
-0.35379866 -0.23474467 1.1428825
-0.34745973 -0.23524688 1.1409999
-0.36191797 -0.22390994 1.1474001
-0.35491368 -0.22542943 1.1456157
-0.34560508 -0.22495148 1.1418
-0.36161712 -0.21253818 1.149
-0.35518134 -0.21641189 1.1470002
-0.34761649 -0.21681659 1.1427143
-0.11180919 -0.21253818 1.149
-0.10818294 -0.21132943 1.149
-0.12145779 -0.20376335 1.1450001
-0.11483378 -0.20446341 1.1445558
-0.10767782 -0.20551643 1.1458001
-0.099721707 -0.2024653 1.149
-0.1357042 -0.13103624 1.141
-0.1290357 -0.13103624 1.141
-0.14052616 -0.12747347 1.145
-0.13509107 -0.1258605 1.1460911
-0.12557897 -0.1255728 1.1459602
-0.11895008 -0.12296521 1.1450001
-0.13699144 -0.11986751 1.149
-0.12260306 -0.11817238 1.1482
-0.11878336 -0.11710339 1.1450001
-0.11203098 -0.05101411 1.141
-0.10840684 -0.052194983 1.1450001
-0.12203375 -0.041011345 1.141
-0.11492439 -0.044793736 1.1462634
-0.10835563 -0.046479236 1.149
-0.13103624 -0.031008577 1.141
-0.1244068 -0.034066286 1.1450001
-0.11897822 -0.037645292 1.1482002
-0.13449453 -0.025623359 1.1463335
-0.12743244 -0.028788155 1.1482002
-0.13903846 -0.019005256 1.141
-0.39888683 0.0090656104 1.149
-0.4019087 0.01309477 1.149
-0.39508751 0.014516972 1.1475716
-0.38511541 0.01345584 1.1450001
-0.37619957 0.015267734 1.1436667
-0.36474243 0.019038569 1.1430001
-0.39183581 0.021153091 1.149
-0.37169001 0.022160381 1.149
-0.36489582 0.025019277 1.1460003
-0.35909933 0.025006916 1.141
-0.15299654 0.027039029 1.1423334
-0.14956371 0.02710215 1.1450001
-0.36199495 0.031171637 1.1470001
-0.354684 0.036359314 1.1466668
-0.34678108 0.037865162 1.1426001
-0.16104454 0.039010789 1.141
-0.15498853 0.034879938 1.1438891
-0.14938955 0.033086274 1.1436667
-0.34417969 0.042900439 1.1455715
-0.33475766 0.045342222 1.1450001
-0.32616165 0.048599329 1.1430001
-0.17149353 0.048642289 1.1440001
-0.16562097 0.044772014 1.1450001
-0.15960155 0.041155115 1.1450001
-0.32305869 0.052334368 1.1480001
-0.3143799 0.054516949 1.1457273
-0.30494913 0.056180522 1.1442502
-0.29596201 0.057791837 1.1415
-0.28707939 0.059016328 1.141
-0.2790772 0.059016325 1.141
-0.17442621 0.054321144 1.1444286
-0.30117971 0.061444689 1.149
-0.29411757 0.061637849 1.1463333
-0.28434974 0.063645281 1.1424546
-0.27503926 0.065205581 1.1442003
-0.26484725 0.066769801 1.1458001
-0.25562161 0.067395829 1.1442728
-0.24515441 0.068043008 1.1414
-0.23489828 0.067518674 1.1409999
-0.22746292 0.068218865 1.141
-0.18305063 0.069019087 1.141
-0.17744653 0.065225758 1.1446668
-0.26592457 0.071517587 1.149
-0.25310126 0.073320024 1.1456667
-0.24586156 0.073117003 1.1447144
-0.23563676 0.072457373 1.1464547
-0.22501455 0.073909126 1.1458575
-0.21499391 0.0763596 1.1460001
-0.20634864 0.075039156 1.1463336
-0.19573654 0.075070783 1.1440771
-0.18605894 0.073779598 1.1435882
-0.17898378 0.071393102 1.1470001
-0.36596081 -0.22151665 1.1538
-0.3641414 -0.21646056 1.1538
-0.35883281 -0.2112565 1.153
-0.1212956 -0.20114854 1.153
-0.11422002 -0.20114854 1.153
-0.10376187 -0.20462658 1.1551331
-0.097626917 -0.2028392 1.1539999
-0.1207021 -0.19981776 1.1570001
-0.11436269 -0.19905704 1.1570001
-0.095344514 -0.19981776 1.1570001
-0.13241436 -0.1202848 1.153
-0.12736037 -0.1202848 1.153
-0.13237754 -0.11777999 1.1562001
-0.12595463 -0.11608886 1.154
-0.11118764 -0.041442662 1.153
-0.10644697 -0.045125362 1.1542
-0.1202848 -0.032345496 1.153
-0.11492135 -0.036198661 1.1549999
-0.10705766 -0.037488312 1.1556667
-0.13365719 -0.022949381 1.1550001
-0.12434027 -0.026964433 1.1548181
-0.11765918 -0.029414797 1.1570001
-0.13847914 -0.019205136 1.153
-0.403395 0.015849842 1.1538888
-0.39599296 0.018348258 1.1535714
-0.38587162 0.01844704 1.153
-0.37662286 0.0183965 1.153
-0.40174797 0.022603681 1.1543332
-0.3953661 0.023839081 1.1553998
-0.3836951 0.023167269 1.1566923
-0.37539256 0.025978846 1.1545999
-0.37137991 0.033472009 1.1570002
-0.36451921 0.036116038 1.1549999
-0.35883281 0.038410276 1.153
-0.1546519 0.03942107 1.153
-0.36109197 0.041586436 1.1570001
-0.35382146 0.042281456 1.1538
-0.34582257 0.046758767 1.1558571
-0.33739436 0.049066592 1.154
-0.16377777 0.047843419 1.155
-0.15791836 0.043180566 1.1562001
-0.33367184 0.05295264 1.1559999
-0.32494864 0.056257073 1.1547142
-0.31553873 0.059118517 1.1541427
-0.17314464 0.056095969 1.155
-0.16851725 0.052346062 1.1556667
-0.31423116 0.062278222 1.1570001
-0.30433169 0.065619193 1.1554443
-0.29502374 0.067295328 1.1548666
-0.28617492 0.068572208 1.1545
-0.27662137 0.069744967 1.153
-0.26381794 0.069744967 1.153
-0.17571031 0.066565596 1.1563333
-0.30226237 0.072015539 1.1570001
-0.29009864 0.071766563 1.153
-0.28413448 0.073505878 1.1565001
-0.27485034 0.075157031 1.1549999
-0.26553079 0.074701533 1.1545999
-0.2587406 0.073436439 1.1537999
-0.24449444 0.077446617 1.1558572
-0.23490985 0.076955542 1.155
-0.22439687 0.078842141 1.153
-0.20435715 0.077898845 1.1539999
-0.19306217 0.079852939 1.153
-0.18428972 0.077329889 1.154143
-0.17821056 0.072905354 1.155
-0.26777607 0.080129966 1.1570001
-0.23126116 0.080129966 1.1570001
-0.22405134 0.08211799 1.1564286
-0.21526742 0.083233699 1.155
-0.20614152 0.082428083 1.1567142
-0.19662996 0.08157897 1.1570002
-0.18742752 0.081387691 1.1556667
-0.10489463 -0.20096298 1.1616668
-0.098727569 -0.20050856 1.161
-0.12111939 -0.19847295 1.161
-0.11504944 -0.19522919 1.1638235
-0.1056755 -0.19758092 1.1668462
-0.097136132 -0.19733736 1.1663334
-0.13224109 -0.11349239 1.1663333
-0.12536386 -0.11251982 1.1626002
-0.11928891 -0.11215021 1.1630001
-0.1311774 -0.10760645 1.169
-0.12494932 -0.10651172 1.16825
-0.11963081 -0.10735864 1.1663333
-0.10483443 -0.04173021 1.161
-0.11279631 -0.033037182 1.1621429
-0.10730313 -0.036138441 1.1632222
-0.13231529 -0.02137401 1.161
-0.12501274 -0.022703515 1.1628183
-0.11666907 -0.026972931 1.1653999
-0.13360168 -0.018744009 1.1663333
-0.12674934 -0.019421672 1.166
-0.41410899 0.0092023704 1.1663333
-0.40782708 0.0091760699 1.1630001
-0.41221303 0.012010159 1.161
-0.40814182 0.01221372 1.161
-0.40137744 0.029618183 1.1650001
-0.39434132 0.027343964 1.1623334
-0.38649616 0.027729651 1.161889
-0.37964314 0.02951649 1.161
-0.39399388 0.032380268 1.1663333
-0.38404125 0.034381878 1.1662501
-0.37547621 0.036718596 1.1633334
-0.36946502 0.036641158 1.161
-0.38020945 0.042017758 1.169
-0.37508532 0.042017758 1.169
-0.3654328 0.043957815 1.166
-0.35585693 0.046544857 1.165
-0.3470732 0.047837071 1.161
-0.1618318 0.049872689 1.161
-0.15739077 0.045956131 1.1650001
-0.35275093 0.050685801 1.168
-0.34499288 0.05430698 1.1660001
-0.33591211 0.056792878 1.1620002
-0.17200989 0.058015171 1.161
-0.16468032 0.055448294 1.1640476
-0.15884762 0.051241167 1.169
-0.34126616 0.060464576 1.169
-0.33494341 0.061668023 1.1675
-0.32555762 0.063987851 1.1650001
-0.31486559 0.066405006 1.1623335
-0.30839643 0.068193272 1.161
-0.17250811 0.064940169 1.1643847
-0.16776271 0.062217515 1.1676668
-0.3207697 0.070712812 1.169
-0.31410089 0.071697302 1.1683334
-0.30516258 0.07450664 1.1664286
-0.29451534 0.075520337 1.166
-0.28525239 0.076526605 1.1638572
-0.26361278 0.078371368 1.161
-0.25547031 0.078371368 1.161
-0.18124704 0.077872843 1.1636667
-0.17540225 0.074318834 1.1655334
-0.28457829 0.081892349 1.1676668
-0.27570054 0.08227253 1.1633334
-0.26490203 0.0819664 1.1658001
-0.25474441 0.081847347 1.1670001
-0.24399312 0.082584195 1.1653333
-0.23499817 0.08405567 1.1644669
-0.22588696 0.086600527 1.162143
-0.21501237 0.087786116 1.1610001
-0.20430177 0.087123871 1.1623334
-0.19549349 0.086479053 1.1646923
-0.18472385 0.083510242 1.1671538
-0.1793441 0.083010696 1.169
-0.22430831 0.091840476 1.1683334
-0.21535361 0.091821849 1.1669999
-0.20683458 0.091131248 1.168
-0.11348463 -0.19178799 1.1752857
-0.10509989 -0.19351837 1.1746001
-0.09627115 -0.19279896 1.1745002
-0.11040653 -0.18882611 1.177
-0.10627917 -0.18882613 1.177
-0.13494092 -0.11124725 1.1750001
-0.13265456 -0.10523244 1.1730001
-0.10712691 -0.03296442 1.1750001
-0.12031461 -0.02159493 1.1730001
-0.11400437 -0.025974581 1.1758001
-0.10834285 -0.028891426 1.177
-0.14239347 -0.017541224 1.177
-0.13498545 -0.01669191 1.1754
-0.12459485 -0.018329522 1.1746
-0.15167999 0.0051591834 1.177
-0.14875893 0.0085881194 1.1756667
-0.14961632 0.011350203 1.177
-0.39341941 0.036890659 1.1754
-0.38768041 0.037362657 1.1730001
-0.38496226 0.043004081 1.1755456
-0.3741293 0.045923796 1.1756668
-0.36457908 0.047329482 1.1736668
-0.15361041 0.046907365 1.1760001
-0.14961632 0.048496325 1.177
-0.36186695 0.052064799 1.1760001
-0.35552615 0.055332445 1.1750001
-0.34860387 0.058614809 1.1730001
-0.15621707 0.05396245 1.1752501
-0.14961632 0.051591836 1.177
-0.35185629 0.060878363 1.177
-0.34482172 0.062320918 1.1750001
-0.33504647 0.067146726 1.1743335
-0.3259806 0.068898112 1.1730001
-0.16496103 0.065560579 1.1746002
-0.15993468 0.060878363 1.177
-0.33328322 0.071196727 1.177
-0.32447451 0.07313855 1.1750001
-0.31586295 0.075900123 1.1736156
-0.30459136 0.078770079 1.1730001
-0.29718736 0.07918141 1.1730001
-0.17231673 0.077412501 1.173889
-0.1676044 0.073358111 1.1755456
-0.31161469 0.081515096 1.177
-0.30352828 0.082064472 1.1750001
-0.2951194 0.082278386 1.174778
-0.2855565 0.085771956 1.1747144
-0.27487504 0.08647909 1.1743335
-0.26417086 0.086190484 1.1764287
-0.25516444 0.087752387 1.1754616
-0.24577439 0.08804933 1.1746668
-0.23781425 0.088880859 1.1743335
-0.19273253 0.089668095 1.1756667
-0.18525895 0.088512652 1.1740001
-0.17532311 0.085324049 1.1739093
-0.23283093 0.092596516 1.1762002
-0.2243962 0.095840268 1.1755
-0.21511544 0.09631484 1.1750001
-0.20441426 0.094228067 1.1746669
-0.1957092 0.092333913 1.1758573
-0.18469876 0.091833465 1.177
-0.1774759 0.091833465 1.177
-0.11808494 -0.19149469 1.1850001
-0.10146365 -0.19153851 1.1810001
-0.09532728 -0.19101369 1.1863333
-0.11372397 -0.18676347 1.1846668
-0.1047541 -0.18543485 1.184238
-0.095462389 -0.1872384 1.1871819
-0.088600315 -0.18553948 1.189
-0.10538468 -0.03189547 1.1863334
-0.11296063 -0.022946501 1.182143
-0.10606499 -0.025178341 1.1853077
-0.14264046 -0.013248405 1.1855001
-0.13643651 -0.014003873 1.1835001
-0.12646705 -0.01556772 1.1838572
-0.11620178 -0.019143522 1.1850001
-0.10822099 -0.019771464 1.187
-0.15114172 -0.0010423567 1.189
-0.1475977 -0.0052117831 1.189
-0.15322644 0.0010423567 1.189
-0.14764118 0.0049319076 1.186
-0.15116012 0.013459464 1.1810001
-0.14752868 0.012091864 1.1823335
-0.39824688 0.038372576 1.1830001
-0.40130731 0.041694269 1.189
-0.39437374 0.044365469 1.1847143
-0.38583791 0.047970906 1.1810001
-0.37831444 0.047832865 1.1810001
-0.39296845 0.051770378 1.189
-0.38380855 0.053574644 1.1874616
-0.37460759 0.054648779 1.1849999
-0.3661378 0.055803869 1.1831334
-0.35719344 0.05901457 1.1810001
-0.15306933 0.057325937 1.1846
-0.3707315 0.062193945 1.189
-0.36389154 0.063212633 1.1863334
-0.35488945 0.065466069 1.1852221
-0.34567845 0.067643955 1.1834002
-0.33855727 0.069368005 1.1810001
-0.16125904 0.066991359 1.1816667
-0.15672068 0.064238124 1.1872858
-0.34414023 0.072659709 1.1874001
-0.33493531 0.074953102 1.1846669
-0.3255941 0.078259356 1.1832223
-0.31785041 0.079721436 1.1810001
-0.16399096 0.076217458 1.1844667
-0.33146942 0.080261461 1.189
-0.32313055 0.082346179 1.189
-0.31463328 0.084864214 1.1867143
-0.30551013 0.086500995 1.1840001
-0.29557344 0.087117001 1.1830002
-0.28782547 0.088004179 1.1810001
-0.27367577 0.088004179 1.1810001
-0.26711857 0.088004179 1.1810001
-0.17102452 0.08603286 1.1823335
-0.16680217 0.083734505 1.1871819
-0.30333427 0.091278248 1.1876668
-0.29492983 0.093255922 1.1875715
-0.28501278 0.092799775 1.1860001
-0.27526826 0.093147129 1.1859411
-0.26531601 0.093729593 1.18625
-0.25504261 0.094984405 1.1847779
-0.24535054 0.095536701 1.1858889
-0.236059 0.096470594 1.1853335
-0.228163 0.098524183 1.1830001
-0.21017469 0.098357618 1.1810001
-0.20464501 0.098690748 1.1850002
-0.1943803 0.096748307 1.183
-0.18497743 0.096280858 1.1828462
-0.17553425 0.093578026 1.1834
-0.23244554 0.10110859 1.189
-0.22358362 0.10238833 1.1850001
-0.2153807 0.10301049 1.1868666
-0.20577887 0.1017203 1.187
-0.19492069 0.10215096 1.189
-0.18687184 0.10187445 1.1882001
-0.12027428 -0.19139299 1.1930001
-0.12035494 -0.18524195 1.1938
-0.11575103 -0.18293823 1.1938
-0.10499164 -0.18138409 1.1936666
-0.095084026 -0.18388632 1.1935
-0.088898383 -0.18198022 1.1930001
-0.12067755 -0.17944227 1.197
-0.11392405 -0.17770332 1.1966001
-0.10569166 -0.17731912 1.1956668
-0.095430955 -0.17827299 1.1962
-0.088074312 -0.178243 1.1960001
-0.10248952 -0.032486986 1.1954
-0.096201673 -0.033814128 1.196
-0.10278039 -0.024120899 1.1963334
-0.099690147 -0.026234249 1.197
-0.1339801 -0.011514139 1.194
-0.12388111 -0.014141073 1.1949999
-0.11476054 -0.016606947 1.1947144
-0.10784432 -0.018496791 1.1943334
-0.14369053 -0.0058083949 1.1948184
-0.13779394 -0.0085985223 1.1962001
-0.14596733 0.0048859562 1.1950001
-0.15583363 0.038696945 1.1930001
-0.40460792 0.045071483 1.1956667
-0.39847392 0.049155578 1.1930001
-0.15252984 0.042533938 1.1950001
-0.40215826 0.052061439 1.1956667
-0.39481902 0.054076798 1.1938889
-0.38643527 0.058351811 1.1956667
-0.37964839 0.059614211 1.1930001
-0.14903553 0.058045417 1.1930001
-0.37494263 0.064456038 1.1955001
-0.36556008 0.067321859 1.1936666
-0.15275873 0.066178471 1.1935
-0.14872177 0.06379766 1.1930001
-0.36413136 0.070307791 1.197
-0.35484281 0.072739273 1.1947778
-0.34504715 0.076795116 1.1952857
-0.33781385 0.07843975 1.1930001
-0.16001709 0.075302154 1.1930001
-0.15491305 0.073949292 1.1948003
-0.33426961 0.082782507 1.1952858
-0.32412654 0.086070262 1.1956668
-0.31638023 0.088524483 1.1950001
-0.1640293 0.084746495 1.1934444
-0.15635507 0.081422172 1.1938
-0.31166288 0.09129519 1.197
-0.30295172 0.09447632 1.1930001
-0.29458484 0.098659776 1.193
-0.28573614 0.098477721 1.1949999
-0.2744261 0.098854557 1.1941427
-0.26603872 0.099005297 1.1938001
-0.25728238 0.099357016 1.1930001
-0.24159443 0.099357016 1.1930001
-0.18093435 0.099357016 1.1930001
-0.17206307 0.093188204 1.1943334
-0.2801818 0.10178889 1.197
-0.27703369 0.10178889 1.197
-0.26339188 0.10178889 1.197
-0.25465745 0.10207257 1.1954
-0.24500321 0.10330933 1.1943332
-0.2358674 0.10408113 1.1948183
-0.22571783 0.10741323 1.1941999
-0.2146344 0.10818876 1.193
-0.2047036 0.10602055 1.1949999
-0.19436038 0.10668344 1.1947144
-0.18496715 0.10517929 1.195154
-0.22246644 0.11123322 1.197
-0.21477108 0.111583 1.197
-0.12227703 -0.17509356 1.2050002
-0.11513504 -0.17355633 1.2034999
-0.10394741 -0.17258132 1.2034117
-0.09519653 -0.17329161 1.2038666
-0.086819455 -0.17384931 1.2048001
-0.12264216 -0.16810434 1.2060001
-0.11947038 -0.16810434 1.2060001
-0.10678326 -0.16810434 1.2060001
-0.096210659 -0.16810434 1.2060001
-0.10010657 -0.032666355 1.202
-0.097999059 -0.030558847 1.202
-0.10326783 -0.020021314 1.202
-0.12539664 -0.011591286 1.202
-0.11411671 -0.013717329 1.2037143
-0.10784052 -0.01691616 1.2060001
-0.14163192 -0.0024593421 1.2026668
-0.13595259 -0.0060700397 1.2045001
-0.14305542 0.0047983332 1.2060002
-0.1533027 0.016704708 1.2060001
-0.14712095 0.014336507 1.2048572
-0.15330271 0.020087941 1.2060001
-0.15324697 0.036989681 1.2055557
-0.14801639 0.037004098 1.2060002
-0.15155637 0.048176337 1.2033334
-0.14772186 0.045375913 1.2035999
-0.40218249 0.056551427 1.202
-0.39621124 0.057956435 1.202
-0.14907366 0.057092041 1.2060001
-0.4021112 0.061673503 1.2060001
-0.39430642 0.06170401 1.2052001
-0.38432693 0.06413167 1.2048572
-0.37660721 0.067867436 1.2033334
-0.14803921 0.067867436 1.2033334
-0.37321278 0.071541257 1.2060001
-0.36520442 0.073887214 1.2040001
-0.35548708 0.077675425 1.2042857
-0.34773859 0.079031497 1.202
-0.15120852 0.076555088 1.2028
-0.14872123 0.074360617 1.2060002
-0.34462136 0.083538108 1.2038462
-0.33533973 0.088060468 1.2044002
-0.32771727 0.088515282 1.202
-0.16310735 0.08810626 1.2025715
-0.15522914 0.084767766 1.2045455
-0.33233204 0.092686452 1.2060001
-0.32413462 0.094195493 1.2050002
-0.31546301 0.095130824 1.2039999
-0.30680117 0.097459614 1.2040001
-0.17342946 0.09688694 1.2031429
-0.16639975 0.093126893 1.2043999
-0.31400621 0.1004397 1.2060001
-0.3066054 0.1004397 1.2060001
-0.29485533 0.10271052 1.2042857
-0.28512076 0.10484884 1.2045716
-0.27391347 0.10356715 1.2037144
-0.26387492 0.10414508 1.2040001
-0.25506774 0.10684862 1.2045455
-0.24558181 0.10801468 1.2040001
-0.23623976 0.10862689 1.2030001
-0.20232064 0.10853659 1.202
-0.19915938 0.10853659 1.202
-0.18135503 0.10568067 1.2037144
-0.17594244 0.10356671 1.2046666
-0.24211253 0.1110123 1.2060001
-0.23465776 0.11210521 1.2051113
-0.22528163 0.11487501 1.2038462
-0.21441637 0.11496932 1.203143
-0.20616823 0.11225685 1.2049092
-0.19583975 0.11130336 1.2053335
-0.18502051 0.1110123 1.2060001
-0.17867693 0.1110123 1.2060001
-0.12566316 -0.17344791 1.2113334
-0.1177451 -0.17078345 1.21
-0.091225937 -0.17078343 1.21
-0.087336451 -0.17149061 1.21
-0.12298782 -0.16497473 1.2157
-0.11473594 -0.16528744 1.2141
-0.10475295 -0.16438967 1.2128094
-0.094527312 -0.16460031 1.2126666
-0.084961794 -0.16460767 1.2113998
-0.079820499 -0.16709091 1.2140001
-0.11220895 -0.15922984 1.2190001
-0.10323224 -0.15837492 1.2190001
-0.093851119 -0.15558249 1.2165
-0.085673124 -0.15450859 1.2135295
-0.090835817 -0.14854327 1.2190001
-0.086026855 -0.14800894 1.2190001
-0.12198816 -0.011668433 1.21
-0.11615395 -0.011668433 1.21
-0.10660287 -0.01502665 1.2146668
-0.13369423 -0.004431915 1.2135834
-0.12877707 -0.0095784599 1.2140001
-0.11371932 -0.0089814505 1.2155715
-0.14108196 0.0084861331 1.21
-0.13718122 0.0048953649 1.2143333
-0.14384237 0.015415381 1.2124168
-0.13844582 0.013861226 1.2161429
-0.15353553 0.025020264 1.2115555
-0.14700069 0.02364246 1.2165834
-0.15389708 0.031839948 1.2106668
-0.14555584 0.03498923 1.2143333
-0.13785671 0.036334325 1.2190001
-0.14395218 0.044436958 1.2147273
-0.13999403 0.041677609 1.2190001
-0.15168963 0.053038333 1.21
-0.14722958 0.053828292 1.2135
-0.4020502 0.067546114 1.2152001
-0.39578906 0.066578761 1.213643
-0.38583735 0.067965046 1.2113334
-0.14712782 0.066223048 1.2144001
-0.39341831 0.072515987 1.219
-0.38404465 0.074406922 1.2171818
-0.37507659 0.07596004 1.2130001
-0.36604765 0.078798555 1.2122858
-0.35959989 0.079557501 1.21
-0.14692627 0.07346116 1.2145001
-0.37429696 0.082553729 1.219
-0.36433545 0.08491338 1.2172143
-0.35528529 0.08512494 1.2125385
-0.34740108 0.087513246 1.21
-0.15329269 0.08705575 1.213143
-0.1495681 0.081679031 1.21
-0.36013728 0.090835817 1.2190001
-0.35329184 0.092860475 1.2175
-0.34454882 0.094275504 1.2142777
-0.3358503 0.096301429 1.2132307
-0.32692829 0.097802684 1.21
-0.17078343 0.098651297 1.21
-0.1632701 0.096760906 1.2106668
-0.15644981 0.093782045 1.2175714
-0.33128357 0.10152239 1.2190001
-0.32433861 0.10349225 1.217
-0.31518912 0.10435998 1.2146429
-0.30548626 0.10525764 1.21275
-0.29502973 0.10755823 1.2125455
-0.28399089 0.10881887 1.2110001
-0.27484506 0.10810464 1.2121819
-0.26609728 0.10797815 1.2105001
-0.25988784 0.10925896 1.21
-0.17279547 0.10627401 1.210889
-0.1665823 0.10336471 1.2155
-0.30349848 0.11007164 1.2190001
-0.29430804 0.11263641 1.2190001
-0.28486782 0.11365011 1.2161
-0.27599722 0.11283288 1.2164999
-0.26409322 0.11409885 1.2163334
-0.25536188 0.11240678 1.210889
-0.24535252 0.11417487 1.2133334
-0.23490793 0.11730676 1.2114545
-0.22594328 0.11986663 1.21
-0.21533564 0.1181694 1.21
-0.20414865 0.11662789 1.2116001
-0.19456348 0.11621727 1.2127693
-0.18519919 0.11515032 1.2128823
-0.1760034 0.11447391 1.2157999
-0.24044774 0.12075821 1.2190001
-0.23426826 0.12228873 1.2165002
-0.22527954 0.12300082 1.2153335
-0.21488142 0.12148799 1.2167778
-0.20518209 0.12075821 1.2190001
-0.1977015 0.12075821 1.2190001
-0.18556711 0.12051055 1.2165
-0.12615788 -0.16547054 1.223
-0.11793797 -0.16189666 1.223
-0.12209143 -0.15813856 1.2238001
-0.11485603 -0.15576924 1.2254345
-0.10573436 -0.15455267 1.2248667
-0.098179527 -0.15301302 1.2230002
-0.10165081 -0.14898029 1.2270001
-0.094160669 -0.14519934 1.22575
-0.086737543 -0.14324863 1.2239999
-0.092507623 -0.13661009 1.2270001
-0.084724836 -0.13559771 1.227
-0.078523912 -0.13230741 1.2270001
-0.10541566 -0.01290804 1.2270001
-0.13101608 -0.0026856684 1.2250001
-0.12595543 -0.0087966491 1.2238001
-0.11580855 -0.006659335 1.2254001
-0.10846558 -0.0085930862 1.2250001
-0.13396256 0.005368832 1.2252858
-0.13593331 0.015874194 1.2252223
-0.14266382 0.025131777 1.2235714
-0.13574833 0.02521478 1.2267777
-0.14198506 0.032930732 1.2230002
-0.13648115 0.0358041 1.2240909
-0.14121917 0.04671625 1.2250001
-0.13853526 0.04295842 1.2250001
-0.14457804 0.054321475 1.2256669
-0.14588383 0.064886309 1.2254001
-0.40206125 0.072907105 1.223
-0.39505646 0.075913779 1.2234445
-0.38848051 0.077553146 1.223
-0.14524174 0.075307317 1.2252222
-0.39337349 0.082223006 1.2260002
-0.38372856 0.083365396 1.2254002
-0.37606734 0.086314715 1.2241429
-0.36775205 0.088989556 1.223
-0.15117502 0.088989556 1.223
-0.14852859 0.084338844 1.2255001
-0.36461565 0.092765652 1.2256669
-0.35651025 0.096547879 1.2236668
-0.34630877 0.099711187 1.223
-0.15331936 0.096982047 1.2229999
-0.14889289 0.093892924 1.2254002
-0.35389543 0.10075442 1.2270001
-0.34529006 0.10218865 1.2270001
-0.33475935 0.10435382 1.2243334
-0.32558027 0.10793111 1.223
-0.31628817 0.1082885 1.223
-0.16339438 0.10692845 1.2246001
-0.15593606 0.10366217 1.2253333
-0.14951813 0.10111298 1.2270001
-0.33023068 0.11079401 1.2270001
-0.32485232 0.11079401 1.2270001
-0.31429788 0.11133053 1.225
-0.30446699 0.11365603 1.2243334
-0.29479539 0.11679898 1.2247778
-0.28557429 0.11861988 1.2252858
-0.27489769 0.11739722 1.2244548
-0.26536044 0.11793797 1.223
-0.25517488 0.11793797 1.223
-0.2482058 0.11847405 1.223
-0.17209384 0.11544691 1.2250001
-0.1675894 0.11208482 1.2270001
-0.28074986 0.12155071 1.2270001
-0.27573004 0.12155071 1.2270001
-0.26569048 0.1215507 1.2270001
-0.25445569 0.12250686 1.2270001
-0.24468946 0.12324131 1.2247778
-0.23767968 0.1250096 1.2240001
-0.22366273 0.12698008 1.2254002
-0.21492763 0.12625334 1.2246002
-0.20542392 0.12549709 1.225
-0.19489068 0.12352438 1.2252225
-0.18448383 0.12400582 1.2246667
-0.17634545 0.12365092 1.2248461
-0.12361898 -0.15317158 1.2333335
-0.11564074 -0.15065691 1.2328001
-0.10800533 -0.15012741 1.2320001
-0.11326814 -0.14705138 1.2352002
-0.1050112 -0.1445808 1.2322108
-0.098284863 -0.14364709 1.2320001
-0.10335679 -0.13609156 1.2345002
-0.095993243 -0.13411121 1.2322859
-0.086558565 -0.13161223 1.2320002
-0.078843892 -0.13068645 1.2320001
-0.094183549 -0.12758605 1.2348573
-0.085362934 -0.12456805 1.2338336
-0.078843892 -0.12528619 1.2320001
-0.08235056 -0.11810804 1.2360001
-0.076932758 -0.1137738 1.2360001
-0.13068645 -0.0032401599 1.2320001
-0.12549815 -0.006363431 1.2328891
-0.11571719 -0.0045404318 1.2336
-0.10800533 -0.0075603733 1.2320001
-0.13165562 0.0062195123 1.2335001
-0.13226797 0.015859483 1.2333335
-0.13198252 0.022681121 1.2320001
-0.12852634 0.020521013 1.2320001
-0.13189276 0.037465226 1.2352002
-0.13673975 0.045098852 1.2346668
-0.14241274 0.056625653 1.2320002
-0.13891239 0.056995254 1.2360001
-0.14256704 0.064803198 1.2320002
-0.13863914 0.064985983 1.2355001
-0.14260963 0.075864725 1.2337143
-0.13977924 0.071514957 1.2360001
-0.39253494 0.087592587 1.2335001
-0.38712853 0.087593466 1.2335002
-0.37801868 0.089644425 1.2320001
-0.14466518 0.085417025 1.2333335
-0.39116517 0.092102602 1.2360001
-0.38899803 0.092102602 1.2360001
-0.37491176 0.092102602 1.2360001
-0.36565065 0.096822567 1.2340001
-0.14680056 0.095552154 1.2325716
-0.36082548 0.10077108 1.2360001
-0.35101733 0.10260507 1.2320001
-0.34261188 0.10583611 1.2344
-0.33806601 0.10860146 1.2346667
-0.15469484 0.10781889 1.2340002
-0.1475652 0.10138474 1.2346667
-0.33265293 0.11305142 1.2360001
-0.3245455 0.1135897 1.2340001
-0.31502143 0.11583572 1.2348573
-0.30673516 0.11718579 1.2320001
-0.29701465 0.11988592 1.2320001
-0.1654776 0.11546452 1.2325716
-0.15794203 0.11142609 1.2340001
-0.31098172 0.12135872 1.2360001
-0.30404696 0.12287568 1.2360001
-0.29425141 0.12441012 1.2340001
-0.28556573 0.12427311 1.2348001
-0.27490726 0.12393542 1.2336
-0.26403388 0.12463453 1.2326669
-0.25408489 0.12650301 1.2333335
-0.24579631 0.12794541 1.2333335
-0.23583737 0.12873499 1.2340001
-0.22718115 0.12873499 1.2340001
-0.20196997 0.12852634 1.2320001
-0.194915 0.12787279 1.2335002
-0.18792927 0.12852634 1.2320001
-0.17416736 0.1233207 1.2340001
-0.16776828 0.12158782 1.2346667
-0.22249098 0.13068645 1.2320001
-0.21462938 0.13219887 1.2340002
-0.2051248 0.13197964 1.2351112
-0.19829148 0.13111076 1.2360001
-0.12511349 -0.15122412 1.2410001
-0.12269081 -0.14886282 1.244
-0.1148615 -0.14478338 1.2444285
-0.10988227 -0.14034469 1.2410001
-0.11117198 -0.13580756 1.245
-0.10679027 -0.13294125 1.243
-0.1030605 -0.1292325 1.244
-0.09633515 -0.12396067 1.2440001
-0.091954663 -0.11623944 1.245
-0.085285634 -0.11399247 1.2436668
-0.078213073 -0.11335212 1.2415714
-0.083495922 -0.10750782 1.245
-0.076578923 -0.10660233 1.2437693
-0.10150485 -0.021829 1.245
-0.095735729 -0.022638381 1.2445
-0.086224549 -0.02292045 1.245
-0.10150485 -0.0174632 1.245
-0.097139053 -0.0174632 1.245
-0.12367149 -0.002021468 1.2421429
-0.11896805 -0.00109145 1.245
-0.10441538 -0.0083677834 1.245
-0.1265569 0.0040924991 1.2445
-0.12821978 0.014529874 1.243
-0.1325115 0.045911208 1.2410001
-0.12848434 0.045169078 1.2432222
-0.13443582 0.054615963 1.2424287
-0.12933682 0.052935325 1.245
-0.13284391 0.06478712 1.2432222
-0.13498507 0.075055271 1.243
-0.12915491 0.073854782 1.245
-0.14034469 0.085947521 1.2410001
-0.13850281 0.085062094 1.244
-0.38357148 0.093715668 1.243
-0.37495622 0.095805518 1.2438571
-0.1415128 0.095271751 1.2427778
-0.13861415 0.091681801 1.245
-0.36563575 0.10150485 1.245
-0.35472125 0.1047792 1.245
-0.34817255 0.10805355 1.245
-0.15122412 0.10988227 1.2410001
-0.144954 0.1049934 1.2432222
-0.34271529 0.1113279 1.245
-0.3364397 0.11451195 1.244
-0.324471 0.11650374 1.2420001
-0.31870341 0.11896805 1.245
-0.16127335 0.11877693 1.243
-0.15517479 0.11560826 1.2431539
-0.14898293 0.11187363 1.245
-0.31601381 0.12095633 1.243
-0.30742511 0.12842728 1.245
-0.29483265 0.12946525 1.2410001
-0.28431934 0.12876041 1.2426001
-0.27385962 0.12789007 1.2426001
-0.26571876 0.12891011 1.2435
-0.25478649 0.12956958 1.2420001
-0.17276943 0.12789007 1.2426001
-0.16426916 0.12347587 1.2432858
-0.29592058 0.13164115 1.2410001
-0.25321639 0.13206545 1.245
-0.24546967 0.13284706 1.2432222
-0.23622601 0.13265164 1.2436668
-0.22229987 0.1340327 1.243
-0.21650073 0.13599291 1.2410001
-0.20559449 0.13680445 1.2427143
-0.19482207 0.13418041 1.2426667
-0.18530393 0.13262852 1.2444285
-0.17790635 0.13206545 1.245
-0.12382916 -0.14629376 1.25
-0.11725417 -0.14410208 1.25
-0.11287083 -0.1347875 1.25
-0.1084875 -0.13040416 1.25
-0.11067916 -0.1282125 1.25
-0.10536908 -0.12483995 1.2528666
-0.099720836 -0.1216375 1.25
-0.10138212 -0.1157051 1.2570001
-0.095873281 -0.11442219 1.2503847
-0.093221396 -0.10583279 1.2563637
-0.086011365 -0.10329045 1.2518126
-0.075239912 -0.10160501 1.253
-0.082693137 -0.096165948 1.2576667
-0.076182403 -0.096521214 1.2566923
-0.071742013 -0.087194145 1.2590001
-0.094606943 -0.020820834 1.25
-0.08803194 -0.021551391 1.25
-0.10111802 -0.013188355 1.2537501
-0.094667897 -0.01536309 1.2520626
-0.086624965 -0.016771071 1.25475
-0.11331282 -0.0018271194 1.2508334
-0.10329073 -0.0044643991 1.255765
-0.095520124 -0.005779699 1.2560625
-0.12358552 0.0064000324 1.25125
-0.11700419 0.0048974017 1.2565002
-0.10331118 0.0025737961 1.2581111
-0.097223565 0.0028668754 1.2574002
-0.12352803 0.01506921 1.2533572
-0.11809839 0.01324468 1.2590001
-0.1283998 0.037894502 1.2590001
-0.12526357 0.045046467 1.2534001
-0.13040416 0.058079164 1.25
-0.12625946 0.054897219 1.2524
-0.13040416 0.064654164 1.25
-0.12746635 0.063673273 1.2546667
-0.13171916 0.077804163 1.25
-0.1285544 0.075086497 1.2533334
-0.13431041 0.085610308 1.2551333
-0.12913562 0.08351507 1.2590001
-0.38244581 0.097529165 1.25
-0.37587082 0.098990284 1.25
-0.13752234 0.09527649 1.255
-0.38250387 0.10361884 1.2574
-0.37611213 0.10406103 1.2574
-0.36489701 0.10599396 1.255
-0.35618964 0.10773474 1.2540001
-0.14181036 0.10663497 1.2539999
-0.13771489 0.10191096 1.2567501
-0.36091754 0.11147606 1.2590001
-0.3539589 0.11357655 1.2578
-0.34599373 0.11586728 1.2543637
-0.33588991 0.11892147 1.2531251
-0.32633331 0.11976435 1.2533334
-0.15177292 0.11889791 1.25
-0.14541312 0.11476612 1.2547336
-0.34656912 0.12030584 1.2590001
-0.33406028 0.1228812 1.2589999
-0.32376689 0.12334013 1.2561668
-0.31695664 0.12744819 1.2568334
-0.16371828 0.12763643 1.2551
-0.1548142 0.1241718 1.255
-0.14624335 0.12140957 1.2590001
-0.29027924 0.13355052 1.2590001
-0.28395268 0.13239631 1.2564001
-0.27509624 0.13285084 1.2546667
-0.26482776 0.13418902 1.2557778
-0.25541157 0.13558818 1.2540001
-0.24549384 0.13743439 1.2541429
-0.23460057 0.13667059 1.2552
-0.22610112 0.13603863 1.2528572
-0.21344203 0.13972752 1.2550001
-0.20419027 0.13917083 1.25
-0.19454408 0.13871233 1.2538
-0.18405117 0.13635297 1.2528572
-0.17408615 0.13479583 1.253875
-0.16624959 0.13388367 1.2586666
-0.2516489 0.14017287 1.2590001
-0.24465866 0.14090869 1.2590001
-0.23619679 0.14017287 1.2590001
-0.22515956 0.14017287 1.2590001
-0.21509209 0.14140685 1.2582
-0.20527852 0.14358807 1.2566667
-0.19500376 0.14204782 1.2585
-0.18542552 0.14127658 1.2589999
-0.17622782 0.14054078 1.2589999
-0.11004972 -0.12116585 1.268
-0.10859445 -0.12189174 1.2640001
-0.11004972 -0.11227295 1.268
-0.10613768 -0.11390565 1.2664
-0.10306013 -0.10578831 1.2661538
-0.097247265 -0.10389981 1.2653334
-0.09319444 -0.095817439 1.266909
-0.086607978 -0.093662739 1.2650909
-0.073799901 -0.092859343 1.2640001
-0.08309982 -0.08624237 1.2666667
-0.075311638 -0.085068926 1.2651999
-0.073431872 -0.075655095 1.2679999
-0.087648436 -0.0122032 1.2656
-0.09197285 -0.0044324268 1.2640001
-0.087964997 -0.0055448492 1.2652308
-0.11291916 0.0071270494 1.2645714
-0.10612248 0.0072042281 1.26425
-0.09425623 0.0055456585 1.2649231
-0.088787049 0.00221972 1.266
-0.12078363 0.017729707 1.2640001
-0.11452494 0.015897825 1.2650666
-0.10502592 0.014257856 1.2648572
-0.096432455 0.012227746 1.268
-0.12466577 0.023841558 1.267077
-0.1167194 0.021120653 1.268
-0.12363967 0.033920255 1.2670767
-0.11894263 0.034460012 1.268
-0.12258706 0.045829125 1.2662858
-0.12234604 0.055812106 1.2648889
-0.11805334 0.057136931 1.268
-0.12377055 0.06561099 1.2654285
-0.11805334 0.062917314 1.268
-0.12362636 0.071437813 1.2666668
-0.1340809 0.089756638 1.2640001
-0.12806548 0.085957415 1.2640001
-0.13285963 0.095738694 1.2658181
-0.12843984 0.092907965 1.2666668
-0.37422213 0.10771311 1.2666668
-0.36678329 0.10970256 1.2640001
-0.14072955 0.10970256 1.2640001
-0.13600914 0.1040897 1.2665
-0.37016723 0.11004972 1.268
-0.36305964 0.11482535 1.2654999
-0.35717973 0.11782867 1.2640001
-0.14144 0.11612888 1.2664001
-0.13895166 0.11004972 1.268
-0.35293722 0.12097473 1.266
-0.34348851 0.12338908 1.268
-0.33241865 0.12662645 1.2648
-0.32578337 0.12687822 1.2640001
-0.1541215 0.12928589 1.2648
-0.1446123 0.12445772 1.2656666
-0.32792592 0.13005877 1.268
-0.30791688 0.13228199 1.268
-0.29427013 0.13510251 1.2666668
-0.28530416 0.13599963 1.2646667
-0.27612898 0.13806681 1.2666668
-0.2648375 0.13851333 1.2640001
-0.25818884 0.13851333 1.2640001
-0.16240118 0.13635191 1.2645
-0.15660198 0.134795 1.266909
-0.27012205 0.1411749 1.268
-0.26465979 0.14102645 1.2666668
-0.25587443 0.14235781 1.2653333
-0.24460474 0.142593 1.2648
-0.23434831 0.14375898 1.2658181
-0.22441229 0.14450589 1.266
-0.21557075 0.1460554 1.2653333
-0.20499973 0.14782143 1.2640001
-0.19472457 0.14717673 1.2640001
-0.18565549 0.146863 1.2643334
-0.17528103 0.14501087 1.2661818
-0.1660319 0.14228475 1.266
-0.21454138 0.15006781 1.268
-0.20453686 0.15006781 1.268
-0.19897878 0.15006781 1.268
-0.18452781 0.15006781 1.268
-0.11115235 -0.11729471 1.27425
-0.10825168 -0.11717965 1.273
-0.10175514 -0.098398387 1.2755001
-0.09635146 -0.093441963 1.2749999
-0.092124797 -0.086900748 1.2763333
-0.086791165 -0.083063871 1.2746667
-0.083329313 -0.075999908 1.2766362
-0.077042669 -0.072295301 1.2736249
-0.067157432 -0.073216937 1.2737142
-0.073344693 -0.065191314 1.2758571
-0.066705696 -0.066064224 1.2772857
-0.072824702 -0.05938014 1.2780001
-0.082806945 -0.011829564 1.273
-0.079235762 -0.01004397 1.273
-0.083027832 -0.0040929615 1.274111
-0.079391375 -0.0067069381 1.2755001
-0.090395726 0.0078119766 1.273
-0.085581407 0.0036363036 1.276125
-0.09341117 0.014017316 1.2735554
-0.088510022 0.01008342 1.2780001
-0.12164363 0.026783921 1.273
-0.11743241 0.025724908 1.2757777
-0.12164363 0.037943885 1.273
-0.11787676 0.034682367 1.2761817
-0.12164363 0.042407874 1.273
-0.11767305 0.044445883 1.2761817
-0.12164363 0.050219849 1.273
-0.11690492 0.053981081 1.276125
-0.11479702 0.065413646 1.2754999
-0.11717965 0.071423784 1.2729999
-0.1305716 0.099323705 1.273
-0.12695886 0.095982231 1.2751428
-0.13317618 0.10567816 1.2765714
-0.12884369 0.10307496 1.2780001
-0.3824226 0.11070064 1.2755001
-0.37476709 0.11259819 1.2780001
-0.36860502 0.1176399 1.2780001
-0.13815197 0.11512737 1.2749999
-0.34380352 0.12552874 1.2746667
-0.14144753 0.12691109 1.2755001
-0.13949959 0.12164363 1.273
-0.33275285 0.13108446 1.2780001
-0.32395574 0.13181801 1.27425
-0.31085417 0.13418479 1.2755001
-0.28346315 0.13949959 1.273
-0.15274177 0.13550474 1.2744285
-0.14620504 0.13143004 1.2770001
-0.28011516 0.14173158 1.273
-0.27507433 0.14257011 1.2755001
-0.26520804 0.14415352 1.2746667
-0.25544664 0.14676978 1.2780001
-0.24237554 0.14826362 1.2780001
-0.23385698 0.14881621 1.2763335
-0.22654732 0.14842756 1.273
-0.17297947 0.14842756 1.273
-0.1637795 0.14684506 1.2758571
-0.15660425 0.14363237 1.2759999
-0.23191866 0.1512513 1.2780001
-0.22502191 0.15158109 1.2770001
-0.21581034 0.1524478 1.2754999
-0.20518646 0.1520758 1.2755001
-0.19456916 0.1531918 1.2755001
-0.18562584 0.1520758 1.2755001
-0.17561913 0.1510146 1.276
-0.10173658 -0.094226472 1.2846668
-0.095399909 -0.083919868 1.2857274
-0.093134217 -0.075105861 1.2850834
-0.087606564 -0.074109405 1.2830001
-0.091460876 -0.0677488 1.2880001
-0.085307457 -0.065152779 1.2853532
-0.078958377 -0.065011322 1.2830001
-0.065798655 -0.062424362 1.2830001
-0.082427703 -0.059844773 1.2880001
-0.074074775 -0.055368979 1.2859411
-0.065548591 -0.054985505 1.2856318
-0.071889006 -0.047800541 1.2880001
-0.068877943 -0.04742416 1.2880001
-0.079858199 -0.0022495266 1.2830001
-0.082932048 0.0049911137 1.2858572
-0.11178552 0.019195493 1.2880001
-0.10557521 0.019195493 1.2880001
-0.094471931 0.017689964 1.2880001
-0.087259188 0.011951421 1.286
-0.11404381 0.024841227 1.2880001
-0.11539892 0.033772487 1.2842501
-0.1136567 0.046268087 1.2872858
-0.1132985 0.054585353 1.2838334
-0.10743023 0.0556508 1.2880001
-0.11135157 0.065611199 1.2830001
-0.1079043 0.06451872 1.2855
-0.11269331 0.072125122 1.2855
-0.10952722 0.072265387 1.2880001
-0.12319107 0.095817789 1.2858572
-0.13159731 0.10797728 1.2830001
-0.12472857 0.10502083 1.2866844
-0.1185604 0.10501063 1.2880001
-0.37632355 0.11567161 1.286
-0.1339608 0.1144503 1.2841113
-0.12872273 0.11178552 1.2880001
-0.36779761 0.12034968 1.2830001
-0.3408033 0.12934779 1.2830001
-0.14059542 0.12934779 1.2830001
-0.13609636 0.12034968 1.2830001
-0.33630425 0.13159731 1.2830001
-0.32055753 0.13384683 1.2830001
-0.31646907 0.13552332 1.2846667
-0.30878347 0.13861546 1.2855
-0.29922387 0.13888504 1.2880001
-0.15100978 0.13861546 1.2855
-0.14659621 0.13532226 1.2863334
-0.29508162 0.14096069 1.2863334
-0.28624436 0.14312547 1.2855
-0.27516928 0.14603572 1.2846667
-0.26581907 0.14734399 1.2830001
-0.25494638 0.14846876 1.2830001
-0.24744794 0.14846876 1.2830001
-0.23957458 0.14959352 1.2830001
-0.16983926 0.14959352 1.2830001
-0.1519888 0.14185716 1.2842501
-0.14791821 0.14114334 1.2880001
-0.26309118 0.15017651 1.2880001
-0.25450966 0.15198314 1.2880001
-0.2446461 0.15219811 1.286
-0.23411934 0.15452276 1.2865715
-0.22502701 0.15671031 1.286
-0.21707933 0.1563421 1.2830001
-0.2051058 0.15608548 1.2855
-0.19488211 0.15658581 1.2850001
-0.18499705 0.15454297 1.2867501
-0.17658783 0.15409258 1.2830001
-0.091744922 -0.06456124 1.2920001
-0.087214306 -0.060030628 1.2920001
-0.0834122 -0.055415705 1.2945
-0.078153081 -0.052102052 1.2920001
-0.074966475 -0.045060985 1.2938181
-0.06433624 -0.045003161 1.2928823
-0.072299279 -0.038987119 1.2953334
-0.064946041 -0.036450747 1.2966669
-0.063674048 -0.028425917 1.2970001
-0.078253895 -0.0034052655 1.2936667
-0.081277221 0.0071836989 1.2936667
-0.078304306 0.0045437631 1.2945001
-0.095324785 0.019292366 1.2945001
-0.082841486 0.011348451 1.2945001
-0.07845553 0.01023333 1.2970001
-0.11173628 0.02424144 1.2961667
-0.10801848 0.021603696 1.2970001
-0.11403172 0.035135925 1.293
-0.11213268 0.043040827 1.2920001
-0.10805513 0.04779797 1.2920001
-0.10620882 0.067586839 1.29575
-0.11256663 0.076181456 1.2970001
-0.10801848 0.071633309 1.2970001
-0.12119391 0.098540843 1.2920001
-0.11825182 0.098922193 1.2970001
-0.12232656 0.10986737 1.2920001
-0.1189286 0.10080615 1.2920001
-0.3828859 0.11657141 1.296
-0.13202284 0.11793587 1.296
-0.12508813 0.11538121 1.296091
-0.11938885 0.11256663 1.2970001
