# .PCD v0.7 - Point Cloud Data file format
VERSION 0.7
FIELDS x y z
SIZE 4 4 4
TYPE F F F
COUNT 1 1 1
WIDTH 1432
HEIGHT 1
VIEWPOINT 0 0 0 1 0 0 0
POINTS 1432
DATA ascii
-0.015615514 -0.055224631 1.003875
-0.1325466 -0.046788573 1.0070001
-0.12515198 -0.044946082 1.0052999
-0.11437317 -0.04475471 1.0010002
-0.10807283 -0.045429748 1.0010002
-0.015943548 -0.04588113 1.0043334
-0.12391526 -0.036254365 1.0066251
-0.11494479 -0.034661397 1.00148
-0.10899089 -0.034399696 1.0010002
-0.01319208 -0.034695152 1.0033334
-0.12094405 -0.02913251 1.0070001
-0.11516944 -0.024505517 1.0042902
-0.10760874 -0.023803368 1.0010002
-0.011408064 -0.028081387 1.001
-0.0072594578 -0.023544636 1.0040001
-0.11205027 -0.017821582 1.0064
-0.10449224 -0.015090794 1.0029999
-0.09724775 -0.013322703 1.0010002
-0.0052703321 -0.014311144 1.0025001
-0.15322945 -0.0053388588 1.0070001
-0.1449379 -0.0055032996 1.0062941
-0.13524806 -0.0050741453 1.005875
-0.12583186 -0.0035671957 1.0055652
-0.11611918 -0.0018628192 1.006
-0.10366353 -0.0051971236 1.0068334
-0.095314354 -0.0049272114 1.003
-0.088193104 -0.0021938584 1.001
-0.0070666191 -0.0056181382 1.0026956
-0.15125364 0.003825481 1.0070001
-0.1452264 0.0050406456 1.0057142
-0.13578922 0.0050340593 1.002818
-0.12491804 0.002985094 1.0020499
-0.11385259 0.0039525619 1.002875
-0.10512364 0.0055096108 1.0030909
-0.095106065 0.0052808947 1.0044999
-0.086258784 0.0060632364 1.0015714
-0.0052754879 0.0052798712 1.0036668
-0.14213133 0.014056946 1.0070001
-0.13509557 0.015198331 1.0035909
-0.12899888 0.017550867 1.001
-0.11232555 0.012285607 1.001
-0.10618273 0.011700578 1.001
-0.093526885 0.014050029 1.0017501
-0.085266247 0.014942642 1.0026799
-0.07766258 0.016527066 1.0010002
-0.0031191797 0.014329516 1.0045455
-0.13262564 0.023348661 1.0067273
-0.12662746 0.025502674 1.0030454
-0.084176652 0.021938583 1.0010002
-0.075075343 0.023996273 1.0009998
-0.067889944 0.026406078 1.0010002
-0.0050648376 0.025429556 1.0035714
-0.13153769 0.030898117 1.0070001
-0.12421164 0.034357995 1.0048399
-0.11558265 0.038137533 1.0013334
-0.062890604 0.034642071 1.001
-0.054942891 0.035514098 1.0017499
-0.04580776 0.039138429 1.001
-0.03422419 0.039489448 1.001
-0.013331105 0.037362874 1.00275
-0.0070009772 0.034096822 1.0045713
-0.12094405 0.042374559 1.0070001
-0.11437529 0.044584312 1.0042726
-0.1055128 0.04564672 1.0013
-0.097992338 0.047094826 1.001
-0.061779052 0.04370166 1.0010002
-0.054535858 0.044861313 1.0033997
-0.044884942 0.044887889 1.00388
-0.035161786 0.044835627 1.0026997
-0.024607245 0.044825282 1.0024998
-0.016457731 0.04369279 1.0044615
-0.14036573 0.059147824 1.0070001
-0.13860013 0.059147824 1.0070001
-0.11035042 0.050319791 1.0070001
-0.1042468 0.051998608 1.0052857
-0.094805151 0.054335747 1.0036249
-0.087568149 0.056842953 1.0013751
-0.053750761 0.054046787 1.0029998
-0.047229975 0.050761193 1.0070001
-0.030898117 0.050319791 1.0070001
-0.024718493 0.050319791 1.0070001
-0.14226714 0.063358121 1.0070001
-0.13528547 0.065876313 1.0060769
-0.12753285 0.067811415 1.00675
-0.091811545 0.062679037 1.0070001
-0.085031502 0.065497734 1.0034827
-0.076077536 0.066987745 1.0015295
-0.065337092 0.068528153 1.0010002
-0.053926319 0.065654077 1.003
-0.13393386 0.074266769 1.0058333
-0.12515609 0.074919745 1.0053999
-0.11780521 0.076607704 1.0070001
-0.08165931 0.071948469 1.0070001
-0.074215978 0.073393084 1.0053999
-0.065069966 0.073794931 1.0036086
-0.054943256 0.074502923 1.0059565
-0.12398881 0.082400866 1.0066251
-0.11726136 0.08359661 1.0067858
-0.10858481 0.089163139 1.0070001
-0.11166541 -0.18134463 1.0190001
-0.10471553 -0.18524612 1.0122501
-0.097027928 -0.18829462 1.0107501
-0.12405008 -0.17224133 1.018
-0.11436623 -0.17470157 1.0150001
-0.10681546 -0.17346443 1.0100001
-0.12247483 -0.16708972 1.017875
-0.11594755 -0.1679631 1.0113332
-0.032858342 -0.11100791 1.013
0.0026686988 -0.11338844 1.0138571
-0.043503243 -0.10280129 1.0175884
-0.034454942 -0.10476428 1.0151432
-0.0292193 -0.1009394 1.01
0.0049429792 -0.10423237 1.0138278
-0.061639309 -0.090225659 1.0190001
-0.054151755 -0.093140163 1.017
-0.045278292 -0.094993427 1.0126401
-0.0354531 -0.094837971 1.0110003
-0.0292193 -0.096512236 1.01
-0.0013294651 -0.09266454 1.0115
0.0054835747 -0.094665781 1.0173718
0.031266317 -0.090225659 1.0190001
-0.15186496 -0.081292421 1.0190001
-0.14400372 -0.082007073 1.0190001
-0.13435772 -0.082730561 1.0180769
-0.12537642 -0.082840778 1.0188125
-0.11821645 -0.081887968 1.0190001
-0.10332773 -0.081292421 1.0190001
-0.099158891 -0.081292421 1.0190001
-0.081292421 -0.082185745 1.0190001
-0.074613236 -0.082299434 1.0178461
-0.064882353 -0.084481984 1.0161252
-0.055404343 -0.085384108 1.0119658
-0.04692797 -0.08942876 1.01
-0.032761034 -0.089428768 1.01
-0.011510633 -0.081459865 1.01
-0.004509314 -0.084350653 1.0144446
0.0038164484 -0.085549764 1.0184548
0.03454978 -0.084370397 1.0184001
0.04012065 -0.082917765 1.0170001
-0.15156719 -0.075932488 1.0190001
-0.14542943 -0.074943863 1.0177004
-0.13518281 -0.075346239 1.0133874
-0.12487292 -0.075832807 1.0130002
-0.11486792 -0.075413413 1.0130001
-0.10486221 -0.075544916 1.0137002
-0.094978981 -0.075757653 1.014731
-0.085178867 -0.075438797 1.0139314
-0.074970759 -0.075736083 1.0137502
-0.065774493 -0.076309495 1.0108335
-0.059324034 -0.078803569 1.01
-0.011792921 -0.074439272 1.0125715
-0.0071850214 -0.076424718 1.0180527
0.036972277 -0.077159733 1.0187
0.040152211 -0.075839914 1.0178001
-0.15222229 -0.064140618 1.0190001
-0.14513618 -0.065001361 1.0156401
-0.13448296 -0.065406993 1.0101715
-0.12750241 -0.069949232 1.01
-0.11333547 -0.069949232 1.01
-0.10271026 -0.069949232 1.01
-0.094077289 -0.069285154 1.0100001
-0.08588703 -0.069949232 1.01
-0.075261831 -0.069949232 1.01
-0.012301484 -0.065249421 1.0103335
-0.0091355238 -0.064402565 1.0167501
-0.15260984 -0.055330809 1.0180001
-0.14464368 -0.055015922 1.0122002
-0.13613538 -0.055560946 1.0100001
-0.012396066 -0.052240565 1.0100001
-0.0077270777 -0.054587126 1.0155264
-0.15199257 -0.047346137 1.0190001
-0.14512329 -0.044702377 1.0164142
-0.13654658 -0.044496775 1.0106668
-0.012409743 -0.045209702 1.0112
-0.006560259 -0.044095095 1.0157781
-0.1437052 -0.035446513 1.0181428
-0.13507253 -0.035380792 1.0126574
-0.12737592 -0.032761034 1.0100001
-0.011885321 -0.037787311 1.0118001
-0.0065426016 -0.034978088 1.0162609
-0.18134463 -0.024119729 1.0190001
-0.17366207 -0.022154421 1.0190001
-0.16497569 -0.023072345 1.0183684
-0.15557465 -0.021922279 1.0164
-0.1436927 -0.024185905 1.0190004
-0.1346304 -0.024960978 1.0170002
-0.12525353 -0.024691347 1.0122762
-0.0062245959 -0.026873428 1.0151001
-0.17327961 -0.015184785 1.0188501
-0.16429636 -0.015099601 1.0130002
-0.15465763 -0.015261209 1.0106668
-0.1451848 -0.014898233 1.0120358
-0.13502482 -0.015107334 1.0133002
-0.12532224 -0.01511191 1.0138402
-0.11573406 -0.014496106 1.0108402
-0.1089083 -0.011510633 1.01
-0.0014783522 -0.012728907 1.013
0.00089332333 -0.011613203 1.0190001
-0.17219183 -0.0064867488 1.0184
-0.16413428 -0.005322068 1.0120003
-0.15790229 -0.0052142181 1.0100001
-0.13015869 -0.0097397668 1.01
-0.12413871 -0.0082664546 1.0102501
-0.11472791 -0.0064682732 1.0110003
-0.10743258 -0.0054601715 1.0100001
-0.0021132384 -0.0047079017 1.0116155
0.0030971086 -0.0040389579 1.017059
-0.17062476 0.00089332333 1.0190001
-0.16418056 0.0047570486 1.0168751
-0.15593813 0.0056899674 1.0111252
-0.14963824 0.0088543333 1.01
-0.0016727776 0.0040345173 1.0103334
0.0041210474 0.0057654134 1.0148892
-0.16228707 0.012208752 1.0190001
-0.15484115 0.014999065 1.0157603
-0.14679131 0.01556622 1.0104287
-0.00132815 0.016823234 1.01
0.0053338157 0.015103916 1.0134003
0.012208752 0.018164242 1.0190001
-0.15216275 0.021737533 1.0190001
-0.14486945 0.024660924 1.0165557
-0.13697775 0.025605544 1.0107896
-0.00088543334 0.024792133 1.0100001
0.0045178868 0.024283819 1.015483
0.011613203 0.020546436 1.0190001
-0.14217526 0.034115747 1.0187
-0.13482125 0.035013366 1.0136002
-0.12733351 0.038703375 1.011
-0.0030681987 0.036643181 1.0118463
0.0015590421 0.034058172 1.015625
-0.17062476 0.044666167 1.0190001
-0.16553299 0.045780409 1.0187395
-0.15600045 0.047075883 1.0174999
-0.149185 0.049132783 1.0190001
-0.13289142 0.043454904 1.0185
-0.12574135 0.045601908 1.0146959
-0.11811681 0.047636312 1.01
-0.013467208 0.046625953 1.013
-0.0065147406 0.043942131 1.0163158
0.00089332333 0.040199548 1.0190001
-0.16415502 0.054459717 1.0169132
-0.15503657 0.054821726 1.012719
-0.14556724 0.055486333 1.0130969
-0.13480777 0.055733297 1.0157002
-0.1250262 0.055459946 1.0165297
-0.11510658 0.055023205 1.0137744
-0.10546295 0.057462335 1.0118335
-0.098283097 0.059324034 1.01
-0.044429071 0.055892739 1.0130001
-0.035251588 0.054967176 1.0131878
-0.024852889 0.055925287 1.0125003
-0.016221059 0.053724177 1.0156666
-0.0098265568 0.050919428 1.0190001
-0.16169152 0.061639309 1.0190001
-0.15487251 0.064301871 1.0158501
-0.14630371 0.065829828 1.0107059
-0.13222471 0.06168519 1.0100001
-0.12409701 0.064416587 1.0114349
-0.11583924 0.065598197 1.0155315
-0.10490753 0.064867228 1.0165359
-0.095491216 0.065522276 1.0113503
-0.089428768 0.069949232 1.01
-0.0504697 0.068178363 1.01
-0.045880351 0.064742312 1.0154549
-0.033052966 0.061639309 1.0190001
-0.025906378 0.061639309 1.0190001
-0.15097164 0.07057254 1.0190001
-0.14445348 0.074274495 1.0158501
-0.13806011 0.077066138 1.0104287
-0.11390785 0.074186526 1.0125002
-0.10507521 0.074987836 1.0168442
-0.095382512 0.074937813 1.015483
-0.085626163 0.075871818 1.011731
-0.076392993 0.077634178 1.0109001
-0.065648556 0.078550592 1.0100001
-0.054011431 0.076779723 1.0100001
-0.046360984 0.074595146 1.0145653
-0.14025176 0.082185745 1.0190001
-0.13385876 0.08407101 1.0142273
-0.12540419 0.087724797 1.0123076
-0.11349645 0.08572606 1.0100001
-0.10454401 0.085031867 1.0118858
-0.095679335 0.08449953 1.018348
-0.085138351 0.083170012 1.0166317
-0.074550241 0.083194435 1.0160002
-0.06476216 0.084112577 1.0157273
-0.054918565 0.084544688 1.0130002
-0.047075886 0.08412803 1.0158
-0.13221185 0.090225659 1.0190001
-0.12402816 0.09404581 1.0178
-0.11499353 0.094863512 1.0133337
-0.10461446 0.094865605 1.0113003
-0.095853329 0.095316201 1.0161307
-0.061639309 0.090225659 1.0190001
-0.054492723 0.090225659 1.0190001
-0.11166541 0.10094553 1.0190001
-0.10403203 0.10284562 1.0161667
-0.095072255 0.10522228 1.0171254
-0.11425684 -0.18298331 1.0262001
-0.13124435 -0.17229024 1.0267999
-0.12510386 -0.17464077 1.0245715
-0.11951158 -0.17881808 1.0250001
-0.12753792 -0.16795136 1.0245001
0.00090121332 -0.1216638 1.028
-0.043867417 -0.11265224 1.0260588
-0.036947388 -0.11457311 1.0240771
0.0059327544 -0.11454999 1.0256001
0.014644718 -0.11152516 1.028
0.022530332 -0.11129984 1.028
-0.15518893 -0.10003468 1.028
-0.14644717 -0.10048528 1.028
-0.13968806 -0.10003468 1.028
-0.061282508 -0.10003468 1.028
-0.053565849 -0.10328464 1.0260909
-0.046300206 -0.1070153 1.023154
-0.038525995 -0.10841035 1.0220001
0.0098554865 -0.10661844 1.0220001
0.015282441 -0.1051618 1.0252398
0.024735657 -0.10489916 1.027423
0.034065865 -0.10237783 1.028
-0.1644163 -0.093466289 1.0273333
-0.15472212 -0.094455481 1.0260998
-0.14484045 -0.094464444 1.0261998
-0.13494582 -0.094465926 1.0261998
-0.12507793 -0.094487384 1.0264398
-0.11724539 -0.093474396 1.0272
-0.10724439 -0.091022544 1.028
-0.092824973 -0.091022544 1.028
-0.084203616 -0.091406748 1.0272501
-0.074416257 -0.092526324 1.0259999
-0.064936608 -0.094582722 1.0246783
-0.055754099 -0.097905122 1.0230001
0.015243917 -0.095036559 1.0226998
0.025128119 -0.095136389 1.0237498
0.034974717 -0.09489502 1.0248843
0.042357028 -0.095446676 1.028
-0.17168115 -0.085164659 1.028
-0.16464636 -0.085066281 1.0237776
-0.1552539 -0.085438527 1.0221304
-0.14550284 -0.086549103 1.0220001
-0.13573693 -0.087355465 1.0220002
-0.12507485 -0.087438047 1.0222145
-0.11450887 -0.085645214 1.0243331
-0.10508265 -0.086016826 1.0252607
-0.094889089 -0.085334606 1.0245712
-0.085624799 -0.085548952 1.0243478
-0.075550824 -0.087043516 1.0223532
-0.068988405 -0.088699378 1.0220001
0.0086608827 -0.083920963 1.0220002
0.01526603 -0.085303567 1.0242798
0.025115006 -0.08522296 1.0232998
0.036039941 -0.086959548 1.0226002
0.040954653 -0.087591566 1.0230001
-0.17198107 -0.075272791 1.0271
-0.16478008 -0.075555585 1.0231469
-0.15627988 -0.074876115 1.022
-0.11468203 -0.079739846 1.0220001
-0.003325558 -0.073775418 1.0241176
0.0050914851 -0.076749623 1.0246664
0.015495524 -0.075925343 1.0267141
0.025172828 -0.075521559 1.0255833
0.033920553 -0.074302629 1.0236499
0.0403179 -0.070780315 1.0220001
-0.17110179 -0.06707602 1.028
-0.16436487 -0.064664252 1.0244998
-0.15668643 -0.065404594 1.0220002
-0.0055705155 -0.065502018 1.0254
0.018925481 -0.069393426 1.028
0.025714619 -0.065668397 1.028
0.035098054 -0.064795844 1.0265998
0.040377077 -0.064601123 1.0235001
-0.16369918 -0.055353798 1.0262631
-0.15768778 -0.054653157 1.0220002
-0.00405546 -0.055424619 1.028
0.029740039 -0.058578867 1.028
0.036228776 -0.057497412 1.028
0.040554598 -0.058578867 1.028
-0.16153912 -0.04653858 1.0274999
-0.1559449 -0.044226158 1.0239091
-0.1496242 -0.0403179 1.0220001
-0.19015601 -0.031542465 1.028
-0.18431987 -0.033268448 1.0256
-0.17569117 -0.03283117 1.026
-0.16521269 -0.032122821 1.0273333
-0.15517423 -0.03484391 1.0263636
-0.148321 -0.034127675 1.0220002
-0.00161482 -0.032870792 1.0244001
0.00090121332 -0.031542465 1.028
-0.19015601 -0.026135186 1.028
-0.18421142 -0.025017317 1.0229309
-0.17529537 -0.026421688 1.0224285
-0.16502579 -0.028317142 1.0230716
-0.15500548 -0.027233653 1.0239999
-0.14823049 -0.027575454 1.0220002
-0.0020014974 -0.025490768 1.0243077
0.0012616987 -0.023251304 1.028
-0.19015601 -0.015320627 1.028
-0.18382391 -0.015243094 1.0228399
-0.17829472 -0.015231207 1.0220001
-0.0016137681 -0.017402535 1.0232002
0.0016725546 -0.015045478 1.0267143
-0.19015601 -0.0090121329 1.028
-0.18374525 -0.0060030613 1.0255998
-0.17662226 -0.0042408463 1.0220002
-0.18174469 0.0015020221 1.028
-0.17498039 0.0050001214 1.0252398
-0.16873787 0.0077649294 1.0220002
-0.17123052 0.012616986 1.028
-0.16519293 0.015647069 1.0243684
-0.15858375 0.01881502 1.0220001
-0.16227989 0.022521691 1.0275714
-0.15592431 0.025964422 1.024125
-0.1496242 0.027774552 1.0220001
0.0088356724 0.027786955 1.0224288
0.014533062 0.025965273 1.0244545
-0.18392773 0.035855155 1.0265788
-0.1752834 0.035805821 1.024857
-0.16521379 0.036976874 1.0258821
-0.15471563 0.035495386 1.0260383
-0.14657573 0.035435099 1.0224003
0.0066352808 0.035126697 1.0248572
0.013914941 0.032934122 1.0276666
-0.18317993 0.043890275 1.0261052
-0.17528234 0.044803228 1.0221152
-0.16376036 0.0411143 1.0220002
-0.15386699 0.042443961 1.0232632
-0.14486365 0.044993233 1.0239686
-0.13687006 0.045904431 1.0220002
-0.0031044115 0.047148284 1.0236156
0.0034200519 0.043355718 1.0259999
-0.17395976 0.053906616 1.0248125
-0.1688872 0.056893036 1.0220001
-0.14335254 0.051069338 1.0220001
-0.13708086 0.051069338 1.0220001
-0.013238654 0.056775235 1.0238751
-0.0062930887 0.053062253 1.0258572
-0.17123052 0.061282508 1.028
-0.1649621 0.06407541 1.0242943
-0.15733643 0.068352647 1.0232
-0.11020226 0.067196503 1.0220001
-0.10841035 0.068988405 1.0220001
-0.0410497 0.066175841 1.0235001
-0.035169806 0.065854602 1.024087
-0.025328234 0.066078827 1.0239564
-0.016070928 0.061334979 1.0267142
-0.153788 0.074071206 1.025
-0.14827746 0.076918557 1.0226002
-0.10661845 0.074364126 1.0220001
-0.041475236 0.075568803 1.0233848
-0.03668236 0.074268565 1.0268749
-0.027036399 0.071195856 1.028
-0.15050262 0.080207989 1.028
-0.14360715 0.084267192 1.0255455
-0.13841136 0.088188864 1.0230001
-0.093179144 0.08810208 1.0220002
-0.085339554 0.088027418 1.0220002
-0.075797655 0.087982617 1.0220002
-0.067196496 0.088699378 1.0220001
-0.042261176 0.085660376 1.0228001
-0.038376372 0.084546618 1.026
-0.13430527 0.093522988 1.0250001
-0.12662092 0.097207345 1.0229001
-0.091835223 0.093627118 1.0220002
-0.085922733 0.094182208 1.025818
-0.074630886 0.093721844 1.0246248
-0.06489969 0.094277047 1.0241426
-0.055042792 0.094106697 1.0242499
-0.045312021 0.093070567 1.025
-0.038639084 0.090756916 1.0250001
-0.12429105 0.10192477 1.0262858
-0.11492021 0.10345529 1.0247693
-0.10644563 0.1071176 1.0246251
-0.090491287 0.10422924 1.0220001
-0.087108403 0.10507167 1.0244001
-0.10283972 0.11183432 1.026
-0.094749428 0.11349913 1.0244375
-0.087889194 0.11188912 1.0265001
-0.12056095 -0.19126587 1.034
-0.11548648 -0.19253303 1.0372728
-0.1087768 -0.19126587 1.034
-0.12290244 -0.18496363 1.0339414
-0.11606658 -0.18685637 1.0330001
-0.13376881 -0.17082639 1.031
-0.1244291 -0.17865969 1.031
-0.14144737 -0.16577592 1.0355999
-0.13498662 -0.16581541 1.0345418
-0.12795284 -0.16487066 1.0322001
-0.0012133067 -0.13376705 1.0380001
0.0031466943 -0.13228884 1.0373847
-0.072115906 -0.12239231 1.0380001
-0.064911909 -0.1228473 1.0380001
-0.054780792 -0.12139133 1.0380001
-0.043348823 -0.12276957 1.0373334
-0.03786049 -0.12265038 1.0343751
-0.00090764224 -0.1261646 1.0353334
0.0058122999 -0.12494026 1.0346669
0.01442968 -0.12397394 1.0380001
0.022114793 -0.12208518 1.0366668
-0.17107624 -0.11010758 1.0380001
-0.16425139 -0.11124505 1.0380001
-0.15489504 -0.11466386 1.0365456
-0.14509049 -0.11388054 1.0350502
-0.13425237 -0.11338349 1.0380001
-0.12575926 -0.1132015 1.0380001
-0.1182974 -0.11101755 1.0380001
-0.094637915 -0.11056257 1.0380001
-0.084142804 -0.11204886 1.0380001
-0.074315026 -0.11429901 1.0380001
-0.064608581 -0.11465749 1.0380001
-0.055175032 -0.11544499 1.0356156
-0.046465676 -0.11691737 1.0325001
0.007947471 -0.11718774 1.0326667
0.01571358 -0.1163912 1.0329412
0.025440572 -0.11534338 1.0332502
0.032210484 -0.11296727 1.0350001
-0.18298873 -0.10248935 1.0364001
-0.17487629 -0.10414353 1.0344585
-0.1652506 -0.10443745 1.0325557
-0.15519685 -0.10543016 1.0315174
-0.1444823 -0.10552666 1.0310968
-0.13486861 -0.1050023 1.0325001
-0.12490255 -0.10499362 1.0324167
-0.11492272 -0.10469393 1.0345716
-0.10538802 -0.10386658 1.0367202
-0.094794825 -0.10477321 1.0380001
-0.084676139 -0.10430985 1.0360003
-0.075127065 -0.10452493 1.0353463
-0.065336503 -0.10433525 1.0335187
-0.056239158 -0.107434 1.0322858
0.028471064 -0.10891312 1.031
0.034908339 -0.10599355 1.0316001
0.041275512 -0.10092918 1.031
-0.19018582 -0.090997994 1.0380001
-0.18410379 -0.095151365 1.0353335
-0.17452469 -0.094947517 1.0314801
-0.1664363 -0.097744189 1.031
-0.11376958 -0.096045494 1.0316001
-0.10496768 -0.095228866 1.0331382
-0.095273778 -0.095434695 1.0333045
-0.085382789 -0.095745876 1.0330402
-0.075922921 -0.097307533 1.032091
0.045216385 -0.092468724 1.0366251
-0.19200577 -0.084297232 1.0380001
-0.18435404 -0.08509516 1.0340003
-0.17623539 -0.085505933 1.0315001
-0.19079249 -0.078561604 1.0380001
-0.18372837 -0.075311087 1.0350436
-0.17652757 -0.074601844 1.031
0.0065155616 -0.071833186 1.0320001
0.012653807 -0.071403623 1.031
-0.18198574 -0.065630779 1.0357144
-0.17541875 -0.064448342 1.0316523
-0.0017264754 -0.064732827 1.032091
0.0042280485 -0.066555627 1.036348
0.014888571 -0.065390058 1.0346453
0.022907445 -0.061189432 1.0315
-0.18108602 -0.057328742 1.0380001
-0.17524411 -0.054916672 1.0345187
-0.16841614 -0.053628039 1.031
-0.002358058 -0.056799404 1.0350001
0.01809031 -0.056494549 1.0375557
0.025160085 -0.054687925 1.0344064
0.034557417 -0.054749392 1.0313334
-0.20383552 -0.040949099 1.0380001
-0.19503903 -0.041757975 1.0380001
-0.18498366 -0.041613963 1.0364001
-0.17509596 -0.045087095 1.0360001
-0.16643505 -0.044867724 1.0322502
-0.15998027 -0.04067295 1.031
0.026912963 -0.047462381 1.0372002
0.033993717 -0.047478318 1.036316
0.040791299 -0.049856033 1.034
-0.20449431 -0.035030622 1.0363704
-0.19481671 -0.035464998 1.0327919
-0.1850875 -0.038105275 1.0326364
-0.17472665 -0.037006889 1.0326877
-0.16562448 -0.036658537 1.031706
-0.15998027 -0.037057579 1.031
-0.20308733 -0.02520667 1.0357145
-0.19527818 -0.025312869 1.0312501
0.0035372705 -0.024422659 1.0318183
-0.20221721 -0.016277468 1.0369092
-0.19566913 -0.01512897 1.0326192
0.004716116 -0.016494483 1.034
-0.19411474 -0.0058684065 1.0344212
-0.18818018 -0.0023499927 1.031
0.00271942 -0.009064734 1.034
-0.1910958 0.00272994 1.0380001
-0.18532415 0.0048181135 1.0333159
-0.17896098 0.0090384334 1.031
-0.20110558 0.019109581 1.0380001
-0.18267338 0.011207891 1.0366668
-0.17503551 0.015592525 1.0339501
-0.1690187 0.01898071 1.031
-0.2020068 0.02605979 1.036154
-0.19488099 0.025927946 1.0353216
-0.1853862 0.028349396 1.0337145
-0.17488801 0.025979819 1.0352224
-0.16633853 0.026156757 1.0319132
-0.20234889 0.033438988 1.0371112
-0.19469948 0.035317458 1.0329602
-0.18709557 0.032839641 1.031
-0.1738098 0.032177299 1.0318571
-0.16540334 0.032538358 1.031
-0.15998027 0.032538362 1.031
0.0099422764 0.038865265 1.031
0.016202938 0.036594532 1.0338126
0.02092954 0.039129138 1.0380001
-0.19400601 0.043839842 1.0338423
-0.18738572 0.046847485 1.0316001
0.0060676122 0.046495028 1.0336924
0.012921716 0.042769063 1.0380001
0.020848887 0.040791299 1.034
-0.19018582 0.050048899 1.0380001
-0.18314324 0.0549578 1.0349287
-0.1778422 0.05666934 1.0315
-0.0045290478 0.057128422 1.0343573
0.0034124251 0.052323848 1.0380001
-0.18091156 0.064549841 1.0370001
-0.17526382 0.065020077 1.0344349
-0.16735078 0.068620823 1.0318573
-0.020788396 0.068692088 1.031
-0.01561431 0.064652242 1.0358002
-0.0081898198 0.06096866 1.0380001
-0.17471616 0.070675112 1.0380001
-0.1641079 0.073660307 1.0351667
-0.15796931 0.076272085 1.032625
-0.032846067 0.076648161 1.0330001
-0.025522729 0.075285338 1.0346192
-0.019109581 0.070068456 1.0380001
-0.15355718 0.083914779 1.0355715
-0.14717874 0.086353689 1.0325
-0.034928791 0.08315821 1.0361819
-0.15014669 0.090088017 1.0380001
-0.14408113 0.093052752 1.0360001
-0.13640055 0.097537681 1.0342858
-0.083212763 0.097686738 1.0317501
-0.07810808 0.098011911 1.0320001
-0.060557503 0.098518923 1.031
-0.054531883 0.09851893 1.031
-0.0444545 0.098296061 1.0350001
-0.13192834 0.10217042 1.0350001
-0.12486233 0.10581007 1.0351001
-0.11545077 0.10800222 1.0333333
-0.10936505 0.10936505 1.031
-0.082862534 0.10442439 1.034706
-0.075085767 0.10408056 1.0360835
-0.064630888 0.10383094 1.0348802
-0.055673238 0.10297301 1.0351177
-0.047255844 0.10148469 1.0366668
-0.12193732 0.11010758 1.0380001
-0.11449633 0.11267572 1.0372728
-0.10555505 0.11579831 1.0342942
-0.094982453 0.11798543 1.0318571
-0.084400624 0.11548118 1.0352801
-0.07916826 0.11010758 1.0380001
-0.10100778 0.12102734 1.0380001
-0.093615733 0.12256382 1.0367694
-0.085398823 0.12319992 1.0375557
-0.11389084 -0.19683525 1.0442998
-0.10860059 -0.19438593 1.041
-0.14308488 -0.16158429 1.0448999
-0.13692766 -0.16165493 1.0447501
-0.1468592 -0.15787363 1.0470001
-0.14190271 -0.1411684 1.0470001
-0.13492689 -0.14135198 1.0470001
-0.12483033 -0.14135198 1.0470001
-0.070675991 -0.14043412 1.0470001
-0.064702235 -0.14351219 1.0485001
-0.054387487 -0.14320987 1.0468699
-0.045970894 -0.14235814 1.0457141
-0.14298373 -0.13441698 1.0470002
-0.13492689 -0.13492686 1.0470004
-0.12528752 -0.13480289 1.0449233
-0.1166851 -0.13444024 1.04775
-0.10493699 -0.1353135 1.0499997
-0.084758431 -0.13465011 1.0485001
-0.074981205 -0.13462417 1.0466789
-0.065123111 -0.13483618 1.0462803
-0.055025995 -0.13481249 1.0461004
-0.044842657 -0.13452587 1.0438801
-0.039298773 -0.13160388 1.0425
-0.0027378299 -0.13597889 1.041
-0.17485057 -0.12224182 1.0466666
-0.16472702 -0.12392049 1.0454212
-0.1546073 -0.12503819 1.0452274
-0.14474715 -0.12551078 1.0450003
-0.13472542 -0.12556398 1.0454402
-0.12538788 -0.12538788 1.0440001
-0.11657421 -0.12399035 1.0463753
-0.10458887 -0.12342935 1.0470002
-0.094457947 -0.125003 1.0460873
-0.085150458 -0.12543446 1.0443603
-0.075796254 -0.1259415 1.041682
-0.064777315 -0.12575926 1.0422634
-0.054814674 -0.12590483 1.0428002
-0.045872055 -0.12679796 1.0416924
-0.03924223 -0.12867801 1.041
0.01551437 -0.1268528 1.041
-0.19448644 -0.11208212 1.0470001
-0.18478982 -0.11328536 1.0457144
-0.17469692 -0.11524701 1.043308
-0.16557615 -0.11654269 1.0412859
-0.15514369 -0.1195519 1.041
-0.14388895 -0.1192248 1.042125
-0.13533473 -0.11811048 1.0420715
-0.12446456 -0.1176434 1.0424001
-0.11509322 -0.11496774 1.0443217
-0.10508418 -0.11470591 1.0430002
-0.095058434 -0.11634434 1.0426073
-0.085409425 -0.11767391 1.0416001
-0.078180254 -0.11894351 1.041
-0.20184797 -0.10421997 1.0470001
-0.19490319 -0.10523051 1.0437602
-0.18644857 -0.10641313 1.0422
-0.17978416 -0.10860059 1.041
-0.10312494 -0.10860059 1.041
-0.2019314 -0.094540611 1.0470001
-0.19498996 -0.095339462 1.0428216
-0.18891028 -0.09947449 1.041
0.045700192 -0.090478577 1.0425
0.050482851 -0.091786996 1.0470001
-0.20164342 -0.085239604 1.0455
-0.19685768 -0.085411005 1.0419999
-0.20184794 -0.075682551 1.0470001
-0.19522458 -0.07458242 1.043667
-0.18854523 -0.072461233 1.041
-0.19478688 -0.065482929 1.0453638
-0.18757483 -0.064444713 1.0421538
0.0058667781 -0.061927103 1.041
0.010647117 -0.061753277 1.041
-0.19290568 -0.05553114 1.0470001
-0.18618479 -0.054602597 1.043889
-0.0012185667 -0.053334642 1.043
0.0045790924 -0.054936763 1.0445002
0.013425955 -0.054147307 1.0416669
0.020990029 -0.050193548 1.041
-0.21478193 -0.042957295 1.0457143
-0.2047902 -0.044719998 1.0438
-0.19535975 -0.046150807 1.0435001
-0.18556243 -0.046391718 1.0426874
-0.0015297834 -0.046811368 1.0470001
0.0052012634 -0.048647109 1.0470001
0.015476565 -0.045449574 1.0438752
0.023785101 -0.043651197 1.0411767
0.035626803 -0.042930644 1.0419376
0.041126624 -0.045694932 1.0425
-0.22120667 -0.035796929 1.0470001
-0.21498342 -0.034762021 1.0435003
-0.20898768 -0.03011613 1.041
-0.00091786997 -0.038550541 1.0470001
0.00275361 -0.03028971 1.0470001
0.017795632 -0.038711496 1.0464001
0.025322955 -0.03606531 1.0452275
0.033964872 -0.03493657 1.0452002
0.042222019 -0.035796929 1.0470001
-0.21468076 -0.025171481 1.0450001
-0.20868349 -0.024032064 1.041
0.0045762002 -0.026541959 1.044
-0.21256448 -0.016737977 1.04625
-0.20686683 -0.013931266 1.0432941
0.0057859998 -0.011875327 1.0419999
-0.20264725 -0.0049128402 1.0450909
-0.19815052 -0.0031033999 1.0416
-0.20101354 0.00091786997 1.0470001
-0.19523874 0.0047702659 1.0440001
-0.18891028 0.0082134902 1.041
-0.21465565 0.016991965 1.0461177
-0.20518839 0.016301002 1.0449001
-0.19511534 0.015069902 1.0452416
-0.1860624 0.01540107 1.0430402
-0.17978416 0.0182522 1.041
-0.21453738 0.02437681 1.0453501
-0.20716245 0.023988608 1.0410001
-0.19460684 0.021014225 1.0422
-0.18561517 0.023466906 1.043
-0.17932786 0.02281525 1.041
-0.21241097 0.032344069 1.046625
-0.20645668 0.035282396 1.0433573
-0.20266633 0.044077341 1.045
-0.19822662 0.046589572 1.0419999
0.015537164 0.045791805 1.0423335
0.022078473 0.04533669 1.0431429
-0.19406131 0.052998256 1.0448571
-0.18793482 0.056961417 1.0423332
-0.00091260998 0.059319649 1.041
0.0049146479 0.056104641 1.0426875
0.012730368 0.051421762 1.0453334
-0.18511125 0.06292209 1.0439999
-0.013433165 0.065958649 1.045
-0.006784874 0.062895402 1.0458
-0.17417946 0.075401574 1.0446
-0.16627553 0.078193486 1.0426364
-0.0219342 0.078598864 1.0425
-0.018442687 0.073906377 1.0444286
-0.16424377 0.084310204 1.0453334
-0.15753897 0.08607661 1.04175
-0.032785054 0.084801197 1.0446
-0.026091244 0.08263164 1.0443751
-0.16154513 0.090869129 1.0470001
-0.15418974 0.093737453 1.0448334
-0.14586163 0.097499147 1.0423846
-0.13962933 0.09947449 1.041
-0.038785927 0.097649269 1.041
-0.15144855 0.10004783 1.0470001
-0.1437666 0.10382423 1.046
-0.13526851 0.10610297 1.0433334
-0.12697642 0.1087049 1.0419999
-0.073465101 0.10860059 1.041
-0.067533135 0.10860059 1.041
-0.053452339 0.10736208 1.04225
-0.0444679 0.10585044 1.044158
-0.038649354 0.10337291 1.0461428
-0.13408642 0.11154129 1.0465715
-0.12500179 0.11438318 1.0446002
-0.11561855 0.11679455 1.0431428
-0.10860059 0.11955191 1.041
-0.081222288 0.11407625 1.041
-0.075224623 0.11489588 1.0436132
-0.065348692 0.11308535 1.044706
-0.055447098 0.11197679 1.0461818
-0.048647109 0.11106227 1.0470001
-0.12024097 0.12024097 1.0470001
-0.11519268 0.12069991 1.0470001
-0.10429915 0.12478499 1.0452354
-0.095688224 0.12706487 1.0437858
-0.08429563 0.12795138 1.0435714
-0.077883244 0.12351795 1.0452
-0.090869129 0.1312554 1.0470001
-0.087197654 0.1312554 1.0470001
-0.13327307 -0.16150633 1.05575
-0.15203363 -0.15295623 1.0536001
-0.1452653 -0.15508622 1.0532802
-0.13574511 -0.1548194 1.0565554
-0.12509593 -0.15233906 1.057
-0.11582958 -0.15210079 1.057
-0.10470994 -0.15173674 1.057
-0.095443569 -0.15196839 1.057
-0.084426895 -0.15310097 1.0569999
-0.075281747 -0.15431364 1.0564284
-0.065499909 -0.15387072 1.0550001
-0.056350429 -0.1526766 1.0517058
-0.16030814 -0.14733523 1.057
-0.1542854 -0.14526585 1.0548751
-0.14534923 -0.14553367 1.0520002
-0.13514102 -0.14667532 1.05225
-0.1247585 -0.14640433 1.0520667
-0.11527188 -0.14464816 1.0526522
-0.10530058 -0.14486648 1.0540003
-0.095140174 -0.14510836 1.0554351
-0.084935732 -0.14510676 1.0542415
-0.074775137 -0.14478867 1.0508333
-0.057465497 -0.1474115 1.0500001
-0.047866002 -0.1482005 1.0500001
-0.18225165 -0.13223103 1.0566251
-0.1753808 -0.13305074 1.0567693
-0.16481477 -0.13247532 1.0567274
-0.15422368 -0.13539176 1.05288
-0.1474115 -0.13662849 1.0500001
-0.094868727 -0.13539822 1.05064
-0.078242503 -0.1389955 1.0500001
-0.19181378 -0.1213894 1.057
-0.18491384 -0.12472974 1.0553812
-0.17607039 -0.12643759 1.0515386
-0.16515031 -0.12861016 1.0524
-0.1574055 -0.1297905 1.0500001
-0.11338887 -0.12728006 1.0500001
-0.10571588 -0.12851597 1.0500001
-0.0966525 -0.1297905 1.0500001
-0.21158202 -0.11397631 1.057
-0.20493568 -0.11413822 1.0541877
-0.19513029 -0.11656196 1.0524167
-0.18601389 -0.11834775 1.0511429
-0.21228671 -0.10452288 1.055125
-0.20708628 -0.10526192 1.0508419
-0.21108782 -0.095443577 1.057
-0.20711367 -0.095484205 1.0523334
-0.21034652 -0.088957116 1.057
-0.2065865 -0.084847309 1.052
0.047621191 -0.089229099 1.05475
0.053896263 -0.088587269 1.0553751
-0.2061394 -0.074675515 1.0516001
-0.24243559 -0.061996549 1.0555
-0.23907226 -0.060231384 1.057
-0.20332074 -0.06469053 1.0533531
-0.198828 -0.062593997 1.0500001
-0.24277881 -0.058378108 1.057
-0.23282017 -0.054660439 1.0567693
-0.22546825 -0.051569588 1.055125
-0.21374932 -0.05135601 1.0555
-0.2037736 -0.053954452 1.0557059
-0.19723177 -0.054500479 1.0509231
-0.2319838 -0.045577906 1.0548571
-0.22458537 -0.045323081 1.0509523
-0.21578367 -0.047441296 1.0515385
-0.20674428 -0.048418298 1.0500001
-0.0018436301 -0.046067957 1.0510001
0.0045277444 -0.044676688 1.0518181
0.011352833 -0.042649835 1.0500001
0.043407708 -0.043405958 1.0534999
-0.2309128 -0.037610456 1.0549999
-0.22566986 -0.034785304 1.051579
0.0049616075 -0.035542212 1.0535557
0.014247869 -0.034420595 1.0520645
0.023242624 -0.031527124 1.0500001
0.0395815 -0.038660999 1.0500001
0.045792043 -0.038398076 1.0542728
-0.22378911 -0.0265573 1.05375
-0.21953924 -0.022552248 1.0500001
0.0064596301 -0.027493317 1.0524
0.015588887 -0.027213234 1.0548571
0.025063023 -0.025059735 1.0524166
0.031603832 -0.027308166 1.0500001
-0.22083759 -0.019404139 1.054
-0.21535188 -0.014333501 1.0518183
0.0064680465 -0.010164074 1.054
0.025945827 -0.019459371 1.057
-0.21241605 -0.0077079455 1.0549999
-0.2073499 -0.0042374558 1.0512002
0.0068180114 -0.0075544119 1.0508001
0.010193003 -0.0027799099 1.057
-0.22609934 0.0083397301 1.057
-0.21281755 0.0083397301 1.057
-0.20536989 0.004833648 1.0552222
-0.1997485 0.0073640002 1.0500001
-0.22463843 0.01464984 1.0549473
-0.21573809 0.012127941 1.0520002
-0.20540158 0.011245528 1.0516001
-0.1997485 0.011046 1.0500001
-0.22280014 0.024687519 1.056
-0.21938582 0.025467167 1.0500001
-0.21429679 0.035522975 1.0525
-0.2089535 0.0395815 1.0500001
-0.21034652 0.043551922 1.057
-0.20612448 0.045652412 1.052
0.0193305 0.048786499 1.0500001
0.021171499 0.048786499 1.0500001
-0.20357208 0.050892688 1.0555
-0.1965439 0.056475617 1.0511429
0.0073640002 0.058912002 1.0500001
0.015000315 0.055153508 1.052875
0.022185802 0.052234426 1.0545001
-0.19247392 0.061849713 1.053
-0.18810724 0.065791205 1.057
-0.01136686 0.067897834 1.0513334
-0.003921275 0.065880895 1.0528125
0.0038831071 0.064142019 1.0542001
0.012046278 0.06115802 1.057
-0.17648527 0.078540564 1.054
-0.014772358 0.074063599 1.0534
-0.0077219722 0.071968779 1.057
-0.17313799 0.085092768 1.0550001
-0.16723719 0.08816687 1.0522858
-0.032562029 0.088202313 1.0527143
-0.024231993 0.086897366 1.0511764
-0.018583581 0.084228382 1.0525715
-0.16483848 0.09273643 1.0543333
-0.15801495 0.097169384 1.0516001
-0.035212193 0.091737032 1.057
-0.023741594 0.091563441 1.0549999
-0.15269254 0.10261091 1.0513334
-0.14603952 0.1080312 1.0510001
-0.041422501 0.1095395 1.0500001
-0.035957426 0.10702475 1.0517693
-0.14235137 0.11194858 1.0510001
-0.13515334 0.11562736 1.0523334
-0.12794949 0.11813083 1.0500001
-0.072719499 0.1187445 1.0500001
-0.064179599 0.11823136 1.0508889
-0.055158641 0.11641414 1.0522001
-0.045127761 0.11443052 1.0531178
-0.036648925 0.11402626 1.0525714
-0.11366834 0.12420939 1.0517143
-0.10664649 0.12821248 1.0500001
-0.081003994 0.1297905 1.0500001
-0.073883832 0.12529846 1.0518751
-0.066447571 0.12327818 1.0557001
-0.057451472 0.1213894 1.057
-0.10356615 0.13232531 1.0534285
-0.094972402 0.13407348 1.0518001
-0.085082114 0.13513507 1.0531054
-0.076053463 0.13293184 1.0561429
-0.094008036 -0.18053284 1.067
-0.12627944 -0.1711788 1.067
-0.1131838 -0.1711788 1.067
-0.10424098 -0.17348298 1.0655882
-0.094682418 -0.17428698 1.0653076
-0.085206673 -0.1752858 1.0655712
-0.07631658 -0.17290723 1.0652858
-0.067624457 -0.1709177 1.0615
-0.13139743 -0.16587761 1.0630001
-0.12472193 -0.16467583 1.0645999
-0.11411641 -0.16491503 1.0652001
-0.10525803 -0.1648725 1.0625199
-0.094946161 -0.16476269 1.0617999
-0.084736206 -0.16481787 1.06216
-0.075382017 -0.16472542 1.0615599
-0.065837145 -0.16405317 1.06012
-0.057614535 -0.16076313 1.0600001
-0.13164611 -0.15766557 1.0600001
-0.125451 -0.15679827 1.0600002
-0.11504539 -0.156132 1.060913
-0.10500713 -0.15660875 1.0600002
-0.094785199 -0.15704605 1.0600001
-0.085595779 -0.15787208 1.0600001
-0.073412068 -0.1589046 1.0600001
-0.064491108 -0.1589046 1.0600001
-0.17079923 -0.1418061 1.0600001
-0.16432734 -0.14293145 1.0610001
-0.1589046 -0.14217781 1.0600001
-0.19049966 -0.13288513 1.0600001
-0.18543091 -0.13491261 1.0600002
-0.17381151 -0.13706082 1.060231
-0.16533796 -0.13660219 1.0600002
-0.20274512 -0.12142482 1.0638001
-0.19406064 -0.12520148 1.0613889
-0.18864113 -0.12916806 1.0600001
-0.21528012 -0.11120224 1.0600001
-0.20443867 -0.11894614 1.0600001
-0.19979233 -0.11801687 1.0600001
-0.22320777 -0.10500822 1.0647501
-0.21680506 -0.10543602 1.0600002
-0.21630074 -0.094643615 1.0622272
-0.21448818 -0.084604934 1.0630001
0.04826365 -0.086273469 1.0628
0.054996718 -0.085756853 1.0633
0.060687251 -0.085894048 1.0650001
-0.21542504 -0.07491976 1.066654
-0.209085 -0.071553536 1.0600001
-0.24346787 -0.060402334 1.0600001
-0.21289748 -0.06496124 1.0655456
-0.208597 -0.06415797 1.0606667
-0.24349451 -0.054083206 1.0625335
-0.23795986 -0.054841198 1.0603001
-0.22451319 -0.05434515 1.0626668
-0.21489425 -0.055677868 1.0628752
-0.20784201 -0.056974441 1.0604285
-0.24280398 -0.046636533 1.067
-0.23792005 -0.044822797 1.0615002
-0.24039866 -0.038351536 1.067
-0.23518166 -0.034607705 1.0631335
-0.23259856 -0.026068641 1.0655454
-0.22713448 -0.023944398 1.06075
0.014315266 -0.022868026 1.0604001
0.021373134 -0.021373134 1.0600001
-0.22436087 -0.01623388 1.0642668
-0.21796417 -0.010851088 1.061
0.014913781 -0.014910761 1.0631944
0.02501734 -0.014187468 1.0629615
0.0306658 -0.0195146 1.0600001
-0.2216906 -0.0084186299 1.067
-0.21598299 -0.0038725592 1.0626316
0.01435695 -0.0058360794 1.0647501
0.02548974 -0.0077170776 1.067
-0.23394974 0.0056008589 1.0653126
-0.22442326 0.0053415759 1.0631578
-0.21506225 0.0041416516 1.0611364
-0.209085 0.0046463334 1.0600001
0.012160243 0.00093540334 1.067
-0.2333291 0.014392111 1.064
-0.22813496 0.014403633 1.0600001
-0.23161972 0.02299479 1.0662
-0.22688755 0.025546154 1.0633
-0.22193123 0.034243915 1.0651666
-0.21750978 0.037398599 1.0612
-0.21473569 0.044787455 1.0630589
-0.209085 0.048321865 1.0600001
-0.20533915 0.055000186 1.0632857
-0.19979233 0.058543801 1.0600001
0.018585334 0.058543801 1.0600001
0.025279384 0.056329392 1.0626001
-0.20148401 0.061348844 1.0656667
-0.19529296 0.0649461 1.0633334
-0.18824312 0.068028457 1.0630001
-0.00092926668 0.069694996 1.0600001
0.0058131767 0.068815045 1.06075
0.014991439 0.064924978 1.0629998
0.023908079 0.061570428 1.0664285
-0.19175768 0.071090654 1.067
-0.18626998 0.074520469 1.0670002
-0.17934847 0.078058399 1.0600001
-0.011312381 0.077329136 1.0627143
-0.0043523093 0.075251751 1.0640557
0.0044004908 0.073578499 1.0642859
0.012160244 0.07171426 1.067
-0.18226495 0.083386078 1.064
-0.1780891 0.085451081 1.0605454
-0.01351842 0.082763687 1.06375
-0.17313609 0.092263572 1.0603751
-0.16535369 0.096281335 1.061125
-0.033339221 0.095679708 1.0623333
-0.025372744 0.095518656 1.0626471
-0.16276018 0.10102355 1.067
-0.15705732 0.10398187 1.0621667
-0.03265496 0.10357261 1.0643334
-0.024632288 0.10008816 1.067
-0.051109668 0.1198754 1.0600001
-0.045534063 0.11987541 1.0600001
-0.0390292 0.11801687 1.0600001
-0.13326122 0.12021467 1.0630001
-0.12860173 0.12207846 1.0630001
-0.11539067 0.12782998 1.0643334
-0.063956089 0.12645265 1.0617143
-0.054707456 0.12527455 1.0637223
-0.045451533 0.12342828 1.0642858
-0.0354787 0.12137626 1.0650001
-0.1108957 0.13139743 1.0630001
-0.10567974 0.13677873 1.0624616
-0.096714079 0.13855869 1.06075
-0.081775464 0.13846073 1.0600001
-0.073266134 0.13642891 1.0615335
-0.066850647 0.13221616 1.0651001
-0.057059605 0.13002107 1.067
-0.10102355 0.1412459 1.067
-0.093478419 0.14149982 1.0636251
-0.084370509 0.14335921 1.0630589
-0.076742597 0.1426162 1.0632502
-0.10256311 -0.18240115 1.0732858
-0.095747128 -0.18327987 1.0707501
-0.12305463 -0.17284141 1.0714999
-0.11549315 -0.17548445 1.0731175
-0.10558911 -0.17750208 1.0712858
-0.09661743 -0.17916436 1.0700001
-0.079732835 -0.17728829 1.0700001
-0.12663449 -0.16837698 1.0700001
-0.11837981 -0.16753276 1.0700001
-0.20291659 -0.12581553 1.0726001
-0.1998011 -0.12475843 1.0700001
-0.23103528 -0.10278478 1.0756668
-0.22710972 -0.10197986 1.0705
-0.23132165 -0.094889082 1.077
-0.22577274 -0.095011421 1.0730499
-0.23219481 -0.085003108 1.0762727
-0.22487117 -0.085372873 1.0728844
0.049855158 -0.083719037 1.0730001
0.055306435 -0.082491539 1.0726364
0.062623665 -0.082974009 1.0715001
-0.2247979 -0.075481527 1.0746799
0.057487417 -0.079161242 1.075
0.065395243 -0.07765387 1.0758889
0.070812747 -0.076477766 1.077
-0.22349361 -0.065067075 1.0756665
-0.21793011 -0.06481503 1.0715001
-0.2504549 -0.051591832 1.0700001
-0.22421792 -0.058169272 1.0721111
-0.21856177 -0.059096098 1.0700001
-0.25020504 -0.043431818 1.077
-0.24596238 -0.044389766 1.070857
-0.24403432 -0.035092592 1.0735713
-0.23919851 -0.031893134 1.0700001
-0.24202223 -0.026122035 1.077
-0.23750012 -0.024579832 1.0714999
-0.23366806 -0.01613657 1.0744666
-0.22697425 -0.01241691 1.0713334
-0.23215425 -0.0031012709 1.0758573
-0.22593327 -0.0045077736 1.0731052
0.017189441 -0.0026476129 1.0730001
0.025009325 -0.0034030008 1.0714999
-0.24329539 0.005490344 1.0735832
-0.2368335 0.0025473428 1.0714287
-0.22681646 0.0013132466 1.0700001
0.014241542 0.0036222483 1.0752105
0.025072956 0.0017834322 1.077
-0.2431345 0.012971818 1.0760001
-0.23824467 0.015550701 1.0713334
-0.23533392 0.025577547 1.0733637
-0.22981817 0.029079033 1.0700001
-0.23137599 0.032966468 1.0743333
-0.22689001 0.034888513 1.071357
-0.22326013 0.043813642 1.0738461
-0.21814068 0.049136877 1.0710001
-0.21391456 0.055263311 1.0735713
-0.20855607 0.058470745 1.0700001
0.029079033 0.059096098 1.0700001
0.032511182 0.058445089 1.0718001
-0.21117936 0.062629946 1.077
-0.20466238 0.065131195 1.0725332
-0.19792503 0.067851074 1.0700001
0.0196987 0.067538396 1.0700001
0.025740584 0.065922029 1.0732942
0.03210178 0.06420356 1.077
-0.20120683 0.072095752 1.075
-0.19477297 0.075574324 1.0716399
-0.18713765 0.079263821 1.0700001
-0.0037521333 0.079732835 1.0700001
0.004459932 0.07817445 1.071125
0.015376442 0.07447467 1.0737777
0.023132164 0.071284831 1.077
-0.19189532 0.081837706 1.0730001
-0.18666863 0.082546934 1.0700001
-0.010966223 0.084921815 1.0723333
-0.0050236653 0.083386861 1.0747499
0.0047208499 0.081009783 1.077
-0.16790797 0.098493502 1.0700001
-0.16600697 0.10255935 1.0732858
-0.15699726 0.10810906 1.0723333
-0.031705528 0.10187042 1.0700001
-0.027054908 0.10289808 1.0724444
-0.13392338 0.12450901 1.0743001
-0.12525401 0.12658489 1.073294
-0.11929724 0.12775269 1.0715001
-0.044192065 0.12750784 1.0725999
-0.037165187 0.12560946 1.0732501
-0.1235958 0.13189748 1.0762
-0.11513516 0.13445711 1.0735333
-0.064262241 0.13588025 1.0715293
-0.056020204 0.13334855 1.0739999
-0.046264332 0.13123962 1.077
-0.11181305 0.14122766 1.0754001
-0.10425077 0.14474048 1.0740713
-0.095126085 0.14648649 1.0726923
-0.086371705 0.14896895 1.0725715
-0.07388404 0.14659192 1.071875
-0.067161337 0.14323242 1.0756668
-0.10102619 0.15012303 1.077
-0.095361166 0.1505007 1.077
-0.084188752 0.15271026 1.0766
-0.075187318 0.15215845 1.0765556
-0.1138299 -0.18117368 1.082
-0.108882 -0.18083879 1.08
-0.23429267 -0.10244201 1.082
-0.23550802 -0.095033094 1.0815384
-0.24064939 -0.084653556 1.085
-0.23650163 -0.084833503 1.0812501
0.04738446 -0.083228104 1.0841428
0.050873548 -0.081208557 1.0813333
-0.23538218 -0.075226165 1.0833157
-0.2281788 -0.073850401 1.08
0.048599768 -0.079093739 1.087
0.05569917 -0.075813212 1.0834117
0.064539187 -0.072417036 1.0814615
0.073712371 -0.072653167 1.0825555
-0.23377086 -0.06468682 1.0824999
-0.22817878 -0.065329202 1.08
0.066419996 -0.068801679 1.0862499
0.074987374 -0.067238934 1.0863999
-0.23254108 -0.058528602 1.0826668
-0.25231695 -0.040787794 1.082
-0.2525394 -0.035903446 1.085
-0.24876557 -0.034115482 1.081
-0.24592392 -0.025160551 1.0830833
-0.24237518 -0.01569036 1.0849166
-0.23715673 -0.01302902 1.081
-0.24109298 -0.0019058733 1.087
-0.23644558 -0.0056246263 1.0831538
-0.25426981 0.0050693247 1.0849442
-0.24868345 0.0044207377 1.0813333
0.017538154 0.0068761357 1.0815001
0.024975121 0.0063903746 1.0819334
-0.25427303 0.012182599 1.0855
-0.24650051 0.015684847 1.0817692
0.015882278 0.011752885 1.087
-0.24326992 0.024345556 1.0848
-0.23859361 0.0274572 1.08
-0.23501444 0.035121631 1.0827
-0.23164323 0.042377189 1.0838001
-0.22846197 0.046263453 1.0843333
-0.22477822 0.052982956 1.0856667
-0.21864241 0.056913197 1.082
-0.22139895 0.061623242 1.087
-0.21466899 0.065321527 1.0850834
-0.208296 0.068169594 1.08
0.0293508 0.069116399 1.08
0.032191198 0.069116399 1.08
-0.20517462 0.07345546 1.0835
0.018395972 0.077943377 1.0816
0.025267636 0.074913152 1.0834666
0.033264682 0.072236896 1.0841666
-0.013658759 0.088623106 1.087
-0.0042732023 0.087535933 1.082375
0.0044943192 0.085345201 1.0824666
0.013207471 0.081866831 1.0844445
0.020964606 0.080999613 1.087
-0.18010503 0.098152474 1.087
-0.17572065 0.09842319 1.0858001
-0.17325388 0.10457744 1.0858572
-0.16545066 0.10787647 1.0825555
-0.026648037 0.10705941 1.0855
-0.17057566 0.11149359 1.087
-0.16367006 0.11279694 1.0867
-0.15505819 0.11510657 1.0851051
-0.14767766 0.11802809 1.0840001
-0.15246987 0.12197589 1.087
-0.14485654 0.12375642 1.0841999
-0.13676934 0.12750161 1.0808889
-0.040712401 0.1297116 1.08
-0.036925197 0.1284492 1.08
-0.14103463 0.13055232 1.087
-0.13376847 0.13420816 1.0845386
-0.12508698 0.13584954 1.0827777
-0.11771879 0.13791721 1.08
-0.053354986 0.13709857 1.0829999
-0.045021553 0.13506439 1.0855384
-0.037113246 0.13195951 1.0855
-0.12674057 0.14071698 1.087
-0.11322852 0.14557488 1.0853332
-0.10766168 0.14844948 1.082
-0.063890532 0.14596206 1.0834666
-0.05661064 0.14177464 1.0853751
-0.10371481 0.15295741 1.0853751
-0.094999105 0.15485601 1.0836667
-0.08478453 0.15667419 1.0818
-0.074071407 0.1565105 1.0833
-0.0690936 0.15360883 1.0856
-0.24419521 -0.081397034 1.0923333
-0.24429308 -0.076041438 1.0940001
-0.23984723 -0.0716675 1.09
0.047836773 -0.075321056 1.0937778
0.053702377 -0.072263286 1.0923846
0.056713756 -0.067288108 1.0965
0.064693063 -0.064777784 1.0925455
0.074951164 -0.062019244 1.092625
0.075974569 -0.058663905 1.097
-0.26062161 -0.032697912 1.097
-0.25578308 -0.03209104 1.0927501
-0.26062161 -0.029812803 1.097
-0.25453129 -0.026556337 1.0950667
-0.2494029 -0.021978034 1.09
-0.25226873 -0.017484065 1.0958
-0.24716009 -0.013307703 1.0932223
-0.24461953 -0.0053742295 1.0951
-0.24699031 0.00095731998 1.092
-0.26166454 0.016016116 1.0960001
-0.25596204 0.016477916 1.0927
0.016746525 0.015790958 1.0915
0.024881203 0.014358744 1.0916001
0.032422442 0.014779625 1.0913334
-0.25430113 0.020817619 1.0960001
-0.24689476 0.026194802 1.0930001
0.018247377 0.021129858 1.0955
0.025414646 0.021049963 1.0959091
0.033239163 0.021712404 1.0958
-0.24286734 0.035041682 1.095
-0.23910995 0.036347479 1.0910001
-0.2359075 0.044880293 1.095
-0.23220037 0.051564947 1.0960001
-0.22551374 0.056696951 1.09
-0.22073589 0.064022966 1.09
-0.21882476 0.064022966 1.09
-0.21335283 0.071597584 1.0962501
-0.20772791 0.07693626 1.097
0.028348478 0.07803794 1.09
0.032966923 0.077292196 1.0922858
-0.012422367 0.088867702 1.09
0.007973575 0.088339366 1.0913334
0.014955934 0.086739585 1.0917501
0.024338221 0.085051291 1.0945001
0.032348413 0.082311399 1.0960001
-0.18374632 0.09701895 1.0957143
-0.015345173 0.091111965 1.0940001
0.0067135133 0.091111965 1.0940001
0.014840992 0.09213338 1.0960001
0.020195769 0.091361813 1.097
-0.18251751 0.1035807 1.0951113
-0.17740412 0.10640132 1.0912223
-0.031533699 0.10989016 1.09
-0.024844734 0.10797903 1.09
-0.17440385 0.11408537 1.0950834
-0.16559899 0.11674378 1.0907273
-0.1589426 0.11880878 1.09
-0.03173621 0.1144427 1.097
-0.02851782 0.11278945 1.0965
-0.16254672 0.12293037 1.0955001
-0.15464456 0.12603077 1.0929334
-0.14747579 0.12836446 1.09
-0.15098742 0.13175336 1.097
-0.14411181 0.13365158 1.0939091
-0.13759969 0.13759971 1.0925001
-0.042522717 0.13807938 1.09
-0.037121572 0.13723361 1.0927501
-0.13364854 0.14131692 1.0936
-0.12494501 0.14415403 1.0955454
-0.11721972 0.14594309 1.0921429
-0.060200699 0.14811283 1.09
-0.053702231 0.14559069 1.0904707
-0.045863595 0.14395982 1.0935789
-0.039429836 0.14137039 1.097
-0.11236543 0.15366344 1.0955
-0.10590099 0.15645713 1.0922
-0.094601102 0.15862407 1.09
-0.086956568 0.15957963 1.09
-0.075489767 0.1589426 1.09
-0.064504534 0.15479042 1.0931053
-0.055507321 0.15229118 1.0948334
-0.04904687 0.15098742 1.097
-0.10290226 0.16060446 1.097
-0.095907331 0.16016525 1.0940001
-0.084032014 0.16230693 1.0955001
-0.074921682 0.16329201 1.0956668
-0.067225873 0.16038486 1.0955
-0.24998939 -0.080112427 1.1010001
-0.24998939 -0.078182012 1.1010001
0.048260503 -0.070460327 1.1010001
0.05115613 -0.070460327 1.1010001
0.0486564 -0.067264177 1.1056001
0.054836866 -0.064519107 1.1046873
0.062311277 -0.061346065 1.102
0.059252147 -0.059252147 1.108
0.066131786 -0.057400476 1.1066666
0.074388839 -0.054463126 1.1047617
0.082084127 -0.053928148 1.103909
0.07644365 -0.04675382 1.1077856
0.082966305 -0.045603979 1.1068748
-0.26614898 -0.030111747 1.108
-0.26267266 -0.025201207 1.1056249
-0.25738934 -0.022521565 1.101
-0.26153928 -0.014171667 1.1073999
-0.25596434 -0.013482781 1.1039999
-0.26129225 -0.0048567331 1.108
-0.25502256 -0.0048478968 1.1060798
-0.24805897 -0.0048260498 1.1010001
-0.26288104 0.023462666 1.1056999
-0.25561595 0.025765412 1.1047331
-0.24998939 0.026060671 1.1010001
0.024892658 0.025701093 1.1061666
0.034072369 0.026327254 1.1047271
-0.25260815 0.031261057 1.1073999
-0.24755499 0.036541767 1.1041249
-0.24308679 0.04358273 1.1047143
-0.23855735 0.048743833 1.1046667
-0.23626298 0.052283961 1.1045001
-0.22243838 0.068965614 1.108
-0.22243838 0.070908308 1.108
-0.21541592 0.074668832 1.1061429
-0.20945057 0.078182012 1.1010001
0.037858188 0.078140147 1.10725
-0.21078223 0.080621772 1.108
-0.20407623 0.084412701 1.10675
-0.19829877 0.087019391 1.107
0.02799109 0.088316716 1.1010001
0.034914937 0.085063152 1.1062143
-0.20204011 0.090335242 1.108
