# .PCD v0.7 - Point Cloud Data file format
VERSION 0.7
FIELDS x y z
SIZE 4 4 4
TYPE F F F
COUNT 1 1 1
WIDTH 1481
HEIGHT 1
VIEWPOINT 0 0 0 1 0 0 0
POINTS 1481
DATA ascii
-0.23485805 -0.095232517 1.0047059
-0.22465235 -0.094116174 1.0055599
-0.21568505 -0.096260488 1.0034999
-0.20797777 -0.096354254 1.0010002
-0.15005991 -0.094774678 1.001
-0.14685178 -0.093144491 1.0030769
-0.33083382 -0.088631876 1.001
-0.23329359 -0.087568149 1.0013751
-0.22720464 -0.087158017 1.0022
-0.14506881 -0.085528091 1.00475
-0.13860013 -0.080335103 1.0070001
-0.14260079 -0.079417676 1.001
-0.13742329 -0.075995252 1.0010002
-0.36175123 -0.060731959 1.0040001
-0.35830659 -0.061474711 1.00175
-0.13075395 -0.065815747 1.001
-0.36432824 -0.053977571 1.0024211
-0.35803765 -0.058795404 1.001
-0.12181129 -0.051451348 1.00325
-0.11917845 -0.050319791 1.0070001
-0.36769065 -0.048264883 1.001
-0.1202955 -0.044783641 1.0016
-0.11579131 -0.044027735 1.00445
-0.37120083 -0.030714016 1.001
-0.11390717 -0.035916723 1.0041499
-0.10826132 -0.039607801 1.0040001
-0.37303385 -0.023780789 1.00475
-0.36757192 -0.024183808 1.0015454
-0.11073484 -0.028123466 1.0025001
-0.10845748 -0.022833878 1.00175
-0.37218389 -0.015221453 1.0066251
-0.36568251 -0.014478795 1.0025791
-0.35891521 -0.011408064 1.001
-0.111448 -0.011408064 1.001
-0.10687712 -0.014075046 1.0034375
-0.3716602 -0.0097108362 1.0070001
-0.36523196 -0.0060953167 1.0055
-0.35586926 -0.0042545311 1.0019231
-0.34627861 -0.001579578 1.001
-0.12022343 -0.00087754335 1.001
-0.11349701 -0.0040883161 1.0029565
-0.10739499 -0.0079341847 1.0058
-0.36106655 0.00088280335 1.0070001
-0.35404262 0.0042368467 1.0047143
-0.34643462 0.0022426108 1.001
-0.12245756 0.007151722 1.0018572
-0.11691546 0.004098881 1.0054117
-0.3501398 0.011408064 1.001
-0.13286005 0.017375359 1.001
-0.12598169 0.014467003 1.0042857
-0.36384866 0.029002324 1.0025001
-0.13075395 0.022816125 1.001
-0.12848485 0.025254428 1.0050001
-0.3637087 0.035134692 1.0043
-0.35679024 0.036986429 1.0026156
-0.1228546 0.035244398 1.0034001
-0.11917845 0.039726149 1.0070001
-0.35299003 0.043158304 1.0046668
-0.34538302 0.046695173 1.0015455
-0.33497271 0.046785068 1.0028946
-0.32771787 0.047822755 1.0040001
-0.12387865 0.045722548 1.0029999
-0.11917845 0.045022972 1.0070001
-0.35047293 0.050319791 1.0070001
-0.34419087 0.051851083 1.0048571
-0.33616284 0.052865122 1.0058947
-0.32478422 0.054697223 1.0050384
-0.31573722 0.055288777 1.0023199
-0.30977279 0.056162775 1.001
-0.14303955 0.058795404 1.001
-0.13394035 0.055786327 1.0027728
-0.12632906 0.052307248 1.0052353
-0.34062707 0.069533691 1.0040001
-0.33503586 0.066160627 1.0048333
-0.32531184 0.062773056 1.00325
-0.31665975 0.061165761 1.0015
-0.16176049 0.068740897 1.001
-0.15485665 0.066693544 1.0028571
-0.14472063 0.064178452 1.0041499
-0.13680828 0.062161151 1.0057501
-0.34136435 0.074591182 1.001
-0.33487266 0.074973091 1.0015769
-0.32569394 0.076346263 1.0010002
-0.16146797 0.072836094 1.001
-0.15647945 0.075242251 1.0041428
-0.33485594 0.081510775 1.0059286
-0.32478005 0.083290666 1.0053499
-0.31529313 0.085687771 1.0039999
-0.3059572 0.087452047 1.0020911
-0.29748723 0.088631876 1.001
-0.15160693 0.083277047 1.0035001
-0.14831027 0.085965842 1.0063335
-0.31251237 0.090928741 1.0070001
-0.3047511 0.092131473 1.0063571
-0.29489753 0.094267845 1.004913
-0.285754 0.095323689 1.0029413
-0.27475858 0.098288216 1.0040001
-0.26497269 0.098546885 1.0026668
-0.25501409 0.099162392 1.001
-0.24658968 0.099162392 1.001
-0.22377352 0.098284863 1.0010002
-0.21529065 0.098869883 1.001
-0.20516963 0.099162392 1.001
-0.19502378 0.098954126 1.0014286
-0.17313966 0.098705903 1.0040001
-0.1635562 0.098036125 1.0022857
-0.1534958 0.096732199 1.0035263
-0.14830974 0.094524994 1.0058
-0.27219769 0.10211092 1.0070001
-0.26476288 0.10237493 1.0067
-0.2567406 0.10146189 1.0064
-0.2422905 0.10132074 1.0050001
-0.23426497 0.10216322 1.0046
-0.22554792 0.10132075 1.005
-0.21503077 0.10222831 1.0052499
-0.20493311 0.10234796 1.0056363
-0.1950525 0.1024515 1.006
-0.18558972 0.10250585 1.0033077
-0.1781804 0.10169403 1.0052
-0.15684472 0.10152239 1.0070001
-0.30319396 -0.14185974 1.0190001
-0.29552761 -0.14374384 1.0190003
-0.28488812 -0.14398344 1.0180001
-0.27471605 -0.1445473 1.0188069
-0.26570541 -0.14359203 1.0190003
-0.25531185 -0.14318186 1.0190004
-0.24536616 -0.14315505 1.0190004
-0.23583734 -0.1420384 1.0190001
-0.20099775 -0.14114508 1.0190001
-0.19653733 -0.14342184 1.01825
-0.15633158 -0.14382505 1.0190001
-0.30472088 -0.13407883 1.0175004
-0.2949135 -0.13502468 1.0170003
-0.28496149 -0.13544638 1.0148531
-0.27577418 -0.13468206 1.0160003
-0.26563349 -0.13460042 1.0168003
-0.25544089 -0.13486604 1.0188005
-0.24493428 -0.13500002 1.0183575
-0.23557596 -0.13429931 1.0178753
-0.22824411 -0.13176519 1.0190001
-0.21350427 -0.13131852 1.0190001
-0.20443468 -0.13426279 1.0179092
-0.19466011 -0.134775 1.0136002
-0.18704337 -0.1337989 1.0122944
-0.1554566 -0.13476835 1.016
-0.30506173 -0.12553193 1.013194
-0.29500121 -0.12563749 1.0124547
-0.28631693 -0.12645596 1.0100001
-0.27418864 -0.12561737 1.0124785
-0.26529625 -0.12552771 1.0155003
-0.25463176 -0.12558566 1.0149659
-0.24477556 -0.12532331 1.0138403
-0.23487999 -0.1249036 1.0151179
-0.22576439 -0.12435675 1.0190005
-0.2146955 -0.12488187 1.0168753
-0.20506455 -0.12522918 1.0118753
-0.19638911 -0.12714821 1.0100001
-0.185941 -0.12838784 1.01
-0.1533014 -0.12530068 1.0164286
-0.30104733 -0.1195335 1.01
-0.27137145 -0.1184121 1.0105001
-0.26448238 -0.11750316 1.0108001
-0.25457412 -0.11643096 1.0101202
-0.2452002 -0.11654846 1.0104288
-0.23519105 -0.1153802 1.0128335
-0.22499818 -0.11522391 1.017759
-0.21473928 -0.11506649 1.0128752
-0.2076682 -0.11680909 1.0100001
-0.1532914 -0.11521873 1.0153334
-0.23254678 -0.10840531 1.0115
-0.2251081 -0.10479517 1.0110648
-0.21624701 -0.10731196 1.0102501
-0.15440316 -0.10662709 1.0147144
-0.22861889 -0.096866407 1.01
-0.14180873 -0.085971184 1.011
-0.1396324 -0.083602875 1.0145
-0.12148452 -0.053206213 1.0115
-0.11776263 -0.0504697 1.01
-0.11126945 -0.035712477 1.0100001
-0.1064721 -0.034085624 1.0134739
-0.38259465 -0.021772673 1.0137501
-0.37896547 -0.022135833 1.01
-0.10610064 -0.025278229 1.0156088
-0.38113758 -0.017498558 1.015
-0.37686938 -0.01729225 1.0115
-0.10308511 -0.015532561 1.0122501
-0.3755458 -0.0047154156 1.0139
-0.36863542 -0.0014757222 1.01
-0.11067916 -0.00088543334 1.01
-0.10399206 -0.0047211302 1.0125202
-0.37498075 0.0037485394 1.0172001
-0.3651931 0.0051804227 1.0142275
-0.35831821 0.0083335936 1.0112
-0.11311417 0.0063924696 1.0109475
-0.1070566 0.0047880197 1.0148573
-0.36246273 0.01363179 1.0172857
-0.35797545 0.012897958 1.0145
-0.12240642 0.016701113 1.0133001
-0.11584107 0.013895079 1.0157001
-0.10803821 0.012500829 1.0185
-0.12525058 0.024459243 1.0125
-0.37141913 0.038299814 1.016
-0.36479855 0.039844498 1.01
-0.12189466 0.03512219 1.01
-0.1195335 0.037188202 1.01
-0.37118915 0.043096643 1.0170001
-0.36484483 0.045364771 1.0145602
-0.35647362 0.04664401 1.0115001
-0.12130436 0.046042532 1.01
-0.11864807 0.044271667 1.01
-0.36396661 0.052349672 1.0173845
-0.3547169 0.055267878 1.0151
-0.34555224 0.05726843 1.0112001
-0.33391911 0.056588635 1.0103335
-0.13015869 0.059324034 1.01
-0.12399177 0.057118803 1.0127145
-0.11897206 0.054987915 1.0138571
-0.35132709 0.062174369 1.018
-0.34476936 0.064115316 1.0148
-0.33608347 0.062689751 1.0103335
-0.15229453 0.069949232 1.01
-0.14559054 0.068684325 1.0100001
-0.13373968 0.06580843 1.0116502
-0.12733045 0.064411849 1.0175999
-0.15178908 0.074945487 1.0108573
-0.14450054 0.075240433 1.0152943
-0.13616545 0.072379306 1.0176876
-0.12953188 0.07057254 1.0190001
-0.34325933 0.087225914 1.0152501
-0.33503351 0.087066375 1.013375
-0.32548353 0.088745713 1.0108572
-0.14416541 0.084634051 1.0124644
-0.13970123 0.08809185 1.015
-0.35107607 0.090225659 1.0190001
-0.34482279 0.091714531 1.0190001
-0.3332096 0.091118976 1.0190001
-0.32492909 0.094608314 1.017
-0.31540561 0.095404126 1.0142858
-0.30586582 0.097121 1.01325
-0.29662016 0.098283097 1.01
-0.14377525 0.094916426 1.0143045
-0.31176984 0.10094553 1.0190001
-0.30519077 0.10200144 1.0181819
-0.29411674 0.10332509 1.0155264
-0.28510684 0.10396303 1.0148464
-0.27515048 0.10577572 1.0138574
-0.26490206 0.10756524 1.0140001
-0.25469416 0.10640106 1.0154448
-0.24542987 0.1065461 1.0155715
-0.23477396 0.10727201 1.0130001
-0.22502346 0.10652486 1.0125502
-0.21505915 0.10750647 1.0124707
-0.20510533 0.10744034 1.0128237
-0.19539794 0.10749166 1.0122
-0.18495305 0.10782084 1.0143125
-0.17441148 0.10576691 1.0144403
-0.1653055 0.10470022 1.0144402
-0.15480788 0.10599082 1.0146669
-0.14795855 0.10288122 1.01825
-0.27067697 0.11166541 1.0190001
-0.26472148 0.11196319 1.0190001
-0.25549048 0.11255873 1.0190001
-0.24427938 0.11320818 1.0188125
-0.23500088 0.11323053 1.0181428
-0.22511746 0.11166542 1.0190001
-0.21454236 0.11229432 1.018625
-0.20583574 0.11207099 1.018625
-0.19563781 0.11166541 1.0190001
-0.18670458 0.11166541 1.0190001
-0.17509137 0.11166541 1.0190001
-0.15677825 0.11211208 1.0190001
-0.27426925 -0.16161758 1.028
-0.26461011 -0.16242638 1.028
-0.25519028 -0.16382305 1.0270525
-0.2451686 -0.16254734 1.0244001
-0.23681884 -0.16259697 1.0271428
-0.22620454 -0.16131718 1.028
-0.21538998 -0.16131718 1.028
-0.2935985 -0.15264761 1.02575
-0.28423494 -0.15517454 1.026909
-0.27485073 -0.15549697 1.0252399
-0.26518506 -0.15552291 1.0254136
-0.25530937 -0.15522562 1.0247775
-0.24537417 -0.15518375 1.024464
-0.23558882 -0.15521109 1.0266551
-0.22530328 -0.15500872 1.028
-0.21514153 -0.15446384 1.0264999
-0.20730506 -0.1524612 1.0236669
-0.33074528 -0.14599657 1.028
-0.32894287 -0.14599657 1.028
-0.29348871 -0.14885625 1.0220002
-0.28541091 -0.14902692 1.0220002
-0.27595362 -0.1496242 1.0220001
-0.26390803 -0.14882779 1.0220002
-0.25534672 -0.14850427 1.0220002
-0.2442966 -0.14828028 1.0220002
-0.23424226 -0.14630097 1.0226817
-0.2246006 -0.14464633 1.0247998
-0.21443535 -0.14445467 1.0234399
-0.20535146 -0.14527592 1.022222
-0.19979759 -0.14693636 1.0220001
-0.15327673 -0.14438435 1.0256315
-0.14586844 -0.14310153 1.0266153
-0.13968806 -0.14149049 1.028
-0.30820793 -0.13708086 1.0220001
-0.23115595 -0.13708086 1.0220002
-0.22418159 -0.13584898 1.0225768
-0.21500544 -0.13581449 1.0222727
-0.20830914 -0.13752884 1.0220001
-0.15210763 -0.13565181 1.0222729
-0.14521046 -0.13492425 1.0249997
-0.13908726 -0.1348816 1.028
-0.22309239 -0.1283773 1.0220002
-0.21891125 -0.12931593 1.0220001
-0.15141611 -0.12991323 1.0220001
-0.14659902 -0.12524715 1.0245554
-0.15133706 -0.11155948 1.0235001
-0.14720519 -0.11620194 1.0251499
-0.15235697 -0.10679953 1.0256667
-0.10184003 -0.031955671 1.0220001
-0.10204865 -0.025106419 1.0229001
-0.099052027 -0.024445936 1.0253
-0.10103817 -0.016789334 1.0259999
-0.10124273 -0.0017919067 1.0220001
-0.38044047 0.0062861387 1.0235001
-0.37410125 0.008878083 1.0220002
-0.10355195 0.0057937307 1.0239092
-0.38078016 0.011647393 1.0220001
-0.37400422 0.012896239 1.0226926
-0.36752003 0.013080919 1.0220001
-0.1209537 0.01881502 1.0220001
-0.11316688 0.017755918 1.0229001
-0.10632914 0.015266975 1.0244001
-0.12184965 0.025086693 1.0220002
-0.11535838 0.024806583 1.0249088
-0.10810582 0.023423987 1.027625
-0.1215792 0.032749638 1.0235001
-0.11903893 0.034876682 1.0275713
-0.37291208 0.049422082 1.0250001
-0.37123823 0.056122154 1.027
-0.36565125 0.056988858 1.0253
-0.35927728 0.058236968 1.0220001
-0.3616358 0.060923368 1.0270001
-0.35489127 0.065731652 1.0252
-0.34954891 0.069190919 1.0250001
-0.12322333 0.066253208 1.024
-0.11874137 0.063546434 1.0250001
-0.3511728 0.071796663 1.028
-0.34876955 0.072998278 1.028
-0.13413122 0.077190936 1.0238333
-0.12702516 0.072511546 1.0262001
-0.35031775 0.088699378 1.0220001
-0.14066467 0.084219612 1.0220001
-0.13733603 0.083680384 1.0263637
-0.35129315 0.093526132 1.0238001
-0.34441525 0.095524408 1.0243683
-0.33580908 0.095021859 1.0240526
-0.32523105 0.099450819 1.0220001
-0.31985533 0.099450819 1.0220001
-0.14126197 0.098853521 1.0220001
-0.13877019 0.095213115 1.0256666
-0.34636632 0.10003468 1.028
-0.33435017 0.10039517 1.028
-0.3240245 0.10218227 1.0262858
-0.31505921 0.10472343 1.0258334
-0.30462024 0.10685042 1.0242002
-0.29637733 0.10811561 1.0226001
-0.17112708 0.10841035 1.0220001
-0.16843922 0.10841035 1.0220001
-0.14414909 0.10556621 1.0236363
-0.13788565 0.10243791 1.028
-0.30370891 0.11175045 1.028
-0.29458717 0.11263988 1.0267142
-0.28471726 0.11202733 1.0233127
-0.27588022 0.11308148 1.0244547
-0.26450983 0.11652566 1.0254617
-0.25514951 0.11769616 1.0248126
-0.24570046 0.11799276 1.0235002
-0.23481637 0.11758312 1.0238463
-0.22494803 0.11604632 1.0251764
-0.21561237 0.11642572 1.0254999
-0.20521003 0.11632293 1.0248234
-0.19506758 0.11533772 1.0248127
-0.18364646 0.11392144 1.0232002
-0.17526743 0.11475298 1.0235001
-0.16513829 0.11356233 1.0231999
-0.15368673 0.11405002 1.0243572
-0.14662722 0.11132296 1.026125
-0.25864822 0.1216638 1.028
-0.24345636 0.12217879 1.028
-0.23792031 0.1216638 1.028
-0.29103756 -0.16178796 1.031
-0.2843394 -0.16378035 1.0314001
-0.27584618 -0.16567682 1.0312001
-0.26522779 -0.16640761 1.031
-0.21873009 -0.16178796 1.031
-0.16106646 -0.16106646 1.0380001
-0.29284525 -0.15817259 1.031
-0.28697026 -0.15952834 1.031
-0.23409542 -0.15817258 1.031
-0.21782625 -0.15998027 1.031
-0.16107681 -0.1563663 1.0333999
-0.15579532 -0.15448056 1.0348638
-0.14550516 -0.15330677 1.0354707
-0.13688698 -0.15222666 1.0380001
-0.35094896 -0.14165355 1.0380001
-0.34463972 -0.14371617 1.0380001
-0.33589625 -0.14448096 1.0330001
-0.32990283 -0.14099956 1.031
-0.15410632 -0.1492788 1.0320001
-0.14350086 -0.14734843 1.0319376
-0.13506067 -0.14406593 1.0345602
-0.12962569 -0.14140984 1.034
-0.35170728 -0.13786197 1.0380001
-0.34579241 -0.13740696 1.0380001
-0.33597398 -0.1376234 1.0369002
-0.32990283 -0.13828804 1.031
-0.13417965 -0.13467266 1.031
-0.12620713 -0.1343711 1.0345002
-0.11920738 -0.13012713 1.0380001
-0.14099956 -0.12473037 1.031
-0.13484143 -0.12488423 1.0323002
-0.12617977 -0.12557881 1.0355188
-0.11875239 -0.12694222 1.0380001
-0.14269707 -0.11420529 1.0326318
-0.13486233 -0.11568642 1.0360743
-0.12770052 -0.11678077 1.0380001
-0.15161662 -0.10319106 1.0338572
-0.14641052 -0.10707328 1.0346317
-0.11283752 -0.10373772 1.0380001
-0.096342511 -0.023765732 1.0348001
-0.10091048 -0.012724817 1.0370001
-0.09808673 -0.018164534 1.036
-0.10100778 -0.0072798398 1.0380001
-0.10484582 0.017173024 1.031
-0.11177529 0.029224267 1.031
-0.10642689 0.025162701 1.0323001
-0.12021116 0.037057575 1.031
-0.11514283 0.034327477 1.0351765
-0.10737763 0.03002934 1.0380001
-0.1182974 0.040949099 1.0380001
-0.37365067 0.058949258 1.0345001
-0.37182239 0.063639864 1.0370001
-0.36540407 0.064905986 1.0336251
-0.35792196 0.069595933 1.031
-0.12021116 0.069595933 1.031
-0.11851832 0.067855753 1.0320001
-0.36381 0.071160436 1.0380001
-0.35643619 0.073465161 1.0345557
-0.12491629 0.07560496 1.0340668
-0.11920738 0.072798401 1.0380001
-0.13415459 0.086025693 1.0328948
-0.12839204 0.082806334 1.0354445
-0.35301304 0.098662257 1.0325
-0.1355394 0.094643548 1.0354738
-0.35246849 0.10195926 1.0353333
-0.34469265 0.1023225 1.0347
-0.33531669 0.1046435 1.0353572
-0.32524094 0.10690562 1.0334167
-0.31688747 0.10900351 1.031
-0.14009571 0.1084612 1.031
-0.13452376 0.10537581 1.0326502
-0.12926309 0.10750773 1.034
-0.32364953 0.11132088 1.0380001
-0.31396919 0.11321386 1.0343846
-0.30460715 0.1141661 1.0323573
-0.29826829 0.11659579 1.031
-0.28278753 0.1176548 1.0350001
-0.27453363 0.11771491 1.0320001
-0.26844147 0.11840348 1.031
-0.19251864 0.11840347 1.031
-0.18528788 0.11840348 1.031
-0.17016625 0.11920738 1.0380001
-0.16401204 0.11870208 1.0336001
-0.15512545 0.1184773 1.0348001
-0.14430197 0.11485658 1.0336251
-0.13525037 0.11160593 1.0374286
-0.12830718 0.1137475 1.0380001
-0.27427417 0.1214807 1.0374286
-0.26460946 0.12246564 1.0333638
-0.25433463 0.12341977 1.0344547
-0.24424569 0.12586612 1.03475
-0.23537517 0.12345614 1.0343572
-0.22447594 0.1218949 1.0334617
-0.215436 0.12176497 1.0335386
-0.204483 0.12245023 1.0336002
-0.19526224 0.12202156 1.0340668
-0.18571921 0.12049099 1.0333999
-0.17896098 0.12021116 1.031
-0.16561636 0.12102734 1.0380001
-0.14098027 -0.15742479 1.0419999
-0.13488376 -0.15240586 1.0410001
-0.12721486 -0.1510146 1.044
-0.3458792 -0.14327978 1.041
-0.13111164 -0.14814703 1.041
-0.12788256 -0.14585549 1.0439999
-0.35451174 -0.13328314 1.0413334
-0.34462786 -0.133637 1.0411252
-0.33768079 -0.13310692 1.04175
-0.12198553 -0.13293685 1.041
-0.36293101 -0.12479941 1.0467499
-0.35490328 -0.12489184 1.0440001
-0.34568465 -0.1264513 1.0442611
-0.33869404 -0.12941967 1.0470001
-0.12277929 -0.12199705 1.0418571
-0.11893281 -0.12223188 1.0452
-0.35347053 -0.11734084 1.0457143
-0.34500778 -0.11571561 1.0466667
-0.13374805 -0.11123702 1.041
-0.12404308 -0.11483184 1.0435557
-0.11759438 -0.11421137 1.0460769
-0.15058064 -0.10129971 1.041
-0.14307752 -0.10361508 1.0430527
-0.13482134 -0.10461754 1.0438004
-0.12481084 -0.1042651 1.044469
-0.11637942 -0.10397227 1.0445457
-0.15058064 -0.09947449 1.041
-0.14535694 -0.097208478 1.0461001
-0.13345729 -0.097568318 1.0466666
-0.12844001 -0.097246438 1.0465
-0.094686836 -0.022161959 1.0446
-0.095383584 -0.014979428 1.0442402
-0.089033388 -0.01376805 1.0470001
-0.10105972 -0.0022834975 1.04325
-0.09836486 -0.0054130182 1.0450908
-0.1020724 0.0038419042 1.0452
-0.11247642 0.037495125 1.0431001
-0.10774869 0.035700098 1.0440001
-0.11313156 0.041623957 1.0458
-0.37555638 0.066091634 1.0413001
-0.37183905 0.072847493 1.043
-0.36585692 0.076240368 1.044273
-0.35877407 0.077795401 1.044
-0.12240846 0.078517519 1.0431428
-0.1190647 0.076936051 1.04475
-0.12581514 0.084847867 1.0448182
-0.13173862 0.094672821 1.0429091
-0.12896074 0.092245936 1.0470001
-0.35272211 0.10735364 1.0443751
-0.34515029 0.1072243 1.0426154
-0.33492786 0.10860059 1.041
-0.13232845 0.10129971 1.041
-0.34403777 0.1119271 1.0465001
-0.33515716 0.1126378 1.0445626
-0.32490668 0.11486656 1.044
-0.31464121 0.11836081 1.043
-0.30447772 0.11917319 1.0430001
-0.29393026 0.11869102 1.0423332
-0.28686374 0.11894351 1.041
-0.1738956 0.11989644 1.044
-0.15149325 0.11955191 1.041
-0.1440357 0.11922654 1.0427144
-0.13498402 0.11537006 1.0435001
-0.32033664 0.12024097 1.0470001
-0.31666514 0.12115884 1.0470001
-0.30565071 0.12024097 1.0470001
-0.29361057 0.12223902 1.0461429
-0.2845476 0.12325876 1.0442728
-0.27583686 0.12663232 1.0441668
-0.26553571 0.12781072 1.043077
-0.2551313 0.12802498 1.0431
-0.24658421 0.12877072 1.04175
-0.23447657 0.127372 1.0427499
-0.22552496 0.12748836 1.0432
-0.21473065 0.12722042 1.0429286
-0.20525813 0.12828812 1.0452501
-0.19446845 0.12666968 1.045125
-0.18785378 0.12475856 1.0452857
-0.17453732 0.12226606 1.046
-0.16420323 0.12435873 1.0449375
-0.15575594 0.12432995 1.0447897
-0.14580019 0.12236806 1.046
-0.13859837 0.12024097 1.0470001
-0.27444315 0.1312554 1.0470001
-0.26572338 0.1312554 1.0470001
-0.25516787 0.1312554 1.0470001
-0.24410915 0.1313733 1.0455
-0.23553228 0.13146392 1.0465714
-0.22441922 0.1312554 1.0470001
-0.21459801 0.1312554 1.0470001
-0.12358019 -0.1503273 1.052
-0.12412532 -0.14624776 1.0516365
-0.37096149 -0.1205855 1.0500001
-0.36589873 -0.12150601 1.0500001
-0.34456775 -0.12289055 1.0518668
-0.37163547 -0.11587044 1.054
-0.36558381 -0.11530813 1.0522609
-0.35659394 -0.1135148 1.0502858
-0.34652644 -0.11456041 1.0500001
-0.33966449 -0.1187445 1.0500001
-0.37052667 -0.10749277 1.054
-0.36473289 -0.10563874 1.0551999
-0.35548717 -0.10629779 1.0536803
-0.3474265 -0.10995679 1.054
-0.37158129 -0.099150121 1.057
-0.36880141 -0.097760163 1.057
-0.35675511 -0.098223485 1.057
-0.1427975 -0.09345676 1.050889
-0.1357758 -0.093554355 1.0519999
-0.12442413 -0.094621547 1.0513331
-0.11514216 -0.095154323 1.052125
-0.1425623 -0.088568754 1.0546
-0.13401954 -0.085781775 1.0565383
-0.12616481 -0.085882105 1.0562501
-0.1162929 -0.089420438 1.057
-0.092970498 -0.023472749 1.0500001
-0.09297049 -0.011440501 1.0500001
-0.089288503 -0.0101255 1.0500001
-0.094240256 -0.0047567259 1.0531539
-0.089600302 -0.0064619095 1.0536667
-0.10186677 0.0052353069 1.0531667
-0.097295731 0.0042930366 1.0551819
-0.10324327 0.012023776 1.0546666
-0.1058575 0.038660999 1.0500001
-0.11340714 0.044722494 1.0517501
-0.1076985 0.042343002 1.0500001
-0.11582958 0.076910846 1.057
-0.37096149 0.080083497 1.0500001
-0.36625674 0.082947277 1.0500001
-0.1232638 0.08653482 1.0519167
-0.11751397 0.085097864 1.054
-0.13028494 0.098868713 1.054
-0.12769526 0.095390387 1.0530001
-0.3594386 0.10995679 1.054
-0.13118264 0.10107558 1.0513334
-0.35394672 0.11448511 1.053125
-0.34590045 0.11657731 1.0536667
-0.33499709 0.11809713 1.0533334
-0.32755071 0.11839734 1.0510001
-0.33451587 0.1213894 1.057
-0.32576406 0.12089175 1.0526667
-0.31424507 0.12367313 1.0527501
-0.30470145 0.12502651 1.0544375
-0.29575548 0.12664604 1.0531667
-0.28618169 0.12755017 1.0505
-0.19483916 0.1297905 1.0500001
-0.18367696 0.12684765 1.0528572
-0.17481206 0.1266879 1.0524616
-0.16476949 0.12887 1.0500001
-0.15310459 0.12824056 1.0505
-0.14481843 0.12614192 1.0536667
-0.13853218 0.12416931 1.057
-0.30115691 0.13065577 1.057
-0.2944214 0.13165596 1.0561001
-0.28506964 0.13302648 1.0547857
-0.27514726 0.13610673 1.0548183
-0.26495224 0.13617641 1.0538002
-0.25499532 0.13632154 1.0540438
-0.24525779 0.1367957 1.0534999
-0.23496218 0.13610069 1.0551876
-0.22474582 0.13596086 1.0550001
-0.21564229 0.13649069 1.0548002
-0.20475143 0.13519098 1.0542275
-0.19549742 0.13403761 1.0562501
-0.18541421 0.13248718 1.0559412
-0.17488579 0.13139698 1.0555
-0.16532326 0.1327852 1.0555
-0.15458716 0.13338362 1.0559092
-0.14826187 0.13065577 1.057
-0.26779801 0.14177541 1.057
-0.24617648 0.14177541 1.057
-0.23999889 0.14177541 1.057
-0.12117528 -0.14634044 1.0632501
-0.11835088 -0.14723969 1.0630001
-0.37263593 -0.10376811 1.0600001
-0.36566645 -0.10129007 1.0600001
-0.35590914 -0.10129007 1.0600001
-0.36550036 -0.095437124 1.06108
-0.3596262 -0.096643731 1.0600001
-0.11244126 -0.090138867 1.0600001
-0.1087242 -0.090138867 1.0600001
-0.14124854 -0.08270473 1.0600001
-0.13805892 -0.083142482 1.0616667
-0.12321483 -0.083263509 1.0616925
-0.11613083 -0.085065603 1.063
-0.10944219 -0.08231549 1.067
-0.13410118 -0.075426951 1.06225
-0.12557751 -0.075994447 1.0641537
-0.11692541 -0.07763847 1.067
-0.1094422 -0.077638477 1.067
-0.13233931 -0.069249131 1.0646001
-0.12884194 -0.069088347 1.0650001
-0.090843417 -0.0015496545 1.061
-0.088020846 -0.0023253583 1.0625
-0.092652321 0.0052465759 1.0635626
-0.088863313 0.00280621 1.067
-0.10167229 0.013997737 1.064
-0.09654586 0.012120857 1.0633572
-0.11462329 0.047526728 1.0630001
-0.11531126 0.08322788 1.06075
-0.12324689 0.095641978 1.0630625
-0.11818255 0.090732366 1.0615001
-0.13064466 0.10632417 1.067
-0.12643574 0.10245766 1.0638572
-0.35405061 0.1198754 1.0600001
-0.36013028 0.12627944 1.067
-0.35401833 0.12417828 1.0637692
-0.34459701 0.1243711 1.0628824
-0.33495793 0.12599339 1.0635625
-0.32553512 0.12601081 1.0635717
-0.31472132 0.1281509 1.0625715
-0.30572873 0.12916806 1.0600001
-0.14217781 0.12916806 1.0600001
-0.13480416 0.12429417 1.0625716
-0.33425081 0.13033287 1.067
-0.32538673 0.13055559 1.067
-0.31450436 0.13398746 1.0658001
-0.30472955 0.13559663 1.0629998
-0.29517663 0.13688192 1.0621538
-0.28661913 0.13772738 1.0615001
-0.19501324 0.13792972 1.0600001
-0.18478961 0.1374324 1.0611819
-0.17500491 0.1368414 1.0618334
-0.16457435 0.13760982 1.0606
-0.15514888 0.13783136 1.0623
-0.14661568 0.13335794 1.0637778
-0.13937509 0.13002107 1.067
-0.30587688 0.1412459 1.067
-0.29371664 0.1412459 1.067
-0.28436261 0.1417136 1.067
-0.27442959 0.14420474 1.0624547
-0.26466095 0.14398716 1.0633637
-0.25522026 0.14455643 1.0638001
-0.24505924 0.14578134 1.0633752
-0.2351529 0.14361888 1.0634284
-0.22574544 0.14325711 1.0626111
-0.21461283 0.14411567 1.0628334
-0.20603618 0.14341511 1.0622503
-0.195731 0.14098442 1.061
-0.18736587 0.14076053 1.0633334
-0.16450061 0.14155348 1.0652858
-0.15723117 0.14176401 1.0648571
-0.12311845 -0.14250489 1.0737001
-0.11778279 -0.14604606 1.0748181
-0.11204297 -0.084818088 1.0710001
-0.14062917 -0.078545384 1.0730001
-0.13976696 -0.074104629 1.0700001
-0.1235837 -0.071647041 1.0706667
-0.11432061 -0.073719963 1.0715652
-0.1097499 -0.074104629 1.0700001
-0.13038664 -0.066600367 1.0700001
-0.12497555 -0.065004684 1.0746956
-0.11497352 -0.065208308 1.0758964
-0.10857955 -0.063259393 1.077
-0.12620406 -0.058223814 1.077
-0.11141206 -0.059482709 1.077
-0.10763538 -0.059482709 1.077
-0.087745242 0.0051763877 1.0733751
-0.10224564 0.018760666 1.0700001
-0.09478426 0.016250361 1.0733333
-0.089585103 0.012261353 1.0756668
-0.10373019 0.025199087 1.075
-0.098385669 0.022318473 1.0756668
-0.10574704 0.033360671 1.077
-0.1210063 0.098493502 1.0700001
-0.11702918 0.094805837 1.0726364
-0.13038664 0.1097499 1.0700001
-0.12450314 0.10545681 1.0721333
-0.11976114 0.10404835 1.0756668
-0.1305085 0.11548593 1.0710001
-0.1284686 0.11447602 1.0741428
-0.36027405 0.12887087 1.0730001
-0.355075 0.12869072 1.0715001
-0.34801039 0.12851056 1.0700001
-0.13196823 0.12633711 1.0710001
-0.12896696 0.12520429 1.0738
-0.36027405 0.13075221 1.0730001
-0.35480157 0.13222641 1.0758001
-0.34416425 0.13338903 1.0739999
-0.3346633 0.13538091 1.0712105
-0.32491577 0.13549688 1.0708333
-0.31705528 0.13835992 1.0700001
-0.15102337 0.13976696 1.0700001
-0.14376621 0.1362533 1.0718666
-0.13602604 0.13280304 1.0743572
-0.3210178 0.14068133 1.077
-0.31193179 0.14328788 1.07175
-0.30426359 0.14460784 1.0734166
-0.29474232 0.14523873 1.0741538
-0.2853103 0.1455722 1.0722001
-0.27437475 0.14774024 1.0700001
-0.26524866 0.14825298 1.0712857
-0.25514507 0.14914729 1.0700001
-0.24141252 0.14841835 1.0715001
-0.23544636 0.1491473 1.0700001
-0.22465897 0.14867829 1.0700001
-0.21480963 0.1491473 1.0700001
-0.2037646 0.14850093 1.0720999
-0.19469941 0.14648615 1.0714285
-0.18488348 0.14559348 1.0720952
-0.17550428 0.1445335 1.0723683
-0.16557635 0.1461798 1.0736153
-0.15445454 0.14466289 1.0743001
-0.14664793 0.14099592 1.0752858
-0.274124 0.15012303 1.077
-0.26483971 0.15153928 1.077
-0.25527853 0.1525078 1.0755
-0.24452905 0.151738 1.0728334
-0.23473436 0.15289363 1.0739999
-0.22537571 0.15266243 1.0756667
-0.21510617 0.15220118 1.075
-0.2047313 0.15189846 1.0762001
-0.1982757 0.15201136 1.077
-0.18505731 0.15012303 1.077
-0.1202436 -0.1410732 1.08
-0.11471951 -0.14441331 1.0837499
-0.10958771 -0.14579931 1.087
-0.12180757 -0.13893545 1.0855
-0.11800108 -0.13893545 1.0855
-0.11835 -0.061542001 1.08
-0.12228734 -0.056108363 1.0824666
-0.1152311 -0.054790948 1.0843928
-0.10803629 -0.054865044 1.0829
-0.11562297 -0.04828212 1.087
-0.10958771 -0.048599768 1.087
-0.085499249 0.0066521466 1.0836667
-0.091691732 0.018022513 1.082
-0.088078871 0.012749013 1.085
-0.10193881 0.028719602 1.08
-0.09602683 0.024839748 1.0845624
-0.10253377 0.032595634 1.0830001
-0.098152474 0.031446911 1.087
-0.11659783 0.098903202 1.0813334
-0.12197173 0.10773905 1.0827501
-0.11757529 0.10406989 1.0850999
-0.12613969 0.11473339 1.0845833
-0.12779623 0.12367912 1.0825
-0.36229128 0.13531595 1.0824001
-0.35502517 0.136952 1.0823332
-0.34737447 0.13800311 1.0806667
-0.13404387 0.13740489 1.0820769
-0.12839189 0.13315131 1.084875
-0.35315835 0.14236875 1.087
-0.34566846 0.14276946 1.0848889
-0.33530667 0.14221385 1.0829
-0.32617906 0.14257109 1.082375
-0.31491095 0.14608246 1.082
-0.3039228 0.14864761 1.08
-0.29729521 0.14864761 1.08
-0.17231759 0.14864761 1.08
-0.16000921 0.14864761 1.08
-0.15350032 0.14834628 1.0837142
-0.14514093 0.14538366 1.0838749
-0.13579296 0.14245871 1.08575
-0.30356601 0.15226078 1.0855001
-0.29472959 0.15174271 1.0825555
-0.28442651 0.15351623 1.0838888
-0.27482462 0.15599707 1.0839472
-0.26569158 0.15628521 1.0828749
-0.25548792 0.1569166 1.0827693
-0.24565107 0.15683512 1.0824666
-0.23514789 0.15785883 1.084
-0.2246681 0.15741117 1.0841539
-0.21469648 0.15695003 1.0840001
-0.20513186 0.15579849 1.0822999
-0.19499193 0.15490735 1.0823749
-0.18512005 0.15333481 1.0839092
-0.17384632 0.15295298 1.0836428
-0.16486076 0.15365461 1.0838999
-0.15710981 0.15248652 1.0861429
-0.26269284 0.1610463 1.087
-0.25443411 0.1610463 1.087
-0.24776354 0.1610463 1.087
-0.11196401 -0.14182118 1.0916001
-0.10989016 -0.143335 1.09
-0.12135696 -0.13664603 1.09
-0.11600842 -0.13806449 1.0936667
-0.1135257 -0.045170248 1.0905001
-0.10989016 -0.045867201 1.09
-0.083668187 0.0086553302 1.097
-0.086665846 0.014605377 1.092375
-0.093129583 0.027044846 1.091091
-0.088566273 0.022383785 1.0941668
-0.10217087 0.035974268 1.0921429
-0.09773992 0.033989064 1.0951999
-0.11275686 0.097467802 1.09
-0.10989016 0.094601102 1.09
-0.11469543 0.10375988 1.0915716
-0.12276497 0.11650414 1.0917274
-0.11901376 0.11325613 1.0948334
-0.12501128 0.12460189 1.0921429
-0.12612814 0.13550813 1.0916001
-0.36285338 0.14256915 1.0944002
-0.35571998 0.14435019 1.0904446
-0.34483221 0.14736415 1.0934545
-0.33456931 0.1472116 1.0904001
-0.3248893 0.14726806 1.0914546
-0.3183428 0.14783815 1.0926667
-0.14142387 0.14811283 1.09
-0.13432734 0.1464022 1.0929
-0.12815025 0.14198509 1.0958
-0.34309468 0.15136504 1.0962501
-0.33558139 0.15262596 1.0959285
-0.32585388 0.15196146 1.0964546
-0.31438494 0.1529834 1.0944445
-0.30526984 0.1569501 1.0934545
-0.29520658 0.15679963 1.0913334
-0.28635147 0.15830554 1.09
-0.21118023 0.15957963 1.09
-0.20608388 0.15957963 1.09
-0.19684675 0.15957963 1.09
-0.18422294 0.15701196 1.0913334
-0.17596579 0.15764345 1.0917145
-0.16445507 0.15903902 1.0906668
-0.15403889 0.15536979 1.0934615
-0.14601535 0.15241659 1.0945834
-0.13848528 0.15098742 1.097
-0.30293655 0.16060446 1.097
-0.2942104 0.16157539 1.0963334
-0.28555048 0.16298485 1.0953636
-0.27482578 0.16279115 1.0923001
-0.26614073 0.16341266 1.0937144
-0.25492036 0.16451363 1.0945555
-0.24436493 0.16459231 1.0931251
-0.23585892 0.16445599 1.0941666
-0.22448096 0.16369829 1.0939231
-0.21494484 0.16318563 1.0934615
-0.20506914 0.1621341 1.0965
-0.19359283 0.16095279 1.095
-0.186891 0.16060446 1.097
-0.17695341 0.16060446 1.097
-0.16349848 0.16185209 1.0961429
-0.15868105 0.16060446 1.097
-0.10655883 -0.14046392 1.105
-0.12087042 -0.13537312 1.103
-0.11540771 -0.13630006 1.1049284
-0.10532077 -0.13832289 1.10725
-0.082178816 0.0055466695 1.1051818
-0.082883626 0.014642689 1.1041874
-0.090892799 0.029007146 1.103
-0.086184308 0.023487391 1.1071001
-0.10352995 0.039669458 1.1036667
-0.094957516 0.03561135 1.1053123
-0.11345811 0.10648949 1.1042999
-0.10976217 0.10296275 1.108
-0.11676165 0.11482596 1.1044
-0.1222826 0.12532413 1.1032857
-0.11861417 0.12184674 1.1060001
-0.12448009 0.13222982 1.105
-0.35230166 0.14960755 1.1010001
-0.13186951 0.14829387 1.102
-0.12668775 0.14582649 1.1052501
-0.36036962 0.15055872 1.108
-0.35402247 0.1527641 1.106375
-0.34583831 0.15549384 1.1044
-0.33404267 0.15795107 1.1023333
-0.32515213 0.15661936 1.1023332
-0.31653628 0.15802881 1.1025
-0.15346839 0.15925965 1.1010001
-0.14450024 0.15714701 1.102846
-0.13554482 0.15414816 1.1049331
-0.12842494 0.15107042 1.107
-0.34288538 0.1602722 1.108
-0.33535743 0.16197205 1.1079999
-0.32467264 0.16148637 1.1079999
-0.31508157 0.16271518 1.107
-0.30497393 0.16451964 1.1043845
-0.2952944 0.1668696 1.1037272
-0.28522691 0.16823801 1.1028999
-0.2753273 0.16850783 1.1040908
-0.26508927 0.16834542 1.1035999
-0.25671956 0.16867739 1.1036667
-0.24835938 0.1691163 1.1023334
-0.23222952 0.16813959 1.1010001
-0.22607443 0.16862321 1.1027143
-0.2146657 0.16868852 1.1052727
-0.20488419 0.16712226 1.1046427
-0.1950596 0.16479866 1.104
-0.18454501 0.16399872 1.1056
-0.17518203 0.16453472 1.1039999
-0.16583359 0.16583043 1.1062
-0.15666452 0.16311951 1.103889
-0.14473066 0.1602722 1.108
-0.29237536 0.17192836 1.108
-0.28266189 0.17192836 1.108
-0.27440545 0.17192836 1.108
-0.26517764 0.17192836 1.108
-0.25546417 0.17192836 1.108
-0.24327238 0.17166519 1.1038001
-0.23543648 0.17259894 1.1043636
-0.22340973 0.17192836 1.108
-0.21272492 0.17192836 1.108
-0.1214911 -0.13166253 1.1158001
-0.11342744 -0.13317809 1.1148946
-0.10513008 -0.13375549 1.1168094
-0.098425992 -0.13308765 1.1190001
-0.12115227 -0.12703821 1.1190001
-0.11509398 -0.12721938 1.1186365
-0.1074184 -0.1280192 1.1190001
-0.080912828 0.018522214 1.1120001
-0.083912387 0.025512559 1.1144445
-0.091625541 0.03587101 1.1158334
-0.08771883 0.030874008 1.118
-0.11148 0.10659346 1.1155001
-0.1082359 0.10627392 1.1190001
-0.11459899 0.11543883 1.1172857
-0.12104356 0.12787804 1.1135001
-0.11691985 0.1244018 1.1173638
-0.12321063 0.13451982 1.1164445
-0.1246139 0.14489119 1.1148751
-0.36167058 0.15305197 1.1120001
-0.35678932 0.15712287 1.1131999
-0.34997234 0.1589011 1.1120001
-0.13237305 0.15753184 1.114375
-0.12433091 0.15357442 1.1167334
-0.35413742 0.16251734 1.1190001
-0.34491634 0.16471691 1.1145716
-0.334562 0.16725273 1.1139336
-0.32543457 0.16681792 1.1147692
-0.31582698 0.16746707 1.1147274
-0.30847052 0.16887712 1.1135001
-0.1933459 0.16832466 1.1120001
-0.18498178 0.16840051 1.1125001
-0.1745908 0.16874063 1.1126001
-0.16501793 0.16892263 1.1138
-0.1545309 0.16661903 1.115
-0.14525446 0.16310734 1.1157501
-0.13723813 0.16190858 1.1166
-0.31097382 0.17167325 1.1190001
-0.30423412 0.17217481 1.115875
-0.29629213 0.17441969 1.1166669
-0.28495428 0.17459004 1.1141251
-0.27454004 0.17618829 1.1150771
-0.26467893 0.17677827 1.1140667
-0.25472471 0.17654096 1.114875
-0.2459127 0.17559493 1.1140001
-0.23302701 0.17606623 1.1148572
-0.2254443 0.1758261 1.1159091
-0.2153791 0.17501785 1.1152856
-0.20565341 0.17329387 1.1156365
-0.19533089 0.17204383 1.1163001
-0.18507573 0.17234741 1.1170001
-0.17575267 0.1722725 1.1172223
-0.16566877 0.17155051 1.1182001
-0.15990137 0.17167325 1.1190001
-0.26486728 0.18148315 1.1190001
-0.10337215 -0.13093805 1.123
-0.097465165 -0.13093805 1.123
-0.12109309 -0.12306208 1.123
-0.11491951 -0.12411983 1.1246667
-0.10550998 -0.12661083 1.1248001
-0.098712668 -0.12931359 1.126
-0.12141658 -0.11944233 1.126
-0.086750992 0.034339763 1.1245002
-0.092667609 0.040418278 1.1245
-0.11124812 0.10927913 1.123
-0.10829464 0.10927913 1.123
-0.11238209 0.11534084 1.1245
-0.10893285 0.11287741 1.1245
-0.11632446 0.12716708 1.1245
-0.12158534 0.13586053 1.123
-0.11879096 0.1330872 1.1245
-0.12279873 0.1440849 1.1242001
-0.12404658 0.15653497 1.123
-0.1191241 0.15456598 1.123
-0.35496563 0.1662899 1.1242858
-0.3494963 0.16834892 1.123
-0.15161249 0.16834892 1.123
-0.14530693 0.1670053 1.1250001
-0.13544618 0.16437645 1.125
-0.35042995 0.17077291 1.126
-0.34439588 0.17226863 1.1247143
-0.33445865 0.17304996 1.1253999
-0.32480705 0.17293969 1.1249092
-0.31450495 0.17481191 1.1246154
-0.30550134 0.17738728 1.124125
-0.29337999 0.1781939 1.123
-0.28648853 0.17819388 1.123
-0.24612418 0.1781939 1.123
-0.21363577 0.1781939 1.123
-0.20430717 0.17769289 1.1245
-0.19470577 0.17628907 1.1255
-0.1838544 0.17694624 1.1255001
-0.17411278 0.17707242 1.1252502
-0.16515939 0.1760077 1.12475
-0.15485978 0.17332114 1.1251429
-0.14905612 0.17077291 1.126
-0.30146435 0.18114184 1.125
-0.29531908 0.18113948 1.1255715
-0.28497663 0.18143877 1.1248001
-0.27489311 0.18247633 1.1239002
-0.26476285 0.18418254 1.1255
-0.25555712 0.18205912 1.1242857
-0.24628811 0.18064418 1.126
-0.23520517 0.18130772 1.1246667
-0.22548185 0.18132436 1.125625
-0.21606345 0.18054791 1.1253999
-0.20828372 0.18064418 1.126
-0.17472142 0.18064418 1.126
-0.11630536 -0.12140305 1.1311429
-0.10396459 -0.12291024 1.1315999
-0.096540526 -0.12436427 1.1337334
-0.12068018 -0.11670712 1.133
-0.11456843 -0.11505999 1.1350003
-0.10595608 -0.11592008 1.1366668
-0.095774077 -0.11871995 1.138
-0.11472937 -0.10874349 1.138
-0.083328925 0.035513766 1.1316
-0.087484315 0.040759739 1.1340001
-0.11194157 0.11788537 1.13
-0.10828201 0.11702903 1.1332
-0.11233404 0.12426749 1.1340001
-0.10824466 0.12221172 1.138
-0.1218479 0.1396793 1.13
-0.11657435 0.13513491 1.1340001
-0.12161865 0.1461938 1.1325001
-0.11819445 0.142946 1.1357143
-0.35726094 0.16969812 1.132
-0.143399 0.1692028 1.132
-0.13519779 0.16750994 1.1340001
-0.12684196 0.16195072 1.1333333
-0.36114812 0.17259288 1.138
-0.35320494 0.17528248 1.136
-0.34512788 0.17714663 1.1352
-0.3351377 0.17790483 1.1325455
-0.3262645 0.17810817 1.1312001
-0.31836733 0.17852557 1.1313334
-0.20307983 0.17930463 1.13
-0.19515479 0.17930463 1.13
-0.18623906 0.17930463 1.13
-0.16345449 0.17930464 1.13
-0.15415163 0.17851116 1.1318183
-0.14628504 0.17397396 1.1340001
-0.13867289 0.17259288 1.138
-0.34164178 0.18265831 1.1370001
-0.33449665 0.18313943 1.138
-0.3236255 0.18295608 1.1368572
-0.31536797 0.18291359 1.136
-0.30481231 0.18348457 1.1313334
-0.29533672 0.18538027 1.132
-0.28418049 0.1862859 1.1328572
-0.27587533 0.18745178 1.1333333
-0.26487222 0.18749478 1.1316
-0.2548461 0.18629427 1.1333333
-0.24529704 0.18538098 1.1315999
-0.23591363 0.18651403 1.1346667
-0.22496976 0.18565388 1.1355
-0.214127 0.18450502 1.1348889
-0.20441908 0.18415561 1.1354545
-0.19678468 0.18384263 1.136
-0.18507047 0.18283626 1.1350001
-0.17494039 0.18311286 1.1331111
-0.16581973 0.18272436 1.1339999
-0.15707412 0.18192762 1.1340001
-0.27435285 0.19055051 1.138
-0.26437637 0.19055051 1.138
-0.25839049 0.19055051 1.138
-0.24442343 0.19055051 1.138
-0.23444697 0.19055051 1.138
-0.10182817 -0.11263116 1.141
-0.094954111 -0.11404006 1.1426843
-0.089440756 -0.11355726 1.1463333
-0.11292563 -0.10639578 1.1450001
-0.10543633 -0.10568111 1.1463335
-0.095597871 -0.10565927 1.1478802
-0.089313053 -0.10542969 1.149
-0.095692545 -0.099721707 1.149
-0.11270304 0.065896586 1.1458001
-0.10969905 0.064409576 1.148
-0.10435127 0.11612489 1.146143
-0.10475264 0.12700032 1.1458571
-0.099721707 0.12994041 1.149
-0.11110856 0.13513483 1.1418
-0.10707368 0.13466622 1.1458001
-0.099721707 0.13195498 1.149
-0.11349224 0.14558937 1.1440001
-0.10848773 0.14322519 1.1485001
-0.11764516 0.15309428 1.1470001
-0.13103624 0.16804647 1.141
-0.12502311 0.16697782 1.1442728
-0.11889476 0.16637573 1.1474001
-0.36273661 0.17535526 1.1430001
-0.35872498 0.17535526 1.1430001
-0.1427884 0.1773593 1.1430001
-0.13510256 0.17612696 1.1447502
-0.12743244 0.17172375 1.1482
-0.33399436 0.18695331 1.1421429
-0.32516858 0.18685487 1.1432858
-0.31403133 0.18714993 1.1456667
-0.30923802 0.18836322 1.149
-0.29208079 0.18905228 1.141
-0.28807968 0.18905228 1.141
-0.22506225 0.18905228 1.141
-0.21577339 0.18905024 1.143
-0.20625706 0.18865217 1.141
-0.19409546 0.18763988 1.1432223
-0.18599248 0.18742745 1.1432858
-0.1760053 0.18804543 1.1440001
-0.16558939 0.18786293 1.1432223
-0.15529561 0.18512632 1.1450001
-0.14352699 0.1806775 1.145
-0.32535467 0.1903778 1.149
-0.29291207 0.19239345 1.1466
-0.28484836 0.19306508 1.1463333
-0.27406722 0.19359025 1.1418002
-0.26508752 0.19480513 1.1454
-0.25495103 0.1937955 1.1453638
-0.24529141 0.1944728 1.1441112
-0.23465642 0.1954169 1.143667
-0.22498113 0.19413862 1.1474
-0.21533458 0.19319876 1.1478002
-0.20556909 0.19284125 1.1463333
-0.19708169 0.19205751 1.1470001
-0.1813122 0.1903778 1.149
-0.16620284 0.19138509 1.149
-0.23287773 0.20176046 1.1450001
-0.11416996 -0.10179551 1.1547778
-0.10580437 -0.10054262 1.1537999
-0.088013828 -0.10066106 1.154
-0.11258767 -0.09838742 1.1570001
-0.10351051 -0.096584119 1.1556667
-0.094634503 -0.094969496 1.1552221
-0.087836519 -0.096444078 1.155
-0.11055906 0.059843898 1.1570001
-0.10853045 0.057815291 1.1570001
-0.11017684 0.069744967 1.153
-0.10787968 0.065401666 1.1536666
-0.11316422 0.075500421 1.156
-0.10853045 0.073029846 1.1570001
-0.11421275 0.085258715 1.1558571
-0.11323027 0.094134569 1.1566666
-0.10853045 0.0912873 1.1570001
-0.11055907 0.10312083 1.1570001
-0.10751615 0.10582564 1.1570001
-0.1052149 0.11128319 1.154
-0.10074273 0.12702344 1.153
-0.10186585 0.13623291 1.153
-0.096865967 0.13845241 1.1570001
-0.10525133 0.14397661 1.1556666
-0.097373113 0.14098816 1.1570001
-0.1130445 0.15354106 1.1547778
-0.10853045 0.1511312 1.1570001
-0.13219239 0.17835066 1.1546
-0.12506555 0.1739222 1.1556666
-0.31637937 0.18901898 1.153
-0.15592918 0.18833254 1.155
-0.14441462 0.18241768 1.156
-0.33646029 0.19153765 1.156
-0.32491598 0.1917114 1.1545999
-0.31384352 0.19247805 1.1564286
-0.30553913 0.19263807 1.155
-0.29414475 0.19688736 1.1556667
-0.2846497 0.19854704 1.1554999
-0.27525231 0.19800949 1.1543332
-0.26583952 0.19912694 1.153
-0.25598204 0.19874673 1.154143
-0.24705869 0.19947235 1.155
-0.23227546 0.19981776 1.1570001
-0.22562473 0.1996796 1.1562001
-0.21559425 0.19737886 1.1545999
-0.20996079 0.19778915 1.1570001
-0.19424237 0.19525492 1.1554999
-0.18692407 0.19373673 1.1548181
-0.17648877 0.19221048 1.1570001
-0.16359827 0.19348252 1.1554999
-0.15924563 0.19170333 1.1570001
-0.27081898 0.20184636 1.1570001
-0.26431361 0.20261608 1.1564286
-0.25842202 0.20217904 1.156
-0.23430407 0.20184636 1.1570001
-0.11397326 -0.09399008 1.1628668
-0.10570341 -0.092536688 1.1619233
-0.094656326 -0.09058509 1.161
-0.085932247 -0.091457501 1.1610001
-0.11314742 -0.088570952 1.1680001
-0.1043549 -0.086665638 1.1669999
-0.094944999 -0.084728181 1.1645201
-0.084841318 -0.084498547 1.1636668
-0.078641385 -0.080684014 1.1650001
-0.10145751 -0.078911394 1.169
-0.094430149 -0.078325786 1.169
-0.084498867 -0.077093996 1.1677692
-0.078911394 -0.076861747 1.169
-0.10621343 0.056172416 1.165
-0.10602164 0.064291514 1.1641111
-0.11094129 0.076335751 1.161
-0.10500691 0.075361185 1.164158
-0.099407859 0.076861747 1.169
-0.11272246 0.083969325 1.1610001
-0.1050747 0.084676154 1.1637201
-0.09906625 0.084718734 1.169
-0.11467326 0.096352689 1.1610001
-0.1057715 0.095233075 1.1638892
-0.11094129 0.10483443 1.161
-0.10631191 0.10404777 1.1623334
-0.10315298 0.11472791 1.1650001
-0.10315298 0.12357931 1.1650001
-0.09847378 0.13469544 1.164
-0.10320593 0.14656463 1.1610001
-0.097821973 0.14571398 1.1623334
-0.11467326 0.15809982 1.1610001
-0.10519094 0.15444696 1.1650002
-0.099067718 0.15013355 1.1650001
-0.11533586 0.16270015 1.166
-0.10863127 0.16192208 1.169
-0.12339447 0.17730319 1.1632856
-0.11924964 0.17529775 1.1666001
-0.15165369 0.18829484 1.161
-0.14521869 0.18732513 1.1646923
-0.13634884 0.18396354 1.1636666
-0.12609459 0.18162468 1.1667143
-0.34009844 0.19813544 1.1650001
-0.33453283 0.19682044 1.1647501
-0.32435703 0.1973252 1.1671537
-0.31477407 0.19757098 1.1636668
-0.30547813 0.19802332 1.1636667
-0.29771423 0.19881484 1.1630001
-0.20447432 0.19836162 1.1623335
-0.19557688 0.19915675 1.1650001
-0.18326424 0.19689 1.1656667
-0.17480159 0.19681585 1.1645557
-0.16463341 0.19794734 1.1632223
-0.15539958 0.19396791 1.1652501
-0.14859939 0.19164196 1.169
-0.33405933 0.20248611 1.168
-0.32486898 0.2018902 1.169
-0.31478295 0.20245826 1.1683334
-0.30368933 0.20223181 1.169
-0.29402587 0.20471814 1.1638236
-0.28506958 0.20581046 1.1641113
-0.27578056 0.20505206 1.1636668
-0.26598766 0.20593689 1.1610001
-0.25589734 0.20528777 1.1650002
-0.24513401 0.20430163 1.1645557
-0.23353536 0.20585899 1.1632859
-0.22591031 0.20488951 1.16275
-0.21519901 0.20178401 1.1650001
-0.20584571 0.20175204 1.1682
-0.19779091 0.20189019 1.169
-0.28346613 0.21131857 1.169
-0.27655593 0.2109672 1.169
-0.26645404 0.21008877 1.169
-0.22238666 0.21008877 1.169
-0.11346272 -0.084281854 1.1757693
-0.10631227 -0.083142415 1.1745001
-0.1117823 -0.07807564 1.177
-0.10401801 -0.076170437 1.1764287
-0.095395423 -0.07396502 1.1751333
-0.085941248 -0.072558336 1.1740001
-0.077167407 -0.072023429 1.1736668
-0.093381219 -0.068617135 1.177
-0.084865347 -0.067035817 1.1764287
-0.07669986 -0.064661756 1.177
-0.10199275 0.055355202 1.1751819
-0.099748008 0.052444831 1.1730001
-0.10210123 0.066151388 1.1764287
-0.10197649 0.071589917 1.1750001
-0.097382762 0.07625816 1.1755002
-0.096568994 0.08472392 1.1750001
-0.10136383 0.094891027 1.1747144
-0.10264374 0.10447656 1.1747779
-0.10206328 0.11392152 1.1760001
-0.09802448 0.11659754 1.177
-0.10129094 0.12439705 1.1766001
-0.09802448 0.12416434 1.177
-0.097545125 0.13507733 1.1762002
-0.10260594 0.15888678 1.1743335
-0.099748008 0.15322118 1.1730001
-0.12031461 0.16761778 1.1730001
-0.11427204 0.16780832 1.1743335
-0.10588489 0.16462682 1.1755002
-0.11596141 0.17389551 1.1762729
-0.13517061 0.18779427 1.177
-0.12478151 0.18528204 1.1763334
-0.32700893 0.19846769 1.1730001
-0.15291294 0.19778039 1.1738001
-0.14611527 0.19434141 1.1754001
-0.13929795 0.19088978 1.177
-0.33009392 0.20463766 1.1730001
-0.32495227 0.20463766 1.1730001
-0.3144756 0.20450544 1.1746
-0.30541402 0.20592308 1.1730002
-0.26105466 0.20946284 1.177
-0.25296918 0.20669433 1.1730001
-0.24527924 0.20862441 1.1746
-0.23835427 0.20946284 1.177
-0.22282192 0.20841478 1.174
-0.21632674 0.20647866 1.1756667
-0.20544185 0.20509791 1.1736668
-0.19391276 0.20421535 1.1750002
-0.18590379 0.20238915 1.1752857
-0.17604196 0.20178294 1.1743335
-0.16593517 0.20338549 1.1756668
-0.15487456 0.20148411 1.1762002
-0.26105466 0.21359019 1.177
-0.25532755 0.21260306 1.1764287
-0.24495801 0.21193925 1.177
-0.22184488 0.21152651 1.177
-0.11699379 -0.081792124 1.1810001
-0.11456665 -0.074702591 1.1822308
-0.10612268 -0.072732866 1.1810001
-0.11264554 -0.067216069 1.1836667
-0.10490467 -0.067018442 1.1847647
-0.094761014 -0.064696297 1.1847646
-0.085711919 -0.062405299 1.1815001
-0.090685032 -0.059414331 1.189
-0.084140465 -0.056337733 1.1870002
-0.075657852 -0.055155251 1.1851816
-0.069602951 -0.051942497 1.1850001
-0.074007325 -0.048990767 1.189
-0.096878216 0.054549374 1.1843846
-0.10249899 0.064191289 1.1810001
-0.095818497 0.065920763 1.1852221
-0.094104968 0.074823014 1.1816154
-0.095411137 0.085036665 1.1830001
-0.10042831 0.09732227 1.1810001
-0.09769091 0.095354378 1.1855
-0.10042831 0.10560502 1.1810001
-0.096718028 0.10504378 1.1863333
-0.10167072 0.11616552 1.1810001
-0.096357822 0.11507215 1.1855716
-0.097046621 0.12558289 1.1867143
-0.10042831 0.13148861 1.1810001
-0.095762879 0.1354903 1.185889
-0.10076845 0.15790871 1.1850001
-0.099023886 0.15426879 1.189
-0.10266819 0.16606189 1.1854
-0.095180579 0.16779858 1.1872224
-0.11304178 0.17423049 1.1830001
-0.10748652 0.17235845 1.1858001
-0.092457652 0.17141025 1.1850001
-0.13459465 0.18946783 1.1810001
-0.12196215 0.18691848 1.1823335
-0.11890727 0.18269821 1.1863333
-0.14404055 0.19780387 1.1838
-0.13681962 0.19279246 1.1823335
-0.12777855 0.19010955 1.1850001
-0.21711965 0.20880885 1.1850001
-0.20499799 0.20810401 1.1810001
-0.19485962 0.20833896 1.1823335
-0.18400572 0.20723754 1.1846365
-0.17582163 0.20633341 1.1827145
-0.16506563 0.20659439 1.1842
-0.15513231 0.20441908 1.1876668
-0.14528689 0.20256917 1.1880001
-0.26297718 0.21224537 1.1810001
-0.25494781 0.21262996 1.1870002
-0.24589404 0.2137984 1.1810001
-0.22439159 0.21296425 1.1850001
-0.2167027 0.21130209 1.1850001
-0.20453656 0.21182722 1.1883334
-0.19472186 0.21242721 1.1878002
-0.18866655 0.21264076 1.189
-0.11190738 -0.061705936 1.1930001
-0.10567736 -0.06251619 1.1934999
-0.098311156 -0.061705936 1.1930001
-0.10336294 -0.059289403 1.197
-0.094885096 -0.056177862 1.194895
-0.086582437 -0.052576113 1.1934999
-0.083181925 -0.046831246 1.1960001
-0.074787378 -0.044093791 1.1948003
-0.068209052 -0.040925428 1.197
-0.07339716 -0.038794253 1.1960001
-0.068209052 -0.038826689 1.197
-0.092884094 0.057312276 1.1934444
-0.089196451 0.057715345 1.197
-0.092087992 0.063832141 1.1936666
-0.088898383 0.06379766 1.1930001
-0.093393929 0.084998965 1.197
-0.095109783 0.095895931 1.1955
-0.092189208 0.10580648 1.1950002
-0.091886573 0.11459674 1.193
-0.089196451 0.11438133 1.197
-0.093041889 0.12445937 1.1944286
-0.086677961 0.12361578 1.197
-0.093637347 0.13277291 1.1956667
-0.089196451 0.13117126 1.197
-0.098474212 0.15399264 1.1950001
-0.09561757 0.16505535 1.1945385
-0.1131426 0.17809659 1.1950001
-0.10426938 0.17511807 1.1948181
-0.097540386 0.17456922 1.1938
-0.12067755 0.18783723 1.197
-0.1170499 0.18343753 1.1956667
-0.13671136 0.19747487 1.1950001
-0.12445774 0.19139299 1.1930001
-0.16106296 0.2081268 1.1930001
-0.15391023 0.2073112 1.1943333
-0.14497218 0.20359138 1.194
-0.13851684 0.20042966 1.197
-0.22733106 0.21738134 1.1950001
