# .PCD v0.7 - Point Cloud Data file format
VERSION 0.7
FIELDS x y z
SIZE 4 4 4
TYPE F F F
COUNT 1 1 1
WIDTH 1436
HEIGHT 1
VIEWPOINT 0 0 0 1 0 0 0
POINTS 1436
DATA ascii
-0.072362773 -0.12497394 1.0545455
-0.065019116 -0.12461568 1.0511854
-0.055451035 -0.12412466 1.0535219
-0.045468573 -0.12477008 1.054875
-0.037337083 -0.12389871 1.0560001
-0.07453344 -0.11499152 1.0555
-0.055331342 -0.11528023 1.0520002
-0.045213908 -0.11534443 1.0525602
-0.035537437 -0.11512432 1.0546002
-0.028644206 -0.11272881 1.054
-0.080888137 -0.10466041 1.0565001
-0.074650712 -0.10508326 1.0530347
-0.064768374 -0.10534644 1.0533146
-0.054235075 -0.10549309 1.0536073
-0.045145292 -0.10502853 1.0509334
-0.035038035 -0.10511662 1.0517778
-0.027755428 -0.10507328 1.0521818
-0.074932694 -0.095280193 1.0552001
-0.064663865 -0.095149286 1.0537337
-0.054025084 -0.095236443 1.0547144
-0.04527843 -0.095170163 1.0539999
-0.03515679 -0.095170401 1.0525863
-0.026550524 -0.094746284 1.0556154
-0.073023804 -0.085437715 1.0559413
-0.064908907 -0.084731996 1.0532945
-0.055019416 -0.085586831 1.05524
-0.045395732 -0.086157009 1.0567598
-0.035544015 -0.085035235 1.0559001
-0.026409145 -0.087567158 1.057
-0.073895343 -0.076855749 1.0585001
-0.064394109 -0.075839229 1.0561818
-0.055311926 -0.07495372 1.0568498
-0.046921514 -0.074889094 1.057
-0.035212196 -0.077837482 1.057
-0.054936316 -0.068438746 1.057
-0.048370432 -0.068015136 1.057
-0.072649658 -0.16182478 1.067
-0.082211562 -0.15392582 1.067
-0.075469442 -0.15567511 1.0637776
-0.065105587 -0.15453328 1.0639998
-0.055672809 -0.1531038 1.0663333
-0.048640974 -0.15059994 1.067
-0.082656078 -0.14444923 1.0653334
-0.075963981 -0.1451015 1.061
-0.064020127 -0.14591944 1.0601766
-0.054905735 -0.14425084 1.0615599
-0.046699021 -0.14413358 1.0643158
-0.084516846 -0.13431978 1.0646819
-0.076910794 -0.13476816 1.0601877
-0.053200517 -0.13683452 1.0600001
-0.044537641 -0.13597395 1.0613912
-0.035946697 -0.13260008 1.0651668
-0.091045924 -0.12378505 1.067
-0.084689863 -0.1246317 1.0624073
-0.07726188 -0.12531824 1.0600002
-0.033249151 -0.12609415 1.0620716
-0.028997503 -0.12253784 1.067
-0.092208087 -0.11416904 1.0660001
-0.084543005 -0.11467619 1.0615
-0.078523032 -0.1184815 1.0600001
-0.0306658 -0.11801687 1.0600001
-0.028303767 -0.1172568 1.0643334
-0.092057757 -0.10553026 1.0652858
-0.085756503 -0.1051479 1.061421
-0.090734124 -0.096346535 1.067
-0.084692344 -0.094923936 1.0615665
-0.078058399 -0.090138867 1.0600001
-0.023231667 -0.0919974 1.0600001
-0.084044829 -0.084926583 1.0623333
-0.07780496 -0.084225349 1.0600002
-0.051109668 -0.080846198 1.0600001
-0.045534067 -0.080846198 1.0600001
-0.033763353 -0.083943754 1.0600001
-0.024811415 -0.084098637 1.0600001
-0.017694991 -0.081773713 1.0624001
-0.083097801 -0.075166821 1.0635002
-0.067039952 -0.072350048 1.0600001
-0.051109668 -0.074805968 1.0600001
-0.044339299 -0.075403348 1.0600002
-0.035312138 -0.073876709 1.0600001
-0.025104191 -0.075311311 1.0605999
-0.01857266 -0.075726703 1.0640911
-0.082136944 -0.065333582 1.0646666
-0.0753773 -0.065137826 1.0615
-0.065145619 -0.065141954 1.0615833
-0.054780576 -0.063995183 1.0606521
-0.044587523 -0.064213946 1.0604444
-0.035095751 -0.065372668 1.0617647
-0.025302297 -0.06542667 1.0635861
-0.019643471 -0.066413641 1.067
-0.081380092 -0.057995006 1.067
-0.075029247 -0.054993697 1.0646921
-0.065664768 -0.056846771 1.0649999
-0.054509331 -0.055810831 1.0646499
-0.045009792 -0.055260591 1.0633212
-0.034820575 -0.057099048 1.0652859
-0.026752535 -0.058556248 1.067
-0.073896863 -0.049576376 1.067
-0.051447183 -0.048640974 1.067
-0.046770167 -0.049576376 1.067
-0.065147728 -0.19166651 1.077
-0.065147728 -0.18977816 1.077
-0.081765115 -0.17410496 1.0769999
-0.074963853 -0.1732215 1.0755999
-0.066091903 -0.17183892 1.077
-0.085104503 -0.16441886 1.0746191
-0.07544715 -0.16569665 1.0712857
-0.064686105 -0.16480754 1.0720868
-0.055463862 -0.16307975 1.0745293
-0.045320157 -0.16145307 1.077
-0.091854259 -0.15416947 1.077
-0.087207519 -0.15537295 1.0725
-0.05400392 -0.15772359 1.0700001
-0.044862695 -0.15542364 1.072607
-0.037478592 -0.15203482 1.0755
-0.1010262 -0.14256968 1.077
-0.095010258 -0.14379828 1.075909
-0.087781139 -0.14549409 1.0717143
-0.041741446 -0.14639854 1.0710909
-0.034987282 -0.14380755 1.07285
-0.029160563 -0.14015883 1.0730001
-0.10102619 -0.13501631 1.077
-0.095033444 -0.13454656 1.0732399
-0.088175133 -0.13789091 1.0700001
-0.033875547 -0.13673916 1.0711538
-0.028080901 -0.13330661 1.0716667
-0.10186544 -0.12515497 1.077
-0.096032791 -0.12522106 1.0722631
-0.026068509 -0.12480969 1.0721579
-0.10186544 -0.11655254 1.077
-0.097023144 -0.11580749 1.0714999
-0.026088139 -0.11913169 1.0756668
-0.10102619 -0.10763538 1.077
-0.096819237 -0.10408364 1.0722001
-0.093728587 -0.09543664 1.074
-0.12473536 -0.081723154 1.077
-0.11856078 -0.081873022 1.077
-0.091785826 -0.086439043 1.0756668
-0.089175634 -0.084480204 1.0707501
-0.12433741 -0.074702948 1.0757368
-0.11742058 -0.074159659 1.0755882
-0.088300072 -0.075147867 1.0714999
-0.016024714 -0.072056487 1.0754286
-0.12338234 -0.06498643 1.0743333
-0.11538377 -0.064868137 1.0757141
-0.10669121 -0.062315222 1.077
-0.087362841 -0.065182425 1.0731428
-0.021574767 -0.060972165 1.0700001
-0.016453434 -0.064668462 1.0745294
-0.12242737 -0.058853265 1.077
-0.11499104 -0.054866388 1.0764284
-0.1056744 -0.051929351 1.0769999
-0.0833667 -0.055322837 1.0733
-0.079732835 -0.051591832 1.0700001
-0.0641791 -0.052731939 1.0703
-0.057628382 -0.052371185 1.0706002
-0.041273467 -0.051591832 1.0700001
-0.03440056 -0.052838292 1.0710908
-0.024827238 -0.054352708 1.0716665
-0.017442424 -0.054782104 1.0755999
-0.11226781 -0.045014083 1.0761428
-0.1047709 -0.044363927 1.0766797
-0.09913785 -0.042487651 1.077
-0.08025445 -0.045320161 1.077
-0.074658684 -0.045065228 1.0725332
-0.064938284 -0.045173254 1.0735667
-0.055847295 -0.044940613 1.0744998
-0.044913389 -0.044557303 1.0729376
-0.034868948 -0.045230966 1.0749999
-0.026237613 -0.045717437 1.0753332
-0.019072235 -0.046641998 1.077
-0.11046789 -0.037766799 1.077
-0.10422458 -0.036258776 1.0767646
-0.09913785 -0.03493429 1.077
-0.073383957 -0.035076957 1.0753158
-0.065097094 -0.034908339 1.0761999
-0.055706024 -0.037509296 1.0769999
-0.043794964 -0.036967888 1.0769999
-0.03493429 -0.036822625 1.0769999
-0.027853014 -0.038238883 1.077
-0.072071642 -0.028010376 1.077
-0.067665525 -0.028010378 1.077
-0.071470253 -0.19154027 1.087
-0.067881905 -0.19318096 1.0855
-0.091958374 -0.1820109 1.087
-0.085042886 -0.18444528 1.0852857
-0.074658297 -0.18493469 1.0862499
-0.0665984 -0.18492736 1.0852499
-0.05669973 -0.1805815 1.087
-0.031446911 -0.18010503 1.087
-0.092350863 -0.1742291 1.086
-0.086162038 -0.17589602 1.0818461
-0.074165992 -0.17862959 1.08
-0.064624645 -0.17648606 1.0823332
-0.055861346 -0.17340811 1.0861666
-0.044772588 -0.17399454 1.0866086
-0.035525791 -0.17463729 1.0868571
-0.029541036 -0.17724621 1.087
-0.10234539 -0.16142747 1.087
-0.095059164 -0.16444626 1.0842776
-0.089314796 -0.1675836 1.08
-0.05380147 -0.16734208 1.0815001
-0.044325583 -0.16568562 1.0814999
-0.036288001 -0.16583641 1.0828462
-0.10530325 -0.15519342 1.0860399
-0.096714452 -0.15455264 1.0815555
-0.11149359 -0.14325814 1.087
-0.10625169 -0.14522479 1.0845
-0.097520404 -0.14864761 1.08
-0.10644085 -0.13477448 1.0844761
-0.11911708 -0.12197589 1.087
-0.10720619 -0.12491091 1.0845624
-0.022434482 -0.12102325 1.0813334
-0.017693589 -0.12120266 1.0852001
-0.12240904 -0.11443903 1.087
-0.11816414 -0.11467004 1.087
-0.10671063 -0.11452457 1.0846111
-0.022571774 -0.11685155 1.0852727
-0.016438158 -0.11744945 1.087
-0.13289802 -0.10240403 1.087
-0.1245195 -0.10548598 1.0856249
-0.11518604 -0.10460372 1.0865555
-0.10602685 -0.1045408 1.0851851
-0.13393818 -0.094025373 1.0862173
-0.12449287 -0.095709354 1.0833844
-0.11516593 -0.094611093 1.0857199
-0.10540219 -0.094391063 1.0867777
-0.098206826 -0.094566323 1.0823332
-0.13460523 -0.084894888 1.0847272
-0.12492956 -0.086475104 1.0804
-0.11440818 -0.085163623 1.0826362
-0.10491596 -0.084888294 1.0862758
-0.09595979 -0.084448479 1.0837221
-0.13445254 -0.075414628 1.0840588
-0.12939601 -0.074166 1.08
-0.11237787 -0.075234182 1.08
-0.10532065 -0.074963309 1.0823598
-0.095934607 -0.075036079 1.0834398
-0.014202 -0.074797198 1.08
-0.13311584 -0.065556996 1.0853499
-0.127818 -0.065329202 1.08
-0.1107756 -0.068169594 1.08
-0.10499539 -0.065618575 1.0806956
-0.095898777 -0.06551224 1.0830399
-0.089946002 -0.061542001 1.08
-0.13183966 -0.056698337 1.0861818
-0.12538809 -0.054275833 1.0827727
-0.10447061 -0.057112053 1.0804706
-0.095066756 -0.055139259 1.0844443
-0.087052047 -0.053810608 1.08325
-0.014228591 -0.0515594 1.0823334
-0.1227653 -0.045750536 1.0855384
-0.1172301 -0.043730523 1.0823636
-0.094557755 -0.044905178 1.0847036
-0.085185938 -0.044449795 1.0850908
-0.022126921 -0.042043909 1.0818334
-0.016373893 -0.045531437 1.0845555
-0.11365949 -0.036110077 1.084
-0.10646646 -0.032246321 1.081875
-0.094109535 -0.035173059 1.0843998
-0.084766649 -0.035239201 1.0863999
-0.078268804 -0.0344004 1.08
-0.054446395 -0.033584595 1.0816315
-0.045174927 -0.032851916 1.081
-0.035082094 -0.032237489 1.0816
-0.025339318 -0.035372473 1.0840554
-0.11149359 -0.029541036 1.087
-0.10413034 -0.026292479 1.0855263
-0.095339768 -0.025300996 1.0856895
-0.084591202 -0.024974916 1.0867857
-0.075993717 -0.024362233 1.082857
-0.063795775 -0.024430633 1.0836399
-0.055341896 -0.028494058 1.0867273
-0.044300668 -0.027897017 1.0858461
-0.035367835 -0.027897013 1.0858461
-0.028016338 -0.028778687 1.087
-0.093197204 -0.017724622 1.087
-0.083425261 -0.016373185 1.087
-0.075005658 -0.014889182 1.0859284
-0.067170113 -0.015410483 1.0852998
-0.080999613 -0.0085764304 1.087
-0.074721448 -0.006110006 1.087
-0.068747573 -0.0061260215 1.087
-0.083027057 -0.20163713 1.097
-0.070971429 -0.20044632 1.0940001
-0.093599714 -0.19378974 1.0946667
-0.085132748 -0.19456603 1.0932609
-0.076103114 -0.19487311 1.0925455
-0.069756366 -0.19684674 1.09
-0.10168482 -0.1840196 1.0957143
-0.095767379 -0.185405 1.0904707
-0.081223167 -0.18824664 1.09
-0.078356467 -0.18824664 1.09
-0.05140949 -0.18213101 1.09
-0.04493314 -0.18260349 1.0905335
-0.036762841 -0.1824673 1.092
-0.11324057 -0.17238532 1.097
-0.10406047 -0.17507751 1.0947143
-0.097467802 -0.1748687 1.09
-0.052556165 -0.17677984 1.09
-0.044911634 -0.17869097 1.09
-0.033922616 -0.17343535 1.09
-0.027829695 -0.17235449 1.0947001
-0.12021291 -0.16060446 1.097
-0.11378322 -0.16498996 1.0945263
-0.10507918 -0.16591856 1.0905455
-0.098423369 -0.1691353 1.09
-0.031572271 -0.16742639 1.0913334
-0.029812803 -0.16829808 1.097
-0.12175164 -0.15406486 1.097
-0.1153833 -0.15415888 1.0922083
-0.10989016 -0.15957963 1.09
-0.12354849 -0.14452133 1.095077
-0.11624281 -0.14449777 1.0909091
-0.1238353 -0.13535295 1.0949999
-0.11570981 -0.13483377 1.0908
-0.13223422 -0.12165547 1.097
-0.12509525 -0.12481821 1.0940001
-0.11532871 -0.12546939 1.090348
-0.14290911 -0.11136524 1.097
-0.13540322 -0.11427487 1.095381
-0.12718754 -0.11628693 1.092077
-0.11471829 -0.11582472 1.09
-0.021595808 -0.11294798 1.09
-0.015525681 -0.11290301 1.0933001
-0.14431176 -0.10414962 1.09595
-0.13579942 -0.10642432 1.0908573
-0.1290015 -0.10989016 1.09
-0.114668 -0.10989016 1.09
-0.018155767 -0.10989016 1.09
-0.14458928 -0.095263667 1.0947392
-0.13855717 -0.097467802 1.09
-0.14272226 -0.085603692 1.093643
-0.14205289 -0.074862368 1.0948334
-0.13855717 -0.073578633 1.09
-0.14156209 -0.065013893 1.0960001
-0.13814294 -0.064050578 1.0905001
-0.14137039 -0.058663905 1.097
-0.13600418 -0.05417975 1.0930769
-0.13262865 -0.047041181 1.095143
-0.12754273 -0.043893382 1.0925001
-0.013501384 -0.042610381 1.0933636
-0.0086553302 -0.041353244 1.097
-0.12391969 -0.036982402 1.09575
-0.117263 -0.034457605 1.0919167
-0.021748347 -0.033221286 1.0905001
-0.016300973 -0.035479285 1.0938666
-0.11318921 -0.027496504 1.0941668
-0.10605247 -0.022394625 1.0918
-0.090778835 -0.0229336 1.09
-0.087912135 -0.021978034 1.09
-0.060200699 -0.0200669 1.09
-0.054238845 -0.023051947 1.0912001
-0.045269519 -0.022436371 1.0904706
-0.035243541 -0.022427708 1.09
-0.025099805 -0.024948178 1.09296
-0.016603064 -0.028404754 1.0957143
-0.1005186 -0.017230008 1.092
-0.094125137 -0.013972548 1.0918667
-0.086137518 -0.012695386 1.09
-0.061868794 -0.01390299 1.0909232
-0.056314435 -0.016150352 1.0955455
-0.044404045 -0.016474254 1.0956155
-0.035643909 -0.014936727 1.0961819
-0.029171668 -0.017631227 1.097
-0.091834627 -0.0079984143 1.095
-0.085191339 -0.0047833221 1.0918262
-0.076684222 -0.0019111333 1.09
-0.064277358 -0.004606925 1.0928571
-0.082876272 0.0022404678 1.0949999
-0.075255208 0.0047918949 1.0921201
-0.067200065 0.0037143817 1.0931876
-0.073024578 0.011210229 1.0960001
-0.10265802 -0.21210703 1.1068001
-0.095302112 -0.21180184 1.1060714
-0.087744981 -0.21142979 1.108
-0.10419349 -0.20422052 1.1058822
-0.095311418 -0.20483424 1.1013808
-0.085284807 -0.20490313 1.1022104
-0.075989641 -0.20399542 1.1028
-0.10441298 -0.19480626 1.1043683
-0.097679242 -0.19748196 1.101
-0.089764528 -0.19979846 1.1010001
-0.11313698 -0.18222217 1.1068001
-0.10689588 -0.18485245 1.1030769
-0.12119917 -0.17355895 1.1060001
-0.11591599 -0.17628765 1.1031427
-0.10810351 -0.17856385 1.1010001
-0.02702588 -0.17277259 1.1010001
-0.1226063 -0.16538125 1.1043636
-0.11872083 -0.16601612 1.1010001
-0.030030217 -0.16758798 1.105
-0.027074974 -0.16824986 1.103
-0.12544312 -0.15526643 1.1034999
-0.1311318 -0.14278796 1.108
-0.12796263 -0.1463332 1.103
-0.1325594 -0.13379328 1.1066364
-0.12837292 -0.13512941 1.101
-0.14474489 -0.12448335 1.1064444
-0.13572498 -0.12504184 1.1029472
-0.12837292 -0.12837292 1.1010001
-0.15154742 -0.1144432 1.1073333
-0.14537454 -0.11600316 1.1020665
-0.13899024 -0.11872083 1.1010001
-0.01254773 -0.11196436 1.1010001
-0.15369815 -0.10512299 1.1047692
-0.14883538 -0.10752439 1.1010001
-0.15371692 -0.095373556 1.1044998
-0.14960755 -0.092660159 1.1010001
-0.15093453 -0.084680162 1.1060001
-0.14778443 -0.084997393 1.1018
-0.15055872 -0.075441264 1.108
-0.14723222 -0.074583031 1.1049
-0.15055872 -0.068965614 1.108
-0.14653109 -0.064676084 1.105857
-0.15244243 -0.052849095 1.1075714
-0.14561604 -0.055070683 1.1061578
-0.13931197 -0.051799607 1.1010001
-0.15269442 -0.046367969 1.1072307
-0.14468266 -0.046851035 1.1076249
-0.13658676 -0.045028634 1.1037692
-0.14278796 -0.030111747 1.108
-0.13233916 -0.037577927 1.1054444
-0.1267042 -0.032600019 1.1046666
-0.1436379 -0.024647925 1.1079999
-0.12268529 -0.027130201 1.1053998
-0.11582404 -0.024443604 1.1044374
-0.10946498 -0.02034305 1.105
-0.021580905 -0.021582073 1.1023334
-0.015703259 -0.022697441 1.1036923
-0.14278796 -0.018455587 1.108
-0.10470326 -0.016720334 1.105875
-0.098628506 -0.013535733 1.103
-0.053817313 -0.013107544 1.1018571
-0.046212167 -0.012235637 1.1019999
-0.035069298 -0.010617311 1.1010001
-0.024685374 -0.014153296 1.1036294
-0.015710024 -0.014452986 1.1078234
-0.092533745 -0.0040559862 1.1018
-0.089764528 -0.00096520997 1.1010001
-0.06080823 -0.0019304199 1.1010001
-0.056398205 -0.005380006 1.1049999
-0.04430313 -0.0074361786 1.1065555
-0.034777008 -0.0049835909 1.1053702
-0.025091294 -0.0067866053 1.1062498
-0.090335242 0.00097134669 1.108
-0.084684007 0.0057157869 1.1033635
-0.063040368 0.0056455866 1.1035
-0.058726363 0.0024277091 1.10725
-0.081806868 0.013649222 1.1049091
-0.074725449 0.015517969 1.1024736
-0.067446001 0.013376705 1.1053998
-0.080403484 0.02034305 1.105
-0.074832469 0.022608491 1.1063845
-0.10404086 -0.22382548 1.117154
-0.095312171 -0.22490117 1.117
-0.087798603 -0.22219424 1.1190001
-0.112245 -0.21371117 1.1176667
-0.1050721 -0.21663673 1.114
-0.094267838 -0.21805516 1.1138462
-0.085198089 -0.21563315 1.1155001
-0.12262375 -0.20110294 1.1190001
-0.11381626 -0.20446707 1.1159523
-0.10820872 -0.20764376 1.1120001
-0.080912828 -0.20959346 1.1120001
-0.078963116 -0.20959346 1.1120001
-0.12230834 -0.19332029 1.1181111
-0.11429892 -0.19487919 1.1157691
-0.10820872 -0.19204611 1.1120001
-0.12313469 -0.18484594 1.1162941
-0.11570287 -0.1861297 1.1133847
-0.12404964 -0.17548718 1.1141667
-0.13047168 -0.16186334 1.1190001
-0.12738177 -0.16534774 1.1159999
-0.13244395 -0.15496288 1.117
-0.12868065 -0.1569514 1.1120001
-0.15205345 -0.14028157 1.1190001
-0.14420553 -0.14269632 1.1190002
-0.13497455 -0.14530091 1.1145
-0.15404098 -0.13348399 1.1165
-0.14530981 -0.13498943 1.113857
-0.13742214 -0.13644654 1.1128572
-0.16186334 -0.12164276 1.1190001
-0.15560262 -0.12460385 1.1143636
-0.14603303 -0.12926555 1.1120001
-0.13940403 -0.1296555 1.1120001
-0.16186334 -0.11477584 1.1190001
-0.15671979 -0.11549442 1.1129376
-0.16186334 -0.1079089 1.1190001
-0.15886192 -0.10514858 1.114
-0.15881355 -0.094001584 1.1152858
-0.015667787 -0.091069013 1.1170001
-0.00588594 -0.093194053 1.1190001
-0.1562805 -0.084691085 1.1155335
-0.016656959 -0.089163721 1.1176667
-0.16343258 -0.071441613 1.1163334
-0.15575258 -0.075332187 1.1159499
-0.16283418 -0.067953065 1.1141428
-0.1554352 -0.065266304 1.1139166
-0.15536727 -0.056785207 1.1120002
-0.15608485 -0.044085033 1.1120001
-0.14574057 -0.042893544 1.1120001
-0.13940403 -0.041918691 1.1120001
-0.15344721 -0.037443042 1.1126925
-0.14533424 -0.035266332 1.1121035
-0.13657962 -0.033947326 1.1124284
-0.14395334 -0.023721432 1.1120001
-0.13560508 -0.024388481 1.1128399
-0.12642395 -0.023182916 1.1121669
-0.11795726 -0.021121822 1.1120001
-0.14135373 -0.017547362 1.1120001
-0.13456582 -0.014956572 1.1148075
-0.12476926 -0.014990523 1.1155416
-0.11457255 -0.014672883 1.1161739
-0.10559451 -0.012698854 1.1144617
-0.098460183 -0.010723387 1.1120001
-0.014656552 -0.010757139 1.1155001
-0.13097019 -0.0081667341 1.1176667
-0.12549016 -0.0068622534 1.1183335
-0.1031589 -0.0075956588 1.118
-0.097281508 -0.0058633657 1.11525
-0.052542638 -0.003483122 1.1128571
-0.04661401 -0.0034156025 1.1135001
-0.038994133 -0.00097485335 1.1120001
-0.023602497 -0.0021457295 1.1126001
-0.015417443 -0.0058703236 1.1166875
-0.091666311 0.0029382946 1.1163334
-0.088483505 0.007333097 1.1152501
-0.061415758 0.0087736798 1.1120001
-0.0546299 0.0052318708 1.1154782
-0.044686999 0.0023379349 1.1174617
-0.03378211 0.0044502788 1.1154546
-0.024917455 0.0044531883 1.1166819
-0.086761944 0.010723387 1.1120001
-0.063759729 0.015438099 1.1144001
-0.05756807 0.013588211 1.1184288
-0.03139168 0.01177188 1.1190001
-0.02746772 0.01079089 1.1190001
-0.072558694 0.026426991 1.1162857
-0.066441141 0.023129974 1.1166251
-0.11154531 -0.23000051 1.126
-0.10535932 -0.23329094 1.1260002
-0.097231977 -0.23296189 1.126
-0.11421032 -0.22333254 1.1253078
-0.10703062 -0.22784816 1.1235001
-0.093527183 -0.22938772 1.123
-0.085970506 -0.22462235 1.1243334
-0.13128784 -0.2112451 1.126
-0.1254591 -0.21354844 1.126
-0.11693258 -0.21579719 1.1240001
-0.081713222 -0.21855825 1.123
-0.078811675 -0.21377844 1.1237501
-0.13128784 -0.20630948 1.126
-0.12561615 -0.20478542 1.1248571
-0.11863185 -0.20822103 1.123
-0.13128784 -0.19446394 1.126
-0.12639056 -0.19586368 1.124125
-0.13128784 -0.18557981 1.126
-0.12855414 -0.18431239 1.1242858
-0.13168268 -0.17353687 1.126
-0.12835988 -0.17517084 1.124125
-0.1339338 -0.16470514 1.1250001
-0.12896906 -0.16834892 1.123
-0.15300463 -0.15152393 1.126
-0.14421025 -0.15246619 1.1260002
-0.13735773 -0.15543096 1.1245002
-0.16090165 -0.14115912 1.126
-0.15467584 -0.14521097 1.1244999
-0.14539008 -0.14755702 1.1236001
-0.13881403 -0.14865899 1.123
-0.16272204 -0.13440484 1.1249287
-0.1580117 -0.1373373 1.123
-0.16519573 -0.12533872 1.1245002
-0.16594677 -0.11574136 1.1249092
-0.16403736 -0.10602657 1.1242858
-0.16278912 -0.095698163 1.1254001
-0.010829464 -0.092542686 1.123
-0.00590698 -0.092214517 1.123
-0.16331711 -0.085533366 1.1251429
-0.012419386 -0.088501431 1.1242001
-0.0059227599 -0.089828528 1.126
-0.16403773 -0.076598503 1.1242859
-0.12109309 -0.01181396 1.123
-0.1171551 -0.010829464 1.123
-0.12322382 -0.0049316888 1.1245
-0.11531607 -0.0073909573 1.1242502
-0.10634132 -0.0053647133 1.1243334
-0.098023824 -0.0014774024 1.12375
-0.013458587 -0.0031725594 1.1233335
-0.093981147 0.0042727273 1.1245
-0.050209329 0.0078759734 1.123
-0.044224124 0.0072077503 1.1248462
-0.037739038 0.0082041388 1.123
-0.021330761 0.0082041388 1.123
-0.015235987 0.0044835922 1.1246362
-0.089589193 0.010829464 1.123
-0.053313196 0.01524348 1.1246156
-0.033639077 0.013372297 1.1238571
-0.024475729 0.01314306 1.1242501
-0.016781153 0.010858393 1.126
-0.062913358 0.02618015 1.1238573
-0.057814587 0.023087718 1.1254001
-0.073355079 0.032566119 1.1256667
-0.065657847 0.031460252 1.1253333
-0.12470584 -0.24143049 1.138
-0.11558449 -0.24185808 1.138
-0.10373291 -0.2425355 1.135
-0.095604002 -0.24250004 1.136
-0.12365275 -0.23388807 1.1367694
-0.11480963 -0.23524451 1.1322223
-0.10571473 -0.23789351 1.13
-0.09391956 -0.23608382 1.1328572
-0.086271368 -0.23212485 1.1364
-0.13378401 -0.22440915 1.136
-0.12522796 -0.22438142 1.1309998
-0.11808349 -0.22645879 1.13
-0.082349591 -0.22610886 1.1317779
-0.076337323 -0.2234371 1.1368001
-0.14116701 -0.21199992 1.138
-0.13515775 -0.21548767 1.1321176
-0.12531511 -0.21843465 1.13
-0.0802413 -0.21892996 1.13
-0.076781623 -0.21804979 1.1316
-0.14206594 -0.20443025 1.1364
-0.13533661 -0.20484078 1.1307058
-0.14209867 -0.19537219 1.1366668
-0.1358138 -0.1952906 1.1308
-0.14066818 -0.18506347 1.138
-0.13602825 -0.18524061 1.1335295
-0.14185342 -0.17376408 1.1375
-0.13553819 -0.17561661 1.1308572
-0.15263994 -0.16161875 1.138
-0.1449455 -0.16448772 1.134706
-0.1388302 -0.16571881 1.13
-0.16305555 -0.15400863 1.1367694
-0.15505578 -0.15548487 1.1317142
-0.14562309 -0.15691634 1.13
-0.17126268 -0.14266348 1.138
-0.16545461 -0.14446129 1.1335
-0.15949197 -0.14859501 1.13
-0.17290296 -0.13362728 1.1362857
-0.16799058 -0.13604444 1.1308889
-0.17198622 -0.1242675 1.1340001
-0.16939829 -0.12680107 1.13
-0.17290296 -0.1142715 1.1362857
-0.16951822 -0.11400068 1.1308
-0.17407736 -0.10426702 1.1375556
-0.16799806 -0.10372815 1.1318462
-0.17299193 -0.095375016 1.1380001
-0.16769697 -0.094196081 1.133
-0.16870749 -0.086337648 1.132
-0.011626353 -0.086030811 1.1366667
-0.0048365118 -0.085536361 1.1337335
-0.12333384 -0.00148595 1.13
-0.11606136 -0.0026689777 1.1315385
-0.10674074 -0.0017336081 1.13
-0.12180637 0.0045078201 1.1324615
-0.11450158 0.0049817804 1.1357603
-0.10454839 0.004983745 1.1357604
-0.096694574 0.0063561844 1.1324
-0.012878234 0.0089157 1.13
-0.12029094 0.01093554 1.1340001
-0.11464591 0.010966399 1.1372001
-0.10874349 0.010974113 1.138
-0.092896275 0.012276255 1.1353334
-0.087815702 0.01424934 1.1340001
-0.051182721 0.018161612 1.13
-0.044683274 0.014900319 1.1327199
-0.036029745 0.016457038 1.1325715
-0.024427598 0.017399283 1.131091
-0.01536112 0.015179776 1.1324761
-0.053666554 0.025199607 1.1315999
-0.046646155 0.023460716 1.1365455
-0.031924695 0.02095058 1.138
-0.024675634 0.023572592 1.1360002
-0.017227 0.02235475 1.1368572
-0.074532978 0.03669497 1.1312308
-0.063953035 0.036086798 1.1304705
-0.055344962 0.034329679 1.1341906
-0.048884686 0.030927047 1.138
-0.073377974 0.042169809 1.1362222
-0.065187566 0.04172641 1.1362222
-0.057863504 0.040903512 1.138
-0.12434802 -0.25257829 1.1478573
-0.11523398 -0.25303125 1.149
-0.10517292 -0.25519988 1.149
-0.099050187 -0.25350133 1.149
-0.13296229 -0.24275689 1.149
-0.1252812 -0.24565849 1.1442943
-0.11531208 -0.24736129 1.1437694
-0.10541239 -0.24790707 1.1431819
-0.095988199 -0.24811244 1.1435001
-0.13392673 -0.23468904 1.1461431
-0.12830757 -0.23673241 1.142143
-0.082809269 -0.23617004 1.1415
-0.075695053 -0.23310845 1.1436669
-0.14228623 -0.22431213 1.1456667
-0.13822386 -0.22689939 1.1442001
-0.07452061 -0.22856322 1.141
-0.15008621 -0.21052361 1.149
-0.14476247 -0.215992 1.1444286
-0.15210079 -0.20447989 1.149
-0.14750993 -0.20571023 1.1446365
-0.15253697 -0.19544455 1.1472223
-0.14780146 -0.19506125 1.143
-0.15008621 -0.18735594 1.149
-0.14560673 -0.1854009 1.1445557
-0.16412476 -0.17329918 1.1485556
-0.15401655 -0.173969 1.1482729
-0.14638346 -0.17545754 1.1436669
-0.17224659 -0.16418827 1.149
-0.16501305 -0.16501336 1.1439093
-0.15593283 -0.16627254 1.142895
-0.1483022 -0.16934307 1.1430001
-0.17391703 -0.15481356 1.1467144
-0.16782415 -0.1564084 1.1422
-0.17449804 -0.14600539 1.1457275
-0.16904676 -0.14904122 1.141
-0.17616573 -0.13701643 1.1450001
-0.17627575 -0.12591125 1.149
-0.17707847 -0.11503357 1.1476668
-0.17703253 -0.10617091 1.1424999
-0.17504841 -0.099027388 1.141
-0.0030008301 -0.081022412 1.141
0.0010002767 -0.081022412 1.141
-0.0024676572 -0.076290637 1.1464547
0.0026811389 -0.074551009 1.1466669
-0.11308079 0.014511463 1.1415
-0.10497317 0.015384853 1.1432612
-0.096174419 0.016182585 1.1454446
-0.088641524 0.01712393 1.149
-0.1046366 0.023143122 1.1476668
-0.097203493 0.023335552 1.149
-0.042728908 0.02628229 1.1442001
-0.035151288 0.025495175 1.1455717
-0.025707664 0.028707325 1.1423334
-0.014191042 0.026383281 1.143
-0.0090656104 0.022160381 1.149
-0.05101411 0.039010789 1.141
-0.045824133 0.035156742 1.1457502
-0.023800623 0.033859961 1.1471335
-0.016295653 0.034136292 1.1474001
-0.072524354 0.047615096 1.1458
-0.064894997 0.047276128 1.1438572
-0.054940548 0.045729719 1.145182
-0.048306961 0.044032115 1.1480001
-0.072189115 0.052043319 1.149
-0.06487678 0.053472981 1.1479335
-0.055199645 0.054926518 1.1486365
-0.049357209 0.053386368 1.149
-0.13185942 -0.26169026 1.1570001
-0.12611172 -0.26338077 1.1570001
-0.11366092 -0.26250139 1.155
-0.10714445 -0.26179633 1.153
-0.13279836 -0.25478214 1.1563333
-0.12477206 -0.25736439 1.1537273
-0.11365458 -0.25804469 1.1533999
-0.10411206 -0.25876394 1.153
-0.098047279 -0.25573155 1.153
-0.14098816 -0.24038988 1.1570001
-0.13597295 -0.24583426 1.1554615
-0.14246413 -0.2342653 1.1558001
-0.13780527 -0.23753722 1.153
-0.14707398 -0.22466817 1.1570001
-0.15243918 -0.21316834 1.1546
-0.16127422 -0.20184636 1.1570001
-0.15634985 -0.20526172 1.1543332
-0.16127422 -0.19880345 1.1570001
-0.15724058 -0.1951448 1.1544545
-0.16330282 -0.18156029 1.1570001
-0.15433688 -0.18506551 1.1556666
-0.17241257 -0.17444041 1.156111
-0.16570283 -0.17748266 1.1544545
-0.1566246 -0.17788027 1.1545
-0.17699562 -0.16541862 1.1555712
-0.18156029 -0.15518841 1.1570001
-0.17903516 -0.154762 1.1537999
-0.18200719 -0.14504649 1.155
-0.17891102 -0.14454392 1.153
-0.18156029 -0.13794525 1.1570001
-0.1790662 -0.13404365 1.154
-0.18156029 -0.1227307 1.1570001
-0.17903516 -0.12441705 1.1537999
-0.18233597 -0.11515174 1.1542
-0.17891102 -0.11826321 1.153
-0.005812081 -0.07505165 1.153
-0.0025348817 -0.069419295 1.156
0.0026343833 -0.069078706 1.1554
-0.088950105 0.019205136 1.153
-0.10296993 0.028120488 1.1538
-0.093278751 0.026707543 1.1549999
-0.088950105 0.02122673 1.153
-0.037399478 0.029313102 1.153
-0.011118763 0.028302306 1.153
-0.0086136889 0.027364273 1.156
-0.10041603 0.031443402 1.1570001
-0.095006406 0.031443402 1.1570001
-0.080129966 0.035500616 1.1570001
-0.042164449 0.037106961 1.1543334
-0.036053944 0.03414879 1.155588
-0.02710975 0.037233297 1.1547778
-0.013598172 0.036753669 1.1538889
-0.0083561679 0.036217071 1.1554999
-0.04512747 0.045128867 1.1542
-0.022097085 0.043180566 1.1562001
-0.016527213 0.042840652 1.1543334
-0.0081144264 0.04260074 1.1570001
-0.065982096 0.05814667 1.1535
-0.057010513 0.059032101 1.1543332
-0.049529035 0.054919954 1.153
-0.063901111 0.061872505 1.1570001
-0.055417232 0.062360432 1.1552857
-0.14196302 -0.26043576 1.1650001
-0.13536873 -0.26157716 1.161
-0.12252305 -0.2655918 1.1632859
-0.11780258 -0.26633444 1.1627144
-0.1435426 -0.2545712 1.1661999
-0.13814455 -0.25584042 1.1610001
-0.15064903 -0.24083348 1.169
-0.144728 -0.2448784 1.1642001
-0.13943997 -0.24936345 1.161
-0.15064903 -0.23775901 1.169
-0.14685532 -0.23563734 1.1621429
-0.15217619 -0.22162572 1.1650001
-0.14910917 -0.22595382 1.161
-0.16164681 -0.21177548 1.1670001
-0.15611017 -0.21557923 1.1638573
-0.16420814 -0.20482996 1.1650001
-0.15979616 -0.20865105 1.161
-0.1718287 -0.19232517 1.169
-0.16514519 -0.19431394 1.1640589
-0.15979616 -0.19134828 1.161
-0.18293098 -0.18190613 1.169
-0.1750022 -0.18511045 1.1652106
-0.1658445 -0.18566674 1.1615335
-0.15979616 -0.18524142 1.161
-0.1921066 -0.1716335 1.1676668
-0.1846147 -0.17472219 1.1647897
-0.17684451 -0.17557222 1.1610001
-0.19152729 -0.1661818 1.1658
-0.18509829 -0.1655353 1.1619999
-0.1862992 -0.1551487 1.1621429
-0.18710051 -0.14535189 1.1639091
-0.18572235 -0.13477492 1.1652666
-0.18499875 -0.12588276 1.1626667
0.0071492167 -0.070470847 1.1650001
-0.00305343 -0.068193272 1.161
0.0055673118 -0.063931726 1.1642729
0.01119591 -0.061068602 1.161
0.0067826109 -0.056222472 1.1660908
0.011234484 -0.055145837 1.165
-0.10585224 0.02951649 1.161
-0.085383445 0.026382115 1.1625555
-0.0071246698 0.025445249 1.161
-0.10352468 0.034105312 1.1646001
-0.094802588 0.036275115 1.1639091
-0.085394643 0.035493273 1.1629047
-0.034351088 0.038422327 1.1610001
-0.02951649 0.039694589 1.161
-0.01119591 0.039694589 1.161
-0.043087289 0.047497798 1.1610001
-0.035735738 0.044932503 1.1648002
-0.026575098 0.045333665 1.1628667
-0.014435631 0.04654691 1.1626668
-0.0083747972 0.046371985 1.1650002
-0.044745117 0.05484226 1.1647648
-0.037289895 0.051838882 1.1685998
-0.024309307 0.051176734 1.1675
-0.016992664 0.053847499 1.1676668
-0.063608013 0.064801298 1.164
-0.053885259 0.06628146 1.1631539
-0.047683071 0.061651584 1.1656667
-0.06114779 0.071396023 1.169
-0.054805771 0.072115488 1.1675453
-0.14736634 -0.26381487 1.1755002
-0.15167999 -0.25176814 1.177
-0.14844434 -0.25584075 1.1747143
-0.15245292 -0.24516158 1.1750001
-0.14910784 -0.24885586 1.1730001
-0.15301953 -0.23477694 1.1746001
-0.15438013 -0.22436969 1.174
-0.16481508 -0.21322724 1.1750001
-0.18194719 -0.20189603 1.177
-0.17457734 -0.20327224 1.1760001
-0.16896611 -0.20478006 1.1738001
-0.19088978 -0.19088978 1.177
-0.18454997 -0.19486167 1.1760477
-0.17606196 -0.1954044 1.1735336
-0.16967446 -0.19846769 1.1730001
-0.19247586 -0.18401761 1.1766001
-0.18566704 -0.18600982 1.1733335
-0.17995775 -0.1881844 1.1730001
-0.19452243 -0.17650966 1.1740001
-0.1881844 -0.17995775 1.1730001
-0.19435437 -0.16658945 1.1730001
-0.19204932 -0.14188938 1.1756667
-0.19170539 -0.13708 1.1756668
0.0067953938 -0.052103631 1.1746
0.011350203 -0.050559998 1.177
-0.11040653 0.035082445 1.177
-0.10688794 0.036864709 1.1746
-0.10311353 0.042690683 1.1762002
-0.095379829 0.044454265 1.1752859
-0.085644655 0.044438526 1.1751335
-0.07807564 0.047120541 1.177
-0.076355912 0.052623671 1.177
-0.04010487 0.058614809 1.1730001
-0.034701973 0.056027137 1.174143
-0.0263121 0.05571362 1.1754001
-0.012886561 0.054640882 1.1760001
-0.065005712 0.069133058 1.177
-0.043819174 0.065610781 1.1754763
-0.036802169 0.062254146 1.177
-0.02166857 0.060878363 1.177
-0.0185415 0.061806753 1.1750001
-0.061937381 0.076651849 1.1747144
-0.054164473 0.077277049 1.1752859
-0.048083588 0.073673144 1.177
-0.05881469 0.081515096 1.177
-0.15271094 -0.26075134 1.1850001
-0.16156529 -0.25329268 1.189
-0.15652561 -0.25504926 1.1855334
-0.15732513 -0.24537638 1.1832223
-0.15802376 -0.23535722 1.1850001
-0.16156529 -0.22202197 1.189
-0.15803933 -0.22665952 1.186
-0.19075127 -0.2115984 1.189
-0.18411064 -0.21239017 1.1884286
-0.17479594 -0.21220645 1.1854001
-0.16687305 -0.21678695 1.1860001
-0.1919264 -0.20465305 1.1876668
-0.18502894 -0.20593287 1.183154
-0.17662957 -0.20768988 1.1810001
-0.19522023 -0.19441573 1.1859231
-0.18946783 -0.19878592 1.1810001
-0.20201817 -0.18662217 1.1866
-0.19743925 -0.18500656 1.1818889
-0.19393708 -0.15141787 1.1830001
-0.19576287 -0.14551558 1.1856668
-0.19567989 -0.13666531 1.1810001
0.0027003088 -0.051769096 1.1858001
0.007279214 -0.045462929 1.1864288
0.012190269 -0.043831363 1.1835002
0.0093812095 -0.037524842 1.189
0.014349806 -0.035771158 1.1862001
-0.15583232 -0.017720062 1.189
-0.149057 -0.013550636 1.189
-0.13446401 -0.0010423567 1.189
-0.13237929 0.0062541394 1.189
-0.13168438 0.012855732 1.189
-0.12654211 0.014384521 1.189
-0.11570159 0.028143629 1.189
-0.11462564 0.034167789 1.1849999
-0.11290346 0.042871632 1.1863334
-0.10619824 0.046359554 1.1831539
-0.093180895 0.048661135 1.1810001
-0.084380485 0.048143469 1.1810001
-0.079721436 0.048661135 1.1810001
-0.10370161 0.05255226 1.1839091
-0.094358437 0.053923238 1.1827998
-0.08482822 0.053173006 1.1856154
-0.077098235 0.055301663 1.1845001
-0.026918925 0.05901457 1.1810001
-0.011388777 0.052802511 1.1810001
-0.00931809 0.051767167 1.1810001
-0.067525253 0.068564102 1.1850001
-0.033614032 0.065833285 1.1831176
-0.024999902 0.065221891 1.1852353
-0.016681012 0.066821225 1.1837693
-0.065314993 0.075683855 1.1826001
-0.043608822 0.076033995 1.1816
-0.037184037 0.074114054 1.1865001
-0.021889489 0.071922608 1.189
-0.019109873 0.072617508 1.189
-0.062174074 0.082898475 1.1820002
-0.054536168 0.085094906 1.1836667
-0.044934284 0.085116535 1.1862631
-0.038046017 0.081824996 1.189
-0.052117832 0.090685032 1.189
-0.16210881 -0.26041996 1.1930001
-0.15722813 -0.26181448 1.1930001
-0.16502526 -0.25466755 1.1954615
-0.16384968 -0.24639979 1.1949999
-0.16185077 -0.23475118 1.1936666
-0.19203471 -0.22141707 1.197
-0.18569969 -0.22412543 1.1967503
-0.17576948 -0.22194175 1.197
-0.16463134 -0.22474381 1.1945999
-0.19407831 -0.21363929 1.1952223
-0.1860557 -0.2175035 1.1956668
-0.17573813 -0.21816751 1.1949999
-0.20162894 -0.20372769 1.1969999
-0.19696108 -0.20563582 1.1941429
-0.20445736 -0.19502181 1.1960002
-0.19923697 -0.19819111 1.1930001
0.0035622474 -0.045062594 1.1954
0.0081689553 -0.035395063 1.1946
0.013958871 -0.031759586 1.1943334
0.016789921 -0.02833299 1.197
-0.16001709 -0.011504496 1.1930001
-0.15461347 -0.013944845 1.193
-0.1485126 -0.011504496 1.1930001
-0.153137 -0.0082315253 1.1952858
-0.14486934 -0.0052308948 1.1940002
-0.13826314 -0.0027192447 1.1930001
-0.14333156 0.0047590183 1.1960771
-0.1370081 0.0050799074 1.193
-0.14296243 0.012348902 1.1938
-0.13543595 0.016306257 1.1932354
-0.1277014 0.018842196 1.194
-0.13282464 0.021963129 1.1930001
-0.12508526 0.02489155 1.193
-0.12224642 0.034522753 1.1932857
-0.12219524 0.04170882 1.1954
-0.1159258 0.045796849 1.194
-0.11333196 0.051419131 1.197
-0.10842117 0.054036275 1.1930001
-0.093081832 0.059614211 1.1930001
-0.084744737 0.058588333 1.1933999
-0.077393889 0.059614211 1.1930001
-0.091826811 0.063379318 1.1930001
-0.084939361 0.063968793 1.1962001
-0.074088246 0.064414166 1.1954615
-0.01154307 0.068209052 1.197
-0.071100295 0.071939789 1.1962001
-0.068057097 0.074341625 1.1943334
-0.032490142 0.075166397 1.1955713
-0.025285367 0.074938774 1.1955
-0.015088411 0.075329341 1.1944119
-0.062858753 0.087999798 1.1950001
-0.059614211 0.088898383 1.1930001
-0.040788669 0.088898383 1.1930001
-0.036246136 0.085486569 1.1950002
-0.022561455 0.082375541 1.197
-0.01707611 0.082709432 1.1970001
-0.062437516 0.092869245 1.197
-0.055601824 0.095298469 1.1945242
-0.04531052 0.094951876 1.1947396
-0.038826689 0.09234456 1.197
-0.17233337 -0.2537424 1.2060001
-0.16965428 -0.25290081 1.202
-0.17021886 -0.24634157 1.2060001
-0.16770606 -0.24485174 1.2031429
-0.19599812 -0.23077197 1.202
-0.1667718 -0.235378 1.204
-0.20193668 -0.22519639 1.2060001
-0.19595236 -0.22516339 1.2029999
-0.18154539 -0.22693393 1.204
-0.17459321 -0.2252529 1.2037778
-0.16768616 -0.22780095 1.2030001
-0.20384952 -0.21420018 1.2048001
-0.19775438 -0.21672194 1.202
-0.21039474 -0.20405118 1.2060001
-0.2058619 -0.20624317 1.2030909
-0.0010555066 -0.048551552 1.204
0.0018995613 -0.044102997 1.2036
0.0068572867 -0.034799282 1.2030001
0.011591286 -0.030558847 1.202
0.014558628 -0.027223308 1.2036002
-0.16176078 -0.0084580798 1.2060001
-0.15507211 -0.0045767841 1.2046667
-0.15269955 0.00246168 1.2040001
-0.14795913 0.0056241085 1.2026668
-0.11696662 0.049526405 1.202
-0.084300272 0.06849397 1.202
-0.077345498 0.067650966 1.202
-0.08245752 0.072337277 1.2028
-0.075800098 0.073690839 1.2036667
-0.068721898 0.079294503 1.2060001
-0.02845134 0.076923996 1.202
-0.011591286 0.079031497 1.202
-0.0087812776 0.075518988 1.202
-0.066386461 0.086759023 1.202
-0.03206531 0.085441343 1.2031999
-0.025054019 0.084961288 1.2045455
-0.01542828 0.086429857 1.2052
-0.065820485 0.095989391 1.2032
-0.037350558 0.094328977 1.2036
-0.06187408 0.10115226 1.2044001
-0.054886345 0.10291365 1.2040001
-0.046179727 0.10265022 1.204
-0.039118621 0.1004397 1.2060001
-0.17566612 -0.25231272 1.2144001
-0.17276868 -0.24503759 1.2123333
-0.20825568 -0.23056683 1.2120001
-0.17320587 -0.23430121 1.2120833
-0.21391894 -0.22881876 1.2140001
-0.20640546 -0.22603753 1.2105001
-0.1782088 -0.22806484 1.21
-0.2068495 -0.21674998 1.21
-0.21109256 -0.2068495 1.21
-0.0031973983 -0.044370923 1.2147778
0.0010607666 -0.0413699 1.21
-0.0010686567 -0.038471639 1.2190001
0.0035756843 -0.035103802 1.2134546
0.0080442941 -0.025491394 1.2163637
0.014012083 -0.022514792 1.2126364
0.015582661 -0.016221227 1.2175
0.020221192 -0.0159641 1.2140001
-0.16017577 -0.0021215333 1.21
-0.15734705 -0.0017679444 1.21
-0.081679031 0.077435963 1.21
-0.076236248 0.078893423 1.2120001
-0.073251113 0.083073989 1.2180002
-0.068706468 0.085300721 1.2132001
-0.026519166 0.08804363 1.21
-0.012227748 0.086665511 1.2130002
-0.0091606397 0.085423976 1.2150002
-0.069320224 0.092786841 1.2165
-0.033729192 0.095202975 1.2127273
-0.024346955 0.093267299 1.2140626
-0.015015255 0.09235011 1.213889
-0.064791866 0.10515758 1.2116001
-0.055299159 0.10788473 1.2104446
-0.044743814 0.10708809 1.2111429
-0.038896382 0.10443467 1.2155001
-0.06274128 0.11432818 1.2167273
-0.054446999 0.1149907 1.2127368
-0.045638762 0.11426274 1.2148571
-0.060913429 0.12182686 1.2190001
-0.054621443 0.12310448 1.2160589
-0.047311366 0.12130553 1.2173334
-0.01282388 0.12289552 1.2190001
-0.18217792 -0.25311249 1.2260001
-0.17905128 -0.25195837 1.223
-0.17827076 -0.24699908 1.2250001
-0.18149191 -0.23411559 1.2250001
-0.17827018 -0.23733732 1.2250001
-0.0053783501 -0.041951131 1.2270001
-0.0028643624 -0.036869969 1.2250001
0.0017881077 -0.031841408 1.2243334
0.0041741994 -0.024456566 1.2247779
0.0081318347 -0.016417837 1.2252859
0.014366989 -0.013080393 1.223
0.016852165 -0.0082468037 1.2270001
-0.080543749 0.08376725 1.2250001
-0.075039543 0.086393878 1.2252858
-0.072069891 0.091431953 1.2270001
-0.069690615 0.093278207 1.223
-0.031807512 0.098996408 1.223
-0.026446698 0.098639019 1.223
-0.016105242 0.096650749 1.2250001
-0.067546293 0.1082885 1.223
-0.034378044 0.10367636 1.2255001
-0.024243947 0.10301607 1.2270001
-0.01828639 0.10541566 1.2270001
-0.06709142 0.11590849 1.2258574
-0.042886533 0.11793797 1.223
-0.039670043 0.11043283 1.223
-0.013553442 0.11466642 1.2270001
-0.064471819 0.12464096 1.2256669
-0.055037718 0.12865961 1.223
-0.047688037 0.12585339 1.2270001
-0.01290804 0.12155071 1.2270001
-0.06238886 0.13015607 1.2270001
-0.055852097 0.13396229 1.2270001
-0.18508887 -0.25219479 1.2346667
-0.18224947 -0.24593355 1.2342857
-0.1782088 -0.243012 1.2320001
-0.18488665 -0.23606996 1.2333335
-0.0082909288 -0.042887703 1.2333335
-0.0047896057 -0.035380762 1.2337145
-0.0010835599 -0.02817256 1.2360001
0.0015134772 -0.023141194 1.2336
0.0057128607 -0.014362304 1.233143
0.011880587 -0.011880587 1.2320001
0.0090296669 -0.0090296669 1.2360001
0.014060174 -0.0054065008 1.2337779
-0.076683789 0.088564374 1.2320001
-0.074045897 0.093499124 1.233
-0.015120747 0.098284855 1.2320001
-0.070203468 0.10908539 1.2320001
-0.034128882 0.10826082 1.233143
-0.025099941 0.10820404 1.2328891
-0.014964114 0.10547409 1.2340001
-0.0097204801 0.10908539 1.2320001
-0.070773646 0.11492679 1.2344
-0.041106902 0.11899698 1.2340001
-0.037590589 0.11386058 1.2340001
-0.023454145 0.11293025 1.2346667
-0.01596079 0.11364561 1.2320002
-0.070431396 0.12244228 1.2360001
-0.068043359 0.12744629 1.2320001
-0.044894099 0.12494954 1.2340001
-0.016253401 0.1246094 1.2360001
-0.064098358 0.133604 1.2340001
-0.05335464 0.13587071 1.2320001
-0.048602398 0.13068645 1.2320001
-0.18882085 -0.25212494 1.245
-0.18663795 -0.24421194 1.245
-0.18603832 -0.23825958 1.2410001
-0.0097914897 -0.04242979 1.2410001
-0.0076401499 -0.03601785 1.245
-0.0021829 -0.025103351 1.245
0.0018190834 -0.016371749 1.245
0.0098230503 -0.0054572499 1.245
0.0130974 -0.0021829 1.245
0.016371749 0.00109145 1.245
-0.07458242 0.097139053 1.245
-0.0098230503 0.098230496 1.245
-0.011967377 0.10117873 1.2410001
-0.032897968 0.11612624 1.2426001
-0.026514782 0.11587343 1.243
-0.01305532 0.11858582 1.2410001
-0.0097914897 0.11858582 1.2410001
-0.041986633 0.12705311 1.244
-0.037473116 0.12187859 1.245
-0.015813751 0.12405512 1.244
-0.065486997 0.1375227 1.245
-0.046436857 0.13495037 1.2434
-0.060029749 0.14297995 1.245
-0.054488339 0.14166233 1.243
-0.18957916 -0.24437083 1.25
-0.0084079644 -0.033262923 1.2508334
-0.0068105897 -0.024959346 1.2526001
-0.0041517587 -0.016333651 1.2550771
0.00182785 -0.012800794 1.2516667
0.0062278402 -0.006723254 1.2546668
0.012054167 -0.0010958334 1.25
0.0099335099 0.0011037233 1.2590001
0.014564831 0.0038493336 1.254125
-0.079995833 0.088762499 1.25
-0.080315813 0.091317981 1.2550001
-0.077804163 0.095337503 1.25
-0.0047108084 0.096111126 1.2575455
0.0011037233 0.096023932 1.2590001
-0.074604623 0.10401153 1.2576667
-0.0060468633 0.103426 1.2550626
-0.074738458 0.1148621 1.2574002
-0.031779166 0.11944583 1.25
-0.026080836 0.11900749 1.25
-0.073290505 0.12495217 1.2540001
-0.040545832 0.1282125 1.25
-0.03488424 0.12545477 1.2542727
-0.024297964 0.12453656 1.2553846
-0.018666424 0.1273731 1.2525001
-0.071229167 0.13040416 1.25
-0.068558618 0.13766626 1.25125
-0.042877659 0.13523537 1.254125
-0.037495911 0.13234247 1.2580001
-0.020970743 0.13134308 1.2590001
-0.016555849 0.13134308 1.2590001
-0.072109915 0.14385194 1.2589999
-0.065288141 0.14520986 1.2527224
-0.054478087 0.14652652 1.2529
-0.047801707 0.14304073 1.2583333
-0.064057402 0.15156627 1.2567145
-0.055186167 0.1519459 1.2589999
-0.0062792711 -0.013666648 1.2640001
-0.0028838827 -0.0090962928 1.2656
0.0042150132 -0.0039926907 1.2656
0.0070304773 0.0033313334 1.2666665
0.014093293 0.0083934572 1.2645714
0.014444398 0.012222925 1.2675
-0.086191855 0.086188853 1.2674286
-0.083542123 0.094649144 1.2671999
-0.078675576 0.098621495 1.2640001
-0.077088609 0.10520974 1.2662222
-0.00387925 0.10701558 1.265
0.0035543568 0.10391796 1.2663999
-0.081147775 0.1167194 1.268
-0.077936985 0.11343496 1.2655001
-0.0033348401 0.11004972 1.268
-0.081592418 0.12516765 1.268
-0.077472001 0.12476681 1.2644445
-0.033243202 0.12964848 1.2640001
-0.027702667 0.12780164 1.2640001
-0.082259387 0.13450521 1.268
-0.075473733 0.13556096 1.2659999
-0.040999945 0.13851333 1.2640001
-0.034246102 0.13553913 1.2664615
-0.024810446 0.13342361 1.2671111
-0.017729707 0.1340809 1.2640001
-0.081147775 0.14450973 1.268
-0.076535419 0.14530331 1.2652308
-0.044809241 0.14485654 1.2651999
-0.03816539 0.14191598 1.268
-0.081147775 0.15117942 1.268
-0.07574524 0.15521374 1.2672939
-0.065889724 0.15658396 1.2640001
-0.054163162 0.15669809 1.2649231
-0.048487846 0.15138982 1.2666668
-0.072254859 0.16245435 1.268
-0.064641654 0.16416086 1.2669332
-0.056643501 0.16367273 1.2669091
-0.0030750178 -0.0041899187 1.2748749
0.0011159966 -0.0022319932 1.273
-0.001568532 0.0042574438 1.2780001
0.0030999903 0.0055799833 1.2729999
0.0055905031 0.01230577 1.2759999
0.012015046 0.0162088 1.2748749
-0.10307496 0.075065456 1.278
-0.095979482 0.077384859 1.2764615
-0.088510022 0.079546981 1.2780001
-0.10195458 0.081787743 1.2780001
-0.095105395 0.085032053 1.2762501
-0.088510022 0.081787743 1.2780001
-0.09314093 0.094634771 1.278
-0.087256633 0.09619087 1.2737142
-0.090750776 0.10531572 1.2780001
-0.084986702 0.10510971 1.2755001
-0.0011159966 0.10825168 1.273
0.0055854623 0.10779998 1.27425
-0.085446835 0.11495083 1.276125
-0.003354565 0.11331194 1.2754999
0.0038057852 0.11119219 1.276
-0.090750776 0.12772331 1.2780001
-0.086289667 0.12490764 1.2752726
-0.09187115 0.13444561 1.278
-0.085415937 0.13510133 1.273625
-0.079235762 0.1339196 1.273
-0.031247906 0.1383836 1.273
-0.023882328 0.13816039 1.273
-0.019046459 0.13780674 1.2780001
-0.091871157 0.14004751 1.2780001
-0.085655861 0.14536317 1.2754999
-0.042488962 0.14759867 1.2755001
-0.030250261 0.14116788 1.2780001
-0.02576874 0.14116788 1.2780001
-0.090750776 0.15461244 1.2780001
-0.085094161 0.15539716 1.2741766
-0.046648659 0.15467712 1.273
-0.090750776 0.16133472 1.2780001
-0.084928282 0.16364913 1.2761817
-0.076067358 0.16648649 1.2745383
-0.061379816 0.16851549 1.273
-0.053009842 0.16516751 1.273
-0.074484631 0.17315738 1.2768461
-0.065147333 0.17308779 1.2752726
-0.05740869 0.17177618 1.2739999
-0.0056347749 -0.0022517182 1.2855
-0.0046722577 0.0046697524 1.2858572
-0.0021284493 0.014149302 1.2852223
0.0033799883 0.016906956 1.2855
0.01012287 0.019120976 1.2830001
0.0056457333 0.024841225 1.2880001
0.013312534 0.024747541 1.2870001
0.013323931 0.033648573 1.2880001
-0.11253828 0.068125181 1.2880001
-0.10643113 0.066256858 1.2846667
-0.11359216 0.074975334 1.2880001
-0.10625264 0.075059205 1.2830002
-0.11347925 0.084121428 1.2880001
-0.1059527 0.085706972 1.2830002
-0.11494713 0.094622478 1.2880001
-0.10478994 0.094648644 1.2852502
-0.097854413 0.095604874 1.2830001
-0.11404382 0.10320399 1.2880001
-0.10405746 0.10469851 1.2868097
-0.095765576 0.10492436 1.2830001
-0.10493262 0.11508354 1.2870002
-0.094480112 0.11472587 1.2830002
-0.088856302 0.1136011 1.2830001
-0.004515856 0.11773238 1.2871667
0.0049904878 0.11508004 1.2851429
0.019195493 0.11743125 1.2880001
0.021453787 0.11743125 1.2880001
0.034250785 0.11517296 1.2880001
-0.11178552 0.12533528 1.2880001
-0.10493261 0.12523796 1.2870002
-0.09485504 0.12447381 1.2830003
-0.0056457333 0.1208187 1.2880001
0.039520133 0.12985186 1.2880001
0.042907573 0.12872273 1.2880001
-0.11178551 0.13436845 1.2880001
-0.10493262 0.13539238 1.2870002
-0.096729659 0.1349716 1.2830001
-0.0169372 0.13888504 1.2880001
0.038390987 0.1332393 1.2880001
0.041778427 0.13211016 1.2880001
-0.11178551 0.14490716 1.2880001
-0.10493129 0.144419 1.2870001
-0.094568722 0.14539289 1.2832944
-0.088856302 0.14621922 1.2830001
-0.041616242 0.14959352 1.2830001
-0.034693554 0.14577231 1.2850001
-0.026511934 0.14495398 1.2867501
-0.11253829 0.15431671 1.2880001
-0.10471607 0.15430036 1.2880001
-0.095807262 0.15482958 1.2833848
-0.044583004 0.15596052 1.2851429
-0.038390987 0.15017651 1.2880001
-0.10254704 0.16454746 1.2880001
-0.094745912 0.16558625 1.2838826
-0.086231858 0.16908942 1.2830001
-0.051429942 0.16705759 1.2846667
-0.048364822 0.16309068 1.2830001
-0.10240491 0.17519143 1.2880001
-0.09487585 0.17549558 1.2856472
-0.085565299 0.17563732 1.2842503
-0.076323226 0.17819464 1.2830001
-0.06465961 0.17866623 1.2850001
-0.056341175 0.1735445 1.2855
-0.10199958 0.18329816 1.2880001
-0.094848312 0.18405092 1.2880001
-0.08509659 0.1832297 1.2880001
-0.074489154 0.18283355 1.2873751
-0.06661965 0.18179262 1.2880001
-0.0079285735 0.0079285735 1.2920001
-0.0061666677 0.014472793 1.2919999
-0.0022653067 0.024918374 1.2919999
0.0011326533 0.024918374 1.2920001
-0.0011370367 0.034111097 1.2970001
0.0047122217 0.034917634 1.2935789
0.011100003 0.036018379 1.2920001
0.0045481464 0.043775912 1.2970001
0.01023333 0.042070355 1.2970001
-0.12166292 0.069359235 1.2970001
-0.11613613 0.065253951 1.2945
-0.12234277 0.075752035 1.2961667
-0.11832691 0.074096449 1.2936667
-0.12371694 0.085123755 1.2946666
-0.11807911 0.085798495 1.2919999
-0.1247461 0.095257133 1.2935625
-0.1189286 0.098540843 1.2920001
-0.12456852 0.10522566 1.293579
-0.11666329 0.107149 1.2919999
-0.10986737 0.10646941 1.2920001
0.039796282 0.10574441 1.2970001
0.042979985 0.10619922 1.2970001
-0.12516329 0.11554018 1.2958236
-0.11558817 0.11558763 1.292625
0.0045306133 0.1189286 1.2920001
0.013597867 0.11785347 1.292625
0.02605103 0.11779594 1.2919999
0.036848858 0.11582717 1.29325
0.044924319 0.11527258 1.294353
0.05207628 0.11756959 1.2970001
-0.12425078 0.12477556 1.2966155
-0.11670164 0.12463168 1.2924166
-0.0039679394 0.12532258 1.2936666
0.0042773243 0.12403227 1.2943077
0.015174017 0.12441638 1.296412
0.024959739 0.12480693 1.2941875
0.035112254 0.12459186 1.2919999
0.045352522 0.1235772 1.29325
