# .PCD v0.7 - Point Cloud Data file format
VERSION 0.7
FIELDS x y z
SIZE 4 4 4
TYPE F F F
COUNT 1 1 1
WIDTH 1431
HEIGHT 1
VIEWPOINT 0 0 0 1 0 0 0
POINTS 1431
DATA ascii
-0.11856078 -0.12612665 1.1615715
-0.12277384 -0.11826462 1.169
-0.11579779 -0.11538506 1.1634002
-0.11213414 -0.10872274 1.1663333
-0.10636349 -0.10450593 1.1635455
-0.10178739 -0.095963314 1.1627142
0.049872689 -0.09058509 1.161
0.053327341 -0.091367662 1.1623334
0.046038594 -0.083408557 1.1626668
0.052573375 -0.085570447 1.16725
0.01933839 -0.07022889 1.161
0.025498785 -0.072411552 1.1634001
0.036230836 -0.073371418 1.1633158
0.045009997 -0.074667804 1.1668003
0.050801959 -0.074519292 1.169
-0.080684014 -0.064342953 1.1650001
-0.077870496 -0.062907554 1.1636667
-0.04580145 -0.060390059 1.1610001
0.017701363 -0.063642494 1.1646667
0.024807442 -0.06669943 1.1677692
0.035834096 -0.067567855 1.1677999
0.045092225 -0.068663165 1.169
0.050216343 -0.068663165 1.169
-0.070349872 -0.057093792 1.1630001
-0.063787684 -0.053741895 1.1634616
-0.054127034 -0.053348888 1.162905
-0.045407113 -0.054409768 1.1651819
-0.035927702 -0.053968336 1.1653334
-0.025762144 -0.05297064 1.1656318
-0.017638158 -0.051450439 1.1638572
0.014811429 -0.054640446 1.1650001
-0.054315638 -0.048166696 1.169
-0.013291144 -0.047273595 1.166
-0.0085109724 -0.04255252 1.1650001
0.0091602895 -0.043765828 1.161
0.013126735 -0.045338571 1.1653078
-0.0032370917 -0.036614131 1.1656667
0.005202014 -0.035333801 1.1644285
0.012085201 -0.038301043 1.1682001
-0.10395754 -0.30103835 1.177
-0.097068563 -0.30356669 1.1754
-0.12347645 -0.29200977 1.177
-0.11412326 -0.29417086 1.1766365
-0.10535439 -0.29615331 1.1743335
-0.09769135 -0.29821569 1.1730001
-0.1326942 -0.2825169 1.177
-0.1246632 -0.28560632 1.1768334
-0.11767033 -0.28572884 1.1730002
-0.1332445 -0.27563798 1.177
-0.12464914 -0.2750538 1.1750802
-0.11825795 -0.27662078 1.1730001
-0.13198602 -0.26500386 1.1762002
-0.12592368 -0.26633745 1.1730002
-0.1319918 -0.25493574 1.1752223
-0.13396481 -0.24444945 1.1754445
-0.14136162 -0.23319508 1.177
-0.13493352 -0.23486394 1.1740912
-0.12545626 -0.23343091 1.1730001
-0.14239347 -0.22390856 1.177
-0.13484785 -0.2255414 1.1756668
-0.12527478 -0.22484134 1.1730002
-0.15327938 -0.21413741 1.1766001
-0.1451533 -0.21515916 1.1742802
-0.13496792 -0.21533562 1.1752402
-0.1250578 -0.21605374 1.1732355
-0.15533504 -0.2047679 1.1748183
-0.14807951 -0.20635153 1.1730002
-0.13471124 -0.20875099 1.1730001
-0.15448202 -0.19464347 1.1747501
-0.14910784 -0.19024105 1.1730001
-0.15249078 -0.18608114 1.1764287
-0.14830677 -0.18466526 1.173889
-0.14509584 -0.17555365 1.1750001
-0.14217204 -0.16553932 1.1761112
-0.13882455 -0.1645328 1.1730001
-0.14239347 -0.15683916 1.177
-0.13856067 -0.1546782 1.1736668
-0.13676789 -0.14910784 1.1730001
-0.13241903 -0.13585849 1.177
-0.12854125 -0.13471124 1.1730001
-0.12175673 -0.11453387 1.177
-0.11715335 -0.1116549 1.1756667
-0.11336187 -0.10535283 1.1743335
-0.10815875 -0.10094641 1.1750001
-0.10609858 -0.098886244 1.1750001
0.056558151 -0.085351393 1.1730001
0.052444831 -0.078153081 1.1730001
-0.083578773 -0.067069381 1.177
0.026588863 -0.062437072 1.1740001
0.035013776 -0.062814914 1.1746668
0.044114742 -0.065278582 1.175182
0.050559998 -0.067069381 1.177
0.018792009 -0.053797308 1.1745001
0.022494039 -0.057163753 1.177
0.036114283 -0.05881469 1.177
-0.052790456 -0.045836955 1.1750002
-0.043770347 -0.04539514 1.1755265
-0.035333924 -0.045784663 1.1755714
-0.026146585 -0.047138128 1.1759092
-0.016044628 -0.045481589 1.1752859
-0.0092549697 -0.04010487 1.1730001
0.01750816 -0.044281811 1.1747144
-0.0056619514 -0.034993906 1.174
0.0092549697 -0.031878229 1.1730001
0.013642467 -0.034490697 1.1745002
-0.0010318366 -0.028891426 1.177
0.0046970826 -0.028972175 1.1756668
-0.13423237 -0.30286252 1.189
-0.1258314 -0.30261987 1.1862309
-0.11409485 -0.30363169 1.181
-0.1048331 -0.30620375 1.182
-0.15322644 -0.29915637 1.189
-0.14210795 -0.29220733 1.189
-0.13525279 -0.29547065 1.1867501
-0.12566528 -0.29573172 1.1818571
-0.11640216 -0.29832679 1.1810001
-0.14397126 -0.28481433 1.1881109
-0.13561113 -0.286598 1.1823334
-0.14269809 -0.27498755 1.1866668
-0.13770068 -0.27410716 1.1810001
-0.14224224 -0.26624644 1.1886667
-0.13698764 -0.26486859 1.1827779
-0.14106561 -0.25468245 1.189
-0.13694446 -0.25521064 1.1834
-0.14410128 -0.24476813 1.1871819
-0.13908112 -0.24537636 1.1810001
-0.15393828 -0.2327535 1.1886364
-0.14589486 -0.23529722 1.1838571
-0.16385847 -0.22452362 1.189
-0.15495031 -0.22503753 1.1861998
-0.14629076 -0.22648033 1.1818
-0.16486616 -0.21509209 1.186818
-0.15789615 -0.21628709 1.1823334
-0.16603446 -0.20496257 1.1843998
-0.16368778 -0.19602278 1.1858888
-0.15858637 -0.19175243 1.1823335
-0.16156529 -0.18762419 1.189
-0.15698095 -0.18397653 1.1847143
-0.1537222 -0.17536959 1.1861765
-0.14766179 -0.17252931 1.182
-0.15274861 -0.16567509 1.1864288
-0.14721934 -0.16484332 1.1826
-0.1519756 -0.1578128 1.189
-0.1460097 -0.15430941 1.1840001
-0.13977134 -0.15012479 1.1810001
-0.14071815 -0.149057 1.189
-0.13863343 -0.149057 1.189
-0.12113517 -0.11181708 1.1810001
-0.11906448 -0.11078174 1.1810001
-0.12113517 -0.10871105 1.1810001
-0.11545817 -0.10405069 1.1830001
-0.11257452 -0.099023886 1.189
-0.10725008 -0.096886128 1.182
-0.086515605 -0.069837898 1.189
0.045316871 -0.061887626 1.1815001
0.051884055 -0.063296206 1.1836667
0.025638115 -0.054104067 1.1823334
0.03417648 -0.054848213 1.1843332
0.044268254 -0.056399088 1.1865554
0.052117832 -0.059414331 1.189
-0.051536605 -0.041850019 1.1836667
-0.046272803 -0.041091412 1.1816667
-0.033389822 -0.041154899 1.1810001
-0.02488126 -0.042507228 1.1826667
-0.01651345 -0.04198508 1.1839092
0.01968818 -0.04351861 1.1820002
0.02345288 -0.046322387 1.1858889
-0.042594951 -0.036356244 1.1850002
-0.034308173 -0.035346322 1.186
-0.026036121 -0.036971226 1.1880001
-0.017720064 -0.038567197 1.189
-0.0060246284 -0.033016495 1.1842
0.017337337 -0.033187345 1.183
0.021889489 -0.034397773 1.189
-0.0028903699 -0.025064969 1.1858889
0.0054449765 -0.024114467 1.1832501
0.01560344 -0.024954492 1.1861999
0.021889489 -0.028143629 1.189
-0.0010423567 -0.019804776 1.189
0.0053965203 -0.01827045 1.1879091
0.013967579 -0.019387834 1.189
-0.15005991 -0.31166288 1.197
-0.14796117 -0.31166288 1.197
-0.15284546 -0.30374858 1.193
-0.14496608 -0.30410698 1.1935457
-0.13737354 -0.30718336 1.1935714
-0.15447339 -0.29491144 1.1943334
-0.1465703 -0.29568052 1.193
-0.1520739 -0.28631613 1.1963334
-0.14955845 -0.2855207 1.1930001
-0.15005991 -0.27493495 1.197
-0.14806437 -0.27476326 1.193
-0.15005991 -0.26653999 1.197
-0.14631058 -0.26394206 1.1937999
-0.14574493 -0.25578701 1.1944546
-0.16265234 -0.24030572 1.197
-0.15314446 -0.24440196 1.1965001
-0.14788508 -0.24661458 1.1930001
-0.17225593 -0.23305042 1.1956667
-0.16433819 -0.23447236 1.1940001
-0.15557218 -0.23819539 1.193
-0.17379075 -0.22508749 1.1942002
-0.16664089 -0.22695233 1.193
-0.17328559 -0.21516337 1.1943332
-0.17390613 -0.20533288 1.1950001
-0.17170081 -0.19624797 1.1952858
-0.16777314 -0.19332446 1.1946001
-0.16469353 -0.18583797 1.1951818
-0.16149023 -0.17573151 1.1946
-0.15792537 -0.17256746 1.1930001
-0.16028535 -0.1676169 1.1950001
-0.15731637 -0.1639425 1.1936666
-0.15364987 -0.15504551 1.1950001
-0.14771396 -0.15085503 1.1950001
-0.14349757 -0.14698611 1.194778
-0.13869348 -0.1454951 1.194
-0.11018385 -0.095492668 1.197
-0.10808511 -0.095492668 1.197
-0.093813673 -0.077023759 1.197
-0.089196451 -0.0734559 1.197
-0.084204704 -0.065337092 1.1956667
-0.077393889 -0.061705936 1.1930001
-0.068209052 -0.053517871 1.197
0.046190944 -0.052168306 1.1935713
0.052358482 -0.054450203 1.1945
-0.053517871 -0.040925428 1.197
0.025928952 -0.044521958 1.1950002
0.034819681 -0.046294607 1.1959476
0.044673186 -0.046622016 1.1970003
0.052618414 -0.046622012 1.1969999
-0.051419131 -0.038826689 1.197
-0.045505531 -0.034098536 1.1947778
-0.034513488 -0.030330036 1.1930001
-0.024409615 -0.032778855 1.1933333
-0.016204461 -0.034565467 1.1948824
-0.0087313075 -0.03282474 1.1950001
0.02413551 -0.034629211 1.197
-0.040925428 -0.02833299 1.197
-0.033768672 -0.027054811 1.1962001
-0.025184883 -0.027283622 1.197
-0.01923845 -0.027633408 1.197
-0.0062874532 -0.025146309 1.1950001
0.022846811 -0.025361091 1.1954
-0.0017442744 -0.017797209 1.1943334
0.0053972327 -0.013776546 1.1948463
0.016131366 -0.014765781 1.1948001
0.02203677 -0.016789921 1.197
-0.16334668 -0.29444692 1.2060001
-0.15872225 -0.29213077 1.2030001
-0.15633923 -0.28472811 1.2043999
-0.15485294 -0.2752111 1.2043334
-0.15307826 -0.26498106 1.2042222
-0.1526792 -0.25467163 1.2044001
-0.18502049 -0.24211253 1.2060001
-0.17219049 -0.24296904 1.205
-0.16518503 -0.2438238 1.204
-0.1565574 -0.24726534 1.203143
-0.18370123 -0.23542477 1.2053684
-0.17627034 -0.23749109 1.2040001
-0.18351077 -0.2250644 1.2041051
-0.17808431 -0.22023444 1.202
-0.18150945 -0.215326 1.2055001
-0.17808431 -0.21496567 1.202
-0.17783183 -0.20489104 1.2026668
-0.17495154 -0.19447668 1.2040001
-0.17092369 -0.18537293 1.2060002
-0.16796827 -0.18440683 1.202
-0.17021886 -0.17867693 1.2060001
-0.16633815 -0.17478842 1.2051111
-0.16307665 -0.16571279 1.204
-0.15911674 -0.16122426 1.202
-0.16176078 -0.15858901 1.2060001
-0.1560497 -0.15355326 1.2034546
-0.15292898 -0.14749265 1.2054287
-0.14488034 -0.14353602 1.2030909
-0.13850106 -0.14061558 1.2060001
-0.14167285 -0.13850106 1.2060001
-0.13850106 -0.13850106 1.2060001
-0.11213233 -0.094814308 1.2044001
-0.10807254 -0.092582427 1.2046667
-0.10474075 -0.085158341 1.2052002
-0.097999059 -0.081139006 1.202
-0.10088504 -0.077642858 1.205
-0.095374025 -0.073551446 1.2043334
-0.089569032 -0.070601471 1.202
-0.09198162 -0.068721898 1.2060001
-0.085828736 -0.064436749 1.205
-0.077006988 -0.060130566 1.2033334
-0.073185883 -0.055483796 1.2055001
-0.067664638 -0.051805738 1.2060001
-0.065550119 -0.049691219 1.2060001
-0.056739617 -0.042642821 1.2060001
0.027748838 -0.041798878 1.202
0.034071356 -0.041447628 1.202
0.04588617 -0.043395478 1.2019999
0.051633913 -0.042150132 1.202
-0.052862998 -0.037004098 1.2060001
-0.047986977 -0.032693528 1.2030001
-0.012855791 -0.03224485 1.202
0.026998077 -0.035744201 1.2042857
0.034312733 -0.037478674 1.2043334
0.044615321 -0.038277019 1.2045001
0.051805738 -0.039118621 1.2060001
-0.043714456 -0.027240839 1.2044001
-0.03393276 -0.023375189 1.2042857
-0.024276655 -0.023219392 1.204
-0.015045354 -0.026662065 1.2045001
-0.008436163 -0.02530849 1.2030001
0.025608309 -0.023496421 1.2045001
-0.0021145199 -0.0158589 1.2060001
0.0010537533 -0.011591286 1.202
0.024986751 -0.0144274 1.2042222
0.0064481753 -0.008323852 1.2037778
0.0146901 -0.0070582451 1.2035384
0.021266682 -0.0073882961 1.2042859
-0.16594774 -0.29252821 1.2134
-0.16498624 -0.28522381 1.215
-0.16371682 -0.27565327 1.2155262
-0.15805423 -0.27155626 1.21
-0.16120169 -0.26581827 1.2177501
-0.15768319 -0.2648375 1.21325
-0.19230187 -0.25089386 1.2152501
-0.18556052 -0.25061926 1.2165
-0.1761802 -0.25092828 1.2180001
-0.16470338 -0.25414163 1.2165715
-0.15729427 -0.2561903 1.2111429
-0.19418043 -0.24436787 1.2130001
-0.18606943 -0.24469037 1.2102499
-0.17641583 -0.24583697 1.2108001
-0.1654796 -0.2482194 1.21
-0.19437756 -0.23480107 1.2136153
-0.18987723 -0.23442943 1.21
-0.19409882 -0.2250241 1.2165
-0.18945292 -0.22424607 1.21
-0.19223195 -0.21515878 1.2165
-0.18682744 -0.21548566 1.2108572
-0.18460763 -0.20616259 1.2145624
-0.17926957 -0.2004849 1.21
-0.18335707 -0.19568066 1.2167778
-0.17901474 -0.19387132 1.2106668
-0.18167163 -0.18594627 1.219
-0.17605576 -0.18525995 1.2121999
-0.17427246 -0.17559721 1.2148751
-0.16866189 -0.1718442 1.21
-0.17292649 -0.16652234 1.2167778
-0.16727103 -0.16360083 1.2110909
-0.16398455 -0.15481043 1.214
-0.16136716 -0.14854327 1.2190001
-0.15540329 -0.14477071 1.2125
-0.14797695 -0.14161235 1.21
-0.15139304 -0.13928159 1.2190001
-0.14456998 -0.13533694 1.2143333
-0.13665223 -0.13354506 1.2112308
-0.14213133 -0.1282388 1.2190001
-0.13512279 -0.1247867 1.21455
-0.12877707 -0.12026288 1.2140001
-0.13318013 -0.1166302 1.21775
-0.12775734 -0.1154272 1.2124002
-0.12264567 -0.10478184 1.2165
-0.1183728 -0.10297765 1.2110001
-0.12075821 -0.099385068 1.2190001
-0.11616568 -0.09389443 1.213923
-0.11319768 -0.084530987 1.215
-0.10872857 -0.083270185 1.21
-0.11060596 -0.074805968 1.2190001
-0.10529038 -0.075187415 1.2117778
-0.098651297 -0.071071364 1.21
-0.10367373 -0.067957006 1.2160001
-0.094852395 -0.0647531 1.21295
-0.086828925 -0.061776597 1.2108001
-0.090835817 -0.057707459 1.2190001
-0.084876046 -0.05468481 1.2152222
-0.077515274 -0.05317118 1.2112308
-0.081859097 -0.0463797 1.2190001
-0.074411474 -0.045658357 1.2144445
-0.064681761 -0.045286842 1.2112175
-0.058342166 -0.043491431 1.21
-0.073202975 -0.039005969 1.2190001
-0.064141005 -0.0365487 1.2158235
-0.05604057 -0.034214489 1.2121999
-0.048795268 -0.030762233 1.21
0.028640701 -0.032883767 1.21
0.035531569 -0.032588664 1.2112308
0.045285653 -0.033578403 1.2133571
0.050920308 -0.034297653 1.2152002
-0.053739615 -0.026266083 1.2168125
-0.045167495 -0.02310981 1.2142857
-0.03690942 -0.021506388 1.2115
-0.024397634 -0.020154567 1.21
-0.014383868 -0.022301605 1.2114545
-0.0082802922 -0.021440813 1.2108001
0.028697509 -0.024441816 1.2124002
0.034789335 -0.025500786 1.21725
0.044033408 -0.027178224 1.2184445
-0.042390049 -0.017454723 1.2190001
-0.034558617 -0.015361881 1.2161176
-0.024704928 -0.015065931 1.2142105
-0.016003001 -0.016537331 1.2171251
-0.0050959662 -0.015510182 1.2153335
0.028853729 -0.017098505 1.2190001
-0.030991044 -0.0096179098 1.2190001
-0.026716417 -0.0096179098 1.2190001
-0.0010686567 -0.0096179098 1.2190001
0.0056756861 -0.003900144 1.2143334
0.015002271 -0.0019699952 1.21
0.023831308 -0.0042541125 1.2134
0.0090737194 0.0026705458 1.2177501
0.014924302 0.0032012211 1.2160833
0.021701589 0.0024906101 1.2173334
-0.17510669 -0.29315898 1.2242306
-0.18178824 -0.28935522 1.2270001
-0.17418259 -0.28537506 1.2255001
-0.17156279 -0.27721894 1.2256669
-0.16779839 -0.27226782 1.2243334
-0.17103153 -0.2613878 1.2270001
-0.16615728 -0.26533777 1.2247499
-0.18178824 -0.25493377 1.2270001
-0.17417026 -0.25580594 1.2252858
-0.16725749 -0.25839135 1.223
-0.20305572 -0.24334076 1.2255001
-0.19835024 -0.2455254 1.223
-0.21298265 -0.23342039 1.2270001
-0.20288394 -0.23544182 1.2254616
-0.19835022 -0.2337316 1.223
-0.20115027 -0.22481504 1.2270001
-0.19883677 -0.22570397 1.2260001
-0.20115028 -0.21836101 1.2270001
-0.19689353 -0.21514206 1.2246001
-0.19236557 -0.20618059 1.2258574
-0.18870074 -0.20371103 1.223
-0.19039358 -0.19469626 1.2270001
-0.18719971 -0.19449043 1.223
-0.19039358 -0.18824224 1.2270001
-0.18568821 -0.18514924 1.2243334
-0.18326396 -0.17705365 1.2256668
-0.17905128 -0.17261831 1.223
-0.17699093 -0.16481559 1.2252223
-0.17209792 -0.15748563 1.2254002
-0.16753101 -0.15356833 1.2250001
-0.16224967 -0.14648955 1.2256669
-0.15773688 -0.14217648 1.2240001
-0.15288958 -0.13515331 1.2260001
-0.14831592 -0.13259088 1.223
-0.15166947 -0.12800473 1.2270001
-0.14554596 -0.12509742 1.2240524
-0.13830908 -0.12115446 1.223
-0.14227045 -0.11790027 1.2263335
-0.13567625 -0.1130476 1.2245386
-0.12758744 -0.11150499 1.223
-0.1325803 -0.10619979 1.2259092
-0.12690589 -0.10388587 1.2252859
-0.12280805 -0.095833398 1.2252223
-0.11795062 -0.085124962 1.2247144
-0.11432321 -0.075651191 1.2252859
-0.11139073 -0.069125451 1.2256669
-0.10524418 -0.063788548 1.2250001
-0.098639026 -0.061113309 1.223
-0.10165081 -0.057548344 1.2270001
-0.09496519 -0.054875825 1.2247777
-0.088989556 -0.051463842 1.223
-0.091431953 -0.048405148 1.2270001
-0.085415468 -0.044805709 1.2248182
-0.078267924 -0.041814368 1.223
-0.082481682 -0.038244583 1.2264287
-0.07550101 -0.035843633 1.2255456
-0.067362845 -0.032471955 1.2245001
-0.063145645 -0.027137874 1.2260002
-0.055554144 -0.021737169 1.2245002
0.037122805 -0.020813294 1.2238001
0.045766696 -0.022539658 1.2244548
0.050887872 -0.025548344 1.2246001
-0.051880471 -0.015858682 1.2265002
-0.04567723 -0.01445185 1.2248462
-0.038955268 -0.012508572 1.223
-0.020371104 -0.011793797 1.223
-0.014309538 -0.01395332 1.2243334
-0.007519871 -0.013964072 1.2254002
0.028995749 -0.012885246 1.2250001
0.033812545 -0.016606502 1.2265557
0.044102471 -0.01828639 1.2270001
-0.050556488 -0.0096810302 1.2270001
-0.044461027 -0.0086053601 1.2270001
-0.034461834 -0.0070227068 1.2254617
-0.02442177 -0.0062281322 1.2254002
-0.017569276 -0.0089639165 1.2270001
-0.0017916145 -0.0075215078 1.2256669
0.0017881078 -0.0032199966 1.2243334
0.027717218 -0.0053713368 1.2254002
0.0068004974 0.0048928717 1.2247779
0.015022561 0.0085851969 1.2240001
0.023645453 0.0053748437 1.2260001
0.01505938 0.011832369 1.2270001
-0.1829074 -0.28581917 1.2345456
-0.17835346 -0.28320101 1.233
-0.1743712 -0.27493626 1.2335001
-0.17384264 -0.26487222 1.2332002
-0.1760487 -0.25813276 1.2320001
-0.21203585 -0.24340649 1.2340001
-0.20683022 -0.24463207 1.2320001
-0.21190646 -0.23393956 1.2320002
-0.20725025 -0.23365153 1.2320002
-0.2112942 -0.22863115 1.2360001
-0.2061094 -0.22581686 1.2337779
-0.20146619 -0.21443851 1.2333335
-0.19872981 -0.21169046 1.2320001
-0.2004586 -0.20912708 1.2360001
-0.19608384 -0.20449673 1.2342224
-0.19457167 -0.19529015 1.2337779
-0.19298138 -0.18649104 1.2337143
-0.18900934 -0.18144897 1.2320001
-0.18587288 -0.17381895 1.2337143
-0.18164533 -0.16542466 1.2333335
-0.1782088 -0.16092795 1.2320001
-0.17429185 -0.15573259 1.2348573
-0.16795179 -0.15061484 1.2360001
-0.16322218 -0.14484724 1.233
-0.15686285 -0.13468406 1.2340001
-0.1531186 -0.12499613 1.2337143
-0.15012741 -0.11988592 1.2320001
-0.14490467 -0.11570641 1.2335001
-0.14194636 -0.10943956 1.2360001
-0.13591489 -0.10387607 1.2330911
-0.12852634 -0.10044496 1.2320001
-0.13275819 -0.097673282 1.2352002
-0.12710164 -0.094667979 1.233143
-0.12346935 -0.086678177 1.2342223
-0.11988592 -0.082084052 1.2320001
-0.12027516 -0.078016318 1.2360001
-0.11713318 -0.072800733 1.2333335
-0.11332057 -0.065448426 1.2340001
-0.10908539 -0.062643096 1.2320001
-0.10478117 -0.054484185 1.2337502
-0.098284855 -0.050762508 1.2320001
-0.10239642 -0.048218422 1.2360001
-0.09447778 -0.045432959 1.2340001
-0.088924386 -0.042842116 1.2320001
-0.085439645 -0.035507631 1.2336669
-0.076302961 -0.031773906 1.2328001
-0.073676467 -0.02662495 1.2346668
-0.065756723 -0.023237802 1.2330002
-0.059402931 -0.020521013 1.2320001
0.052259851 -0.021263259 1.2333335
-0.06266313 -0.015316118 1.2354287
-0.057094961 -0.014587733 1.2326669
-0.012960641 -0.011880587 1.2320001
-0.0086404271 -0.011880587 1.2320001
0.036374651 -0.014044981 1.2324446
0.044866562 -0.01469809 1.2341179
0.051327784 -0.015808053 1.2352002
-0.06274654 -0.0097362604 1.2340001
-0.054179948 -0.008047021 1.2333335
-0.044541363 -0.0048152911 1.2338183
-0.036615442 -0.0032405495 1.2324446
-0.02453264 -0.0016972264 1.2320002
-0.014921567 -0.0052632736 1.2336001
-0.0061349138 -0.0064931787 1.2346668
0.0010800533 -0.0010800533 1.2320001
0.02916144 -0.0039601955 1.2320001
0.034119863 -0.0065640127 1.2341334
0.042692266 -0.0093186153 1.2360001
0.050927319 -0.0097520398 1.2360001
-0.035173036 0.0020412696 1.2324446
-0.02535212 0.0029094543 1.2326156
-0.017336961 0.0021671199 1.2360001
0.0043254732 0.0061290688 1.2340001
0.027037803 0.0067061493 1.2336003
0.031423241 0.0032506802 1.2360001
0.0086579612 0.014072254 1.2346668
0.015139031 0.015604415 1.2334287
0.022257593 0.014318498 1.2351112
-0.18586245 -0.2820659 1.2442
-0.18008925 -0.2772283 1.245
-0.17830743 -0.27536583 1.244
-0.18008925 -0.26085654 1.245
-0.17790635 -0.26849669 1.245
-0.21650073 -0.24043548 1.2410001
-0.21650073 -0.23825958 1.2410001
-0.20248108 -0.20527962 1.2427143
-0.19941449 -0.20268182 1.243
-0.20191824 -0.19755244 1.245
-0.19973534 -0.19646099 1.245
-0.19673386 -0.1841822 1.245
-0.19178486 -0.17870849 1.243
-0.18882085 -0.17135765 1.245
-0.18663795 -0.16917475 1.245
-0.174632 -0.15334873 1.245
-0.17135765 -0.14952865 1.245
-0.16651085 -0.14446893 1.2432222
-0.16153459 -0.1375227 1.245
-0.15607736 -0.12551674 1.245
-0.15171155 -0.11896805 1.245
-0.14734575 -0.11460225 1.245
-0.1418885 -0.10587065 1.245
-0.13381527 -0.093934461 1.2438571
-0.12988254 -0.091681801 1.245
-0.13206545 -0.088407449 1.245
-0.12733583 -0.08549691 1.245
-0.12268995 -0.075520672 1.244
-0.12115095 -0.067669898 1.245
-0.11605752 -0.063667916 1.245
-0.11198278 -0.054354209 1.245
-0.10988227 -0.054759815 1.2410001
-0.11302659 -0.047609717 1.2436666
-0.10571713 -0.044439889 1.2432224
-0.097672567 -0.042213626 1.2438571
-0.10368775 -0.038200751 1.245
-0.094592333 -0.037473116 1.245
-0.087315999 -0.032743499 1.245
-0.082679316 -0.027703892 1.2442
-0.076667301 -0.022432322 1.2422
-0.072524443 -0.017994022 1.244
-0.06701722 -0.015527739 1.243
-0.011967377 -0.0010879433 1.2410001
-0.0057505579 -0.0023313072 1.2410001
0.037393633 -0.0018144078 1.2423334
0.044677563 -0.0052287905 1.243
0.052506197 -0.0058805048 1.2426
-0.020704236 0.0065399334 1.243
-0.014894662 0.0054510161 1.2432222
-0.0061089639 0.0024008392 1.2445999
0.0018190834 0.0054572499 1.245
0.035766948 0.0054498864 1.2437999
0.00762437 0.015250493 1.243
0.028170679 0.016343696 1.2427143
0.031652048 0.014188849 1.245
0.0098230503 0.020737549 1.245
0.01568602 0.02244249 1.2426001
0.023131825 0.022404188 1.2432224
-0.19215438 -0.28109223 1.2525001
-0.19268255 -0.27762252 1.2583333
-0.18551144 -0.27510518 1.2548184
-0.19220553 -0.26410523 1.2589999
-0.18506041 -0.2652722 1.2547692
-0.2105879 -0.20397024 1.2576667
-0.2065672 -0.20261344 1.2520001
-0.21081115 -0.19646275 1.2590001
-0.2054735 -0.19430135 1.2543848
-0.2005375 -0.18957916 1.25
-0.19615416 -0.18081249 1.25
-0.19453909 -0.17532943 1.255
-0.18957916 -0.1742375 1.25
-0.19074191 -0.16648337 1.2576667
-0.18679915 -0.16455969 1.2542223
-0.18313435 -0.15602238 1.2569001
-0.17751551 -0.15189201 1.2525001
-0.18211435 -0.14900266 1.2590001
-0.17541043 -0.14494927 1.2565295
-0.16875833 -0.14245833 1.25
-0.17080535 -0.13884646 1.2570001
-0.16534427 -0.13493773 1.25525
-0.16216141 -0.12575608 1.2583333
-0.15814629 -0.1248049 1.251
-0.15404391 -0.11662885 1.2551
-0.14740419 -0.1115573 1.2516667
-0.14496359 -0.10464463 1.2565
-0.13917083 -0.1019125 1.25
-0.14230491 -0.094868191 1.2583333
-0.13815579 -0.094557889 1.2521429
-0.14017287 -0.089401588 1.2590001
-0.1340324 -0.084538117 1.2544374
-0.1282125 -0.082187496 1.25
-0.13207889 -0.077628538 1.2590001
-0.12705137 -0.074823931 1.2515
-0.12584072 -0.06456659 1.2554446
-0.11856916 -0.062024169 1.25
-0.12305331 -0.056198135 1.2570001
-0.1172705 -0.055189751 1.2522727
-0.11615834 -0.049312498 1.25
-0.10201222 -0.035646364 1.25125
-0.095647268 -0.033831295 1.2516667
-0.088762499 -0.031779166 1.25
-0.093809657 -0.028005507 1.2556667
-0.086724974 -0.025645209 1.2521819
0.046522822 -0.0020357452 1.2507143
0.05223472 -0.0018263889 1.25
-0.01469381 0.0094320569 1.251
-0.0050463853 0.0075372881 1.2516668
0.0018263889 0.0091319447 1.25
0.03762361 0.0091319447 1.25
0.044612214 0.0050048903 1.2550004
0.052866504 0.0033064948 1.2563334
-0.014556173 0.013825228 1.2557778
-0.0056677749 0.014173695 1.2572858
0.0037310056 0.015378049 1.2529
0.035430882 0.015268505 1.2521819
0.041941486 0.012140957 1.2590001
0.0081056599 0.02532658 1.256
0.014925251 0.02788063 1.2520001
0.026342187 0.026753131 1.2518752
0.033354301 0.024942605 1.2567273
0.0093816482 0.033663563 1.2590001
0.015741177 0.034793276 1.257
0.025338298 0.035254281 1.2566004
0.032954026 0.035476822 1.2589999
0.027092021 0.042540252 1.2585555
0.032708727 0.043369871 1.2576667
-0.20056731 -0.27370235 1.2640001
-0.19545299 -0.27421376 1.2640001
-0.19569162 -0.26838344 1.2640001
-0.21454138 -0.19453233 1.268
-0.19761235 -0.173234 1.2640001
-0.19498858 -0.16637063 1.2652
-0.18948624 -0.16178358 1.2640001
-0.1917533 -0.15618166 1.268
-0.18775596 -0.15416309 1.2651428
-0.18308556 -0.14535685 1.2657143
-0.17840517 -0.14183766 1.2640001
-0.17349584 -0.13578413 1.2651428
-0.16954032 -0.1318647 1.2640001
-0.17007683 -0.12783553 1.268
-0.16581237 -0.12518975 1.2659999
-0.16092971 -0.11764341 1.266
-0.15621731 -0.1125679 1.2657777
-0.15215376 -0.10582269 1.2668571
-0.14848629 -0.10416202 1.2640001
-0.15006781 -0.098933585 1.268
-0.14662826 -0.09495002 1.2657143
-0.14265354 -0.086427644 1.2657778
-0.13851333 -0.081999898 1.2640001
-0.13555457 -0.074710406 1.2656666
-0.13275118 -0.068037748 1.2640001
0.049126059 0.0092342226 1.2640001
0.052877028 0.0085036671 1.2653333
-0.014450974 0.017230008 1.268
-0.004222027 0.018442262 1.2672
0.0022162134 0.018837813 1.2640001
0.038783733 0.017729707 1.2640001
0.04474356 0.016025966 1.266857
0.052028731 0.014649578 1.2676363
0.0039625335 0.024577724 1.2662858
0.037903063 0.024900341 1.2662858
0.043352921 0.022232266 1.268
0.0073902998 0.0358469 1.2646667
0.01329728 0.038783733 1.2640001
0.036661498 0.032215044 1.2672001
0.0088771265 0.041064821 1.266
0.015467907 0.043892946 1.2663999
0.02458027 0.046023536 1.265
0.032135092 0.049864799 1.2640001
0.025289202 0.05169002 1.268
0.030013559 0.052245826 1.268
-0.2023921 -0.17890793 1.2755001
-0.19251797 -0.15222156 1.2767501
-0.19270536 -0.14901054 1.2780001
-0.18701755 -0.14424412 1.2754999
-0.18158275 -0.13724902 1.2770001
-0.17668477 -0.13422681 1.2744285
-0.17365889 -0.12809677 1.2780001
-0.16851549 -0.12275963 1.273
-0.16460748 -0.11559813 1.2757272
-0.15958752 -0.11048367 1.273
-0.16170818 -0.10718302 1.2780001
-0.1561912 -0.10477756 1.2748749
-0.15320672 -0.094610006 1.2771666
-0.14842756 -0.090395726 1.273
-0.15293187 -0.087389648 1.2780001
-0.14657985 -0.085037835 1.2763333
-0.14308953 -0.076578334 1.2765714
-0.13949959 -0.073655784 1.273
-0.014507957 0.018971942 1.273
0.055799834 0.017855946 1.273
-0.011184075 0.021245578 1.2755001
-0.0033504944 0.022506913 1.2744285
0.0016750908 0.026253317 1.27425
0.045309465 0.025891121 1.2729999
0.054471042 0.024739671 1.2735264
0.0040963707 0.035013188 1.2746667
0.038226701 0.035994705 1.275
0.044213369 0.031621151 1.27675
0.054853033 0.031346969 1.277
0.00670913 0.043611534 1.2755001
0.011717966 0.04742986 1.273
0.016070943 0.053674676 1.2755001
0.02399393 0.056543831 1.2729999
0.03013191 0.056915831 1.273
0.019046459 0.061620899 1.2780001
0.025098467 0.062512346 1.2765714
0.03013191 0.061379816 1.273
-0.19760066 -0.15356395 1.2880001
-0.20133263 -0.14734399 1.2830001
-0.19501312 -0.14565602 1.2837144
-0.18783547 -0.14059542 1.2830001
-0.19082579 -0.1377559 1.2880001
-0.18490399 -0.13467818 1.2845001
-0.17883737 -0.13159731 1.2830001
-0.18292177 -0.12985186 1.2880001
-0.17538497 -0.12494987 1.2861819
-0.17050114 -0.11291467 1.2880001
-0.16848955 -0.11495081 1.2830001
-0.17050114 -0.10726893 1.2880001
-0.16489282 -0.10419218 1.2853335
-0.15859163 -0.1012287 1.2830001
-0.1633116 -0.096568219 1.2872858
-0.1580478 -0.095355608 1.2846668
-0.15203738 -0.085213751 1.2846668
-0.14846876 -0.083232485 1.2830001
-0.14734399 -0.079858199 1.2830001
-0.018395973 0.018395973 1.2846668
-0.013139773 0.023275793 1.2846667
-0.0050723935 0.026203347 1.2855
-0.0015799286 0.033173241 1.2870001
0.0015011454 0.035667185 1.2846668
0.045574017 0.035590537 1.2858572
0.05515461 0.034894839 1.2840002
0.0036018726 0.045510568 1.2850001
0.03726184 0.041778427 1.2880001
0.0067697656 0.053037018 1.2871667
0.011896368 0.057238147 1.2857778
0.016663389 0.06452997 1.2863334
0.023698198 0.066578001 1.2871667
-0.21035178 -0.18078883 1.2970001
-0.20829804 -0.1818344 1.2936667
-0.20125549 -0.16373327 1.2970001
-0.19821434 -0.16196942 1.2920001
-0.20149337 -0.15386347 1.2936667
-0.19821434 -0.15857147 1.2920001
-0.20352955 -0.14326662 1.2970001
-0.19727585 -0.14269809 1.2970001
-0.19524413 -0.13523839 1.2963334
-0.18876979 -0.13208014 1.2932501
-0.19329622 -0.12621108 1.2970001
-0.18452936 -0.12561075 1.2962308
-0.17782657 -0.12232656 1.2920001
-0.18192586 -0.11825182 1.2970001
-0.17539805 -0.1157954 1.2938181
-0.17103066 -0.10986737 1.2920001
-0.021603696 0.017055549 1.2970001
-0.015442659 0.026111517 1.295
-0.0079285735 0.028316334 1.2920001
-0.012507403 0.030699991 1.2970001
-0.0049154703 0.035349246 1.2936666
0.039642867 0.039642867 1.2920001
0.046526451 0.039153248 1.2945001
0.053942051 0.038392238 1.2934285
-0.0021091348 0.045868576 1.2941428
0.0011326533 0.048704091 1.2920001
0.048892576 0.042070355 1.2970001
0.054293502 0.044912949 1.2970001
0.060262945 0.044344429 1.2970001
-0.0022729775 0.052254371 1.2957501
0.0033994212 0.054769747 1.2925555
0.0071961191 0.062877305 1.2961667
0.012471898 0.066905878 1.2934999
0.02612116 0.069270112 1.2953334
0.018176148 0.072701305 1.29575
0.021603696 0.072770342 1.2970001
-0.21524358 -0.18247904 1.3036667
-0.21323104 -0.17889786 1.3053334
-0.20648247 -0.17562468 1.3036667
-0.20509879 -0.16614148 1.307
-0.1997485 -0.1655059 1.302
-0.20203134 -0.15865737 1.302
-0.19472624 -0.12715417 1.302
-0.18719289 -0.12327336 1.302
-0.18719289 -0.1198491 1.302
-0.034331724 0.0072479881 1.3053335
-0.026252659 0.0079899402 1.302
-0.033514749 0.015181893 1.3069999
-0.025753682 0.014456234 1.3037647
-0.033610232 0.024443805 1.307
-0.025174249 0.025174251 1.305125
-0.019404139 0.027394079 1.302
-0.032082494 0.03093669 1.307
-0.02380725 0.033228297 1.307
-0.015114269 0.034677379 1.3039443
-0.0079899402 0.036525439 1.302
0.04223254 0.0399497 1.302
0.058212418 0.0399497 1.302
-0.021770263 0.042394724 1.307
-0.015468342 0.044686332 1.3069998
-0.0066355779 0.044829138 1.3045
0.046005625 0.044635046 1.3055
0.055123921 0.046274632 1.3032501
-0.014131573 0.051561151 1.307
-0.0051016421 0.055481914 1.306091
0.00114142 0.058212418 1.302
0.049269542 0.052706953 1.307
0.053279854 0.052134052 1.307
-0.0031100379 0.062691815 1.307
0.0036059322 0.065743528 1.3050771
0.0059373453 0.075310521 1.307
0.014013351 0.076072365 1.3048126
0.02396982 0.07343135 1.302
0.0068748202 0.081352033 1.307
0.012603836 0.083643645 1.307
-0.21508491 -0.1805793 1.312
-0.21332514 -0.17603934 1.3153334
-0.20844823 -0.17389882 1.3136667
-0.20835666 -0.16543646 1.316
-0.20588341 -0.15987594 1.312
-0.04112852 0.0073020495 1.3153334
-0.038100809 0.00577285 1.317
-0.051955651 0.01962769 1.317
-0.044363592 0.015311339 1.3158635
-0.03795616 0.01380224 1.312
-0.043979626 0.024943469 1.3157501
-0.036805972 0.027604479 1.312
-0.041179661 0.031943101 1.317
-0.034370519 0.034753915 1.3140835
-0.027111543 0.035984408 1.3120002
-0.032712813 0.041949376 1.317
-0.02514909 0.044668637 1.3143531
-0.012652053 0.044857282 1.312
0.03706494 0.047655422 1.3130001
0.043171447 0.047491223 1.3132502
-0.023244441 0.054236613 1.3162858
-0.015106566 0.055881053 1.3134707
-0.0080513069 0.05865952 1.312
0.031173389 0.058883071 1.317
0.047200389 0.053532992 1.3132501
0.052908584 0.055208959 1.312
-0.0230914 0.065810494 1.317
-0.014972809 0.064497031 1.3137501
-0.0057509337 0.065560639 1.3120002
-0.022963116 0.075303622 1.317
-0.014974693 0.074864 1.3138002
-0.0046007456 0.074762121 1.3120002
0.0015335822 0.07552892 1.3120002
0.023387128 0.07706251 1.312
-0.02193683 0.083129041 1.317
-0.014995163 0.085359059 1.3157499
-0.0046007466 0.085113823 1.3120002
0.0042721219 0.085606754 1.3120002
0.015208025 0.085241616 1.3120002
0.021853546 0.085113809 1.312
-0.015339287 0.09319029 1.317
-0.005311022 0.091672853 1.317
0.0054776329 0.09285631 1.3157501
0.014594965 0.092931129 1.3140835
-0.22136009 -0.18427359 1.322
-0.21564312 -0.17326507 1.32425
-0.21396904 -0.16582753 1.3254286
-0.20977055 -0.16109452 1.322
-0.21305104 -0.15949723 1.3280001
-0.20861159 -0.15877661 1.322
-0.063985273 -0.0046515935 1.327
-0.055649392 -0.0025612691 1.3280001
-0.046358131 -0.0011589533 1.322
-0.071017012 0.0081494935 1.3280001
-0.064944521 0.0048872405 1.3276001
-0.055726409 0.0046423879 1.3242501
-0.046854824 0.0046358132 1.3220003
-0.072922088 0.015134775 1.3280001
-0.065111794 0.015113208 1.3261999
-0.055812743 0.014822403 1.3220003
-0.049834993 0.012748487 1.322
-0.072347544 0.025113745 1.3280001
-0.065089434 0.025569955 1.32575
-0.055662632 0.025512096 1.3227501
-0.049255516 0.027235404 1.322
-0.072879747 0.035159241 1.3280001
-0.065125592 0.034888264 1.3264999
-0.055629753 0.0347686 1.3220003
-0.04588091 0.035245813 1.3220003
-0.038245458 0.037086505 1.322
-0.072181225 0.043075893 1.3280001
-0.064863317 0.043741159 1.3279999
-0.055833913 0.044205584 1.326875
-0.045199171 0.045199171 1.3220003
-0.035596427 0.046523694 1.3220003
-0.028973833 0.04867604 1.322
0.040563367 0.049834993 1.322
-0.061703306 0.050061174 1.3280001
-0.054718029 0.054718032 1.3279996
-0.044040222 0.055629753 1.3220003
-0.0347686 0.055629745 1.3220003
-0.027171018 0.056531165 1.322
0.036339585 0.054949902 1.3265001
0.043608028 0.054948587 1.3265001
-0.053054862 0.064863309 1.3279999
-0.044169754 0.065086812 1.3257501
-0.0347686 0.064901397 1.3220003
-0.026887719 0.064206019 1.3220001
0.033762187 0.063449629 1.3280001
-0.051225383 0.07450965 1.3280001
-0.04424011 0.07450965 1.3279998
-0.034539983 0.074872106 1.3230002
-0.027498798 0.075121261 1.3220001
0.025963942 0.077881314 1.3260001
-0.053054865 0.086484417 1.3279999
-0.04424011 0.084987581 1.3279997
-0.035136018 0.085376993 1.326
-0.026011702 0.086151533 1.3228573
0.0251878 0.082531154 1.3260001
-0.061703306 0.095465489 1.3280001
-0.054083001 0.094089605 1.3280001
-0.044007264 0.095232643 1.3279998
-0.0349264 0.095465489 1.3279998
-0.025512751 0.095086105 1.3227502
-0.014896183 0.095905304 1.3229232
-0.004323082 0.096444488 1.3225455
0.0037665986 0.096772604 1.322
0.014320058 0.097499363 1.324
-0.061703306 0.10361499 1.3280001
-0.052971706 0.10186867 1.3280001
-0.044240106 0.10128656 1.3280001
-0.033471134 0.10332394 1.3280001
-0.025593298 0.10469273 1.326875
-0.015087433 0.10449515 1.3244002
-0.0046565244 0.1047506 1.327625
0.0043178336 0.10411607 1.3258572
0.011853935 0.10250056 1.3256
-0.031433761 0.11176448 1.3280001
-0.025612693 0.11525711 1.3279997
-0.01576297 0.11434687 1.3251429
-0.0042687822 0.11215255 1.3280001
0.0019403555 0.1113764 1.3280001
-0.024157427 0.12427977 1.3280001
-0.017928885 0.12317377 1.3280001
-0.22553915 -0.18113248 1.3330001
-0.2233867 -0.17544818 1.3366365
-0.22183104 -0.16654527 1.3360001
-0.21776588 -0.16429625 1.3355001
-0.07295116 -0.0038099936 1.3367501
-0.068947203 -0.0046743867 1.3330001
-0.07469584 0.0047750683 1.336077
-0.068947203 0.0011685967 1.3330001
-0.081815355 0.016128475 1.3380002
-0.076868385 0.015216107 1.3352224
-0.083068311 0.025912195 1.3380002
-0.076478161 0.026098659 1.3330001
-0.083231173 0.035168942 1.3371668
-0.077516913 0.034668367 1.3330001
-0.082812384 0.044104047 1.3380002
-0.076250367 0.045143776 1.3340001
-0.067778602 0.047912464 1.3330001
-0.073634662 0.053713728 1.3367501
-0.065718889 0.055249661 1.3348422
-0.059598431 0.059598431 1.3330001
0.0362265 0.059598431 1.3330001
0.043705516 0.059130989 1.3330001
-0.072490156 0.065921471 1.3380001
-0.065583043 0.065579757 1.3358126
-0.058819365 0.066220477 1.3330001
0.035695348 0.066409364 1.3348751
0.044777151 0.062590666 1.3370001
-0.074568018 0.075070716 1.3380001
-0.065552913 0.074912101 1.3351876
-0.05726124 0.07479018 1.3330001
-0.073115751 0.085236549 1.3380002
-0.065324485 0.085143894 1.3343159
-0.057048764 0.08339531 1.3330001
0.026877724 0.082970366 1.3330001
-0.072020963 0.093603805 1.3380001
-0.066889264 0.095512025 1.3349233
-0.055703104 0.097512901 1.3330001
-0.047912464 0.099330716 1.3330001
0.019866142 0.096993521 1.3330001
-0.071551777 0.1055682 1.3380001
-0.065602653 0.10526067 1.3362143
-0.055415414 0.10600543 1.3342501
-0.044406671 0.10634229 1.3330001
-0.036518648 0.10663445 1.3330001
0.0070115803 0.10867949 1.3330001
0.013546753 0.10684713 1.335143
-0.06275443 0.11319257 1.3380001
-0.054965883 0.11449165 1.3371667
-0.044478178 0.11471397 1.3351874
-0.035609134 0.11501197 1.3347857
-0.011685967 0.11802826 1.3330001
-0.0051752138 0.1170266 1.3330001
0.0050022602 0.11482675 1.3352729
0.011325657 0.11207628 1.3363333
-0.051220123 0.12433588 1.3380002
-0.04457324 0.12433589 1.3379999
-0.035118993 0.12407371 1.3351876
-0.027169872 0.12766919 1.3330001
-0.014358603 0.12499792 1.3348184
-0.0046919202 0.12081694 1.3380001
-0.035059072 0.13176474 1.3380002
-0.025805559 0.13254674 1.3380001
-0.017594701 0.13020077 1.3380001
-0.22958584 -0.18013659 1.3430001
-0.23162149 -0.17568956 1.348
-0.2278198 -0.17307241 1.3430001
-0.23153512 -0.16656186 1.3475001
-0.22551247 -0.16451965 1.3436668
-0.22217417 -0.15795097 1.3466001
-0.2166833 -0.15732248 1.3464286
-0.086829446 -0.020673554 1.3475001
-0.091061994 -0.011826233 1.3490001
-0.08507885 -0.014178661 1.3478752
-0.076528616 -0.012950997 1.3430002
-0.093212217 -0.0044079595 1.3490001
-0.084962793 -0.0047232606 1.3460002
-0.077411637 -0.0055924756 1.3430002
-0.10052298 0.0070957402 1.3490001
-0.094373353 0.004967018 1.3490003
-0.084819466 0.0047107679 1.3437504
-0.078883342 0.0023547267 1.3430001
-0.10288823 0.014191481 1.3490001
-0.094456673 0.014166498 1.3467503
-0.086418465 0.013657413 1.3430002
0.085148878 0.01773935 1.3490001
-0.10288823 0.024835089 1.3490003
-0.09434031 0.024765393 1.3451004
-0.08762946 0.024051851 1.3430002
0.069774777 0.029565584 1.3490001
0.076397464 0.029092535 1.3490001
0.084135197 0.025172981 1.3490002
-0.10288823 0.0354787 1.3490001
-0.094376788 0.035392236 1.3456253
-0.088302247 0.0353209 1.3430001
0.076870516 0.03193083 1.3490001
0.083966255 0.03193083 1.3490001
0.096975103 0.036661323 1.3490001
-0.103992 0.045333896 1.3490003
-0.094452068 0.044860132 1.3467503
-0.087517343 0.045524716 1.3430001
0.093427241 0.041391816 1.3490001
-0.1032521 0.054127753 1.3490002
-0.094374813 0.054262262 1.3456254
-0.084770158 0.054158717 1.3430003
-0.077941455 0.055807024 1.3430001
-0.10146908 0.062679037 1.3490001
-0.094424985 0.064915672 1.3463004
-0.08477015 0.064754978 1.3430003
-0.076528609 0.064586788 1.3430003
0.038939781 0.06844224 1.3460001
0.043931033 0.067279786 1.3463335
-0.094373338 0.075766727 1.3490003
-0.084770158 0.075351246 1.3430003
-0.078883342 0.075351253 1.3430001
0.02952175 0.076756544 1.3470001
0.034508035 0.0738727 1.347
0.043757062 0.072140023 1.3490001
-0.093791127 0.085421786 1.3490002
-0.08484412 0.084840178 1.3441253
-0.076528616 0.084299214 1.3430002
0.028382961 0.083966255 1.3490001
-0.093973078 0.093973055 1.3490002
-0.084938802 0.094376788 1.3456252
-0.07633239 0.094777755 1.3430003
-0.092244625 0.10288823 1.3490001
-0.084942944 0.10499388 1.3457005
-0.075974569 0.10492384 1.3430003
-0.069464438 0.10949479 1.3430001
0.01773935 0.10288823 1.3490001
-0.084730208 0.11528242 1.3477144
-0.075395316 0.11544736 1.3437502
-0.06638518 0.1161967 1.3430003
-0.052981351 0.1189137 1.3430001
0.0059131165 0.11944496 1.3490001
0.01297379 0.11437082 1.3450001
-0.081601009 0.12181021 1.3490001
-0.075566262 0.12514898 1.3467504
-0.064754978 0.12480052 1.3430003
-0.055807017 0.12480052 1.3430002
-0.011797303 0.12861927 1.3460001
-0.0064847036 0.12435253 1.3445001
0.0011773633 0.12126842 1.3430001
-0.075257577 0.13414314 1.347286
-0.064827308 0.13437328 1.3445003
-0.054174822 0.13425787 1.3433753
-0.044739805 0.13421941 1.3430003
-0.035509385 0.13683026 1.3438572
-0.025784146 0.13599542 1.3455715
-0.015337284 0.13215925 1.3460001
-0.044739902 0.14210035 1.347
-0.037209239 0.14116699 1.3475001
-0.22951528 -0.16172878 1.3565001
-0.22513561 -0.15708055 1.3540001
-0.092306279 -0.020995289 1.3556668
-0.09483052 -0.01378462 1.3555001
-0.10167019 -0.0040498497 1.3580002
-0.098046757 -0.0054602306 1.3540001
-0.1044204 0.0050749439 1.3549092
-0.098521553 0.0011870067 1.3540001
-0.11132029 0.015051489 1.3556668
-0.10801761 0.01424408 1.3540001
0.087838493 0.016618093 1.3540001
0.092928424 0.016679458 1.3590001
-0.11271755 0.025293838 1.3554287
-0.10801761 0.024927139 1.3540001
0.066472374 0.029675167 1.3540001
0.089025497 0.024927139 1.3540001
0.095050015 0.024968345 1.3563334
0.10126815 0.027401971 1.3590001
-0.11359702 0.035827674 1.3557856
-0.10801761 0.035610199 1.3540001
0.066677637 0.03546004 1.3547144
0.074039534 0.036055323 1.3540001
0.085835509 0.036111251 1.3555386
0.093773529 0.034854833 1.3540001
-0.11227732 0.044554394 1.3552501
-0.10801761 0.042732239 1.3540001
0.065408103 0.04280895 1.3565001
0.074581012 0.043128315 1.3590001
0.086462036 0.043827809 1.3585001
0.091483898 0.045151182 1.3552501
-0.11103123 0.053970754 1.3560002
-0.1080176 0.05578931 1.3540001
0.084588692 0.051229771 1.3590001
-0.11159352 0.065129325 1.3590001
-0.1056436 0.064637907 1.3540001
0.048667274 0.067659378 1.3540001
0.052326918 0.064223289 1.3565001
-0.1130794 0.07439357 1.3577501
-0.10449602 0.074810795 1.3545001
-0.098521553 0.074781418 1.3540001
0.036401536 0.077946775 1.3540001
0.044657558 0.076666579 1.3567275
0.052024033 0.071880527 1.3590001
-0.11079927 0.083397299 1.3590001
-0.10447867 0.085438058 1.3573333
-0.098521553 0.084277473 1.3540001
0.02853857 0.086815864 1.3565001
0.034486752 0.083643205 1.3565001
0.04169865 0.082205907 1.3590001
-0.10336656 0.094924115 1.3580911
-0.097730219 0.097730219 1.3540001
-0.1020624 0.1020624 1.3590001
-0.096227415 0.10493992 1.3551112
0.017805099 0.10801761 1.3540001
-0.092970937 0.11316648 1.3552501
-0.087838493 0.11988767 1.3540001
0.017805099 0.11039162 1.3540001
-0.091737032 0.12033039 1.3590001
-0.084647916 0.12505288 1.3556668
-0.0040393295 0.12767388 1.3560002
0.01072251 0.12033039 1.3590001
-0.081903458 0.13175774 1.3540001
-0.013870328 0.13509403 1.3556668
-0.0059569501 0.13224429 1.3590001
-0.1029119 -0.02034305 1.365
-0.096928649 -0.021140816 1.3650001
-0.10410854 -0.014359801 1.3649999
-0.098125294 -0.0167531 1.365
-0.11288398 -0.0027921835 1.3649999
-0.10671943 -0.0051129591 1.3649999
-0.12086165 0.0071799001 1.365
-0.11436556 0.0051284996 1.3649999
-0.10809738 0.0019944166 1.3650001
-0.12086165 0.0143598 1.365
-0.11655371 0.013881139 1.3649999
0.089748748 0.01316315 1.365
0.095731996 0.016154775 1.365
-0.12165942 0.025927417 1.3649999
-0.11806947 0.024331883 1.3649999
0.1029119 0.02512965 1.365
-0.12277629 0.035420842 1.3649999
-0.11846835 0.034702852 1.365
-0.12086165 0.0454727 1.365
-0.11744265 0.045985546 1.3649999
0.067411281 0.04826488 1.3650001
0.074790634 0.047566835 1.3649999
0.083765492 0.047865998 1.3649999
-0.12086165 0.051455949 1.365
-0.11580912 0.055444788 1.3649999
0.072197884 0.054647017 1.3649999
0.082169972 0.053051483 1.3649999
-0.12086165 0.065815747 1.3650001
-0.11655371 0.064140439 1.3649999
0.054647017 0.063422449 1.3650001
0.07060235 0.061029151 1.365
-0.12086165 0.071798995 1.365
-0.11703237 0.073952973 1.365
0.049062651 0.077782251 1.365
0.053051483 0.073793419 1.3650001
-0.12086165 0.082568854 1.3650001
-0.11497045 0.08440984 1.3649999
-0.10889515 0.089748748 1.365
0.029916249 0.089748748 1.365
0.035899498 0.08735545 1.365
0.046669349 0.082568847 1.3650001
-0.1124851 0.095732003 1.3649999
-0.10841648 0.096449986 1.365
0.02752295 0.092142053 1.365
-0.1124851 0.1029119 1.365
-0.10530521 0.10530519 1.3649999
-0.099321947 0.10889515 1.365
-0.10171525 0.11128845 1.365
-0.097327538 0.11527728 1.3649999
0.0083765499 0.12325495 1.365
-0.11701045 -0.042220265 1.376
-0.12304192 -0.031363625 1.376
-0.11566999 -0.034073144 1.3735296
-0.10849335 -0.030826522 1.3700002
-0.12359403 -0.023702731 1.3746668
-0.11529922 -0.02402067 1.3700002
-0.10633766 -0.024297832 1.3700001
-0.098885082 -0.023620322 1.3700002
-0.13148597 -0.01085664 1.376
-0.12472323 -0.013817886 1.3750771
-0.11529922 -0.014412402 1.3700002
-0.10929403 -0.0144124 1.3700001
-0.13251993 -0.0043081902 1.3760002
-0.12508205 -0.0048123524 1.3718752
-0.11650024 -0.006005167 1.37
-0.13247725 0.0048192558 1.3737501
-0.12542221 0.0044609816 1.3700001
-0.1189023 0.0024020667 1.3700001
-0.13357498 0.014791122 1.3749093
-0.12610851 0.014412402 1.37
0.08767543 0.0108093 1.3700001
0.096042737 0.012688096 1.3713335
0.10143267 0.014828525 1.3720001
-0.13361014 0.024072394 1.3730001
-0.12610851 0.02402067 1.37
0.10328887 0.020417567 1.3700001
-0.14354891 0.039807681 1.376
-0.13419457 0.035337716 1.3731766
-0.12730955 0.035130229 1.37
-0.14274471 0.046643343 1.376
-0.13481425 0.045739207 1.373
-0.12610851 0.045639273 1.37
-0.14113632 0.051870614 1.376
-0.13414337 0.0547125 1.3727695
-0.12514769 0.055487748 1.3700002
-0.1189023 0.055247534 1.3700001
0.058850631 0.058850631 1.3700001
0.065568462 0.05594806 1.3713847
0.076866142 0.055247534 1.37
-0.1333587 0.06559553 1.3754002
-0.12573896 0.064578645 1.3700001
0.057857998 0.065410361 1.3708571
0.064773761 0.064603694 1.3755715
-0.133472 0.07285025 1.3751429
-0.12531291 0.074633747 1.3713847
0.057649598 0.070860967 1.3700001
-0.12443958 0.084160008 1.3742857
-0.11770126 0.08767543 1.3700001
0.039634101 0.086474396 1.3700001
0.044070382 0.086462483 1.3736
-0.12170281 0.093986988 1.3745
-0.11756783 0.094347849 1.37
0.026480595 0.096295699 1.373
0.034270972 0.09252084 1.3738183
-0.11561956 0.10461615 1.3717145
-0.10849335 0.10849335 1.3700002
0.023940763 0.10350202 1.3751429
-0.14591239 -0.063228704 1.3870001
-0.14690726 -0.055601474 1.3870001
-0.13302347 -0.053258024 1.3870001
-0.15296483 -0.04207141 1.3870001
-0.14667235 -0.044837661 1.3870003
-0.13314508 -0.044381682 1.3870003
-0.12561563 -0.044989653 1.3870002
-0.11985699 -0.043584362 1.381
-0.15303431 -0.033525113 1.3870001
-0.14565678 -0.034358997 1.3852355
-0.1354451 -0.034301825 1.3863337
-0.12590073 -0.034918193 1.382091
-0.11985699 -0.03995233 1.381
-0.15361333 -0.023913421 1.3870001
-0.14575592 -0.024292432 1.3855002
-0.13585846 -0.024260547 1.3836253
-0.12815876 -0.024732396 1.3809999
-0.153512 -0.015199207 1.3870001
-0.14579503 -0.014578418 1.3858752
-0.13603885 -0.014791646 1.3830005
-0.12873529 -0.017353032 1.381
-0.153512 -0.0045597623 1.3870001
-0.14579503 -0.0048588151 1.3858752
-0.13788243 -0.0052556163 1.3836669
-0.15511878 0.0052111568 1.3870002
-0.14563593 0.0048522404 1.3843751
-0.13809276 0.004843364 1.3817501
0.097064532 0.0072772098 1.3840001
-0.16171958 0.018239049 1.3870001
-0.15563989 0.01459124 1.3870003
-0.14539659 0.014539626 1.3821254
-0.13874355 0.013801714 1.381
-0.15563989 0.02431873 1.3870003
-0.14532164 0.024219122 1.3813753
-0.13922782 0.024213534 1.381
-0.15527059 0.034366731 1.3855885
-0.14534493 0.034854747 1.3810003
-0.13922782 0.032688271 1.381
-0.15457182 0.043961033 1.3865
-0.14655659 0.045543008 1.3816001
-0.15199208 0.052285276 1.3870001
-0.14568961 0.056020755 1.3848572
-0.1384207 0.05851604 1.381
-0.14534657 0.065294012 1.3865716
-0.13862233 0.064667605 1.383
-0.14469646 0.071740262 1.3870001
-0.13589473 0.076840125 1.3840002
-0.1295424 0.078693986 1.381
-0.13301381 0.084671088 1.3863333
-0.12833172 0.084747359 1.381
-0.13010523 0.091195248 1.3870001
-0.12631853 0.094092011 1.3835716
0.035168536 0.096782424 1.3834001
0.042557783 0.091195248 1.3870001
0.026925415 0.1059983 1.3834001
0.031975832 0.10239672 1.3850001
-0.16055098 -0.063321628 1.3980001
-0.15379338 -0.065536596 1.3954287
-0.14470111 -0.066157274 1.3937143
-0.13789617 -0.06223632 1.3920001
-0.16177656 -0.053925518 1.398
-0.15467556 -0.055219483 1.3920001
-0.14155713 -0.054914396 1.3920001
-0.13748939 -0.055321176 1.3920001
-0.16422772 -0.044120878 1.398
-0.15742129 -0.044708088 1.3920001
-0.14131306 -0.045639969 1.3920001
-0.13728601 -0.045151841 1.3920001
-0.16496307 -0.033826005 1.398
-0.15823482 -0.034575731 1.3920001
-0.1654533 -0.024511598 1.3979999
-0.15881594 -0.024929395 1.3920001
-0.1654533 -0.014706961 1.3979999
-0.15833652 -0.01403368 1.3920001
-0.1654533 -0.00490232 1.3979999
-0.15833651 -0.0051863599 1.3920001
-0.17035562 0.0061279 1.3980001
-0.16504256 0.0048887315 1.3945001
-0.15986192 0.00244064 1.3920001
-0.17035562 0.012255799 1.3980001
-0.1652271 0.014333979 1.3941818
-0.16491151 0.0243538 1.3952727
-0.16432531 0.033842254 1.3953334
-0.16370277 0.042333532 1.3956001
-0.15925176 0.045761999 1.3920001
-0.16055098 0.050248779 1.3980001
-0.15466212 0.05417975 1.3940001
-0.1521648 0.06526608 1.396
-0.15074635 0.072309218 1.3980001
-0.14366974 0.075669408 1.394182
-0.13626908 0.08664272 1.3920001
0.037829921 0.098845921 1.3920001
-0.16315468 -0.072893076 1.4040002
-0.15604316 -0.072893076 1.4040002
-0.14893164 -0.072619557 1.404
-0.16526824 -0.063668005 1.4040002
-0.17214178 -0.053629458 1.4040002
-0.16739425 -0.054156959 1.4040002
-0.17332466 -0.043974552 1.4040002
-0.16862507 -0.044310238 1.404
