# .PCD v0.7 - Point Cloud Data file format
VERSION 0.7
FIELDS x y z
SIZE 4 4 4
TYPE F F F
COUNT 1 1 1
WIDTH 1454
HEIGHT 1
VIEWPOINT 0 0 0 1 0 0 0
POINTS 1454
DATA ascii
-0.33929631 0.029762832 0.97000003
-0.1403105 0.021259166 0.97000003
-0.13562913 0.025250556 0.97452009
-0.35152578 0.03086568 0.97800004
-0.34390247 0.034248628 0.97511774
-0.33506271 0.035179891 0.97292
-0.32471082 0.036483597 0.97080016
-0.31670088 0.038752418 0.97000015
-0.1325707 0.033959728 0.97250015
-0.12821975 0.036792953 0.97600001
-0.33369231 0.041325711 0.97800004
-0.32497102 0.041914381 0.97569233
-0.31487253 0.044630028 0.97315395
-0.30465859 0.045273159 0.97175854
-0.29545033 0.04528394 0.97122729
-0.28594697 0.04659114 0.97000009
-0.27892026 0.048470899 0.97000003
-0.13175257 0.046819549 0.97100002
-0.12655188 0.045165829 0.97540909
-0.3129437 0.050585419 0.97799999
-0.30404243 0.054307349 0.97755575
-0.29468462 0.054495174 0.97393107
-0.28510281 0.054811738 0.97272193
-0.27526423 0.054487381 0.97109985
-0.26531211 0.055909697 0.97015792
-0.24915743 0.056974571 0.97000003
-0.23215011 0.0586753 0.97000003
-0.22355019 0.057013083 0.97064304
-0.21607043 0.057283785 0.97000021
-0.1738876 0.058105581 0.97112501
-0.16518974 0.057951733 0.97081828
-0.15352996 0.057414874 0.97025019
-0.14427792 0.056095425 0.9719165
-0.13483788 0.054794803 0.97437143
-0.12772958 0.053426024 0.97684628
-0.3300913 0.069447778 0.97800004
-0.32379708 0.067897171 0.97625011
-0.31464717 0.066200964 0.9738636
-0.30511928 0.064670876 0.97280651
-0.29637304 0.062133312 0.97090018
-0.2842401 0.060847897 0.97075003
-0.27562431 0.061037153 0.97037506
-0.2653144 0.060376033 0.97000003
-0.25255889 0.060376033 0.97000003
-0.23385084 0.060376033 0.97000003
-0.22279607 0.060942944 0.97000009
-0.2168435 0.061226401 0.97000009
-0.19303323 0.065478235 0.97000003
-0.18480292 0.064775176 0.97175843
-0.17516637 0.065000094 0.97399974
-0.16504475 0.064792015 0.97448409
-0.1552349 0.065050475 0.97492105
-0.1457497 0.062685914 0.97526312
-0.13742651 0.061555527 0.97714287
-0.33082622 0.073367231 0.9780001
-0.32468733 0.073411621 0.97749996
-0.3149741 0.075040296 0.97531062
-0.30519199 0.075138129 0.97169977
-0.29679549 0.078082293 0.97075009
-0.18339501 0.071256489 0.9715001
-0.17461194 0.072905138 0.97243464
-0.16496661 0.075167313 0.97502792
-0.15807562 0.074152321 0.97680008
-0.31122893 0.081451103 0.97800004
-0.30471766 0.082950674 0.97699994
-0.29511079 0.083801202 0.97445482
-0.28513089 0.085351348 0.97354168
-0.27585363 0.087211169 0.97135299
-0.26616478 0.088650718 0.97000015
-0.16201882 0.083990067 0.97100002
-0.15573752 0.086130828 0.9757815
-0.28432766 0.091490135 0.97762513
-0.27439409 0.092958242 0.97553837
-0.26484147 0.092902891 0.97323531
-0.25509953 0.094708368 0.97321057
-0.24533613 0.094982564 0.9718399
-0.23536213 0.097533293 0.97116673
-0.2249067 0.096838608 0.97092313
-0.21474646 0.0963744 0.97182363
-0.20527884 0.096777171 0.97161525
-0.19452381 0.096899711 0.972
-0.18544036 0.096672483 0.97240001
-0.17547829 0.097869419 0.972875
-0.16450617 0.094941877 0.97270828
-0.15570563 0.094298922 0.9757244
-0.25121233 0.10031346 0.97800004
-0.24441341 0.10062756 0.97628576
-0.23637123 0.10149853 0.97619998
-0.22788621 0.10023653 0.9772501
-0.21309356 0.10083377 0.97750002
-0.20503718 0.10092506 0.9763636
-0.19486399 0.1007141 0.97633332
-0.18486512 0.10127494 0.97624999
-0.17513284 0.10033863 0.97585714
-0.16453411 0.10026217 0.97750014
-0.15775792 0.10031346 0.97800004
-0.31046361 -0.15451513 0.98100013
-0.19161215 -0.13092053 0.98900002
-0.18779165 -0.13174342 0.98866671
-0.15050174 -0.13330156 0.98100007
-0.14782825 -0.13227026 0.98612505
-0.30267355 -0.12319103 0.98518187
-0.29429993 -0.12173554 0.98833346
-0.28456202 -0.12367436 0.98727787
-0.27437434 -0.12474149 0.98644811
-0.26792616 -0.12347007 0.9880771
-0.24189951 -0.12094975 0.98900002
-0.23506044 -0.12196477 0.98884624
-0.22860515 -0.12167227 0.98900002
-0.20326193 -0.12317079 0.98842871
-0.19526963 -0.12488177 0.98662072
-0.18526331 -0.1248581 0.98327994
-0.17707455 -0.1230859 0.98181826
-0.15222177 -0.12384143 0.98100007
-0.14687413 -0.12494044 0.98659098
-0.30450475 -0.11480496 0.98129064
-0.29516864 -0.11475874 0.98249996
-0.28469223 -0.11523373 0.98290902
-0.27459541 -0.11537119 0.98426449
-0.26494798 -0.11497524 0.98710334
-0.2546739 -0.1142149 0.98795676
-0.2449197 -0.11533277 0.98800004
-0.2351619 -0.11494493 0.98682767
-0.22738777 -0.11468878 0.98888254
-0.21369822 -0.11344584 0.98866683
-0.20499659 -0.11504132 0.98664004
-0.19575129 -0.11643498 0.98235017
-0.18146211 -0.11954139 0.98100007
-0.17415202 -0.11739136 0.98100007
-0.15078841 -0.11524134 0.98100001
-0.14614871 -0.11560248 0.98705006
-0.32247773 -0.10308665 0.98266667
-0.31545165 -0.10268519 0.98100007
-0.30473021 -0.10535122 0.98100001
-0.29498345 -0.10922126 0.98100007
-0.28495985 -0.1049509 0.98100036
-0.27496269 -0.10516588 0.98232347
-0.26470655 -0.1055404 0.98474979
-0.25505453 -0.10522526 0.98451406
-0.24519968 -0.10539851 0.98361278
-0.23494855 -0.1052272 0.98314285
-0.22496484 -0.10521834 0.98628116
-0.21447499 -0.10530132 0.98635471
-0.20562401 -0.1056312 0.98250002
-0.19866231 -0.10922127 0.98100007
-0.15050174 -0.10062117 0.98100007
-0.148461 -0.10608441 0.98650008
-0.33071989 -0.094993852 0.98500007
-0.32488069 -0.09517432 0.98343474
-0.31906369 -0.098901153 0.98100007
-0.28351665 -0.097754471 0.98100007
-0.27501214 -0.095166974 0.98128152
-0.26523519 -0.09567298 0.98244005
-0.25485536 -0.096324943 0.98181844
-0.24480131 -0.09500967 0.98111564
-0.23551242 -0.094992019 0.98100036
-0.22524267 -0.095313512 0.98231995
-0.21606421 -0.095285505 0.98270017
-0.20855242 -0.097611129 0.98100007
-0.14497682 -0.093952373 0.98319995
-0.3259438 -0.088581033 0.98100013
-0.22222316 -0.088716477 0.98250008
-0.14168665 -0.083205961 0.98100001
-0.13781068 -0.08268851 0.98250008
-0.34279996 -0.075508878 0.98100007
-0.33970395 -0.077400893 0.98100007
-0.14104164 -0.079980932 0.98100007
-0.13788827 -0.078834243 0.98100013
-0.35427743 -0.062492084 0.98325002
-0.35513878 -0.058614153 0.98325002
-0.11094129 -0.040420469 0.98100007
-0.10922127 -0.040420469 0.98100007
-0.3718929 -0.031574652 0.98100001
-0.36894429 -0.030960359 0.98100007
-0.1127744 -0.03472301 0.98200011
-0.10683446 -0.034864869 0.98781478
-0.08309368 -0.031448368 0.98733336
-0.37277403 -0.025560493 0.98700005
-0.36650509 -0.024315767 0.98261541
-0.11094129 -0.027520321 0.98100007
-0.10606588 -0.025870433 0.9861539
-0.371086 -0.019074515 0.98900002
-0.36422509 -0.01641053 0.98547071
-0.35759217 -0.012212141 0.98100007
-0.1031729 -0.015783256 0.98428577
-0.0988333 -0.012637326 0.98720008
-0.36183524 -0.0068073161 0.98842853
-0.35459724 -0.0051706973 0.98413336
-0.34619635 -0.0033828816 0.98120004
-0.33884394 -0.0017200198 0.98100007
-0.10341623 -0.0045065824 0.98258829
-0.098643012 -0.00621732 0.9878183
-0.35264057 0.0024078139 0.98833328
-0.34645191 0.0040469626 0.98400015
-0.33884394 0.00086000998 0.98100007
-0.1118013 0.0077400901 0.98100007
-0.10513637 0.005188786 0.98576665
-0.099707685 0.00086702331 0.98900002
-0.12377156 0.018806001 0.98142856
-0.11503837 0.015640927 0.98600006
-0.10747378 0.011845519 0.98866659
-0.36203334 0.027585413 0.98325002
-0.35862416 0.027520321 0.98100007
-0.13194071 0.025454266 0.98185724
-0.12454928 0.025040025 0.9848333
-0.11878219 0.023409629 0.98900002
-0.3638989 0.033073302 0.98753345
-0.35537457 0.034821618 0.98400003
-0.34645304 0.038380112 0.98159999
-0.13158153 0.030960359 0.98100007
-0.12418393 0.033868618 0.98503697
-0.35291773 0.04181283 0.9885
-0.34490821 0.045343045 0.98639297
-0.33533156 0.046163555 0.98331815
-0.32574183 0.04741684 0.98335731
-0.31906369 0.04902057 0.98100007
-0.12312476 0.043717176 0.98100001
-0.11972418 0.041342288 0.98250008
-0.34212741 0.051847994 0.98900002
-0.33403057 0.053182259 0.98876482
-0.32359654 0.054270584 0.98783356
-0.31475922 0.055935048 0.98280007
-0.30839959 0.056588657 0.98100007
-0.12405235 0.055779796 0.98171443
-0.11918406 0.057605244 0.98660004
-0.33274984 0.067627326 0.98371428
-0.32538211 0.064286679 0.98500001
-0.31531498 0.061729059 0.98137498
-0.15050174 0.069660813 0.98100007
-0.14365411 0.067837507 0.98280013
-0.13424201 0.065518923 0.98331833
-0.12524177 0.064372756 0.98636007
-0.33440399 0.075728752 0.98160011
-0.32486877 0.078260899 0.98100001
-0.31820369 0.079980932 0.98100007
-0.16082187 0.07310085 0.98100007
-0.15483259 0.07541009 0.9821251
-0.14525092 0.075222678 0.98624998
-0.13593422 0.072568588 0.98823828
-0.12831946 0.07022889 0.98900002
-0.33511841 0.081927128 0.9883334
-0.32476494 0.083247438 0.98656267
-0.31518909 0.08544495 0.98354548
-0.30585623 0.087341279 0.9819231
-0.29498345 0.088581033 0.98100007
-0.15322143 0.081774317 0.98190004
-0.14588812 0.084569149 0.98520833
-0.31332576 0.092369445 0.98839998
-0.30470753 0.092626087 0.98742867
-0.2948027 0.09396632 0.98565215
-0.28499982 0.096340165 0.98436868
-0.27528998 0.097855918 0.98528588
-0.26442885 0.098191835 0.98250008
-0.258003 0.098901153 0.98100007
-0.15222177 0.096751124 0.98100007
-0.14584841 0.094898805 0.9857406
-0.2747229 0.10216682 0.98855561
-0.26476386 0.10301385 0.98742867
-0.25541475 0.10382524 0.98571444
-0.24768287 0.10234119 0.98100007
-0.23349911 0.10556133 0.98507696
-0.2251547 0.10488281 0.98529178
-0.21554987 0.1047131 0.98438901
-0.20510349 0.10603243 0.98423529
-0.19509932 0.10566141 0.98385
-0.18500061 0.10651911 0.98381257
-0.17560756 0.10506602 0.9856472
-0.16469036 0.10537271 0.98590922
-0.15488881 0.10475203 0.98475009
-0.14783581 0.10395689 0.98700011
-0.22629309 0.11011196 0.98900002
-0.20288345 0.11011196 0.98900002
-0.19508025 0.11011196 0.98900002
-0.18571639 0.11011197 0.98900002
-0.17860681 0.11011196 0.98900002
-0.15346313 0.11011196 0.98900002
-0.25110012 -0.16010913 0.99800003
-0.24410082 -0.16010913 0.99799997
-0.23885134 -0.16010913 0.99800003
-0.31626394 -0.15334886 0.99200004
-0.26422381 -0.15136001 0.99800003
-0.25809944 -0.15136001 0.99799997
-0.24317442 -0.15403621 0.99800009
-0.23501837 -0.15369311 0.99799991
-0.22835238 -0.15223491 0.99800003
-0.29222107 -0.14086105 0.99800003
-0.28471348 -0.14307301 0.99677259
-0.27456468 -0.14435016 0.99566674
-0.26515192 -0.14472531 0.99588251
-0.25511163 -0.14503337 0.99658298
-0.24479114 -0.14512786 0.99724984
-0.23477273 -0.14512406 0.99625808
-0.22591902 -0.14408074 0.99692851
-0.21610358 -0.1428296 0.99800009
-0.20447572 -0.14458647 0.99799967
-0.19621919 -0.14245181 0.99800009
-0.15136001 -0.14611052 0.99800003
-0.14523372 -0.14187232 0.99753857
-0.13823631 -0.14086105 0.99800003
-0.30123845 -0.13330358 0.99599999
-0.29428455 -0.13471377 0.99663615
-0.28474027 -0.13519901 0.99396169
-0.2746605 -0.13467629 0.99200016
-0.26466578 -0.13494644 0.99310023
-0.25470671 -0.13520394 0.9950003
-0.24502395 -0.13515605 0.99464017
-0.23530427 -0.13508423 0.99410033
-0.22533935 -0.13538249 0.99630016
-0.21506657 -0.1348388 0.99782836
-0.20496513 -0.13564226 0.99677765
-0.19544794 -0.13531633 0.99476022
-0.18900013 -0.13674465 0.99350005
-0.14381725 -0.13553452 0.99475008
-0.13463177 -0.13484497 0.99781799
-0.12631562 -0.13309617 0.99800009
-0.30142185 -0.12731725 0.99199998
-0.29512209 -0.12724128 0.99275005
-0.28594202 -0.12853476 0.99199998
-0.27481043 -0.12957835 0.99200004
-0.26345941 -0.12573321 0.99253595
-0.25479934 -0.12570027 0.99381846
-0.2452551 -0.12555383 0.99241394
-0.23480639 -0.12749118 0.99199998
-0.22447652 -0.12582593 0.99400032
-0.21482968 -0.12500294 0.99480033
-0.20603785 -0.12720522 0.99285704
-0.14196607 -0.12542073 0.99349999
-0.13556649 -0.12588507 0.99719214
-0.12861226 -0.12861226 0.99800003
-0.260896 -0.1191425 0.99200004
-0.25480843 -0.11885262 0.99200004
-0.22283211 -0.11550047 0.99271429
-0.21654367 -0.11740321 0.99199998
-0.14195307 -0.11429103 0.99341166
-0.13832767 -0.11611696 0.99739999
-0.14531456 -0.10571498 0.99556249
-0.14697142 -0.098270826 0.99200004
-0.10258388 -0.031385105 0.9945001
-0.37569022 -0.021741332 0.99200004
-0.10177874 -0.024520969 0.99443746
-0.098865204 -0.021872833 0.99799997
-0.084356375 -0.02869856 0.99200004
-0.37439278 -0.015360549 0.99476922
-0.36885723 -0.013541744 0.99200004
-0.10001013 -0.017393067 0.99200004
-0.097527914 -0.015073156 0.99457151
-0.37294945 -0.005023519 0.99687499
-0.36668289 -0.005067701 0.99323517
-0.097153582 -0.0036047285 0.99328578
-0.36311722 0.0028411672 0.99687505
-0.35656548 0.0058709192 0.99379992
-0.10045124 0.0066791773 0.99350005
-0.098627456 0.0043703588 0.99560004
-0.11183395 0.0178417 0.99275005
-0.10484182 0.015337409 0.99542862
-0.11462425 0.024660137 0.99510008
-0.10790596 0.023039386 0.99800009
-0.37008834 0.039371099 0.99800003
-0.36603636 0.037833624 0.9933334
-0.1210646 0.034840047 0.99350005
-0.11828528 0.033361405 0.99699998
-0.37008834 0.041995838 0.99800003
-0.36391246 0.043032132 0.99546152
-0.35588959 0.046533927 0.99357897
-0.11950281 0.040997315 0.99500006
-0.35367382 0.052911311 0.99666667
-0.34494087 0.055436943 0.99373686
-0.3357828 0.057300489 0.99200004
-0.32820719 0.056005668 0.99199998
-0.11717498 0.057279933 0.99500006
-0.34194422 0.062092923 0.99757153
-0.3350139 0.062824972 0.99288225
-0.32810777 0.061248444 0.99200004
-0.12221891 0.067824192 0.99440002
-0.11871929 0.061980113 0.99575007
-0.14088383 0.07913845 0.99200004
-0.13397543 0.077729933 0.99481243
-0.12646596 0.073733434 0.99563158
-0.34092459 0.086033143 0.99799997
-0.33499286 0.086225577 0.99464697
-0.32625431 0.087731436 0.99300003
-0.14149965 0.08512409 0.99371421
-0.13830155 0.08383175 0.99757153
-0.33450854 0.090699352 0.99799997
-0.32512748 0.092455603 0.99650002
-0.31501213 0.096262559 0.99279988
-0.30484694 0.097066678 0.99199992
-0.29829109 0.098270826 0.99200004
-0.1413981 0.095720425 0.99440002
-0.13861127 0.095615529 0.99800009
-0.31377742 0.10051421 0.99700004
-0.30488452 0.10133872 0.99650007
-0.29461312 0.10164841 0.99525005
-0.28480357 0.10436856 0.99431837
-0.27530786 0.10694879 0.99450004
-0.26585671 0.10773846 0.99374992
-0.25378546 0.10855212 0.99285716
-0.24500231 0.10710524 0.9921999
-0.23881598 0.10823648 0.99300003
-0.2217616 0.10870667 0.99200004
-0.21654367 0.10870668 0.99200004
-0.17351249 0.10842456 0.99260008
-0.1695824 0.10870667 0.99200004
-0.1432621 0.10507064 0.99408698
-0.13762505 0.10383759 0.99675006
-0.28084719 0.111114 0.99800003
-0.27559769 0.111114 0.99800003
-0.25444669 0.11104719 0.9974001
-0.24485256 0.11105833 0.9975
-0.23407678 0.11348317 0.99531585
-0.22553709 0.11329578 0.99484998
-0.21438819 0.11276343 0.99612504
-0.20499404 0.11489522 0.99578243
-0.19612947 0.11354506 0.99569237
-0.18469813 0.11326683 0.99714291
-0.17441104 0.11316524 0.99657911
-0.1643237 0.11348318 0.99650002
-0.1555417 0.11278865 0.99537498
-0.14635062 0.1119742 0.99700004
-0.27455184 -0.16199441 1.0070001
-0.26366392 -0.16184728 1.0070001
-0.25695583 -0.16175377 1.0055001
-0.24378154 -0.16287205 1.0010002
-0.23529689 -0.16184114 1.0015001
-0.22759163 -0.1614327 1.00625
-0.32238606 -0.1532639 1.00475
-0.31950292 -0.15226999 1.0040001
-0.29297334 -0.15145132 1.0035715
-0.28489134 -0.15452924 1.003903
-0.27523053 -0.15512885 1.003818
-0.26516083 -0.15620579 1.0030456
-0.25461757 -0.15585548 1.0018888
-0.24717471 -0.15649523 1.001
-0.23399088 -0.15810817 1.0013335
-0.22455849 -0.15490204 1.0023634
-0.21520311 -0.15324 1.0019546
-0.20797777 -0.15276004 1.0010002
-0.15449058 -0.1543047 1.0070001
-0.1448949 -0.15356942 1.0070001
-0.13853043 -0.15411873 1.0065001
-0.30161336 -0.14126052 1.0050001
-0.29503125 -0.14532159 1.0021999
-0.28520158 -0.1480123 1.001
-0.22245723 -0.14786604 1.001
-0.21445808 -0.14641473 1.0010002
-0.20973286 -0.14830482 1.001
-0.19569217 -0.14303957 1.001
-0.1519288 -0.14804761 1.0064001
-0.14475848 -0.14722681 1.0040001
-0.13554837 -0.14481275 1.0037391
-0.12728965 -0.14277431 1.006
-0.3021127 -0.13808531 1.0032501
-0.2974872 -0.13894437 1.001
-0.13075395 -0.13952939 1.001
-0.12391751 -0.13609768 1.0024999
-0.11917845 -0.1324205 1.0070001
-0.13272373 -0.12219006 1.0013001
-0.12488319 -0.12483095 1.0032058
-0.11668581 -0.12520228 1.0070001
-0.13441412 -0.11448132 1.0042399
-0.1262666 -0.11553398 1.00664
-0.11447016 -0.11858992 1.0070001
-0.14293167 -0.10446603 1.0037857
-0.13916931 -0.10833956 1.00475
-0.14573722 -0.098432861 1.0055
-0.097209476 -0.022543775 1.002
-0.38111505 -0.014962947 1.0040001
-0.37897685 -0.013191204 1.0030001
-0.095808022 -0.016742455 1.0052857
-0.37800178 -0.0059234174 1.001
-0.37364468 0.0034653465 1.0038002
-0.36660618 0.0066772597 1.0031177
-0.099162392 0.0096529769 1.001
-0.36405644 0.012341276 1.0055001
-0.35904554 0.012017638 1.0030001
-0.10114432 0.015833259 1.00325
-0.099221841 0.014926126 1.0016
-0.111448 0.02895893 1.001
-0.10403625 0.02515965 1.0016521
-0.099310994 0.021093914 1.0025001
-0.11468609 0.035006568 1.0032499
-0.10697822 0.031699717 1.0043751
-0.37055296 0.046649188 1.0040001
-0.3662104 0.047204118 1.0017501
-0.1188234 0.041368145 1.0040001
-0.36328629 0.052963432 1.005
-0.35587326 0.05716069 1.0030769
-0.11565804 0.058269113 1.002
-0.35329974 0.062192269 1.00625
-0.34591764 0.064721666 1.0028462
-0.12022343 0.067570835 1.001
-0.11692061 0.065297469 1.0038
-0.12383945 0.076030664 1.0031819
-0.11847156 0.072024591 1.006
-0.34428951 0.087754332 1.001
-0.13463993 0.085574985 1.004409
-0.12719108 0.082792558 1.0056363
-0.34336939 0.092801042 1.0043001
-0.33530247 0.094479151 1.003
-0.32620096 0.097005904 1.003625
-0.13607068 0.094260603 1.0028332
-0.31292835 0.10401694 1.0055001
-0.30454788 0.10644831 1.0045999
-0.29522297 0.10660961 1.0022501
-0.28739545 0.10925415 1.001
-0.14128448 0.10969292 1.001
-0.13642371 0.10438751 1.0039999
-0.30191875 0.11035042 1.0070001
-0.29538929 0.11110121 1.0058
-0.28472644 0.11296836 1.0047501
-0.27458969 0.11472187 1.0052353
-0.26481169 0.11471019 1.0041304
-0.25485995 0.11598185 1.0032173
-0.24517711 0.11624674 1.0034285
-0.23664416 0.11759081 1.001
-0.22356066 0.11741691 1.0029092
-0.21596155 0.1175568 1.0022
-0.20797777 0.11846835 1.001
-0.19429436 0.11733557 1.0028461
-0.18582191 0.11732277 1.0052
-0.17544876 0.11784612 1.0023333
-0.16610554 0.1182071 1.0025001
-0.15450661 0.11722357 1.0040001
-0.14371207 0.11436594 1.0043334
-0.13906476 0.11177939 1.0040001
-0.25159895 0.12094405 1.0070001
-0.23390225 0.12169175 1.0058751
-0.22603694 0.120872 1.0064001
-0.21471223 0.12158282 1.0056365
-0.20442759 0.12212799 1.0063571
-0.19536215 0.12184487 1.0063334
-0.18591838 0.12094405 1.0070001
-0.17508931 0.12094405 1.0070001
-0.16243581 0.12094405 1.0070001
-0.15802179 0.12094405 1.0070001
-0.32963631 -0.16169152 1.0190001
-0.28156781 -0.1620343 1.01
-0.27299067 -0.16371769 1.0106667
-0.26517251 -0.16447742 1.0105001
-0.1540654 -0.16026343 1.01
-0.33299214 -0.15361761 1.0175999
-0.32737267 -0.15458186 1.013375
-0.16138951 -0.15783989 1.0115
-0.15554112 -0.1567217 1.0100001
-0.14963824 -0.15760714 1.01
-0.13384801 -0.15273726 1.0100001
-0.12460866 -0.15205045 1.0142858
-0.118812 -0.15097164 1.0190001
-0.34208518 -0.14205003 1.0175
-0.33542269 -0.14462963 1.0183828
-0.32774001 -0.14596556 1.0170715
-0.13222472 -0.14904796 1.0100001
-0.12346148 -0.14571866 1.0120002
-0.11703399 -0.14569384 1.0166923
-0.34273836 -0.13652958 1.0190001
-0.33521959 -0.1375718 1.0190001
-0.32963631 -0.13846512 1.0190001
-0.12130436 -0.13724215 1.01
-0.11864353 -0.13817655 1.0125002
-0.12130436 -0.12307523 1.01
-0.11894321 -0.12248494 1.01
-0.13251986 -0.11067917 1.01
-0.12293418 -0.11354543 1.0103
-0.11599893 -0.11441445 1.0111789
-0.10781089 -0.11171837 1.013
-0.14157589 -0.1015301 1.0106001
-0.13468768 -0.10454901 1.0127354
-0.12470672 -0.10452425 1.0128183
-0.11520938 -0.10517983 1.0144548
-0.10811472 -0.10510815 1.0127695
-0.14267352 -0.096542835 1.0154546
-0.13542618 -0.097408965 1.0182942
-0.12597582 -0.096883163 1.0182942
-0.11479205 -0.099158891 1.0190001
-0.10795574 -0.097247884 1.0177144
-0.093246646 -0.020425456 1.013
-0.093632095 -0.013927017 1.0139998
-0.094363593 -0.0058378763 1.0150871
-0.38109797 0.008451066 1.0145
-0.37656504 0.008207025 1.0118749
-0.097836159 0.00397385 1.0170909
-0.38148782 0.013020955 1.0172001
-0.37476426 0.013472142 1.0139229
-0.36766645 0.014906949 1.0148749
-0.099061579 0.013384946 1.018
-0.10242973 0.029392879 1.016
-0.11275695 0.038506024 1.0110002
-0.10525878 0.035869509 1.0134739
-0.37506053 0.047659397 1.013
-0.11577017 0.043998931 1.0150001
-0.10647054 0.040931441 1.0181429
-0.37268394 0.05352449 1.0156666
-0.36669862 0.057019915 1.0119091
-0.37072918 0.061639309 1.0190001
-0.36456394 0.064934433 1.0160002
-0.35606256 0.066136613 1.0120772
-0.34726694 0.069595054 1.01
-0.11317033 0.065520875 1.0119287
-0.1089083 0.062865764 1.01
-0.36239147 0.071168087 1.0190001
-0.35588512 0.071176894 1.0148749
-0.12159052 0.077927247 1.0123999
-0.11554124 0.07441698 1.0157144
-0.10987877 0.075039163 1.0190001
-0.13074897 0.08883848 1.01
-0.12477054 0.085441194 1.0139375
-0.35004249 0.098866962 1.016
-0.34583318 0.097542755 1.0115
-0.33646464 0.098283097 1.01
-0.13228966 0.095005579 1.0127692
-0.12838519 0.093319714 1.0170001
-0.35278863 0.1012436 1.0175
-0.34348753 0.10157882 1.0163751
-0.33471447 0.10237665 1.0154376
-0.32540995 0.1039206 1.0166
-0.31607962 0.10755166 1.0139
-0.30901623 0.1089083 1.01
-0.13470401 0.10536328 1.0142499
-0.31414124 0.11244916 1.018
-0.30573854 0.11300958 1.0135455
-0.29492557 0.11550444 1.0143332
-0.28528515 0.11677521 1.0116668
-0.27514839 0.11909077 1.0100001
-0.26651543 0.1195335 1.01
-0.15155725 0.11965185 1.011
-0.14564545 0.11838156 1.0115001
-0.13668519 0.1129702 1.0146667
-0.28586346 0.12059865 1.0190001
-0.27508587 0.12258693 1.0164286
-0.26554698 0.12286658 1.0149093
-0.25503302 0.12399364 1.0140588
-0.24575397 0.12391884 1.0128335
-0.23567218 0.12541278 1.0157501
-0.22488785 0.12508637 1.0135
-0.21529374 0.12633172 1.0148
-0.20572776 0.12608065 1.0120001
-0.19503753 0.12515038 1.0112501
-0.18478198 0.12402942 1.0117501
-0.17520441 0.12395026 1.0152
-0.16456637 0.12430798 1.0140589
-0.15497722 0.12443407 1.016
-0.14656347 0.1223848 1.0173334
-0.3377744 -0.15320802 1.0220001
-0.32881486 -0.14066467 1.0220001
-0.11468203 -0.14424849 1.0220001
-0.35318998 -0.13326764 1.026
-0.34570396 -0.13251606 1.0236666
-0.33550325 -0.13391264 1.0224501
-0.3523744 -0.12562914 1.028
-0.34499606 -0.12556863 1.026111
-0.33762538 -0.12604539 1.027
-0.35057199 -0.11986137 1.028
-0.34552523 -0.11709765 1.028
-0.14275678 -0.092475183 1.0241429
-0.13528895 -0.092283204 1.0220002
-0.12461282 -0.092999846 1.0226316
-0.11501142 -0.094206013 1.0227998
-0.10665381 -0.092312701 1.0223335
-0.14107758 -0.088959746 1.0250001
-0.13438785 -0.087417483 1.0253749
-0.12547606 -0.085662723 1.0256817
-0.11490554 -0.087065183 1.026105
-0.10640997 -0.084465325 1.0265714
-0.090491287 -0.012543347 1.0220001
-0.088959746 -0.011681584 1.0250001
-0.091079153 -0.0037133098 1.0228573
-0.086328037 -0.0046674572 1.0262855
-0.094171368 0.0055164881 1.0239999
-0.089220122 0.0018024266 1.028
-0.097690336 0.014080874 1.0255001
-0.10003468 0.020727906 1.028
-0.11209828 0.047178909 1.0250001
-0.1057684 0.043791141 1.0246251
-0.38047159 0.05666773 1.026
-0.37767011 0.055493627 1.0232859
-0.37475422 0.061922971 1.0237143
-0.1129056 0.077317469 1.0235001
-0.12197602 0.086579219 1.0241429
-0.11575358 0.083503768 1.0255625
-0.10904681 0.08381284 1.028
-0.13170514 0.099450819 1.0220001
-0.12619349 0.094932593 1.0248002
-0.35247988 0.10432158 1.0245715
-0.34492764 0.10654856 1.025
-0.33468106 0.10767351 1.0235001
-0.32666457 0.10805197 1.0220001
-0.13169469 0.10545511 1.0240771
-0.12851302 0.10219759 1.028
-0.34246105 0.11084924 1.028
-0.33473352 0.11157843 1.0273333
-0.32522675 0.11225667 1.02575
-0.31591049 0.1161289 1.0245715
-0.30461681 0.1182445 1.027
-0.29546294 0.11944163 1.0244
-0.28939292 0.11916179 1.0220001
-0.14066467 0.11826584 1.0220001
-0.13414684 0.11461447 1.0244375
-0.12887351 0.11175045 1.028
-0.29380783 0.12225096 1.0272501
-0.28540555 0.12434746 1.027
-0.27438411 0.12722337 1.0271429
-0.26590151 0.12756386 1.0247002
-0.25579464 0.1285693 1.0220001
-0.24523768 0.12863013 1.0232
-0.23484042 0.12934689 1.0232
-0.22578023 0.12991323 1.0220001
-0.21054903 0.12991323 1.0220001
-0.2051733 0.12991323 1.0220001
-0.19105724 0.12887351 1.028
-0.18388925 0.12827177 1.0232002
-0.17488272 0.12794803 1.0230001
-0.16523938 0.12940125 1.0220002
-0.15525591 0.12914526 1.0220002
-0.14460354 0.12512414 1.0245385
-0.13878685 0.1216638 1.028
-0.26225308 0.13157713 1.028
-0.25500005 0.13251895 1.0261538
-0.24514332 0.13175577 1.0277692
-0.23602144 0.13250501 1.0267999
-0.22467637 0.13168599 1.0265
-0.2150757 0.13174644 1.0265
-0.20569089 0.13348968 1.0258572
-0.19573735 0.13177639 1.0263635
-0.18474874 0.13067593 1.028
-0.17179511 0.1310225 1.026
-0.16471258 0.13308917 1.0257499
-0.15481547 0.1327879 1.02575
-0.14870019 0.13067593 1.028
-0.11636844 -0.14356907 1.0343333
-0.3588258 -0.13196112 1.031
-0.36282855 -0.12381569 1.0366251
-0.35711774 -0.1241641 1.0319376
-0.34165278 -0.12111501 1.031
-0.3380374 -0.12111501 1.031
-0.36275113 -0.11606381 1.0380001
-0.35524261 -0.1140385 1.0351853
-0.34416318 -0.1140818 1.031353
-0.3383387 -0.11629451 1.031
-0.36763191 -0.10828762 1.0380001
-0.35440218 -0.10646764 1.0380001
-0.34573576 -0.10720915 1.0338237
-0.14551878 -0.091288179 1.031
-0.14156313 -0.085712448 1.0322858
-0.13505571 -0.082569681 1.0321876
-0.12316918 -0.081921078 1.031
-0.1151675 -0.082204975 1.0320715
-0.10755736 -0.080442056 1.031
-0.13184188 -0.076094411 1.0351428
-0.12512282 -0.075035535 1.0345162
-0.11490835 -0.075203449 1.0364617
-0.10662134 -0.074703924 1.0342002
-0.083153591 -0.00090384332 1.031
-0.091806509 0.0085937446 1.0317501
-0.08659786 0.0040042009 1.0347061
-0.094585322 0.015054296 1.0345001
-0.088268057 0.01000978 1.0380001
-0.10182045 0.024547543 1.0370001
-0.097465046 0.022193942 1.0362858
-0.10282774 0.03002934 1.0380001
-0.11117273 0.049711384 1.031
-0.10477132 0.047582511 1.0313751
-0.11270054 0.054507021 1.0348462
-0.10578758 0.054904677 1.0347145
-0.10572658 0.063313447 1.0366668
-0.12021116 0.089480489 1.031
-0.11498448 0.087422863 1.0327779
-0.12222043 0.095700845 1.0350771
-0.11738742 0.09160465 1.0380001
-0.35210657 0.10862032 1.0325
-0.34978735 0.10936505 1.031
-0.12668096 0.1050571 1.0336668
-0.35307226 0.11283752 1.0380001
-0.34452316 0.11391214 1.0334547
-0.33529174 0.11687451 1.0354376
-0.32692039 0.11705013 1.033
-0.13210736 0.1179349 1.0321668
-0.12804408 0.11452511 1.0358889
-0.32364166 0.12136573 1.0370001
-0.31398815 0.12226183 1.0353847
-0.3045949 0.123329 1.0338668
-0.29500946 0.12691146 1.0334617
-0.28493804 0.12820181 1.0318183
-0.27747989 0.1292496 1.031
-0.19523016 0.1292496 1.031
-0.14304414 0.12776637 1.0320001
-0.13489877 0.1240996 1.0345653
-0.12830718 0.12193732 1.0380001
-0.29271024 0.13134044 1.0380001
-0.28386948 0.13250247 1.0370001
-0.27413467 0.13372442 1.0350001
-0.26508224 0.13566148 1.032389
-0.25431493 0.1371835 1.0317501
-0.24474351 0.13688232 1.0322001
-0.23416862 0.1371005 1.0329335
-0.22466786 0.13645574 1.0338335
-0.21556465 0.13677377 1.032154
-0.20470254 0.13737316 1.0316668
-0.19480845 0.13618591 1.0326667
-0.18536361 0.13504258 1.0343752
-0.17567295 0.1346606 1.0337896
-0.16506758 0.13770758 1.0326667
-0.15431438 0.1369873 1.0328572
-0.14524001 0.13350411 1.0344738
-0.13831696 0.1319471 1.0380001
-0.2638942 0.1410469 1.0380001
-0.25500217 0.141366 1.0370001
-0.2450446 0.14156689 1.0380001
-0.23487401 0.1419372 1.0371112
-0.22408257 0.14172938 1.0380001
-0.21424855 0.14148924 1.0374286
-0.20480958 0.14157769 1.0358183
-0.19665737 0.14129119 1.0353333
-0.18654589 0.1410469 1.0380001
-0.16470638 0.1410469 1.0380001
-0.1592465 0.1410469 1.0380001
-0.12172692 -0.14003173 1.044
-0.11472455 -0.14208618 1.0441668
-0.10775794 -0.14300415 1.0470001
-0.12115884 -0.13859837 1.0470001
-0.11748736 -0.13859837 1.0470001
-0.36717343 -0.12259395 1.041
-0.36595663 -0.11361995 1.0410001
-0.36462536 -0.10433663 1.0422002
-0.35566902 -0.10262715 1.0410001
-0.34952962 -0.10129971 1.041
-0.36217114 -0.098021857 1.045
-0.35719225 -0.097594984 1.0440001
-0.13708875 -0.078596234 1.0425
-0.12320235 -0.07027097 1.041
-0.11620567 -0.07057517 1.041
-0.10768798 -0.07027097 1.041
-0.12372396 -0.065067194 1.0454286
-0.11499444 -0.065286241 1.0456669
-0.10607903 -0.065025747 1.0461431
-0.12207671 -0.059661549 1.0470001
-0.11289801 -0.059661549 1.0470001
-0.10096569 -0.057825811 1.0470001
-0.084000699 0.0066636684 1.0431429
-0.091801643 0.017631143 1.0427142
-0.087664805 0.013049732 1.0443751
-0.10190812 0.027682504 1.041
-0.096492849 0.024902683 1.0442998
-0.10219804 0.032847948 1.0448571
-0.098986626 0.030246314 1.0455
-0.11133842 0.059319649 1.041
-0.11165927 0.06223632 1.044
-0.10799218 0.061753277 1.041
-0.11042581 0.087610558 1.041
-0.10860059 0.088523172 1.041
-0.11523469 0.094627671 1.0436844
-0.10891356 0.091524005 1.044
-0.12256956 0.10409488 1.0434
-0.11840523 0.10096569 1.0470001
-0.35373476 0.11708305 1.0426365
-0.34560305 0.11885554 1.0419999
-0.12670341 0.11460225 1.0458
-0.35460377 0.1214648 1.0470001
-0.34489554 0.12296724 1.0452
-0.33452433 0.12448806 1.0430002
-0.32485667 0.12572049 1.0435264
-0.31530544 0.12734064 1.0425001
-0.30693153 0.12788902 1.0419999
-0.13190897 0.12764573 1.0425
-0.12886803 0.12565811 1.04625
-0.31330666 0.13235389 1.046
-0.30461881 0.1346381 1.0447202
-0.2952207 0.13532113 1.0425792
-0.28519741 0.13652229 1.041923
-0.27515194 0.13826041 1.041
-0.18343461 0.13962933 1.041
-0.17613372 0.13962933 1.041
-0.14397596 0.13797431 1.0422857
-0.13546713 0.13417874 1.0445294
-0.12941967 0.1312554 1.0470001
-0.30106133 0.14043412 1.0470001
-0.29373041 0.14090112 1.0465715
-0.28513092 0.14119104 1.0458
-0.27556956 0.14135382 1.0443
-0.26522782 0.14420094 1.04325
-0.25405699 0.14571111 1.0433078
-0.24487159 0.14556731 1.0433571
-0.23428489 0.14641349 1.0441766
-0.22523166 0.14687745 1.0436471
-0.2154763 0.1465553 1.0441502
-0.20501213 0.14735691 1.044
-0.1947396 0.14523773 1.0434707
-0.18508087 0.14466302 1.0434287
-0.17524758 0.14365834 1.0445625
-0.16486056 0.14471509 1.04475
-0.15582047 0.14316888 1.0435001
-0.14445323 0.14128862 1.045909
-0.1376805 0.14135198 1.0470001
-0.1076985 -0.14083649 1.0500001
-0.12135229 -0.13671267 1.0513334
-0.11495565 -0.13665141 1.0532501
-0.10755105 -0.13902196 1.0558001
-0.36544162 -0.095137969 1.0516
-0.35967705 -0.093147591 1.052
-0.1040165 -0.0616735 1.0500001
-0.12227309 -0.05584367 1.0500001
-0.11525836 -0.055188559 1.0523791
-0.10578061 -0.055769566 1.0519258
-0.098493502 -0.0561505 1.0500001
-0.11582958 -0.049111743 1.057
-0.10285667 -0.049111743 1.057
-0.081924498 0.0073640002 1.0500001
-0.078764118 0.0074130935 1.057
-0.08525788 0.014774463 1.0533334
-0.09379866 0.026144346 1.0524446
-0.088720761 0.022783164 1.0564001
-0.10236837 0.036428131 1.052
-0.096823059 0.033647928 1.0563334
-0.11293817 0.097832143 1.0508001
-0.1227947 0.1080667 1.0500001
-0.11620587 0.1038118 1.0532143
-0.12447746 0.11478152 1.05375
-0.1186095 0.1111964 1.057
-0.36128661 0.1247409 1.054
-0.35565078 0.12585679 1.0530001
-0.3461577 0.12715761 1.052143
-0.33506197 0.12933025 1.0500001
-0.32769799 0.1297905 1.0500001
-0.12677863 0.12493271 1.0556
-0.35271278 0.1311499 1.0560001
-0.34216636 0.13203163 1.0552858
-0.33525011 0.13304277 1.0545454
-0.32471588 0.1333649 1.0530909
-0.31552103 0.13659193 1.052091
-0.13287875 0.13762453 1.0515715
-0.12905146 0.13385455 1.0530001
-0.31270504 0.14180149 1.05375
-0.30473119 0.14288273 1.053
-0.29479626 0.14532767 1.0525001
-0.28513175 0.14672743 1.0534376
-0.27599126 0.14720461 1.054
-0.26459029 0.14842632 1.0516001
-0.19790749 0.1482005 1.0500001
-0.1813385 0.1482005 1.0500001
-0.17442586 0.14809881 1.0511429
-0.1647695 0.1482005 1.0500001
-0.15409906 0.14727667 1.0526001
-0.14497943 0.1457998 1.0533334
-0.13572706 0.14381059 1.0532501
-0.26416335 0.15124094 1.0558
-0.2542676 0.15191792 1.0534167
-0.24507627 0.15226848 1.0534376
-0.23495834 0.15309405 1.0551667
-0.2245975 0.15343113 1.0543001
-0.21525526 0.15321021 1.0538334
-0.20605347 0.1524611 1.054
-0.19465062 0.15179335 1.0523078
-0.18564828 0.15194203 1.0535834
-0.17513433 0.15104178 1.057
-0.16493694 0.15200172 1.054
-0.1572604 0.15111002 1.0531667
-0.10252909 -0.14093877 1.0600001
-0.09943153 -0.14031927 1.0600001
-0.11389928 -0.13388252 1.0637143
-0.10567509 -0.13645788 1.0640715
-0.11058273 -0.051109668 1.0600001
-0.11238802 -0.046762679 1.0610911
-0.10618274 -0.046302207 1.0606002
-0.082228377 0.016540179 1.062875
-0.079236053 0.012122546 1.0633334
-0.090138867 0.027877999 1.0600001
-0.085927621 0.025155477 1.0627693
-0.09356302 0.035261288 1.0620002
-0.088184185 0.033031631 1.0663334
-0.1020614 0.042560041 1.0652858
-0.097621568 0.043119553 1.0646001
-0.11343552 0.1073209 1.0618572
-0.12184701 0.11781757 1.061
-0.11686755 0.11367875 1.0628573
-0.36148474 0.1282388 1.0600001
-0.12367322 0.12386151 1.0639001
-0.11786082 0.12066703 1.067
-0.35534677 0.13335691 1.0625001
-0.34467489 0.13572584 1.0623637
-0.33442914 0.13800868 1.0618751
-0.32616821 0.13795972 1.0615001
-0.12624805 0.13462459 1.0615001
-0.33487439 0.1412459 1.067
-0.32434303 0.14151415 1.0662
-0.3142896 0.1443447 1.06225
-0.30479991 0.14743592 1.0621667
-0.29550681 0.14961194 1.0600001
-0.14868267 0.14961194 1.0600001
-0.13220319 0.14619742 1.063875
-0.12863044 0.14168315 1.0632501
-0.30026448 0.15247074 1.067
-0.29459682 0.15290381 1.0656667
-0.28572807 0.15299563 1.0635455
-0.27469614 0.15434189 1.0633889
-0.26526961 0.15613768 1.0640626
-0.25603905 0.15706185 1.0628889
-0.24384376 0.15832122 1.0630001
-0.23463289 0.157977 1.0620834
-0.22524263 0.15848839 1.0650001
-0.21514501 0.15879381 1.0649091
-0.20533988 0.15737979 1.0630667
-0.19623163 0.15684915 1.063375
-0.18511079 0.15643723 1.06375
-0.17449085 0.15509097 1.0625001
-0.16516125 0.15677506 1.062875
-0.15483542 0.15537295 1.0630715
-0.14549801 0.15146933 1.0639001
-0.13817844 0.15031765 1.0650001
-0.2346102 0.16170344 1.0662
-0.22917381 0.16182478 1.067
-0.11426483 -0.13161425 1.0732223
-0.10410309 -0.13398792 1.0732353
-0.096433267 -0.13530003 1.0739286
-0.11189651 -0.12849987 1.0762001
-0.10669121 -0.12935129 1.077
-0.081608899 0.0196987 1.0700001
-0.078662798 0.017886255 1.0737144
-0.082245752 0.025417197 1.073909
-0.092054814 0.03851328 1.0715001
-0.086210519 0.034157123 1.0747501
-0.093160219 0.043286804 1.0734166
-0.087952018 0.044681504 1.0730001
-0.11095824 0.10781568 1.0756668
-0.1079501 0.1079501 1.077
-0.11396562 0.11566249 1.0743999
-0.10857955 0.11046789 1.077
-0.12325795 0.12702511 1.0732858
-0.11763157 0.12234014 1.0735
-0.36114284 0.13601483 1.0700001
-0.35413563 0.13761519 1.0715001
-0.34801039 0.1391416 1.0700001
-0.12527508 0.1357263 1.0726666
-0.35280487 0.14131077 1.077
-0.3438628 0.14376125 1.0733334
-0.33455914 0.14560024 1.0736153
-0.32534254 0.14584841 1.0733078
-0.3181853 0.1482347 1.077
-0.13038664 0.14820927 1.0700001
-0.1257132 0.14455087 1.0741874
-0.30430827 0.15316118 1.0737144
-0.29449236 0.15747026 1.0723751
-0.28548196 0.1577674 1.0712
-0.27671984 0.15852763 1.0700001
-0.18291651 0.15852763 1.0700001
-0.17745574 0.15867579 1.0710001
-0.15164872 0.15790229 1.0700001
-0.14532486 0.15592124 1.072
-0.13408519 0.15247788 1.072889
-0.12816691 0.15078491 1.075
-0.28458491 0.16190693 1.0764287
-0.27475041 0.16203001 1.0733
-0.26497653 0.16230011 1.0726001
-0.25449115 0.16193667 1.0733637
-0.24527206 0.16348355 1.0737778
-0.23423621 0.16562355 1.0721999
-0.2256407 0.164298 1.0729444
-0.21462715 0.16414867 1.0729998
-0.20488636 0.16407941 1.0733124
-0.19509177 0.1626403 1.0731249
-0.18555553 0.16157293 1.0760001
-0.17415388 0.16097336 1.0738001
-0.16519175 0.16111819 1.0726668
-0.1561501 0.16085343 1.0730001
-0.10152239 -0.13125424 1.0823334
-0.095016107 -0.13111743 1.0838
-0.088623106 -0.13055232 1.087
-0.11467438 -0.12543313 1.0830554
-0.10528525 -0.12588055 1.0844165
-0.095157519 -0.1281019 1.087
-0.088623106 -0.12864645 1.087
-0.075744003 0.0198828 1.08
-0.081109196 0.028719602 1.08
-0.076241821 0.025883859 1.0849999
-0.084142618 0.035543256 1.085091
-0.076234937 0.031446911 1.087
-0.088213123 0.041735757 1.082
-0.11238779 0.11581099 1.0846001
-0.10768185 0.11308181 1.087
-0.12102325 0.12797579 1.0813333
-0.11615944 0.12498429 1.0852727
-0.12232488 0.13498701 1.0830833
-0.11816415 0.13150527 1.087
-0.35422361 0.14377683 1.0813333
-0.34707174 0.14757104 1.0836667
-0.3380076 0.14864761 1.08
-0.32475239 0.14864761 1.08
-0.12274348 0.1447165 1.0829999
-0.34274372 0.15255816 1.0847143
-0.33449289 0.15312643 1.0831875
-0.32484028 0.15279926 1.08425
-0.31471565 0.15441726 1.0841333
-0.30714041 0.15757534 1.0837142
-0.14222145 0.15817609 1.0829999
-0.13511361 0.15684269 1.0842857
-0.12612537 0.15173194 1.08175
-0.30115283 0.16118774 1.0836667
-0.29448763 0.16365582 1.0832222
-0.28560376 0.16615361 1.0830001
-0.27533877 0.16701788 1.0817778
-0.26540384 0.16694716 1.082
-0.25497428 0.166823 1.0812
-0.24540143 0.16770773 1.0808001
-0.2367 0.1685304 1.08
-0.22439161 0.1685304 1.08
-0.2168172 0.1675836 1.08
-0.2045088 0.1675836 1.08
-0.19557558 0.16773234 1.0830001
-0.18479271 0.16565333 1.0828333
-0.17454709 0.16606738 1.0832666
-0.1642908 0.16619454 1.0832666
-0.15525833 0.16525321 1.0854167
-0.14712989 0.16278756 1.085889
-0.2753987 0.17057566 1.087
-0.26459873 0.17057566 1.087
-0.25425917 0.1714109 1.0862499
-0.24599355 0.17081673 1.0855
-0.23536329 0.1711742 1.0847501
-0.22466131 0.1715903 1.085875
-0.21526241 0.17049719 1.0864999
-0.20459867 0.17129321 1.0855
-0.19766378 0.17010489 1.0840001
-0.17248154 0.17057566 1.087
-0.16517569 0.17089331 1.087
-0.10257746 -0.12266276 1.0910001
-0.094686143 -0.12354068 1.094
-0.087193504 -0.12472138 1.0951819
-0.11029343 -0.11796602 1.0940001
-0.10530257 -0.11911479 1.0940001
-0.082309134 0.037326932 1.09175
-0.077222377 0.034392428 1.0923637
-0.084242404 0.04116476 1.092
-0.1118013 0.11849026 1.09
-0.10573616 0.11746573 1.0905335
-0.11253286 0.12642409 1.0925001
-0.10694746 0.12346351 1.0951
-0.12135696 0.13664603 1.09
-0.11668389 0.13472468 1.0925001
-0.35538492 0.14847519 1.0926667
-0.12174357 0.14667116 1.0935
-0.11944583 0.14237943 1.09
-0.35409388 0.15266149 1.0952001
-0.34659731 0.15557401 1.0931668
-0.3351309 0.15848756 1.09
-0.3244583 0.15818971 1.09
-0.31724811 0.15862407 1.09
-0.1347349 0.15862407 1.09
-0.12728623 0.15608716 1.095
-0.34173462 0.1610992 1.0960001
-0.33430412 0.16379093 1.0960001
-0.32577235 0.16357423 1.0957143
-0.31465748 0.16297135 1.0951251
-0.30498287 0.16496411 1.0940001
-0.29627067 0.16742873 1.0913334
-0.28666997 0.1691353 1.09
-0.19111334 0.1691353 1.09
-0.18442436 0.16913529 1.09
-0.17869097 0.1691353 1.09
-0.15371239 0.16902368 1.0913334
-0.14429715 0.16603991 1.0939333
-0.13543773 0.16214345 1.0957
-0.29428124 0.1711832 1.097
-0.28472349 0.17294967 1.0960001
-0.27462286 0.17327668 1.0938462
-0.2646412 0.17424941 1.0930834
-0.25544068 0.17613803 1.0935456
-0.24482012 0.17563652 1.0938462
-0.2359075 0.17595726 1.0949231
-0.22513989 0.17608182 1.094889
-0.21548216 0.17505838 1.0939231
-0.20484281 0.17599171 1.097
-0.19507736 0.17299956 1.0951
-0.18523695 0.1733913 1.09575
-0.17522225 0.17400144 1.0932728
-0.16473107 0.17463316 1.0925001
-0.15598792 0.1723119 1.095
-0.14714061 0.17086263 1.097
-0.09555579 -0.12065125 1.1010001
-0.087448023 -0.12142342 1.1010001
-0.11213312 -0.11503751 1.1058334
-0.10494439 -0.11428753 1.1044346
-0.095349528 -0.11603621 1.1047271
-0.085748784 -0.11659046 1.104769
-0.10490545 -0.10976217 1.1079999
-0.081372201 0.039717384 1.105
-0.078182012 0.03957361 1.1010001
-0.080621772 0.041767906 1.108
-0.1061731 0.12740771 1.1010001
-0.11400407 0.13614167 1.1031111
-0.10941545 0.13168892 1.1045001
-0.12161646 0.14960755 1.1010001
-0.11717527 0.14364825 1.1046667
-0.35455266 0.15890546 1.103
-0.34747559 0.15925965 1.1010001
-0.12362384 0.15608807 1.1029285
-0.11934625 0.15427895 1.1068001
-0.35423031 0.16162927 1.1040001
-0.34468833 0.16436173 1.102875
-0.33480546 0.16869231 1.1016666
-0.32448933 0.16854416 1.1049
-0.31552532 0.16792557 1.1037272
-0.30790198 0.16826828 1.1010001
-0.13520235 0.16693006 1.1031998
-0.12714648 0.16292122 1.1071428
-0.31374496 0.17192836 1.108
-0.30486822 0.17266357 1.105909
-0.29398793 0.17572932 1.1057144
-0.28540459 0.17773318 1.1056362
-0.27538696 0.17856736 1.1044285
-0.26478925 0.17792039 1.1010001
-0.24805897 0.17856385 1.1010001
-0.2255374 0.17856385 1.1010001
-0.21326035 0.17933422 1.1057501
-0.20439923 0.17921259 1.105
-0.19496842 0.17790836 1.1034546
-0.18527849 0.17863686 1.1048572
-0.17621282 0.17814848 1.1032
-0.16408569 0.17856385 1.1010001
-0.15520439 0.17724191 1.1038461
-0.14475504 0.17416263 1.1032665
-0.1385861 0.1720261 1.1055
-0.27294841 0.18164183 1.108
-0.26503614 0.18154345 1.1073999
-0.2550602 0.18257442 1.1053998
-0.2452472 0.18228237 1.1049999
-0.23506811 0.18290682 1.1046666
-0.22555164 0.18223202 1.1063333
-0.21649091 0.18154345 1.1073999
-0.20592549 0.18164183 1.108
-0.19426934 0.18228941 1.1079999
-0.1874699 0.18164183 1.108
-0.17289971 0.18164183 1.108
-0.16490275 0.18139592 1.1065
-0.11357041 -0.11162071 1.1120001
-0.093585916 -0.11152323 1.1120002
-0.085299663 -0.1116207 1.1120002
-0.11192378 -0.10689046 1.1157143
-0.10420158 -0.10603669 1.1145295
-0.094736986 -0.10484189 1.1159998
-0.085154131 -0.10472492 1.1164799
-0.078955673 -0.10407216 1.1165
-0.093194053 -0.099079989 1.1190001
-0.083384149 -0.097958855 1.1190001
-0.077266626 -0.095560312 1.1180001
-0.10459071 0.049851649 1.115
-0.082862534 0.041918691 1.1120001
-0.10496802 0.054856136 1.1158463
-0.10743866 0.065680042 1.1182001
-0.11422785 0.074870758 1.118077
-0.10839939 0.073083751 1.1190001
-0.11118281 0.13751699 1.1125001
-0.10678888 0.13520254 1.1175716
-0.11372641 0.14591233 1.1144117
-0.10771271 0.14263594 1.1190001
-0.11606224 0.15438369 1.1150668
-0.35313293 0.16535008 1.1127501
-0.34896156 0.16714965 1.115
-0.13196024 0.16812713 1.115
-0.12410558 0.16607387 1.1147059
-0.1183791 0.1626052 1.1159999
-0.33470857 0.17491135 1.1159999
-0.32478708 0.17565989 1.1157058
-0.31545958 0.17634144 1.1130716
-0.30534193 0.17794898 1.1147274
-0.29635543 0.17839816 1.1120001
-0.14427829 0.17839816 1.1120001
-0.13346335 0.17321396 1.114889
-0.12654771 0.17167325 1.1190001
-0.31467405 0.18135341 1.1182001
-0.30901185 0.18148315 1.1190001
-0.29344538 0.18272163 1.1162858
-0.28462073 0.1841623 1.1144167
-0.27542391 0.18485008 1.1156155
-0.26504979 0.18645312 1.1156366
-0.25501952 0.18771197 1.1145557
-0.24556497 0.18776962 1.1147143
-0.23456594 0.18773468 1.1128572
-0.22465964 0.18724863 1.1134169
-0.21506584 0.18664068 1.1160002
-0.20480433 0.18648034 1.1151251
-0.19577728 0.18600959 1.11475
-0.18454486 0.1843988 1.1156156
-0.17475213 0.18557404 1.1152667
-0.16516145 0.18610762 1.1147859
-0.1557886 0.18334097 1.1150911
-0.14857747 0.18083441 1.115
-0.2560384 0.19129305 1.1190001
-0.24230453 0.19129305 1.1190001
-0.23284705 0.19127069 1.1160001
-0.2287311 0.19060925 1.115
-0.11139672 -0.1025231 1.1245
-0.10615184 -0.10220926 1.1237501
-0.09943416 -0.10140315 1.123
-0.10562255 -0.099699795 1.126
-0.095162064 -0.09688624 1.1248751
-0.086495541 -0.094484992 1.124
-0.076790735 -0.091558188 1.123
-0.084234804 -0.089170448 1.126
-0.076356307 -0.088625342 1.1246667
-0.10210463 0.054500472 1.1235001
-0.10440067 0.065399915 1.1246667
-0.1125505 0.078253195 1.1242001
-0.10618382 0.075412147 1.1239232
-0.11476677 0.085501879 1.1253333
-0.10891297 0.085550986 1.126
-0.11417764 0.095751286 1.126
-0.10726776 0.098383628 1.126
-0.113026 0.1059516 1.1260002
-0.10695007 0.10427486 1.1251431
-0.11154531 0.11154531 1.126
-0.10957106 0.11154531 1.126
-0.10346419 0.13631232 1.1240001
-0.10649756 0.14524506 1.1236668
-0.11271026 0.15477243 1.1245
-0.10858393 0.15103038 1.126
-0.36128837 0.16781153 1.126
-0.35638779 0.16834892 1.123
-0.11688545 0.16458662 1.1242
-0.36030123 0.17077291 1.126
-0.35465747 0.17043167 1.12375
-0.34154582 0.17472142 1.126
-0.33374438 0.17819388 1.123
-0.14115912 0.17866993 1.126
-0.13622348 0.17817637 1.126
-0.12456167 0.17298099 1.1238573
-0.33433703 0.18114184 1.125
-0.32603592 0.18256865 1.1243334
-0.3147538 0.18422383 1.1237501
-0.3051089 0.18385541 1.1245
-0.29617605 0.18686342 1.1254001
-0.28747302 0.18803886 1.123
-0.27861255 0.18803886 1.123
-0.18508539 0.18803886 1.123
-0.15476979 0.18697472 1.1245
-0.14642377 0.18261844 1.126
-0.28324732 0.19060574 1.1242001
-0.27504143 0.19124876 1.1245
-0.26444367 0.19223458 1.1245
-0.25509968 0.19396256 1.1248463
-0.24620679 0.19322038 1.1245
-0.23461661 0.19322041 1.1245
-0.22459225 0.19303772 1.1248751
-0.21409234 0.19238713 1.1254001
-0.20828372 0.1924897 1.126
-0.19296134 0.19000785 1.123
-0.18439491 0.19031242 1.1248
-0.16408406 0.19143078 1.124125
-0.1582693 0.19117354 1.126
-0.11194157 -0.10005397 1.13
-0.11124287 -0.095347151 1.133
-0.10466903 -0.094502777 1.1319197
-0.094937399 -0.091368303 1.1304001
-0.10142741 -0.088125445 1.138
-0.093993336 -0.084948987 1.1340003
-0.084609486 -0.083794184 1.1318185
-0.075437389 -0.083375618 1.1322501
-0.091783494 -0.078814089 1.138
-0.083895832 -0.077082083 1.137
-0.074557804 -0.075280175 1.1367276
-0.06883762 -0.073825851 1.138
-0.10062029 0.055273831 1.1326666
-0.097097501 0.053525411 1.1348
-0.10129253 0.06455002 1.1328
-0.09876702 0.06883762 1.138
-0.10171759 0.074925475 1.132
-0.098367959 0.074025378 1.138
-0.11194157 0.088166364 1.13
-0.10420367 0.084841907 1.1329999
-0.09876702 0.080809377 1.138
-0.11304227 0.094330311 1.13
-0.10462806 0.0942294 1.1323999
-0.1155913 0.10448919 1.1308
-0.10297484 0.10583784 1.1306665
-0.098628156 0.10460281 1.1364
-0.10419934 0.11480016 1.1330477
-0.098161057 0.11289819 1.1356
-0.10242507 0.12470582 1.1380001
-0.10203447 0.13424648 1.1331428
-0.09876702 0.13567995 1.138
-0.10267987 0.14517513 1.1316667
-0.09841986 0.14017373 1.1340001
-0.11293221 0.15850133 1.13
-0.1059656 0.1545393 1.1347059
-0.11410841 0.16492921 1.134923
-0.13198566 0.17912668 1.132
-0.1244852 0.1776302 1.133
-0.11749923 0.17355058 1.1326667
-0.3429783 0.1839159 1.1340001
-0.33459675 0.18591055 1.1307273
-0.32649609 0.1873143 1.132
-0.31524584 0.1875599 1.1320001
-0.30439442 0.18863544 1.131
-0.29619938 0.18921097 1.13
-0.15192457 0.18833429 1.1326667
-0.144022 0.18508096 1.133
-0.1364668 0.18332756 1.1344445
-0.12570348 0.18157169 1.138
-0.33121872 0.1925458 1.138
-0.3262305 0.19055051 1.138
-0.31292847 0.19221324 1.138
-0.30514705 0.19345886 1.1375
-0.29465958 0.19306551 1.1340001
-0.28531849 0.19615577 1.1347272
-0.27454543 0.19667637 1.1339999
-0.26461834 0.19715206 1.1317142
-0.25393233 0.19812667 1.13
-0.24451417 0.19715095 1.1315
-0.23625113 0.19700368 1.1335001
-0.22413738 0.19666965 1.1305715
-0.21544854 0.19657251 1.1336
-0.2044518 0.19451831 1.1335
-0.19454108 0.1945411 1.138
-0.18556228 0.1945411 1.138
-0.17863137 0.19153063 1.132
-0.16317514 0.19627573 1.1326667
-0.15533447 0.19402465 1.1334667
-0.29031518 0.20451756 1.138
-0.28394043 0.20314783 1.137778
-0.27555001 0.20232272 1.1380001
-0.26687047 0.20102581 1.138
-0.255494 0.20181042 1.1340001
-0.24641873 0.20052698 1.138
-0.2224752 0.20052698 1.138
-0.10903016 -0.091025174 1.141
-0.11180919 -0.087634228 1.149
-0.10600669 -0.084983118 1.1466366
-0.098705351 -0.081975639 1.1450001
-0.10499061 -0.077561326 1.149
-0.095261216 -0.076098531 1.1466473
-0.086073503 -0.073099367 1.1446924
-0.078021578 -0.071019642 1.141
-0.067018539 -0.071019642 1.141
-0.083519153 -0.067416549 1.1478002
-0.075264961 -0.065222055 1.1446803
-0.066845067 -0.06458611 1.1445001
-0.073129252 -0.058624279 1.149
-0.064839825 -0.05656429 1.1476668
-0.064466558 0.019138509 1.149
-0.065070942 0.021958921 1.149
-0.09301842 0.055211589 1.1450001
-0.096324921 0.064852007 1.145889
-0.093682721 0.07589341 1.1455716
-0.089648813 0.078568622 1.149
-0.094451495 0.085134603 1.1440589
-0.089648813 0.082597777 1.149
-0.095638327 0.094869964 1.1446924
-0.094518699 0.10558136 1.1470001
-0.094421729 0.11607258 1.1434
-0.1030285 0.12703514 1.141
-0.094667047 0.12544936 1.144778
-0.088977285 0.12725431 1.149
-0.094323829 0.13442796 1.1435456
-0.09669435 0.14563784 1.1457274
-0.10102794 0.15804371 1.141
-0.098035753 0.15401794 1.146143
-0.11103071 0.16804647 1.141
