# .PCD v0.7 - Point Cloud Data file format
VERSION 0.7
FIELDS x y z
SIZE 4 4 4
TYPE F F F
COUNT 1 1 1
WIDTH 1453
HEIGHT 1
VIEWPOINT 0 0 0 1 0 0 0
POINTS 1453
DATA ascii
-0.16493028 -0.12483275 1.0329143
-0.15843762 -0.1250717 1.0380001
-0.18407135 -0.11409568 1.0343335
-0.17405443 -0.11310952 1.031
-0.16550159 -0.11530041 1.0344645
-0.1592465 -0.11920738 1.0380001
-0.20110558 -0.10100778 1.0380001
-0.19534238 -0.10131111 1.0380001
-0.18288112 -0.10420299 1.0369091
-0.17473307 -0.10510921 1.0347502
-0.16875257 -0.10752817 1.0357143
-0.28550622 -0.090770498 1.0380001
-0.26298422 -0.090997994 1.0380001
-0.2550219 -0.090770498 1.0380001
-0.24842454 -0.090088017 1.0380001
-0.23113492 -0.090997994 1.0380001
-0.22464658 -0.093106762 1.0368572
-0.21505861 -0.090391338 1.0380001
-0.20401752 -0.094273932 1.0380001
-0.19503134 -0.095493153 1.0358462
-0.1850331 -0.095197707 1.0355175
-0.17747793 -0.094977319 1.0374286
-0.29340357 -0.08345817 1.0380001
-0.28376952 -0.084315635 1.0341603
-0.27497089 -0.084350556 1.0354402
-0.26473045 -0.084359609 1.0328802
-0.25484422 -0.084287405 1.0330001
-0.24488488 -0.083604053 1.0340872
-0.23524091 -0.084515467 1.0333811
-0.22412167 -0.086272262 1.0322502
-0.21511067 -0.08441668 1.0353335
-0.2047286 -0.084509321 1.0333216
-0.19484767 -0.085028797 1.0328389
-0.18515292 -0.085376233 1.0330002
-0.17676778 -0.08441972 1.0345002
-0.30120337 -0.072798394 1.0380001
-0.29468676 -0.074354179 1.038
-0.28462875 -0.074837409 1.0365716
-0.27431718 -0.075251937 1.0321251
-0.26753762 -0.076826684 1.031
-0.25217229 -0.078634366 1.031
-0.24474069 -0.077830955 1.031
-0.23891592 -0.078031808 1.031
-0.21565703 -0.078634366 1.031
-0.19071095 -0.078634366 1.031
-0.18384175 -0.075742081 1.031
-0.17667677 -0.075052485 1.0343463
-0.29365057 -0.065336563 1.0380001
-0.28413841 -0.064900808 1.0362225
-0.27490303 -0.065109149 1.0315001
-0.18278494 -0.065146238 1.031
-0.17644617 -0.065148838 1.0335486
-0.28327248 -0.05529321 1.0375791
-0.27491871 -0.054767635 1.0318637
-0.18167251 -0.056942128 1.031
-0.17659985 -0.055094328 1.0343602
-0.27403685 -0.045449331 1.033731
-0.26640782 -0.043949388 1.031
-0.17297572 -0.044805199 1.033059
-0.16744667 -0.042544313 1.0365456
-0.33032274 -0.03457924 1.0380001
-0.32637948 -0.031242646 1.0380001
-0.31636971 -0.03002934 1.0380001
-0.30423665 -0.030332668 1.0380001
-0.29551601 -0.03048433 1.0380001
-0.28755367 -0.03002934 1.0380001
-0.27280548 -0.034485947 1.036737
-0.26516715 -0.035034947 1.0320001
-0.25831842 -0.032719128 1.031
-0.17235598 -0.035110835 1.031
-0.16642559 -0.035149366 1.0330954
-0.32486284 -0.026793854 1.0380001
-0.31430298 -0.024768688 1.0378519
-0.3044844 -0.024756191 1.0356959
-0.29500827 -0.024683684 1.0330418
-0.28463006 -0.02481945 1.0330801
-0.27485141 -0.023273028 1.0353638
-0.26430598 -0.02517152 1.0360402
-0.25547859 -0.024653619 1.0316523
-0.17154948 -0.025488382 1.031
-0.16609843 -0.025113648 1.0337502
-0.31212315 -0.016119644 1.0380001
-0.30483988 -0.014887929 1.0338573
-0.29736444 -0.01898071 1.031
-0.28209955 -0.016369607 1.031
-0.27272004 -0.016162774 1.0313751
-0.26503766 -0.015551159 1.0347588
-0.25450408 -0.015245399 1.0322694
-0.24742708 -0.014009572 1.031
-0.17082639 -0.01898071 1.031
-0.16577412 -0.015104242 1.0348262
-0.30337223 -0.0051761493 1.0355295
-0.29706317 -0.0042179357 1.031
-0.26353487 -0.0091675539 1.031
-0.25373352 -0.0069842432 1.031
-0.24530306 -0.0062063909 1.031
-0.1647134 -0.0047387201 1.0336925
-0.30136818 0.0022740734 1.0370001
-0.29456654 0.0051857992 1.0336002
-0.28606641 0.00798395 1.031
-0.23048003 0.0081345895 1.031
-0.22491091 0.00926801 1.0313751
-0.21665657 0.0070712455 1.031
-0.20878781 0.0090384334 1.031
-0.16495433 0.0048473943 1.0341306
-0.29260641 0.012548606 1.0372001
-0.28474364 0.015122104 1.0327501
-0.27808246 0.017775586 1.031
-0.22365031 0.015026301 1.031577
-0.21468672 0.015400368 1.0332803
-0.20553902 0.015605923 1.031261
-0.19598335 0.017926225 1.031
-0.18378146 0.018378148 1.031
-0.17465727 0.016367182 1.0322918
-0.16695334 0.014132889 1.036278
-0.28220496 0.022351844 1.0364001
-0.27489313 0.025507016 1.0328752
-0.2673665 0.028636171 1.0315001
-0.22190724 0.021942858 1.0321251
-0.21502869 0.02568504 1.033412
-0.20522748 0.024375163 1.0353335
-0.19477835 0.024522575 1.0330372
-0.18515201 0.024830699 1.0330346
-0.17590538 0.023644006 1.0354785
-0.31212315 0.035985574 1.0380001
-0.30274397 0.037539449 1.036
-0.29763928 0.038453374 1.0361668
-0.27364323 0.032996301 1.0376365
-0.2643688 0.035179708 1.0344212
-0.25543317 0.037396114 1.0320002
-0.24765307 0.038865265 1.031
-0.21360113 0.034720674 1.0332594
-0.20767744 0.034367789 1.0372002
-0.19423017 0.030838212 1.0380001
-0.18502927 0.030635992 1.0380001
-0.17926607 0.03002934 1.0380001
-0.31030318 0.040949099 1.0380001
-0.30318546 0.044928089 1.036154
-0.29448265 0.044852957 1.0325277
-0.28576466 0.047129843 1.0357274
-0.26207423 0.040949099 1.0380001
-0.25359413 0.043819308 1.0358751
-0.24501257 0.045249585 1.0322502
-0.23540094 0.047501996 1.031
-0.2134728 0.045949016 1.0314091
-0.2087387 0.044804681 1.0360001
-0.30211335 0.05186886 1.0380001
-0.29398975 0.054845616 1.0332729
-0.28463128 0.054857202 1.0312401
-0.27647436 0.056860778 1.034737
-0.26459727 0.059103113 1.0372001
-0.2440342 0.052475512 1.0369092
-0.23435786 0.054470319 1.0337502
-0.22467512 0.055789229 1.0327693
-0.21458521 0.055221315 1.0337502
-0.20841874 0.052104387 1.0366668
-0.29156151 0.062610365 1.0350001
-0.2846047 0.064471863 1.0326843
-0.27477559 0.064980216 1.0315143
-0.26453745 0.065225989 1.0334169
-0.25873765 0.065518558 1.0380001
-0.23022494 0.06096866 1.0380001
-0.22456518 0.062454406 1.0370771
-0.21644524 0.061488654 1.0380001
-0.28300378 0.070675112 1.0380001
-0.27470291 0.073335208 1.0370001
-0.26447415 0.074831657 1.0350771
-0.25934431 0.074072368 1.0380001
-0.26207423 0.080988221 1.0380001
-0.25934431 0.081898198 1.0380001
-0.27451903 -0.2025179 1.0452857
-0.26528236 -0.20549817 1.0418181
-0.28318086 -0.1946498 1.0465
-0.27621502 -0.19509615 1.0427369
-0.28350991 -0.18659899 1.0453125
-0.27730748 -0.18618912 1.0416666
-0.15696101 -0.1329399 1.044
-0.19536954 -0.12371542 1.0453635
-0.15425877 -0.12448025 1.0444739
-0.21156904 -0.1115212 1.0470001
-0.20366651 -0.11382571 1.0457369
-0.19473112 -0.11498106 1.0438931
-0.18797365 -0.11260049 1.042125
-0.16209507 -0.11209527 1.0433334
-0.15572074 -0.11589826 1.0446669
-0.14961281 -0.11656949 1.0470001
-0.32094854 -0.10065974 1.0470001
-0.3154735 -0.10240509 1.0467
-0.30490401 -0.10235769 1.0467273
-0.29532465 -0.10119517 1.0470001
-0.28443772 -0.1022915 1.0470001
-0.27742621 -0.1016541 1.0470001
-0.26379585 -0.10041497 1.0470001
-0.25461712 -0.10078212 1.0470001
-0.24874277 -0.10004783 1.0470001
-0.23405688 -0.1009657 1.0470001
-0.22407527 -0.10228295 1.0457143
-0.21473639 -0.10494816 1.0452859
-0.20550177 -0.10536592 1.0422002
-0.19511078 -0.10575893 1.0419133
-0.18630587 -0.10559995 1.0414002
-0.17065807 -0.10129971 1.041
-0.16537651 -0.10561518 1.0450002
-0.15787363 -0.10922653 1.0470001
-0.32518065 -0.094220191 1.0468335
-0.31453732 -0.094840996 1.0441819
-0.30460131 -0.095131837 1.0434003
-0.29473621 -0.094679818 1.0427145
-0.28456378 -0.095857486 1.0429202
-0.27509195 -0.09435308 1.043308
-0.26524085 -0.094802678 1.0428263
-0.25493267 -0.095858224 1.0422858
-0.24533588 -0.093959577 1.0437602
-0.2352967 -0.094843931 1.0435716
-0.22421154 -0.098127931 1.0422
-0.21505472 -0.095667303 1.0422225
-0.20736527 -0.096229658 1.041
-0.1731939 -0.095283054 1.0431001
-0.16899592 -0.096305333 1.04625
-0.32503241 -0.085289985 1.0461177
-0.31533924 -0.085202694 1.0433078
-0.3049807 -0.084940329 1.0410002
-0.29617709 -0.085715137 1.0410001
-0.27195778 -0.088523172 1.041
-0.25096774 -0.088523172 1.041
-0.24457949 -0.088523172 1.041
-0.2381912 -0.088523172 1.041
-0.17226763 -0.08542981 1.0437273
-0.32143807 -0.075999632 1.0470001
-0.31480965 -0.075039461 1.0438849
-0.30616239 -0.075308591 1.0410002
-0.29659826 -0.076476708 1.041
-0.17173462 -0.074905038 1.0419999
-0.16926566 -0.07501398 1.0452858
-0.32033664 -0.067004509 1.0470001
-0.31329846 -0.06560868 1.0447896
-0.30416134 -0.064741291 1.0413752
-0.29659829 -0.062665887 1.041
-0.17164992 -0.064455718 1.0428751
-0.16877382 -0.064676672 1.0456667
-0.33502254 -0.051630184 1.0470001
-0.32951534 -0.051400721 1.0470001
-0.3117139 -0.058158766 1.0464
-0.30463272 -0.055388186 1.0446669
-0.29494396 -0.054786041 1.0416003
-0.28813586 -0.05351213 1.0410001
-0.17197044 -0.054748099 1.0421538
-0.16848913 -0.054941915 1.0458461
-0.35215607 -0.043445844 1.0470001
-0.34486076 -0.044308677 1.0449548
-0.33430603 -0.044608187 1.0429288
-0.32555848 -0.043823164 1.0458001
-0.31446895 -0.043091848 1.0458
-0.30382389 -0.044308137 1.0464002
-0.29459262 -0.04485644 1.0442402
-0.28461805 -0.044727575 1.0412402
-0.17065807 -0.048368331 1.041
-0.16685936 -0.046463881 1.0443751
-0.35246205 -0.039468411 1.0470001
-0.34474009 -0.035427891 1.0448402
-0.33509061 -0.03484641 1.0413105
-0.32477415 -0.035599135 1.0429658
-0.31459653 -0.035126004 1.0420346
-0.30514535 -0.035712369 1.0423849
-0.29469267 -0.036005281 1.0431113
-0.28416362 -0.034722019 1.0413872
-0.27788976 -0.033766571 1.041
-0.16285689 -0.034238216 1.0430001
-0.34263456 -0.025141483 1.0467
-0.33499044 -0.024905873 1.0421741
-0.32493722 -0.023295566 1.0410001
-0.28108388 -0.028290911 1.041
-0.27469561 -0.026668495 1.041
-0.26739472 -0.02281525 1.041
-0.16135365 -0.024698328 1.0433999
-0.15761253 -0.023190964 1.0461428
-0.34052977 -0.01927527 1.0470001
-0.33387497 -0.015469369 1.0450001
-0.3249847 -0.014869623 1.0426365
-0.31644753 -0.013232843 1.0410001
-0.16128777 -0.015250764 1.0421538
-0.15609807 -0.014435306 1.0453752
-0.33135107 -0.0082608303 1.0470001
-0.32342207 -0.0059184567 1.0461818
-0.31481019 -0.0046435934 1.0426252
-0.30876639 -0.0042588464 1.041
-0.16153197 -0.0073008798 1.041
-0.15717697 -0.0047514075 1.0438573
-0.31314543 0.0030331993 1.0456153
-0.30576923 0.0051414855 1.0423125
-0.16094698 0.0058746682 1.0422857
-0.15780424 0.0038796549 1.0451537
-0.33410466 0.01927527 1.0470001
-0.30388084 0.01459296 1.0450387
-0.29580733 0.015742157 1.0425
-0.28929737 0.01916481 1.041
-0.16254269 0.015467557 1.0440001
-0.15848555 0.013156136 1.0470001
-0.33450431 0.024756057 1.0459502
-0.32538778 0.026443403 1.044
-0.31620988 0.027128715 1.0455
-0.305379 0.027711522 1.0467
-0.29404691 0.024938285 1.0461431
-0.28581259 0.02538581 1.0416001
-0.20351203 0.028290911 1.041
-0.17270248 0.02629854 1.0423334
-0.16706811 0.023519212 1.0452
-0.332645 0.033857897 1.0437273
-0.32508883 0.034518514 1.0425001
-0.31554252 0.033620041 1.0418574
-0.30514637 0.033659954 1.0421542
-0.29441062 0.034272928 1.0436002
-0.28462484 0.034965351 1.0426877
-0.27551788 0.037441242 1.0416429
-0.26861152 0.038633823 1.041
-0.20410244 0.035380885 1.0429617
-0.19548 0.036081474 1.0450002
-0.18496917 0.035870045 1.0447202
-0.17605157 0.032585394 1.0443531
-0.3221724 0.043664388 1.0470001
-0.31493032 0.044896487 1.0431819
-0.30846217 0.044717886 1.041
-0.2837193 0.04317655 1.0423125
-0.27545539 0.044841185 1.0438801
-0.2653583 0.04519343 1.0425558
-0.25748006 0.046566341 1.0415
-0.20406248 0.044949662 1.0446252
-0.19917779 0.041304149 1.0470001
-0.3130042 0.052397925 1.0455
-0.30524909 0.055768095 1.0428001
-0.29842347 0.059319649 1.041
-0.28077969 0.050801951 1.041
-0.27421626 0.053130426 1.0421054
-0.26522124 0.054164417 1.0438067
-0.25508502 0.054857846 1.0429003
-0.2457681 0.057256117 1.0421667
-0.23636599 0.059319649 1.041
-0.21081291 0.059319649 1.041
-0.20467694 0.055307742 1.0449378
-0.19917779 0.05599007 1.0470001
-0.3026078 0.062662378 1.046
-0.29540882 0.065243505 1.0432501
-0.26009384 0.06114487 1.041
-0.25454554 0.065081373 1.0444617
-0.24495903 0.064944625 1.0456157
-0.23493218 0.065123625 1.0437502
-0.22473511 0.067177482 1.043077
-0.21454842 0.065949552 1.0441307
-0.2075973 0.063702106 1.0454999
-0.29096478 0.070675991 1.0470001
-0.28467959 0.073684193 1.0428001
-0.2749595 0.077647537 1.0420001
-0.26556951 0.07878866 1.041
-0.25469187 0.075252995 1.0433638
-0.24793668 0.07450974 1.0467
-0.23313898 0.070675991 1.0470001
-0.2267139 0.070675991 1.0470001
-0.21569945 0.070675991 1.0470001
-0.27195317 0.083008721 1.04625
-0.26488408 0.085335493 1.0434288
-0.25452361 0.084973693 1.043036
-0.2479447 0.085817628 1.0464545
-0.26159295 0.090869129 1.0470001
-0.25443357 0.091603428 1.0470001
-0.24874277 0.091786996 1.0470001
-0.27150455 -0.21034652 1.057
-0.28406212 -0.20277278 1.05375
-0.27482975 -0.2065865 1.052
-0.29364881 -0.19207241 1.0533334
-0.28765625 -0.19560626 1.0500001
-0.3030102 -0.18532732 1.057
-0.29363263 -0.18726763 1.0541818
-0.28758401 -0.18441045 1.053125
-0.20200679 -0.13065577 1.057
-0.19842064 -0.13176768 1.0560001
-0.15353477 -0.13400163 1.0541428
-0.1491885 -0.13065577 1.057
-0.34239224 -0.12185273 1.057
-0.3341158 -0.12345821 1.0565715
-0.32453841 -0.12304711 1.0565385
-0.31488091 -0.12402051 1.056857
-0.30597538 -0.1226867 1.057
-0.27212229 -0.12200716 1.057
-0.26965126 -0.1213894 1.057
-0.20358568 -0.12432678 1.0543751
-0.19874471 -0.12542996 1.052
-0.1511049 -0.12622948 1.051
-0.14546472 -0.12399058 1.056
-0.13992214 -0.1213894 1.057
-0.3447904 -0.11474279 1.0568179
-0.33491039 -0.11541681 1.0540003
-0.3246471 -0.11539762 1.0543463
-0.31500891 -0.11552776 1.0542402
-0.30483326 -0.11532031 1.0549232
-0.29447219 -0.11588833 1.0561601
-0.28455386 -0.11602722 1.0562499
-0.27596971 -0.11512933 1.0556499
-0.26481667 -0.11526556 1.0569998
-0.25544283 -0.11237015 1.057
-0.24532706 -0.11096475 1.057
-0.23498414 -0.1125591 1.057
-0.2253876 -0.11468327 1.0564705
-0.2147861 -0.11557549 1.053647
-0.20779769 -0.11745124 1.0516001
-0.15142226 -0.11345163 1.0500001
-0.14526348 -0.11501905 1.0542274
-0.13548551 -0.11448174 1.0569997
-0.12593715 -0.113708 1.0568001
-0.11953613 -0.11026976 1.057
-0.34460708 -0.10494877 1.0555001
-0.33447275 -0.10486023 1.0518574
-0.32587606 -0.10557643 1.0519261
-0.31472933 -0.10752667 1.0502106
-0.30411631 -0.10751726 1.0510528
-0.29508594 -0.10700802 1.0526669
-0.28591892 -0.10761147 1.0525
-0.27517098 -0.10602038 1.0522069
-0.26561382 -0.10595259 1.0523078
-0.25519058 -0.10537574 1.0530478
-0.24484235 -0.1042895 1.05425
-0.23522586 -0.10611945 1.0535263
-0.22561365 -0.10704867 1.0515001
-0.21953924 -0.10815875 1.0500001
-0.16320744 -0.10241299 1.0507274
-0.1549812 -0.10522528 1.0535666
-0.14591914 -0.10631199 1.0568125
-0.13343567 -0.10543066 1.0569999
-0.12535897 -0.10491344 1.0558261
-0.11953614 -0.10470995 1.057
-0.34358686 -0.095320791 1.0545001
-0.33512628 -0.094828859 1.0502
-0.32746789 -0.095962122 1.0500001
-0.24393249 -0.097757101 1.0500001
-0.1702925 -0.091129497 1.0500001
-0.16469364 -0.095357433 1.0538949
-0.15629271 -0.098532356 1.057
-0.13158241 -0.099150121 1.057
-0.12509595 -0.096679091 1.0569999
-0.11953613 -0.097296856 1.057
-0.34241045 -0.086213708 1.0553637
-0.33549395 -0.084656753 1.0519201
-0.32788211 -0.0845019 1.0500001
-0.1702925 -0.085606501 1.0500001
-0.16689174 -0.085572369 1.0541334
-0.34007564 -0.075057574 1.057
-0.33392185 -0.074715331 1.0522001
-0.32685855 -0.074350931 1.0516472
-0.1670875 -0.074869774 1.0543334
-0.35397521 -0.060231384 1.057
-0.34748876 -0.060231384 1.057
-0.33381143 -0.064934015 1.0541581
-0.3253445 -0.064450093 1.0541853
-0.31818265 -0.063191891 1.0508001
-0.16586728 -0.064725466 1.0531112
-0.36341301 -0.052769493 1.0560001
-0.35477725 -0.054144345 1.0544782
-0.34533891 -0.054610051 1.0541304
-0.33484074 -0.055348706 1.0511765
-0.32516736 -0.054314651 1.0541925
-0.31526193 -0.053941648 1.0518
-0.30836749 -0.0506275 1.0500001
-0.16420361 -0.054735303 1.0540588
-0.36265838 -0.046347711 1.0549999
-0.35632002 -0.04602091 1.0513334
-0.34610799 -0.048786499 1.0500001
-0.32387653 -0.047515176 1.0514547
-0.31384197 -0.047243033 1.0503079
-0.30698675 -0.046025001 1.0500001
-0.16322088 -0.045289211 1.0543001
-0.36180079 -0.038862195 1.0555
-0.35522267 -0.034595482 1.0517391
-0.3488695 -0.031296998 1.0500001
-0.1615072 -0.035999876 1.05275
-0.15761305 -0.032357108 1.0545001
-0.35325113 -0.026023045 1.0539166
-0.34702849 -0.024485299 1.0500001
-0.1610875 -0.0285355 1.0500001
-0.15621367 -0.025455331 1.0519001
-0.35119531 -0.019459371 1.057
-0.34422523 -0.015454046 1.0526875
-0.33805361 -0.01242675 1.0500001
-0.35582846 -0.00092663668 1.057
-0.34192893 -0.0083397301 1.057
-0.33469382 -0.0045193909 1.0526001
-0.32735142 -0.0032273021 1.0523334
-0.15301716 -0.003290005 1.0505716
-0.1491885 -0.0018532733 1.057
-0.36224541 0.0070919408 1.0549999
-0.35502347 0.0052961018 1.0553637
-0.34747097 0.0064796931 1.0561429
-0.33321506 0.0044468036 1.0564001
-0.32488933 0.0047108079 1.0549999
-0.316614 0.0062451782 1.0508889
-0.15366183 0.0048817182 1.0532143
-0.1491885 0.0046331836 1.057
-0.36231494 0.013281792 1.057
-0.35489818 0.014370542 1.0533752
-0.34492368 0.015016799 1.052214
-0.33487156 0.014973858 1.0521034
-0.32524955 0.015112099 1.0556
-0.314928 0.014930239 1.0530347
-0.30836749 0.0193305 1.0500001
-0.15546077 0.014465536 1.0535001
-0.1491885 0.010193003 1.057
-0.35245484 0.023901941 1.0544285
-0.34453076 0.024874538 1.0508001
-0.33736324 0.022552248 1.0500001
-0.32468227 0.022279024 1.0516667
-0.31424218 0.023795517 1.0511765
-0.30504131 0.023499308 1.052353
-0.29916251 0.0248535 1.0500001
-0.16363584 0.026157806 1.0530001
-0.15768632 0.022527995 1.056
-0.34328479 0.032871492 1.0532
-0.3374384 0.035913207 1.0503638
-0.19790749 0.0395815 1.0500001
-0.18502051 0.0395815 1.0500001
-0.17428964 0.036609013 1.0526668
-0.16659473 0.031932801 1.05575
-0.34095845 0.041580301 1.054
-0.33377147 0.044458855 1.0525883
-0.32709736 0.045991387 1.0533999
-0.19539317 0.045153882 1.0526295
-0.18482675 0.04536096 1.0541537
-0.17577542 0.045192499 1.0560951
-0.3323344 0.051436368 1.054
-0.32479066 0.052343227 1.0548999
-0.31578866 0.056009889 1.0508001
-0.19849192 0.054467414 1.0531251
-0.18625396 0.050965015 1.057
-0.17513435 0.050965015 1.057
-0.31300047 0.06148918 1.05475
-0.30551866 0.065306082 1.052875
-0.29640099 0.069037497 1.0500001
-0.25129649 0.065355502 1.0500001
-0.2402505 0.069037497 1.0500001
-0.20367402 0.066016018 1.0523334
-0.19742207 0.064797439 1.0558573
-0.2941286 0.073973209 1.0535455
-0.28606209 0.077538662 1.0511429
-0.25129649 0.071798995 1.0500001
-0.24384932 0.074806921 1.0510907
-0.23515768 0.07550966 1.0526819
-0.22493224 0.075042211 1.053
-0.21558768 0.074529745 1.0536398
-0.20630482 0.073088437 1.0553077
-0.29096392 0.081544027 1.057
-0.28455475 0.082162373 1.0549999
-0.27607343 0.084999405 1.0522144
-0.26970649 0.089288503 1.0500001
-0.24400602 0.084336102 1.0516
-0.23533772 0.083305009 1.0566001
-0.22656266 0.081080712 1.057
-0.27160856 0.092179455 1.0549999
-0.26487285 0.093954057 1.0527333
-0.25526977 0.096698299 1.0516472
-0.24559975 0.095190115 1.0532273
-0.23938113 0.094208062 1.057
-0.25382644 0.101451 1.0561429
-0.24608822 0.1020624 1.057
-0.30244234 -0.18279375 1.0638572
-0.29565579 -0.18293217 1.0626252
-0.28900194 -0.181207 1.0600001
-0.31148931 -0.17492042 1.067
-0.30719841 -0.17768861 1.0662729
-0.23408467 -0.1435844 1.0670002
-0.22823842 -0.14498752 1.0670002
-0.15434155 -0.14218131 1.067
-0.34422845 -0.13002107 1.067
-0.33463135 -0.13266839 1.0665555
-0.32392386 -0.13444509 1.0664668
-0.31496671 -0.13625008 1.0675882
-0.30449414 -0.13392535 1.0669999
-0.29565036 -0.13336885 1.0684999
-0.28420979 -0.13317846 1.0684999
-0.27504945 -0.13380051 1.0685
-0.26490563 -0.1335412 1.0684999
-0.25537348 -0.13512507 1.0685
-0.24480845 -0.13349541 1.0669998
-0.23478623 -0.13469811 1.0669998
-0.22823842 -0.13469809 1.0670002
-0.21327196 -0.13189186 1.067
-0.20535852 -0.13448447 1.0638001
-0.19886306 -0.13474366 1.0600001
-0.1513958 -0.1377198 1.0638334
-0.14504352 -0.13413675 1.0639999
-0.13651665 -0.13184242 1.0666001
-0.12605725 -0.13255133 1.0699999
-0.36146659 -0.12307235 1.067
-0.35479584 -0.12445053 1.0637778
-0.34510139 -0.12535951 1.0610589
-0.33526593 -0.12829803 1.0613334
-0.32617202 -0.12768023 1.0605
-0.3152869 -0.12863706 1.0600001
-0.30399612 -0.12675339 1.062
-0.29482323 -0.12502646 1.06425
-0.28512844 -0.12491898 1.0637143
-0.27500603 -0.12525091 1.0617777
-0.2647776 -0.12493691 1.0634999
-0.25543237 -0.12426654 1.0663844
-0.24524704 -0.1245273 1.0662855
-0.23489894 -0.12433419 1.0643332
-0.22503079 -0.12428876 1.0651052
-0.2148892 -0.12496439 1.0629499
-0.20810752 -0.12736176 1.0604286
-0.14217781 -0.12751602 1.0600001
-0.13493824 -0.12504067 1.0622274
-0.12456976 -0.12392095 1.0652001
-0.11879622 -0.12066703 1.067
-0.36293653 -0.11505461 1.0670002
-0.35505536 -0.11516771 1.0613043
-0.29271901 -0.1198754 1.0600001
-0.28900194 -0.1198754 1.0600001
-0.273669 -0.11941077 1.0600001
-0.26484099 -0.11987541 1.0600001
-0.25464666 -0.11719476 1.0616156
-0.2457076 -0.11592967 1.0618825
-0.23562543 -0.11711543 1.0602502
-0.22421877 -0.11907889 1.0600001
-0.21775816 -0.11925589 1.0600001
-0.13350464 -0.1198754 1.0600001
-0.12429914 -0.11821619 1.0602728
-0.11853984 -0.11430061 1.0647273
-0.36212581 -0.10445337 1.0670002
-0.35458016 -0.105163 1.061579
-0.14346448 -0.10286268 1.0600002
-0.13753147 -0.10384554 1.0600001
-0.11679272 -0.10595951 1.0627275
-0.36149088 -0.095326111 1.0670002
-0.3537209 -0.094944797 1.0617915
-0.34847501 -0.093236424 1.0600001
-0.16150655 -0.09162569 1.0600001
-0.1545928 -0.093800783 1.0625554
-0.14482073 -0.095434442 1.0627811
-0.13502601 -0.094508722 1.0606428
-0.12545098 -0.091532767 1.0600002
-0.119132 -0.09162569 1.0600001
-0.35428676 -0.085480928 1.0646471
-0.34765553 -0.084236927 1.0617501
-0.1625932 -0.084266275 1.0616924
-0.15860681 -0.087560587 1.0663334
-0.1412459 -0.088863313 1.067
-0.13487738 -0.085333057 1.0643635
-0.12476501 -0.084727481 1.0620998
-0.11781708 -0.084803566 1.0656667
-0.35264704 -0.074832276 1.067
-0.34564927 -0.075466447 1.0627334
-0.16414852 -0.076627769 1.0645556
-0.13189188 -0.078440249 1.067
-0.12455256 -0.074913815 1.0682334
-0.38164458 -0.062672019 1.067
-0.37534791 -0.062619425 1.066077
-0.36501053 -0.06267377 1.0648667
-0.35460177 -0.064233519 1.0631818
-0.34495926 -0.06506259 1.0618887
-0.33918232 -0.064119399 1.0600001
-0.16361481 -0.06517978 1.0637778
-0.38239288 -0.055188797 1.0670002
-0.37490299 -0.054876745 1.0625908
-0.36607292 -0.056431599 1.0602144
-0.35590914 -0.058543801 1.0600001
-0.34289941 -0.058543801 1.0600001
-0.16076313 -0.055446249 1.0600001
-0.15843374 -0.053990394 1.0637779
-0.38070914 -0.047705572 1.067
-0.37520173 -0.045166034 1.0653635
-0.36811331 -0.044016488 1.0613847
-0.16076313 -0.046463333 1.0600001
-0.15564537 -0.044975813 1.06264
-0.37269142 -0.035946216 1.067
-0.36563691 -0.034432258 1.0615556
-0.15469475 -0.035999708 1.0610999
-0.14961194 -0.032524332 1.0600001
-0.36388609 -0.026068639 1.0655456
-0.35740432 -0.023258341 1.0612857
-0.15239973 -0.028807266 1.0600001
-0.36075389 -0.019019868 1.067
-0.35425422 -0.015202902 1.0650001
-0.34825695 -0.011623066 1.0607501
-0.37634397 -0.0015590056 1.067
-0.36514431 -0.0022439156 1.0658002
-0.35464704 -0.0042066411 1.06515
-0.34566638 -0.0042835679 1.0624999
-0.1467879 -0.0021700424 1.0620002
-0.37447309 0.003585713 1.0670002
-0.36642367 0.0042433091 1.0629444
-0.35405061 0.00092926668 1.0600001
-0.34497729 0.0041473899 1.0625
-0.33670428 0.005110967 1.0600002
-0.32803112 0.0083633997 1.0600001
-0.14493224 0.0049222321 1.0620475
-0.37210345 0.011786081 1.067
-0.36575919 0.015030325 1.062
-0.32803112 0.010221933 1.0600001
-0.15162992 0.017676119 1.061125
-0.14650184 0.013302309 1.0637369
-0.36268139 0.024696326 1.0658572
-0.35752517 0.025909258 1.0608572
-0.15530999 0.025300983 1.0640626
-0.3530398 0.033795323 1.0648
-0.34680584 0.036311317 1.062
-0.17067532 0.038099933 1.0600001
-0.16446015 0.035178993 1.0628752
-0.15803018 0.032141607 1.0648571
-0.34638417 0.041082352 1.0650001
-0.17110538 0.044168435 1.06075
-0.16805524 0.040146951 1.0650001
-0.33198816 0.056501389 1.06525
-0.32554874 0.056958437 1.0616
-0.19407123 0.05496471 1.0626111
-0.18562008 0.054224089 1.0634211
-0.17575699 0.053471625 1.06075
-0.32372546 0.061458368 1.0654
-0.3157177 0.064981975 1.0639168
-0.30616269 0.068863042 1.0615001
-0.19418973 0.065630853 1.0626364
-0.31289244 0.070622951 1.067
-0.30507916 0.074782714 1.0655789
-0.2974768 0.077859543 1.0615001
-0.21280207 0.078987665 1.0600001
-0.20370208 0.077375837 1.0616667
-0.19794774 0.074430674 1.0634167
-0.30250946 0.082502574 1.067
-0.29484364 0.084131546 1.0635384
-0.28627586 0.086925708 1.0616
-0.27970928 0.088280335 1.0600001
-0.23400153 0.086957365 1.0627501
-0.2243862 0.085087195 1.0624348
-0.21582365 0.084176287 1.0639999
-0.20547736 0.08200638 1.0654
-0.28326404 0.092167363 1.064625
-0.27576327 0.094640993 1.06225
-0.26664224 0.098905824 1.061
-0.24068007 0.09943153 1.0600001
-0.23595195 0.09463156 1.0634999
-0.22730301 0.090734124 1.067
-0.27220237 0.10102355 1.067
-0.26378769 0.10368572 1.0655
-0.25578672 0.10567639 1.0635833
-0.24427199 0.10514159 1.0625
-0.2372369 0.1030537 1.0654167
-0.29360443 -0.18104044 1.0700001
-0.31117567 -0.1717791 1.0707501
-0.30508393 -0.17455065 1.0725908
-0.2978985 -0.17851336 1.0706
-0.31237328 -0.16692492 1.0757778
-0.30685526 -0.16302668 1.077
-0.29237798 -0.16208251 1.077
-0.28482315 -0.16276726 1.0760769
-0.27452514 -0.16404742 1.0761111
-0.26487571 -0.16461271 1.0749199
-0.25881809 -0.16515392 1.0765001
-0.23226582 -0.16145307 1.077
-0.22496995 -0.1628264 1.0769999
-0.2168611 -0.16306411 1.0751537
-0.33706868 -0.15012303 1.077
-0.32007363 -0.1510672 1.077
-0.31333864 -0.15379708 1.0762727
-0.304369 -0.15522943 1.0741153
-0.29483482 -0.1555032 1.0739166
-0.28533024 -0.15511686 1.0733461
-0.27558333 -0.15519229 1.07288
-0.2652756 -0.15499893 1.074
-0.25555399 -0.15505637 1.0767331
-0.24472274 -0.15463178 1.0755
-0.23506299 -0.15491948 1.073318
-0.2253532 -0.15496357 1.0726784
-0.21541192 -0.15520945 1.0730001
-0.20869289 -0.15332811 1.0730001
-0.16292143 -0.15481129 1.0742307
-0.15620209 -0.15364385 1.0761427
-0.35028708 -0.1431991 1.077
-0.34482086 -0.14366296 1.0769999
-0.33648568 -0.14346112 1.0755713
-0.32490972 -0.14468266 1.0753528
-0.31457081 -0.1453359 1.0719565
-0.30470991 -0.1453546 1.0702306
-0.29539233 -0.14550708 1.0702499
-0.28540313 -0.14551851 1.0709
-0.27499664 -0.14547752 1.0705999
-0.2656031 -0.14557461 1.0732857
-0.25462219 -0.14526731 1.0728182
-0.24496482 -0.14547859 1.0705999
-0.23669706 -0.14789659 1.0700001
-0.22364496 -0.14499618 1.0724783
-0.21554628 -0.14519808 1.0730001
-0.20713654 -0.14536846 1.0714117
-0.16165443 -0.14789657 1.0700001
-0.15498213 -0.14586057 1.0714285
-0.14556125 -0.14399756 1.072
-0.13739443 -0.14240251 1.0710001
-0.37456575 -0.13299309 1.0769999
-0.36468977 -0.13395442 1.0740526
-0.35524601 -0.13442676 1.0748695
-0.34514871 -0.13507563 1.0724444
-0.33495027 -0.1366809 1.0706922
-0.32674828 -0.13830778 1.0700001
-0.30486083 -0.13923095 1.0700001
-0.24545205 -0.13945429 1.0700001
-0.2234448 -0.13444334 1.0702856
-0.21546905 -0.1359321 1.0701666
-0.20655493 -0.13939175 1.0700001
-0.15665157 -0.13976696 1.0700001
-0.1447698 -0.13945429 1.0700001
-0.13434079 -0.13629703 1.0703748
-0.37362155 -0.12651879 1.0769999
-0.36593223 -0.12555452 1.0710714
-0.22418997 -0.12804155 1.0700001
-0.13038664 -0.12851056 1.0700001
-0.12428942 -0.12851056 1.0700001
-0.11700081 -0.12365758 1.0708182
-0.37342775 -0.11498909 1.075909
-0.36835811 -0.11504146 1.0716363
-0.11336484 -0.11584515 1.0727726
-0.1074355 -0.11685792 1.075
-0.37319875 -0.10460825 1.075
-0.36791274 -0.10457992 1.0714999
-0.1153781 -0.1097499 1.0700001
-0.3720659 -0.096023276 1.0765001
-0.36677468 -0.094370894 1.0722001
-0.1491473 -0.090989232 1.0700001
-0.36419663 -0.086014211 1.0738124
-0.35832873 -0.082546934 1.0700001
-0.1604037 -0.082546934 1.0700001
-0.15457419 -0.084863007 1.072
-0.14572312 -0.085301995 1.07125
-0.1391416 -0.082234256 1.0700001
-0.39183053 -0.070812747 1.077
-0.38698888 -0.07130228 1.0730001
-0.36233038 -0.074486136 1.0755454
-0.35765868 -0.075176664 1.0700001
-0.16207124 -0.074191794 1.0712856
-0.1560384 -0.076951183 1.0753158
-0.14403175 -0.076127291 1.0744348
-0.13520627 -0.074377939 1.07072
-0.11786083 -0.075301535 1.0718571
-0.39253864 -0.064439602 1.077
-0.38530928 -0.066023514 1.0719999
-0.37453568 -0.066178031 1.0707501
-0.36589262 -0.067639843 1.0737144
-0.35926676 -0.068476431 1.0700001
-0.16203479 -0.065219492 1.0737144
-0.14143667 -0.06741374 1.077
-0.13454145 -0.064916596 1.0732
-0.12522152 -0.065038763 1.072625
-0.11928014 -0.068294965 1.077
-0.39197493 -0.05720951 1.0756668
-0.38718471 -0.054979276 1.0711112
-0.15694438 -0.054194946 1.072
-0.13411264 -0.058283426 1.0757999
-0.12725179 -0.057706781 1.0752223
-0.38490582 -0.04525673 1.0723571
-0.3799035 -0.041273467 1.0700001
-0.15289943 -0.047839701 1.0700001
-0.38309634 -0.036485109 1.0763334
-0.37670591 -0.034400079 1.0710908
-0.15201136 -0.031157609 1.077
-0.37360126 -0.02754147 1.0741251
-0.3676016 -0.023200108 1.0708573
-0.15344399 -0.026988039 1.0738333
-0.37105882 -0.015106721 1.077
-0.36544296 -0.014591942 1.0737998
-0.35846272 -0.012730452 1.0700001
-0.38560423 -0.0051222104 1.0747391
-0.37569842 -0.00461622 1.07355
-0.36512375 -0.0065769725 1.0715833
-0.35739073 -0.0065662335 1.0700001
-0.3847819 0.0042079999 1.0745333
-0.37769091 0.0049276333 1.0703751
-0.14164303 0.0084423004 1.0700001
-0.13976696 0.0084423004 1.0700001
-0.38198307 0.012801712 1.0758573
-0.37560365 0.015763234 1.073125
-0.1430911 0.016769065 1.0719999
-0.13864988 0.013162054 1.0722501
-0.37294716 0.023132164 1.077
-0.36745861 0.026241072 1.0732223
-0.15224884 0.026978649 1.0703751
-0.1463878 0.024999984 1.0741817
-0.36306134 0.034549799 1.0747499
-0.35706225 0.036154065 1.071125
-0.16192318 0.03801731 1.0707501
-0.15459926 0.035170775 1.0731428
-0.14838934 0.031865258 1.0754
-0.36161712 0.040599309 1.077
-0.35577881 0.04459345 1.0759544
-0.34988642 0.041273467 1.0700001
-0.17164694 0.046374533 1.0732858
-0.16537704 0.041881796 1.0746363
-0.15956473 0.040599309 1.077
-0.33404097 0.059280198 1.0733334
-0.1913588 0.059096098 1.0700001
-0.1842518 0.058811039 1.0705001
-0.17665921 0.05682366 1.0727143
-0.33111352 0.062083781 1.0730001
-0.325553 0.06583263 1.07275
-0.319244 0.067851074 1.0700001
-0.19202055 0.064523391 1.0722728
-0.18549085 0.063198857 1.0740588
-0.32307762 0.074553832 1.0738
-0.31550905 0.075565577 1.0704799
-0.3079876 0.079107478 1.0700001
-0.19521762 0.075205728 1.0733845
-0.31306678 0.082544483 1.0724
-0.30471218 0.085801817 1.0707999
-0.29693857 0.088462681 1.0712001
-0.23169424 0.089113168 1.0700001
-0.21315612 0.087799154 1.071125
-0.2048931 0.087278135 1.0728947
-0.19755921 0.084191814 1.0738571
-0.2941317 0.092480317 1.0748572
-0.28577483 0.096075915 1.0723001
-0.27859589 0.098493502 1.0700001
-0.23138916 0.095223889 1.0712
-0.22529195 0.094554804 1.0736362
-0.21622026 0.093246587 1.074357
-0.20840091 0.091471106 1.0756668
-0.28125834 0.10065097 1.0730001
-0.27492863 0.10373333 1.073
-0.26701841 0.10661945 1.0708572
-0.25420702 0.1097499 1.0700001
-0.24420135 0.10943723 1.0700001
-0.23354469 0.10529388 1.0719522
-0.22911859 0.10543231 1.077
-0.26363382 0.11016017 1.074
-0.25445402 0.11248883 1.0760001
-0.24518454 0.11372063 1.075
-0.2360954 0.1128699 1.0744705
-0.22943331 0.11046789 1.077
-0.24554002 -0.19154029 1.087
-0.29635978 -0.18115844 1.0842
-0.2830222 -0.18010503 1.087
-0.27463847 -0.18192716 1.0865
-0.26459265 -0.18377513 1.0868235
-0.25451297 -0.18536252 1.0860525
-0.24503288 -0.1852551 1.084857
-0.23474504 -0.18532719 1.0840799
-0.22754195 -0.18216769 1.0847143
-0.30252156 -0.17300461 1.0823332
-0.29558253 -0.17436253 1.0851427
-0.28498271 -0.17471083 1.0852271
-0.27456972 -0.17574175 1.0830454
-0.2649771 -0.17521581 1.0816296
-0.25499049 -0.17536898 1.0812799
-0.24490619 -0.17561515 1.0827999
-0.23410465 -0.17534189 1.0811199
-0.22599831 -0.17441896 1.0838094
-0.21952084 -0.17010489 1.0840001
-0.3228558 -0.16208987 1.0838001
-0.31581038 -0.1632704 1.08
-0.3045406 -0.16600467 1.0803636
-0.2953591 -0.16552028 1.0805334
-0.28498682 -0.1677414 1.08
-0.27687138 -0.16839515 1.08
-0.26983801 -0.16947719 1.08
-0.25397912 -0.16521664 1.08
-0.24528646 -0.16490646 1.08
-0.2355503 -0.16575764 1.08
-0.22523355 -0.16745631 1.0804
-0.21776399 -0.1675836 1.08
-0.16155213 -0.16060182 1.0840001
-0.1581156 -0.16000921 1.08
-0.3522096 -0.1505412 1.08
-0.34516117 -0.1513828 1.08
-0.33523494 -0.15438733 1.0830399
-0.32541299 -0.1547294 1.0827726
-0.31646693 -0.15670708 1.0804445
-0.24616799 -0.1581156 1.08
-0.16000921 -0.1581156 1.08
-0.15306599 -0.15369721 1.08
-0.36044851 -0.14228475 1.082
-0.35502651 -0.14476387 1.0809412
-0.34558198 -0.14864761 1.08
-0.33404824 -0.14658184 1.08
-0.32759279 -0.14864761 1.08
-0.38416761 -0.13089859 1.082
-0.36199319 -0.13791721 1.08
-0.35505 -0.1391796 1.08
-0.38472915 -0.12494598 1.0830499
-0.37853065 -0.12440952 1.08
-0.38352314 -0.11567529 1.086
-0.37777323 -0.1145628 1.08
-0.11203799 -0.1114068 1.08
-0.10650344 -0.11271215 1.0820909
-0.38345912 -0.1054203 1.0861429
-0.37861478 -0.10467401 1.08
-0.11339946 -0.10958771 1.087
-0.10768184 -0.10958771 1.087
-0.38187063 -0.094645023 1.0856667
-0.37692216 -0.094209835 1.0821538
-0.38022172 -0.088623106 1.087
-0.37407032 -0.085285343 1.0849999
-0.36754775 -0.08199288 1.08
-0.39576238 -0.071010001 1.08
-0.3829008 -0.071259849 1.0838001
-0.37364331 -0.074539535 1.0854167
-0.36761516 -0.07524877 1.0804445
-0.15405068 -0.073262207 1.0816
-0.14738519 -0.072272398 1.08
-0.40285352 -0.06516853 1.0830909
-0.39718261 -0.065802604 1.08
-0.37562886 -0.069244392 1.082
-0.16063489 -0.06563428 1.0805714
-0.15487838 -0.065035209 1.0852855
-0.14624012 -0.064483851 1.0831816
-0.40136966 -0.057492174 1.0852858
-0.39645576 -0.053785175 1.08275
-0.16000921 -0.059648398 1.08
-0.15521048 -0.055998888 1.084722
-0.14435552 -0.055171829 1.0858799
-0.1354038 -0.053288925 1.0824735
-0.12546246 -0.053451587 1.0823888
-0.39357597 -0.045369033 1.08375
-0.38913479 -0.041659199 1.08
-0.1415111 -0.0481233 1.087
-0.13386843 -0.046966475 1.0865384
-0.12658571 -0.046634868 1.0856667
-0.39206815 -0.037111931 1.0855
-0.38621488 -0.033951811 1.0819
-0.38243333 -0.024449645 1.0866666
-0.37735018 -0.024649676 1.0815001
-0.1534228 -0.025729289 1.087
-0.39388564 -0.011189071 1.0816001
-0.38329986 -0.013157744 1.0845
-0.37555233 -0.014428442 1.0825999
-0.40118635 -0.0076234937 1.087
-0.39623323 -0.0047502471 1.0838666
-0.37682641 -0.0080478005 1.08
-0.39350981 0.0043716738 1.0836999
-0.388188 0.0075743999 1.08
-0.39057603 0.01140368 1.0840001
-0.38526341 0.015762785 1.0807273
-0.37966681 0.0198828 1.08
-0.13779446 0.018598858 1.0840001
-0.38329336 0.021902421 1.0862501
-0.3759149 0.026402349 1.0819167
-0.14178909 0.027145807 1.0826
-0.13720697 0.024101453 1.0863076
-0.3731032 0.033531185 1.085
-0.36812869 0.036656354 1.0813334
-0.15135826 0.038235523 1.0813333
-0.14518915 0.034992583 1.0845999
-0.37111285 0.042711198 1.0826668
-0.36540946 0.043609161 1.0814285
-0.16459295 0.046397533 1.0825
-0.15559912 0.04315304 1.0847499
-0.14961106 0.040976275 1.087
-0.35694361 0.050180394 1.08
-0.17265522 0.053197775 1.083625
-0.16608714 0.051282618 1.0861429
-0.34224167 0.066544265 1.0865715
-0.33598453 0.065900557 1.0827894
-0.19101164 0.069372386 1.0840001
-0.18395568 0.067552559 1.0829231
-0.17891745 0.062384475 1.0836667
-0.33254176 0.072818041 1.0843999
-0.3280662 0.073376998 1.08
-0.19304794 0.075125754 1.0847778
-0.18486971 0.071470253 1.087
-0.19461319 0.085054532 1.0845383
-0.29524118 0.096672222 1.08375
-0.28877398 0.099413998 1.08
-0.2234448 0.099413998 1.08
-0.21437407 0.097153626 1.0823846
-0.20499609 0.094984204 1.0840588
-0.1975358 0.093061149 1.0854
-0.29064569 0.10196422 1.087
-0.28406605 0.10383015 1.0837142
-0.27585661 0.10775402 1.0813334
-0.2250635 0.10467131 1.0844998
-0.21639396 0.10190168 1.0863334
-0.2721625 0.11229267 1.0855
-0.26423761 0.11448176 1.0824546
-0.2555621 0.11694948 1.0818462
-0.24559842 0.11839259 1.0828573
-0.23295869 0.11644506 1.0812308
-0.22944646 0.11329689 1.0860001
-0.26078701 0.12165824 1.087
-0.2543644 0.1219425 1.0867
-0.24642944 0.12140413 1.087
-0.2370647 0.12091162 1.086
-0.26206416 -0.20147686 1.097
-0.25563818 -0.20182027 1.0962501
-0.28370246 -0.19247805 1.097
-0.27570984 -0.19397366 1.0962105
-0.26536122 -0.19432127 1.0937825
-0.25554365 -0.19500372 1.0927199
-0.24842365 -0.19433771 1.092
-0.29344973 -0.18490045 1.0941176
-0.28564242 -0.18573476 1.09375
-0.27572978 -0.18643837 1.0913334
-0.26469198 -0.18824664 1.09
-0.29144782 -0.17869097 1.09
-0.33289561 -0.16309483 1.0934286
-0.32775936 -0.16244633 1.09
-0.3382706 -0.15957963 1.09
-0.32967049 -0.15957963 1.09
-0.39082676 -0.12135696 1.09
-0.38891563 -0.12135696 1.09
-0.39379239 -0.1149199 1.0951177
-0.38827857 -0.11562356 1.09
-0.10262085 -0.11029343 1.0940001
-0.39365217 -0.10465445 1.0951999
-0.38700449 -0.10511234 1.09
-0.11237351 -0.10743087 1.0955715
-0.10533898 -0.1075556 1.0946923
-0.39397034 -0.095107414 1.09475
-0.38689539 -0.094463564 1.090889
-0.39295197 -0.086937986 1.097
-0.38520205 -0.08504317 1.092579
-0.37897772 -0.083516523 1.09
-0.38478702 -0.076519974 1.0930001
-0.37840438 -0.076445334 1.09
-0.40585199 -0.053240258 1.0910002
-0.15154736 -0.052336246 1.0911429
-0.14811283 -0.051600598 1.09
-0.4106473 -0.045200054 1.097
-0.40512282 -0.045490582 1.0948
-0.39807799 -0.043344155 1.0906668
-0.15277074 -0.045156404 1.0960001
-0.14530456 -0.044440988 1.0941905
-0.13525505 -0.042535279 1.0903335
-0.12775242 -0.041944291 1.0924
-0.4048771 -0.039429836 1.097
-0.39597794 -0.034834351 1.0936667
-0.15230928 -0.035564378 1.0964546
-0.1441057 -0.038349297 1.0966668
-0.13590141 -0.037760869 1.0958462
-0.12810259 -0.036771674 1.0966251
-0.39207026 -0.024963742 1.09525
-0.38643116 -0.02408028 1.09
-0.15374658 -0.023813775 1.0938333
-0.39261955 -0.015040385 1.0949999
-0.38647068 -0.015409268 1.090889
-0.153521 -0.017269019 1.0945001
-0.40590587 -0.004428701 1.092
-0.40324506 0.0033089297 1.0948889
-0.39768231 0.0066994862 1.0913334
-0.39583164 0.012063811 1.0922
-0.39034283 0.021099612 1.0940001
-0.38544363 0.026464373 1.0937001
-0.13728307 0.028985521 1.09
-0.38179621 0.034621321 1.097
-0.37742025 0.036251169 1.0922859
-0.14196639 0.037376311 1.0931429
-0.13826098 0.034123998 1.0941429
-0.15365356 0.047240935 1.0928462
-0.14636756 0.044099603 1.0950667
-0.17283221 0.057053469 1.09375
-0.16397688 0.054114256 1.0938572
-0.15636475 0.051588178 1.0965
-0.347083 0.066995837 1.09
-0.1806021 0.067845233 1.09
-0.17760545 0.063679501 1.0951113
-0.34176147 0.072758079 1.092
-0.33836469 0.07239455 1.0913334
-0.19168393 0.076533109 1.094625
-0.18515193 0.074352778 1.0943125
-0.17959261 0.072992139 1.0955
-0.19259211 0.086257339 1.0908
-0.30231524 0.097413667 1.0947502
-0.20258014 0.098423369 1.09
-0.19475265 0.095882528 1.0936877
-0.30101314 0.10097885 1.097
-0.29518825 0.10287453 1.094125
-0.28702679 0.10719383 1.0950001
-0.27806988 0.10989016 1.09
-0.22341149 0.10912571 1.09
-0.21354938 0.10558157 1.09285
-0.2050889 0.10381513 1.094591
-0.1967645 0.10136354 1.097
-0.28139377 0.11140636 1.0955
-0.2753841 0.11473608 1.0936667
-0.26737806 0.11809085 1.0916002
-0.23029156 0.11849026 1.09
-0.22591496 0.11439968 1.0954375
-0.21487537 0.11141517 1.0964546
-0.27023864 0.12021291 1.097
-0.264595 0.1256173 1.0950769
-0.25491682 0.12725613 1.0949286
-0.24450944 0.126375 1.0942106
-0.23470218 0.12573797 1.0927501
-0.22946241 0.12405972 1.097
-0.24138753 0.13175336 1.097
-0.23754072 0.13175336 1.097
-0.29149342 -0.19207679 1.1010001
-0.28666738 -0.19497243 1.1010001
-0.27894568 -0.19786805 1.1010001
-0.39863172 -0.11196436 1.1010001
-0.11469036 -0.10646328 1.1040001
-0.1044785 -0.10367022 1.1034999
-0.097263686 -0.10275748 1.1058334
-0.40128976 -0.090892799 1.103
-0.39863172 -0.091694951 1.1010001
-0.090090647 -0.099777818 1.105
-0.40141088 -0.085272118 1.1071428
-0.39609307 -0.0828159 1.1035999
-0.40008 -0.07846605 1.105
-0.39476484 -0.076589979 1.1027778
-0.41117945 -0.041504029 1.1010001
-0.41210809 -0.037185319 1.1038572
-0.40593278 -0.034330975 1.1038398
-0.15443361 -0.038608402 1.1010001
-0.14601888 -0.033687185 1.1014444
-0.13505109 -0.03252599 1.102111
-0.12772946 -0.032495406 1.1010001
-0.41087964 -0.025255013 1.108
-0.40417361 -0.024610205 1.106095
-0.39742523 -0.025578063 1.101
-0.15154411 -0.024417078 1.1061817
-0.14522444 -0.026557783 1.1058499
-0.13456297 -0.026424598 1.1062499
-0.12826495 -0.026742278 1.1028333
-0.40173042 -0.016467854 1.1048751
-0.39670131 -0.01640857 1.1010001
-0.15155086 -0.015944311 1.1071428
-0.14861605 -0.01748424 1.108
-0.41152719 0.006151862 1.108
-0.40730348 0.0062214532 1.1035713
-0.40431938 0.01221968 1.1059999
-0.39286283 0.027162202 1.1065
-0.13461404 0.02725419 1.1047143
-0.39039281 0.030030217 1.105
-0.38744086 0.033460833 1.10625
-0.13572125 0.035347968 1.104875
-0.1291891 0.030111747 1.108
-0.14304301 0.047089003 1.1030768
-0.13747917 0.044445809 1.1054999
-0.17084217 0.058877811 1.1010001
-0.16430725 0.058356822 1.1015713
-0.15446112 0.056207526 1.1045215
-0.14654681 0.052441325 1.1054444
-0.17455354 0.064915739 1.1031249
-0.16572507 0.061905641 1.1068
-0.1583295 0.061194841 1.108
-0.34094268 0.076736383 1.108
-0.33899999 0.078679077 1.108
-0.1833899 0.078182012 1.1010001
-0.17781089 0.073378071 1.1029999
-0.34094268 0.080621772 1.108
-0.3331719 0.083535813 1.108
-0.32695526 0.087226935 1.108
-0.19150667 0.084744446 1.1026666
-0.1863634 0.082214922 1.1056362
-0.31538931 0.094557084 1.1073998
-0.30800426 0.097398251 1.1036668
-0.19177593 0.093951635 1.1048334
-0.3121908 0.10237994 1.108
-0.30515906 0.1056698 1.1057893
-0.29550505 0.10803261 1.1035556
-0.28859779 0.10906873 1.1010001
-0.20317671 0.10858612 1.1010001
-0.19665517 0.1050118 1.1023332
-0.29347214 0.11438098 1.1072499
-0.28613117 0.1155751 1.104722
-0.27775124 0.11834606 1.102
-0.22428307 0.11726276 1.1018
-0.21468407 0.11701659 1.1031109
-0.20536065 0.11324662 1.1040586
-0.28266189 0.12141833 1.108
-0.27485231 0.12338246 1.1049999
-0.26929358 0.12644251 1.1010001
-0.22668865 0.12400232 1.1050713
-0.21272492 0.12141833 1.108
-0.2640304 0.13339832 1.1044616
-0.25521618 0.13506684 1.1053331
-0.24575719 0.13541818 1.1040999
-0.235222 0.13515981 1.1041874
-0.22958584 0.13077675 1.105
-0.12023045 -0.11045562 1.115
-0.12044612 -0.10771428 1.1170001
-0.11565264 -0.10489916 1.1148334
-0.10476554 -0.10113465 1.1138572
-0.096510477 -0.1004099 1.1120001
-0.1033241 -0.098616764 1.1182001
-0.09461493 -0.096240461 1.1164445
-0.088295236 -0.094558142 1.1166
-0.40456414 -0.082862534 1.1120001
-0.41041327 -0.024371333 1.1120001
-0.1443866 -0.021771723 1.1120001
-0.1355046 -0.021446772 1.1120002
-0.1296555 -0.020471919 1.1120001
-0.41103479 -0.01667683 1.1190001
-0.40651384 -0.016572507 1.1120001
-0.15305197 -0.010723387 1.1120001
-0.14514354 -0.014480551 1.1144347
-0.1354581 -0.016146313 1.1164501
-0.12828 -0.017624507 1.1170001
-0.41431266 0.0068239733 1.1120001
-0.4141227 0.013172015 1.1173334
-0.40578693 0.016242091 1.1158999
-0.39979067 0.018572183 1.115
-0.4029066 0.02256277 1.1190001
-0.39832443 0.025414567 1.115
-0.13160519 0.028270746 1.1120001
-0.1296555 0.028270746 1.1120001
-0.39471003 0.033139877 1.1164286
-0.38701677 0.038019281 1.1120001
-0.13226557 0.03592867 1.113091
-0.12868065 0.033145014 1.1120001
-0.38847202 0.040220588 1.1190001
-0.1332531 0.045286033 1.1149334
-0.14434789 0.057048455 1.1133888
-0.13689028 0.054318603 1.1163751
-0.1722324 0.068048768 1.1141667
-0.16490485 0.066656128 1.1148
-0.15505952 0.065220036 1.1160868
-0.14622088 0.062268257 1.1172856
-0.3532654 0.076190218 1.1190001
-0.34665155 0.078338936 1.1170001
-0.33827409 0.078963116 1.1120001
-0.17559721 0.072266258 1.1190001
-0.15597741 0.071612269 1.1190001
-0.35021344 0.081422172 1.1190001
-0.34368518 0.084654599 1.1169091
-0.33604819 0.085443012 1.1129287
-0.32365131 0.088711649 1.1120001
-0.19074629 0.08806175 1.1120001
-0.18489015 0.085412316 1.1147001
-0.33248517 0.093085349 1.1176667
-0.32521197 0.094951481 1.1139998
-0.31780219 0.098460183 1.1120001
-0.1910882 0.091476083 1.1140001
-0.18933107 0.091232069 1.1190001
-0.32314187 0.10298433 1.116125
-0.31644738 0.10507628 1.1123753
-0.19815998 0.10888989 1.1190001
-0.31256291 0.11202777 1.1176667
-0.30500725 0.11445004 1.1147223
-0.2967732 0.11740019 1.1120001
-0.20580295 0.11801984 1.1126001
-0.19895899 0.11239517 1.1148571
-0.30160666 0.12044612 1.1170001
-0.29418179 0.12312969 1.1156667
-0.28525886 0.12546858 1.1143572
-0.27655831 0.12779191 1.1127501
-0.22411583 0.12623204 1.1147501
-0.21603428 0.1237556 1.1159167
-0.20710768 0.1209366 1.1170001
-0.27639282 0.13084558 1.118
-0.26321039 0.1389166 1.1120001
-0.23242375 0.1376155 1.1132858
-0.22829093 0.13427049 1.11525
-0.26243716 0.14198932 1.1170001
-0.25496301 0.142625 1.1143
-0.24491368 0.14260629 1.1150001
-0.23664598 0.14267564 1.116625
-0.22857067 0.14028157 1.1190001
-0.12196683 -0.10552875 1.125
-0.11506308 -0.10289816 1.1250001
-0.11154531 -0.099699795 1.126
-0.10468432 -0.096352085 1.1253333
-0.09641517 -0.092190638 1.1238573
-0.087620199 -0.091558188 1.123
-0.093777031 -0.089828528 1.126
-0.087222576 -0.088914037 1.1251428
-0.14176753 -0.010829464 1.123
-0.13364542 -0.011813961 1.123
-0.12838607 -0.012423068 1.1248
-0.14465952 -0.0070411363 1.1247144
-0.13535032 -0.0076234937 1.1254547
-0.12783289 -0.0078970138 1.126
-0.41333976 0.017937828 1.1242
-0.41228989 0.021387743 1.126
-0.40681359 0.025712712 1.124091
-0.40221247 0.031544659 1.1245
-0.39675218 0.035441879 1.123
-0.12931359 0.036523685 1.126
-0.39235437 0.041402776 1.1245
-0.38789168 0.042333357 1.123
-0.13111295 0.047320276 1.1245
-0.13302451 0.05485186 1.1240001
-0.3701725 0.06811174 1.126
-0.1637546 0.069899261 1.123
-0.15194064 0.068586595 1.123
-0.14458527 0.065722086 1.1245002
-0.13711856 0.061655309 1.12525
-0.3701725 0.070085995 1.126
-0.36424974 0.073540941 1.126
-0.35613421 0.079305239 1.1237501
-0.17472142 0.07304737 1.126
-0.16167444 0.071964249 1.1245
-0.15155257 0.071338169 1.125
-0.35371107 0.084974863 1.1245
-0.34788951 0.087896235 1.1233751
-0.18409841 0.087411553 1.1253999
-0.34460375 0.093575329 1.1257274
-0.33645672 0.096433394 1.1240716
-0.19083337 0.09492489 1.1240001
-0.18771565 0.092379332 1.125
-0.33284304 0.10360315 1.1255001
-0.3276543 0.10506076 1.1235
-0.19643821 0.10858393 1.126
-0.3142291 0.11583222 1.1245
-0.30814746 0.1191241 1.123
-0.20283933 0.11867992 1.125
-0.19652456 0.11565378 1.1250001
-0.30471736 0.12351499 1.1248749
-0.29462752 0.12777035 1.1240001
-0.22151175 0.12896906 1.123
-0.21454459 0.12780836 1.1243334
-0.2047144 0.12409286 1.1252002
-0.19841246 0.12141658 1.126
-0.29186043 0.13194592 1.126
-0.28529608 0.13218974 1.1243334
-0.27604252 0.13541695 1.1251428
-0.22413591 0.13508576 1.1247368
-0.21739918 0.13221666 1.1255
-0.26539665 0.1442406 1.1253999
-0.25434202 0.14639369 1.1245
-0.24349417 0.1473795 1.1245
-0.23484008 0.14642723 1.1247501
-0.22804977 0.14294271 1.1245
-0.12410938 -0.10262404 1.1325455
-0.11696428 -0.10110363 1.1306667
-0.12249488 -0.097595789 1.136
-0.11400502 -0.095332019 1.1357499
-0.10604383 -0.092855528 1.1320001
-0.0980727 -0.090147629 1.13
-0.082222566 -0.090147629 1.13
-0.1030136 -0.088266656 1.1364
-0.094306536 -0.086677782 1.1343335
-0.084599838 -0.085021384 1.1334287
-0.1443646 -0.0018731444 1.1322223
-0.13496892 -0.002844959 1.1337335
-0.12977296 -0.0049531665 1.13
-0.15064465 0.00099764671 1.138
-0.1449054 0.0013296112 1.1373334
-0.13867289 0.00099764671 1.138
-0.41491458 0.026265185 1.1334287
-0.41103041 0.031924695 1.138
-0.40461576 0.035901837 1.1340001
-0.39823461 0.037644066 1.13
-0.40336522 0.041672878 1.1372001
-0.39733654 0.043180041 1.1348001
-0.12839018 0.048770133 1.1353334
-0.39007986 0.052875273 1.138
-0.38694438 0.056580819 1.138
-0.13124692 0.056203678 1.1313334
-0.12783566 0.053696103 1.1358463
-0.38387012 0.064477667 1.1373335
-0.37659019 0.066005729 1.1334286
-0.14182538 0.06843435 1.1313334
-0.13460603 0.064758047 1.13425
-0.38209867 0.070832916 1.138
-0.37390473 0.074485399 1.1353334
-0.36627305 0.07633955 1.1308889
-0.17527898 0.075358264 1.136
-0.16801198 0.072572216 1.1339999
-0.15164229 0.074823499 1.138
-0.14563681 0.071512252 1.1343637
-0.13867289 0.070832916 1.138
-0.37162337 0.081308201 1.138
