# .PCD v0.7 - Point Cloud Data file format
VERSION 0.7
FIELDS x y z
SIZE 4 4 4
TYPE F F F
COUNT 1 1 1
WIDTH 1435
HEIGHT 1
VIEWPOINT 0 0 0 1 0 0 0
POINTS 1435
DATA ascii
-0.015436346 -0.07204359 1.174
0.087379031 -0.075696558 1.1756668
0.094928972 -0.079451419 1.177
-0.003862374 -0.067210749 1.1750001
0.0052561034 -0.063425168 1.1732224
0.015155354 -0.064779848 1.1747144
0.025481254 -0.065723874 1.1751333
0.035022832 -0.063863412 1.1750001
0.043376837 -0.061906818 1.174143
0.084233806 -0.064461827 1.1746
0.0065267831 -0.058060173 1.1756668
0.01238204 -0.057782855 1.177
0.046907362 -0.058248799 1.1760001
0.054125503 -0.05595598 1.1747779
0.064460419 -0.052514963 1.1746001
0.07918141 -0.050388169 1.1730001
0.082199648 -0.054846399 1.174143
0.068366848 -0.047753494 1.1756667
0.075661942 -0.04555342 1.1748463
0.081515096 -0.048496325 1.177
-0.051075477 -0.2908175 1.189
-0.044390656 -0.29311183 1.1875455
-0.036641035 -0.29326215 1.1844286
-0.054349039 -0.28468245 1.1885787
-0.044377897 -0.28465298 1.1822726
-0.034522254 -0.286066 1.1820526
-0.025214393 -0.28539622 1.1818889
-0.019671524 -0.28264874 1.1810001
-0.053862866 -0.27467087 1.1854706
-0.044879884 -0.27436599 1.1809999
-0.038307704 -0.27436599 1.1810001
-0.063027754 -0.26355433 1.1872224
-0.055208508 -0.26544479 1.1838571
-0.045128785 -0.2652306 1.181
-0.063444421 -0.25480181 1.1863333
-0.057116438 -0.25590238 1.181
-0.045348037 -0.25945705 1.1810001
-0.063792624 -0.24474694 1.188
-0.056958161 -0.24469519 1.1812857
-0.063556165 -0.23442364 1.1884667
-0.05510347 -0.23508166 1.1821666
-0.047832865 -0.2325381 1.1810001
-0.063566513 -0.22508676 1.1886667
-0.05500295 -0.22518641 1.1837198
-0.04539163 -0.22434253 1.181
-0.062660754 -0.21745002 1.1884286
-0.055085849 -0.21512626 1.1854798
-0.046314359 -0.21473023 1.181
-0.080261461 -0.20325954 1.189
-0.075049683 -0.20221721 1.189
-0.06528943 -0.20288052 1.189
-0.054958243 -0.20482649 1.1864998
-0.046808656 -0.20540658 1.1817273
-0.080608912 -0.19526815 1.189
-0.074957244 -0.19483829 1.1856666
-0.065339901 -0.19497629 1.183
-0.055313047 -0.19563116 1.1815335
-0.047182076 -0.19804637 1.1810001
-0.080261461 -0.18449712 1.189
-0.074802041 -0.18505467 1.184158
-0.067485563 -0.18645592 1.181
-0.074651808 -0.17537703 1.1852105
-0.069368005 -0.17549071 1.1810001
-0.073913723 -0.16663903 1.1874616
-0.067968845 -0.16392924 1.1828183
-0.071922608 -0.15948057 1.189
-0.065709189 -0.15484709 1.1854444
-0.063151084 -0.14494206 1.1868463
-0.058600433 -0.14432687 1.1810001
-0.061499044 -0.13585381 1.189
-0.057323415 -0.13577077 1.1822307
-0.055764265 -0.12590474 1.1841429
-0.052079361 -0.11650755 1.1854445
-0.048661135 -0.11388776 1.1810001
-0.043659516 -0.10381718 1.1831819
-0.037617475 -0.10111853 1.1810001
-0.040606324 -0.096828125 1.1876668
-0.037013587 -0.093895867 1.1817273
0.10871105 -0.090074867 1.1810001
0.11420149 -0.092573121 1.1827143
-0.033833899 -0.085721686 1.1838
-0.027954269 -0.082827464 1.1810001
0.10871105 -0.084898151 1.1810001
0.11379495 -0.084657617 1.1867499
-0.025937587 -0.077808544 1.1834
-0.017645253 -0.071599998 1.1836667
0.088004179 -0.071438693 1.1810001
0.094570048 -0.074484609 1.1826842
0.10479585 -0.076035351 1.1854998
0.11153216 -0.078176752 1.189
-0.013943033 -0.069279984 1.1866001
-0.0057876287 -0.064360358 1.1841429
0.019671524 -0.062120602 1.1810001
0.024848239 -0.061775487 1.1810001
0.034166329 -0.061085261 1.1810001
0.040378388 -0.061085258 1.1810001
0.087376714 -0.065335333 1.1830001
0.09345486 -0.066769458 1.18775
0.10527802 -0.069837898 1.189
-0.001736092 -0.0586528 1.1876668
0.0057139671 -0.055038884 1.1846668
0.016136136 -0.054331001 1.1821429
0.024917319 -0.055016272 1.1841998
0.033801556 -0.055773504 1.1855714
0.044669144 -0.055471316 1.1850001
0.054563012 -0.052112009 1.1824546
0.062120602 -0.050731823 1.1810001
0.086191684 -0.055556998 1.1845001
0.017099885 -0.048026681 1.1872857
0.023557259 -0.048156876 1.189
0.056844134 -0.047119368 1.1885556
0.065117516 -0.044349182 1.1844286
0.075636953 -0.041329086 1.1818891
0.083610155 -0.044715784 1.1862
0.068215623 -0.038013581 1.1880001
0.075681143 -0.035787441 1.1864117
0.082346171 -0.037003662 1.189
-0.071706951 -0.29592234 1.197
-0.065048411 -0.29477212 1.1955885
-0.055767898 -0.29424968 1.1938572
-0.046291679 -0.29763272 1.1946001
-0.071147285 -0.28689775 1.197
-0.06476447 -0.28447267 1.1950003
-0.059614211 -0.28552067 1.1930001
-0.070832476 -0.27336088 1.197
-0.064955309 -0.27447683 1.1950001
-0.059614211 -0.27610791 1.1930001
-0.072305337 -0.26436183 1.1952859
-0.066935256 -0.26591077 1.193
-0.0729734 -0.25533104 1.1955001
-0.067981116 -0.25519064 1.1930001
-0.072797298 -0.24482758 1.1947501
-0.067981116 -0.24577788 1.1930001
-0.073663592 -0.23522854 1.1952002
-0.067981116 -0.23531926 1.1930001
-0.073273264 -0.22621894 1.1958891
-0.067632496 -0.22416337 1.193
-0.084532589 -0.21185616 1.197
-0.073455893 -0.21362178 1.1970003
-0.0658051 -0.2138593 1.1941427
-0.09234456 -0.20331544 1.197
-0.085043453 -0.20529878 1.1944739
-0.074256301 -0.20708093 1.193
-0.064843528 -0.20708096 1.193
-0.059614211 -0.2081268 1.1930001
-0.093317658 -0.19502003 1.196
-0.085925929 -0.19546632 1.1930002
-0.092575289 -0.18600531 1.1962727
-0.085790597 -0.18517882 1.1934001
-0.091894828 -0.17614426 1.1969999
-0.084832475 -0.17489229 1.1946003
-0.08385136 -0.1652146 1.1963687
-0.07700184 -0.16299915 1.1934
-0.082375541 -0.15793018 1.197
-0.074916005 -0.1545094 1.1946844
-0.067981116 -0.15165018 1.1930001
-0.072137646 -0.14591654 1.1950001
-0.067383483 -0.14477737 1.193
-0.071007371 -0.13886663 1.197
-0.065127276 -0.13520566 1.1943334
-0.062710948 -0.12730724 1.1962001
-0.059015736 -0.12291744 1.1950001
-0.056072477 -0.11607176 1.1955001
-0.047118787 -0.10365853 1.1943334
-0.042277839 -0.095035344 1.1956667
-0.030431731 -0.080801487 1.197
0.11609083 -0.080531478 1.1930001
-0.030431731 -0.078702748 1.197
-0.026202692 -0.075816758 1.1956667
-0.019938029 -0.070307791 1.197
0.1056322 -0.070595779 1.1930001
0.11439712 -0.07572256 1.1951818
-0.014928976 -0.066784248 1.1950001
-0.0083826864 -0.061809383 1.1950001
0.097499236 -0.064549096 1.1958572
0.10528453 -0.066345014 1.1958572
0.11018385 -0.068209052 1.197
-0.0048923846 -0.057999685 1.1956668
0.0041974802 -0.053517871 1.197
0.03712815 -0.051770233 1.1930001
0.043275774 -0.052001823 1.1943334
0.088524483 -0.052903764 1.1950001
0.091819875 -0.058240034 1.197
0.018319264 -0.044485133 1.194
0.0260313 -0.044721112 1.1956668
0.034047272 -0.045394126 1.1966367
0.04512291 -0.049320389 1.197
0.055192571 -0.044234511 1.1948462
0.061705936 -0.040788669 1.1930001
0.088034958 -0.044540022 1.1938888
0.031481095 -0.034629215 1.1970001
0.059814088 -0.038826689 1.197
0.065300271 -0.037015203 1.1950001
0.073037945 -0.031414911 1.1945
0.084508918 -0.03439587 1.1950001
0.076604009 -0.028332988 1.197
0.080801487 -0.02728362 1.197
-0.07407447 -0.30198395 1.2036
-0.064307511 -0.30196881 1.2025715
-0.054657362 -0.30114236 1.2036
-0.04847265 -0.30137345 1.202
-0.074695751 -0.29484653 1.2048572
-0.075840428 -0.28406706 1.2041051
-0.081409022 -0.27383032 1.2060001
-0.075745754 -0.27536938 1.2029411
-0.082013175 -0.26446605 1.2060002
-0.077860661 -0.26566291 1.202
-0.081937656 -0.2574428 1.2060001
-0.078339808 -0.25426883 1.2035
-0.078240998 -0.24557362 1.2037144
-0.082523756 -0.23442282 1.2051111
-0.079031497 -0.23604074 1.202
-0.09198162 -0.22096734 1.2060001
-0.084998086 -0.22473794 1.2050908
-0.077556238 -0.22318497 1.2019999
-0.1012855 -0.21208636 1.2060001
-0.09483847 -0.21380995 1.2050771
-0.085891493 -0.21718107 1.2041818
-0.075903118 -0.21716391 1.2025
-0.10252646 -0.20505261 1.2056669
-0.096102297 -0.20569265 1.2019999
-0.10134245 -0.19599015 1.2055557
-0.097999059 -0.19494437 1.202
-0.1004397 -0.18607776 1.2060001
-0.096977912 -0.18446681 1.2024
-0.096475407 -0.17521307 1.2040002
-0.088589795 -0.16346589 1.2030001
-0.084970474 -0.15476257 1.204
-0.079031497 -0.15068673 1.202
-0.081409022 -0.14801639 1.2060001
-0.077301145 -0.1450979 1.2042222
-0.070601471 -0.13593417 1.202
-0.068569951 -0.13186294 1.2033334
-0.064743236 -0.12590019 1.2028
-0.061271112 -0.11725855 1.205
-0.056902681 -0.11380535 1.202
-0.051805738 -0.10678326 1.2060001
-0.046365146 -0.10116032 1.202
-0.04493355 -0.095153406 1.2060001
-0.041233141 -0.0898671 1.2060001
-0.032775059 -0.081409022 1.2060001
-0.031666953 -0.078109249 1.204
-0.02431698 -0.073655777 1.2060001
0.11628582 -0.072545163 1.2042857
-0.01412801 -0.063475929 1.2028
-0.0094837798 -0.06006394 1.202
0.097405255 -0.06083307 1.2033334
0.10457686 -0.062800542 1.2033334
0.11286765 -0.065030009 1.2052728
-0.0021092598 -0.05488459 1.204
0.0031717801 -0.053215418 1.2060001
0.094428882 -0.055248898 1.2042222
0.1074881 -0.057444464 1.2060001
0.0084422994 -0.049608812 1.204
0.015826171 -0.044654477 1.2033334
0.023182573 -0.041096378 1.202
0.038988873 -0.043203887 1.202
0.045342252 -0.044284988 1.2027998
0.05239369 -0.041844469 1.2033334
0.093590014 -0.046264913 1.204
0.025781516 -0.036339585 1.2040001
0.036748864 -0.035089962 1.2025713
0.04355222 -0.037210986 1.2051111
0.056995608 -0.039053746 1.204
0.065369524 -0.034089476 1.2026668
0.088262223 -0.033052668 1.2033335
0.09198162 -0.038061358 1.2060001
0.02854602 -0.02854602 1.2060001
0.031612597 -0.02845134 1.202
0.07588952 -0.025421899 1.2038182
0.083949171 -0.02613431 1.2045001
-0.091904469 -0.30242983 1.219
-0.08562912 -0.30181056 1.2148
-0.079557501 -0.30125773 1.21
-0.063990094 -0.30820838 1.2165
-0.05292787 -0.30631962 1.2124002
-0.049856033 -0.30444002 1.21
-0.091857895 -0.29479969 1.218375
-0.085073926 -0.29456088 1.2130001
-0.079557501 -0.29489315 1.21
-0.093395628 -0.28489754 1.2165
-0.084673733 -0.28503278 1.2106664
-0.093620054 -0.27508944 1.2162501
-0.085693285 -0.27511859 1.2105
-0.091969162 -0.2654452 1.217
-0.086632997 -0.26549214 1.2118182
-0.091590732 -0.25500864 1.218375
-0.085700154 -0.25446531 1.2121178
-0.093025573 -0.24474548 1.2173333
-0.084917538 -0.24512024 1.211647
-0.11007164 -0.2318985 1.2190001
-0.10394651 -0.23245239 1.2181667
-0.0942735 -0.23480114 1.2144092
-0.086717673 -0.23628578 1.21
-0.12075821 -0.22334926 1.2190001
-0.11477729 -0.22507389 1.2167501
-0.10536689 -0.22475703 1.2128572
-0.09512648 -0.22554019 1.2111765
-0.11525077 -0.21488827 1.2152352
-0.10564536 -0.21565084 1.2104443
-0.09695407 -0.21873009 1.21
-0.11465348 -0.2055154 1.2146668
-0.1079089 -0.20434222 1.21
-0.11295334 -0.1963902 1.2167778
-0.10687935 -0.19455886 1.2118667
-0.10465384 -0.18548776 1.2133076
-0.10333417 -0.17576577 1.2151333
-0.09525685 -0.17120774 1.21
-0.10283387 -0.16889817 1.2155001
-0.095009208 -0.16505286 1.2124763
-0.092667222 -0.15504558 1.2149285
-0.08804363 -0.15168963 1.21
-0.091424055 -0.14762774 1.2173334
-0.085261144 -0.14555466 1.2129999
-0.078850321 -0.14178914 1.21
-0.081217907 -0.13892537 1.2190001
-0.074395433 -0.13572955 1.2122858
-0.06642165 -0.12447929 1.2135715
-0.062812291 -0.11604057 1.2143334
-0.055562962 -0.11176395 1.2142003
-0.051906679 -0.10609395 1.2154286
-0.047734499 -0.10077284 1.21
-0.046728261 -0.094949141 1.2170001
-0.041592136 -0.087447941 1.2165
-0.036546156 -0.084558994 1.2171249
-0.031991757 -0.076783285 1.2165
-0.026167974 -0.072969697 1.2134001
0.12211353 -0.071985289 1.2165
-0.02201909 -0.067112483 1.2151668
-0.015970675 -0.062459141 1.2145001
0.11678165 -0.06343165 1.2110001
0.12189316 -0.065455116 1.2167273
-0.0021307382 -0.053321056 1.2165
0.0024876876 -0.05150855 1.2156668
0.097802684 -0.053674795 1.21
0.10489636 -0.053748596 1.2130909
0.11490717 -0.054255236 1.2136002
0.12229796 -0.054872997 1.2163076
0.0067427349 -0.045367848 1.2149334
0.013387752 -0.044197679 1.212
0.097681589 -0.044811573 1.2130001
0.10352089 -0.047311366 1.2173334
0.11434627 -0.047478888 1.219
0.12182686 -0.047020894 1.2190001
0.0089054722 -0.038827855 1.2190001
0.01545125 -0.037125666 1.2158333
0.022754058 -0.033388026 1.2130001
0.039248366 -0.030762233 1.21
0.046025202 -0.033921808 1.2122308
0.053621028 -0.035434283 1.2152001
0.064023472 -0.033301063 1.2142857
0.093895286 -0.034490261 1.2143
0.026659433 -0.02772809 1.2165
0.035936784 -0.024603972 1.2150527
0.044583019 -0.026352534 1.2174615
0.050226863 -0.028853729 1.2190001
0.068738051 -0.025449008 1.217
0.073836215 -0.022102041 1.2110909
0.0859221 -0.0222761 1.21
0.09217032 -0.025037237 1.2154166
0.076095931 -0.015591023 1.2161875
0.084894955 -0.014719851 1.2149411
0.091188766 -0.015587484 1.2180001
0.084423885 -0.0088164182 1.219
-0.1009593 -0.30287793 1.2270001
-0.096810304 -0.30441463 1.2270001
-0.11402102 -0.29580924 1.2270001
-0.10393661 -0.29500252 1.227
-0.096816115 -0.29454267 1.2233636
-0.10433997 -0.28538352 1.2270001
-0.098996408 -0.28519544 1.223
-0.10363211 -0.27592266 1.2255456
-0.099353798 -0.27483118 1.223
-0.10157398 -0.26722714 1.2270001
-0.097019292 -0.26508209 1.2242
-0.10003731 -0.25063109 1.2270001
-0.096180767 -0.255532 1.2251821
-0.10214106 -0.24467905 1.2264287
-0.097924255 -0.24516802 1.223
-0.13230741 -0.23255984 1.2270001
-0.12430783 -0.23291472 1.2266002
-0.11528382 -0.23417811 1.2248181
-0.10534544 -0.23753235 1.2247779
-0.099711187 -0.23909242 1.223
-0.13212293 -0.22506998 1.2267144
-0.12549758 -0.2253691 1.2250001
-0.13230741 -0.21836101 1.2270001
-0.12397226 -0.21591915 1.224647
-0.12206969 -0.20690735 1.2250001
-0.11901013 -0.2015667 1.223
-0.11568873 -0.19520064 1.2256669
-0.11130548 -0.1853009 1.2258571
-0.1082885 -0.18226776 1.223
-0.11140867 -0.17625621 1.2270001
-0.1082885 -0.17476261 1.223
-0.1044834 -0.1650078 1.227
-0.10175838 -0.15640242 1.2270001
-0.097606748 -0.15525745 1.2235
-0.093892224 -0.14545496 1.2254
-0.087454073 -0.14110433 1.2240001
-0.082975626 -0.13622105 1.2256669
-0.076751634 -0.13350916 1.2262001
-0.072617434 -0.12604049 1.2258571
-0.068878472 -0.12294917 1.2238001
-0.065535754 -0.11495238 1.2254618
-0.058968984 -0.11150499 1.223
-0.06131319 -0.10864267 1.2270001
-0.055185925 -0.10421503 1.2255455
-0.051690642 -0.096781611 1.2247144
-0.047585171 -0.09194801 1.2243334
-0.044963855 -0.087314866 1.2252859
-0.038864214 -0.082234308 1.2246001
-0.034498822 -0.074957632 1.2262729
-0.028948409 -0.072907105 1.223
-0.03119443 -0.06884288 1.2270001
-0.025602533 -0.064792827 1.2258234
-0.018226776 -0.061113309 1.223
-0.02043773 -0.059161849 1.2270001
-0.016995586 -0.057440776 1.2270001
-0.0053748433 -0.054084774 1.2256668
0.0010721633 -0.050391678 1.223
-0.0017927834 -0.047688037 1.2270001
0.0017886922 -0.04438797 1.2250001
0.099711187 -0.041814368 1.223
0.10526751 -0.045420974 1.2238889
0.11483638 -0.043670885 1.2242306
0.12186923 -0.043243919 1.223
0.0064417473 -0.037587084 1.2250001
0.014678031 -0.032931689 1.2250001
0.020371104 -0.031092737 1.223
0.056887772 -0.032198798 1.2243334
0.061894711 -0.031841408 1.2243334
0.098123372 -0.035424873 1.2246001
0.10046758 -0.03549711 1.2270001
0.11688948 -0.03908268 1.2270001
0.12155071 -0.038724121 1.2270001
0.025567284 -0.025136312 1.2254002
0.033237062 -0.021979349 1.223
0.045554984 -0.021318655 1.2247144
0.053814448 -0.026368311 1.2257693
0.064578377 -0.025891233 1.2259094
0.096830212 -0.024094181 1.2252858
0.10003731 -0.02904309 1.2270001
0.035977084 -0.016912872 1.2250001
0.041951131 -0.01828639 1.2270001
0.069766589 -0.016099982 1.2243334
0.072549723 -0.012508572 1.223
0.09463729 -0.014570327 1.2247144
0.076650649 -0.0088029606 1.2246001
0.085142083 -0.0056389393 1.2255002
0.092766821 -0.0082374522 1.2256669
-0.11124549 -0.30133489 1.2320001
-0.10649326 -0.30219895 1.2320001
-0.11308043 -0.29384786 1.2327275
-0.10854536 -0.29431453 1.2320001
-0.11241934 -0.28578895 1.2360001
-0.10865337 -0.28535008 1.2320001
-0.11160668 -0.27847493 1.2360001
-0.10840815 -0.27493626 1.2335001
-0.1048809 -0.26489946 1.2333335
-0.10274043 -0.25500619 1.2336001
-0.13284655 -0.24085189 1.2320001
-0.1246094 -0.24163386 1.2360001
-0.11299122 -0.24294829 1.2353334
-0.10728256 -0.24567901 1.2333335
-0.13461806 -0.23589568 1.2338183
-0.12600623 -0.23797177 1.2320002
-0.11674131 -0.23888554 1.233
-0.13709103 -0.22458656 1.2352002
-0.13349566 -0.21700831 1.2340002
-0.12809065 -0.21240142 1.233
-0.12549132 -0.20554328 1.2340001
-0.12106276 -0.19599462 1.2352002
-0.1174295 -0.193793 1.2326669
-0.12099754 -0.18456639 1.2360001
-0.11639651 -0.18485528 1.2320002
-0.12099754 -0.17806502 1.2360001
-0.11572263 -0.17448151 1.2336668
-0.11148629 -0.16776828 1.2346667
-0.10836301 -0.16286643 1.2336
-0.10451972 -0.15443419 1.2333335
-0.10077108 -0.14844772 1.2360001
-0.09668301 -0.14426568 1.2336
-0.092725612 -0.13890608 1.2346667
-0.08631777 -0.13424982 1.2333335
-0.07812386 -0.13140649 1.2320001
-0.08198937 -0.12822126 1.2360001
-0.077000797 -0.12479804 1.2336001
-0.072481744 -0.11618392 1.2340001
-0.067396969 -0.11208592 1.2333335
-0.063818462 -0.10590164 1.2338183
-0.0586829 -0.10296508 1.2320002
-0.05575696 -0.094890721 1.2338183
-0.052317128 -0.088394888 1.2346668
-0.045855276 -0.083487414 1.2336001
-0.043037321 -0.076056965 1.2350001
-0.038041875 -0.073323622 1.2320002
-0.040091719 -0.066097163 1.2360001
-0.034801796 -0.064627632 1.2328001
-0.02916144 -0.061563041 1.2320001
-0.033048581 -0.059054017 1.2360001
-0.024652421 -0.055961415 1.2338949
-0.014483935 -0.05426497 1.2330668
-0.0084951501 -0.053282294 1.233143
-0.01531712 -0.047808889 1.2354287
-0.0056521622 -0.044593304 1.2340001
0.10612927 -0.042148031 1.2328001
-0.0016244632 -0.037892163 1.2350001
0.0048675453 -0.034966435 1.2336668
0.012960641 -0.031321548 1.2320001
0.10590547 -0.036678139 1.2338183
0.11454473 -0.035850275 1.2335385
0.1211606 -0.034616061 1.2340001
0.0097520398 -0.02925612 1.2360001
0.015988452 -0.027529281 1.2342223
0.022709873 -0.022708472 1.2336001
0.056670606 -0.022490801 1.2323638
0.063723147 -0.02206395 1.2320002
0.098284855 -0.022681121 1.2320001
0.10123132 -0.025983524 1.2350001
0.028300302 -0.015618192 1.2348573
0.034856267 -0.014040694 1.2320002
0.045308981 -0.014739175 1.2342502
0.054402158 -0.016410928 1.2353847
0.064976782 -0.017688209 1.2353334
0.09844441 -0.015145293 1.2340001
0.035757482 -0.0097520398 1.2360001
0.041536465 -0.0090296669 1.2360001
0.07735005 -0.0054072803 1.2340001
0.085143425 -0.0020408798 1.2328891
0.095534168 -0.0045040208 1.2336668
0.086684801 0.0032506806 1.2360001
0.092824973 0.0018059332 1.2360001
-0.11460225 -0.28268555 1.245
-0.11314699 -0.27577302 1.245
-0.11132791 -0.26413086 1.245
-0.10833715 -0.26349181 1.2420001
-0.11023645 -0.25539929 1.245
-0.10726806 -0.25599191 1.2443334
-0.14479874 -0.24317394 1.2431333
-0.13686326 -0.24348171 1.2410001
-0.1222424 -0.24557625 1.245
-0.1156937 -0.24721342 1.245
-0.14319824 -0.23662634 1.245
-0.14079705 -0.2226558 1.245
-0.13563289 -0.21453786 1.2443333
-0.13198058 -0.20614867 1.2442
-0.12836008 -0.20399302 1.2443334
-0.13206545 -0.19591527 1.245
-0.12612417 -0.19538699 1.2442502
-0.13206545 -0.1877294 1.245
-0.12604004 -0.18593296 1.2442727
-0.12325599 -0.17451981 1.2442
-0.11768899 -0.17108238 1.243
-0.1222424 -0.16917475 1.245
-0.11559685 -0.16506472 1.2447335
-0.1113279 -0.15607736 1.245
-0.10787822 -0.15364373 1.243
-0.10325117 -0.14778233 1.245
-0.098696455 -0.14231762 1.244
-0.092675067 -0.13519485 1.2436666
-0.088407449 -0.13206545 1.245
-0.09059035 -0.12988254 1.245
-0.084835432 -0.12611209 1.245
-0.079547852 -0.12204427 1.243
-0.081858747 -0.11896805 1.245
-0.075524934 -0.11431725 1.2445556
-0.07094425 -0.10805355 1.245
-0.067202136 -0.10431144 1.245
-0.062460523 -0.095189124 1.2445
-0.058748938 -0.092475183 1.2410001
-0.060029749 -0.088407449 1.245
-0.054870166 -0.085033879 1.245
-0.049115248 -0.081858747 1.245
-0.046235047 -0.074366406 1.2437999
-0.043558773 -0.065387778 1.245
-0.034768112 -0.056329627 1.2436666
-0.026799876 -0.051634438 1.2426001
-0.023568654 -0.047353145 1.2446001
-0.014961272 -0.04270092 1.2431818
-0.0090767145 -0.041022446 1.2423334
-0.01418885 -0.038200751 1.245
-0.0043611242 -0.035978109 1.2436666
0.0027277484 -0.032170597 1.244
0.10879433 -0.032638296 1.2410001
0.11532199 -0.031550355 1.2410001
0.12184966 -0.031550355 1.2410001
0.0080767302 -0.02772283 1.245
0.01481812 -0.023100516 1.243
0.10564505 -0.024324283 1.2423334
0.11387461 -0.029105334 1.245
0.1236457 -0.025415191 1.245
0.017681491 -0.016808329 1.245
0.023333535 -0.015917987 1.2437999
0.058096178 -0.012837732 1.2410001
0.064900003 -0.013849956 1.2427143
0.10405771 -0.015923249 1.2442
0.029469149 -0.0098230503 1.245
0.035290215 -0.0083677834 1.245
0.046638582 -0.0062354114 1.2424546
0.05395291 -0.0062655378 1.24325
0.060029749 -0.0087315999 1.245
0.079675846 -0.00109145 1.245
0.10201507 -0.0047249412 1.2423334
0.048387617 0.0025467167 1.245
0.052025784 0.0018190834 1.245
0.084790103 0.0065425634 1.244
0.095293999 0.0064563807 1.2428463
0.10117873 0.0010879433 1.2410001
0.088407449 0.01200595 1.245
0.091681801 0.01200595 1.245
-0.1216375 -0.29258749 1.25
-0.11835 -0.29039583 1.25
-0.12446513 -0.28321192 1.2545835
-0.11852916 -0.2853446 1.251875
-0.13355052 -0.27556291 1.2590001
-0.12488461 -0.27506319 1.2547334
-0.1173224 -0.27442673 1.2507143
-0.12118882 -0.26511437 1.2590001
-0.11679866 -0.26544479 1.2529167
-0.12163031 -0.25496009 1.2590001
-0.11554372 -0.25537834 1.2517859
-0.14355417 -0.24875416 1.25
-0.13917083 -0.24875416 1.25
-0.12432448 -0.24864897 1.2550001
-0.11858889 -0.24925166 1.2525001
-0.15070567 -0.23430248 1.2548001
-0.14615868 -0.23454738 1.2518182
-0.1512101 -0.22626328 1.2590001
-0.14542609 -0.22539705 1.2535003
-0.14322023 -0.21546738 1.2550833
-0.13807499 -0.21314748 1.2520001
-0.14017287 -0.20418881 1.2590001
-0.13548884 -0.2048749 1.2524
-0.14193882 -0.19535904 1.2590001
-0.13561156 -0.19442932 1.25125
-0.14017287 -0.18763298 1.2590001
-0.13399172 -0.18541172 1.2534667
-0.1282125 -0.18190834 1.25
-0.13230769 -0.1775101 1.2576667
-0.12808655 -0.17419074 1.2523333
-0.12497869 -0.16525321 1.2546252
-0.11871528 -0.16181804 1.25
-0.12164772 -0.15766294 1.2576667
-0.11545003 -0.15470475 1.2526875
-0.1084875 -0.15012917 1.25
-0.11193937 -0.14722872 1.2580001
-0.10576033 -0.14430358 1.2536155
-0.10211647 -0.13664253 1.2570001
-0.096738778 -0.13440548 1.2515833
-0.093597122 -0.12560745 1.2559999
-0.087360561 -0.1231797 1.2508334
-0.084573917 -0.11606149 1.2553846
-0.078534722 -0.11323611 1.25
-0.0805718 -0.10926861 1.2590001
-0.074249052 -0.10487861 1.2540667
-0.069037497 -0.1019125 1.25
-0.071628049 -0.096971609 1.2570001
-0.067138202 -0.095305361 1.252
-0.063513242 -0.085088775 1.2544376
-0.056983329 -0.082187496 1.25
-0.060704783 -0.077260628 1.2590001
-0.05476338 -0.076033622 1.2532105
-0.049312498 -0.07342083 1.25
-0.053089302 -0.067265004 1.2578572
-0.047194917 -0.063434109 1.2519
-0.042926859 -0.055727139 1.2554545
-0.036205079 -0.052815408 1.2514286
-0.040837765 -0.049667548 1.2590001
-0.034150463 -0.047364287 1.2565
-0.026270367 -0.043239713 1.2519333
-0.018629167 -0.040545832 1.25
-0.023142511 -0.036360539 1.2569001
-0.015432254 -0.034881983 1.2513334
-0.0070766937 -0.033783145 1.2504545
-0.014870349 -0.028359618 1.2563751
-0.0048758113 -0.025935769 1.2553811
0.00455959 -0.024309509 1.251579
0.012054167 -0.020820834 1.25
0.1084875 -0.024108335 1.25
0.11548837 -0.023971761 1.2521054
0.12273333 -0.023743056 1.25
-0.0011037233 -0.018763296 1.2590001
0.0063854055 -0.016228037 1.2565333
0.014250218 -0.0146487 1.2504545
0.023012498 -0.012054167 1.25
0.067941666 -0.012054167 1.25
0.071229167 -0.012054167 1.25
0.10779619 -0.014907091 1.2528572
0.11451502 -0.015413116 1.256
0.12359717 -0.015427017 1.2572144
0.015432402 -0.0088179512 1.2575001
0.025144892 -0.0077008414 1.2554615
0.035230163 -0.0055004261 1.2557499
0.043874972 -0.0027417748 1.25125
0.056983329 -0.0021916667 1.25
0.065307319 -0.0052115167 1.2551308
0.074063733 -0.0048715738 1.2556429
0.10629952 -0.0061594602 1.2552001
0.11147606 -0.0099335099 1.2590001
0.12582445 -0.0099335099 1.2590001
0.13134308 -0.0099335099 1.2590001
0.046114858 0.001098025 1.2525001
0.05581269 0.0037891483 1.2537779
0.063228354 0.0015415306 1.2564001
0.078825198 0.0018357401 1.2546667
0.081551172 0.0076995129 1.2547143
0.098625004 0.008766667 1.25
0.10185157 0.0066074366 1.256
0.085186362 0.015391639 1.253875
0.094864421 0.015867731 1.2540714
0.10106827 0.012863914 1.2576667
0.087194145 0.020970741 1.2590001
0.09271276 0.020970743 1.2590001
-0.13273259 -0.27323946 1.2670001
-0.12751292 -0.27209982 1.2648
-0.12560119 -0.26433018 1.2659999
-0.13228199 -0.25011301 1.268
-0.12593101 -0.25617719 1.2662222
-0.14599405 -0.2119334 1.2657143
-0.14281602 -0.20579502 1.2648
-0.14576219 -0.19459604 1.266
-0.14268348 -0.18661778 1.2656
-0.13806885 -0.18242645 1.265
-0.13401604 -0.17341343 1.2659999
-0.13183734 -0.16518573 1.268
-0.12854037 -0.16289169 1.2640001
-0.12385748 -0.15589038 1.2662858
-0.11875502 -0.15093921 1.266
-0.11454175 -0.14486976 1.2657778
-0.10896382 -0.14146829 1.2640001
-0.1107908 -0.13821058 1.268
-0.10499416 -0.13407002 1.266
-0.10163285 -0.12773296 1.267
-0.097246878 -0.12349779 1.2653333
-0.092191145 -0.1171814 1.267
-0.087631606 -0.11388251 1.2653333
-0.082625084 -0.1067279 1.2662858
-0.078183763 -0.10257965 1.265
-0.073659867 -0.09512651 1.2666668
-0.069810718 -0.09197285 1.2640001
-0.070772715 -0.085594229 1.268
-0.068037748 -0.084437728 1.2640001
-0.064140707 -0.075069636 1.2664615
-0.058729652 -0.072026931 1.2640001
-0.061138734 -0.067808412 1.268
-0.05619242 -0.064663894 1.2658181
-0.049864799 -0.060945865 1.2640001
-0.051801182 -0.057136923 1.268
-0.047375061 -0.054026712 1.2651428
-0.043642897 -0.046030667 1.2664615
-0.036603637 -0.043255787 1.2652
-0.041129693 -0.036683239 1.268
-0.033793043 -0.036683239 1.2679999
-0.026618758 -0.033715546 1.2651999
-0.021659803 -0.027766664 1.2670001
-0.014653658 -0.023756262 1.2664
-0.0084954845 -0.022531502 1.2640001
-0.012429858 -0.016067864 1.2679999
-0.0046160659 -0.014194062 1.2663158
0.0030512384 -0.011923982 1.2655001
0.12078363 -0.012189173 1.2640001
0.0077672666 -0.0088771265 1.266
0.01519205 -0.0062991418 1.268
0.024156723 -0.003767563 1.2640001
0.032166652 -0.0033278267 1.2653333
0.074243143 -0.0011081067 1.2640001
0.10859445 -0.0033243201 1.2640001
0.11384004 -0.0070269704 1.2662224
0.12430519 -0.0072132135 1.266
0.13066073 -0.0044417777 1.2666667
0.056692284 0.0077812932 1.268
0.065482616 0.0041632899 1.266
0.074551478 0.0044436976 1.2665714
0.10612226 0.0050538857 1.2653333
0.078183472 0.010745595 1.268
0.081062444 0.016656667 1.2666668
0.10395057 0.015769128 1.2667999
0.086523496 0.023666494 1.2653333
0.095403068 0.024945727 1.2663999
0.10406411 0.024883041 1.2679999
0.11004972 0.027790334 1.268
0.096710362 0.030013559 1.268
0.10338004 0.030013559 1.268
-0.14004751 -0.27337271 1.2780001
-0.13604771 -0.27134481 1.2754999
-0.1338329 -0.26495883 1.2765293
-0.14004751 -0.25432625 1.2780001
-0.13354121 -0.25616255 1.277375
-0.15095542 -0.20350808 1.2755001
-0.14753476 -0.20378098 1.273
-0.1512513 -0.19494611 1.2780001
-0.14842756 -0.19474141 1.273
-0.14608432 -0.18536855 1.2763333
-0.14088954 -0.17890793 1.2755001
-0.13796037 -0.17482114 1.27425
-0.13389827 -0.16373415 1.2763335
-0.13082802 -0.15878054 1.2755001
-0.12579729 -0.15346971 1.2754999
-0.12270907 -0.14806929 1.2763335
-0.11852723 -0.14424191 1.2754999
-0.11293703 -0.13641679 1.2754999
-0.10764941 -0.13148655 1.2746667
-0.10406092 -0.1253189 1.2763333
-0.099323705 -0.12164363 1.273
-0.094570711 -0.11569449 1.2757777
-0.088163733 -0.11048367 1.273
-0.090750776 -0.10867686 1.2780001
-0.085438676 -0.10460012 1.2751428
-0.081787743 -0.099713817 1.2780001
-0.076856486 -0.095388986 1.2758571
-0.07310465 -0.084665835 1.2763333
-0.070491888 -0.077202477 1.2763335
-0.066843554 -0.071759202 1.275
-0.063738197 -0.066345118 1.2754999
-0.059263982 -0.062616356 1.2755001
-0.054425761 -0.054251373 1.2749231
-0.051999044 -0.047524102 1.2755001
-0.04631386 -0.042965874 1.273
-0.04352387 -0.037943885 1.273
-0.035241678 -0.032599088 1.2743635
-0.027899917 -0.03013191 1.273
-0.032042868 -0.027113196 1.2780001
-0.025036898 -0.024811069 1.2749999
-0.018252784 -0.021975696 1.2746667
-0.016020792 -0.017508786 1.2746667
0.026783921 -0.0011159966 1.273
0.032363903 -0.0011159966 1.273
0.11677579 -0.0035361813 1.2746665
0.12467272 -0.002604479 1.2735554
0.027899917 0.0011159966 1.273
0.031247906 0.0011159966 1.273
0.064794652 0.007819647 1.27425
0.072539784 0.0070679788 1.273
0.11356314 0.0031366255 1.2774999
0.12569647 0.0031558408 1.2770909
0.058633219 0.01083034 1.2780001
0.075689405 0.01330804 1.2748181
0.10825168 0.014507957 1.273
0.11091762 0.011203799 1.2780001
0.08382085 0.025426732 1.2748749
0.090395726 0.027899917 1.273
0.10676368 0.022691933 1.273
0.11091762 0.02576874 1.2780001
0.087389641 0.030250261 1.2780001
0.095735349 0.033625994 1.2759413
0.10376928 0.033645514 1.2752726
0.10195458 0.041454058 1.2780001
-0.1429863 -0.27189445 1.2842501
-0.14411162 -0.26570165 1.2842503
-0.13834588 -0.26206985 1.2830001
-0.14348768 -0.25885624 1.2830001
-0.13665874 -0.25813317 1.2830001
-0.15279306 -0.19183452 1.2846667
-0.15184306 -0.18783547 1.2830001
-0.14734399 -0.18221167 1.2830001
-0.14272904 -0.17745064 1.286
-0.13384683 -0.16309068 1.2830001
-0.13332735 -0.15525129 1.2872858
-0.12934779 -0.15296781 1.2830001
-0.1332393 -0.14791821 1.2880001
-0.126004 -0.14438032 1.2851056
-0.12194784 -0.13888504 1.2880001
-0.11540139 -0.1347131 1.2851429
-0.11178552 -0.12985186 1.2880001
-0.106387 -0.1240894 1.2851429
-0.10124131 -0.11657141 1.286
-0.096418284 -0.11292357 1.2838334
-0.093302645 -0.1065482 1.2861251
-0.087470584 -0.10173365 1.2846668
-0.083323754 -0.095098563 1.2863334
-0.078733429 -0.093355358 1.2830001
-0.081072733 -0.086040966 1.2880001
-0.077158615 -0.084758438 1.284875
-0.073677219 -0.074492842 1.2857274
-0.07367824 -0.065170243 1.2868462
-0.066419475 -0.063915133 1.2841113
-0.07339453 -0.059844773 1.2880001
-0.064671695 -0.056856554 1.2872308
-0.058862612 -0.053238798 1.2830001
-0.031118453 -0.022870189 1.2830001
-0.025869558 -0.021370506 1.2830001
-0.024820406 -0.019176863 1.2867501
0.11655909 0.0059495606 1.2837143
0.1235014 0.0067524156 1.283625
0.057501554 0.014658634 1.2861251
0.06527964 0.013300552 1.2853334
0.07405135 0.016416363 1.2863334
0.11450163 0.014128427 1.2853076
0.12494254 0.011256401 1.284
0.13159731 0.01012287 1.2830001
0.078884661 0.022539102 1.2855
0.080815516 0.027439376 1.2863334
0.11224899 0.023653636 1.2846667
0.08649233 0.034964435 1.2864616
0.092605509 0.037867036 1.2830001
0.10398903 0.037918169 1.2846667
0.087791145 0.044601291 1.2880001
0.09461654 0.045059565 1.2848752
0.10160742 0.045598943 1.28425
0.095977463 0.051940743 1.2880001
0.10145341 0.05480345 1.2874446
-0.16032217 -0.19443327 1.2970001
-0.15677467 -0.1967089 1.294
-0.14403546 -0.17579065 1.2936667
-0.13775216 -0.16553067 1.2932501
-0.13608019 -0.15387905 1.2919999
-0.13468568 -0.14538002 1.2941428
-0.13075921 -0.1398555 1.2970001
-0.12483294 -0.13731405 1.2945
-0.1172987 -0.13227077 1.294
-0.11359517 -0.12580408 1.29575
-0.10911227 -0.12345922 1.2920001
-0.11029255 -0.11825182 1.2970001
-0.10459879 -0.11519556 1.2953334
-0.096132092 -0.10463685 1.293875
-0.092099972 -0.09778516 1.2970001
-0.088192567 -0.09442763 1.293875
-0.085946545 -0.084873825 1.2949413
-0.078153081 -0.080418386 1.2920001
-0.08274515 -0.075696394 1.2965
-0.078304306 -0.074895382 1.2945001
-0.078153081 -0.06456124 1.2920001
0.048892576 0.012507403 1.2970001
0.053592931 0.013893085 1.293875
0.064938791 0.018877557 1.2919999
0.072489813 0.019255107 1.2920001
0.11811453 0.017457765 1.293
0.12329441 0.016725264 1.29325
0.057156328 0.022333959 1.2953334
0.065179132 0.023035692 1.296091
0.074708804 0.024779275 1.2945
0.11698829 0.023202986 1.2955714
0.12226168 0.023089061 1.2953334
0.078026108 0.034470383 1.2961668
0.081777573 0.036018379 1.2919999
0.10986737 0.032846946 1.2920001
0.07845553 0.042070355 1.2970001
0.083262123 0.045148857 1.2939999
0.088149272 0.053572658 1.29325
0.094535165 0.05577125 1.293
0.097911395 0.062756769 1.2936667
-0.15180886 -0.1826272 1.302
-0.14952601 -0.18148577 1.302
-0.15086411 -0.17912726 1.307
-0.14438495 -0.17371647 1.3036667
-0.14160785 -0.16512606 1.304143
-0.14079902 -0.15567693 1.30575
-0.13667686 -0.14200641 1.3028334
-0.13502148 -0.13552779 1.3064446
-0.12625693 -0.13334337 1.3045001
-0.1198491 -0.1312633 1.302
-0.14504232 -0.1286308 1.3061668
-0.13864221 -0.12947577 1.307
-0.12415818 -0.12713464 1.3065001
-0.11733734 -0.12418696 1.3026251
-0.12030935 -0.11801774 1.307
-0.11420783 -0.11611018 1.3049167
-0.10711975 -0.11245369 1.3045001
-0.10311754 -0.1063825 1.3048573
-0.098542593 -0.10234732 1.302
-0.10235844 -0.094719745 1.307
-0.096468195 -0.094556585 1.3047777
-0.09441033 -0.085081778 1.3046925
-0.086367451 -0.075714193 1.302
-0.081924938 -0.068175301 1.307
-0.078757979 -0.0684852 1.302
0.045697343 0.0079976106 1.3032501
0.0513639 0.0057071 1.302
0.047680438 0.012590687 1.3053335
0.052316487 0.017592773 1.3030001
0.12808231 0.019441398 1.3045001
0.055598378 0.024481619 1.3050001
0.064606234 0.027545255 1.3031112
0.073050879 0.0285355 1.302
0.1198491 0.026252659 1.302
0.1261338 0.024377346 1.3062859
0.067822002 0.032911163 1.30575
0.074285813 0.035050303 1.3036667
0.11071774 0.035384018 1.302
0.069894001 0.040103115 1.307
0.075206436 0.045181695 1.3048126
0.082182243 0.049081061 1.302
0.077017464 0.053541653 1.306375
0.083942346 0.055236138 1.305182
0.08765395 0.062446285 1.307
0.093559854 0.064741135 1.3046666
-0.16048522 -0.18357663 1.317
-0.15702152 -0.18242206 1.317
-0.15283586 -0.17532587 1.3157501
-0.14750662 -0.17285675 1.3145001
-0.15124866 -0.16741264 1.317
-0.14689709 -0.1653361 1.3147779
-0.14357258 -0.15470126 1.3136667
-0.15240324 -0.1420121 1.317
-0.14387466 -0.14456216 1.3150002
-0.15182696 -0.13875939 1.3153334
-0.14513172 -0.13591874 1.3138752
-0.13607478 -0.13463375 1.3126252
-0.14418536 -0.12572649 1.31575
-0.13422261 -0.12646584 1.3147273
-0.12612963 -0.12340543 1.3133639
-0.12436883 -0.11790675 1.316
-0.11634944 -0.11266007 1.3140001
-0.11361885 -0.10900275 1.31575
-0.10715049 -0.10484427 1.3142223
-0.10466699 -0.09661568 1.312
0.03795616 0.0057509332 1.312
0.040256534 0.0069011198 1.312
0.045171041 0.01498092 1.3145001
0.13605696 0.015738612 1.3169999
0.1438407 0.015304222 1.3141431
0.049646508 0.02193683 1.317
0.054116387 0.02648435 1.3134286
0.11731903 0.028754666 1.312
0.12422016 0.028754666 1.312
0.13508469 0.022802759 1.317
0.14147297 0.021853546 1.312
0.057728499 0.031173389 1.317
0.064500861 0.034555461 1.3138751
0.11661157 0.032327957 1.317
0.1236221 0.033151675 1.3130002
0.067990318 0.041487813 1.3145001
0.070621468 0.046237502 1.312
0.073104434 0.056222606 1.3132502
0.081663251 0.05865952 1.312
0.077857859 0.061711416 1.3157501
0.08449664 0.064815 1.3138185
0.087332115 0.072922997 1.3151251
0.093085103 0.07340347 1.3138185
-0.16263978 -0.18272829 1.322
-0.1625344 -0.17595479 1.3253332
-0.15745795 -0.17415212 1.3226001
-0.15504688 -0.16537088 1.3253334
-0.14950497 -0.16225347 1.322
-0.15118141 -0.15484037 1.3280001
-0.14765064 -0.15599512 1.322
-0.15204906 -0.14586447 1.324
-0.14776655 -0.14660759 1.322
-0.14023335 -0.12400801 1.322
-0.13661447 -0.12399548 1.3254286
-0.13378547 -0.11865947 1.327
-0.12464699 -0.11381724 1.3233335
-0.11937219 -0.11010057 1.322
-0.12284905 -0.10778266 1.322
-0.11478372 -0.10508587 1.3225455
-0.10778266 -0.10082894 1.322
-0.11060026 -0.098958135 1.3280001
-0.10778266 -0.09735208 1.322
0.036866754 0.013841203 1.3280001
0.042082414 0.01712678 1.32425
0.045500632 0.025039937 1.3264
0.051107034 0.029039584 1.325
0.046956602 0.032209903 1.3280001
0.054654904 0.034889579 1.3265002
0.063232653 0.037709378 1.3235
0.11618849 0.035624929 1.3280001
0.1222424 0.038419038 1.3280001
0.05937488 0.044240106 1.3280001
0.064901039 0.044895504 1.3268002
0.10827184 0.045404319 1.3280001
0.11153164 0.042610206 1.3280001
0.05937488 0.05937488 1.3280001
0.065593734 0.054978833 1.3272498
0.05937488 0.062867522 1.3280001
0.064419799 0.062479448 1.3280001
0.076180741 0.065406352 1.3258182
0.082285687 0.068378247 1.322
0.068688586 0.076838076 1.3280001
0.075091764 0.076547034 1.3280001
0.083217211 0.075593717 1.3237144
0.091557309 0.079967782 1.322
0.068688586 0.080330722 1.3280001
0.075208187 0.080796406 1.3280001
0.084405459 0.081785992 1.3280001
0.094301283 0.081106864 1.3280001
-0.16029792 -0.16497523 1.3346667
-0.15732419 -0.16200078 1.3342501
-0.15550713 -0.15483686 1.3365716
-0.15581493 -0.14878289 1.3363333
-0.13205142 -0.11569107 1.3330001
-0.12971424 -0.11569107 1.3330001
0.029214917 0.0081801768 1.3330001
0.018376688 0.017203707 1.3380002
0.02602507 0.015745956 1.3360554
0.033464357 0.016254118 1.3330001
0.018376686 0.025935892 1.3380002
0.025753509 0.02575789 1.3355
0.035057902 0.025709126 1.3330001
0.041679949 0.028435854 1.3330001
0.019940659 0.034016419 1.3379999
0.02601824 0.03492938 1.337
0.035074331 0.035075434 1.3336251
0.043777429 0.035687145 1.3330001
0.051418252 0.038563691 1.3330001
0.11693344 0.035861071 1.3338333
0.12426078 0.038563691 1.3330001
0.028386116 0.042931072 1.3380001
0.035423998 0.044338647 1.3379999
0.044465303 0.044469684 1.3348751
0.054404669 0.044406671 1.3330001
0.10867949 0.043238077 1.3330001
0.11577085 0.044664606 1.336889
0.12489972 0.043976285 1.3344706
0.03636238 0.05043814 1.3380001
0.04588588 0.054183599 1.3368462
0.054752838 0.05475612 1.333625
0.061935622 0.054924041 1.3330001
0.12550886 0.05043814 1.3380001
0.045959488 0.065793507 1.3380002
0.054479919 0.065798268 1.3349445
0.065908849 0.067077443 1.3330001
0.072219275 0.067077443 1.3330001
0.046416495 0.073897734 1.3380002
0.055542532 0.074930206 1.3355
0.064940579 0.074456297 1.3330001
0.074205883 0.072745137 1.3330001
0.056646202 0.084609449 1.3358127
0.065256894 0.085553564 1.3330001
0.074623242 0.086476155 1.3330001
0.085307561 0.087644741 1.3330001
0.094833851 0.085861467 1.3355001
0.055962812 0.092847206 1.3375456
0.065387994 0.09585683 1.3366667
0.075363927 0.094126821 1.3375456
0.084872209 0.095340885 1.3360001
0.092326842 0.094413102 1.336889
0.057085022 0.10439522 1.3380002
0.064044707 0.105099 1.3380002
0.073897742 0.10908714 1.3380001
0.083281577 0.10204926 1.3380001
0.062167939 0.1114331 1.3380001
-0.1620194 -0.15255842 1.3490001
-0.15894406 -0.15423459 1.3430001
0.015374104 -0.0011826233 1.3490001
0.0082783634 0.0082783634 1.3490001
0.01469832 0.0050683855 1.3490002
0.02481856 0.0055699642 1.348143
0.03193083 0.0035478701 1.3490001
-0.0027594545 0.016950935 1.3490001
0.0047304933 0.014191482 1.3490003
0.013324996 0.013868395 1.3443849
0.021428013 0.012009105 1.3430001
-0.020104596 0.027200336 1.3490001
-0.015965415 0.027200336 1.3490001
-0.0023652466 0.024835091 1.3490001
0.00472234 0.024807474 1.3475004
0.012782803 0.024556434 1.3430003
-0.015374104 0.0354787 1.3490001
-0.0029565583 0.035183046 1.3490001
0.0047304933 0.0354787 1.3490003
0.014154661 0.035399798 1.3460003
0.021192539 0.03885299 1.3430001
-0.015847152 0.044230111 1.3490001
-0.0019710388 0.045728102 1.3490001
0.0047304933 0.044939682 1.3490003
0.014167812 0.044864733 1.3467501
0.023468776 0.045289241 1.3430003
0.031788811 0.048271898 1.3430001
0.11773633 0.048271898 1.3430001
0.12126842 0.048271898 1.3430001
-0.0011826233 0.050852802 1.3490001
0.0052373321 0.054062773 1.3490002
0.014178661 0.054358266 1.3478754
0.024807474 0.054344125 1.3475006
0.035242412 0.054394189 1.3430003
0.042149607 0.055807024 1.3430001
0.10998397 0.052035425 1.3490001
0.1160055 0.052302811 1.3456668
0.12290008 0.05260719 1.3454001
0.0070957402 0.061496414 1.3490001
0.015036212 0.063861668 1.3490002
0.024835087 0.065044276 1.3490005
0.035411894 0.064927511 1.3466003
0.041880496 0.064082213 1.3430002
0.01773935 0.07450527 1.3490001
0.024835089 0.0756879 1.3490005
0.035426427 0.075584993 1.3471253
0.043362174 0.076380946 1.3450001
0.050626624 0.075351253 1.3430001
0.01773935 0.087514125 1.3490001
0.025530752 0.085635841 1.3490003
0.0354787 0.085148871 1.3490003
0.044873606 0.085030854 1.3471253
0.051097572 0.085005626 1.3430001
0.01773935 0.093427241 1.3490001
0.02665451 0.094336949 1.3490002
0.035478696 0.094609849 1.3490003
0.044860125 0.09445338 1.3467504
0.052644964 0.09570282 1.3430002
0.060045529 0.097721159 1.3430001
0.072996527 0.097721159 1.3430001
0.027200339 0.10460841 1.3490001
0.035416454 0.10500449 1.3490005
0.044896554 0.10516089 1.3478005
0.053342655 0.10472409 1.3442001
0.065743707 0.10586109 1.3457274
0.075481318 0.10463823 1.3442634
0.083658785 0.10423112 1.3440912
0.045277573 0.11539025 1.3490002
0.054262269 0.11561076 1.3456253
0.065108418 0.11597584 1.3477373
0.074947514 0.11510493 1.347154
0.081601009 0.11234922 1.3490001
0.046595357 0.1227563 1.3490001
0.053612258 0.12259862 1.3490001
0.060313791 0.12181021 1.3490001
-0.01310529 -0.0047655599 1.3590001
-0.003572576 -0.0044342596 1.357182
0.0041596373 -0.0041574459 1.3548335
0.014112191 -0.0032972405 1.3540001
0.021959623 -0.0017805102 1.3540001
-0.013321905 0.0050904849 1.3590001
-0.0047540534 0.0047496706 1.3552501
0.0045106248 0.0045106257 1.3540001
0.01068306 0.0023740134 1.3540001
0.020970451 0.0019783445 1.3540001
-0.021420183 0.015467615 1.3573333
-0.014425862 0.014592306 1.3550714
-0.0052045677 0.013604923 1.3540001
-0.023910256 0.02522672 1.3559444
-0.013798952 0.024333637 1.3540001
-0.0071220407 0.024927139 1.3540001
-0.022954436 0.03538584 1.3559232
-0.013848412 0.035610199 1.3540001
-0.0065285368 0.035906952 1.3540001
-0.022577433 0.045261588 1.3553637
-0.013488711 0.045429982 1.3540001
-0.006409836 0.044631448 1.3540001
-0.023098063 0.053573985 1.358
-0.014359664 0.054242201 1.3563079
-0.0049895192 0.054867767 1.3546668
0.0011870067 0.056976318 1.3540001
0.11344393 0.056806751 1.3540001
0.12357599 0.057860352 1.358
-0.02104789 0.06632071 1.3590001
-0.014633006 0.064488038 1.3586428
-0.0047595329 0.064218357 1.3565
0.0039570541 0.064910516 1.3544168
0.011474398 0.066076703 1.3540001
0.10564359 0.06528537 1.3540001
0.11556483 0.060760889 1.3590001
-0.02104789 0.071086273 1.3590001
-0.014050802 0.074703045 1.3583333
-0.0048294533 0.074569523 1.3578234
0.0048141917 0.074771807 1.3561053
0.013353824 0.075078182 1.3540001
-0.013700984 0.085780077 1.3590001
-0.0050003319 0.085614152 1.3576666
0.0047529577 0.085579544 1.355875
0.013735362 0.085125327 1.3540001
0.020970451 0.082694799 1.3540001
-0.014892374 0.09550976 1.3590001
-0.0047592586 0.095112585 1.3561875
0.0047480264 0.094960526 1.3540001
0.013735362 0.095130123 1.3540001
0.021535695 0.095469244 1.3540001
-0.015011514 0.10436577 1.3590001
-0.0045258207 0.10452835 1.358
0.0047491221 0.10450646 1.3546251
0.01424408 0.10445658 1.3540001
0.022025567 0.10379715 1.3540001
-0.01389955 0.11159352 1.3590001
-0.00317704 0.11278492 1.3590001
0.0054023573 0.11385115 1.3582307
0.01450786 0.11461207 1.3540001
0.024927139 0.11513963 1.3540001
0.035680026 0.11597755 1.3540001
0.042732239 0.11988767 1.3540001
0.0071483403 0.12033039 1.3590001
0.014283841 0.12499856 1.3579285
0.025008544 0.12588182 1.3582858
0.036021356 0.12557887 1.3568572
0.044350889 0.12700972 1.3540001
0.055021837 0.12732659 1.3545556
0.063295223 0.12540618 1.3558751
0.073866181 0.12330887 1.3590001
0.015964624 0.1331974 1.3590001
0.027401971 0.13462707 1.3590001
0.037171371 0.13653329 1.3590001
0.044884831 0.13516887 1.3575715
0.053612549 0.13303855 1.3590001
0.038124479 0.14177541 1.3590001
-0.02034305 -0.01076985 1.365
-0.01555645 -0.01213745 1.3649999
-0.02034305 -0.0047865999 1.365
-0.014758684 -0.0047865999 1.3649999
-0.00741923 -0.00550459 1.365
0.01076985 -0.0059832497 1.365
-0.023334675 0.005783808 1.3649999
-0.01651377 0.0040686103 1.365
-0.0335062 0.017949751 1.365
-0.02612686 0.014160357 1.3649999
-0.034104526 0.025129652 1.3649999
-0.029118484 0.023932999 1.3649999
-0.034702849 0.035899494 1.3649999
-0.02889055 0.036412351 1.3649999
-0.034485277 0.04536391 1.3649999
-0.0287196 0.045472696 1.3649999
-0.035071049 0.054953847 1.3649999
-0.027044293 0.056242548 1.3649999
-0.0143598 0.05863585 1.365
-0.0335062 0.063422449 1.3649999
-0.025833562 0.064267144 1.3649999
-0.01076985 0.061029151 1.365
0.11787003 0.064020768 1.365
0.12086165 0.063422449 1.365
-0.033107314 0.072197884 1.3650001
-0.025833562 0.074685045 1.3649999
-0.0167531 0.075388953 1.365
-0.023800038 0.084297344 1.3649999
-0.015024606 0.085493997 1.3649999
0.099321947 0.08735545 1.365
-0.02273635 0.095732003 1.3649999
-0.012564825 0.095133677 1.365
-0.02273635 0.10410856 1.3649999
-0.01316315 0.10610297 1.3649999
-0.0083765499 0.10889515 1.365
-0.02034305 0.11368176 1.3650001
-0.014758683 0.11527728 1.3649999
-0.0057439199 0.11583573 1.3649999
0.0019944166 0.11687282 1.3650001
-0.01316315 0.12086165 1.365
-0.0032480503 0.12257116 1.3649999
0.0044446997 0.12496445 1.3649999
0.0119665 0.12804155 1.365
0.026326299 0.12804155 1.365
0.067012399 0.1268449 1.365
0.072995648 0.12564825 1.365
0.0051129591 0.13261057 1.3649999
0.012863988 0.13552061 1.3649999
0.02512965 0.13462311 1.3649999
0.0335062 0.1340248 1.3649999
0.054647017 0.13522145 1.3650001
0.015290527 0.1418695 1.3649999
0.025129648 0.14240135 1.3649999
0.03422419 0.14383732 1.365
0.0454727 0.1412047 1.365
-0.030157333 -0.014475519 1.376
-0.024293136 -0.01466944 1.3716003
-0.042220265 -0.0012062934 1.376
-0.033393234 -0.0043044337 1.3742858
-0.025221704 -0.0048041339 1.37
-0.043024462 0.0056293686 1.376
-0.034872316 0.0048075533 1.3715001
-0.025822217 0.0018015502 1.3700001
-0.045804627 0.014462701 1.3748751
-0.035580616 0.013661756 1.3700002
-0.051870614 0.020506987 1.376
-0.04569187 0.024044339 1.3715001
-0.038833413 0.023620322 1.37
0.15239505 0.024527965 1.376
-0.051870614 0.034982506 1.376
-0.045639273 0.03482997 1.3700004
-0.039233759 0.034029279 1.37
0.17008735 0.031363625 1.376
-0.045483224 0.045479018 1.3724
-0.039153688 0.045879472 1.3700001
-0.044506613 0.05532819 1.3720001
-0.039634101 0.05564788 1.3700002
-0.044586826 0.065070145 1.3745002
-0.037472244 0.065576427 1.37
0.10977269 0.068758719 1.376
0.11433838 0.065816633 1.37
0.12323873 0.063724458 1.3715
-0.044571489 0.074681483 1.3740001
-0.036677714 0.074926011 1.3700001
0.11486594 0.073315829 1.3760002
-0.043943543 0.083923556 1.3760002
-0.03539269 0.084401488 1.3710002
-0.027623767 0.085273363 1.3700002
0.10208783 0.08767543 1.3700001
-0.044029705 0.091075137 1.376
-0.034553934 0.094553761 1.3713045
-0.027623767 0.094881631 1.3700001
-0.034500133 0.10447527 1.3735297
-0.02602239 0.10769266 1.37
-0.03076048 0.11399472 1.376
-0.024888566 0.11573417 1.3718461
-0.0108093 0.1189023 1.3700001
-0.022894232 0.12454102 1.3743638
-0.014492471 0.12514769 1.3700002
-0.006005167 0.12637541 1.37
0.0684589 0.12851056 1.3700001
0.074770555 0.1276623 1.3712001
-0.020506987 0.13148597 1.376
-0.013865141 0.13292216 1.3752501
-0.004573395 0.13447437 1.3719999
0.0040835133 0.13763842 1.3700001
0.056574807 0.13721761 1.373
0.064930752 0.132257 1.3715
0.0723776 0.13148597 1.376
-0.04255778 -0.022407975 1.3870001
-0.036023695 -0.022667676 1.3850001
-0.05436974 -0.012680481 1.3870001
-0.044733662 -0.014399249 1.3870004
-0.03516398 -0.014549159 1.383
-0.062012769 -0.0012159366 1.3870001
-0.055933088 -0.0048637469 1.3870003
-0.04634428 -0.0050985184 1.3838003
-0.038741652 -0.0060533839 1.381
-0.063532695 0.0057756994 1.3870001
-0.055890676 0.0048588151 1.3858752
-0.047700658 0.0043584369 1.3810002
-0.071740262 0.015807176 1.3870001
-0.064818785 0.014871839 1.3870002
-0.055800602 0.014552774 1.3836253
0.15928771 0.018239049 1.3870001
0.16171958 0.018239049 1.3870001
-0.064223573 0.023987114 1.3870001
-0.056067213 0.024513178 1.3842
0.13983272 0.027966544 1.3870001
0.14613071 0.027385488 1.3822
0.15652288 0.025434144 1.3816668
0.16487589 0.024242135 1.3828752
0.17107624 0.024260873 1.3840001
-0.071740262 0.035262164 1.3870001
-0.06513948 0.034393642 1.3870002
-0.056813058 0.03441922 1.3833078
0.13892128 0.034833182 1.386
0.14585645 0.033898186 1.3842003
0.15505208 0.033919327 1.3817503
0.16440681 0.033403378 1.3818575
-0.064606778 0.044341154 1.3870003
-0.0560867 0.045431007 1.3840003
-0.049637742 0.049637742 1.381
0.13922475 0.041949816 1.3870001
0.14874959 0.040936533 1.3870001
0.15482926 0.040936533 1.3870001
0.16171958 0.04012591 1.3870001
-0.062012769 0.053501211 1.3870001
-0.055904161 0.055904817 1.3862503
-0.049637742 0.055691127 1.381
-0.062012769 0.064444646 1.3870001
-0.055904813 0.065623768 1.3862503
