# .PCD v0.7 - Point Cloud Data file format
VERSION 0.7
FIELDS x y z
SIZE 4 4 4
TYPE F F F
COUNT 1 1 1
WIDTH 1432
HEIGHT 1
VIEWPOINT 0 0 0 1 0 0 0
POINTS 1432
DATA ascii
-0.045410018 -0.075790323 1.1553332
-0.038543526 -0.074044146 1.1570001
-0.013185943 -0.078101359 1.1570001
-0.0020268534 -0.076955557 1.155
-0.061872505 -0.065929718 1.1570001
-0.055734362 -0.065863371 1.1558799
-0.04564365 -0.065929718 1.1569997
-0.037123498 -0.06633544 1.1569998
-0.056076489 -0.059264295 1.1570002
-0.046150804 -0.059843898 1.1570001
-0.039557829 -0.059843898 1.1570001
-0.063539043 -0.14204052 1.1689999
-0.071122743 -0.13302207 1.169
-0.064466558 -0.13507101 1.1672003
-0.054992046 -0.13412212 1.1678571
-0.045531433 -0.13220222 1.169
-0.039968111 -0.1311774 1.169
-0.071122743 -0.12564334 1.169
-0.064329222 -0.12558885 1.1646801
-0.054583572 -0.12566906 1.1628181
-0.045822073 -0.12484072 1.1640478
-0.036139507 -0.12445191 1.1667781
-0.029207464 -0.12349121 1.169
-0.073069386 -0.1150442 1.1677501
-0.064223178 -0.11518829 1.16276
-0.056164607 -0.11649298 1.1610001
-0.045813233 -0.11504538 1.1613199
-0.035711713 -0.1153009 1.1638805
-0.026634112 -0.11442351 1.1659412
-0.01844682 -0.11170574 1.169
-0.081729658 -0.10478818 1.169
-0.074518532 -0.10514092 1.1643602
-0.065439194 -0.10555288 1.161
-0.044557467 -0.10528679 1.1609999
-0.035623357 -0.10483441 1.1609998
-0.025901701 -0.10530764 1.1612222
-0.016807016 -0.10416137 1.1620001
-0.081695035 -0.094499186 1.1684999
-0.074406751 -0.094786786 1.1625999
-0.066666551 -0.094656341 1.1610001
-0.042408749 -0.098049022 1.161
-0.035453718 -0.094825961 1.1609998
-0.023748899 -0.091942169 1.1610001
-0.015633827 -0.094490074 1.1622173
-0.0081906971 -0.092156082 1.1680001
-0.080961041 -0.087109983 1.169
-0.074540973 -0.084744871 1.1646802
-0.066157646 -0.084478244 1.161
-0.034266274 -0.084365159 1.1609999
-0.025614882 -0.084563054 1.1609998
-0.015271778 -0.084514007 1.1614798
-0.006464832 -0.0843665 1.1641114
-0.073240526 -0.074938044 1.1656668
-0.066314228 -0.074300125 1.1610001
-0.034096636 -0.075063489 1.161
-0.025445251 -0.07430014 1.1609998
-0.015356789 -0.074161626 1.1614999
-0.0055677895 -0.074033059 1.1640912
0.00101781 -0.071246698 1.161
-0.07161665 -0.064453416 1.1670001
-0.065961495 -0.063920617 1.1619999
-0.043765828 -0.060050789 1.161
-0.033757363 -0.062934585 1.1610001
-0.02545142 -0.064138599 1.1613199
-0.015290856 -0.064233549 1.1630801
-0.0052775326 -0.064229943 1.1645002
-0.070712812 -0.057390105 1.169
-0.064391658 -0.05464207 1.164091
-0.054362513 -0.054226805 1.1612667
-0.045822036 -0.054320358 1.1615217
-0.035623349 -0.054961741 1.1609999
-0.025341807 -0.05426012 1.1641668
-0.01590042 -0.054490246 1.1668185
-0.0059378971 -0.055467341 1.1674
-0.06270019 -0.045838378 1.1652501
-0.054242585 -0.045739785 1.1638337
-0.044794831 -0.045270912 1.1659414
-0.035707645 -0.045905102 1.1637205
-0.025953367 -0.045274489 1.1658002
-0.016055565 -0.048166696 1.169
-0.061762046 -0.038557265 1.1676668
-0.054525319 -0.036286511 1.1675457
-0.045092225 -0.038943283 1.169
-0.035928756 -0.037587084 1.1667501
-0.027631655 -0.037864458 1.1673999
-0.052949205 -0.029036662 1.169
-0.0720222 -0.15333094 1.177
-0.06552162 -0.15322773 1.177
-0.05881469 -0.15271184 1.177
-0.073472992 -0.14513962 1.1762501
-0.065484129 -0.14667375 1.1732669
-0.055475425 -0.14441593 1.1753159
-0.044368975 -0.14239347 1.177
-0.038177956 -0.14239347 1.177
-0.081515096 -0.13104326 1.177
-0.075555205 -0.1349266 1.1748824
-0.052787602 -0.13813899 1.1730002
-0.043684423 -0.13693696 1.1744287
-0.035193577 -0.13417697 1.1746472
-0.027313866 -0.13312988 1.1756668
-0.082753301 -0.12402676 1.177
-0.076572649 -0.12464086 1.1750001
-0.032906562 -0.12854125 1.1730001
-0.024806846 -0.12483986 1.1736668
-0.019604897 -0.12175673 1.177
-0.084655412 -0.11458722 1.175316
-0.078495853 -0.11585852 1.1730002
-0.023240259 -0.11743529 1.1730001
-0.019582689 -0.1164678 1.1756667
-0.085972458 -0.10520302 1.1752223
-0.085183322 -0.095772453 1.1747143
-0.0092549697 -0.095634691 1.1730001
-0.083826154 -0.085322551 1.175182
-0.082065143 -0.07616993 1.1764287
-0.078670934 -0.074256793 1.174143
-0.11260777 -0.064455397 1.177
-0.10442187 -0.064077072 1.177
-0.093897134 -0.060878363 1.177
-0.081515096 -0.06810122 1.177
-0.077267364 -0.064901203 1.1751333
-0.11350204 -0.05468734 1.177
-0.10412937 -0.054643579 1.1760402
-0.095091894 -0.054470111 1.177
-0.089769788 -0.052623671 1.177
-0.074004285 -0.054625392 1.1756668
-0.068898112 -0.050388169 1.1730001
-0.011311631 -0.052444831 1.1730001
-0.0067869783 -0.0507995 1.1730001
-0.11247019 -0.045480184 1.177
-0.1049449 -0.044240452 1.1736003
-0.095685728 -0.044244278 1.1736403
-0.088222049 -0.044025034 1.177
-0.071786352 -0.045253407 1.177
-0.068185598 -0.043482006 1.1740001
-0.02159493 -0.042161532 1.1730001
-0.016240347 -0.043809857 1.1743335
-0.0048108553 -0.046391446 1.1760001
-0.11040653 -0.038177956 1.177
-0.10465433 -0.035323653 1.1752859
-0.095634684 -0.03496322 1.1730002
-0.086016685 -0.035049912 1.175889
-0.071196727 -0.038177956 1.177
-0.065042518 -0.034819737 1.1751335
-0.052444831 -0.032563787 1.1730001
-0.044522762 -0.033795752 1.1732858
-0.034522507 -0.032759659 1.1730002
-0.024572341 -0.034286059 1.1750002
-0.016946847 -0.035367992 1.1767143
-0.10091363 -0.028272325 1.177
-0.094666764 -0.025983987 1.175737
-0.085558146 -0.025769966 1.1758801
-0.079451419 -0.025795916 1.177
-0.062360402 -0.026724702 1.1766365
-0.054758277 -0.02526952 1.1744547
-0.04483071 -0.026586842 1.1756001
-0.035042703 -0.027825693 1.1756668
-0.026371511 -0.027845059 1.1764287
-0.017025307 -0.029407345 1.177
-0.093897134 -0.019604897 1.177
-0.084816977 -0.018366693 1.177
-0.079451419 -0.017541224 1.177
-0.060878363 -0.019604897 1.177
-0.053901177 -0.015674092 1.177
-0.048496325 -0.017541224 1.177
-0.074007325 -0.17198884 1.189
-0.063583754 -0.17198884 1.189
-0.057329617 -0.17198884 1.189
-0.083614498 -0.16514559 1.1885
-0.075453356 -0.16486315 1.1846522
-0.065492019 -0.16529539 1.1857998
-0.05589084 -0.1645584 1.1849998
-0.047129426 -0.16174133 1.1842
-0.08520481 -0.15481547 1.1852
-0.076919913 -0.15511878 1.181
-0.064450122 -0.15763101 1.1810001
-0.054224543 -0.15488458 1.1819524
-0.044923864 -0.15438522 1.1846521
-0.034715947 -0.15350634 1.1873529
-0.026058916 -0.15322644 1.189
-0.094029173 -0.14260608 1.1886923
-0.085322611 -0.1450491 1.1842943
-0.078833997 -0.14539179 1.1810001
-0.051422048 -0.14736386 1.1810001
-0.044519763 -0.14701876 1.181
-0.033736765 -0.14531705 1.1821113
-0.025190206 -0.14483389 1.1859232
-0.10170423 -0.13357055 1.189
-0.094601624 -0.13514377 1.1857998
-0.084914714 -0.13565588 1.1812222
-0.079721436 -0.13770066 1.1810001
-0.033130988 -0.13977134 1.1810001
-0.026297718 -0.13894308 1.1810001
-0.10180351 -0.12577771 1.189
-0.094348088 -0.12544627 1.1825999
-0.086761765 -0.1261048 1.181
-0.1011086 -0.11570159 1.189
-0.09443941 -0.11518556 1.18372
-0.1036744 -0.10367438 1.189
-0.094555132 -0.10493634 1.1851598
-0.088004179 -0.10146365 1.1810001
-0.12820987 -0.090685032 1.189
-0.10433988 -0.094541766 1.1889998
-0.094592869 -0.094585568 1.1856397
-0.088004179 -0.094216242 1.1810001
-0.13071153 -0.082763121 1.189
-0.1263568 -0.083041094 1.189
-0.11484834 -0.084351234 1.1878573
-0.10515442 -0.085375585 1.1875999
-0.094588131 -0.08523076 1.1855999
-0.087590039 -0.084276944 1.1810001
-0.13118802 -0.074602954 1.189
-0.12455478 -0.075149156 1.1857059
-0.11495508 -0.075601652 1.1813198
-0.10459772 -0.075601667 1.1813198
-0.094305858 -0.075654551 1.1821198
-0.086252056 -0.075102203 1.181
-0.13133693 -0.065668471 1.189
-0.12464428 -0.065435804 1.1847999
-0.11782207 -0.06605491 1.181
-0.10374141 -0.068953864 1.1810001
-0.094216235 -0.0653992 1.1809999
-0.085243255 -0.064881518 1.181
-0.13098948 -0.058719426 1.189
-0.12466794 -0.055455402 1.186111
-0.11906447 -0.054873198 1.1810001
-0.090765096 -0.058324341 1.1810001
-0.084898144 -0.054873191 1.181
-0.078944936 -0.054096688 1.1810001
-0.12354144 -0.047706973 1.1882
-0.11713979 -0.043630823 1.1824545
-0.083544239 -0.044838328 1.181
-0.076960526 -0.044174649 1.181
-0.011388777 -0.04348442 1.1810001
-0.0058669453 -0.042103961 1.181
0.0010353433 -0.042449076 1.1810001
-0.1140947 -0.034402203 1.1849999
-0.10746864 -0.031267371 1.1810001
-0.081792124 -0.035201676 1.1810001
-0.075752623 -0.033993777 1.1809999
-0.068850331 -0.031577975 1.1810001
-0.012184571 -0.033445928 1.1830001
-0.0051889191 -0.03423997 1.18372
0.0014536886 -0.035087179 1.1842
-0.11270795 -0.026873866 1.1882
-0.10537075 -0.02446297 1.1831177
-0.098357618 -0.02174221 1.1810001
-0.075362101 -0.024793746 1.181
-0.067124762 -0.024330566 1.181
-0.042449076 -0.022570485 1.1810001
-0.034166332 -0.022777552 1.181
-0.024042971 -0.023352742 1.1810001
-0.015544731 -0.024714481 1.1824737
-0.0057583554 -0.025883935 1.1874001
-0.10347279 -0.019361185 1.1874001
-0.094096512 -0.015444444 1.1840587
-0.085234076 -0.013278232 1.1817273
-0.075219944 -0.015350093 1.1809999
-0.065399185 -0.015357594 1.1809999
-0.05901457 -0.014494806 1.1810001
-0.044038709 -0.01527504 1.1833634
-0.034309816 -0.015589203 1.1859597
-0.024926964 -0.015573457 1.1847998
-0.016499994 -0.017539347 1.1870002
-0.090685032 -0.0093812095 1.189
-0.083822004 -0.0067053046 1.1857275
-0.075514175 -0.0053527802 1.1826667
-0.06528078 -0.0051792413 1.1819599
-0.054873195 -0.0051767165 1.1809999
-0.045674473 -0.0058523952 1.1856314
-0.034918949 -0.0093812095 1.189
-0.026058918 -0.0093812095 1.189
-0.080261461 0.0010423567 1.189
-0.074139558 0.0036476636 1.1883334
-0.065502822 0.0052007018 1.1859598
-0.05498416 0.0051891999 1.1833998
-0.047482021 0.0039577992 1.1878002
-0.06433966 0.012503458 1.1885
-0.055300705 0.014026719 1.1875882
-0.048990764 0.011465923 1.189
-0.084532581 -0.18247379 1.197
-0.074336581 -0.18344651 1.1967144
-0.067159683 -0.18259038 1.197
-0.092082217 -0.17445777 1.197
-0.084807225 -0.17484997 1.1942803
-0.074307233 -0.17599604 1.1938423
-0.064927511 -0.17595421 1.1932666
-0.059091277 -0.17465918 1.1930001
-0.093091138 -0.16369087 1.1951538
-0.086806655 -0.1651302 1.193
-0.041904666 -0.16133471 1.1950001
-0.034584705 -0.16212313 1.1954615
-0.028285649 -0.16133472 1.1950001
-0.10248847 -0.15285824 1.197
-0.095337331 -0.15504797 1.1950002
-0.032421764 -0.15792537 1.1930001
-0.027192447 -0.15792537 1.1930001
-0.10433998 -0.14430735 1.1952857
-0.096045114 -0.14781536 1.193
-0.024054857 -0.14955845 1.1930001
-0.11134981 -0.13420276 1.197
-0.10600957 -0.13547029 1.1936153
-0.11376283 -0.12494735 1.1960001
-0.10702667 -0.12410911 1.1930002
-0.11429473 -0.11429311 1.196077
-0.10667805 -0.11504496 1.1930001
-0.13117126 -0.10178889 1.197
-0.12330097 -0.10231357 1.197
-0.11487172 -0.10491498 1.1952503
-0.10737529 -0.10737532 1.193
-0.13395573 -0.09450233 1.1947778
-0.12445431 -0.095383503 1.1956091
-0.11522082 -0.095319256 1.1948003
-0.10939731 -0.096428595 1.1930001
-0.14166495 -0.081850857 1.197
-0.1359276 -0.08517693 1.1936002
-0.12393481 -0.086632341 1.193
-0.11661375 -0.088375457 1.1930001
-0.13689236 -0.074595571 1.1942501
-0.1367749 -0.065348841 1.1946001
-0.13391547 -0.055210587 1.1947143
-0.12654947 -0.052293167 1.1930001
-0.1317939 -0.045850765 1.1955001
-0.12571345 -0.043821611 1.19375
-0.14516285 -0.031830888 1.197
-0.13177088 -0.035528671 1.1969999
-0.12442069 -0.03486615 1.1953639
-0.11818255 -0.0313759 1.1930001
0.0010458634 -0.030330036 1.1930001
-0.14166495 -0.026234251 1.197
-0.1347691 -0.025934432 1.1969999
-0.12330096 -0.026234252 1.197
-0.11604412 -0.024273705 1.1944546
-0.0035566366 -0.022396203 1.1938
-0.13536873 -0.019938029 1.197
-0.11276037 -0.018093303 1.1965001
-0.10485479 -0.015390692 1.195154
-0.097871505 -0.012037071 1.194
-0.014863533 -0.013400726 1.1941998
-0.005139228 -0.016510677 1.1950957
-0.10178889 -0.0094443299 1.197
-0.094477378 -0.00615694 1.1957501
-0.086895376 -0.0031393436 1.1941999
-0.041834533 -0.0031375901 1.193
-0.034440439 -0.004433637 1.1939527
-0.024944618 -0.004493535 1.1944119
-0.017663009 -0.0065316386 1.1960772
-0.00104937 -0.0094443299 1.197
-0.083278537 0.0042746938 1.1954616
-0.076675236 0.0075895223 1.194
-0.044105589 0.0052355509 1.194778
-0.035328791 0.00104937 1.197
-0.02413551 0.00104937 1.197
-0.073461324 0.014609998 1.1959336
-0.065441214 0.01730722 1.1936154
-0.055169288 0.019087004 1.193
-0.047543947 0.015531901 1.1955456
-0.063731618 0.024119148 1.1961112
-0.055523682 0.025146302 1.1950002
-0.048620809 0.02273635 1.197
-0.056665979 0.030431731 1.197
-0.085638061 -0.19136406 1.2060001
-0.078237236 -0.19136406 1.2060001
-0.094169475 -0.18393724 1.2046667
-0.085841767 -0.18750897 1.2034545
-0.075336054 -0.18868905 1.2046667
-0.1004397 -0.17021886 1.2060001
-0.096897617 -0.17500159 1.2040001
-0.037004098 -0.17021886 1.2060001
-0.10193471 -0.16387023 1.2042222
-0.096999668 -0.16658595 1.2026668
-0.042218514 -0.16571455 1.204
-0.039118621 -0.16704708 1.2060001
-0.10601658 -0.15532763 1.2038182
-0.11229846 -0.14421694 1.2046666
-0.10853659 -0.14752546 1.202
-0.11648115 -0.13454241 1.2042222
-0.1215849 -0.12475668 1.2060001
-0.1182275 -0.12455205 1.2025715
-0.14279352 -0.11361085 1.2079999
-0.13457409 -0.11297578 1.2060002
-0.12290496 -0.11374906 1.2051111
-0.11872288 -0.1155616 1.202
-0.14215343 -0.10370758 1.2060002
-0.13517384 -0.10527891 1.2035555
-0.12567671 -0.10542361 1.2033333
-0.11907413 -0.10853659 1.202
-0.14314157 -0.095075376 1.205
-0.13804169 -0.097999059 1.202
-0.14482243 -0.086400755 1.2043334
-0.14355066 -0.074940965 1.204
-0.14271082 -0.064227529 1.2043334
-0.14161454 -0.054953411 1.2055001
-0.13804169 -0.053741422 1.202
-0.14237769 -0.04458113 1.2060002
-0.13665245 -0.044847343 1.2036666
-0.14222434 -0.035336275 1.2044617
-0.13636443 -0.034315832 1.2029229
-0.12750416 -0.032666352 1.202
-0.14120294 -0.025816957 1.202
-0.13470481 -0.024060702 1.2019999
-0.12631394 -0.023275709 1.203647
-0.11907413 -0.020021314 1.202
-0.13131168 -0.016704708 1.2060001
-0.12294977 -0.015147437 1.2055557
-0.1158578 -0.013996627 1.2036
-0.10783409 -0.012293789 1.202
-0.011591286 -0.011591286 1.202
-0.0073762736 -0.011591286 1.202
-0.12299458 -0.0077532395 1.2060002
-0.11524133 -0.0084580788 1.2060002
-0.10387997 -0.0059378818 1.2045
-0.09649995 -0.0015815066 1.2030001
-0.013708436 -0.0038663924 1.2029998
-0.0062177088 -0.0057450887 1.2044444
0.00105726 -0.00105726 1.2060001
-0.094656706 0.0019629819 1.2054287
-0.087579355 0.0065430896 1.2036
-0.042219684 0.0073908842 1.204
-0.034987375 0.0050503779 1.2053334
-0.024078527 0.0056833872 1.2040951
-0.016064392 0.0035943333 1.2056001
0.00105726 0.0052863001 1.2060001
-0.08233127 0.011610573 1.204
-0.079031497 0.013698793 1.202
-0.043649819 0.014430516 1.2046667
-0.071833186 0.022185804 1.205
-0.067085288 0.02668348 1.2037144
-0.046621133 0.024682727 1.2032
-0.063437358 0.032246333 1.2037779
-0.054957274 0.034050852 1.2034546
-0.049691219 0.0317178 1.2060001
-0.10259104 -0.20304477 1.2190001
-0.094995156 -0.20279625 1.2175
-0.087864794 -0.20241241 1.2173334
-0.10316394 -0.19458801 1.2173333
-0.095054522 -0.19552773 1.2128
-0.084931105 -0.19664867 1.2135834
-0.076003782 -0.19491561 1.2134445
-0.11092657 -0.18359521 1.2190001
-0.10437413 -0.18530896 1.2148125
-0.097236939 -0.18740211 1.21
-0.11399446 -0.17440413 1.2175
-0.10538512 -0.17551757 1.2121667
-0.12075821 -0.16350448 1.2190001
-0.1150498 -0.16511509 1.2151
-0.10734433 -0.16570283 1.2103335
-0.12075821 -0.15566766 1.2190001
-0.11506689 -0.15463522 1.2127779
-0.10925896 -0.15699346 1.21
-0.12214344 -0.14417835 1.2162223
-0.11651646 -0.14544602 1.2110001
-0.13215721 -0.13215721 1.2190001
-0.12495618 -0.13453409 1.2143126
-0.11933625 -0.13736928 1.21
-0.15153553 -0.12246805 1.2190001
-0.14527746 -0.12525478 1.2164999
-0.13534321 -0.12575477 1.2156001
-0.1267671 -0.12512961 1.2135384
-0.15389346 -0.11482148 1.2170769
-0.13433164 -0.11851656 1.21
-0.12644337 -0.11647217 1.21
-0.15412657 -0.10502798 1.2136428
-0.14744656 -0.10577358 1.21
-0.12835276 -0.10925896 1.21
-0.15466009 -0.094243422 1.212706
-0.14877252 -0.095203809 1.21
-0.15419872 -0.084676892 1.2156154
-0.14914379 -0.084224872 1.21
-0.15189709 -0.074734963 1.2162728
-0.14744657 -0.075314432 1.21
-0.16136716 -0.063050739 1.2190001
-0.15343583 -0.065133058 1.2158422
-0.14709298 -0.063999593 1.21
-0.15174736 -0.054074015 1.2130768
-0.14661199 -0.054609518 1.210889
-0.15259887 -0.044703741 1.21
-0.14744656 -0.045805834 1.21
-0.15171944 -0.03726491 1.2145001
-0.14839266 -0.037151378 1.2108001
-0.13259584 -0.011668433 1.21
-0.12744354 -0.014396118 1.21
-0.12481687 -0.0060110111 1.21
-0.11562356 -0.0031822999 1.2100002
-0.10744051 -0.0025761479 1.21
-0.0053038332 -0.0010607666 1.21
-0.12239143 0.0010642733 1.2140001
-0.11420955 0.0051000086 1.2162777
-0.10498285 0.0050498676 1.2138693
-0.095431931 0.0072840978 1.2114285
-0.033944532 0.0095469002 1.21
-0.028640701 0.0095469002 1.21
-0.013585528 0.0070066699 1.2108001
-0.0053163171 0.0053191227 1.2127202
0.0010619356 0.0067287087 1.2113334
-0.10400388 0.012173044 1.2180002
-0.094745845 0.012689069 1.2173333
-0.084587373 0.013836648 1.2137501
-0.076627679 0.018092647 1.2140001
-0.041900285 0.016441884 1.21
-0.035079334 0.014886722 1.2126501
-0.024430947 0.014873525 1.2115997
-0.015104908 0.014686329 1.2136668
-0.005836172 0.013560008 1.2186153
0.0010664649 0.012799772 1.2165
-0.04289978 0.024939608 1.2133335
-0.035951078 0.020646816 1.2181668
-0.024014823 0.021878971 1.2173332
-0.018142322 0.022414029 1.2173334
-0.063834392 0.036933579 1.2113334
-0.053844113 0.038679283 1.2111429
-0.046611778 0.034840837 1.2140001
-0.062208999 0.043017011 1.2164999
-0.054648269 0.043541908 1.2155714
-0.048089549 0.041677609 1.2190001
-0.10541566 -0.21190698 1.2270001
-0.11160075 -0.20464623 1.2270001
-0.10573483 -0.20624267 1.2248666
-0.095151745 -0.20833486 1.2256666
-0.084319077 -0.20381671 1.2243333
-0.076921366 -0.202145 1.2243334
-0.13230741 -0.19039358 1.2270001
-0.11422177 -0.19404028 1.2262501
-0.10721634 -0.19620587 1.223
-0.13230741 -0.1860909 1.2270001
-0.12278005 -0.18455423 1.2270001
-0.11580428 -0.18557771 1.2245001
-0.12309817 -0.17524071 1.2263335
-0.11793796 -0.17690694 1.223
-0.1230086 -0.16484284 1.2236668
-0.13230741 -0.15166947 1.2270001
-0.12461085 -0.15432782 1.2253336
-0.13258395 -0.14426066 1.2267144
-0.12667088 -0.14626417 1.2245002
-0.15446763 -0.13316701 1.2259094
-0.14478511 -0.1344559 1.2244998
-0.13584174 -0.13584282 1.2245384
-0.12973176 -0.13723691 1.223
-0.1634489 -0.12409268 1.2266002
-0.15564102 -0.12532797 1.2232666
-0.16329004 -0.11494801 1.2254002
-0.15913968 -0.11564047 1.2230002
-0.16278474 -0.1050571 1.2270001
-0.15975234 -0.10507201 1.223
-0.1630456 -0.094021626 1.2247144
-0.15975234 -0.097566865 1.223
-0.16441202 -0.084150501 1.2270001
-0.15913968 -0.083781905 1.2230002
-0.17103153 -0.076372571 1.2270001
-0.16511653 -0.075262837 1.2264287
-0.15803689 -0.075480297 1.2229999
-0.16310295 -0.068675436 1.2240001
-0.15903756 -0.068261065 1.223
-0.11579365 0.0096494695 1.223
-0.11347549 0.014570574 1.2244284
-0.10500729 0.016459709 1.2243333
-0.095301725 0.016743632 1.2242001
-0.085539654 0.017430106 1.2235
-0.011832369 0.01828639 1.2270001
-0.0044498346 0.017648177 1.2252858
0.0017916145 0.017551744 1.2256669
-0.11151112 0.021154843 1.2270001
-0.10433999 0.021513401 1.2270001
-0.094658956 0.02043773 1.2270001
-0.084619373 0.020796288 1.2270001
-0.077321999 0.021480087 1.2250001
-0.041814368 0.028948409 1.223
-0.035574358 0.025593454 1.2253529
-0.025205851 0.027190626 1.2254617
-0.015284955 0.024871908 1.225154
-0.0075296895 0.02043773 1.2270001
-0.042485647 0.036351983 1.2247144
-0.039369524 0.033776037 1.2270001
-0.02043773 0.0322701 1.2270001
-0.01613505 0.031732265 1.2270001
-0.06131319 0.048405148 1.2270001
-0.05402283 0.047942564 1.2243334
-0.045473281 0.044760257 1.2253333
-0.054859169 0.050556488 1.2270001
-0.048405148 0.050556488 1.2270001
-0.094269723 -0.22212979 1.2360001
-0.12027516 -0.21346132 1.2360001
-0.11480783 -0.21474169 1.2340002
-0.10452704 -0.2160365 1.2338184
-0.095142223 -0.21623223 1.2332501
-0.086331993 -0.21415506 1.2344445
-0.13219431 -0.2004586 1.2360001
-0.12436862 -0.20334812 1.2360001
-0.11718578 -0.20539014 1.2320002
-0.082732081 -0.20758624 1.2320001
-0.076039724 -0.20795585 1.2333335
-0.13478182 -0.19457009 1.2334119
-0.12514427 -0.19480279 1.2324708
-0.11834299 -0.19795834 1.2320002
-0.13523777 -0.18475689 1.2331431
-0.12695536 -0.18508187 1.2320002
-0.13384569 -0.17582045 1.235077
-0.12796879 -0.17396724 1.2325716
-0.13327788 -0.16433993 1.2360001
-0.12746538 -0.16494621 1.2333335
-0.13464807 -0.15445776 1.2338948
-0.12852634 -0.15768778 1.2320001
-0.15386553 -0.14194636 1.2360001
-0.14438438 -0.1433008 1.2360001
-0.13846573 -0.14525865 1.2325716
-0.17011891 -0.13219431 1.2360001
-0.1641641 -0.1337142 1.234286
-0.15592568 -0.13835992 1.2330002
-0.14508717 -0.13932689 1.2320001
-0.17156367 -0.12497059 1.2360001
-0.16704826 -0.12636624 1.2320002
-0.17228603 -0.11702448 1.2360001
-0.16848832 -0.1155657 1.2320002
-0.17011891 -0.108356 1.2360001
-0.1666898 -0.10443476 1.2337779
-0.16730237 -0.095879979 1.2344
-0.17011891 -0.086684801 1.2360001
-0.16794831 -0.086404264 1.2320001
-0.17172848 -0.078843892 1.2320001
-0.16956837 -0.078843892 1.2320001
0.0043342402 -0.073682077 1.2360001
-0.11664575 0.018360907 1.2320001
0.0054002665 0.018360907 1.2320001
-0.11407436 0.02331082 1.2325716
-0.10457857 0.026878847 1.2334287
-0.095064633 0.025926758 1.2322502
-0.085980363 0.025777921 1.2341177
-0.075587697 0.026744846 1.2342857
-0.032401599 0.02916144 1.2320001
-0.011890231 0.02594495 1.233
-0.0051136767 0.02547179 1.2338184
0.0021629122 0.024877695 1.2336001
-0.10347997 0.031965021 1.2360001
-0.095507577 0.031836327 1.2352002
-0.035062913 0.034756828 1.2334288
-0.025256868 0.034674127 1.2336472
-0.015378892 0.035999171 1.2329233
-0.0056886906 0.032235913 1.2360001
0.0021671199 0.033590361 1.2360001
-0.042842116 0.047882363 1.2320001
-0.038510561 0.044353373 1.2340001
-0.02058764 0.040091719 1.2360001
-0.016253399 0.041536465 1.2360001
-0.061563041 0.050762508 1.2320001
-0.054153994 0.055153664 1.2335385
-0.04450991 0.053937487 1.2348237
-0.1220241 -0.22331066 1.245
-0.11532717 -0.22401471 1.2442727
-0.10506816 -0.22330555 1.2434616
-0.096067958 -0.22544721 1.2436666
-0.085947521 -0.22085249 1.2410001
-0.13206545 -0.21064985 1.245
-0.12333385 -0.21574329 1.245
-0.075238921 -0.21263637 1.2438571
-0.14079705 -0.20191824 1.245
-0.13488592 -0.20485492 1.2435454
-0.12690246 -0.20653857 1.2443334
-0.072457023 -0.20692682 1.2410001
-0.068540432 -0.20562129 1.2410001
-0.14253786 -0.19487937 1.2438571
-0.1456161 -0.18401498 1.2436668
-0.15171155 -0.17135765 1.245
-0.14465798 -0.1748715 1.2431819
-0.13729843 -0.17254782 1.2410001
-0.15340938 -0.16311114 1.245
-0.14540763 -0.16514255 1.2446525
-0.13723627 -0.1655228 1.2410001
-0.17135765 -0.15171155 1.245
-0.16433436 -0.15465166 1.2444999
-0.15524668 -0.15473592 1.2445294
-0.14499567 -0.15544978 1.2426002
-0.1381688 -0.15992767 1.2410001
-0.17394044 -0.144114 1.2447335
-0.16547576 -0.14479147 1.2417998
-0.15590926 -0.14666042 1.2414999
-0.14660035 -0.1476883 1.2410001
-0.17462707 -0.13555942 1.2431539
-0.16754326 -0.1381688 1.2410001
-0.1752667 -0.12617482 1.2443334
-0.17430219 -0.11452861 1.2442
-0.17260502 -0.10431144 1.245
-0.17135765 -0.099321947 1.245
0.0049027582 -0.071374252 1.243
0.0067669898 -0.067015029 1.245
-0.081595749 0.029374469 1.2410001
-0.077243976 0.028649174 1.2410001
-0.10134178 0.034872048 1.243
-0.094258465 0.036143657 1.243
-0.085041918 0.033801049 1.2436666
-0.07509844 0.034484446 1.2437502
-0.068540432 0.038078018 1.2410001
-0.031550355 0.038078018 1.2410001
-0.0047904579 0.036820877 1.2426001
0.00109145 0.038200751 1.245
-0.068033718 0.042566549 1.245
-0.032717198 0.044716138 1.244
-0.025069688 0.041859783 1.2434
-0.014607897 0.045784093 1.2434
-0.0072710733 0.041089658 1.2443334
0.0021829 0.041475099 1.245
-0.055485111 0.058748938 1.2410001
-0.042864967 0.059401702 1.2410001
-0.035958819 0.054485414 1.243
-0.052833818 0.063743308 1.2444285
-0.045355584 0.064990133 1.244059
-0.037473116 0.060757384 1.245
-0.13443351 -0.24392286 1.2590001
-0.13440421 -0.23481219 1.2566429
-0.12508483 -0.23513488 1.2552667
-0.11529427 -0.23389632 1.2543845
-0.10494075 -0.23529619 1.254167
-0.098259725 -0.2319514 1.25
-0.14017287 -0.22515956 1.2590001
-0.13384232 -0.22495335 1.2530001
-0.12618941 -0.2254888 1.25
-0.11469722 -0.22866388 1.25
-0.1052 -0.22902916 1.25
-0.097529165 -0.22902916 1.25
-0.14386012 -0.21492335 1.2581427
-0.13493678 -0.2152136 1.2525001
-0.12727322 -0.215253 1.25
-0.14519529 -0.20458592 1.2546667
-0.13643125 -0.20875625 1.25
-0.1282125 -0.20930417 1.25
-0.15234239 -0.19202453 1.2574002
-0.14740273 -0.19606826 1.2534286
-0.16003989 -0.18321806 1.2590001
-0.15459542 -0.18484902 1.2550833
-0.17218083 -0.17107712 1.2590001
-0.16397892 -0.17471996 1.2587334
-0.15592299 -0.17521343 1.2524999
-0.18211435 -0.16003989 1.2590001
-0.17529975 -0.16470824 1.2584002
-0.16485366 -0.16485682 1.2536252
-0.15676773 -0.16663374 1.2505
-0.18376696 -0.15360944 1.2585555
-0.17558716 -0.15503757 1.2531766
-0.16875833 -0.1578 1.25
-0.18444251 -0.14509736 1.2565714
-0.17862083 -0.14684168 1.25
-0.18313709 -0.1356715 1.2563636
-0.17862083 -0.13259584 1.25
-0.18238582 -0.12538818 1.2583333
-0.17862083 -0.124925 1.25
-0.18211435 -0.11478723 1.2590001
-0.17815621 -0.11446855 1.2525001
-0.18211435 -0.10926861 1.2590001
-0.17820828 -0.10449918 1.2548001
-0.17413332 -0.095299169 1.2520909
-0.175492 -0.089401588 1.2590001
0.0010958334 -0.071229167 1.25
0.0056447312 -0.063207552 1.2524287
0.012078275 -0.061487209 1.2525001
0.0072796643 -0.058018677 1.2582
0.01322364 -0.057300687 1.2570001
-0.10511526 0.035525456 1.2533334
-0.099720836 0.038354166 1.25
-0.085474998 0.038354166 1.25
-0.077804171 0.038354166 1.25
-0.10083113 0.04242672 1.2570001
-0.09454377 0.045081355 1.2540001
-0.085008509 0.045356326 1.2536957
-0.075243026 0.044775501 1.2538184
-0.067376092 0.047902565 1.2539999
-0.031779166 0.049312498 1.25
-0.025524464 0.047291465 1.2503573
-0.016437501 0.049312498 1.25
-0.0049056425 0.046123739 1.2510529
0.0018313568 0.046176955 1.2540001
-0.091609038 0.052978717 1.2590001
-0.087194145 0.053199463 1.2590001
-0.063668445 0.054405935 1.2564001
-0.032821398 0.0554424 1.2539999
-0.025757663 0.053219806 1.2575455
-0.015120986 0.053767964 1.2562727
-0.005509411 0.052640986 1.2575001
0.0011037233 0.051874995 1.2590001
-0.060640495 0.062843271 1.2576667
-0.056365434 0.065944225 1.2517272
-0.041276388 0.068306945 1.25
-0.035550002 0.064693175 1.2543334
-0.053886786 0.074078172 1.2543637
-0.04502169 0.074679069 1.25265
-0.03801709 0.073281884 1.2570001
-0.052978717 0.0805718 1.2590001
-0.046326924 0.082286552 1.2581999
-0.14244531 -0.24407853 1.268
-0.13443285 -0.24457024 1.2654544
-0.1245969 -0.24406858 1.26475
-0.11530506 -0.24280451 1.2646667
-0.10600886 -0.24193662 1.2640001
-0.1427301 -0.23440211 1.266
-0.13851333 -0.23824294 1.2640001
-0.11413498 -0.23824294 1.2640001
-0.15229103 -0.22195213 1.268
-0.14564736 -0.22475542 1.265
-0.15325853 -0.21433833 1.2667999
-0.14915116 -0.21563753 1.2640001
-0.1526396 -0.20374295 1.2672001
-0.1495944 -0.20832404 1.2640001
-0.16229555 -0.19119748 1.268
-0.15559736 -0.19553657 1.2655001
-0.17081791 -0.1834162 1.268
-0.16506255 -0.18470539 1.2648572
-0.15845925 -0.18948624 1.2640001
-0.18378323 -0.17291957 1.2671111
-0.17533764 -0.1755092 1.2652308
-0.16843222 -0.17729706 1.2640001
-0.19082695 -0.16192502 1.268
-0.18463126 -0.1654533 1.2654285
-0.19263244 -0.15530606 1.2672001
-0.18821983 -0.15624304 1.2640001
-0.19268431 -0.14573908 1.2662858
-0.18948624 -0.14460793 1.2640001
-0.19141981 -0.13450521 1.268
-0.18837814 -0.13518901 1.2640001
-0.19008587 -0.12672392 1.268
-0.18654843 -0.12489811 1.2657777
-0.18594 -0.11492299 1.2657143
-0.18403839 -0.1047797 1.2657144
-0.18146299 -0.097111873 1.266
-0.17859335 -0.092067532 1.2653333
0.0011081067 -0.060945865 1.2640001
0.0066574072 -0.055492412 1.266
0.014269435 -0.052205637 1.2670767
0.016269978 -0.04537404 1.2679999
0.018008137 -0.03712789 1.268
-0.14228651 -0.015562586 1.268
-0.13005877 0.0055580665 1.268
-0.12709445 0.0070402175 1.268
-0.12505649 0.01167194 1.268
-0.11227295 0.033348396 1.268
-0.10748634 0.03656752 1.2640001
-0.10324228 0.045512524 1.2662858
-0.10226843 0.051134214 1.268
-0.095180102 0.055574186 1.2658463
-0.084253177 0.05590678 1.2645714
-0.075107858 0.055666056 1.2654119
-0.067193352 0.056107372 1.2648
-0.024993962 0.057744667 1.2640001
-0.015149382 0.058391258 1.2646667
-0.0055471957 0.057048906 1.266
0.0011081067 0.054297227 1.2640001
-0.091152295 0.061138734 1.268
-0.08448261 0.061138734 1.268
-0.075033903 0.061138734 1.268
-0.064677402 0.063286133 1.2665
-0.033243202 0.067594506 1.2640001
-0.025501883 0.064312972 1.2648
-0.01520862 0.064171992 1.2658823
-0.0035042388 0.06452617 1.2673844
-0.061138734 0.071143255 1.268
-0.057311788 0.076542355 1.2653333
-0.034215819 0.074188642 1.2665454
-0.024455493 0.070031643 1.268
-0.015562586 0.070031643 1.268
-0.0033348401 0.070772715 1.268
-0.053644404 0.084349953 1.266
-0.044693634 0.086432315 1.2640001
-0.038412727 0.083711848 1.2664001
-0.050763678 0.090781756 1.268
-0.044835072 0.091893367 1.268
-0.1526794 -0.24450864 1.2774444
-0.14740872 -0.24456327 1.2738333
-0.15362948 -0.23464398 1.2775832
-0.14766343 -0.2364279 1.2736249
-0.16133471 -0.22519638 1.278
-0.15514 -0.22630808 1.2745383
-0.16021433 -0.21399258 1.2780001
-0.15799324 -0.21634395 1.2729999
-0.16077453 -0.20334898 1.2780001
-0.15666382 -0.20616922 1.2751428
-0.17141815 -0.19158497 1.2780001
-0.16496538 -0.19403389 1.2751428
-0.15847152 -0.19864741 1.273
-0.19248128 -0.18217379 1.2780001
-0.18575901 -0.18351826 1.278
-0.1754625 -0.18521728 1.2748181
-0.19348496 -0.17435178 1.2770909
-0.18618503 -0.17753059 1.2736249
-0.17967546 -0.17967546 1.273
-0.19536723 -0.16565098 1.2755001
-0.20054802 -0.15797357 1.2780001
-0.19680333 -0.15486799 1.2754999
-0.19733705 -0.14396532 1.2758571
-0.19572753 -0.13483232 1.2757777
-0.19365537 -0.12508582 1.2752222
-0.19233155 -0.1161808 1.277375
-0.18860345 -0.11345965 1.273
-0.18845335 -0.10439539 1.275
-0.18515167 -0.095650576 1.276125
-0.18150157 -0.087389641 1.2780001
-0.17817572 -0.086571924 1.27425
0.0037573932 -0.053358719 1.2752726
0.0066987202 -0.044661239 1.2736249
0.012275963 -0.04352387 1.2729999
-0.1568532 -0.030250261 1.2780001
0.0070855119 -0.038415242 1.2763335
0.01366366 -0.035667855 1.2745383
-0.15461245 -0.0280095 1.2780001
-0.14901054 -0.02128722 1.2780001
-0.15189151 -0.014885048 1.278
-0.14620258 -0.013324322 1.2745383
-0.1438987 -0.0044776849 1.277375
-0.13780674 -0.00224076 1.2780001
-0.14208454 0.0041759619 1.278
-0.13484959 0.0050219852 1.2729999
-0.1406077 0.01176399 1.2780001
-0.13403361 0.013754744 1.2759411
-0.12640138 0.015536048 1.273909
-0.12473562 0.022781059 1.278
-0.11913374 0.027262582 1.2780001
-0.11512529 0.034009609 1.2768461
-0.10825168 0.039059885 1.273
-0.112038 0.042574439 1.2780001
-0.10772026 0.045473725 1.2754999
-0.10395426 0.053425293 1.275
-0.098207712 0.059147824 1.273
-0.0011159966 0.056915831 1.273
0.0011159966 0.058031827 1.273
-0.1027711 0.065152638 1.2770001
-0.095629059 0.065092601 1.2762352
-0.084826179 0.06557931 1.2765
-0.074948572 0.065554909 1.2760001
-0.066448882 0.06734167 1.276
-0.01004397 0.065843813 1.273
-0.0072539784 0.065843806 1.273
-0.063034378 0.072726808 1.2763335
-0.059263982 0.078275375 1.2755001
-0.031779416 0.077454753 1.2751428
-0.024696017 0.074704744 1.2752726
-0.014678964 0.074593991 1.275
-0.0063327476 0.07338167 1.2746667
-0.055799834 0.085931741 1.273
-0.034684535 0.084665835 1.2763333
-0.051679153 0.095086768 1.276
-0.044399261 0.096826956 1.2748181
-0.038187224 0.093475834 1.2758571
-0.16426717 -0.24339116 1.2863334
-0.15771583 -0.24485226 1.2837143
-0.17050114 -0.23147507 1.2880001
-0.16449843 -0.23491396 1.2851877
-0.15802924 -0.23788744 1.2830001
-0.17050114 -0.22808763 1.2880001
-0.16650125 -0.22507572 1.2850001
-0.16541216 -0.21480496 1.2847859
-0.16461216 -0.20578648 1.2852727
-0.19276285 -0.19179878 1.2858572
-0.1850213 -0.19260941 1.2861819
-0.17485005 -0.19431762 1.2852728
-0.16775301 -0.19758993 1.28425
-0.20287001 -0.18254538 1.2880001
-0.19608611 -0.1852427 1.2834547
-0.18446119 -0.18783547 1.2830001
-0.20327209 -0.17521955 1.2857778
-0.19863319 -0.17613794 1.2830001
-0.20261607 -0.16546819 1.2840002
-0.20295811 -0.15499267 1.2851429
-0.20223208 -0.14584343 1.2863334
-0.20211725 -0.1354976 1.2880001
-0.1990831 -0.13272208 1.2830001
-0.1988505 -0.1248011 1.2863334
-0.19633944 -0.11412504 1.2846667
-0.19364987 -0.10570133 1.2861251
-0.19033194 -0.095726155 1.2846667
-0.1874561 -0.092881732 1.28425
-0.18407388 -0.086290121 1.2850001
-0.16180287 -0.031157902 1.2846667
0.0067595383 -0.034935605 1.2855
0.013301137 -0.031341184 1.286
-0.16115457 -0.027044728 1.2855
-0.1560455 -0.023635967 1.2839092
-0.15557469 -0.014345663 1.283625
-0.15362434 -0.0050729411 1.2861251
-0.14959352 -0.0033742897 1.2830001
-0.15092927 0.00338744 1.2880001
-0.1474397 0.004504167 1.2838334
-0.14420459 0.014647127 1.2850834
-0.13609636 0.019120976 1.2830001
-0.13507719 0.024033207 1.2864617
-0.12690431 0.026381629 1.2835556
-0.12552027 0.035239786 1.2858263
-0.11753777 0.037679572 1.2830001
-0.12528835 0.045149215 1.2875001
-0.1155524 0.045771059 1.2838334
-0.12210914 0.053069893 1.2880001
-0.11510743 0.055298161 1.2872502
-0.10685251 0.056613084 1.2830001
-0.11178552 0.062103067 1.2880001
-0.10630942 0.06348367 1.2855
-0.093355358 0.068610564 1.2830001
-0.086606771 0.068610564 1.2830001
-0.073109619 0.068610564 1.2830001
-0.093355358 0.072145529 1.2830001
-0.084946029 0.07456737 1.2843891
-0.075019486 0.074148566 1.2857779
-0.066479377 0.075086027 1.2852727
-0.024519842 0.079408295 1.2830001
-0.01349716 0.07910835 1.2830001
-0.006186198 0.078171052 1.2830001
-0.084686004 0.08016941 1.2880001
-0.077911116 0.08016941 1.2880001
-0.062103067 0.08016941 1.2880001
-0.058264729 0.086079024 1.2863334
-0.031493373 0.086606771 1.2830001
-0.024817117 0.085735157 1.2867501
-0.016053453 0.084785864 1.2868463
-0.0056457333 0.08129856 1.2880001
-0.054299504 0.096205577 1.2850001
-0.033231292 0.094633907 1.2850834
-0.027475903 0.092213638 1.2880001
-0.052814487 0.10468948 1.2863334
-0.044905752 0.1056669 1.2862355
-0.037574541 0.10439879 1.2868462
-0.046295013 0.11178552 1.2880001
-0.17556126 -0.24125516 1.2920001
-0.17363422 -0.23377585 1.2945
-0.17286342 -0.22508931 1.295125
-0.17221436 -0.21533629 1.2945
-0.17380005 -0.20361876 1.29575
-0.16876535 -0.2061429 1.2920001
-0.20239252 -0.19215919 1.2970001
-0.19708622 -0.1959521 1.2945
-0.18214151 -0.19746521 1.2945001
-0.17703801 -0.19859788 1.2945001
-0.20520127 -0.18627891 1.2947778
-0.21107897 -0.17249863 1.2945001
-0.20834212 -0.17479277 1.293
-0.21100152 -0.1651952 1.2970001
-0.20727555 -0.16536739 1.2920001
-0.21035178 -0.15804809 1.2970001
-0.20729907 -0.15471427 1.2945
-0.2067631 -0.14481482 1.2948571
-0.20627074 -0.1346568 1.2947272
-0.20313872 -0.12483221 1.2945
-0.20172034 -0.11518567 1.2945
-0.20125549 -0.10801848 1.2970001
-0.19771492 -0.10509363 1.2936667
-0.19398528 -0.09597151 1.294
-0.19215919 -0.089825898 1.2970001
-0.18637377 -0.084048852 1.2936666
-0.18154685 -0.075802445 1.2970001
-0.17760214 -0.073194213 1.2945001
-0.17624068 -0.063674055 1.2970001
-0.17169254 -0.052303687 1.2970001
-0.16795924 -0.051068023 1.2945001
-0.17169254 -0.048892576 1.2970001
-0.16746926 -0.046293635 1.2970001
-0.16623476 -0.035248138 1.2970001
0.0068145497 -0.031805247 1.29575
0.01019388 -0.03058164 1.2920001
-0.16427557 -0.024811672 1.2948571
0.00682222 -0.028425917 1.2970001
0.014536974 -0.025891561 1.2955
-0.16211276 -0.015527081 1.2961667
-0.15970412 -0.016989799 1.2920001
-0.16032217 -0.0041691344 1.2970001
-0.15756068 -0.0038518985 1.293
-0.16032217 0.0079592569 1.2970001
-0.15533794 0.0051082638 1.2949166
-0.15336542 0.013545849 1.2958462
-0.14795482 0.017574755 1.2932501
-0.14471635 0.024367828 1.295077
-0.13705106 0.028316334 1.2920001
-0.14212959 0.030699991 1.2970001
-0.13592793 0.034532364 1.2952355
-0.13344942 0.04347536 1.2936667
-0.12572452 0.053234708 1.2920001
-0.083005764 0.083291113 1.292625
-0.074551418 0.083009176 1.2938181
-0.06472186 0.084190123 1.2952144
-0.01247672 0.087707281 1.2936667
-0.0054459414 0.08693175 1.2945
-0.060262945 0.094374053 1.2970001
-0.057877094 0.095331363 1.2945
-0.03058164 0.098540843 1.2920001
-0.024650512 0.095414408 1.2942727
-0.01703551 0.093298003 1.2955714
-0.056744441 0.10610253 1.2945001
-0.032430269 0.10523428 1.2934999
-0.02728888 0.1023333 1.2970001
-0.052202873 0.11348669 1.2945001
-0.045082711 0.11578988 1.2948571
-0.037800409 0.11340997 1.2936667
-0.045481466 0.12166292 1.2970001
-0.18427396 -0.23365082 1.3055716
-0.17863223 -0.23456182 1.302
-0.18218273 -0.22801486 1.307
-0.17808762 -0.22555794 1.3031112
-0.17661212 -0.21437538 1.3053335
-0.21311942 -0.20051558 1.307
-0.20573042 -0.20229594 1.3061668
-0.18298006 -0.20241927 1.3045001
-0.1775285 -0.20686293 1.3036667
-0.21419619 -0.19529556 1.3065834
-0.20595361 -0.19632182 1.3030714
-0.1940414 -0.1997485 1.302
-0.18719289 -0.1997485 1.302
-0.21286771 -0.18544833 1.3031112
-0.20887986 -0.1883343 1.302
-0.21396263 -0.1770348 1.3028334
-0.21639098 -0.16481411 1.3047274
-0.21435402 -0.15506655 1.3043078
-0.2131971 -0.14500426 1.3042728
-0.21385832 -0.13494618 1.3045
-0.21298428 -0.12710162 1.3061668
-0.2083246 -0.12459067 1.3038751
-0.20617148 -0.11475892 1.3034286
-0.20394261 -0.10597103 1.3045001
-0.1997485 -0.10158638 1.302
-0.20051558 -0.099684887 1.307
-0.19651382 -0.093687393 1.3032501
-0.19288787 -0.085345432 1.3050001
-0.1883343 -0.081040822 1.302
-0.19134915 -0.079060428 1.307
-0.18625684 -0.075905554 1.3034286
-0.18210001 -0.065905169 1.3036667
-0.17730056 -0.063539051 1.302
-0.18218273 -0.058435969 1.307
-0.17426792 -0.055802867 1.303154
-0.16778874 -0.054788157 1.302
-0.17383203 -0.045744903 1.3045001
-0.170507 -0.037760373 1.3053335
-0.1668084 -0.036561601 1.3032501
0.0034242601 -0.030818339 1.302
-0.1713797 -0.024429925 1.3061668
-0.16778874 -0.02396982 1.302
0.0054867063 -0.02446058 1.3040001
0.013213496 -0.023329478 1.3027143
-0.17099778 -0.015646892 1.3061668
-0.16624564 -0.013808776 1.3029091
0.0057290173 -0.019478656 1.307
0.015553459 -0.016496029 1.3058234
-0.170507 -0.0057246336 1.3053335
-0.16553028 -0.0048817582 1.3038182
-0.16284071 0.0037547632 1.304143
-0.16094021 0.01369704 1.302
-0.15743995 0.017131945 1.3027143
-0.1550777 0.023558401 1.3045001
-0.14876507 0.027774552 1.302
-0.14391316 0.033881854 1.3028334
-0.13811181 0.038808279 1.302
-0.14039466 0.043373957 1.302
-0.13735087 0.042993486 1.302
-0.082182243 0.087889336 1.302
-0.075333714 0.087889336 1.302
-0.066773072 0.087318629 1.302
-0.00114142 0.085606501 1.302
-0.074729152 0.091907442 1.3063751
-0.065823883 0.094413929 1.3045
-0.0228284 0.099303536 1.302
-0.013894583 0.096321844 1.3028334
-0.0045755426 0.09386602 1.3057501
-0.061610132 0.10475188 1.3048573
-0.058212418 0.10615206 1.302
-0.024379516 0.10590892 1.3036667
-0.016340986 0.10398884 1.3060911
-0.060727578 0.11458033 1.307
-0.055333268 0.1161436 1.3040001
-0.049081061 0.1198491 1.302
-0.034463156 0.11577458 1.3032501
-0.026898984 0.11160953 1.3057501
-0.052944094 0.12477422 1.30575
-0.045356687 0.12631826 1.3043333
-0.037750144 0.12241159 1.3050001
-0.051561151 0.13176738 1.307
-0.046977937 0.13314235 1.307
-0.19204347 -0.23283827 1.317
-0.18765905 -0.23255797 1.3132501
-0.19050404 -0.22975942 1.317
-0.18461277 -0.2254039 1.3145001
-0.1805793 -0.21508491 1.312
-0.1928132 -0.20435889 1.317
-0.18495563 -0.20627792 1.3145001
-0.21853547 -0.19438155 1.312
-0.21821372 -0.18242206 1.317
-0.22226803 -0.1646827 1.3136667
-0.22230615 -0.15499569 1.3161668
-0.21911056 -0.15412501 1.312
-0.22283199 -0.14531088 1.317
-0.21853547 -0.14377333 1.312
-0.21968566 -0.13802239 1.312
-0.21601622 -0.12530547 1.3153334
-0.21146251 -0.1169675 1.3145001
-0.20570062 -0.10198439 1.3145
-0.20235816 -0.095292963 1.316
-0.1989823 -0.092014939 1.312
-0.19652341 -0.085015275 1.3140001
-0.19270861 -0.075005092 1.3162858
-0.1882472 -0.072461762 1.312
-0.19050404 -0.06811963 1.317
-0.18657295 -0.065043651 1.3148571
-0.18285225 -0.055465318 1.3141431
-0.17827894 -0.054058772 1.312
-0.18150069 -0.047822602 1.3145
-0.17670865 -0.042159952 1.3140001
-0.1744727 -0.034109961 1.3145001
-0.17565887 -0.026135186 1.3153332
-0.17565349 -0.015193859 1.3130002
0.005967231 -0.014132664 1.3138185
0.013514694 -0.011501867 1.3120002
-0.17400913 -0.0069120787 1.3145001
0.001731855 -0.0051955651 1.317
0.015429158 -0.0056031272 1.3136668
-0.16447669 0.0034505599 1.312
-0.15689388 0.02787835 1.314
-0.15281603 0.033135746 1.3162858
-0.14675821 0.036171965 1.314
-0.082813442 0.090864748 1.312
-0.075858489 0.096143857 1.3149999
-0.01035168 0.097765863 1.312
-0.0057509332 0.097765863 1.312
-0.070939213 0.10208411 1.3157501
-0.066292986 0.10405584 1.3151251
-0.013176399 0.10658912 1.3136668
-0.0059406981 0.10420667 1.3150771
-0.060959894 0.11501867 1.312
-0.05865952 0.11846922 1.312
-0.031055041 0.11846922 1.312
-0.025496194 0.11569721 1.3153335
-0.016630618 0.1128007 1.3148572
-0.060959894 0.1207696 1.312
-0.056359142 0.12613714 1.3120002
-0.040256534 0.12997109 1.312
-0.035072427 0.12465499 1.3148572
-0.053918604 0.13588303 1.3147779
-0.044717751 0.13628544 1.3131541
-0.038100809 0.13046642 1.317
-0.04849194 0.1420121 1.317
-0.19509047 -0.23140435 1.322
-0.19369599 -0.22679718 1.325
-0.18817739 -0.22302137 1.325
-0.18614702 -0.21489029 1.325
-0.20165788 -0.20629369 1.322
-0.19513811 -0.20676446 1.325
-0.18775044 -0.20861159 1.322
-0.22327779 -0.18373661 1.3265001
-0.22251904 -0.17963776 1.322
-0.2283138 -0.16109452 1.322
-0.22762902 -0.15488674 1.324
-0.22711395 -0.14818238 1.324
-0.22003631 -0.1222424 1.3280001
-0.21788323 -0.12284905 1.322
-0.21660738 -0.1181846 1.3260001
-0.20594959 -0.095145948 1.3235
-0.20188171 -0.0852459 1.3260001
-0.19818102 -0.082285687 1.322
-0.20140891 -0.071017012 1.3280001
-0.19709317 -0.074119054 1.3233333
-0.19429311 -0.065967023 1.3253334
-0.1889094 -0.061424527 1.322
-0.19209521 -0.05937488 1.3280001
-0.18722443 -0.054981727 1.3232
-0.18391912 -0.043364901 1.325
-0.17963776 -0.040563367 1.322
-0.18308201 -0.035590209 1.3268001
-0.17963776 -0.0347686 1.322
-0.18161726 -0.026776906 1.3280001
-0.17963776 -0.025496973 1.322
-0.18195567 -0.019702207 1.322
-0.17963776 -0.019702207 1.322
0.0023179066 -0.011589533 1.322
0.0062704459 -0.0051083365 1.325
0.012180844 -0.001739745 1.3235
0.01397056 0.0034926401 1.3280001
-0.15472028 0.036507029 1.322
-0.14950497 0.038245458 1.322
-0.14718707 0.040563367 1.322
-0.081494935 0.095465496 1.3280001
-0.077649876 0.098511033 1.322
-0.074808598 0.10477587 1.325
-0.068378247 0.10778266 1.322
-0.071017012 0.11060026 1.3280001
-0.066233166 0.11271153 1.3254286
-0.022792747 0.11859956 1.322
-0.014186625 0.11664196 1.3233848
-0.0059931851 0.1146335 1.3230003
-0.061703306 0.12689926 1.3280001
-0.059106618 0.12632592 1.322
-0.03227571 0.12702093 1.3244001
-0.025843324 0.1247583 1.326154
-0.016601197 0.12425875 1.3269092
-0.062168993 0.1348159 1.3280001
-0.058750343 0.13538222 1.3244001
-0.040563367 0.13791545 1.322
-0.036810648 0.13407272 1.3260001
-0.061703306 0.14086981 1.3280001
-0.055738896 0.14398243 1.3245001
-0.045054678 0.14484127 1.3235
-0.038419038 0.14086981 1.3280001
-0.053320967 0.15204625 1.3280001
-0.20057958 -0.22521216 1.3380001
-0.19566128 -0.22321939 1.3346667
-0.20158498 -0.21532562 1.3380002
-0.19461232 -0.21568798 1.3356668
-0.20292553 -0.20996343 1.3380001
-0.19749284 -0.20917881 1.3330001
-0.23371933 -0.16009775 1.3330001
-0.2339385 -0.15439612 1.3342501
-0.234596 -0.14896846 1.3380001
-0.21277857 -0.09688814 1.3380001
-0.20937496 -0.09357211 1.33425
-0.20707428 -0.085028604 1.3360002
-0.20427622 -0.076456733 1.3358573
-0.20156299 -0.065622225 1.33675
-0.19767803 -0.063746601 1.3342501
-0.19365524 -0.055957194 1.3367501
-0.18884978 -0.05043814 1.3380001
-0.18867335 -0.044528313 1.33675
-0.18754569 -0.034632213 1.3358573
-0.18615754 -0.027514622 1.3355
0.0065201456 0.0031787937 1.335143
0.010992698 0.005381682 1.3340001
0.01290278 0.011729799 1.3380001
-0.08195737 0.098344028 1.3355
-0.080834806 0.1042681 1.3363334
-0.078295976 0.10634229 1.3330001
-0.073319837 0.11314155 1.3360001
-0.069205821 0.11612502 1.3380001
-0.064433537 0.12769264 1.3363334
-0.024540531 0.12971424 1.3330001
-0.013378324 0.12691075 1.3335557
-0.0072452994 0.12503985 1.3330001
-0.066258162 0.13524404 1.3363335
-0.033972587 0.13589619 1.3363334
-0.025784738 0.13242291 1.33675
-0.013855789 0.1337081 1.3359169
-0.0070378799 0.13254672 1.3380002
-0.063903563 0.14348386 1.335
-0.058541607 0.14869012 1.3355
-0.040900882 0.14607458 1.3330001
-0.037878137 0.14409681 1.3363334
-0.054427773 0.15488647 1.3350835
-0.048002321 0.15454844 1.3355
-0.0527841 0.16128474 1.3380001
-0.20289893 -0.22173674 1.3430001
-0.21781221 -0.10007589 1.3430001
-0.22193898 -0.092638828 1.3490001
-0.21667486 -0.093983635 1.3456669
-0.22115056 -0.087514125 1.3490001
-0.2144375 -0.085195981 1.3446366
-0.21153294 -0.078098439 1.3430001
-0.20839331 -0.075351253 1.3430001
-0.20132913 -0.060045529 1.3430001
-0.20132913 -0.057690803 1.3430001
-0.19745953 -0.054125775 1.3464288
-0.19312733 -0.04405221 1.3460001
-0.19276761 -0.03902657 1.3490001
0.00706418 0.0082415435 1.3430001
0.0070957402 0.011826233 1.3490001
0.011568668 0.01440486 1.3466001
-0.087514117 0.09697511 1.3490001
-0.084144093 0.10404367 1.3464286
-0.078883342 0.10949479 1.3430001
-0.075076275 0.11594063 1.3450001
-0.067109711 0.11891369 1.3430001
-0.067704782 0.12455259 1.3454001
-0.072821483 0.13540408 1.3470001
-0.069567889 0.13402158 1.3450001
-0.031788811 0.1377515 1.3430001
-0.024766712 0.13682032 1.3454001
-0.016483087 0.1377515 1.3430001
-0.0082415435 0.1377515 1.3430001
-0.072928436 0.14152057 1.3490001
-0.067517795 0.1456496 1.3452501
-0.033941906 0.14374571 1.3467501
-0.025623506 0.14112638 1.3490001
-0.013966323 0.14297716 1.3460002
-0.0082599539 0.14160183 1.3460001
-0.062913261 0.15550284 1.3455001
-0.044991408 0.1552027 1.3455715
-0.01419148 0.15019317 1.3490001
-0.062340166 0.16491336 1.3462728
-0.054610342 0.16599919 1.3445002
-0.047842331 0.16361319 1.3475001
-0.060313791 0.17148039 1.3490001
-0.055583298 0.17148037 1.3490001
-0.22197025 -0.096147537 1.3540001
-0.20316553 -0.054058116 1.3552501
-0.19823012 -0.051041286 1.3540001
-0.20134491 -0.04884699 1.3590001
-0.1975733 -0.046834689 1.3560002
0.0075177089 0.016222425 1.3540001
0.01068306 0.017805099 1.3540001
-0.089354247 0.09411981 1.3590001
-0.088075899 0.10469399 1.3540001
-0.084277473 0.11039162 1.3540001
-0.07813964 0.11621737 1.3573335
-0.073198743 0.12859239 1.3540001
-0.076319799 0.13528123 1.3560002
-0.075241409 0.14555459 1.356143
-0.033236187 0.14837584 1.3540001
-0.024104111 0.14603345 1.3562728
-0.014837584 0.14778233 1.3540001
-0.071086265 0.1548807 1.3590001
-0.067721844 0.15445442 1.3552501
-0.041545235 0.15193686 1.3540001
-0.038124479 0.1548807 1.3590001
-0.023827801 0.15130652 1.3590001
-0.016083764 0.15309361 1.3590001
-0.07066337 0.16440639 1.3570001
-0.067184582 0.16499393 1.3540001
-0.044931974 0.16523764 1.3560002
-0.039315868 0.16083765 1.3590001
-0.070292011 0.17156017 1.3590001
-0.064275891 0.17378405 1.3577502
-0.054305267 0.17521076 1.3565001
-0.20462714 -0.051455949 1.365
-0.20462716 -0.047866002 1.365
-0.094296023 0.096449994 1.3649999
-0.089748748 0.092142053 1.365
-0.094003506 0.10437448 1.3649999
-0.089748748 0.10889515 1.365
-0.085514441 0.11533865 1.3649999
-0.080654211 0.1237336 1.365
-0.075867623 0.1244516 1.3649999
-0.081201248 0.13453765 1.3649999
-0.077782251 0.13163149 1.365
-0.080859356 0.14479463 1.3649999
-0.076585606 0.1483846 1.365
-0.02273635 0.14958125 1.365
-0.081771083 0.15516561 1.3649999
-0.075867616 0.15556449 1.3649999
-0.034702849 0.15476674 1.3649999
-0.025428813 0.15347035 1.3649999
-0.081201248 0.16462484 1.3649999
-0.075606532 0.16502891 1.3649999
-0.04188275 0.16633435 1.365
-0.039489448 0.16394106 1.365
-0.081201248 0.17522375 1.3649999
-0.074705161 0.17505278 1.3649999
-0.066414073 0.17770253 1.365
-0.055045899 0.17830084 1.365
