# .PCD v0.7 - Point Cloud Data file format
VERSION 0.7
FIELDS x y z
SIZE 4 4 4
TYPE F F F
COUNT 1 1 1
WIDTH 1425
HEIGHT 1
VIEWPOINT 0 0 0 1 0 0 0
POINTS 1425
DATA ascii
0.014674718 -0.15735826 1.2247778
0.024700083 -0.15893792 1.2250001
-0.12213574 -0.14863855 1.2256668
-0.1167411 -0.14411283 1.2245002
0.0084446799 -0.14569585 1.2258574
-0.1121055 -0.13645931 1.2256669
-0.10524208 -0.13209 1.2250001
0.0096494695 -0.13616474 1.223
-0.10003731 -0.12800473 1.2270001
-0.09554597 -0.12689383 1.2246001
-0.086939909 -0.12200131 1.2243334
-0.052107137 -0.12201218 1.223
-0.045069434 -0.12232567 1.224
-0.035409443 -0.12205763 1.224
-0.027876247 -0.12115446 1.223
-0.012329878 -0.12276269 1.223
-0.0096494695 -0.12544312 1.223
0.008585196 -0.12554742 1.2240001
-0.082223006 -0.11876422 1.2260001
-0.075234659 -0.1160768 1.2260001
-0.064353965 -0.11319908 1.2264287
-0.054799709 -0.11497466 1.2257198
-0.045331806 -0.11663336 1.2270001
-0.037289895 -0.11868226 1.2270001
-0.022589071 -0.11939937 1.2270001
-0.014927394 -0.11763961 1.2261111
-0.0051198881 -0.1160995 1.2255882
0.0034010282 -0.11580137 1.2250001
-0.053568363 -0.1082124 1.2270001
-0.00107567 -0.10864267 1.2270001
-0.19374956 -0.3431195 1.2346668
-0.18727265 -0.34292573 1.2330002
-0.17551918 -0.34635231 1.2333335
-0.20154217 -0.33265293 1.2360001
-0.19620185 -0.3355743 1.2324002
-0.20346081 -0.32445383 1.2354287
-0.19899982 -0.3259061 1.2320002
-0.20446378 -0.31516632 1.2340001
-0.20318358 -0.30603528 1.2350001
-0.19908983 -0.30349496 1.2320001
-0.2004586 -0.297979 1.2360001
-0.19473596 -0.29494762 1.2336003
-0.18900934 -0.29053435 1.2320001
-0.19324502 -0.2857495 1.2356001
-0.18900934 -0.28513408 1.2320001
-0.20315123 -0.27432451 1.2354287
-0.19700104 -0.27503371 1.2324446
-0.18900934 -0.27973381 1.2320001
-0.21523441 -0.26251706 1.2360001
-0.20555577 -0.26528794 1.2332501
-0.19980986 -0.26893327 1.2320001
-0.22321334 -0.25517836 1.2360001
-0.21567079 -0.25472686 1.2346089
-0.20845029 -0.25489259 1.2320001
-0.21411937 -0.24549276 1.2342224
-0.20845029 -0.24517211 1.2320001
-0.21238932 -0.23576899 1.2348001
-0.20791027 -0.23167142 1.2320001
-0.20437732 -0.22559264 1.2348001
-0.19818978 -0.22303101 1.2320001
-0.19429424 -0.21787445 1.2340002
-0.18734762 -0.2135687 1.2335001
-0.18617134 -0.20509638 1.2337501
-0.18374805 -0.19732715 1.2349092
-0.1770025 -0.19375473 1.2330002
-0.17318256 -0.18797369 1.2346667
-0.165427 -0.18344581 1.2333336
-0.15876783 -0.1803689 1.2320001
-0.16145045 -0.1787874 1.2360001
-0.15432586 -0.17478374 1.2341819
-0.14820752 -0.17092369 1.2340001
0.033481654 -0.17172848 1.2320001
-0.14475037 -0.16612265 1.2345001
-0.13860685 -0.16164799 1.2320001
0.02916144 -0.16092795 1.2320001
0.03350782 -0.16470464 1.2329234
-0.13552438 -0.15461658 1.2349092
-0.12744629 -0.15012741 1.2320001
0.015723083 -0.15297458 1.2335387
0.024136916 -0.1550955 1.2346001
0.032506801 -0.15819976 1.2360001
-0.12467175 -0.14582863 1.2342223
-0.11916589 -0.14220703 1.2320001
0.0097204801 -0.14580721 1.2320001
0.014074708 -0.14613858 1.2348001
0.02058764 -0.14844772 1.2360001
-0.12027516 -0.13977924 1.2360001
-0.11539213 -0.1370271 1.2340001
-0.107041 -0.13154791 1.2333335
0.0097204801 -0.13932689 1.2320001
0.01191916 -0.13761212 1.2360001
-0.10282715 -0.12808217 1.2346667
-0.095022142 -0.12406838 1.2337143
-0.089789957 -0.1211606 1.2340001
0.0097204801 -0.12420613 1.2320001
0.01191916 -0.12027516 1.2360001
-0.085416555 -0.11857326 1.2333335
-0.074646413 -0.11467151 1.2340001
-0.064803198 -0.11124549 1.2320001
-0.045002222 -0.11196553 1.2320002
-0.036290996 -0.11474513 1.233143
-0.023906507 -0.11737086 1.2333335
-0.015732465 -0.11396667 1.2328891
-0.006639122 -0.11222285 1.2325716
0.0077503179 -0.11442837 1.2333335
0.01191916 -0.11810804 1.2360001
-0.063794456 -0.10920345 1.2333335
-0.054797217 -0.10544576 1.2336668
-0.045074109 -0.10577334 1.2340001
-0.037892163 -0.10880923 1.2350001
-0.016200799 -0.10908539 1.2320001
-0.0041143717 -0.10695018 1.2348001
0.0043317354 -0.10686215 1.2348573
-0.20366399 -0.34089211 1.2423334
-0.21337847 -0.33343795 1.245
-0.20578581 -0.33535862 1.2420001
-0.21396515 -0.32467923 1.2437693
-0.20828071 -0.32602036 1.2410001
-0.21278717 -0.31536102 1.2447335
-0.2121051 -0.3059698 1.245
-0.20654821 -0.30321747 1.2436668
-0.20290159 -0.29562339 1.2443334
-0.19909362 -0.29265678 1.2410001
-0.20378575 -0.28428245 1.2445555
-0.19800568 -0.28504115 1.2410001
-0.2226558 -0.27177104 1.245
-0.21475504 -0.27387455 1.2446364
-0.20696035 -0.27568823 1.2415714
-0.23123145 -0.26366311 1.245
-0.22484085 -0.26545566 1.2424285
-0.21587905 -0.26778948 1.2410001
-0.23123147 -0.25586706 1.245
-0.2256878 -0.25445783 1.2410001
-0.23029594 -0.24994205 1.245
-0.22408883 -0.24574609 1.2436665
-0.21867661 -0.24152341 1.2410001
-0.22156435 -0.23902754 1.245
-0.21702409 -0.23501636 1.244
-0.21187718 -0.22859405 1.2436666
-0.20590734 -0.22240193 1.2427143
-0.20412667 -0.21744947 1.2436666
-0.19565374 -0.21363579 1.2433333
-0.19262734 -0.20440798 1.2442
-0.19100375 -0.19755244 1.245
-0.1848349 -0.19276123 1.2435454
-0.18172643 -0.18827513 1.245
-0.17442028 -0.18532078 1.2435
-0.16844712 -0.18227215 1.245
-0.16317408 -0.17688818 1.2444285
-0.15655427 -0.17253412 1.243
-0.15308559 -0.16762888 1.2443334
-0.14607766 -0.16297321 1.2435
-0.14297995 -0.15826026 1.245
-0.13643125 -0.15171155 1.245
0.029374469 -0.15122412 1.2410001
0.035295475 -0.15424673 1.2415714
-0.13164115 -0.14904824 1.2410001
-0.12624438 -0.14370759 1.245
0.017647125 -0.14226635 1.2426001
0.025193799 -0.14583808 1.2431176
0.035048258 -0.14845586 1.2438571
-0.12115095 -0.13861415 1.245
-0.1135108 -0.13424835 1.245
0.016000336 -0.13563174 1.2443333
-0.10441538 -0.12769964 1.245
-0.096307389 -0.12247413 1.2436666
0.014166057 -0.12640655 1.243
-0.084996343 -0.11714151 1.243
-0.074619241 -0.11293884 1.2438571
-0.068650886 -0.11114731 1.243
-0.031550355 -0.11205816 1.2410001
-0.026218574 -0.11340049 1.2431176
-0.011967377 -0.11205816 1.2410001
0.014893689 -0.11478198 1.243
-0.063270785 -0.10690424 1.2443334
-0.054488339 -0.10188751 1.243
-0.045433834 -0.10139614 1.2436666
-0.034355804 -0.10452595 1.2428668
-0.02602936 -0.10737927 1.2444285
-0.015103839 -0.10821462 1.2432858
-0.0045812847 -0.10486422 1.2434
0.0066830805 -0.10211126 1.2410001
0.012427101 -0.1052966 1.2434
-0.042276591 -0.097100042 1.2444999
-0.03601785 -0.098776221 1.245
-0.00109145 -0.098230496 1.245
0.0054545226 -0.098316319 1.2445555
-0.21429349 -0.34264451 1.2567501
-0.20376626 -0.34502703 1.251
-0.22137849 -0.33372214 1.2563335
-0.21587916 -0.33569026 1.25
-0.23067817 -0.3211835 1.2590001
-0.22351043 -0.3236151 1.255923
-0.21807083 -0.32546252 1.25
-0.23257028 -0.31676859 1.2589999
-0.22511053 -0.3144761 1.257737
-0.21807083 -0.31450415 1.25
-0.22379111 -0.30604315 1.2586364
-0.21674235 -0.30383676 1.2539999
-0.20930417 -0.30135417 1.25
-0.21464548 -0.29495308 1.2574289
-0.20667417 -0.29456002 1.25
-0.22449732 -0.28189093 1.2590001
-0.21560964 -0.2853145 1.2571876
-0.20766042 -0.28546458 1.25
-0.24245124 -0.27298757 1.2589999
-0.23472358 -0.27485204 1.2540627
-0.22597037 -0.27545664 1.2518182
-0.21587916 -0.27797639 1.25
-0.24281915 -0.26489362 1.2589999
-0.23665179 -0.265912 1.2516667
-0.24245124 -0.25679964 1.2589999
-0.23683394 -0.25490728 1.2529231
-0.23357835 -0.24678183 1.2556001
-0.2285172 -0.24344155 1.2520001
-0.22397059 -0.23625441 1.2554166
-0.21807083 -0.23122083 1.25
-0.22184838 -0.22626328 1.2590001
-0.21589191 -0.22505338 1.2550001
-0.21524245 -0.21493793 1.2579094
-0.20579419 -0.21305153 1.2522308
-0.19834583 -0.21259166 1.25
-0.21191487 -0.20860371 1.2590001
-0.20386741 -0.20589441 1.257
-0.19738227 -0.20496546 1.2527274
-0.20271719 -0.1990381 1.2590001
-0.19591345 -0.19517398 1.2559334
-0.18957916 -0.19177084 1.25
-0.19147773 -0.187801 1.2576667
-0.18537517 -0.18550743 1.2549376
-0.17650916 -0.18254501 1.2525001
-0.16985416 -0.18081249 1.25
-0.18321806 -0.1799069 1.2590001
-0.17468268 -0.17732459 1.2574002
-0.16558662 -0.17319502 1.2546923
-0.16180584 -0.16710371 1.2590001
-0.15496074 -0.1644235 1.2536155
-0.14793751 -0.1610875 1.25
-0.15096989 -0.15868193 1.2570001
-0.14436644 -0.15553841 1.2556154
-0.13780323 -0.15207537 1.2525001
-0.14017287 -0.14900266 1.2590001
-0.13473213 -0.14612557 1.258
-0.12814341 -0.14264314 1.2535999
0.02593472 -0.14172778 1.25
0.034394823 -0.1442547 1.2509091
-0.12377995 -0.13761775 1.2558572
-0.11506469 -0.13318606 1.253
0.017911032 -0.13304804 1.2508334
0.025288675 -0.1352219 1.2540803
0.034746099 -0.13670056 1.2568668
0.041357189 -0.13730222 1.2580001
-0.11147606 -0.12913562 1.2590001
-0.10467775 -0.12416293 1.2550001
-0.097032689 -0.12119362 1.253
0.017570592 -0.12517485 1.2525001
0.021398908 -0.12640463 1.2582
-0.093889631 -0.11812147 1.2566667
-0.084973864 -0.11399391 1.2558182
-0.076989748 -0.11164437 1.251
0.017860221 -0.11456817 1.253625
-0.0805718 -0.10926861 1.2590001
-0.07382749 -0.10742947 1.256875
-0.065255977 -0.10327742 1.2541177
-0.057500567 -0.10071731 1.2533334
-0.024213536 -0.10363944 1.2522354
-0.015713437 -0.10338473 1.2546428
-0.0073248427 -0.10326446 1.2531667
0.015683018 -0.10453099 1.255125
-0.060704783 -0.098231375 1.2590001
-0.053923327 -0.097934842 1.2552501
-0.045788351 -0.09486194 1.2534001
-0.034809142 -0.094424129 1.250625
-0.027702011 -0.096505284 1.2557501
0.0061274618 -0.093969956 1.2547858
0.0139711 -0.095742658 1.2553846
-0.042264979 -0.087835282 1.2576667
-0.035988681 -0.086916633 1.2579091
0.0069902479 -0.088665776 1.2590001
-0.21608078 -0.34747058 1.2640001
-0.22937807 -0.32467526 1.2640001
-0.2344588 -0.31260839 1.2645
-0.23391673 -0.30591154 1.2662857
-0.22691563 -0.30275938 1.2640001
-0.23010395 -0.29902399 1.268
-0.22447772 -0.29449269 1.26525
-0.23183624 -0.28434741 1.2653333
-0.22558957 -0.28683609 1.2645
-0.25011301 -0.27012205 1.268
-0.24686874 -0.27458659 1.2646667
-0.25159517 -0.26197019 1.268
-0.24793886 -0.2648375 1.2640001
-0.25150254 -0.25594899 1.268
-0.24601193 -0.25332895 1.2651999
-0.24248098 -0.24755262 1.2662858
-0.23560593 -0.24352698 1.265143
-0.23134179 -0.23652233 1.2666668
-0.22687651 -0.2329755 1.2655001
-0.22567645 -0.22367764 1.2656
-0.22481915 -0.214912 1.2661538
-0.22216268 -0.20690516 1.2654999
-0.21519879 -0.20488919 1.2649412
-0.2086934 -0.20315289 1.2640001
-0.21215069 -0.19771025 1.267
-0.20456678 -0.19500603 1.2655385
-0.19866493 -0.19089416 1.266
-0.19419141 -0.18531173 1.2657777
-0.18874748 -0.18136013 1.2640001
-0.19008587 -0.17896974 1.268
-0.18386738 -0.17572547 1.2659999
-0.17591298 -0.17191747 1.2652
-0.17105258 -0.16771948 1.267
-0.16509709 -0.16492446 1.2652308
-0.15772051 -0.16141421 1.2640001
-0.16118394 -0.1589607 1.268
-0.15377626 -0.15538995 1.266909
-0.1478253 -0.15299761 1.2646667
-0.14332068 -0.14609154 1.2656666
-0.13540994 -0.14174297 1.2645714
-0.13301049 -0.13689674 1.267
-0.12462373 -0.13410768 1.2661818
-0.11869249 -0.13200146 1.2653333
0.037286382 -0.13216177 1.2668571
0.042208869 -0.13328752 1.2670001
-0.12116585 -0.1256123 1.268
-0.11546811 -0.1249622 1.2664443
-0.10837283 -0.12211336 1.2640001
0.025335373 -0.1261187 1.2656666
0.033539511 -0.12749082 1.2667999
0.042196888 -0.12769876 1.2666668
-0.11004972 -0.11894263 1.268
-0.10382772 -0.11640966 1.2666665
-0.095131107 -0.11272758 1.2659999
-0.088717788 -0.11200556 1.2650001
0.02183952 -0.11807648 1.2666668
-0.091522835 -0.10708541 1.268
-0.083736748 -0.10705608 1.2667999
-0.07591477 -0.10410277 1.266
-0.069810718 -0.10083771 1.2640001
-0.012189173 -0.10083771 1.2640001
-0.0099729598 -0.10083771 1.2640001
0.018837813 -0.10527013 1.2640001
0.021120653 -0.10338004 1.268
-0.070772715 -0.098192513 1.268
-0.064372636 -0.095445208 1.2659999
-0.055150095 -0.092707992 1.2654285
-0.049864799 -0.093080953 1.2640001
-0.023292359 -0.093254134 1.2652308
-0.015013514 -0.095528431 1.2663158
-0.0061797486 -0.096807048 1.265143
0.0011081067 -0.09197285 1.2640001
0.018488316 -0.093915544 1.2653333
0.021120653 -0.090040676 1.268
-0.044772733 -0.085472666 1.2662221
-0.034139153 -0.082912676 1.2644
-0.026585896 -0.085513569 1.2668235
0.0051014982 -0.087427512 1.2656
0.01443103 -0.086305857 1.2662499
-0.032471731 -0.077167705 1.2675556
-0.026901046 -0.077145964 1.268
-0.21203937 -0.35153896 1.273
-0.24184354 -0.30566135 1.2771667
-0.2371496 -0.30294165 1.2751428
-0.2408817 -0.29914147 1.2780001
-0.23337589 -0.29494163 1.2748181
-0.24328727 -0.28234714 1.273
-0.23570651 -0.28709278 1.27425
-0.25333124 -0.27230316 1.273
-0.25586188 -0.26443249 1.2763333
-0.26104853 -0.25880778 1.2780001
-0.25495058 -0.25457859 1.2754999
-0.25247973 -0.24640772 1.2751428
-0.24565808 -0.24421762 1.2762142
-0.23882329 -0.24328727 1.273
-0.2408817 -0.23864093 1.2780001
-0.23546068 -0.23529689 1.2754999
-0.23477288 -0.22595534 1.27675
-0.23217002 -0.21618713 1.2758571
-0.22877932 -0.21203937 1.273
-0.23191866 -0.20951106 1.2780001
-0.2260977 -0.20440264 1.2754999
-0.21985134 -0.2019954 1.273
-0.21385188 -0.19539957 1.2754999
-0.20723191 -0.19202805 1.275
-0.2032498 -0.18673079 1.277375
-0.19803269 -0.18388505 1.2738333
-0.19350074 -0.1778392 1.2758571
-0.18624492 -0.1724605 1.2746667
-0.1820309 -0.16725241 1.2770001
-0.17478667 -0.16515508 1.2749231
-0.16799212 -0.16128446 1.2746667
-0.16416131 -0.15632378 1.27675
-0.15687478 -0.15324453 1.2736249
-0.15325361 -0.14653833 1.2759999
-0.14683454 -0.1426364 1.276125
-0.14197743 -0.13625203 1.2774444
-0.13502713 -0.13353328 1.2746665
-0.12679166 -0.13125782 1.27425
0.045755863 -0.13503559 1.273
-0.13457008 -0.12734985 1.278
-0.12583999 -0.12527691 1.2759166
0.026811317 -0.12287908 1.27425
0.035153892 -0.12331763 1.2729999
0.043077473 -0.12298284 1.273
-0.12286834 -0.11913374 1.2780001
-0.11475489 -0.11656784 1.2754999
-0.10579383 -0.11193291 1.2736249
-0.099323705 -0.11048367 1.273
0.023470998 -0.115848 1.2746667
0.033984859 -0.1195072 1.278
-0.10477857 -0.10765579 1.2772857
-0.095305547 -0.10480303 1.2751875
-0.085696027 -0.10300055 1.2736249
-0.07811977 -0.1015557 1.273
0.021784946 -0.10500561 1.27425
-0.090750776 -0.099713817 1.2780001
-0.08447665 -0.099265672 1.2780001
-0.074482605 -0.096178487 1.2768461
-0.065502599 -0.090984143 1.275
-0.059147824 -0.090395726 1.273
-0.013413877 -0.091693632 1.2755001
-0.0048359856 -0.091883719 1.273
0.023073548 -0.094826169 1.2752726
-0.064235114 -0.087763108 1.278
-0.054814458 -0.087251127 1.2759999
-0.0458786 -0.083174914 1.2763335
-0.021761935 -0.083141752 1.273
-0.017339041 -0.086140499 1.276125
-0.0011159966 -0.088163733 1.273
0.0044639865 -0.083141752 1.2729999
0.015251954 -0.081839748 1.2729999
0.022006378 -0.085781835 1.2763333
-0.041454058 -0.079546981 1.2780001
-0.036156218 -0.076036073 1.2754999
-0.024430696 -0.07585796 1.2751428
0.0055902111 -0.079339504 1.2746667
0.014043616 -0.078412771 1.2757777
-0.2517997 -0.30261129 1.2880001
-0.24667463 -0.30401182 1.2848182
-0.23957458 -0.3003118 1.2830001
-0.24320418 -0.29557568 1.2863334
-0.23867476 -0.29491296 1.2830001
-0.24407364 -0.28681466 1.2830001
-0.23957458 -0.28793943 1.2830001
-0.25307176 -0.24257396 1.2830001
-0.24744794 -0.24182412 1.2830001
-0.25155532 -0.2368874 1.2867501
-0.24537599 -0.23483874 1.2830003
-0.23957458 -0.23282601 1.2830001
-0.24533875 -0.22479481 1.2847648
-0.23882474 -0.2223282 1.2830001
-0.24208415 -0.21556017 1.2873751
-0.23719259 -0.21491177 1.2835001
-0.23395877 -0.20605074 1.2861251
-0.22607744 -0.20133263 1.2830001
-0.22267435 -0.19709496 1.2871667
-0.2162641 -0.19308348 1.2835001
-0.21288358 -0.18606617 1.2863334
-0.20583169 -0.18333642 1.2830001
-0.20462115 -0.1786654 1.2871667
-0.1950627 -0.17417239 1.2848182
-0.18490665 -0.1653747 1.2852223
-0.17717712 -0.16186632 1.284
-0.17353441 -0.15709741 1.2865715
-0.1667088 -0.15262514 1.284875
-0.16199344 -0.14802185 1.2850001
-0.15629525 -0.14327851 1.2846668
-0.14959352 -0.14059542 1.2830001
-0.1524348 -0.13775589 1.2880001
-0.14579931 -0.13453852 1.28425
-0.1422226 -0.12599006 1.2855
-0.13496576 -0.12247997 1.2839091
-0.12859796 -0.12109951 1.2830001
0.042741008 -0.12034968 1.2830001
-0.1354976 -0.1185604 1.2880001
-0.12466777 -0.11546833 1.2864616
-0.11549276 -0.11188827 1.284
0.02613144 -0.11466059 1.2857274
0.035205502 -0.11487401 1.2866844
0.042886205 -0.11511652 1.2873751
-0.12081869 -0.10839808 1.2880001
-0.11439537 -0.10658559 1.286077
-0.10534108 -0.10263405 1.2846668
-0.095604889 -0.10010394 1.2830001
0.026288807 -0.10523263 1.2864616
0.03048696 -0.10613978 1.2880001
0.04403672 -0.10952722 1.2880001
-0.10230068 -0.09733244 1.2880001
-0.09439639 -0.095197298 1.2862145
-0.085752562 -0.094302505 1.2836668
-0.077358723 -0.092855461 1.2830001
-0.011247633 -0.091105826 1.2830001
-0.005623817 -0.091105826 1.2830001
0.026655927 -0.097231686 1.2846667
-0.092590019 -0.089202583 1.2880001
-0.084685996 -0.087621771 1.2880001
-0.074502364 -0.086046524 1.2851877
-0.065361924 -0.083391018 1.2855
-0.05525659 -0.082318135 1.2863336
-0.04724006 -0.082107723 1.2830001
-0.013207143 -0.084885001 1.2848182
-0.0045083677 -0.087379001 1.2861251
0.0011291467 -0.084685996 1.2880001
0.025119714 -0.084732167 1.2830001
-0.051940747 -0.076781973 1.2880001
-0.045394514 -0.077565946 1.2857274
-0.037788056 -0.073885679 1.2867501
-0.021953706 -0.074867994 1.2842501
-0.017551744 -0.077778995 1.2858572
0.0067617297 -0.076630749 1.2855
0.014931059 -0.073530525 1.2855003
0.023343407 -0.076102145 1.2868462
0.016291974 -0.067910098 1.2880001
-0.25258169 -0.30015314 1.2920001
-0.2526935 -0.29562774 1.2964444
-0.24749163 -0.29449102 1.2941428
-0.25217995 -0.28852788 1.29575
-0.24901102 -0.28994435 1.2970001
-0.25193778 -0.22242963 1.2945001
-0.25128511 -0.21717399 1.2970001
-0.24654564 -0.2144835 1.2945
-0.24172199 -0.20880929 1.2945001
-0.23645644 -0.20426281 1.293
-0.22879598 -0.20047964 1.2920001
-0.23195548 -0.19670735 1.2970001
-0.22612949 -0.19436735 1.2938181
-0.22219527 -0.18888308 1.2953334
-0.21608442 -0.18375449 1.293875
-0.21035178 -0.17851475 1.2970001
-0.20427749 -0.17507069 1.2955714
-0.19727345 -0.17232877 1.2932501
-0.19342686 -0.16768472 1.2953334
-0.18762596 -0.16264997 1.2948571
-0.1820711 -0.15822108 1.2953334
-0.17493093 -0.15348768 1.2947778
-0.17169254 -0.1489518 1.2970001
-0.16611934 -0.14492537 1.2949166
-0.15970412 -0.14158167 1.2920001
-0.16259624 -0.13855603 1.2970001
-0.15449618 -0.13423075 1.295077
-0.14837758 -0.13138779 1.2920001
-0.15236291 -0.12848514 1.2970001
-0.14676152 -0.12502919 1.2948571
-0.14383925 -0.11838718 1.296
-0.1347058 -0.11488406 1.2951818
-0.12767115 -0.11234746 1.2945001
-0.12426662 -0.10724066 1.2945
-0.1167948 -0.10221332 1.2934285
0.035996724 -0.10517718 1.2927142
0.042914975 -0.10483336 1.2919999
-0.11332465 -0.09702713 1.2970001
-0.10562745 -0.094854824 1.29325
-0.09740819 -0.091744922 1.2920001
0.028316334 -0.094010226 1.2920001
0.032661181 -0.095935121 1.2934999
0.043207392 -0.098922193 1.2970001
-0.10182425 -0.088952444 1.2953334
-0.095000938 -0.08633326 1.2942727
-0.085101403 -0.082828686 1.2943077
-0.075495198 -0.08093369 1.293
-0.067959204 -0.080418386 1.2920001
-0.011326534 -0.081551038 1.2920001
-0.0048474884 -0.08259172 1.2938181
0.0011326533 -0.080418386 1.2920001
0.028316334 -0.084948994 1.2920001
0.031332817 -0.086202882 1.2962857
-0.073338866 -0.077887014 1.2970001
-0.06391219 -0.076074064 1.2952143
-0.055177618 -0.074069791 1.29325
-0.04537024 -0.072593361 1.293875
-0.038659245 -0.071633309 1.2970001
-0.024635794 -0.071633309 1.2970001
-0.015609597 -0.074652225 1.295125
0.005668527 -0.073738188 1.294
0.027597761 -0.074093528 1.2936667
-0.052872203 -0.067653686 1.2970001
-0.048892576 -0.069359235 1.2970001
-0.021603696 -0.069359235 1.2970001
-0.018192586 -0.069359235 1.2970001
0.0079439152 -0.068088509 1.2945001
0.014910721 -0.063854888 1.2941428
0.024354339 -0.066420443 1.2943077
-0.25796092 -0.30019346 1.302
-0.26138517 -0.2967692 1.302
-0.25796092 -0.29448637 1.302
-0.25453666 -0.22029406 1.302
-0.2536374 -0.21478967 1.3032501
-0.24921004 -0.21192364 1.302
-0.25093094 -0.209682 1.307
-0.24426389 -0.20716771 1.302
-0.23787123 -0.20241708 1.3045001
-0.23459162 -0.19453818 1.3053335
-0.228284 -0.19061714 1.302
-0.2242569 -0.1859251 1.305125
-0.21801122 -0.18148577 1.302
-0.2133151 -0.17764668 1.3040001
-0.20595868 -0.17231071 1.304143
-0.1997485 -0.17007157 1.302
-0.20166138 -0.16614148 1.307
-0.19571267 -0.16415864 1.3040001
-0.19186902 -0.1582997 1.3053335
-0.18550253 -0.15418585 1.3043077
-0.17943235 -0.15200026 1.3036667
-0.17410134 -0.14552638 1.3036667
-0.17072469 -0.13864221 1.307
-0.16495754 -0.1344773 1.3036667
-0.15865737 -0.13240471 1.302
-0.16232215 -0.12871189 1.307
-0.15499942 -0.12477948 1.304143
-0.14952601 -0.12327336 1.302
-0.15010023 -0.11687194 1.307
-0.14485602 -0.11416655 1.3045001
-0.13582897 -0.11185915 1.302
-0.13397498 -0.10763612 1.3061668
-0.12624964 -0.10368249 1.3032501
-0.12202805 -0.097966179 1.307
-0.11523767 -0.09403684 1.3038182
-0.10767395 -0.090933122 1.302
0.037472479 -0.094561808 1.3024546
0.043726042 -0.093697801 1.3046925
-0.11114293 -0.088226855 1.307
-0.10438976 -0.085569091 1.3053335
-0.096212305 -0.082221143 1.3026251
0.035222903 -0.0848101 1.3053335
0.041248918 -0.088226855 1.307
-0.094396561 -0.076945096 1.307
-0.084606156 -0.075457834 1.3041875
-0.075777709 -0.074735276 1.3042728
-0.066963308 -0.0726704 1.302
-0.011921539 -0.073985778 1.304143
-0.0051517314 -0.077552564 1.3057501
0.0026669661 -0.075476177 1.3045001
0.031805992 -0.077107921 1.3050001
-0.074018896 -0.068977356 1.307
-0.064741515 -0.068269543 1.3038182
-0.055644225 -0.067058422 1.302
-0.044994846 -0.067110509 1.3049167
-0.038152359 -0.068765208 1.3030001
-0.022506371 -0.066752322 1.3053335
-0.01602006 -0.06636966 1.3053335
0.0061829546 -0.067090593 1.306
0.011414199 -0.061636679 1.302
0.026298372 -0.061900556 1.304143
0.030936692 -0.065310791 1.307
0.016512265 -0.057389982 1.3055716
0.024716616 -0.057453848 1.307
-0.25673819 -0.21356454 1.3132501
-0.25169626 -0.20897716 1.317
-0.24453323 -0.20531511 1.31575
-0.24130513 -0.1997406 1.317
-0.23437771 -0.19050404 1.317
-0.23148119 -0.18771566 1.3136667
-0.22663368 -0.18361008 1.3145001
-0.21968566 -0.1805793 1.312
-0.22052287 -0.17895834 1.317
-0.21488747 -0.17430535 1.3150002
-0.21220997 -0.16787449 1.317
-0.20600893 -0.16435984 1.3139234
-0.1989823 -0.16217633 1.312
-0.20243526 -0.15802377 1.31575
-0.1961472 -0.15509894 1.3141876
-0.1874804 -0.15067445 1.312
-0.19319804 -0.14816983 1.317
-0.18368047 -0.14637496 1.3147274
-0.17672351 -0.14218284 1.3132501
-0.18126749 -0.13970298 1.317
-0.17461534 -0.13615158 1.3161668
-0.16907744 -0.13227147 1.312
-0.16529383 -0.12609026 1.315182
-0.15910916 -0.12306997 1.312
-0.16048522 -0.11661157 1.317
-0.15461737 -0.11509574 1.3139234
-0.14837408 -0.11156811 1.312
-0.15217233 -0.10783683 1.317
-0.14503168 -0.10511629 1.3146318
-0.13611032 -0.10381085 1.3157501
-0.1288209 -0.10121642 1.312
-0.1420121 -0.098138452 1.317
-0.13970298 -0.095829308 1.317
-0.12394149 -0.095404238 1.3151251
-0.11731903 -0.090864748 1.312
0.04830784 -0.090864748 1.312
0.051758401 -0.090864748 1.312
-0.12122985 -0.088901892 1.317
-0.11424819 -0.086261913 1.316375
-0.1079409 -0.083353907 1.3145
0.03795616 -0.082813442 1.312
0.045331016 -0.084890403 1.3145001
0.052658152 -0.086095385 1.3153332
-0.10206083 -0.077638291 1.3140001
-0.081663251 -0.070161387 1.312
-0.079362877 -0.071311578 1.312
-0.0042173513 -0.072653472 1.3120002
0.0011501866 -0.071311578 1.312
0.034964483 -0.075431615 1.3147779
0.044258516 -0.079280473 1.317
0.051955651 -0.079665333 1.317
-0.044404045 -0.062317267 1.3136668
-0.03795616 -0.065560639 1.312
-0.021853546 -0.063260265 1.312
-0.013078272 -0.063511625 1.3129092
-0.0046095131 -0.064528801 1.3145001
0.0039185248 -0.064555988 1.3150002
0.033893511 -0.063866749 1.3149999
0.0080819903 -0.057728499 1.317
0.014384639 -0.054092377 1.3128335
0.025699679 -0.053313896 1.3125558
0.032442175 -0.056152005 1.3148572
0.01731855 -0.049646508 1.317
0.025151217 -0.049146987 1.316
0.031173389 -0.049646508 1.317
-0.25457522 -0.20885296 1.3260001
-0.24723051 -0.20544507 1.324
-0.24332058 -0.19908048 1.3280001
-0.2387175 -0.1938345 1.324
-0.23347825 -0.18430193 1.325
-0.22715485 -0.18195567 1.322
-0.23167846 -0.17812464 1.3280001
-0.22494571 -0.17603655 1.324
-0.21826954 -0.17113876 1.322
-0.22120053 -0.16648251 1.3280001
-0.21539642 -0.16460627 1.3233335
-0.20977055 -0.16109452 1.322
-0.21285853 -0.15702468 1.3268001
-0.206136 -0.15453111 1.3238462
-0.20211551 -0.14868003 1.325
-0.19496475 -0.14498642 1.3257501
-0.18709558 -0.14242195 1.3235002
-0.18396442 -0.13516097 1.3253334
-0.17798212 -0.1329485 1.3219999
-0.18045306 -0.12806347 1.3280001
-0.17385493 -0.12643708 1.3256001
-0.16688928 -0.12284905 1.322
-0.17113936 -0.11758555 1.3280001
-0.16473405 -0.11567652 1.3232859
-0.15800397 -0.1108732 1.322
-0.13714282 -0.10160157 1.322
-0.13444877 -0.095434271 1.3244003
-0.12709855 -0.093102582 1.322
-0.13272032 -0.089644425 1.3280001
-0.12516695 -0.088659927 1.322
-0.11821324 -0.086921498 1.322
-0.11035042 -0.078985035 1.325
-0.10513989 -0.075904302 1.3262857
-0.098958135 -0.073345438 1.3280001
0.037318297 -0.072550476 1.322
0.044252697 -0.075514644 1.3252728
0.052389599 -0.078002296 1.3280001
-0.034795772 -0.065335922 1.3230001
-0.024415165 -0.063938804 1.3260001
0.0023179066 -0.061424527 1.322
0.037326463 -0.065522067 1.3245715
-0.022120053 -0.05937488 1.3280001
-0.015109131 -0.058401123 1.3257501
-0.0039520133 -0.058801889 1.3256
0.0041556503 -0.057673395 1.327143
0.01045425 -0.051107034 1.325
0.036259905 -0.054837059 1.3246666
0.01655025 -0.045532849 1.3266156
0.025650684 -0.043936782 1.326
0.033299148 -0.045133825 1.3263637
0.019791627 -0.037254825 1.3280001
0.026776908 -0.036090612 1.3280001
0.033096921 -0.034094818 1.3280001
0.036090612 -0.029105334 1.3280001
-0.25368875 -0.20636873 1.3360001
-0.24820712 -0.2025442 1.3355
-0.24422498 -0.19444016 1.3361251
-0.23956232 -0.19048126 1.3330001
-0.2410474 -0.18533084 1.3380001
-0.23758104 -0.18421063 1.335
-0.23371945 -0.17616604 1.3358573
-0.22766711 -0.1714313 1.3363334
-0.22464177 -0.16443741 1.3360002
-0.21852757 -0.16126634 1.3330001
-0.22247522 -0.15757032 1.3379999
-0.21599688 -0.15403758 1.3357275
-0.20917881 -0.15074897 1.3330001
-0.21309137 -0.14818646 1.3379999
-0.2057627 -0.14454406 1.3364376
-0.19632423 -0.1425688 1.3330001
-0.20292555 -0.13958462 1.3379999
-0.19384705 -0.13508868 1.3370625
-0.18832049 -0.13334166 1.3342501
-0.19197774 -0.12707283 1.3379999
-0.18528324 -0.12582973 1.3356923
-0.17700063 -0.12258091 1.3348751
-0.1741209 -0.11802826 1.3330001
-0.11101668 -0.075958781 1.3330001
-0.10751089 -0.075958781 1.3330001
0.046078652 -0.072272755 1.3340001
0.051766813 -0.075189598 1.3360001
-0.036314163 -0.062090501 1.3363333
-0.024632581 -0.062167939 1.3380001
0.043329153 -0.067006558 1.3357779
0.05043814 -0.069205821 1.3380001
-0.022286618 -0.055130061 1.3379999
-0.014796299 -0.054608285 1.3357275
-0.0050751213 -0.055296239 1.3357779
0.0048110494 -0.052933231 1.3352224
0.0077355308 -0.045241088 1.3370001
0.012562415 -0.042945929 1.3330001
0.037053779 -0.043295059 1.3346667
0.0082108602 -0.037535362 1.3380001
0.014679442 -0.034818426 1.3338333
0.024206648 -0.033555418 1.3330001
0.034824185 -0.036226496 1.3330001
0.01851818 -0.027895007 1.3370001
0.026397716 -0.026396366 1.336077
0.034115117 -0.02514638 1.3342501
0.032843441 -0.019940659 1.3380001
-0.26019728 -0.20603858 1.3430001
-0.25530425 -0.20339808 1.3455715
-0.25309381 -0.19826642 1.3478
-0.24870113 -0.19329929 1.3445001
-0.24612816 -0.18412881 1.3451431
-0.24363691 -0.175093 1.348
-0.23632565 -0.17355876 1.3445001
-0.23441343 -0.16568562 1.3473636
-0.22880094 -0.16365351 1.3430001
-0.23061155 -0.15965416 1.3490001
-0.22605374 -0.1577667 1.3430001
-0.20132913 -0.1377515 1.3430001
-0.1981895 -0.13539678 1.3430001
0.052981351 -0.072996527 1.3430001
-0.03267191 -0.061009277 1.3470001
-0.027906345 -0.06170477 1.3450001
0.045761917 -0.062690355 1.3446364
0.050796259 -0.0637867 1.3475001
-0.034296077 -0.057948545 1.3490001
-0.025167493 -0.054259092 1.3455001
-0.01412836 -0.050626624 1.3430001
-0.0047094533 -0.051411536 1.3430001
0.0023547267 -0.050626624 1.3430001
0.038939781 -0.051917076 1.3460001
0.043391053 -0.055783618 1.3467501
0.050852802 -0.056765921 1.3490001
-0.022469843 -0.048487555 1.3490001
-0.013797272 -0.047699139 1.3490001
-0.004335701 -0.046886761 1.3483334
0.003323762 -0.044524863 1.3462729
0.03902657 -0.048487555 1.3490001
0.0051882886 -0.035636853 1.3460002
0.0070957402 -0.029565584 1.3490001
0.014401356 -0.024944382 1.3466003
0.023699127 -0.021343231 1.3443334
0.01773935 -0.01773935 1.3490001
0.0255094 -0.014664521 1.3479414
0.034143537 -0.01766045 1.3430001
0.024835089 -0.0082783634 1.3490001
-0.26316416 -0.20375684 1.3552501
-0.25995445 -0.20179114 1.3540001
-0.26091442 -0.19777074 1.3590001
-0.25568062 -0.19469503 1.3551112
-0.25449064 -0.18551494 1.3565
-0.25273284 -0.17664869 1.3560002
-0.24808438 -0.17448997 1.3540001
-0.24096236 -0.16974196 1.3540001
-0.036797207 -0.060537338 1.3540001
-0.033236187 -0.055789314 1.3540001
-0.02853857 -0.052322537 1.3565001
0.046335999 -0.054055925 1.3552501
0.051135529 -0.052326918 1.3565001
-0.021618424 -0.046800502 1.3550001
-0.014444962 -0.044349816 1.3568573
-0.0052611269 -0.042584587 1.3547144
0.041545235 -0.048667274 1.3540001
0.053612549 -0.04884699 1.3590001
-0.0029740916 -0.038647849 1.3565001
0.0019783445 -0.034423191 1.3540001
0.0061755027 -0.025171991 1.3545001
0.011474398 -0.020970451 1.3540001
0.014738169 -0.015215601 1.3560002
0.020970451 -0.011474398 1.3540001
0.026689561 -0.0055081761 1.3558183
-0.26326299 -0.19505395 1.3649999
-0.25967306 -0.19146401 1.365
-0.26350233 -0.18548074 1.365
-0.25907475 -0.18428411 1.365
-0.04188275 -0.05863585 1.365
-0.035181511 -0.054806568 1.365
-0.029916249 -0.051455949 1.365
0.049062651 -0.052652597 1.365
-0.026126862 -0.045073818 1.3649999
-0.014758684 -0.04188275 1.3650001
0.04188275 -0.04188275 1.365
0.052652597 -0.047866002 1.365
-0.021539699 -0.039489448 1.365
-0.014359799 -0.038691681 1.3649999
-0.0047865999 -0.03709615 1.365
0.00119665 -0.032309551 1.365
0.0047865999 -0.021539699 1.365
0.0075787832 -0.017151983 1.3650001
0.013163149 -0.012365383 1.3650001
0.017949751 -0.0083765499 1.365
0.023334675 -0.0029916249 1.365
0.029916249 0.00119665 1.365
-0.26542836 -0.19216533 1.3700001
-0.26542836 -0.18616016 1.3700001
-0.044438232 -0.061252698 1.3700002
-0.039634101 -0.061252698 1.3700001
-0.045486726 -0.055486396 1.3736924
-0.038061652 -0.053283509 1.3709999
-0.05290458 -0.045322161 1.3760002
-0.0454969 -0.045491286 1.3728002
-0.035677761 -0.045427326 1.3700002
-0.027623767 -0.042036165 1.3700001
0.04674264 -0.045775499 1.3742002
0.053321201 -0.043700662 1.3720001
-0.053076908 -0.037395094 1.376
-0.045225717 -0.036224339 1.3744
-0.034886986 -0.034879416 1.3721602
-0.024294287 -0.034303483 1.3703337
-0.014419165 -0.033133745 1.3708572
-0.0054077189 -0.032639034 1.3705001
0.0012010334 -0.030025832 1.3700001
0.042036165 -0.039634101 1.3700001
0.05409174 -0.038227577 1.3712001
-0.033603884 -0.026710778 1.3760002
-0.023455702 -0.025868287 1.3760002
-0.014218133 -0.024336966 1.3743999
-0.0048228721 -0.024093321 1.374125
0.0016814468 -0.023300046 1.3700001
-0.013751743 -0.017129365 1.376
-0.0043066875 -0.014808907 1.3751429
0.0041679437 -0.013798871 1.3736926
0.012010333 -0.0108093 1.3700001
-0.0048251734 -0.0084440531 1.376
0.0048251734 -0.0084440531 1.376
0.014722336 -0.0049058273 1.3732308
0.020417567 -0.0036031001 1.3700002
-0.0036188799 0.0060314666 1.376
0.0012062934 0.0048251734 1.376
0.016015198 0.0029288181 1.3751429
0.024394603 0.0033938161 1.3727273
0.030091584 0.0048172832 1.3730001
-0.074577451 -0.063634023 1.3870001
-0.067484483 -0.062620737 1.3870001
-0.055876538 -0.061945707 1.3855001
-0.049637742 -0.061744511 1.381
-0.081467755 -0.053501211 1.3870001
-0.075388074 -0.055933088 1.3870003
-0.065660588 -0.055933088 1.3870003
-0.055817369 -0.055812098 1.3840003
-0.049637742 -0.053269774 1.381
-0.081467755 -0.046610903 1.3870001
-0.075388074 -0.044989653 1.3870004
-0.065838456 -0.045235395 1.3866847
-0.057737563 -0.046433233 1.3816668
-0.049637742 -0.049637742 1.381
0.047216389 -0.043584362 1.381
-0.075040661 -0.034567345 1.3870002
-0.065300271 -0.034324341 1.3838239
-0.056728844 -0.034071904 1.3810003
-0.047700662 -0.03123546 1.381
0.047353152 -0.037636179 1.385
0.052134488 -0.035156965 1.383
-0.072782502 -0.024492439 1.3870001
-0.06561029 -0.024299992 1.3858752
-0.055811442 -0.02427008 1.3840005
-0.045791954 -0.024070429 1.3852355
-0.035513185 -0.023002857 1.3810002
-0.025078302 -0.021965133 1.3809999
-0.018160149 -0.020581502 1.381
-0.073361516 -0.017428426 1.3870001
-0.06561029 -0.014578419 1.3858752
-0.055839717 -0.01456494 1.3847501
-0.044989653 -0.014591242 1.3870004
-0.033973902 -0.014555078 1.3840001
-0.024236221 -0.014538969 1.3821254
-0.014858305 -0.013317444 1.3810002
-0.0084747365 -0.012106767 1.381
-0.063836679 -0.007903588 1.3870001
-0.055933084 -0.0048637465 1.3870003
-0.044989653 -0.0048637465 1.3870004
-0.034046229 -0.0048637465 1.3870003
-0.024313143 -0.0048614456 1.3866253
-0.014545873 -0.0048473086 1.3825002
-0.0048479671 -0.0043268516 1.3818575
0.0048524751 -0.0043291058 1.3835716
0.010896089 -0.0024213532 1.381
-0.053501211 0.0012159366 1.3870001
-0.043854777 0.0042963088 1.3870003
-0.034046229 0.0048637469 1.3870003
-0.02431873 0.004863746 1.3870003
-0.014558038 0.0048528984 1.3836253
-0.0049283281 0.0047648009 1.3818003
0.005364574 0.0048434581 1.3818575
0.013317442 0.006322423 1.381
0.023511324 0.0079978304 1.3822
0.030266916 0.0084747365 1.381
-0.041949816 0.012767334 1.3870001
-0.034046229 0.014591238 1.3870003
-0.02431873 0.014591238 1.3870003
-0.01455475 0.014556064 1.3836253
-0.0048532262 0.014564939 1.3840003
0.004578291 0.013734061 1.3851539
0.014462051 0.013141313 1.3853637
0.023767561 0.011972135 1.3852857
0.030398417 0.01094343 1.3870001
-0.057149023 0.025534669 1.3870001
-0.03303295 0.023913421 1.3870001
-0.024318732 0.024318734 1.3870003
-0.015802355 0.02431128 1.3865
-0.0060796831 0.020670922 1.3870001
-0.031209042 0.032019664 1.3870001
-0.023832358 0.032343917 1.3870001
-0.015266759 0.033100501 1.3870001
-0.013375304 0.04012591 1.3870001
-0.085611761 -0.072154045 1.3950001
-0.092531286 -0.06189179 1.3980001
-0.085772656 -0.06563738 1.3941178
-0.076147966 -0.067117602 1.3920001
-0.065170445 -0.066505522 1.3930911
-0.056175921 -0.065538727 1.3930001
-0.10172314 -0.050248779 1.3980001
-0.094624572 -0.05357391 1.3961539
-0.085880019 -0.055066947 1.3920001
-0.10277364 -0.043595631 1.398
-0.095291473 -0.043978859 1.3935001
-0.085945383 -0.043757182 1.3920001
-0.10277363 -0.034491323 1.398
-0.09529148 -0.034205783 1.3935002
-0.085422412 -0.034168962 1.3920001
-0.078100473 -0.030508 1.3920001
0.045172296 -0.03296325 1.3926668
0.051253438 -0.030508 1.3920001
-0.095291466 -0.024432698 1.3935001
-0.085422412 -0.024406396 1.3920001
-0.077693701 -0.02427081 1.3920001
0.045346458 -0.026962759 1.3980001
0.050033119 -0.026847038 1.3920001
-0.095369399 -0.014670469 1.3946252
-0.085422397 -0.014643839 1.3920001
-0.076129191 -0.013986745 1.3920001
-0.094296977 -0.0056755403 1.396909
-0.085493088 -0.0048829233 1.3931252
-0.075659841 -0.00488128 1.3920001
-0.066507436 -0.0038643461 1.3920001
-0.091918498 0.00122558 1.3980001
-0.085440442 0.0043770713 1.398
-0.075786076 0.0048898277 1.3942502
-0.065897278 0.0048812795 1.3920001
-0.055677101 0.0056439801 1.3920001
-0.04759248 0.0061015994 1.3920001
-0.08333943 0.013481379 1.3980001
-0.075927764 0.014695455 1.3968751
-0.065916017 0.014648112 1.3923751
-0.054914404 0.014643839 1.3920001
-0.044541683 0.015253998 1.3920001
0.0061015994 0.018304801 1.3920001
0.014887905 0.017816674 1.3920001
0.024838889 0.016695241 1.3933334
0.03156526 0.015419165 1.3956001
-0.074537545 0.024400186 1.3979999
-0.065586947 0.024643103 1.393059
-0.054396451 0.02407347 1.393412
-0.043931518 0.024406401 1.3920001
-0.037219759 0.025626719 1.3920001
-0.01098288 0.0244064 1.3920001
-0.0047069481 0.024929393 1.3920001
0.00488128 0.024406401 1.3920001
0.01464384 0.024406398 1.3920001
0.023860672 0.023447765 1.3955001
0.030639499 0.022060439 1.3980001
-0.073359713 0.034491323 1.398
-0.065704212 0.034472797 1.3955297
-0.054695975 0.033998698 1.3929476
-0.043931518 0.034168959 1.3920001
-0.034826055 0.034638312 1.3920001
-0.025219947 0.037016373 1.3920001
-0.013772183 0.035389278 1.3920001
-0.0048812795 0.034168955 1.3920001
0.00488128 0.034168966 1.3920001
0.014174948 0.033946536 1.397143
0.022060439 0.030639499 1.3980001
-0.064138688 0.040852662 1.3980001
-0.052587904 0.042806406 1.3950001
-0.043980829 0.043982148 1.3935001
-0.034186054 0.043957159 1.3927501
-0.024432696 0.043982804 1.3935001
-0.014731506 0.04420083 1.3928
-0.0048885127 0.044006474 1.3942502
0.0043703085 0.043694071 1.3954287
0.011030219 0.042895302 1.3980001
-0.050248779 0.051474359 1.3980001
-0.043875761 0.053680405 1.3980001
-0.034286983 0.053883761 1.3968753
-0.024577877 0.05365165 1.3972001
-0.014672771 0.052589476 1.395
-0.00490232 0.051474355 1.398
0.0036767398 0.050248783 1.3980001
-0.040444139 0.060053419 1.3980001
-0.036767401 0.060053419 1.3980001
-0.10215972 -0.072619557 1.4039999
-0.096826077 -0.073029839 1.4040002
-0.097031213 -0.064619102 1.4040002
-0.10314439 -0.053910792 1.404
-0.099698037 -0.055387799 1.4039999
-0.10659075 -0.045048743 1.404
-0.1076985 -0.033848099 1.4040002
-0.1046214 -0.024616798 1.4040002
-0.10380085 -0.01518036 1.4040002
-0.10265205 -0.0056618643 1.404
-0.098713368 -0.0032001839 1.404
-0.10215972 0.00246168 1.404
-0.095595233 0.0045130798 1.4040002
-0.088620484 0.0086158803 1.404
-0.094550878 0.014434397 1.4040002
-0.087635808 0.015508583 1.4040002
-0.093133561 0.02174484 1.4039999
-0.083809011 0.022714593 1.4040002
-0.077542916 0.02584764 1.404
0.0246168 0.028309319 1.404
-0.080620021 0.035694361 1.404
-0.077050582 0.034217354 1.404
0.0184626 0.0369252 1.404
0.022155121 0.033232681 1.404
-0.080004603 0.044310238 1.404
-0.074096568 0.044556402 1.4039999
-0.064003684 0.045541078 1.4040002
-0.056208357 0.04636164 1.4040002
0.0086158803 0.046771921 1.404
0.01353924 0.043079399 1.404
-0.075696662 0.051079858 1.404
-0.06277284 0.051695284 1.4040002
-0.05468446 0.052574452 1.4040002
-0.048002761 0.057849478 1.404
-0.023385961 0.057849478 1.404
-0.014770079 0.057849478 1.404
-0.0046771923 0.055880137 1.404
0.00492336 0.052310701 1.404
-0.05046444 0.064003676 1.404
-0.04464592 0.06523452 1.4040002
-0.03411185 0.064531185 1.404
-0.024206519 0.063183121 1.4040002
-0.016000919 0.060311157 1.4039999
-0.05046444 0.070157878 1.404
-0.044310238 0.070157878 1.404
-0.035694361 0.070157878 1.404
-0.12032688 -0.080631413 1.4150001
-0.12156737 -0.074429005 1.4150001
-0.11427756 -0.073764302 1.4125001
-0.10630459 -0.072929889 1.41
-0.092707492 -0.075402096 1.4100002
-0.12231165 -0.064008936 1.4150001
-0.11412447 -0.06450513 1.4150003
-0.1050685 -0.064277202 1.41
-0.13025075 -0.052100301 1.4150001
-0.12380025 -0.054333173 1.4150003
-0.11392666 -0.05448648 1.4125001
-0.10671663 -0.055212468 1.41
-0.14761752 -0.040935948 1.4150001
-0.13166845 -0.043416917 1.4150001
-0.12429644 -0.044905499 1.4150003
-0.11410925 -0.044291519 1.4102942
-0.15009849 -0.031012082 1.4150001
-0.1442344 -0.033493049 1.4150001
-0.13330425 -0.034065578 1.4150002
-0.12487376 -0.035011373 1.4146155
-0.11557534 -0.034610797 1.41
-0.15009849 -0.027290635 1.4150001
-0.14348258 -0.025843402 1.4150001
-0.13397218 -0.02480967 1.4150003
-0.12470483 -0.024480913 1.4126924
-0.11469707 -0.024917174 1.41
0.045428868 -0.021887442 1.4133334
-0.14017461 -0.018607249 1.4150001
-0.1339722 -0.0148858 1.4150003
-0.12404834 -0.014885801 1.4150003
-0.11374667 -0.014835665 1.4103124
-0.1075407 -0.013597101 1.4100002
0.045897882 -0.018607249 1.4150001
-0.13248363 -0.0047138366 1.4150001
-0.12404834 -0.0049619335 1.4150003
-0.11392721 -0.0049531669 1.4125001
-0.10648119 -0.0044146427 1.41
-0.13211147 0.0018607251 1.4150001
-0.12380025 0.0047138361 1.4150003
-0.1139272 0.0049531669 1.4125001
-0.10465647 0.0057684663 1.41
-0.097651899 0.0086527001 1.4100001
-0.12187749 0.013955437 1.4150001
-0.11395213 0.014863608 1.4128127
-0.10383239 0.014833197 1.41
-0.097651899 0.0185415 1.4100001
-0.12032688 0.022328701 1.4150001
-0.11379835 0.024544915 1.4140002
-0.10385623 0.024728298 1.4103125
-0.094355635 0.025752084 1.41
-0.084878862 0.027606234 1.41
-0.11226374 0.033493046 1.4150001
-0.10415512 0.034719288 1.4143752
-0.094110154 0.034676556 1.4125001
-0.085110821 0.03421009 1.4104166
0.021050958 0.037150942 1.4125001
-0.11040302 0.040935948 1.4150001
-0.10366897 0.041999221 1.4150001
-0.094236188 0.044637121 1.4143752
-0.085342772 0.044524435 1.4108334
-0.067985497 0.048207901 1.4100001
0.015261306 0.04331756 1.4116669
-0.092043862 0.052348394 1.4150001
-0.084150963 0.05445059 1.4115627
-0.073547952 0.05541848 1.41
-0.065018855 0.055871718 1.41
-0.054918159 0.05668401 1.41
-0.0053564333 0.058096696 1.4100002
0.0042141364 0.055742849 1.4130001
0.0111249 0.050680101 1.4100001
-0.083295383 0.063866995 1.4145833
-0.074266821 0.064365417 1.411875
-0.064292267 0.064292267 1.4103124
-0.0556245 0.064277202 1.41
-0.044499598 0.061804995 1.4100001
-0.025958098 0.066749401 1.4100001
-0.01455705 0.065186568 1.4111538
-0.0066854605 0.061647199 1.4120001
-0.072568275 0.071327791 1.4150001
-0.064105853 0.072894834 1.4136363
-0.054663088 0.074449457 1.4106667
-0.044499602 0.075402103 1.41
-0.034460828 0.074754931 1.4110714
-0.025015976 0.074062556 1.4126667
-0.016942313 0.072319888 1.4141668
-0.13385735 -0.091323234 1.427
-0.12760234 -0.091323242 1.427
-0.1344531 -0.084636793 1.4257144
-0.1253344 -0.084868357 1.4235715
-0.16263044 -0.07130719 1.427
-0.15462402 -0.073308803 1.427
-0.14636739 -0.074643195 1.427
-0.13445386 -0.074813485 1.4257144
-0.12713353 -0.0747834 1.4217502
-0.16338104 -0.065552577 1.427
-0.15500507 -0.065001868 1.4258749
-0.14507459 -0.064748317 1.4258002
-0.13482958 -0.064915404 1.424
-0.12748106 -0.06560915 1.4210001
-0.16304743 -0.055461146 1.427
-0.15500507 -0.054999769 1.4258749
-0.14488493 -0.054959327 1.42475
-0.13507418 -0.05516864 1.4210002
-0.12831156 -0.058549937 1.4210001
-0.16304743 -0.044619117 1.427
-0.15500508 -0.045001607 1.4258752
-0.14445871 -0.045162883 1.4230002
-0.13633969 -0.045815669 1.4210002
-0.16388144 -0.034231998 1.427
-0.15498711 -0.035190277 1.4234002
-0.14375877 -0.037621446 1.4210001
-0.13744701 -0.037787545 1.4210001
-0.16388144 -0.025020065 1.427
-0.15529084 -0.024602521 1.4235715
-0.14575197 -0.021800509 1.4210001
-0.16221343 -0.017931046 1.427
-0.15474622 -0.015247163 1.4258001
-0.14496051 -0.014717655 1.4230001
0.042355273 -0.018686149 1.4210001
-0.15220541 -0.0058380156 1.427
-0.1446448 -0.0052862326 1.4251539
-0.13703178 -0.0053982213 1.4210001
-0.1513714 0.0012510034 1.427
-0.14511639 0.005004013 1.427
-0.13535514 0.0060324897 1.4230002
-0.12831156 0.0087202033 1.4210001
-0.13398439 0.013978929 1.4259092
-0.12682211 0.015893091 1.4217502
-0.12519036 0.025075434 1.4246924
-0.11834562 0.028652096 1.4210001
-0.12371018 0.03464818 1.4253637
-0.116477 0.036126554 1.4210002
-0.12384933 0.041283108 1.427
-0.11480261 0.044175956 1.4248182
-0.10535575 0.047056258 1.4250001
0.016211759 0.046766661 1.4225
0.021177636 0.041109528 1.4210001
-0.11133929 0.051291138 1.427
-0.10347585 0.053078283 1.427
-0.095808119 0.055898424 1.4226365
0.0037372301 0.058549937 1.4210001
-0.093358114 0.063011177 1.4252857
-0.087738268 0.066120833 1.423
0.0012457434 0.061041422 1.4210001
-0.18670544 -0.12236776 1.439
-0.17395005 -0.11620031 1.439
-0.16647871 -0.11280099 1.4350001
-0.18039784 -0.10218339 1.439
-0.17383792 -0.10445412 1.439
-0.16503252 -0.10582244 1.4369999
-0.15734699 -0.1039558 1.4330001
-0.18039784 -0.09587577 1.439
-0.17409022 -0.095875792 1.4389998
-0.16468622 -0.095545262 1.4340001
-0.15577665 -0.095476016 1.4330003
-0.14658195 -0.094256565 1.4335456
-0.13756083 -0.093591616 1.4330001
-0.19049002 -0.084522069 1.439
-0.18183959 -0.084522061 1.439
-0.1742945 -0.086013094 1.4385999
-0.16495705 -0.085136011 1.4330003
-0.15577665 -0.085425928 1.4330003
-0.14580348 -0.085471928 1.4337503
-0.13944523 -0.087938428 1.4330001
-0.19245239 -0.076392248 1.439
-0.18418241 -0.075691402 1.4389998
-0.17498791 -0.075537987 1.4360002
-0.16618571 -0.075914204 1.4330003
-0.15661417 -0.078307085 1.4330001
-0.14497279 -0.075627059 1.4330002
-0.13944523 -0.076632068 1.4330001
-0.19099464 -0.065346912 1.439
-0.18505576 -0.065890342 1.4389999
-0.17562561 -0.065074436 1.4330003
-0.16875803 -0.06448818 1.4330001
-0.14447029 -0.069094487 1.4330001
-0.19049002 -0.059291597 1.439
-0.1839301 -0.056011636 1.439
-0.17544444 -0.055666078 1.4338573
-0.16851877 -0.054737188 1.433
-0.18165937 -0.045414839 1.439
-0.17486782 -0.045288604 1.4350001
-0.16851877 -0.04576388 1.433
-0.18207988 -0.035743162 1.439
-0.1747442 -0.035199918 1.4340001
-0.16859053 -0.036934145 1.4330001
-0.18147914 -0.025771117 1.439
-0.17462058 -0.025125265 1.4330002
-0.16959555 -0.025125265 1.4330001
-0.18039782 -0.016399803 1.439
-0.17498881 -0.01510409 1.4360002
-0.16650321 -0.014398711 1.4330003
-0.15954544 -0.01130637 1.4330001
-0.17246826 -0.007028487 1.439
-0.16474365 -0.0050298753 1.4345002
-0.15753542 -0.0045225481 1.4330002
-0.1469828 -0.0037687898 1.4330001
-0.16484322 0.0049280617 1.4373637
-0.1560279 0.0052763061 1.4330003
-0.14572655 0.0050250529 1.4330001
-0.16357753 0.012194726 1.439
-0.15542461 0.014734262 1.4347144
-0.1458035 0.015084364 1.4337502
-0.13793772 0.017336434 1.4330001
-0.15452981 0.023604909 1.436
-0.14600644 0.024937486 1.4366
-0.13567644 0.025125265 1.4330003
-0.12939513 0.028894056 1.4330001
-0.14204752 0.032547303 1.439
-0.13465731 0.035239808 1.4355
-0.12839012 0.035929129 1.4330001
-0.13245995 0.041630268 1.439
-0.12533423 0.045555633 1.4354001
-0.11683249 0.048366137 1.4330001
-0.19273205 -0.12360186 1.4449999
-0.18537264 -0.1216112 1.4450001
-0.19128428 -0.1140105 1.4450001
-0.18543759 -0.11410796 1.4449998
-0.17572095 -0.11201984 1.4449999
-0.19128428 -0.10514302 1.4450001
-0.18543759 -0.10397366 1.4449998
-0.17523836 -0.10767659 1.4450001
-0.19345592 -0.094284877 1.4449999
-0.18621716 -0.095008746 1.4449999
-0.20141855 -0.083607703 1.4450001
-0.19596162 -0.086433612 1.4449998
-0.18678017 -0.087126546 1.4449999
-0.20141855 -0.076007001 1.4450001
-0.19743721 -0.07510215 1.4449999
-0.19571802 -0.066506125 1.4449999
-0.19331114 -0.057511963 1.4450001
-0.18748392 -0.053204902 1.4450001
-0.18748394 -0.045604199 1.4449999
-0.19128428 -0.032936364 1.4450001
-0.1876649 -0.034927029 1.4449999
-0.19128428 -0.029136017 1.4450001
-0.18657909 -0.025516635 1.4449999
-0.1830502 -0.015201401 1.4450001
-0.18115002 -0.0076007 1.4450001
-0.17576617 -0.0038003498 1.4449999
-0.17186028 0.004222611 1.4450001
-0.16848218 0.0063339164 1.4450001
-0.16510409 0.015905168 1.4449999
-0.15328078 0.029136017 1.4450001
-0.14821365 0.029136017 1.4450001
-0.15159173 0.032514106 1.4450001
-0.14356878 0.036314454 1.4450001
-0.22197725 -0.14528646 1.4580001
-0.2172906 -0.14187798 1.4580001
-0.22112514 -0.13548708 1.4580001
-0.21458204 -0.1349723 1.4552
-0.20557658 -0.13174722 1.452
-0.19857553 -0.13111076 1.452
-0.2222207 -0.12471385 1.4580001
-0.21435191 -0.12503579 1.4553751
-0.2049401 -0.12474617 1.4519998
-0.19857551 -0.12474617 1.4519999
-0.22214767 -0.11631437 1.4580001
-0.21451463 -0.11491785 1.4565001
-0.2049401 -0.11456279 1.4519998
-0.19657521 -0.11456279 1.4519998
-0.18372481 -0.11413848 1.452
-0.22112514 -0.10481076 1.4580001
-0.21462443 -0.10475553 1.4572501
-0.2049401 -0.10437942 1.4519998
-0.19628426 -0.10429456 1.4519998
-0.18711925 -0.1081982 1.452
-0.22112514 -0.092028961 1.4580001
-0.2144617 -0.094465978 1.4561249
-0.2049401 -0.094196081 1.4519998
-0.19832094 -0.096487328 1.452
-0.22112514 -0.086916238 1.4580001
-0.21451727 -0.084273085 1.4565001
-0.20578872 -0.084437042 1.4519999
-0.21387574 -0.07438954 1.4558572
-0.20578872 -0.07340505 1.4519999
-0.21323909 -0.063841932 1.4565001
-0.20528042 -0.064434476 1.4525999
-0.19984846 -0.064918913 1.452
-0.21272565 -0.055326935 1.4580001
-0.20509551 -0.055762216 1.4547272
-0.19730258 -0.05473556 1.4519999
-0.21217787 -0.048570842 1.4580001
-0.2045088 -0.04601448 1.4580001
-0.19496058 -0.04587115 1.4534999
