# .PCD v0.7 - Point Cloud Data file format
VERSION 0.7
FIELDS x y z
SIZE 4 4 4
TYPE F F F
COUNT 1 1 1
WIDTH 1433
HEIGHT 1
VIEWPOINT 0 0 0 1 0 0 0
POINTS 1433
DATA ascii
-0.32579353 -0.0030076681 0.97200012
-0.31803715 -0.00085036666 0.97000003
-0.27126697 -0.00085036666 0.97000003
-0.2653144 -0.0020651759 0.97000021
-0.20371349 -0.0048769275 0.97346431
-0.19874069 -0.0080593722 0.97800004
-0.33317786 0.0018862359 0.97800004
-0.32476526 0.002886151 0.97456253
-0.31588763 0.0054964074 0.97211117
-0.30783272 0.0093540335 0.97000003
-0.26414359 0.0040393509 0.97012496
-0.2575396 0.0066814525 0.97000021
-0.21174128 0.0093540335 0.97000003
-0.2039171 0.0052887551 0.97299993
-0.19976954 0.0051442804 0.97800004
-0.31173387 0.012264567 0.97600001
-0.30466554 0.015042457 0.9741739
-0.29765877 0.017395446 0.9712857
-0.25417176 0.014940305 0.97079289
-0.24508397 0.015340058 0.97183311
-0.23542061 0.016612696 0.97255975
-0.22468564 0.016519777 0.97259247
-0.2153952 0.015028773 0.97432363
-0.20648909 0.011879029 0.97555554
-0.30094036 0.021434499 0.97800004
-0.29434294 0.024032937 0.9740001
-0.2853381 0.026812853 0.9725557
-0.27626407 0.028711382 0.97037506
-0.25294769 0.025549132 0.97149986
-0.24542397 0.025297994 0.97441024
-0.23638256 0.023408007 0.9777692
-0.22497196 0.022127062 0.977
-0.28430563 0.031360645 0.97740012
-0.27497011 0.034175843 0.97566676
-0.26568139 0.035398308 0.97290003
-0.25478658 0.035436202 0.97071993
-0.2460445 0.034477405 0.97559375
-0.26320627 0.040955238 0.97614288
-0.25497454 0.041714218 0.97599989
-0.24806862 0.041440032 0.9780001
-0.30590814 -0.23213902 0.98712504
-0.24323781 -0.23370266 0.98880005
-0.23758961 -0.23197256 0.98550004
-0.32201368 -0.22335556 0.98711109
-0.31517389 -0.22547317 0.98615628
-0.30874068 -0.2290283 0.9883334
-0.28212938 -0.22143774 0.98900002
-0.27480334 -0.22252382 0.98884624
-0.26420334 -0.2243235 0.98891687
-0.25570253 -0.22476716 0.98900014
-0.24405248 -0.22498892 0.98850012
-0.23505023 -0.22543232 0.98442841
-0.22928165 -0.22297139 0.98200005
-0.33206993 -0.21068667 0.98900002
-0.32531646 -0.21451348 0.9884063
-0.31551859 -0.21457696 0.98811769
-0.30468848 -0.21372344 0.98823076
-0.2950083 -0.21569751 0.98749995
-0.28489137 -0.21496023 0.9852758
-0.27499607 -0.21533173 0.98643327
-0.26510927 -0.21566428 0.9871071
-0.25506401 -0.21544112 0.98693335
-0.24478735 -0.21485077 0.98511094
-0.23504691 -0.21538937 0.98234504
-0.22724867 -0.21443322 0.98115015
-0.17677113 -0.21617526 0.98100001
-0.34074017 -0.20028239 0.98900002
-0.33253601 -0.20411563 0.98866677
-0.32487002 -0.20484062 0.98756003
-0.31492424 -0.20491025 0.98592848
-0.30507132 -0.20461416 0.98421401
-0.29489961 -0.20518507 0.98399985
-0.28467119 -0.20530835 0.98399991
-0.2743195 -0.20530832 0.98399991
-0.26480249 -0.20537621 0.98389632
-0.25497139 -0.20525676 0.98276484
-0.24522884 -0.20478854 0.98150039
-0.2356427 -0.20468238 0.98100024
-0.22574349 -0.20491146 0.98210013
-0.21785803 -0.20448375 0.98223531
-0.15639897 -0.20406808 0.98100001
-0.35244495 -0.19204566 0.98900002
-0.34438702 -0.19399148 0.987158
-0.33464119 -0.19422333 0.98391998
-0.32471353 -0.19497181 0.98296893
-0.31439257 -0.19498722 0.98285294
-0.30451947 -0.19464806 0.98312902
-0.29515201 -0.19511124 0.98322576
-0.28476474 -0.19489115 0.98366666
-0.27471223 -0.19519252 0.98399979
-0.26484784 -0.19436537 0.98132169
-0.25507897 -0.19728629 0.98100001
-0.2453272 -0.19522227 0.98100024
-0.23521271 -0.19625431 0.98100013
-0.22540568 -0.19542263 0.98200017
-0.21723215 -0.19771756 0.98200005
-0.15050174 -0.19866231 0.98100007
-0.14648837 -0.19808896 0.98100013
-0.13502157 -0.19063556 0.98100013
-0.37076384 -0.18257198 0.98700005
-0.36524758 -0.18256332 0.9882859
-0.35480559 -0.18507002 0.9866401
-0.34518972 -0.18653437 0.9819231
-0.33557588 -0.18834218 0.98100007
-0.32517934 -0.18719551 0.98100007
-0.30320132 -0.18757774 0.98100007
-0.29326922 -0.18673736 0.98160011
-0.2853269 -0.18527462 0.98261535
-0.27492636 -0.18473841 0.98110753
-0.26832312 -0.18662216 0.98100001
-0.13244155 -0.18748218 0.98100007
-0.1276805 -0.18481538 0.98314291
-0.38166368 -0.17288443 0.98900002
-0.37472445 -0.17512149 0.98585719
-0.3653312 -0.17522876 0.98185718
-0.35592127 -0.17777635 0.98100001
-0.28294328 -0.17974208 0.98100007
-0.13127296 -0.17148739 0.9830001
-0.12531662 -0.17505041 0.98444736
-0.11668765 -0.17640036 0.98823082
-0.38152155 -0.16664352 0.9883334
-0.3747561 -0.16527092 0.98252028
-0.36894429 -0.16598193 0.98100013
-0.13197866 -0.1690748 0.98400009
-0.1265201 -0.16898407 0.98850006
-0.37392104 -0.15527785 0.98431587
-0.36746997 -0.15381894 0.98100001
-0.16340189 -0.15136176 0.98100001
-0.15621889 -0.15167999 0.98154545
-0.14878173 -0.15050174 0.98100007
-0.37392342 -0.14538546 0.98611778
-0.36662227 -0.14448169 0.98100013
-0.16478892 -0.14448752 0.98351616
-0.15510534 -0.14520045 0.98452938
-0.14521138 -0.14426252 0.98274177
-0.13447471 -0.14215955 0.98120004
-0.12769045 -0.14496902 0.98550004
-0.37167731 -0.13706756 0.98750001
-0.36561927 -0.13439573 0.98373693
-0.17114198 -0.13502157 0.98100013
-0.16653356 -0.1362675 0.98655564
-0.15470839 -0.13872597 0.98833328
-0.14472714 -0.13560919 0.98696649
-0.13483046 -0.13462409 0.98552918
-0.36416557 -0.12533589 0.9860456
-0.35805079 -0.12470143 0.98100007
-0.17045818 -0.12805995 0.98700005
-0.16906954 -0.12918648 0.98900002
-0.1413248 -0.12658541 0.98900002
-0.13725883 -0.12685858 0.98853862
-0.39102751 -0.11011196 0.98900002
-0.38444129 -0.11256167 0.98766679
-0.37451792 -0.11309385 0.98662519
-0.36450541 -0.11477634 0.98683327
-0.35492346 -0.11502238 0.98282129
-0.34830403 -0.1118013 0.98100007
-0.39102751 -0.10490982 0.98900002
-0.38458613 -0.10484957 0.98400015
-0.37582436 -0.10727192 0.98100001
-0.36507425 -0.10857627 0.98100001
-0.35372874 -0.10803048 0.98100001
-0.34830403 -0.10750125 0.98100013
-0.17114198 -0.10750125 0.98100007
-0.16582969 -0.10483122 0.98466659
-0.39160553 -0.099129669 0.98900002
-0.38496971 -0.095317028 0.98518187
-0.37926441 -0.090301052 0.98100007
-0.16403066 -0.09813042 0.98523086
-0.38265508 -0.08572787 0.98777783
-0.37731719 -0.084379874 0.98220003
-0.1625419 -0.081700951 0.98100007
-0.1586131 -0.080819905 0.986
-0.37426618 -0.074985154 0.98550016
-0.36854628 -0.071522854 0.98300004
-0.16168189 -0.0774009 0.98100007
-0.15618014 -0.074960969 0.9842667
-0.36440024 -0.065411456 0.98616672
-0.35669461 -0.061696291 0.98200005
-0.15222175 -0.069660813 0.98100013
-0.14878173 -0.061060708 0.98100007
-0.38062325 -0.051154375 0.98900002
-0.37542111 -0.051154375 0.98900002
-0.36394244 -0.053849511 0.98750001
-0.35582015 -0.054230362 0.98460895
-0.34830403 -0.050740588 0.98100007
-0.15276247 -0.055036929 0.98188233
-0.14720421 -0.054036595 0.98400003
-0.38062325 -0.04508521 0.98900002
-0.37455133 -0.045074202 0.98487991
-0.36620235 -0.047317203 0.98133343
-0.3534641 -0.047300555 0.98100001
-0.34658405 -0.046563398 0.98100001
-0.3362639 -0.040420469 0.98100007
-0.15342487 -0.044633221 0.98410535
-0.14866021 -0.046953741 0.98820001
-0.38062325 -0.039016049 0.98900002
-0.37396339 -0.035631955 0.98543763
-0.36825627 -0.032508381 0.98100007
-0.3341139 -0.037410434 0.98100007
-0.16241862 -0.031448554 0.98287505
-0.1560269 -0.034919955 0.98605001
-0.371086 -0.026877724 0.98900002
-0.36455691 -0.024992283 0.98307699
-0.35862416 -0.02150025 0.98100007
-0.17200199 -0.02236026 0.98100007
-0.16538897 -0.025576839 0.98570013
-0.15866527 -0.02861177 0.98900002
-0.36264279 -0.01853887 0.98820007
-0.35567522 -0.014818456 0.98409098
-0.34830403 -0.01118013 0.98100007
-0.18146211 -0.01118013 0.98100007
-0.17482695 -0.01512171 0.98580009
-0.16906954 -0.019941537 0.98900002
-0.35114443 -0.0095372563 0.98900002
-0.34446499 -0.0051128557 0.98553854
-0.33827057 -0.00315337 0.98100001
-0.20038232 -0.0034400402 0.98100007
-0.19418547 -0.0050455295 0.98385751
-0.18495581 -0.0049738721 0.98561782
-0.17827605 -0.0077936915 0.98785716
-0.3409164 0.00086526998 0.98700005
-0.33279231 0.0050161113 0.98500001
-0.32612389 0.0080990447 0.98627275
-0.31906369 0.0094601102 0.98100007
-0.20038232 0.0051600598 0.98100007
-0.19582079 0.0046359324 0.98640919
-0.18814404 0.00086702331 0.98900002
-0.32166564 0.011271304 0.98900002
-0.31494629 0.015212325 0.98507696
-0.30817023 0.019206889 0.98100013
-0.21177498 0.018784512 0.98280001
-0.20467642 0.016754013 0.98479986
-0.19792776 0.013831097 0.98591679
-0.31094664 0.022520689 0.98800004
-0.3045226 0.023621542 0.98454553
-0.29584342 0.027520321 0.98100007
-0.23447277 0.026451036 0.9822858
-0.22539835 0.026734823 0.98360002
-0.21537809 0.024835903 0.98613799
-0.2066029 0.022406222 0.98842853
-0.29255915 0.032028139 0.98733336
-0.285438 0.034857143 0.98566675
-0.2754156 0.038298715 0.98175001
-0.2419495 0.03583375 0.98100001
-0.23646146 0.034138337 0.9853704
-0.22548454 0.030584769 0.98871428
-0.21762286 0.030345818 0.98900002
-0.27384737 0.041380424 0.98628575
-0.26477543 0.045307696 0.98564297
-0.2542434 0.046985082 0.98378962
-0.2440477 0.045366596 0.98318517
-0.23826894 0.042913795 0.98690003
-0.25230381 0.051154375 0.98900002
-0.24645503 0.051439118 0.9878
-0.28143045 -0.24118446 0.99799997
-0.27581641 -0.24256971 0.99800009
-0.26455316 -0.24315327 0.99650002
-0.25463504 -0.2450567 0.99703979
-0.24791585 -0.24464414 0.99575001
-0.30382419 -0.23153758 0.99590003
-0.29475823 -0.23125739 0.9977001
-0.28405595 -0.23446757 0.9961738
-0.27452415 -0.23496899 0.99390024
-0.26475844 -0.2353327 0.99254572
-0.25465685 -0.23544998 0.99316156
-0.247834 -0.23528208 0.99242848
-0.31191567 -0.22277617 0.99199992
-0.30499029 -0.22466199 0.99350023
-0.29462841 -0.22513647 0.99431837
-0.28544256 -0.2259337 0.99295461
-0.27493468 -0.22747643 0.99199992
-0.26785323 -0.22697954 0.99200004
-0.25381452 -0.22598563 0.99200004
-0.24727142 -0.22581999 0.99199992
-0.33582908 -0.21022028 0.99500006
-0.30698761 -0.21828298 0.99200004
-0.34246567 -0.20147794 0.99275005
-0.33684734 -0.20533243 0.99350005
-0.32872897 -0.20784715 0.99200004
-0.36297473 -0.19281816 0.99392855
-0.35557312 -0.195535 0.99349993
-0.34705245 -0.1987716 0.99300003
-0.3652544 -0.18734816 0.99199992
-0.38603213 -0.17256671 0.99250007
-0.1210646 -0.17070848 0.99350005
-0.11752319 -0.17313504 0.99466676
-0.39108625 -0.16798335 0.99800003
-0.38594463 -0.16493152 0.99482358
-0.12262112 -0.1695824 0.99200004
-0.38404003 -0.15474841 0.99560004
-0.38271877 -0.14630491 0.99609089
-0.3781504 -0.14142452 0.99275005
-0.38058731 -0.13736139 0.99799997
-0.37558186 -0.1344451 0.9952727
-0.16388731 -0.13362418 0.99577779
-0.15537257 -0.13401318 0.99500006
-0.14813095 -0.13189742 0.99200004
-0.37428302 -0.12464903 0.99518746
-0.36960265 -0.12349077 0.99200004
-0.17035168 -0.12754405 0.99650002
-0.16735688 -0.12853388 0.9974001
-0.15360826 -0.12615362 0.9972499
-0.14556251 -0.12490661 0.99339306
-0.13376833 -0.12439635 0.99462509
-0.12906492 -0.12381893 0.99700004
-0.40212262 -0.11077999 0.99500006
-0.39417005 -0.11241058 0.99400002
-0.38632217 -0.11560895 0.99400002
-0.37550122 -0.11814065 0.99379998
-0.36960265 -0.11827286 0.99200004
-0.15223491 -0.11986312 0.99800003
-0.14442165 -0.11598798 0.99680012
-0.13544567 -0.11621276 0.9972499
-0.12907812 -0.11685457 0.99620008
-0.40183142 -0.10524502 0.99663639
-0.39621848 -0.10472835 0.99305868
-0.40037805 -0.098568015 0.99500006
-0.39460939 -0.094649769 0.99342108
-0.16076149 -0.093662441 0.99585724
-0.15931073 -0.094274327 0.99575007
-0.39185917 -0.087692671 0.99700004
-0.38721144 -0.084945254 0.99336362
-0.16074076 -0.08910571 0.99650002
-0.15716879 -0.084409267 0.99600005
-0.38317695 -0.075847887 0.99449992
-0.37810078 -0.071092695 0.99300003
-0.15549919 -0.078623846 0.99650002
-0.38058731 -0.06911815 0.99800003
-0.37354481 -0.065211087 0.99539989
-0.36759472 -0.062322356 0.99328572
-0.39108625 -0.052494802 0.99800003
-0.38507399 -0.05447492 0.99626321
-0.37429109 -0.055497482 0.99599999
-0.36578193 -0.055672497 0.99224997
-0.1434928 -0.051309545 0.99200004
-0.39196119 -0.045058031 0.99800009
-0.38659805 -0.045685954 0.99454993
-0.15045002 -0.040873706 0.99200004
-0.14476407 -0.044889718 0.99544454
-0.3834767 -0.035070878 0.99519998
-0.37783229 -0.031847723 0.99260008
-0.15231708 -0.033738222 0.99359995
-0.14826393 -0.035472251 0.99735725
-0.38058731 -0.027122313 0.99800003
-0.37500632 -0.025310578 0.99569231
-0.36844313 -0.021741332 0.99200004
-0.16351381 -0.021912165 0.9946
-0.15581004 -0.025451452 0.99592328
-0.14961018 -0.02887214 0.99800003
-0.3645032 -0.014821716 0.99470007
-0.35763878 -0.011339683 0.995
-0.17172545 -0.01372079 0.9952727
-0.16685289 -0.018053927 0.99650007
-0.35324091 -0.0061086137 0.99600005
-0.34757146 -0.0026089603 0.99200004
-0.18001825 -0.0017393066 0.99200004
-0.17619094 -0.0055248984 0.99550003
-0.34664673 0.00087096833 0.99350005
-0.33467013 0.0074848039 0.99260008
-0.19306731 0.0054586749 0.99537504
-0.18492363 0.0023282806 0.99500006
-0.17935723 0.00087491336 0.99800003
-0.33259225 0.012060127 0.99680007
-0.3246004 0.014721096 0.995
-0.31877309 0.017420681 0.99350005
-0.19677189 0.015271205 0.9953751
-0.32284302 0.020123007 0.99800003
-0.3155942 0.021807084 0.99500006
-0.30504417 0.027528333 0.99457151
-0.21148422 0.028285433 0.99275005
-0.20468868 0.025291193 0.99472731
-0.19859672 0.021258436 0.99650002
-0.3019855 0.03264809 0.9975
-0.29544377 0.03574799 0.9944706
-0.28640583 0.038554627 0.99200004
-0.23227273 0.035936944 0.99285704
-0.22499567 0.035490766 0.99476939
-0.21498875 0.03402631 0.99511993
-0.20822936 0.030621966 0.99800003
-0.29134613 0.041120928 0.99800003
-0.28450772 0.041308679 0.99550003
-0.27360442 0.045361366 0.99500006
-0.26682913 0.049015451 0.99250007
-0.24089397 0.04957024 0.99200004
-0.23515593 0.045163661 0.99452001
-0.22835238 0.041120928 0.99800003
-0.26378492 0.052980077 0.99663645
-0.25557864 0.053748898 0.99500012
-0.24481127 0.054269876 0.99519998
-0.2381307 0.052336123 0.99500006
-0.27102062 -0.26042697 1.0070001
-0.26925501 -0.26042697 1.0070001
-0.2928507 -0.25290728 1.0064546
-0.28425324 -0.25345135 1.0038499
-0.27474529 -0.25451204 1.0050343
-0.26498035 -0.25412968 1.0036248
-0.25715604 -0.25258547 1.0025001
-0.30207878 -0.24289961 1.0046
-0.29518309 -0.24495831 1.0050999
-0.28566244 -0.24588196 1.0028749
-0.27488127 -0.24712105 1.0022
-0.26570067 -0.24736971 1.001
-0.25887528 -0.24834476 1.001
-0.3022106 -0.23603214 1.0029091
-0.29498166 -0.23638813 1.0018574
-0.28812674 -0.2389843 1.001
-0.33960927 -0.21148795 1.001
-0.35423502 -0.20154245 1.001
-0.33960927 -0.20973286 1.001
-0.12022343 -0.17112094 1.001
-0.11846835 -0.17112094 1.001
-0.39493555 -0.16373995 1.0031
-0.39500508 -0.1548336 1.0034999
-0.38875169 -0.15357009 1.001
-0.39318609 -0.14541121 1.0052856
-0.38768384 -0.14451037 1.0023637
-0.39196467 -0.13860013 1.0070001
-0.38573143 -0.13510998 1.0035714
-0.37927422 -0.13215801 1.001
-0.38459158 -0.12490956 1.0048
-0.37962526 -0.12689278 1.001
-0.17088215 -0.12361859 1.0058
-0.1644332 -0.12453977 1.002655
-0.15770146 -0.12275262 1.0016
-0.12736915 -0.12327043 1.002
-0.40323114 -0.11232555 1.001
-0.39675799 -0.11718667 1.0050001
-0.38581616 -0.11864588 1.0025001
-0.17038104 -0.11917845 1.0070001
-0.16556391 -0.11605497 1.0067
-0.15446284 -0.11526959 1.0049598
-0.14797717 -0.11153018 1.00175
-0.13372095 -0.11087747 1.0022001
-0.40674767 -0.10485347 1.0027143
-0.16299425 -0.10425641 1.0050001
-0.15537339 -0.1050536 1.0070001
-0.14449978 -0.10713676 1.0050499
-0.13649337 -0.10752877 1.0044999
-0.40324515 -0.094930716 1.0040001
-0.39900035 -0.091399953 1.0025001
-0.15943038 -0.096455909 1.00475
-0.39507395 -0.084243663 1.0039999
-0.16234551 -0.086876787 1.001
-0.15691333 -0.084515393 1.0022
-0.39284748 -0.078569494 1.0070001
-0.38776895 -0.07385654 1.003
-0.15315017 -0.078335427 1.0040001
-0.40167552 -0.060913429 1.0070001
-0.39314511 -0.060822695 1.0055001
-0.38534701 -0.064354576 1.0041578
-0.37822115 -0.063183129 1.0010002
-0.40197533 -0.05427086 1.0046923
-0.39583865 -0.05530623 1.0028571
-0.384949 -0.058502886 1.001
-0.37734362 -0.057917859 1.001
-0.40236682 -0.04776115 1.0052001
-0.39695618 -0.044851299 1.0031819
-0.14147559 -0.041871354 1.0055001
-0.39352375 -0.037147336 1.0035385
-0.38851467 -0.033209007 1.0022
-0.14457868 -0.035562702 1.0038235
-0.13860013 -0.039726149 1.0070001
-0.38548788 -0.024141939 1.0044999
-0.37772059 -0.022252137 1.002
-0.15270421 -0.022257151 1.0033078
-0.14764777 -0.026602536 1.0049
-0.37389889 -0.015773863 1.0048182
-0.36769068 -0.012724379 1.001
-0.16535325 -0.014455323 1.004625
-0.15743224 -0.016922737 1.0055001
-0.3716602 -0.0097108362 1.0070001
-0.36401758 -0.0064386092 1.0046315
-0.3569319 -0.0036586225 1.002
-0.17284927 -0.0054837521 1.0040001
-0.16924444 -0.0096963719 1.0055001
-0.35416591 0.0022510851 1.0046668
-0.3464596 0.0042046881 1.0033334
-0.33785418 0.0096529769 1.001
-0.19239262 0.0081376582 1.00325
-0.18519565 0.0058170343 1.005
-0.17832628 0.00088280335 1.0070001
-0.33532289 0.016158259 1.0033684
-0.32849371 0.016673323 1.001
-0.1949431 0.014813435 1.0045455
-0.33309788 0.022259541 1.0066667
-0.32479444 0.024754127 1.0055
-0.31574747 0.026973354 1.00325
-0.30889523 0.02895893 1.001
-0.20260346 0.028291613 1.0022
-0.19713846 0.024906358 1.0041764
-0.32222322 0.030898117 1.0070001
-0.31453156 0.033640373 1.0055789
-0.30606839 0.035701245 1.00295
-0.2974872 0.039489448 1.001
-0.22552864 0.039489448 1.001
-0.21376114 0.038306508 1.0034546
-0.20586389 0.033073954 1.0045
-0.19774795 0.030898117 1.0070001
-0.30189943 0.041368145 1.0040001
-0.2951878 0.042421352 1.0028751
-0.28575215 0.044151757 1.0050001
-0.27756611 0.047190383 1.003
-0.23218817 0.046243683 1.0036668
-0.22516909 0.042375676 1.0050908
-0.21685712 0.041960899 1.0061429
-0.27354649 0.051610243 1.0046
-0.26532042 0.056627408 1.0040001
-0.25455222 0.057932541 1.0012501
-0.24340037 0.058288112 1.0023333
-0.2353809 0.05486929 1.0044615
-0.26130977 0.061796233 1.0070001
-0.25470766 0.061806828 1.00475
-0.24512461 0.062070511 1.0052859
-0.2379155 0.061354831 1.0070001
-0.27359891 -0.26120284 1.01
-0.1241474 -0.17114243 1.0115
-0.11473793 -0.17218363 1.0145884
-0.10906756 -0.17088191 1.0170001
-0.40430164 -0.1619668 1.0118001
-0.12469707 -0.16922911 1.016
-0.1130054 -0.16794479 1.0190001
-0.1071988 -0.16883811 1.0190001
-0.40366995 -0.15348504 1.012
-0.40331104 -0.1442081 1.013643
-0.39767766 -0.14401327 1.0103
-0.40348414 -0.13574189 1.0169475
-0.39572701 -0.13466719 1.0128574
-0.40192413 -0.12684742 1.017125
-0.39513534 -0.12506977 1.0136524
-0.38870522 -0.12661697 1.01
-0.39313239 -0.1195335 1.01
-0.1618733 -0.11309398 1.0100001
-0.15707587 -0.11138751 1.01
-0.1234408 -0.11988855 1.013
-0.41278201 -0.10241877 1.0115
-0.40995562 -0.10005397 1.01
-0.16196083 -0.10655086 1.0105456
-0.15524571 -0.10441875 1.0123004
-0.14554775 -0.10208563 1.0105295
-0.13657513 -0.1023858 1.0103
-0.41426682 -0.094786949 1.0149412
-0.40790486 -0.093771994 1.0115
-0.16026343 -0.094741367 1.01
-0.15557939 -0.095333219 1.0176003
-0.14477441 -0.096080273 1.0165458
-0.1369978 -0.096369259 1.01475
-0.41323957 -0.086060561 1.0164738
-0.40520936 -0.085102454 1.0133603
-0.39844501 -0.081459865 1.01
-0.15586923 -0.084974244 1.016
-0.40342674 -0.0770448 1.0171999
-0.39618573 -0.074370399 1.013158
-0.4013038 -0.061992899 1.015
-0.39455444 -0.065711834 1.0138
-0.38870522 -0.064636633 1.01
-0.41201669 -0.053167205 1.0142
-0.40799859 -0.052586555 1.011
-0.40387741 -0.044150103 1.0140001
-0.39719734 -0.034293447 1.0136001
-0.14213939 -0.034263004 1.0116364
-0.1383052 -0.03371828 1.01675
-0.39321876 -0.026039777 1.0124999
-0.38427806 -0.020364966 1.01
-0.14440717 -0.024482021 1.014778
-0.13731055 -0.029104982 1.0184
-0.38397706 -0.015116655 1.0146668
-0.37724105 -0.01364251 1.0106
-0.16114888 -0.011510633 1.01
-0.15425926 -0.014371315 1.0134094
-0.14804056 -0.017692262 1.0164286
-0.37334737 -0.0044455766 1.0146365
-0.36761075 -0.0031626376 1.0104287
-0.17278783 -0.001997814 1.013375
-0.16534771 -0.0072308714 1.0132859
-0.1577609 -0.0094692269 1.0190001
-0.37272111 0.0028996842 1.017125
-0.36422727 0.0041597835 1.0150001
-0.35568315 0.0072291577 1.0143124
-0.34587938 0.0083288597 1.0106001
-0.19036816 0.0097397668 1.01
-0.18328948 0.0086367605 1.0127274
-0.17840561 0.0042713834 1.0145001
-0.3546676 0.013731229 1.017
-0.34569359 0.014307693 1.0120625
-0.19223966 0.01573986 1.0132143
-0.18623726 0.013837353 1.0164739
-0.33345419 0.02496922 1.01
-0.32672489 0.027802605 1.01
-0.19490042 0.024836205 1.0151818
-0.32229775 0.032761034 1.01
-0.21161857 0.039844498 1.01
-0.20447893 0.037311621 1.0120528
-0.19808808 0.034027115 1.016
-0.29353461 0.046798319 1.0156667
-0.28593987 0.0478913 1.0142857
-0.23044428 0.047365777 1.0118001
-0.22443052 0.047198419 1.013375
-0.21470909 0.045746975 1.0144351
-0.20624408 0.043286704 1.0174118
-0.28323117 0.051513106 1.0166
-0.27551225 0.055533767 1.0151
-0.26779932 0.059412137 1.0115
-0.23137249 0.055591058 1.0134286
-0.22621188 0.053418893 1.0182108
-0.21752423 0.051366091 1.0190001
-0.2715703 0.062532634 1.0190001
-0.26479834 0.065037839 1.0145882
-0.25522727 0.066844366 1.013
-0.24541022 0.066484585 1.0111541
-0.23555233 0.065166004 1.0131114
-0.26263705 0.07057254 1.0190001
-0.25510761 0.070827782 1.0190001
-0.24426802 0.071319379 1.0168999
-0.23727159 0.070468657 1.0175
-0.12184966 -0.17112708 1.0220001
-0.11916179 -0.17112708 1.0220001
-0.40945068 -0.16037564 1.0220001
-0.12274539 -0.16905661 1.02575
-0.11517785 -0.1668694 1.0249999
-0.10479207 -0.16498566 1.0248636
-0.09877912 -0.16391125 1.0262001
-0.098232254 -0.15951476 1.028
-0.41065258 -0.13568608 1.0250001
-0.42020211 -0.095867008 1.0220001
-0.15284964 -0.091208056 1.0220001
-0.14514445 -0.091387235 1.0220002
-0.13633382 -0.091486849 1.0231252
-0.41762328 -0.082806133 1.0230001
-0.15238865 -0.084926985 1.0235883
-0.14584161 -0.087143302 1.026125
-0.1349225 -0.088445731 1.026
-0.41417068 -0.077410489 1.0259999
-0.40664178 -0.073932007 1.0235001
-0.15500869 -0.077804744 1.028
-0.40471733 -0.06659431 1.0252728
-0.41485852 -0.047297593 1.027625
-0.40945068 -0.045693621 1.0220001
-0.40480149 -0.034673702 1.0272501
-0.39928442 -0.028711271 1.0235001
-0.14121586 -0.021965981 1.0227501
-0.13728109 -0.024248399 1.0245386
-0.38884374 -0.0134393 1.0220001
-0.15141611 -0.011647393 1.0220001
-0.14554317 -0.015272556 1.0248333
-0.13968806 -0.018925481 1.028
-0.3831664 -0.0060857688 1.0264118
-0.37809229 -0.0044797668 1.0220001
-0.17112708 -0.00089595333 1.0220001
-0.16473426 -0.0026925942 1.0246001
-0.15519926 -0.0064607412 1.0255713
-0.14870019 -0.0099133467 1.028
-0.38010076 0.00089858333 1.0250001
-0.37338433 0.0044806432 1.0230001
-0.36751926 0.0071899816 1.0250001
-0.18008661 0.0098554865 1.0220001
-0.17539251 0.0032983131 1.0259999
-0.18304777 0.016686473 1.0232002
-0.17881806 0.013478751 1.0250001
-0.19334096 0.023976117 1.0266364
-0.18666746 0.021008147 1.027
-0.1948555 0.036075603 1.0242941
-0.18960108 0.038639084 1.0250001
-0.30258742 0.047729455 1.0272499
-0.29744512 0.048901781 1.0235001
-0.21144497 0.049277432 1.0220001
-0.20381857 0.046604887 1.0236001
-0.19618015 0.043570712 1.0259598
-0.30100524 0.05136916 1.028
-0.29357183 0.054279543 1.0261664
-0.28554982 0.055951238 1.0244704
-0.27774554 0.058236968 1.0220001
-0.22393146 0.056898024 1.0226926
-0.21559921 0.05455466 1.0251501
-0.20967631 0.052195419 1.0265
-0.28320631 0.06150781 1.028
-0.27513406 0.064426169 1.0254
-0.26878601 0.06809245 1.0220001
-0.2313568 0.065890461 1.0233334
-0.22689912 0.063275903 1.0261666
-0.2644282 0.072913349 1.0240002
-0.25564519 0.074285515 1.0250001
-0.24477157 0.074781746 1.0246251
-0.23680247 0.073009774 1.0253334
-0.13012713 -0.17107624 1.0380001
-0.12419419 -0.16658981 1.034077
-0.11500268 -0.16278504 1.0340716
-0.10502659 -0.16178796 1.031
-0.095807388 -0.16178796 1.031
-0.11192754 -0.1592465 1.0380001
-0.10489523 -0.15875362 1.0341177
-0.0970212 -0.15867315 1.0342858
-0.15094183 -0.081345901 1.031
-0.14383474 -0.083004683 1.0325501
-0.13587224 -0.084680431 1.0353501
-0.42132074 -0.072798401 1.0380001
-0.41673133 -0.072925277 1.034
-0.15353742 -0.074909016 1.034091
-0.14626081 -0.077609546 1.0362858
-0.4150421 -0.067877673 1.0354446
-0.40944102 -0.067788243 1.031
-0.42270184 -0.04503236 1.0362858
-0.4163186 -0.043266334 1.0332309
-0.41300091 -0.037049182 1.0380001
-0.40785336 -0.032208733 1.035
-0.40460575 -0.028963752 1.0325
-0.13553648 -0.021433039 1.033
-0.14204951 -0.012978174 1.0331668
-0.13725539 -0.016170774 1.0345834
-0.38729686 -0.0040672948 1.031
-0.16178796 -0.00090384332 1.031
-0.15344922 -0.002328051 1.0331429
-0.14733626 -0.0076663699 1.0345455
-0.37183818 0.0087467954 1.0320001
-0.36893463 0.009971207 1.034
-0.17470779 0.0063455869 1.0339376
-0.16475666 0.0026171596 1.0342942
-0.15697156 0.0020461401 1.0365001
-0.1803882 0.019035939 1.034
-0.17791389 0.012870869 1.0344001
-0.19274111 0.028052282 1.0322001
-0.18666214 0.024756122 1.0340002
-0.32176822 0.038865265 1.031
-0.19227462 0.033372555 1.0351111
-0.3309294 0.04276906 1.0380001
-0.32513154 0.0426335 1.0346364
-0.31495595 0.045164112 1.0373334
-0.30752918 0.047746114 1.0325
-0.20320475 0.049783707 1.0325
-0.19276351 0.04672268 1.0315001
-0.18917809 0.048879866 1.0325
-0.31212315 0.052778836 1.0380001
-0.30483115 0.05528684 1.0338334
-0.29796702 0.057544693 1.031
-0.21241045 0.05781731 1.0337001
-0.20582129 0.053661231 1.0353531
-0.19344702 0.051768921 1.036
-0.30292162 0.061238669 1.0364001
-0.29356194 0.062493868 1.0330715
-0.28490791 0.065429404 1.0332309
-0.27774903 0.067853995 1.0320001
-0.22413595 0.06608659 1.0326471
-0.21644208 0.062012769 1.0343847
-0.27186102 0.073821649 1.0344001
-0.26440853 0.077343918 1.0344287
-0.25439054 0.077958077 1.0326667
-0.24551974 0.078218251 1.0334445
-0.23422545 0.07585261 1.0345265
-0.2273016 0.073398545 1.03575
-0.25206447 0.080988221 1.0380001
-0.2411447 0.080988221 1.0380001
-0.13326539 -0.16611737 1.04475
-0.12527928 -0.16285487 1.044
-0.11844819 -0.16107698 1.0419999
-0.11430028 -0.15808403 1.0445454
-0.10407324 -0.1546718 1.0440001
-0.097894184 -0.15370081 1.043625
-0.095458478 -0.14961281 1.0470001
-0.13415366 -0.081222288 1.041
-0.15268168 -0.071767107 1.0428751
-0.14435758 -0.07329835 1.0440001
-0.13612708 -0.075926915 1.0435503
-0.15420216 -0.06884025 1.0470001
-0.14594133 -0.06884025 1.0470001
-0.42641702 -0.042664517 1.041
-0.42409307 -0.037608705 1.0463334
-0.41653007 -0.033984859 1.0435385
-0.41388196 -0.027381679 1.0461428
-0.40976188 -0.028290911 1.041
-0.13343173 -0.021020275 1.0425
-0.39516014 -0.01003871 1.041
-0.13434327 -0.013813636 1.0438572
-0.39474827 -0.0067654117 1.0427999
-0.14421068 -0.0040154383 1.0437393
-0.13645086 -0.0069171395 1.045909
-0.38213989 0.0076489169 1.0470001
-0.17206381 0.0073232353 1.044
-0.16470571 0.0073217009 1.04375
-0.15450527 0.0046912623 1.043625
-0.14739966 0.0015293449 1.0465001
-0.37774602 0.010689196 1.0450001
-0.18056133 0.017417176 1.0455
-0.17430851 0.01003871 1.041
-0.16521659 0.01009657 1.0470001
-0.15695576 0.01009657 1.0470001
-0.35793424 0.02781488 1.046
-0.18379396 0.025043337 1.0439999
-0.3530128 0.032125451 1.0470001
-0.34565523 0.036041521 1.0458461
-0.33678377 0.036708657 1.0425001
-0.19128515 0.033867385 1.044
-0.18822272 0.031786557 1.0444286
-0.34144765 0.042222019 1.0470001
-0.33487022 0.04394491 1.0423638
-0.32483217 0.046683379 1.0414002
-0.31740576 0.046908155 1.041
-0.33040163 0.050338201 1.044
-0.32360271 0.052586101 1.0444286
-0.31581289 0.055650949 1.0425
-0.30937478 0.059319649 1.041
-0.20404856 0.057788994 1.0437691
-0.19551824 0.056020644 1.0446252
-0.31163001 0.061409183 1.0455
-0.30442479 0.064549737 1.0443751
-0.29510498 0.067650326 1.0443333
-0.28747216 0.06844575 1.041
-0.22197551 0.068511494 1.0419999
-0.21443325 0.065958649 1.0433334
-0.20731878 0.062131498 1.0444286
-0.29096478 0.070675991 1.0470001
-0.28432667 0.071311273 1.0443333
-0.27535805 0.076451138 1.0443751
-0.26765335 0.079473339 1.0419999
-0.23393238 0.079397067 1.041
-0.22512679 0.075243428 1.0441999
-0.21753518 0.070675991 1.0470001
-0.27155933 0.084405035 1.0465
-0.26482525 0.084310152 1.0442729
-0.25496092 0.084533624 1.0438125
-0.24499594 0.084568091 1.0437502
-0.23553412 0.084253892 1.0446002
-0.22817467 0.08286716 1.0452858
-0.13285883 -0.16170116 1.0500001
-0.12794951 -0.1610875 1.0500001
-0.13085739 -0.15918484 1.0536667
-0.12392919 -0.15832895 1.0528182
-0.1153406 -0.15485078 1.0538462
-0.10547286 -0.15189952 1.05225
-0.10217813 -0.14799763 1.0538
-0.095300235 -0.1465721 1.0525001
-0.088957116 -0.14548196 1.057
-0.14083649 -0.070878498 1.0500001
-0.136234 -0.070878498 1.0500001
-0.15331796 -0.064896643 1.0531764
-0.14526041 -0.06434039 1.0548333
-0.13725977 -0.066189669 1.0555334
-0.15104178 -0.057451472 1.057
-0.14857076 -0.057760347 1.057
-0.4315111 -0.033264242 1.054
-0.42640212 -0.033294436 1.0517777
-0.42494565 -0.026912665 1.0534285
-0.4148933 -0.024001643 1.0531
-0.40947872 -0.023052827 1.052
-0.41050005 -0.019459371 1.057
-0.40567616 -0.016674638 1.0565001
-0.13073379 -0.012306062 1.0526667
-0.12880249 -0.017606096 1.057
-0.40194291 -0.0083160596 1.054
-0.14083649 -0.00092049997 1.0500001
-0.13463165 -0.0032949517 1.0529287
-0.12880249 -0.0064864568 1.057
-0.38808277 0.007392053 1.054
-0.15186146 0.0068292329 1.0524
-0.14502317 0.0045002801 1.0536667
-0.13714223 0.0018532733 1.057
-0.38314527 0.012540967 1.0538571
-0.37797832 0.012767072 1.0552
-0.18075991 0.017522814 1.052
-0.17611866 0.013126505 1.0540001
-0.16772124 0.010193003 1.057
-0.15104178 0.010193003 1.057
-0.36398438 0.026745344 1.052
-0.1831795 0.027615 1.0500001
-0.36184433 0.034186054 1.0538334
-0.35624823 0.035950869 1.0513999
-0.34813309 0.038108699 1.0500001
-0.1918249 0.037876382 1.0536667
-0.1862267 0.033628494 1.0537001
-0.35278577 0.041949905 1.054
-0.34646758 0.043156695 1.0548333
-0.33894342 0.047108121 1.0535001
-0.33171839 0.052668381 1.054
-0.32545725 0.056906771 1.0526667
-0.2034305 0.059832498 1.0500001
-0.31478557 0.063235722 1.053
-0.30485272 0.06789849 1.05375
-0.21167584 0.068511501 1.0513334
-0.20543705 0.06529998 1.054
-0.19733138 0.06270694 1.0518334
-0.30030218 0.071148515 1.054
-0.29460198 0.073190011 1.0541
-0.28524214 0.075279459 1.0523001
-0.27944276 0.077471033 1.052
-0.22246435 0.07607922 1.0518751
-0.21559103 0.07471592 1.054619
-0.20849325 0.071351022 1.057
-0.27715787 0.08231286 1.0549999
-0.26205212 0.08935798 1.05625
-0.25624233 0.089361086 1.0552
-0.24638717 0.089288503 1.0500001
-0.2335114 0.088721476 1.052
-0.22492778 0.083425872 1.0550001
-0.25111854 0.091737032 1.057
-0.24542144 0.091684952 1.0564001
-0.23721898 0.091737032 1.057
-0.13205814 -0.15753584 1.0633334
-0.12496144 -0.15361425 1.0626191
-0.11499608 -0.15134741 1.0611539
-0.12066703 -0.14872913 1.067
-0.11384727 -0.14730807 1.0662
-0.10545111 -0.14531714 1.0635715
-0.094935685 -0.14239986 1.0616667
-0.087041311 -0.1415583 1.0600001
-0.10071176 -0.13875149 1.067
-0.093694076 -0.13686179 1.0647501
-0.085569404 -0.13544297 1.0639999
-0.14124854 -0.060402334 1.0600001
-0.13607118 -0.061464351 1.0600001
-0.14478061 -0.055984218 1.0624446
-0.13701183 -0.057651572 1.0650001
-0.42186689 -0.021514276 1.067
-0.41724074 -0.021992644 1.0600001
-0.41452932 -0.016258661 1.0642859
-0.40788999 -0.01313578 1.062
-0.12717557 -0.012474616 1.062
-0.41064206 -0.0056124199 1.067
-0.40631732 -0.0059091714 1.0638334
-0.1310266 -0.00092926668 1.0600001
-0.12830453 -0.0038607146 1.0638572
-0.14291202 0.0077679972 1.0631667
-0.13491409 0.0032294372 1.0636154
-0.39243817 0.013813833 1.0661111
-0.38450065 0.017045848 1.0606
-0.37620926 0.017328192 1.0605456
-0.17511342 0.015993176 1.0625
-0.16684698 0.011185171 1.0632501
-0.15213323 0.011514139 1.0646667
-0.14584161 0.011202266 1.0647501
-0.38331166 0.02297866 1.0654001
-0.37501851 0.02497831 1.063421
-0.36944091 0.027918765 1.0615001
-0.18113787 0.02652668 1.0642858
-0.17928886 0.022061609 1.0633334
-0.37229052 0.03086831 1.067
-0.3672488 0.032595929 1.0623335
-0.19049966 0.039958466 1.0600001
-0.18433534 0.035124913 1.0637778
-0.36064401 0.041935351 1.0630001
-0.35241958 0.046619814 1.0635
-0.34528783 0.047865473 1.0622
-0.19269308 0.043028552 1.067
-0.189026 0.040795684 1.0656667
-0.34454021 0.051447183 1.067
-0.33493069 0.055107437 1.0654
-0.32421258 0.062512249 1.06425
-0.31648842 0.066739403 1.0662
-0.30659401 0.06989225 1.0630001
-0.20328663 0.068521723 1.061
-0.19811906 0.067697369 1.0626668
-0.31148931 0.070155248 1.067
-0.30502319 0.072565548 1.064
-0.29525241 0.077307597 1.0624286
-0.28621414 0.078987665 1.0600001
-0.21205866 0.077872545 1.0600001
-0.20591442 0.074739628 1.0637617
-0.1983055 0.071090654 1.067
-0.29184583 0.081380092 1.067
-0.28492612 0.081647471 1.0656
-0.22220089 0.0857502 1.0612501
-0.21600157 0.08335083 1.0637501
-0.27075675 0.091499448 1.0650001
-0.26460853 0.093997434 1.0658
-0.25560412 0.094279066 1.0633335
-0.24454461 0.095538251 1.0643847
-0.23378851 0.094576627 1.0645834
-0.22568145 0.093377098 1.0651
-0.21981978 0.090734124 1.067
-0.13226269 -0.1547755 1.0700001
-0.1226952 -0.14748295 1.0738335
-0.11521831 -0.14333762 1.0731052
-0.10794945 -0.14174101 1.07075
-0.11197857 -0.13803765 1.077
-0.10431481 -0.13554293 1.0737271
-0.095489159 -0.13236752 1.0708572
-0.085629039 -0.13092266 1.0700001
-0.10197036 -0.12935129 1.077
-0.094010167 -0.12670586 1.0759333
-0.085708618 -0.12525921 1.07432
-0.079807349 -0.12299898 1.0710001
-0.083992988 -0.1186737 1.0765001
-0.079956383 -0.11852358 1.0730001
-0.14408675 -0.052097011 1.0707501
-0.13494363 -0.053201105 1.0731111
-0.14402668 -0.048950266 1.0738
-0.13759284 -0.049003914 1.075
-0.42492908 -0.021574767 1.0700001
-0.42312664 -0.016378939 1.0740001
-0.41763544 -0.013149342 1.07175
-0.12573256 -0.014892376 1.073
-0.4140878 -0.008469915 1.0735
-0.1248614 -0.004574914 1.0730667
-0.13406375 0.0068451385 1.0715714
-0.12842159 0.0031415347 1.0745001
-0.4031606 0.01133004 1.077
-0.39836237 0.013188792 1.0742501
-0.17287508 0.017307067 1.0729001
-0.16869259 0.01508042 1.075
-0.15482926 0.012872974 1.0746666
-0.14439644 0.012823588 1.0703334
-0.13568684 0.012250429 1.0748749
-0.38177955 0.027202966 1.0700001
-0.3799035 0.029079033 1.0700001
-0.17728601 0.024914926 1.0737998
-0.37669137 0.031680983 1.0733334
-0.18255016 0.035758466 1.073375
-0.17905742 0.03109975 1.075
-0.35270053 0.049715765 1.0700001
-0.19205849 0.04725964 1.071
-0.18760945 0.044119854 1.0745
-0.35196894 0.052704759 1.0735
-0.34505692 0.054785296 1.0736667
-0.33682287 0.058110904 1.0726001
-0.18977816 0.050041009 1.077
-0.33338341 0.062158518 1.07425
-0.32557461 0.066162325 1.0730001
-0.31893134 0.068476431 1.0700001
-0.19451542 0.06634184 1.0719
-0.32134041 0.074084468 1.0765001
-0.31487614 0.073579445 1.0725625
-0.30538014 0.076999679 1.0725557
-0.29735658 0.079732835 1.0700001
-0.20359726 0.078580894 1.0713334
-0.19672725 0.074433692 1.0731175
-0.30213439 0.082142793 1.077
-0.29510549 0.083543912 1.0737501
-0.28619 0.085271835 1.0747501
-0.21433881 0.087027632 1.0723571
-0.20580254 0.082731389 1.0744166
-0.19921987 0.08025445 1.077
-0.27253902 0.095858239 1.072
-0.26579422 0.097990878 1.0713334
-0.25420704 0.098493502 1.0700001
-0.24452665 0.098093517 1.0707501
-0.23649617 0.097914182 1.0705001
-0.22318847 0.096860275 1.0706
-0.21722423 0.094021626 1.074
-0.26481467 0.10131066 1.075
-0.25450286 0.101657 1.0747777
-0.24501245 0.1013465 1.072875
-0.23507562 0.10165428 1.0745454
-0.2250869 0.10171568 1.0743001
-0.1221372 -0.14486039 1.08
-0.11835 -0.1410732 1.08
-0.1144922 -0.13552496 1.0841333
-0.10787047 -0.13159102 1.0825001
-0.10385261 -0.12535308 1.0843124
-0.097010061 -0.12291778 1.0813333
-0.089946002 -0.1202436 1.08
-0.10053482 -0.11768767 1.087
-0.094157182 -0.11653376 1.0862499
-0.085866146 -0.11444791 1.0829444
-0.085234895 -0.10831714 1.087
-0.14335977 -0.043669179 1.0829999
-0.13717176 -0.045658812 1.0850999
-0.14198756 -0.039070401 1.087
-0.42363104 -0.011071716 1.0826668
-0.12255413 -0.015055653 1.0850834
-0.11911708 -0.016199924 1.087
-0.42176259 -0.006029129 1.086
-0.4180851 -0.0047403118 1.0824001
-0.1231325 -0.0044461614 1.086
-0.12590848 0.0038048795 1.0853333
-0.40481824 0.015802952 1.0832727
-0.39860278 0.0179892 1.08
-0.1713708 0.018936001 1.08
-0.16513026 0.015809461 1.0828259
-0.1568006 0.0142546 1.0840001
-0.13089859 0.012331193 1.082
-0.1297116 0.0104148 1.08
-0.17290072 0.026244538 1.0833683
-0.16671219 0.022969639 1.0866666
-0.37562889 0.035096474 1.082
-0.18143913 0.037429459 1.0836
-0.17648676 0.032902263 1.0847
-0.18470828 0.044845544 1.0847691
-0.35518607 0.056106884 1.0847501
-0.3463254 0.059090838 1.0813334
-0.1924051 0.054293279 1.0864999
-0.18702072 0.052924708 1.0854615
-0.35163364 0.060035009 1.087
-0.3434833 0.063961215 1.0853333
-0.33573404 0.06620235 1.0831429
-0.32853961 0.069116399 1.08
-0.1921085 0.067520723 1.0848333
-0.1896344 0.064799696 1.087
-0.33130431 0.074011415 1.087
-0.32634285 0.074497968 1.0817778
-0.31551933 0.078642614 1.0807999
-0.30827633 0.078729928 1.082
-0.19260988 0.075282171 1.0830715
-0.18931675 0.075599641 1.087
-0.32215396 0.080776066 1.0840001
-0.31354627 0.082194805 1.0860001
-0.30545372 0.084646948 1.0832
-0.29547521 0.087505355 1.082
-0.28498679 0.08880984 1.08
-0.2117676 0.089314796 1.08
-0.20445889 0.087002158 1.0832307
-0.1963864 0.083354443 1.0845555
-0.30017504 0.09052898 1.087
-0.29368758 0.091440268 1.0865
-0.2851021 0.092815772 1.0850713
-0.27775487 0.093846582 1.0813333
-0.2131573 0.095765814 1.082684
-0.20565501 0.092951037 1.0860624
-0.2708374 0.10548404 1.0840001
-0.26449713 0.10639719 1.0823749
-0.25531119 0.10690005 1.0835882
-0.24522464 0.10605044 1.0842142
-0.23386329 0.10662878 1.0848889
-0.22474203 0.10638771 1.0841333
-0.2164083 0.10304051 1.0854285
-0.25443408 0.11149359 1.087
-0.11647289 -0.13330208 1.0908
-0.11238311 -0.12668252 1.0956666
-0.1083046 -0.12408066 1.090875
-0.10411301 -0.11441383 1.092381
-0.095702976 -0.11227079 1.0904446
-0.10216907 -0.10729202 1.0960001
-0.094380356 -0.10611033 1.0929583
-0.085408047 -0.10324075 1.0920527
-0.091361813 -0.099055439 1.097
-0.085073054 -0.097567737 1.0965
-0.079821378 -0.097132035 1.097
-0.13405885 -0.044094834 1.0934287
-0.14245673 -0.036172871 1.0955001
-0.13575421 -0.037002865 1.0955294
-0.12135696 -0.0114668 1.09
-0.1188539 -0.012056972 1.0916001
-0.43254206 -0.0086316597 1.0940001
-0.42614812 -0.0047842092 1.0923637
-0.12157964 -0.0057404134 1.0920001
-0.11895117 -0.0047982158 1.0942501
-0.42353258 0.0019207767 1.0955
-0.12363844 0.0065562529 1.0920001
-0.11890595 0.0028788273 1.0938334
-0.16104761 0.018214066 1.0935
-0.15820919 0.016781373 1.09375
-0.12652078 0.011103109 1.0945715
-0.16538492 0.026148744 1.0938667
-0.38173953 0.036800422 1.0950001
-0.3767468 0.038500048 1.0924001
-0.1806021 0.039178234 1.09
-0.17434365 0.036555979 1.0940557
-0.16746113 0.032506049 1.095143
-0.37371895 0.045635216 1.095875
-0.368536 0.047028128 1.09475
-0.18182047 0.045430228 1.0922222
-0.17875387 0.043968998 1.0962501
-0.37121749 0.050970275 1.097
-0.36833239 0.050970275 1.097
-0.19541252 0.0565187 1.0926667
-0.1840651 0.055644456 1.0932354
-0.17983852 0.050970275 1.097
-0.35059214 0.064242423 1.0936667
-0.34527606 0.067982174 1.0922
-0.33922616 0.069756366 1.09
-0.19398004 0.062111828 1.09
-0.18637605 0.064108051 1.09475
-0.34410655 0.071280539 1.0958
-0.33606142 0.074810356 1.0940001
-0.18691459 0.074925259 1.0925386
-0.32165778 0.081372201 1.092
-0.31532988 0.086089432 1.094125
-0.30921435 0.088075191 1.092
-0.19300218 0.086662017 1.0914286
-0.18845429 0.084748581 1.0953751
-0.30435973 0.091980211 1.0952002
-0.29420918 0.094559461 1.0931667
-0.28542021 0.098101735 1.094375
-0.20326304 0.096604295 1.0928334
-0.1961298 0.093357928 1.0963333
-0.24558063 0.10989016 1.09
-0.23729904 0.10861608 1.09
-0.22360259 0.10989016 1.09
-0.21360411 0.10596578 1.0938751
-0.20655347 0.10194513 1.095889
-0.26278609 0.11221158 1.0940001
-0.25560209 0.11232614 1.092
-0.24350585 0.11103538 1.0950001
-0.23583098 0.11167819 1.0941429
-0.22516432 0.11279043 1.0942858
-0.2181561 0.11148066 1.0962501
-0.11915215 -0.13077675 1.105
-0.1137838 -0.12421367 1.1018
-0.11227032 -0.1180756 1.1040001
-0.10906873 -0.1158252 1.1010001
-0.10397335 -0.10483211 1.1038889
-0.097172365 -0.10180677 1.1018
-0.093733199 -0.095437944 1.1049411
-0.085079074 -0.093283795 1.1012499
-0.090820417 -0.085272118 1.1071428
-0.084047742 -0.084974527 1.1036896
-0.07846605 -0.083309628 1.105
-0.082933605 -0.0759973 1.107357
-0.078003049 -0.073843889 1.1062857
-0.074726194 -0.065666422 1.107
-0.13143055 -0.044712104 1.1040001
-0.12821776 -0.042739253 1.108
-0.13221826 -0.034408376 1.1025
-0.12675753 -0.037436057 1.1052727
-0.42951846 -0.00096520997 1.1010001
-0.12065125 -0.0048260498 1.1010001
-0.11490879 -0.0051514325 1.1054209
-0.12065125 0.0086868899 1.1010001
-0.11658776 0.0053220973 1.1036667
-0.15790081 0.018405616 1.105
-0.12441649 0.01440112 1.1047332
-0.11752443 0.013385209 1.1060998
-0.41152719 0.026873924 1.108
-0.40641659 0.024045479 1.1059
-0.16196698 0.024995694 1.1049999
-0.15873155 0.021903517 1.1054001
-0.41152719 0.032702003 1.108
-0.39184123 0.035939828 1.108
-0.38702539 0.037167788 1.1032857
-0.17180738 0.03957361 1.1010001
-0.16479361 0.035303071 1.105476
-0.3914527 0.041767906 1.108
-0.38394338 0.045693818 1.1053077
-0.37756848 0.045869827 1.1014999
-0.17498128 0.045789011 1.1045237
-0.16861384 0.043044191 1.1075
-0.38204226 0.052080721 1.107
-0.37507355 0.053906154 1.1045833
-0.36701334 0.054260403 1.1052001
-0.18049426 0.05598218 1.1010001
-0.17697652 0.055610474 1.1059998
-0.36166477 0.062489968 1.108
-0.35611901 0.066299543 1.1051428
-0.18195783 0.06556917 1.1013637
-0.17651959 0.064984635 1.1063498
-0.35196239 0.073104188 1.1060001
-0.3452659 0.075631782 1.1032
-0.18356489 0.074060582 1.1042498
-0.17814498 0.071685389 1.108
-0.32504168 0.085622281 1.1056666
-0.31755409 0.089121051 1.1010001
-0.18562642 0.084769659 1.1035625
-0.32064521 0.090090647 1.105
-0.3138642 0.092028081 1.105
-0.30334133 0.096098222 1.10725
-0.29603484 0.097604275 1.1023334
-0.2017289 0.099416628 1.1010001
-0.19387694 0.096908122 1.1017333
-0.18701148 0.094073564 1.1062499
-0.2953493 0.10060421 1.107
-0.28639001 0.10193618 1.1073999
-0.21138099 0.10906873 1.1010001
-0.20480631 0.10665886 1.1033683
-0.19621722 0.10309432 1.1049284
-0.2646192 0.11534683 1.1056668
-0.25350553 0.11550745 1.105111
-0.24523436 0.11594448 1.1039332
-0.23549673 0.11619174 1.1034445
-0.22511961 0.11726569 1.1041428
-0.21540695 0.11439834 1.1041764
-0.20883954 0.11170486 1.108
-0.22146703 0.12141833 1.108
-0.10384526 -0.1012404 1.1140001
-0.10235544 -0.098434538 1.1172501
-0.097406559 -0.093490876 1.1158572
-0.094658084 -0.085528478 1.1156667
-0.092263795 -0.077086948 1.1166251
-0.08694797 -0.073621675 1.1143638
-0.083576694 -0.066195562 1.1166251
-0.077927157 -0.064642325 1.1138999
-0.075954899 -0.058885954 1.1168572
-0.13101059 -0.047907423 1.11525
-0.12805031 -0.045941718 1.115
-0.12763496 -0.033031046 1.1148001
-0.11102296 -0.0032593003 1.1141666
-0.10541397 -0.0038573851 1.1164118
-0.11296966 0.0040023816 1.1152729
-0.10692791 0.00098099001 1.1190001
-0.15513931 0.01756314 1.113
-0.11495974 0.013074607 1.1131999
-0.41041327 0.028270746 1.1120001
-0.40437475 0.027576424 1.1135
-0.39871502 0.028270746 1.1120001
-0.16085079 0.028270746 1.1120001
-0.1550159 0.024526503 1.1148096
-0.4115831 0.031390276 1.1120001
-0.4057453 0.032862097 1.1170554
-0.39774886 0.034221645 1.1153001
-0.16196491 0.037462223 1.1120001
-0.15720651 0.034315567 1.114647
-0.39424095 0.042499043 1.1145
-0.38896647 0.044843253 1.1120001
-0.17124923 0.049067616 1.1120001
-0.16448845 0.046315137 1.1132271
-0.15804425 0.044207841 1.1156
-0.38024101 0.057671517 1.115
-0.37456673 0.058031477 1.1144001
-0.36751971 0.058978625 1.1120001
-0.17231989 0.055140175 1.1124618
-0.1659333 0.054588087 1.1163332
-0.15971084 0.051930517 1.1176667
-0.37195343 0.063218623 1.118
-0.36536273 0.065441996 1.1141334
-0.35972089 0.06921459 1.1120001
-0.17175829 0.065386705 1.1132001
-0.16934729 0.065583959 1.1166
-0.36069134 0.071356282 1.115
-0.35679629 0.07343895 1.1120001
-0.34802261 0.078963116 1.1120001
-0.18083529 0.077500835 1.1120001
-0.17472005 0.075399347 1.11405
-0.16971128 0.073574252 1.1190001
-0.34114167 0.081131116 1.115
-0.33477625 0.083179682 1.1133333
-0.3281711 0.088141531 1.113
-0.18197322 0.085378565 1.1130002
-0.1768876 0.08456666 1.1156
-0.32628042 0.091777362 1.1176667
-0.31357637 0.094763286 1.1143335
-0.30651268 0.098259211 1.1152501
-0.18281551 0.095128566 1.1129376
-0.17830501 0.094166927 1.1159999
-0.30295745 0.10218325 1.1171666
-0.29410401 0.10498619 1.1145556
-0.28662866 0.10530795 1.1137142
-0.19291832 0.10586207 1.1122146
-0.18472159 0.10458183 1.11488
-0.17952116 0.10365794 1.1190001
-0.26321039 0.11795725 1.1120001
-0.25541157 0.11941953 1.1120001
-0.24761274 0.11990696 1.1120001
-0.23493965 0.11990696 1.1120001
-0.21363422 0.11793903 1.113889
-0.20492031 0.11383405 1.1148667
-0.19545965 0.11290814 1.1166667
-0.18712384 0.11207812 1.1190001
-0.2629053 0.12066177 1.1190001
-0.25567228 0.12166643 1.1173999
-0.24528579 0.12182599 1.1176667
-0.23509584 0.12293384 1.1167142
-0.22640322 0.12333965 1.114375
-0.21745658 0.12272748 1.114
-0.10425852 -0.094702721 1.1243848
-0.09943416 -0.091558188 1.123
-0.10421236 -0.088700391 1.126
-0.098209165 -0.085726611 1.124
-0.093938626 -0.073572204 1.1240001
-0.092420101 -0.067093492 1.1255001
-0.087147042 -0.063858464 1.1238183
-0.083905764 -0.057253346 1.126
-0.077210084 -0.055524267 1.1243335
-0.12931359 -0.030600926 1.126
-0.11188896 0.0073942449 1.1245
-0.10886431 0.0052633607 1.1255
-0.15161249 0.017720941 1.123
-0.14483489 0.017735407 1.1239001
-0.13582863 0.017176004 1.1260002
-0.1122034 0.012174562 1.126
-0.15102321 0.025281459 1.1235
-0.14591888 0.023790639 1.1255001
-0.41201183 0.036918625 1.123
-0.40561262 0.037739042 1.123
-0.15278392 0.034500681 1.1243848
-0.14905612 0.031588051 1.126
-0.41163182 0.041459322 1.126
-0.4059532 0.04187813 1.125182
-0.39978629 0.044420701 1.126
-0.15500402 0.04421629 1.1250001
-0.1629215 0.057722539 1.1236
-0.15678428 0.052262478 1.1248001
-0.38103092 0.061201856 1.126
-0.37624469 0.063365318 1.1235001
-0.16481355 0.064318903 1.1247306
-0.3701725 0.070085995 1.126
-0.36524826 0.071868256 1.123
-0.17130242 0.07875973 1.123
-0.16669279 0.074297734 1.1260002
-0.35141706 0.081931517 1.126
-0.34513894 0.082984045 1.1242001
-0.33686075 0.088108681 1.1242001
-0.17266259 0.086300761 1.1246001
-0.16879866 0.084892891 1.126
-0.33177537 0.091558188 1.123
-0.32542276 0.094435118 1.126
-0.31654668 0.096976995 1.1238571
-0.17575447 0.09580341 1.1248462
-0.31132683 0.10224184 1.125
-0.3045162 0.10618503 1.124125
-0.29594192 0.1087201 1.124
-0.28545809 0.10894372 1.1236001
-0.18016289 0.10731013 1.123
-0.17696278 0.1051461 1.1257694
-0.2924704 0.11221614 1.1248
-0.2852796 0.11154531 1.126
-0.27482343 0.11524554 1.1236001
-0.21166678 0.1191241 1.123
-0.20448524 0.1187512 1.124125
-0.19416939 0.11813535 1.1242858
-0.18418919 0.11445847 1.1246364
-0.17866993 0.11154531 1.126
-0.2637924 0.12400854 1.1248751
-0.25539652 0.12444387 1.1248
-0.24481377 0.12413007 1.1237501
-0.2382482 0.12503107 1.123
-0.21245985 0.12374946 1.1243638
-0.20729659 0.12141658 1.126
-0.19643821 0.12141658 1.126
-0.11194157 -0.090147629 1.13
-0.10929988 -0.092128895 1.13
-0.11194157 -0.086185098 1.13
-0.10507104 -0.084319748 1.1331111
-0.0980727 -0.081231937 1.13
-0.10175996 -0.078814089 1.138
-0.097664177 -0.075849205 1.131
-0.092459522 -0.061874382 1.1305715
-0.088166364 -0.060428634 1.13
-0.091558017 -0.054732047 1.1351999
-0.085004888 -0.053032856 1.1307502
-0.075352132 -0.051558513 1.131
-0.090785846 -0.048884686 1.138
-0.083787978 -0.046076465 1.1354119
-0.074866325 -0.044651702 1.1361669
-0.06883762 -0.046889395 1.138
-0.1277917 -0.030709634 1.13
-0.07631997 -0.038409397 1.138
-0.12735599 -0.027857836 1.135
-0.10477569 0.0055922568 1.1342502
-0.1120041 0.016905054 1.1339999
-0.10648028 0.014035608 1.1352001
-0.14296065 0.027255127 1.1305001
-0.13807426 0.024580235 1.1342858
-0.12271055 0.026936462 1.138
-0.41507536 0.038634699 1.13
-0.15156689 0.038634699 1.13
-0.14491169 0.034692086 1.1306398
-0.13600533 0.036624346 1.1363531
-0.12433676 0.03540564 1.1376668
