# .PCD v0.7 - Point Cloud Data file format
VERSION 0.7
FIELDS x y z
SIZE 4 4 4
TYPE F F F
COUNT 1 1 1
WIDTH 1477
HEIGHT 1
VIEWPOINT 0 0 0 1 0 0 0
POINTS 1477
DATA ascii
-0.29415214 -0.17628545 1.0854
-0.28668824 -0.17626001 1.0821332
-0.1613318 -0.14294927 1.0846667
-0.15850513 -0.14198756 1.087
-0.21252233 -0.13254811 1.086
-0.20621602 -0.13364106 1.0811428
-0.16060182 -0.13969508 1.0840001
-0.15456733 -0.13461037 1.0841874
-0.14555812 -0.13254929 1.086
-0.13674641 -0.13102879 1.087
-0.23251656 -0.12102295 1.087
-0.22323319 -0.12232645 1.085875
-0.21546511 -0.12502293 1.0827142
-0.20924281 -0.12876481 1.08
-0.15236402 -0.12583768 1.0807273
-0.14522439 -0.12434683 1.0827199
-0.13577348 -0.12406955 1.0842799
-0.33162194 -0.11244652 1.087
-0.32506165 -0.11222003 1.0856363
-0.31542203 -0.11234064 1.087
-0.30551147 -0.11301827 1.087
-0.2950927 -0.11181123 1.087
-0.28406686 -0.11293935 1.0853845
-0.27793986 -0.11276417 1.087
-0.26015171 -0.11149359 1.087
-0.25443408 -0.11149359 1.087
-0.24363415 -0.11297593 1.087
-0.23479074 -0.11502039 1.0842799
-0.22628279 -0.11615033 1.0829999
-0.1518036 -0.11330039 1.08
-0.14490362 -0.11459564 1.08032
-0.13401023 -0.11564986 1.0806154
-0.1289719 -0.11617477 1.08175
-0.35296369 -0.10400441 1.0864
-0.34480926 -0.10537308 1.0846666
-0.33489662 -0.10499232 1.0827999
-0.32513109 -0.10714971 1.0826666
-0.31451172 -0.10596321 1.0826818
-0.30501226 -0.1051179 1.0823702
-0.29484773 -0.10523887 1.0814399
-0.28490314 -0.10549682 1.0819999
-0.27510393 -0.1053706 1.0835383
-0.26544946 -0.10574805 1.0832608
-0.25489053 -0.10618701 1.0823181
-0.24556729 -0.10695297 1.0829999
-0.23684669 -0.10768682 1.0806667
-0.16290644 -0.10378121 1.0807999
-0.15450935 -0.10468116 1.0837405
-0.14525005 -0.10537421 1.0828799
-0.1356291 -0.1034379 1.08
-0.12710164 -0.1015989 1.0831429
-0.35315931 -0.094950259 1.0854999
-0.34605539 -0.096100189 1.08
-0.33611399 -0.099413998 1.08
-0.30676317 -0.099413998 1.08
-0.17073785 -0.092956461 1.082
-0.16512755 -0.095486589 1.0845
-0.1555489 -0.095701717 1.0867273
-0.14554603 -0.095124193 1.0850999
-0.13496357 -0.095044695 1.0841664
-0.12654491 -0.094389714 1.0862941
-0.35421789 -0.084610254 1.0843999
-0.34762126 -0.085284837 1.08
-0.17031586 -0.084840871 1.0833334
-0.16698349 -0.08578565 1.0861818
-0.14213416 -0.0859842 1.087
-0.1342454 -0.08473435 1.0860399
-0.12550175 -0.084239587 1.087
-0.36116299 -0.074329063 1.087
-0.35528681 -0.074877523 1.0840526
-0.34873798 -0.076059602 1.08
-0.16893893 -0.076069243 1.0846666
-0.14008169 -0.078140803 1.087
-0.13436407 -0.075826541 1.087
-0.12540646 -0.07594905 1.087
-0.11911708 -0.077187866 1.087
-0.35409233 -0.065015301 1.0859411
-0.34747559 -0.065329202 1.08
-0.16336508 -0.06351158 1.0813333
-0.13484053 -0.069087915 1.087
-0.35195127 -0.0536821 1.087
-0.34563783 -0.054845758 1.082739
-0.33719605 -0.051262457 1.08
-0.16000921 -0.055229995 1.08
-0.15774959 -0.052476827 1.0818334
-0.38501674 -0.043862063 1.0862941
-0.37451825 -0.042987227 1.0827142
-0.36467582 -0.045945559 1.083077
-0.35527411 -0.047274329 1.0843637
-0.34549537 -0.046282988 1.0805714
-0.33639544 -0.045282818 1.0806
-0.16038792 -0.043742158 1.08
-0.15700616 -0.044683516 1.0845
-0.38180995 -0.034623366 1.087
-0.3768518 -0.035580102 1.0823332
-0.15558435 -0.0354333 1.0840714
-0.38085702 -0.028905744 1.087
-0.37477469 -0.024743296 1.0832353
-0.15301703 -0.027018992 1.0841428
-0.14961106 -0.023823416 1.087
-0.37266165 -0.016172746 1.0853333
-0.36670342 -0.013534482 1.0808572
-0.37069237 -0.006670557 1.087
-0.36401635 -0.0048429831 1.0829473
-0.35732231 -0.00246168 1.08
-0.37132764 0.0079411389 1.087
-0.36457267 0.004759213 1.0857999
-0.35493672 0.005165515 1.0818888
-0.3493692 0.0075743999 1.08
-0.38153553 0.016570052 1.0863999
-0.37481028 0.015270921 1.0820999
-0.36354688 0.011636475 1.0817273
-0.35471472 0.012748352 1.0803077
-0.3493692 0.014202 1.08
-0.1410732 0.018936001 1.08
-0.13603392 0.015288236 1.0828499
-0.38229781 0.024763728 1.0864
-0.37516248 0.02582616 1.081
-0.14284767 0.02700297 1.082
-0.13772385 0.023285698 1.0861818
-0.37364605 0.033435747 1.084
-0.36790136 0.036633562 1.0806667
-0.15259509 0.037777819 1.0811428
-0.14527479 0.034698628 1.0849564
-0.37069237 0.040976275 1.087
-0.36467341 0.04460831 1.0826154
-0.35883719 0.048286799 1.08
-0.16192958 0.046313815 1.0829999
-0.15561695 0.043728001 1.0855262
-0.14834048 0.04224686 1.087
-0.36111653 0.051316559 1.0840001
-0.35544091 0.05480428 1.0820769
-0.347949 0.059174996 1.08
-0.17186095 0.058271449 1.0817778
-0.16629688 0.053702727 1.0848
-0.3535395 0.061305594 1.087
-0.3449612 0.065241314 1.0843749
-0.33590105 0.067609958 1.082375
-0.18173018 0.067652717 1.0808001
-0.17441796 0.065934092 1.0841479
-0.16866979 0.062893823 1.087
-0.33277196 0.073908433 1.0863999
-0.3263413 0.075976215 1.0817778
-0.18219276 0.074279405 1.0849999
-0.17676975 0.071946725 1.087
-0.32376844 0.084389806 1.0846249
-0.31608742 0.086791411 1.0808001
-0.18445033 0.085685752 1.0812
-0.32147953 0.091080986 1.0860001
-0.3150515 0.09374328 1.0847857
-0.30678463 0.096508533 1.0804445
-0.1932524 0.098361999 1.08
-0.18607038 0.095062234 1.0837895
-0.30524355 0.10192679 1.0837144
-0.29604533 0.10428977 1.0828573
-0.28526765 0.10775076 1.0828751
-0.27741238 0.108882 1.08
-0.21076353 0.10838523 1.0813333
-0.20434324 0.10732428 1.0819999
-0.1957403 0.10504401 1.0843332
-0.1874903 0.10244068 1.087
-0.27479273 0.11238779 1.0846001
-0.26446798 0.11569013 1.0829285
-0.2136628 0.11475939 1.0837368
-0.20548779 0.11273885 1.0856363
-0.19916376 0.11149359 1.087
-0.2624518 0.1215469 1.086
-0.25504181 0.1249451 1.0832142
-0.24549577 0.12701321 1.0812
-0.2344908 0.12802839 1.08
-0.22377732 0.12606406 1.0821874
-0.21661121 0.12434745 1.0844736
-0.25291756 0.13265139 1.086625
-0.24514671 0.13283262 1.084857
-0.23494227 0.13297717 1.0849999
-0.22460367 0.13323963 1.0866086
-0.21655485 0.13221996 1.087
-0.30571622 -0.1832118 1.0917144
-0.29909235 -0.18251324 1.09
-0.31225765 -0.17421627 1.097
-0.30444703 -0.17459895 1.095
-0.29845443 -0.17459781 1.0923333
-0.30485997 -0.16829808 1.097
-0.16618952 -0.15082225 1.0958
-0.24234924 -0.14137039 1.097
-0.23657903 -0.14137039 1.097
-0.21349815 -0.14137039 1.097
-0.1630166 -0.14799552 1.0938334
-0.15489154 -0.14399698 1.0931052
-0.14535879 -0.14191401 1.0923001
-0.26227024 -0.13312723 1.097
-0.25463763 -0.1343179 1.097
-0.24492586 -0.13523434 1.0967392
-0.236258 -0.1353655 1.0965716
-0.22367193 -0.13381886 1.0967273
-0.21599232 -0.13589974 1.0923637
-0.1519351 -0.13807938 1.09
-0.14346935 -0.13721348 1.0903637
-0.13533337 -0.13421912 1.0910001
-0.34371275 -0.12136696 1.097
-0.33627561 -0.12181576 1.097
-0.3242543 -0.12277747 1.097
-0.31462497 -0.12213631 1.097
-0.30413866 -0.12357887 1.097
-0.29508236 -0.12420423 1.0967274
-0.28598651 -0.124781 1.097
-0.27323058 -0.12320488 1.097
-0.26494911 -0.12572539 1.0967602
-0.25483918 -0.1255558 1.0951111
-0.24489319 -0.1258859 1.0947499
-0.23509373 -0.12569703 1.0930834
-0.22608338 -0.12726505 1.0936667
-0.21882476 -0.1290015 1.09
-0.13167709 -0.12747259 1.09
-0.12697604 -0.12472206 1.0919412
-0.36397374 -0.11098409 1.0945001
-0.35403618 -0.11234571 1.0952857
-0.34416398 -0.11550839 1.0938182
-0.33511451 -0.11643938 1.0923529
-0.32517058 -0.11762732 1.0918823
-0.31525394 -0.1168627 1.0918182
-0.30433336 -0.11771616 1.0916667
-0.2948162 -0.11651645 1.09275
-0.28558883 -0.11829437 1.0921818
-0.27445343 -0.11578001 1.09235
-0.26512122 -0.11546072 1.09295
-0.25525248 -0.1170479 1.0927273
-0.24598341 -0.11677778 1.0905715
-0.37420338 -0.10298089 1.0946923
-0.36470544 -0.10434734 1.0912309
-0.35642633 -0.10587679 1.09
-0.34687066 -0.10989016 1.09
-0.3382706 -0.10989016 1.09
-0.37418777 -0.095649645 1.0955882
-0.36471641 -0.094766892 1.09192
-0.35833749 -0.094123319 1.09
-0.16149077 -0.090778835 1.09
-0.15575735 -0.090778835 1.09
-0.37260664 -0.085805304 1.097
-0.36447215 -0.085334726 1.0916667
-0.35833749 -0.088867702 1.09
-0.16302678 -0.084716819 1.0935789
-0.15445906 -0.085378416 1.0943199
-0.14638229 -0.08387246 1.0913334
-0.12517923 -0.088867702 1.09
-0.37080532 -0.075425014 1.097
-0.36501727 -0.075609647 1.09175
-0.16508223 -0.075522371 1.0958078
-0.15416104 -0.076647744 1.097
-0.14523159 -0.074688233 1.0938519
-0.1347349 -0.072623067 1.09
-0.12709036 -0.0716675 1.09
-0.37025577 -0.067319229 1.097
-0.36392018 -0.064930364 1.0927826
-0.3578597 -0.061634049 1.09
-0.16285369 -0.064737551 1.0948889
-0.14401257 -0.064982072 1.0954763
-0.13490807 -0.064430691 1.0920001
-0.12737539 -0.065119773 1.0924445
-0.37121749 -0.051931977 1.097
-0.36461377 -0.054479163 1.0938095
-0.35656282 -0.054740317 1.09
-0.15771043 -0.055233359 1.0925001
-0.14185125 -0.057221346 1.097
-0.13507877 -0.055217769 1.0963182
-0.12857096 -0.055153646 1.0961001
-0.39210084 -0.04172641 1.09
-0.38891563 -0.041089367 1.09
-0.37684411 -0.047369633 1.0937999
-0.36884874 -0.048733901 1.09
-0.15500081 -0.044425085 1.0936667
-0.13175336 -0.04904687 1.097
-0.39374784 -0.035478465 1.0938667
-0.38686797 -0.035628982 1.09
-0.15234576 -0.035111878 1.0910001
-0.391377 -0.026580825 1.0960001
-0.38504669 -0.024287544 1.0916667
-0.37935996 -0.0200669 1.09
-0.15082158 -0.027097913 1.0911667
-0.14892812 -0.024018914 1.0960001
-0.38446975 -0.01519619 1.0955882
-0.37733194 -0.014130503 1.090889
-0.37596878 -0.0047923275 1.0934666
-0.36980429 -0.0019111333 1.09
-0.38337159 0.00864744 1.0960001
-0.37552783 0.0045158351 1.0931429
-0.39141324 0.016348956 1.097
-0.3860997 0.014060199 1.09375
-0.37840438 0.010511233 1.09
-0.13235213 0.017263319 1.0940001
-0.12947489 0.018222393 1.0940001
-0.39114562 0.023065757 1.0962501
-0.38674682 0.026267953 1.0916667
-0.13397887 0.025792951 1.0935239
-0.12945373 0.025674686 1.0961429
-0.38440037 0.033603068 1.0951
-0.37735781 0.037674312 1.0925001
-0.14206575 0.037992831 1.0925001
-0.13600808 0.035069261 1.095143
-0.12982994 0.03173621 1.097
-0.37439716 0.044230856 1.0941111
-0.36884874 0.047778334 1.09
-0.15303151 0.047538511 1.0917778
-0.14566615 0.044471446 1.0947778
-0.37217918 0.050970275 1.097
-0.36512434 0.054627724 1.093154
-0.16245021 0.055752616 1.0937144
-0.15569432 0.053360268 1.0955557
-0.14842288 0.051611412 1.097
-0.36160046 0.06347242 1.097
-0.35573438 0.065196685 1.0923846
-0.34734848 0.069278583 1.09
-0.33922616 0.069756366 1.09
-0.16669446 0.064066462 1.0933077
-0.35305083 0.072490603 1.0960001
-0.34419879 0.07574629 1.0936521
-0.33615679 0.076914169 1.0912001
-0.18141302 0.078024209 1.092
-0.17523965 0.075885922 1.0942106
-0.16878404 0.071420863 1.0960001
-0.34397429 0.082976788 1.0963334
-0.33494699 0.084938787 1.0954444
-0.32919827 0.086534597 1.0926667
-0.18288942 0.085105494 1.0957
-0.17983852 0.081744783 1.097
-0.32461926 0.09414085 1.0941429
-0.31696963 0.09799701 1.0923333
-0.18272914 0.095267363 1.0945715
-0.31444922 0.1014052 1.0946666
-0.30101314 0.10867248 1.097
-0.29506254 0.10825146 1.0927501
-0.28953668 0.10989016 1.09
-0.19168667 0.10912571 1.09
-0.18505375 0.10525881 1.0929286
-0.293053 0.11209702 1.0960001
-0.28484827 0.1151294 1.0948824
-0.2751686 0.11754047 1.0925715
-0.26900691 0.11870943 1.092
-0.21181726 0.11880878 1.09
-0.20477039 0.11755317 1.0925333
-0.19536841 0.11442629 1.0946472
-0.18768829 0.11269939 1.0966668
-0.28322163 0.12069377 1.097
-0.27472049 0.12404007 1.0968237
-0.26521656 0.12612228 1.0937333
-0.25895858 0.12804593 1.09
-0.21182564 0.12575789 1.0926429
-0.20517182 0.12199159 1.0957
-0.19907258 0.12021291 1.097
-0.26317078 0.13322003 1.0964
-0.25658321 0.13556193 1.0924546
-0.2447255 0.1385747 1.0922858
-0.23525037 0.13787727 1.0913334
-0.22505681 0.13886224 1.0924
-0.21463834 0.13538133 1.0942501
-0.2519663 0.14137039 1.097
-0.24441002 0.14191994 1.097
-0.23561643 0.14266381 1.0961819
-0.22542 0.14220954 1.0967274
-0.31465846 -0.17180738 1.1010001
-0.30983239 -0.17084217 1.1010001
-0.32266581 -0.16764247 1.1075
-0.31498274 -0.16600104 1.1055237
-0.3082965 -0.16701499 1.1038001
-0.23797993 -0.1602722 1.108
-0.28355852 -0.15250143 1.1079999
-0.27780515 -0.15250142 1.1079999
-0.25287393 -0.15185384 1.1079999
-0.24517488 -0.15390559 1.1063157
-0.23675832 -0.1543707 1.1065332
-0.22535242 -0.15055872 1.108
-0.21855299 -0.15055872 1.108
-0.32216331 -0.14149283 1.108
-0.31545499 -0.14227052 1.1077499
-0.30470788 -0.14252129 1.1078124
-0.29396492 -0.14441679 1.1077142
-0.28467911 -0.14450768 1.1074229
-0.27581134 -0.14411718 1.1079999
-0.26456484 -0.142849 1.1073076
-0.25512007 -0.14550608 1.1064998
-0.2445778 -0.14560696 1.1013999
-0.23441014 -0.14630497 1.1039563
-0.22500591 -0.1452879 1.1062999
-0.21756674 -0.14480582 1.103
-0.3404811 -0.13192561 1.1065
-0.33491141 -0.13374296 1.1077856
-0.32447052 -0.13430822 1.1067141
-0.31487477 -0.13476522 1.1045831
-0.30519807 -0.13443275 1.1043844
-0.29514778 -0.13451408 1.1038398
-0.28507787 -0.1349491 1.104346
-0.27523932 -0.13462341 1.1047198
-0.26639897 -0.13587976 1.1020908
-0.25633222 -0.13940391 1.101
-0.24902418 -0.13995545 1.1010001
-0.23165041 -0.13705982 1.101
-0.22602002 -0.13754243 1.101
-0.21910267 -0.13995545 1.1010001
-0.36231232 -0.12141833 1.108
-0.35420471 -0.12333091 1.1052141
-0.34469828 -0.12585829 1.1029166
-0.33494395 -0.12670891 1.10225
-0.32511017 -0.12740412 1.1018889
-0.31544816 -0.12714447 1.101
-0.30597156 -0.12782137 1.101
-0.29052821 -0.12837292 1.1010001
-0.28269279 -0.12625775 1.1014999
-0.27756682 -0.12671827 1.101
-0.12358207 -0.12302351 1.1049999
-0.36255005 -0.11611908 1.1047778
-0.35675755 -0.1165559 1.1033334
-0.38190141 -0.10199052 1.1010001
-0.38500276 -0.09441451 1.1052777
-0.37868404 -0.09233842 1.1010001
-0.38298553 -0.08486747 1.106846
-0.37681979 -0.084175229 1.1013637
-0.38237298 -0.075178653 1.1073333
-0.37684271 -0.074084938 1.1041538
-0.16196224 -0.072004661 1.1010001
-0.15675011 -0.072004661 1.101
-0.38173923 -0.067994267 1.108
-0.37564996 -0.065379307 1.1054616
-0.16167267 -0.067082092 1.1010001
-0.15544453 -0.064687036 1.1013199
-0.14922145 -0.063124731 1.1010001
-0.37574449 -0.055234112 1.1053077
-0.15378956 -0.05512939 1.1033331
-0.14600222 -0.054855667 1.102111
-0.13931197 -0.051799607 1.1010001
-0.38558429 -0.048502896 1.1065
-0.37739712 -0.04922571 1.1010001
-0.15372017 -0.047163788 1.1069999
-0.14402068 -0.045790371 1.1064736
-0.13500257 -0.045639921 1.1039165
-0.12878102 -0.046471223 1.1045001
-0.40288779 -0.031363484 1.1065
-0.39863172 -0.031851929 1.1010001
-0.15217763 -0.03496848 1.1079999
-0.13695988 -0.039825212 1.108
-0.40246132 -0.026873924 1.1079999
-0.39647543 -0.024343425 1.1035
-0.15055872 -0.02039828 1.108
-0.14834532 -0.023458898 1.1059999
-0.39438808 -0.014856433 1.1053332
-0.38816142 -0.011917114 1.1023334
-0.15055872 -0.018455587 1.108
-0.14749128 -0.016087709 1.1054001
-0.3914527 -0.007770773 1.108
-0.38572189 -0.0048400178 1.1049333
-0.39279383 0.0071832314 1.1073999
-0.38601166 0.0042908452 1.1059284
-0.40155438 0.017122323 1.1055001
-0.39566946 0.014025937 1.1034999
-0.38897961 0.01061731 1.1010001
-0.40353835 0.024041504 1.107294
-0.3968139 0.02456627 1.1047271
-0.12682858 0.026639795 1.101
-0.39334786 0.034680277 1.1065
-0.38717407 0.038014524 1.1037143
-0.13150987 0.037401889 1.101
-0.12655006 0.035695288 1.1040624
-0.3914527 0.041767906 1.108
-0.38453844 0.045344412 1.1067332
-0.37773988 0.047822606 1.102
-0.14317282 0.047938764 1.101
-0.13576294 0.04525876 1.1033927
-0.12842494 0.042377774 1.107
-0.38173923 0.051481374 1.108
-0.37548089 0.055519104 1.1055
-0.36871022 0.057912603 1.1010001
-0.15370971 0.057671305 1.101
-0.14485353 0.055385906 1.103846
-0.13763203 0.053363573 1.1067142
-0.37274531 0.063823961 1.10725
-0.3664816 0.065477483 1.1029999
-0.16339339 0.065471724 1.102857
-0.15557407 0.062426619 1.1052142
-0.14861605 0.061194841 1.108
-0.37073064 0.071555875 1.108
-0.36381245 0.074006677 1.1058666
-0.35663092 0.075326703 1.103111
-0.17148565 0.077538542 1.1010001
-0.16808559 0.074729167 1.1069999
-0.35422829 0.081256099 1.1052858
-0.34578735 0.087312497 1.1048572
-0.33782351 0.08879932 1.1010001
-0.18114081 0.08694867 1.102
-0.1754351 0.084287554 1.1037999
-0.34159026 0.090982802 1.108
-0.33351564 0.094222061 1.105125
-0.32634926 0.097665049 1.103
-0.18135636 0.094808862 1.1023334
-0.17867914 0.094194598 1.1076999
-0.32376406 0.10246756 1.1071428
-0.31466949 0.10683268 1.1069089
-0.30699465 0.10846353 1.1046667
-0.1820139 0.10580859 1.1032
-0.17969914 0.10102005 1.108
-0.31180227 0.11170486 1.108
-0.30434158 0.11502796 1.1062999
-0.29538655 0.11636059 1.1021427
-0.1940072 0.11872083 1.1010001
-0.18482751 0.11556295 1.103125
-0.30111748 0.12141833 1.108
-0.29396489 0.12353826 1.1066666
-0.28526446 0.12548885 1.1025881
-0.27605006 0.12837292 1.1010001
-0.20450878 0.12691481 1.1029999
-0.19513656 0.12452933 1.1046666
-0.18568435 0.12307078 1.1053846
-0.28410763 0.13186295 1.1071428
-0.27452797 0.13344386 1.1056665
-0.26666844 0.13596973 1.1034445
-0.25771108 0.13995545 1.1010001
-0.21171919 0.13717075 1.1027778
-0.20642878 0.13236177 1.1064545
-0.26190984 0.14065459 1.1065
-0.25440076 0.14489198 1.1055
-0.24562001 0.14636247 1.1033846
-0.23430406 0.14672391 1.1018889
-0.22459674 0.14688636 1.1035
-0.21553956 0.1443952 1.1046314
-0.24445358 0.15183708 1.1073999
-0.23633276 0.15164629 1.1069089
-0.22567619 0.15055872 1.108
-0.21661031 0.15055872 1.108
-0.25211442 -0.17167325 1.1190001
-0.24437521 -0.17331833 1.1180001
-0.23577055 -0.17247015 1.1178
-0.32394406 -0.16313384 1.112231
-0.31385845 -0.16208874 1.1145556
-0.28288549 -0.16382445 1.1165456
-0.27480751 -0.16430202 1.1155499
-0.26534921 -0.16390967 1.1164118
-0.25510201 -0.16533794 1.1170416
-0.24507256 -0.16501077 1.1137391
-0.23491602 -0.16556947 1.1142081
-0.22664621 -0.16365853 1.1134
-0.32421833 -0.15497555 1.1131428
-0.31512687 -0.15538941 1.1136922
-0.30623984 -0.15372747 1.1160588
-0.29410028 -0.15431759 1.1150715
-0.28655261 -0.15713662 1.1133002
-0.27399454 -0.15552461 1.11225
-0.26438567 -0.15512107 1.1128401
-0.25549838 -0.15639569 1.1123751
-0.24761274 -0.1589011 1.1120001
-0.232665 -0.15581407 1.1120002
-0.2251323 -0.15535939 1.1121304
-0.2197365 -0.15528221 1.1140001
-0.33283165 -0.14419462 1.1124288
-0.32521105 -0.14603302 1.1120001
-0.31479219 -0.14753376 1.112231
-0.30512908 -0.14791183 1.1120002
-0.29863006 -0.14850266 1.1120001
-0.2719841 -0.14720285 1.1120001
-0.26526845 -0.1480694 1.1120001
-0.34087372 -0.13615452 1.1120001
-0.33417973 -0.13725933 1.1120002
-0.32852557 -0.13842916 1.1120001
-0.35972089 -0.12575608 1.1120001
-0.12218542 -0.12120793 1.1149999
-0.11671151 -0.12101243 1.115
-0.13016075 -0.11254267 1.1163334
-0.12544973 -0.11592747 1.1153477
-0.1144955 -0.11518756 1.1185294
-0.10888989 -0.11183286 1.1190001
-0.39144349 -0.091758505 1.1135001
-0.39393479 -0.084901325 1.1171539
-0.3883166 -0.084162332 1.1120001
-0.39362723 -0.075223655 1.1159999
-0.3872605 -0.07481999 1.1120001
-0.39342025 -0.066915095 1.1186925
-0.38542587 -0.064723365 1.1144376
-0.37921795 -0.062390611 1.1120001
-0.391415 -0.05101148 1.1190001
-0.38570794 -0.056080706 1.1157222
-0.37921795 -0.059466053 1.1120001
-0.38506708 -0.049717519 1.1120001
-0.15280826 -0.044112112 1.1120001
-0.14798275 -0.044258341 1.1120001
-0.13080524 -0.041975237 1.1135001
-0.15149221 -0.037629336 1.1120001
-0.14535604 -0.035117686 1.1127999
-0.13497022 -0.034767218 1.1139393
-0.12832242 -0.03610212 1.1131251
-0.4120158 -0.02452475 1.1190001
-0.40644228 -0.023589857 1.1135834
-0.14452724 -0.024959499 1.1156086
-0.13483414 -0.026115704 1.1172222
-0.12767643 -0.026413966 1.1159999
-0.4056389 -0.014484148 1.1172106
-0.39842367 -0.011382933 1.113
-0.14580522 -0.01810251 1.11625
-0.41103479 -0.0068669301 1.1190001
-0.4046331 -0.0053632916 1.1185294
-0.39569533 -0.0045367503 1.1138235
-0.40187886 0.00490495 1.1190001
-0.39529094 0.0034144705 1.1133336
-0.40066472 0.010723387 1.1120001
-0.40456414 0.028270746 1.1120001
-0.40409765 0.032489352 1.1161001
-0.39744794 0.035777058 1.113
-0.12240225 0.037211578 1.117
-0.11869979 0.036296628 1.1190001
-0.39392871 0.044854838 1.1150001
-0.38896647 0.047767814 1.1120001
-0.13160519 0.048742667 1.1120001
-0.12644258 0.044880543 1.1146667
-0.391415 0.051992469 1.1190001
-0.38463563 0.055116467 1.1147001
-0.37921795 0.059466053 1.1120001
-0.14135373 0.059466053 1.1120001
-0.13366355 0.056281168 1.1143476
-0.1277249 0.052777261 1.1190001
-0.38160512 0.063764349 1.1190001
-0.377002 0.065644801 1.1128572
-0.16182566 0.06921459 1.1120001
-0.15467294 0.067669027 1.1143334
-0.14510827 0.064791493 1.11465
-0.13685475 0.063291751 1.1164166
-0.16462666 0.074491754 1.1155835
-0.15793939 0.071612269 1.1190001
-0.17144553 0.085602559 1.1127501
-0.16850235 0.083439969 1.1153334
-0.35119444 0.092213064 1.1190001
-0.34519938 0.094108999 1.116889
-0.33750179 0.097128533 1.1146001
-0.17492078 0.094343416 1.1155335
-0.33283991 0.10401204 1.1163636
-0.32549471 0.10648265 1.1123002
-0.31877702 0.10820872 1.1120001
-0.18034786 0.10625901 1.1120001
-0.17868693 0.1044813 1.1138
-0.33059362 0.11085187 1.1190001
-0.32468596 0.11369858 1.1168125
-0.31561828 0.11510254 1.1131579
-0.30902851 0.11795726 1.1120001
-0.18143065 0.11549558 1.1133335
-0.17898029 0.11398859 1.1176667
-0.32078373 0.12066177 1.1190001
-0.31502482 0.12264273 1.1175455
-0.30491573 0.12509726 1.1147859
-0.29570553 0.1277058 1.1120001
-0.19204611 0.1290056 1.1120001
-0.18356238 0.12490112 1.11525
-0.17952117 0.12066177 1.1190001
-0.30214494 0.13047168 1.1190001
-0.29494917 0.13359369 1.11775
-0.2852968 0.13639341 1.1134547
-0.27620843 0.13875413 1.1120001
-0.204264 0.1373357 1.1136667
-0.19543585 0.1347575 1.114913
-0.18835008 0.13047168 1.1190001
-0.28350613 0.14093556 1.1190001
-0.27494568 0.14330654 1.1175456
-0.2652128 0.14496861 1.1151429
-0.25705409 0.14853363 1.1131999
-0.21173166 0.14711861 1.1130002
-0.20638433 0.14414006 1.1164668
-0.19757138 0.14263594 1.1190001
-0.26192433 0.15107246 1.1190001
-0.25382748 0.15472455 1.1156002
-0.24534108 0.15705813 1.1127502
-0.23457374 0.15674961 1.1143889
-0.22479454 0.15479589 1.1148751
-0.21428783 0.15508591 1.1141922
-0.20796348 0.15453967 1.1167144
-0.2452475 0.16186334 1.1190001
-0.23948342 0.16128474 1.115
-0.28133109 -0.18064418 1.126
-0.27738258 -0.1806442 1.126
-0.26948559 -0.18064418 1.126
-0.2517173 -0.18064418 1.126
-0.24283315 -0.18064418 1.126
-0.23987179 -0.18064418 1.126
-0.31011644 -0.17031792 1.123
-0.30454907 -0.17306013 1.1256251
-0.29515085 -0.17077291 1.126
-0.28442365 -0.1737709 1.1249499
-0.27503201 -0.17426924 1.1241248
-0.26502082 -0.17409812 1.1241738
-0.25572196 -0.17559111 1.1238332
-0.24513967 -0.17763133 1.123
-0.23446472 -0.17535678 1.1237501
-0.31067902 -0.16469224 1.123
-0.30459762 -0.16462408 1.1244398
-0.29506811 -0.1650039 1.1246955
-0.28766993 -0.16677372 1.123
-0.26614228 -0.16834892 1.123
-0.30377191 -0.15762885 1.123
-0.29731798 -0.15850396 1.123
-0.12311774 -0.11228216 1.1235
-0.11682693 -0.11256079 1.123
-0.10731014 -0.11223262 1.123
-0.13128784 -0.10957106 1.126
-0.12602316 -0.10957106 1.126
-0.11464006 -0.10872125 1.1248751
-0.10721911 -0.10886433 1.1255
-0.40176055 -0.082918644 1.126
-0.39872116 -0.081713222 1.123
-0.4014056 -0.074992821 1.1234287
-0.4021219 -0.065045379 1.1242501
-0.39684856 -0.062395874 1.1232728
-0.39490372 -0.055373155 1.1239002
-0.41425765 -0.022166299 1.1237501
-0.14176753 -0.02067443 1.123
-0.13427082 -0.021433512 1.124125
-0.12931359 -0.020729659 1.126
-0.41272449 -0.014776392 1.1236001
-0.14423564 -0.014125438 1.1243333
-0.1356353 -0.017077196 1.1255386
-0.12865551 -0.017439237 1.126
-0.41250411 -0.0034457382 1.123
-0.40807387 -0.0024612416 1.123
-0.14510761 -0.0088841403 1.126
-0.41213328 0.0032374046 1.1242858
-0.40697405 0.0038508782 1.1235455
-0.41163182 0.034549434 1.126
-0.40691951 0.035019983 1.12525
-0.40194225 0.042362943 1.1237501
-0.39773667 0.04725584 1.123
-0.12359542 0.045302298 1.1233751
-0.3945857 0.053271305 1.12525
-0.38939559 0.057178393 1.1245
-0.12578773 0.054218061 1.1245
-0.38528273 0.062733091 1.1240001
-0.144721 0.069899261 1.123
-0.13357268 0.066205785 1.124091
-0.12841825 0.062730134 1.1255714
-0.38004377 0.07206025 1.126
-0.16357197 0.077517211 1.1240001
-0.15408304 0.073221505 1.1248749
-0.14510761 0.07206025 1.126
-0.13688156 0.070744082 1.126
-0.17031792 0.089589193 1.123
-0.1676625 0.085805506 1.125
-0.35312578 0.096362934 1.1239001
-0.34653482 0.098346964 1.1234287
-0.17208101 0.096149847 1.1248751
-0.35163379 0.10235433 1.1248
-0.34372711 0.10532181 1.1256002
-0.33804125 0.10611534 1.1233751
-0.17649242 0.10479835 1.1247145
-0.33395326 0.11466639 1.1249093
-0.32636064 0.11863185 1.123
-0.17817988 0.11543334 1.1253999
-0.33068743 0.1224037 1.126
-0.32466105 0.12388497 1.1245002
-0.31546053 0.1279594 1.1245
-0.30814746 0.12896906 1.123
-0.18212733 0.12687874 1.1253999
-0.31242558 0.1317814 1.126
-0.30414039 0.13489063 1.1242001
-0.29672727 0.13802645 1.123
-0.19083339 0.1366396 1.1240001
-0.18641676 0.13394529 1.1251
-0.30107364 0.14115912 1.126
-0.29366171 0.14239171 1.1253334
-0.28554758 0.14587811 1.1247647
-0.27550599 0.14797026 1.1233751
-0.2687676 0.14865899 1.123
-0.20388487 0.14763495 1.1257001
-0.19434825 0.14326856 1.1253333
-0.18854119 0.14115912 1.126
-0.27442119 0.15103038 1.126
-0.26470172 0.15430297 1.1243846
-0.25849688 0.15798877 1.1240001
-0.22938772 0.15850396 1.123
-0.20555891 0.15458103 1.1255001
-0.25475651 0.16252129 1.12525
-0.2454671 0.16561767 1.1245
-0.23480703 0.16367705 1.1247145
-0.22497845 0.16220371 1.1247501
-0.21509586 0.16247541 1.1255001
-0.20828372 0.16090165 1.126
-0.29330814 -0.19055051 1.138
-0.28347418 -0.19226076 1.138
-0.27435285 -0.19321091 1.1380002
-0.26756886 -0.19214673 1.138
-0.30029166 -0.18057404 1.138
-0.29293028 -0.18448444 1.1375
-0.28467375 -0.18513022 1.1328236
-0.27485818 -0.18559724 1.132737
-0.26500776 -0.18451221 1.1344212
-0.25552052 -0.18259838 1.1328572
-0.24695641 -0.18216257 1.1313334
-0.30172324 -0.17646511 1.1340001
-0.2948631 -0.17652363 1.132
-0.287954 -0.17885578 1.1313334
-0.27440542 -0.17930463 1.13
-0.26747102 -0.17930463 1.13
-0.13069171 -0.10674819 1.138
-0.12517047 -0.10808319 1.1332
-0.11526457 -0.10632344 1.1335001
-0.10453373 -0.10486238 1.1344444
-0.098593444 -0.10357115 1.136
-0.4071503 -0.060428634 1.13
-0.40491402 -0.055052523 1.1326666
-0.39922523 -0.052503567 1.13
-0.42052123 -0.022865219 1.1340001
-0.14166057 -0.010896967 1.13
-0.13487355 -0.012274547 1.1306154
-0.12858421 -0.013274486 1.13
-0.14353004 -0.0044927625 1.1328235
-0.13497944 -0.0059207017 1.1346956
-0.12824406 -0.0059648398 1.1340001
-0.14266346 0.00099764671 1.138
-0.41296715 0.037977554 1.1340001
-0.40814093 0.037644066 1.13
-0.41213745 0.042470992 1.1372001
-0.40574938 0.045940403 1.133
-0.12120167 0.046176035 1.1345714
-0.11871995 0.048884686 1.138
-0.40259686 0.054759055 1.1356001
-0.39672089 0.056203682 1.1313334
-0.12199944 0.05526131 1.1314286
-0.11855303 0.054792009 1.1364
-0.39404353 0.063905202 1.136
-0.38788468 0.066072963 1.1316
-0.12442658 0.064388022 1.1335789
-0.11871995 0.061854094 1.138
-0.39007986 0.070832916 1.138
-0.38388044 0.074668504 1.1356001
-0.37876269 0.076553456 1.1340001
-0.16100101 0.077691957 1.1313334
-0.15453258 0.077405363 1.1332726
-0.14470904 0.076498516 1.1331999
-0.1352832 0.074594311 1.1322857
-0.12890448 0.071249038 1.1340001
-0.37245476 0.084467418 1.138
-0.36589181 0.086350225 1.1321819
-0.35959989 0.087175727 1.13
-0.16427127 0.084088378 1.1346154
-0.37098202 0.09335123 1.138
-0.36462256 0.094813354 1.1358949
-0.35874692 0.093786679 1.132
-0.17137957 0.096091434 1.13
-0.16802369 0.094193749 1.133
-0.36214575 0.10225879 1.138
-0.3555454 0.10561592 1.1353334
-0.34878302 0.10612518 1.1313334
-0.17319252 0.10586558 1.1328001
-0.16969812 0.1012252 1.132
-0.35283437 0.11140388 1.138
-0.34461278 0.11421144 1.1348
-0.3376489 0.11717632 1.1308
-0.17605352 0.1142244 1.133
-0.3401975 0.12071525 1.138
-0.33453706 0.12493236 1.1364
-0.32905334 0.12725341 1.1340001
-0.18192762 0.12824406 1.1340001
-0.1795162 0.12397761 1.1313334
-0.3233107 0.13301094 1.1365
-0.31530923 0.13603443 1.1339999
-0.30742654 0.13901888 1.13
-0.18285625 0.13549255 1.1340002
-0.31284198 0.14176646 1.1372001
-0.30476695 0.14522927 1.1352309
-0.29531056 0.14715837 1.1307273
-0.19413944 0.14761424 1.1314545
-0.18637057 0.14372697 1.1351429
-0.30128932 0.15064465 1.138
-0.29429427 0.15277268 1.1368572
-0.28411141 0.15443234 1.1354285
-0.27469298 0.15588793 1.1336923
-0.26941195 0.15806825 1.1340001
-0.20307982 0.15592568 1.13
-0.1953821 0.1542957 1.1348696
-0.27135989 0.16062111 1.138
-0.26397708 0.1635126 1.1362857
-0.25576752 0.16736531 1.133
-0.24468644 0.16939829 1.13
-0.23519567 0.16870749 1.1320001
-0.22481281 0.16790636 1.1312308
-0.21532689 0.16744684 1.1311429
-0.20496416 0.16533506 1.1325599
-0.1983303 0.16188399 1.1368572
-0.25358695 0.17282431 1.1373334
-0.2449007 0.17302701 1.1355999
-0.23444696 0.17325796 1.138
-0.22482389 0.17319056 1.1375556
-0.21449405 0.17334113 1.138
-0.20743512 0.17358448 1.1357778
-0.29210094 -0.19373018 1.1450001
-0.28667927 -0.19385362 1.141
-0.26250118 -0.19333918 1.1409999
-0.25678197 -0.19258964 1.1442001
-0.30308384 -0.18105008 1.141
-0.2947596 -0.18860401 1.1423334
-0.2620725 -0.18905228 1.141
-0.25586531 -0.18799902 1.1432859
-0.24906889 -0.18505119 1.141
-0.12441202 -0.10358417 1.1437693
-0.11580585 -0.10299532 1.1440771
-0.10602932 -0.10102794 1.141
-0.094626173 -0.10182817 1.141
-0.12423243 -0.099050187 1.149
-0.11522157 -0.097884618 1.1474617
-0.10541636 -0.096375309 1.1452001
-0.095477946 -0.095474027 1.1464403
-0.089523979 -0.095555089 1.1474
-0.094349504 -0.088305749 1.149
-0.088842981 -0.087231316 1.149
-0.13303679 -0.0010002767 1.141
-0.12558484 -0.0016688812 1.143
-0.14103901 0.0050013834 1.141
-0.13508618 0.0051802243 1.1428337
-0.12658203 0.0048147924 1.1464739
-0.13378592 0.013565394 1.1460003
-0.1290441 0.012684139 1.1482
-0.11583835 0.039284311 1.149
-0.41545552 0.046063285 1.1450001
-0.11459093 0.046550121 1.1475456
-0.41304693 0.054577231 1.1486001
-0.40875155 0.057819236 1.1470001
-0.11430699 0.057252817 1.1458
-0.40468049 0.063872039 1.1473335
-0.39783278 0.068594195 1.145
-0.12203375 0.069019087 1.141
-0.11460767 0.065838546 1.1448003
-0.39428869 0.074342206 1.1476668
-0.38824734 0.078722037 1.1463333
-0.13176781 0.077659957 1.1430001
-0.12509121 0.075702265 1.1452001
-0.11749678 0.072713576 1.1480001
-0.39183581 0.081590489 1.149
-0.38341129 0.084520787 1.149
-0.37738872 0.085512303 1.1445556
-0.16171139 0.088357776 1.141
-0.15587783 0.084866062 1.1442003
-0.14805454 0.081808344 1.1450001
-0.12792583 0.081590489 1.149
-0.37648523 0.095422536 1.1458002
-0.16292922 0.095566161 1.1456155
-0.37260056 0.10396741 1.1476668
-0.3661705 0.10608156 1.146143
-0.16683216 0.10481126 1.1464287
-0.36186901 0.11235097 1.1476668
-0.35533571 0.11561354 1.1467779
-0.34740019 0.11813697 1.142
-0.1731177 0.11596986 1.1436667
-0.16963938 0.11141995 1.1450001
-0.3515442 0.12188209 1.149
-0.34475139 0.12362622 1.1465001
-0.33723703 0.12819584 1.1442001
-0.17708755 0.12491448 1.1445
-0.33358517 0.13307044 1.1482002
-0.32618663 0.13635673 1.1436667
-0.17674081 0.13657457 1.1455001
-0.32296607 0.1428692 1.1476668
-0.3154093 0.14517491 1.1440001
-0.30908549 0.14704067 1.141
-0.18205035 0.14704068 1.1409999
-0.17595147 0.14506702 1.1446525
-0.30393106 0.15307283 1.1442001
-0.29427072 0.15683538 1.1443334
-0.28574744 0.15941571 1.1436667
-0.19105284 0.15904398 1.141
-0.18514027 0.15510523 1.142143
-0.17645752 0.15376054 1.1445001
-0.29446444 0.16015911 1.149
-0.28320175 0.16279511 1.1472858
-0.27452379 0.16503525 1.1458572
-0.26653823 0.1663399 1.143
-0.1939013 0.16598624 1.1428666
-0.18561353 0.16349302 1.1471055
-0.17728303 0.16015911 1.149
-0.26595524 0.17070365 1.1476668
-0.2564086 0.17557743 1.1444285
-0.2448149 0.17807758 1.1418889
-0.23618376 0.17801754 1.1440002
-0.22542086 0.17806174 1.1428181
-0.21567395 0.17829984 1.1418889
-0.20323473 0.1763982 1.1437693
-0.19657098 0.17350186 1.1480771
-0.18836322 0.17023201 1.149
-0.25081521 0.18030491 1.149
-0.24384351 0.18250579 1.1470001
-0.23369128 0.18231949 1.149
-0.22353788 0.18271373 1.1478573
-0.21466927 0.18315583 1.1472223
-0.20476471 0.18227182 1.1475457
-0.19843613 0.1813122 1.149
-0.25370997 -0.19104058 1.153
-0.25370997 -0.18901898 1.153
-0.12449981 -0.095751807 1.1545999
-0.11458778 -0.092815332 1.1549999
-0.10580437 -0.091640599 1.1538
-0.1029233 -0.088747986 1.1547778
-0.094769545 -0.083047137 1.1552856
-0.087761998 -0.082196489 1.154
-0.085635863 -0.07853926 1.156
-0.122884 0.0059203804 1.153
-0.13137054 0.018575691 1.1556667
-0.12515628 0.013681699 1.1559998
-0.13185942 0.02130037 1.1570001
-0.11624162 0.047507443 1.153
-0.41705471 0.05721109 1.153
-0.11326841 0.054524139 1.1553334
-0.10853045 0.053758077 1.1570001
-0.41427499 0.064423427 1.1554
-0.40654239 0.068532012 1.153
-0.11055907 0.065253519 1.1570001
-0.40221202 0.073961154 1.1556667
-0.39683875 0.077022709 1.153
-0.1212956 0.078842141 1.153
-0.11424734 0.075266793 1.1549999
-0.39239687 0.084883593 1.1554
-0.38780898 0.087265447 1.153
-0.15271738 0.08832708 1.1536666
-0.1454995 0.084060155 1.1552222
-0.13396934 0.082812786 1.1555001
-0.12486126 0.082615435 1.1552857
-0.3915211 0.0912873 1.1570001
-0.38460287 0.094380833 1.1545
-0.16071667 0.096025683 1.153
-0.1559525 0.09449245 1.1556666
-0.38137805 0.10143033 1.1570001
-0.37712622 0.10558369 1.1543332
-0.16270718 0.10568401 1.1540909
-0.15823132 0.10244464 1.1570001
-0.3732864 0.11218988 1.1554999
-0.36579418 0.11525018 1.1540909
-0.357822 0.11826321 1.153
-0.17163327 0.11664593 1.153
-0.16623482 0.11414421 1.1558233
-0.36007768 0.1207021 1.1570001
-0.35338107 0.12454482 1.155
-0.34710759 0.12756254 1.153
-0.17361484 0.12527961 1.15475
-0.16767216 0.12429117 1.1569998
-0.34449753 0.13180946 1.1552857
-0.33610636 0.13643928 1.1552857
-0.17479827 0.1340909 1.1569998
-0.16837436 0.13084513 1.1570001
-0.33235338 0.14166437 1.1570001
-0.32671437 0.14479698 1.155
-0.31739014 0.14858711 1.153
-0.17189474 0.14453895 1.1556667
-0.32319221 0.15095703 1.1556667
-0.31555954 0.15235528 1.1552857
-0.30543253 0.15756367 1.1552857
-0.17251037 0.15558274 1.1544545
-0.16938865 0.15823132 1.1570001
-0.30124807 0.16330284 1.1570001
-0.29432961 0.16360076 1.1551818
-0.28582346 0.1677148 1.1547778
-0.2789799 0.16880304 1.153
-0.18264861 0.16732122 1.1547143
-0.17502339 0.16551183 1.1557823
-0.16809772 0.16533145 1.1569999
-0.28197634 0.17141727 1.1570001
-0.27390221 0.17169838 1.1543332
-0.26503456 0.17567918 1.155
-0.19339472 0.17652182 1.1549999
-0.18697333 0.17466481 1.1564283
-0.17344588 0.17141727 1.1570001
-0.25444344 0.18280809 1.1563333
-0.24479745 0.18624854 1.1551818
-0.23532872 0.18698415 1.1553999
-0.22538662 0.18664473 1.1555001
-0.2142805 0.1882375 1.1552857
-0.20510101 0.18788356 1.1553332
-0.19704242 0.18427059 1.1562001
-0.20415249 0.19228868 1.1552857
-0.19981776 0.19271764 1.1570001
-0.12433193 -0.092228845 1.1625001
-0.11704814 -0.09058509 1.161
-0.12390408 -0.08609359 1.1680768
-0.11495724 -0.085902669 1.1658423
-0.10538848 -0.083674774 1.1626003
-0.09770976 -0.080406986 1.161
-0.1042596 -0.076327614 1.1675713
-0.09487921 -0.074469715 1.1637203
-0.084581859 -0.073368058 1.1624
-0.078371368 -0.071246698 1.161
-0.11785468 -0.068663165 1.169
-0.10145751 -0.068663165 1.169
-0.095212847 -0.067567863 1.1677999
-0.084088892 -0.065562099 1.1665558
-0.076524116 -0.063548811 1.1638572
-0.080961041 -0.058414929 1.169
-0.07521902 -0.056111783 1.1673332
-0.12401094 0.017505996 1.1620911
-0.11867437 0.01943833 1.1670001
-0.13129748 0.023409629 1.161
-0.12551837 0.022994235 1.1656667
-0.11826462 0.022341151 1.169
-0.1119591 0.05597955 1.161
-0.10654744 0.057283528 1.1638572
-0.42035553 0.067175463 1.161
-0.41669139 0.06737902 1.161
-0.11094129 0.064800568 1.161
-0.10705021 0.06413123 1.1657501
-0.41539663 0.073300354 1.1658571
-0.40664664 0.076279424 1.164
-0.11161983 0.077692829 1.161
-0.10630392 0.074477039 1.1654211
-0.40411964 0.082543954 1.1682001
-0.39806464 0.085436799 1.162143
-0.14451781 0.087394223 1.1636668
-0.13634518 0.087325491 1.165
-0.1245561 0.086377084 1.1646
-0.11605188 0.08266829 1.1641428
-0.10844366 0.080822527 1.1670001
-0.40070593 0.092234105 1.169
-0.39447007 0.094649069 1.1644287
-0.38862854 0.097285889 1.1620001
-0.15230894 0.097031347 1.1615715
-0.14765325 0.093593411 1.1653076
-0.38512331 0.10500801 1.1661431
-0.15401384 0.10557082 1.1635001
-0.14859939 0.10453197 1.169
-0.38250634 0.11362565 1.1676668
-0.37580255 0.1162326 1.1644286
-0.36946502 0.11908377 1.161
-0.1627042 0.11646654 1.1610001
-0.15629679 0.11544245 1.1653202
-0.36400056 0.12337878 1.1655
-0.35705012 0.12530021 1.1619999
-0.16292827 0.12612616 1.1615715
-0.15665969 0.12456185 1.1668462
-0.35373345 0.13334014 1.1682001
-0.34515312 0.13726759 1.1636666
-0.33893073 0.13943997 1.161
-0.17164738 0.13752446 1.1619999
-0.16504021 0.13550662 1.1635602
-0.15561071 0.1349695 1.1683844
-0.34399903 0.14176722 1.169
-0.3357901 0.14582133 1.165
-0.32671702 0.14893954 1.161
-0.17128488 0.14376193 1.1630001
-0.16539398 0.14502083 1.1668464
-0.15730417 0.14399196 1.1682
-0.33278266 0.15154499 1.1680001
-0.32551977 0.15491576 1.1676668
-0.3158119 0.15701275 1.163
-0.30839643 0.15979616 1.161
-0.16606221 0.15458986 1.1654617
-0.15782279 0.15064903 1.169
-0.31460699 0.16220298 1.1678573
-0.30506721 0.16531041 1.1653999
-0.29567543 0.16837434 1.1616668
-0.16406766 0.1651538 1.1634001
-0.29393318 0.17283957 1.1666
-0.28561479 0.17500927 1.1658889
-0.27585894 0.17687947 1.1639999
-0.26768404 0.17811675 1.161
-0.18242949 0.17595187 1.1613637
-0.17492744 0.17608127 1.1635002
-0.16664191 0.17396778 1.165
-0.27466631 0.1818907 1.1684287
-0.26507026 0.18359138 1.1666667
-0.25620782 0.18774803 1.1655
-0.19325045 0.18620247 1.1616155
-0.18460469 0.18495272 1.1645002
-0.17656937 0.18366265 1.1683846
-0.25371698 0.19310598 1.169
-0.24545604 0.1946242 1.1650002
-0.23428535 0.19538134 1.1647779
-0.22514263 0.19478388 1.1648264
-0.21548721 0.19519149 1.1643336
-0.20607598 0.19688766 1.1656667
-0.19661427 0.19308735 1.1664544
-0.18651785 0.19164196 1.169
-0.12031461 -0.082266398 1.1730001
-0.11671545 -0.081752233 1.1730001
-0.12072489 -0.07738775 1.177
-0.11435629 -0.075853482 1.1763334
-0.10602219 -0.072492942 1.174143
-0.11384598 -0.065693595 1.177
-0.10458276 -0.066363193 1.1757693
-0.09476883 -0.062832735 1.1750002
-0.087408051 -0.061846707 1.1730002
-0.092521347 -0.058126796 1.177
-0.085580699 -0.054645114 1.1761305
-0.076901421 -0.051695056 1.1735002
-0.083120182 -0.045974061 1.177
-0.075274281 -0.044336852 1.1762002
-0.076097958 -0.036372244 1.177
-0.13082057 0.026783921 1.1750001
-0.12428415 0.027818466 1.1751819
-0.11728543 0.025108024 1.177
-0.10352761 0.064661764 1.177
-0.42058697 0.077124752 1.1730001
-0.41622049 0.078878082 1.1746
-0.10317578 0.073696978 1.1730001
-0.41452825 0.083089389 1.1765556
-0.40658611 0.086906604 1.174143
-0.12504466 0.089540988 1.174
-0.11372225 0.086735114 1.1750001
-0.10615996 0.083142482 1.1756668
-0.40299344 0.09447632 1.1756667
-0.3979637 0.09769135 1.1730001
-0.14385362 0.096099198 1.1732858
-0.13539787 0.093410522 1.1748463
-0.12382039 0.091833465 1.177
-0.39368802 0.1033206 1.1762002
-0.38870874 0.10694632 1.1730001
-0.14565168 0.10424408 1.1750002
-0.38706353 0.11446899 1.1763334
-0.1511645 0.11517296 1.1730001
-0.1470731 0.11462284 1.1752502
-0.37372255 0.12371607 1.1760001
-0.3667919 0.12748118 1.1746
-0.15454976 0.12556292 1.1740001
-0.14858449 0.12485224 1.177
-0.36275396 0.1321924 1.1762002
-0.35646957 0.13696976 1.1747143
-0.15396953 0.13431801 1.1744547
-0.14879084 0.1326942 1.177
-0.35168886 0.14088121 1.1730001
-0.34478569 0.14612991 1.1747779
-0.15392314 0.14553605 1.1750001
-0.34153792 0.15167999 1.177
-0.33484039 0.15557355 1.1752223
-0.32661566 0.15867719 1.1738001
-0.16144781 0.15630616 1.1730001
-0.1560673 0.15585412 1.1748948
-0.32396752 0.16323546 1.1752857
-0.3157101 0.16631207 1.174143
-0.30884179 0.1689889 1.1730001
-0.16144781 0.16556112 1.1730001
-0.15842471 0.16501795 1.1750001
-0.31367832 0.17025305 1.177
-0.30365366 0.17324498 1.1752859
-0.29529843 0.17663109 1.1736668
-0.28587574 0.17944358 1.1730001
-0.16416548 0.17726287 1.1737275
-0.15906562 0.17212152 1.1756667
-0.29304162 0.18057142 1.177
-0.28428873 0.18402679 1.1760001
-0.27539155 0.18685579 1.1743335
-0.26633748 0.1881844 1.1730001
-0.17261031 0.1867979 1.1743335
-0.16594929 0.1838723 1.1757693
-0.26392752 0.19227448 1.1760001
-0.25584078 0.19728771 1.1747143
-0.24371421 0.19846769 1.1730001
-0.23960088 0.19846769 1.1730001
-0.1937781 0.19686662 1.1736668
-0.18462522 0.19658472 1.1756668
-0.17557211 0.19296725 1.1755002
-0.25176814 0.20223999 1.177
-0.24404055 0.20281382 1.1756667
-0.23596527 0.20320868 1.1744548
-0.22548224 0.20358263 1.1744548
-0.21503209 0.20215517 1.1750001
-0.2043004 0.20297828 1.1752859
-0.19708081 0.20238741 1.177
-0.18882611 0.20120814 1.177
-0.12113517 -0.077650748 1.1810001
-0.11595845 -0.073164262 1.1810001
-0.11343057 -0.065517463 1.1812667
-0.10510775 -0.062051535 1.1818889
-0.1123834 -0.059314393 1.187
-0.10426351 -0.057139046 1.1883848
-0.095476493 -0.054127544 1.1823334
-0.1011086 -0.048990764 1.189
-0.093709186 -0.045291401 1.1850001
-0.086121738 -0.04320205 1.181
-0.092023991 -0.037155762 1.1883334
-0.084948756 -0.034464765 1.1839473
-0.075214647 -0.033070084 1.181
-0.08130382 -0.027101273 1.189
-0.075107694 -0.025113663 1.1849999
-0.074157842 -0.015119465 1.1862309
-0.069368005 -0.011388777 1.1810001
-0.072904482 -0.0083309636 1.188
-0.069681264 -0.0072777942 1.1863333
-0.11696442 0.027551441 1.1860001
-0.12522712 0.033541374 1.1817501
-0.11760363 0.032833476 1.1871818
-0.10120481 0.066003136 1.1810001
-0.097609945 0.066803373 1.1827143
-0.10128977 0.075366445 1.1830001
-0.095638342 0.075638868 1.1868461
-0.086225554 0.076431684 1.1850001
-0.42141628 0.086155288 1.1840001
-0.41607311 0.086651862 1.1827143
-0.10346308 0.085307561 1.1858
-0.096244268 0.083041079 1.189
-0.086515605 0.080261461 1.189
-0.41335037 0.092164554 1.1856667
-0.40711725 0.096507847 1.1836668
-0.13441186 0.097829208 1.1840001
-0.12520546 0.094451502 1.1839093
-0.11534122 0.092485435 1.1853079
-0.10550392 0.09093079 1.1876668
-0.40262255 0.10541017 1.1875001
-0.39730597 0.10625312 1.1832858
-0.14170553 0.10518375 1.1825385
-0.13656759 0.10394797 1.1876668
-0.40214118 0.11403382 1.189
-0.39559236 0.11569235 1.1843684
-0.38787591 0.11926612 1.1830001
-0.14193131 0.11482042 1.183
-0.13828598 0.11570159 1.189
-0.39296848 0.12195573 1.189
-0.38376698 0.12376457 1.1863334
-0.37630695 0.12647362 1.1825001
-0.14346077 0.12514319 1.183
-0.13793853 0.12265063 1.189
-0.37354952 0.13403794 1.1878573
-0.36616391 0.13565744 1.1832224
-0.15012479 0.13873601 1.1810001
-0.14417748 0.13551064 1.1869999
-0.36265114 0.14204323 1.187
-0.35560799 0.14622523 1.1843334
-0.34891069 0.14805409 1.1810001
-0.15053892 0.14515512 1.1810001
-0.1447873 0.1447901 1.1881996
-0.35331127 0.15166713 1.1876668
-0.34528118 0.15566881 1.1843847
-0.33752191 0.15840752 1.1810001
-0.15096484 0.15485089 1.1815001
-0.14495684 0.15502855 1.1881664
-0.3426469 0.16247176 1.1880001
-0.3343057 0.1647065 1.1858572
-0.32619891 0.16829604 1.1850001
-0.31992108 0.16876096 1.1810001
-0.15316628 0.16562591 1.1838235
-0.14655006 0.16530986 1.1887499
-0.32313055 0.17303121 1.189
-0.31505015 0.17476135 1.1846364
-0.30581421 0.17752916 1.1825001
-0.29921421 0.1791144 1.1810001
-0.16047822 0.17807905 1.1810001
-0.15514588 0.17510512 1.1853998
-0.149057 0.17303121 1.189
-0.3037529 0.18216695 1.1874001
-0.29443115 0.18456277 1.1855716
-0.28727752 0.1866774 1.1830001
-0.16312984 0.18661708 1.1818891
-0.15698893 0.18485156 1.1871539
-0.28408611 0.19355395 1.187
-0.27481684 0.19477998 1.1847333
-0.26676092 0.19669813 1.184
-0.25987118 0.19982126 1.1810001
-0.18118508 0.19775057 1.1810001
-0.17441437 0.19722435 1.1825
-0.16499011 0.19495307 1.1857272
-0.15843821 0.19387832 1.189
-0.26418513 0.20256723 1.1884286
-0.25618568 0.20500214 1.1855
-0.24628635 0.2072845 1.1834002
-0.23518494 0.20824499 1.1818001
-0.22448422 0.20822881 1.1836667
-0.2148968 0.20763254 1.1842
-0.20707788 0.20811498 1.1840001
-0.19385073 0.20629588 1.1825
-0.18495288 0.20578158 1.18775
-0.17515382 0.20417708 1.1875
-0.16764569 0.20378071 1.189
-0.24182674 0.2115984 1.189
-0.23371321 0.21211325 1.1875
-0.22526485 0.21298821 1.189
-0.21733136 0.21211958 1.189
-0.20427713 0.21297336 1.1860909
-0.19591646 0.21324937 1.1858001
-0.11075836 -0.054153163 1.1956667
-0.10608665 -0.05356539 1.1934
-0.1046128 -0.045770828 1.1956669
-0.098520324 -0.042462051 1.1930001
-0.10283826 -0.038826689 1.197
-0.09550634 -0.034162704 1.1954002
-0.088898383 -0.030330036 1.1930001
-0.10178889 -0.026234251 1.197
-0.093813673 -0.027493495 1.197
-0.085199401 -0.024865333 1.1942501
-0.083102621 -0.016918037 1.1955715
-0.07843975 -0.01568795 1.1930001
-0.080801487 -0.0094443299 1.197
-0.075115435 -0.0043742051 1.1948825
-0.067981116 -0.0020917268 1.1930001
-0.07191404 0.0033809138 1.1965556
-0.067433499 0.0048947223 1.1956667
-0.11330187 0.027541066 1.1930001
-0.12172692 0.038826689 1.197
-0.11519006 0.035081569 1.1945001
-0.095492668 0.068209052 1.197
-0.093644649 0.073501267 1.1934999
-0.095054336 0.084972203 1.1939093
-0.085905619 0.083811782 1.1950001
-0.42249134 0.09450604 1.1958572
-0.41652453 0.096605055 1.1934444
-0.13073291 0.099357016 1.1930001
-0.12469719 0.098949738 1.1952858
-0.11401617 0.098206989 1.195182
-0.10560776 0.095738761 1.1944286
-0.097247951 0.092825077 1.1956667
-0.41300204 0.10388763 1.1969999
-0.40780482 0.10577526 1.1946
-0.1335706 0.1061356 1.1934444
-0.1245752 0.10238852 1.1969999
-0.11857881 0.10178889 1.197
-0.40684083 0.11190738 1.1930001
-0.1347539 0.11468071 1.1946666
-0.11473111 0.11368174 1.197
-0.10981565 0.11399911 1.1930001
-0.40220958 0.12429117 1.1954
-0.39539072 0.1263331 1.1955884
-0.38727012 0.12746118 1.1950001
-0.14119154 0.12864119 1.1930001
-0.13522279 0.12499911 1.1946473
-0.38385609 0.13249737 1.1963334
-0.37697315 0.13626328 1.1938
-0.14119154 0.13073291 1.1930001
-0.13772126 0.13458192 1.1946667
-0.37042761 0.14166495 1.197
-0.36471701 0.14553748 1.1943334
-0.13728724 0.14581208 1.1941427
-0.36082286 0.15165018 1.1930001
-0.3550944 0.15592188 1.1936666
-0.13590868 0.15463176 1.1941767
-0.35036421 0.16001709 1.1930001
-0.34450722 0.16631652 1.1956667
-0.33885974 0.16733813 1.1930001
-0.14178918 0.16449936 1.193
-0.13772735 0.16287638 1.1952224
-0.33426961 0.17289908 1.1952858
-0.3254101 0.17618962 1.1945
-0.31898832 0.17884263 1.1930001
-0.15165018 0.17884263 1.1930001
-0.14519608 0.17506576 1.1942633
-0.13956621 0.17104732 1.197
-0.32005784 0.18154101 1.197
-0.31358716 0.18263568 1.1950001
-0.30485556 0.18647751 1.1949999
-0.29679602 0.18871845 1.1946001
-0.15259507 0.18534541 1.1944546
-0.14808145 0.18201512 1.1946
-0.29299831 0.19358537 1.1962001
-0.28793386 0.19649459 1.1943334
-0.27715379 0.1997599 1.1930001
-0.16001709 0.1997599 1.1930001
-0.15536076 0.19577317 1.1941998
-0.28228053 0.20042966 1.197
-0.27349332 0.20343764 1.1952858
-0.26625839 0.20735243 1.1952223
-0.16237314 0.20562844 1.1936666
-0.15674844 0.20393237 1.1960001
-0.26234251 0.21092337 1.197
-0.25562197 0.21057096 1.1950001
-0.24652305 0.21217665 1.1946
-0.23492759 0.21685842 1.1950002
-0.22487715 0.2179001 1.1943334
-0.21510531 0.21543036 1.1942308
-0.20589447 0.21846025 1.1946
-0.19289441 0.2173131 1.1936667
-0.18540746 0.21348287 1.1948668
-0.17476639 0.2123186 1.1948463
-0.16592254 0.21179654 1.1960001
-0.22911245 0.22211665 1.197
-0.20147903 0.22141707 1.197
-0.19623218 0.22141707 1.197
-0.10537533 -0.041096378 1.202
-0.10298519 -0.035031602 1.2036
-0.097999059 -0.030558847 1.202
-0.1004397 -0.02854602 1.2060001
-0.09419623 -0.023668246 1.2023635
-0.089569032 -0.021075066 1.202
-0.092765011 -0.015424073 1.2052002
-0.087389842 -0.013957507 1.2042222
-0.082991928 -0.0059122401 1.2044001
-0.079031497 -0.0010537533 1.202
-0.081409022 0.00105726 1.2060001
-0.075461075 0.0056573688 1.2030908
-0.067440212 0.0094837798 1.202
-0.072313227 0.013436795 1.2054288
-0.065884657 0.014572655 1.2043999
-0.095153399 0.066607378 1.2060001
-0.087096833 0.088785641 1.2028
-0.42677009 0.093784049 1.202
-0.10116032 0.097999059 1.202
-0.094190806 0.09583544 1.2042222
