# .PCD v0.7 - Point Cloud Data file format
VERSION 0.7
FIELDS x y z
SIZE 4 4 4
TYPE F F F
COUNT 1 1 1
WIDTH 1467
HEIGHT 1
VIEWPOINT 0 0 0 1 0 0 0
POINTS 1467
DATA ascii
-0.21181726 -0.15290527 1.0500001
-0.20539714 -0.15525399 1.0552413
-0.19586784 -0.15602244 1.057
-0.18577346 -0.15509154 1.0569997
-0.17884088 -0.15660159 1.057
-0.41050005 -0.14548196 1.057
-0.40428281 -0.14530018 1.0542632
-0.3953383 -0.1449149 1.0501999
-0.38826689 -0.14672771 1.0500001
-0.32462969 -0.14789367 1.0500001
-0.31296998 -0.1482005 1.0500001
-0.30479071 -0.14763321 1.0517778
-0.29640099 -0.1482005 1.0500001
-0.22178788 -0.14242385 1.0526667
-0.21522371 -0.14504182 1.0543212
-0.20586777 -0.14748968 1.057
-0.18473767 -0.14581892 1.057
-0.40447465 -0.1350932 1.0545219
-0.39650539 -0.13554363 1.0500001
-0.22289382 -0.13461082 1.0550001
-0.21914957 -0.13853218 1.057
-0.17235443 -0.13806887 1.057
-0.4026953 -0.12498069 1.0549999
-0.39600211 -0.12486931 1.0503078
-0.22282945 -0.12534882 1.0556667
-0.4000949 -0.11827286 1.054
-0.39467505 -0.11502875 1.0514737
-0.3886351 -0.1128533 1.0500001
-0.22175181 -0.11472571 1.0525001
-0.21961288 -0.11490294 1.057
-0.3933188 -0.10533675 1.0540001
-0.38629061 -0.10458254 1.050842
-0.21799129 -0.10501432 1.0516365
-0.42254633 -0.092663676 1.057
-0.41454282 -0.09308894 1.0555
-0.40455803 -0.094450034 1.0534737
-0.39426363 -0.095975555 1.0532352
-0.38447577 -0.094662011 1.0505925
-0.21686369 -0.095348693 1.0536667
-0.42291507 -0.085888237 1.0546317
-0.41476977 -0.084849894 1.0503809
-0.40778151 -0.089288503 1.0500001
-0.38845098 -0.089288503 1.0500001
-0.21338442 -0.084325314 1.0537144
-0.42116222 -0.077062152 1.054
-0.41449541 -0.074826457 1.0510527
-0.40962249 -0.071798995 1.0500001
-0.21099526 -0.075555518 1.0510001
-0.208912 -0.073136792 1.0560001
-0.41374496 -0.065465152 1.0542499
-0.40848914 -0.064457789 1.0504001
-0.20647851 -0.065132476 1.0524
-0.41084152 -0.057368629 1.0555
-0.40377662 -0.056079 1.0530624
-0.3962025 -0.05280799 1.05225
-0.20351155 -0.054245375 1.0538572
-0.19885623 -0.05393026 1.057
-0.39336875 -0.045700315 1.0521818
-0.38937148 -0.042342998 1.0500001
-0.20342903 -0.045513958 1.0541875
-0.1988562 -0.045405194 1.057
-0.42161968 -0.032432284 1.057
-0.41487551 -0.03274139 1.0549333
-0.40527511 -0.031283263 1.0546666
-0.39455596 -0.03392151 1.0547895
-0.38523129 -0.033940956 1.0509598
-0.37709817 -0.031603832 1.0500001
-0.21079449 -0.0303765 1.0500001
-0.20553719 -0.035263449 1.0543077
-0.19922689 -0.039845377 1.057
-0.41484511 -0.025453605 1.0525295
-0.40580678 -0.025752576 1.0506955
-0.39526972 -0.027872302 1.051
-0.38389209 -0.026599383 1.0507501
-0.36746362 -0.0233807 1.0500001
-0.21272829 -0.024644852 1.0524286
-0.20749198 -0.02663061 1.0566251
-0.41233796 -0.017325127 1.054
-0.40635338 -0.01418739 1.0510668
-0.37096149 -0.0193305 1.0500001
-0.22178788 -0.010764882 1.0526667
-0.21531045 -0.015510329 1.0546111
-0.40251702 -0.0067275395 1.0534285
-0.39580688 -0.0037672757 1.0510911
-0.23100166 -0.00092400669 1.054
-0.22593941 -0.004753537 1.0544287
-0.21961288 -0.0083397301 1.057
-0.39298359 0.0018486709 1.05475
-0.38710093 0.0046095136 1.0513333
-0.25085115 0.0064557735 1.052
-0.24507903 0.0041777715 1.05304
-0.2353451 0.0034973638 1.0546112
-0.22841595 0.0023165916 1.057
-0.382395 0.014149691 1.0523334
-0.37699759 0.016739657 1.0510001
-0.25091478 0.013038036 1.0517143
-0.24669397 0.014841737 1.0547894
-0.37433052 0.021924995 1.053
-0.3647401 0.025091236 1.0528182
-0.35899499 0.027615 1.0500001
-0.25180414 0.02588338 1.0515386
-0.24653773 0.024224712 1.0559168
-0.36231494 0.03057901 1.057
-0.35388058 0.03338597 1.0535715
-0.34576449 0.036843602 1.0526154
-0.33966449 0.038660999 1.0500001
-0.2917985 0.036820002 1.0500001
-0.28615943 0.0374569 1.0523
-0.27486035 0.03647916 1.0532917
-0.26495895 0.03595579 1.0533569
-0.25535938 0.034014799 1.0542501
-0.24926527 0.031505648 1.057
-0.34248123 0.04246486 1.053
-0.33462921 0.045223814 1.0527
-0.32524994 0.047859702 1.0553637
-0.3164942 0.048372716 1.0510001
-0.29130757 0.046141889 1.0526667
-0.28550819 0.045015574 1.0548002
-0.27627012 0.042492907 1.057
-0.26965126 0.04169865 1.057
-0.3308093 0.050965015 1.057
-0.32154292 0.050965015 1.057
-0.31449184 0.053476941 1.0539376
-0.30522281 0.056817845 1.0518463
-0.29435062 0.055130772 1.0522382
-0.28625926 0.054292887 1.055611
-0.31134993 0.06115802 1.057
-0.30470321 0.061708879 1.0550715
-0.29439208 0.06192895 1.0567693
-0.28818399 0.060231384 1.057
-0.36411583 -0.22163558 1.0622501
-0.36461484 -0.21495841 1.0649999
-0.35671291 -0.21564291 1.0633335
-0.222626 -0.20111172 1.067
-0.21548605 -0.20185724 1.0649999
-0.20967674 -0.20035778 1.0630001
-0.35411996 -0.19444722 1.0684999
-0.34541523 -0.19548041 1.0685
-0.33455312 -0.19527763 1.0685
-0.28903964 -0.19175768 1.067
-0.27497315 -0.19527265 1.0699998
-0.2655209 -0.19362848 1.067
-0.22106437 -0.19564247 1.061
-0.21499425 -0.19471994 1.0627307
-0.20642012 -0.19454747 1.0685
-0.39234972 -0.18427446 1.067
-0.3875688 -0.18365085 1.067
-0.37530494 -0.18308908 1.0684999
-0.36627722 -0.18227002 1.0670002
-0.35514143 -0.18084465 1.067
-0.34502521 -0.18503663 1.0669999
-0.33440453 -0.18500121 1.0684999
-0.32376051 -0.18282583 1.0684999
-0.31502753 -0.18303791 1.0684999
-0.30467916 -0.18385765 1.0685
-0.29393935 -0.18382902 1.067
-0.28536734 -0.18503666 1.0669999
-0.27504084 -0.18446805 1.0669998
-0.26472193 -0.1859888 1.0655714
-0.25906727 -0.18451554 1.0630001
-0.21181305 -0.18852381 1.0628334
-0.2044448 -0.18528756 1.064
-0.19597325 -0.1835981 1.0685
-0.41251287 -0.17164651 1.067
-0.40502962 -0.1711788 1.067
-0.39397529 -0.17398161 1.0663333
-0.38461798 -0.17449269 1.06436
-0.37511647 -0.17441516 1.0638798
-0.36511061 -0.17437431 1.0640343
-0.35490599 -0.17437916 1.0636799
-0.34496954 -0.17460738 1.0633076
-0.33452791 -0.17512619 1.0680263
-0.32496017 -0.17514315 1.0685
-0.31509283 -0.1749147 1.0659999
-0.30473053 -0.17459187 1.0649664
-0.29448259 -0.17455274 1.0656153
-0.28495944 -0.17488487 1.0654614
-0.27504596 -0.17440976 1.0629165
-0.26697496 -0.17733563 1.0610911
-0.20121984 -0.17889816 1.061
-0.19516587 -0.17495693 1.0619285
-0.18528579 -0.174321 1.0633076
-0.17793855 -0.17181137 1.0642858
-0.42330465 -0.16142035 1.0643334
-0.41386274 -0.16488926 1.0651579
-0.40505385 -0.1653776 1.0636522
-0.39542821 -0.16627775 1.0625625
-0.38564566 -0.16782555 1.0600001
-0.36427253 -0.16819726 1.0600001
-0.35381702 -0.16714439 1.0608182
-0.34413841 -0.16695823 1.0600001
-0.33224025 -0.16792138 1.0632857
-0.32457837 -0.1656808 1.0635216
-0.31549901 -0.16465825 1.0626956
-0.30504373 -0.1646897 1.0605171
-0.29493806 -0.16570623 1.0609473
-0.28561047 -0.16745788 1.0612001
-0.27877998 -0.16819726 1.0600001
-0.19049966 -0.16726799 1.0600001
-0.18802162 -0.16757774 1.0600001
-0.17598219 -0.1648097 1.0621334
-0.42443871 -0.15537876 1.0663042
-0.41541249 -0.15531394 1.0615
-0.40980661 -0.15425827 1.0600001
-0.31539312 -0.15816119 1.0600001
-0.3032507 -0.1589046 1.0600001
-0.29457754 -0.1589046 1.0600001
-0.19545574 -0.15291598 1.0600001
-0.18182652 -0.15208997 1.0600001
-0.17660953 -0.15456933 1.0621667
-0.42326999 -0.14545521 1.0670002
-0.41536185 -0.14480709 1.0624285
-0.40980661 -0.14589487 1.0600001
-0.21373133 -0.14031927 1.0600001
-0.20451047 -0.14294612 1.0606316
-0.1950611 -0.14513282 1.0602572
-0.18472841 -0.14423199 1.0600001
-0.17592549 -0.14437805 1.060923
-0.42249051 -0.13656889 1.067
-0.41593146 -0.13491222 1.0634285
-0.40980661 -0.13195586 1.0600001
-0.2202362 -0.13288513 1.0600001
-0.21452746 -0.1344891 1.0624332
-0.20531501 -0.13469216 1.0679444
-0.19491479 -0.1351857 1.0657691
-0.1855354 -0.1346162 1.0622963
-0.17621051 -0.13433646 1.0602857
-0.41496876 -0.12525654 1.064381
-0.40874454 -0.125982 1.0600001
-0.22023621 -0.125451 1.0600001
-0.21743247 -0.12537302 1.0654999
-0.18427901 -0.1261901 1.0655453
-0.17598361 -0.12602249 1.064
-0.41188928 -0.11661362 1.067
-0.40538704 -0.11519797 1.062
-0.2202362 -0.11894614 1.0600001
-0.21868114 -0.11540425 1.0645
-0.17398502 -0.11879622 1.067
-0.16930801 -0.11879622 1.067
-0.43309173 -0.10008816 1.067
-0.42747936 -0.10008816 1.067
-0.41438368 -0.10242666 1.067
-0.4044511 -0.10507246 1.0624286
-0.39865538 -0.10407787 1.0600001
-0.21445298 -0.10381939 1.0605
-0.44244576 -0.093353257 1.067
-0.43423283 -0.093741477 1.0614347
-0.42524073 -0.095701866 1.0611253
-0.41503811 -0.097712651 1.0615002
-0.40571785 -0.09905982 1.0600001
-0.21240766 -0.095117711 1.0627
-0.20859495 -0.090734124 1.067
-0.44151038 -0.084186301 1.067
-0.43487287 -0.085043028 1.0629998
-0.42789102 -0.082379833 1.0606
-0.21142608 -0.085808523 1.0650001
-0.20859495 -0.088863313 1.067
-0.43429193 -0.077835068 1.0664999
-0.42673478 -0.074185453 1.0628126
-0.2084851 -0.076337628 1.0637144
-0.4232991 -0.065837607 1.0642143
-0.41784865 -0.063410178 1.0606
-0.20255403 -0.063477464 1.06475
-0.19874294 -0.062517725 1.0643334
-0.42186689 -0.058930408 1.067
-0.41497454 -0.054751217 1.0637144
-0.40731648 -0.052723359 1.0604286
-0.20165086 -0.058543801 1.0600001
-0.19979233 -0.058543801 1.0600001
-0.43309173 -0.041625448 1.067
-0.42532703 -0.041753441 1.06425
-0.41527039 -0.044686846 1.0682895
-0.40465257 -0.044749487 1.0635415
-0.39873499 -0.043350115 1.0612001
-0.19592395 -0.042977881 1.0612001
-0.43365297 -0.034609925 1.0670002
-0.42592582 -0.035228528 1.0618948
-0.41483545 -0.037313007 1.0616364
-0.40571538 -0.036321118 1.0622668
-0.39841199 -0.038135875 1.061
-0.20165086 -0.032524332 1.0600001
-0.19739534 -0.035002865 1.0634999
-0.43184456 -0.028373903 1.067
-0.42503121 -0.024821609 1.0635
-0.20368008 -0.024180131 1.0609
-0.19865686 -0.026866619 1.0650001
-0.42373767 -0.019643471 1.067
-0.41687399 -0.012958204 1.0643334
-0.21262872 -0.011948748 1.06225
-0.20597462 -0.016695999 1.0635909
-0.41189426 -0.006536602 1.0654
-0.40541539 -0.0025866537 1.0625557
-0.22238779 -0.0031643282 1.0623
-0.21647012 -0.0066812956 1.0635835
-0.40330118 0.0020564846 1.0654
-0.39599374 0.0054405201 1.0632501
-0.38936272 0.0083633997 1.0600001
-0.23486324 0.0076247202 1.0606002
-0.22690104 0.0040424559 1.0636667
-0.39284152 0.01176925 1.0654
-0.38843346 0.012080466 1.0600001
-0.24259138 0.015156634 1.0638126
-0.23512156 0.011360869 1.0650001
-0.38007006 0.023231667 1.0600001
-0.37466106 0.026553355 1.0626667
-0.36864737 0.028214931 1.061
-0.24318884 0.025557963 1.0628573
-0.37322593 0.030868312 1.067
-0.36481857 0.03438678 1.0639334
-0.35528961 0.037893429 1.0600001
-0.25473699 0.038737413 1.0605
-0.24657872 0.03382998 1.0648571
-0.36135551 0.041688833 1.0662
-0.35457522 0.043507721 1.0655717
-0.34609228 0.046990328 1.0648667
-0.33732378 0.048321865 1.0600001
-0.28112218 0.048769262 1.0630001
-0.27459723 0.046632413 1.0637727
-0.26545775 0.044183802 1.0642353
-0.25504026 0.042145628 1.0651333
-0.24975269 0.041157745 1.067
-0.34282532 0.051914886 1.067
-0.33449134 0.054165725 1.064
-0.32566363 0.054718725 1.0632001
-0.31779185 0.057898749 1.0618
-0.28227177 0.055645686 1.0638334
-0.27800184 0.053692151 1.0670002
-0.32364956 0.060801215 1.067
-0.31518719 0.063040838 1.0637001
-0.30400813 0.066561013 1.0626668
-0.29448411 0.066742264 1.0615716
-0.28505534 0.064754732 1.062516
-0.27968559 0.061736621 1.067
-0.29340485 0.071402453 1.067
-0.28609976 0.071224287 1.067
-0.37052315 -0.2110575 1.0700001
-0.36375168 -0.21162373 1.072875
-0.35683244 -0.21314046 1.0761538
-0.33392143 -0.21054991 1.077
-0.32432237 -0.21149409 1.077
-0.31724113 -0.21054991 1.077
-0.28183472 -0.21196617 1.077
-0.27790073 -0.2130677 1.077
-0.37359178 -0.20397176 1.0748668
-0.36506563 -0.20511527 1.073265
-0.35499078 -0.20542622 1.0750868
-0.34463409 -0.20527861 1.0741
-0.33470249 -0.2050532 1.0738182
-0.32419521 -0.20480396 1.0734
-0.31656629 -0.20412746 1.0759999
-0.30402273 -0.2011082 1.077
-0.29405716 -0.20353708 1.0755713
-0.2855821 -0.20485665 1.0741363
-0.27508616 -0.20496273 1.0712857
-0.26921555 -0.2026152 1.0700001
-0.22231388 -0.20449126 1.0700001
-0.38480783 -0.19153139 1.0717143
-0.37539706 -0.19424908 1.0723845
-0.3654274 -0.19445725 1.0715599
-0.32527983 -0.19500609 1.0710312
-0.31478232 -0.19451277 1.0718517
-0.30512586 -0.19478717 1.0729614
-0.29546058 -0.1941883 1.0705453
-0.28468877 -0.19537954 1.0700999
-0.26921555 -0.19511092 1.0700001
-0.2110575 -0.19604897 1.0700001
-0.41260228 -0.18033648 1.077
-0.40490445 -0.18181734 1.0746
-0.39587006 -0.18234813 1.0703334
-0.38495782 -0.18472843 1.0701427
-0.36396623 -0.18638197 1.070375
-0.35537493 -0.18608354 1.0708333
-0.34801036 -0.18573061 1.0700001
-0.29773179 -0.18779428 1.0700001
-0.27484375 -0.18854471 1.0700001
-0.18713765 -0.18150944 1.0700001
-0.41155437 -0.17557792 1.0710001
-0.40552253 -0.17632705 1.0719473
-0.39759973 -0.17799737 1.0705
-0.43055731 -0.1604037 1.0700001
-0.42680517 -0.16227977 1.0700001
-0.17266488 -0.16670036 1.0733333
-0.16900642 -0.16900642 1.077
-0.43346247 -0.15456179 1.0725384
-0.4277432 -0.1547755 1.0700001
-0.17541224 -0.15289943 1.0700001
-0.43288952 -0.14601792 1.0746251
-0.42845654 -0.14427683 1.0710001
-0.43148568 -0.13690464 1.077
-0.42608634 -0.13430446 1.0713333
-0.21199554 -0.13038664 1.0700001
-0.19839405 -0.13085565 1.0700001
-0.42562968 -0.12507883 1.0737058
-0.41836286 -0.1210063 1.0700001
-0.21306074 -0.12416147 1.0706428
-0.20529178 -0.12501621 1.0733448
-0.19465826 -0.12482671 1.0705999
-0.18479255 -0.12154233 1.0700001
-0.17578745 -0.12138152 1.0700001
-0.42249444 -0.11633955 1.0764285
-0.41586152 -0.11406799 1.0724167
-0.21553329 -0.11675885 1.0731111
-0.20488489 -0.11990959 1.077
-0.19465935 -0.11725792 1.0751176
-0.18531211 -0.11592195 1.0743749
-0.17622072 -0.11459743 1.0723181
-0.43243194 -0.10326853 1.0728
-0.42455497 -0.10480182 1.0749999
-0.41544124 -0.10633888 1.0713334
-0.21468604 -0.10403901 1.0756668
-0.17372727 -0.10857955 1.077
-0.45225742 -0.091584489 1.077
-0.44644284 -0.093343608 1.0712001
-0.2110575 -0.09661743 1.0700001
-0.20856631 -0.093950033 1.0716668
-0.45099854 -0.086548917 1.077
-0.44583511 -0.085139759 1.072
-0.20713669 -0.084621586 1.0717332
-0.44303733 -0.077291533 1.07525
-0.4365187 -0.074056484 1.0715834
-0.20482476 -0.074752934 1.0725833
-0.43348584 -0.066092081 1.0740001
-0.42803061 -0.062309224 1.0715001
-0.20412393 -0.068668425 1.0730001
-0.43148568 -0.059482709 1.077
-0.42564118 -0.05479354 1.0739999
-0.41930088 -0.052529864 1.0700001
-0.45131326 -0.042487651 1.077
-0.44547048 -0.041977867 1.0760001
-0.43573102 -0.044390574 1.0730908
-0.4240407 -0.047173437 1.0718668
-0.44414714 -0.034691852 1.0748181
-0.4386149 -0.034925327 1.0703334
-0.19317713 -0.032039534 1.0704286
-0.4420751 -0.026007067 1.0758573
-0.43542776 -0.024248835 1.0721333
-0.19479288 -0.02538239 1.0723999
-0.18977816 -0.02549259 1.077
-0.44092739 -0.019827571 1.077
-0.4342123 -0.01754017 1.0758001
-0.42599177 -0.014378123 1.0721999
-0.20330715 -0.013036747 1.0718125
-0.19875538 -0.017894374 1.0745001
-0.42302826 -0.0066052442 1.0765001
-0.41570795 -0.0038413142 1.0717273
-0.22043782 -0.00093803334 1.0700001
-0.21435246 -0.0034454458 1.0729443
-0.20694667 -0.0069018505 1.0738333
-0.41380578 0.0035864431 1.0762
-0.40590835 0.0057787984 1.0725
-0.22422685 0.0054139094 1.0735625
-0.21863891 0.00094241666 1.075
-0.40416995 0.011323611 1.0763334
-0.39514619 0.015629476 1.0737001
-0.24107456 0.017822633 1.0700001
-0.23539603 0.016891114 1.0730474
-0.22843608 0.012621984 1.0741
-0.39183053 0.02266008 1.077
-0.38620031 0.025450803 1.0753332
-0.3799035 0.029079033 1.0700001
-0.24162351 0.025105832 1.0738333
-0.23937207 0.021675583 1.075
-0.38380456 0.033299178 1.0764287
-0.3749848 0.035325225 1.0734667
-0.36822325 0.037575249 1.0715001
-0.24330553 0.036269214 1.0708182
-0.37105882 0.040599309 1.077
-0.36438036 0.044560671 1.074
-0.3561587 0.047572609 1.0710001
-0.27109164 0.049715765 1.0700001
-0.26453999 0.04852584 1.0713334
-0.25469318 0.047324281 1.0715624
-0.24586864 0.043217544 1.072842
-0.35362777 0.05186272 1.0756668
-0.34557512 0.054367673 1.070909
-0.33528253 0.058631092 1.0712858
-0.32924971 0.059096098 1.0700001
-0.27451786 0.056087591 1.072238
-0.26664612 0.052639231 1.0754167
-0.25555536 0.051299904 1.077
-0.33205417 0.061143115 1.0730001
-0.32424685 0.062222879 1.0700001
-0.31252027 0.068924412 1.077
-0.30810755 0.068572432 1.0715001
-0.28047195 0.066600367 1.0700001
-0.27797207 0.063882343 1.0742499
-0.30353197 0.072141871 1.0748888
-0.29561278 0.074455366 1.07275
-0.2844485 0.073977865 1.0729411
-0.32113966 -0.23156361 1.087
-0.3156943 -0.23210815 1.087
-0.30648619 -0.23276937 1.0863999
-0.29560095 -0.2319448 1.087
-0.352029 -0.22255236 1.0833334
-0.34591597 -0.22076368 1.087
-0.33257487 -0.22121742 1.087
-0.32402378 -0.22503754 1.0857141
-0.31489787 -0.22536178 1.083409
-0.30530185 -0.225059 1.0835171
-0.29529443 -0.22532386 1.0844798
-0.28646544 -0.22275455 1.0819999
-0.35269618 -0.21557978 1.0814999
-0.34551531 -0.2146254 1.0834761
-0.33557686 -0.21506563 1.0829411
-0.32531601 -0.21681415 1.0818667
-0.31508756 -0.2152878 1.0801739
-0.30550173 -0.21525419 1.0825806
-0.29467431 -0.21508422 1.0807999
-0.28543767 -0.21537444 1.08
-0.27646559 -0.21303 1.08
-0.31320143 -0.20697048 1.08
-0.30518523 -0.2060868 1.08
-0.29697961 -0.20798039 1.08
-0.17246519 -0.16244408 1.0836364
-0.16614757 -0.16341355 1.0845624
-0.15914042 -0.1610463 1.087
-0.44319463 -0.15323308 1.0829999
-0.43836841 -0.1505412 1.08
-0.1770516 -0.156222 1.08
-0.16295217 -0.15914042 1.087
-0.15914042 -0.15914042 1.087
-0.4454698 -0.14499591 1.0867
-0.4386375 -0.14502433 1.0830001
-0.44540256 -0.13474526 1.087
-0.43641976 -0.13457127 1.0832142
-0.44788021 -0.12435824 1.087
-0.43514618 -0.12460548 1.0830587
-0.2054556 -0.1202436 1.08
-0.44120967 -0.11149359 1.087
-0.43448174 -0.11458214 1.0833528
-0.42687154 -0.11375125 1.08
-0.21340385 -0.11345021 1.0824444
-0.20531932 -0.11503 1.0819999
-0.19612285 -0.11239868 1.08
-0.18516703 -0.11158714 1.08
-0.44120967 -0.10958771 1.087
-0.43403766 -0.10803601 1.0810001
-0.4279536 -0.108882 1.08
-0.21288386 -0.10596778 1.0840999
-0.20470338 -0.1062007 1.0860454
-0.19508225 -0.10476645 1.0847584
-0.18499559 -0.1043151 1.0842499
-0.17784873 -0.10615446 1.0838183
-0.21057709 -0.098647788 1.082
-0.19340548 -0.096078746 1.0867692
-0.18598145 -0.094499551 1.087
-0.45315686 -0.083911896 1.0836667
-0.44973001 -0.080477998 1.08
-0.2054556 -0.086158797 1.08
-0.1896344 -0.088623106 1.087
-0.45219415 -0.076067612 1.0865715
-0.44575128 -0.073759302 1.0824546
-0.20232195 -0.07409893 1.0835
-0.44464344 -0.065768212 1.0855556
-0.43793568 -0.063102469 1.0807999
-0.44120967 -0.058129136 1.087
-0.43443668 -0.055227835 1.0824666
-0.42890039 -0.052074 1.08
-0.45257038 -0.040712401 1.08
-0.44120878 -0.0454464 1.08
-0.4364748 -0.048286799 1.08
-0.46026841 -0.035258658 1.087
-0.45494998 -0.035342954 1.0851538
-0.44925663 -0.035505001 1.08
-0.4447659 -0.026258359 1.0825
-0.19210501 -0.022566101 1.0816
-0.18882465 -0.020626798 1.086
-0.44026199 -0.017042398 1.08
-0.43658105 -0.013268175 1.0812
-0.2016684 -0.0104148 1.08
-0.19509768 -0.014942636 1.0834999
-0.1889991 -0.017470507 1.087
-0.43269095 -0.0070296391 1.0838001
-0.42608237 -0.003599856 1.0815001
-0.21057709 -0.00094855332 1.082
-0.20381808 -0.0038933642 1.0838999
-0.19692457 -0.0070888242 1.0863334
-0.42414835 0.0028564304 1.0851429
-0.41721189 0.0064269407 1.0813334
-0.22142759 0.0058327136 1.0827143
-0.21560588 0.0035944795 1.0844998
-0.20678724 0.00095293665 1.087
-0.42024508 0.010482303 1.087
-0.41434953 0.013679776 1.0846155
-0.40531597 0.016128914 1.082
-0.39734039 0.0186204 1.08
-0.23133481 0.0192516 1.08
-0.22517052 0.014524991 1.0837618
-0.40354252 0.023495689 1.0865
-0.39501363 0.026125954 1.0822666
-0.38850358 0.028719602 1.08
-0.24143399 0.0274572 1.08
-0.23532975 0.025773147 1.0831723
-0.2282815 0.022225106 1.0864999
-0.39197519 0.031244399 1.08
-0.38534757 0.035614248 1.08
-0.37871999 0.038818799 1.08
-0.24099734 0.035106726 1.0822999
-0.2377577 0.03192338 1.087
-0.38156039 0.040712401 1.08
-0.37478647 0.042507496 1.0818181
-0.36830521 0.044499598 1.08
-0.2432756 0.044975542 1.0822999
-0.3635208 0.050435945 1.0855
-0.35603333 0.054120433 1.0829999
-0.34877482 0.058129136 1.087
-0.27206472 0.059722036 1.0813333
-0.26425961 0.056873571 1.0811999
-0.25474343 0.055623144 1.0826499
-0.24719995 0.053313937 1.0834999
-0.32251909 0.067486241 1.0841666
-0.31717798 0.0684852 1.08
-0.27473611 0.065884992 1.0828999
-0.26557475 0.062825441 1.0857999
-0.25824583 0.060035009 1.087
-0.31419477 0.074538313 1.0848124
-0.30581453 0.076656535 1.0815384
-0.2954016 0.078584403 1.08
-0.2830489 0.077509761 1.0818181
-0.27794322 0.073387429 1.0843
-0.31224558 0.081634901 1.087
-0.30472934 0.082849592 1.0862499
-0.2950241 0.082445227 1.0847691
-0.28584564 0.081535548 1.0856667
-0.33362031 -0.24324337 1.0967
-0.32659444 -0.24273391 1.097
-0.35069296 -0.23029156 1.09
-0.34490499 -0.23289403 1.0937647
-0.33545157 -0.23550563 1.0953044
-0.32571697 -0.23531896 1.0926191
-0.31536192 -0.2369549 1.0934
-0.30291462 -0.23443234 1.09
-0.29909235 -0.23411383 1.09
-0.35145742 -0.22685151 1.09
-0.34416491 -0.22612181 1.0909525
-0.33602458 -0.22578339 1.0916001
-0.32871491 -0.22838043 1.09
-0.17407966 -0.15672038 1.0930556
-0.16507423 -0.15625224 1.0935
-0.15574257 -0.15519316 1.0947144
-0.4500719 -0.1404683 1.09
-0.44624963 -0.14429057 1.09
-0.4500719 -0.13855717 1.09
-0.44518793 -0.13367316 1.09
-0.451983 -0.12326811 1.09
-0.44491282 -0.12502494 1.0904211
-0.45172355 -0.11892509 1.0940001
-0.44475606 -0.11794822 1.0924615
-0.20544681 -0.10105118 1.09
-0.21003705 -0.093989186 1.0940001
-0.20529552 -0.09472952 1.09328
-0.19730468 -0.093650155 1.091091
-0.18251324 -0.090778835 1.09
-0.20377865 -0.085636139 1.0952381
-0.19488087 -0.086011834 1.0950501
-0.18557097 -0.085321106 1.0947274
-0.46351764 -0.074774131 1.0967693
-0.45647582 -0.074259281 1.0916001
-0.20330812 -0.078110375 1.0961429
-0.4606559 -0.067319229 1.097
-0.45424727 -0.064932756 1.092889
-0.44720519 -0.061156265 1.09
-0.45180821 -0.05558645 1.097
-0.44533971 -0.054447457 1.0936842
-0.4386051 -0.052556165 1.09
-0.45392397 -0.04616176 1.097
-0.44542789 -0.048853129 1.0926667
-0.4615387 -0.032489266 1.09
-0.45771644 -0.031533699 1.09
-0.46290848 -0.028810335 1.0955
-0.45599064 -0.028899943 1.0937145
-0.19081002 -0.011954227 1.0910001
-0.18730509 -0.012682638 1.0944445
-0.44021466 -0.0067135133 1.0940001
-0.4351356 -0.0036888884 1.0915716
-0.19474062 -0.0041489229 1.0925001
-0.18881442 -0.0080141947 1.097
-0.43274108 0.0023994367 1.0945001
-0.42732593 0.0067075021 1.0925715
-0.21354808 0.0071899821 1.0931667
-0.20530513 0.0044172164 1.0943501
-0.19843145 0.0016028389 1.097
-0.42384684 0.012466053 1.0938333
-0.41662705 0.018155767 1.09
-0.22180796 0.014866403 1.094125
-0.21594706 0.011422869 1.0958889
-0.41320181 0.022859709 1.0928572
-0.40632814 0.025800301 1.09
-0.23103103 0.028762117 1.0935
-0.22717567 0.023940891 1.0922501
-0.24072741 0.037403859 1.0940001
-0.23676249 0.03519278 1.0934286
-0.38222665 0.043000501 1.09
-0.37428373 0.048250683 1.0964
-0.36924323 0.048912741 1.0940001
-0.2425178 0.045873962 1.0934286
-0.23946413 0.045200057 1.097
-0.37274498 0.05171176 1.0964
-0.36497298 0.054527611 1.095
-0.35729602 0.057795126 1.0926667
-0.24409924 0.054185987 1.092889
-0.23946413 0.050970275 1.097
-0.35290316 0.062179882 1.0953751
-0.34568894 0.063321635 1.0943334
-0.33606121 0.066252552 1.09525
-0.32807788 0.067845233 1.09
-0.27138093 0.066889666 1.09
-0.26445904 0.06635578 1.0916667
-0.25634995 0.063447692 1.0938947
-0.33363846 0.072248809 1.0961819
-0.32523459 0.075842142 1.0937728
-0.3177259 0.077878684 1.09
-0.27504641 0.074682258 1.0922501
-0.26472712 0.071008794 1.0959091
-0.2586982 0.07020434 1.097
-0.32217062 0.081744783 1.097
-0.3146539 0.084962472 1.0933636
-0.30459115 0.088124111 1.0926001
-0.29452279 0.087658845 1.0932307
-0.28470445 0.086529121 1.0934738
-0.27839252 0.084689505 1.0956668
-0.2923578 0.091361813 1.097
-0.28623691 0.091696523 1.0964
-0.32538286 -0.24685574 1.1042498
-0.31742463 -0.24209385 1.1016666
-0.34264955 -0.23840687 1.1010001
-0.17387195 -0.15260124 1.1027143
-0.16550003 -0.15151276 1.1029999
-0.15551849 -0.15100542 1.1029998
-0.14960755 -0.15153797 1.1010001
-0.16221489 -0.14861605 1.108
-0.15638681 -0.14861605 1.108
-0.19574457 -0.080884606 1.101
-0.18407933 -0.080663979 1.101
-0.47176501 -0.076528616 1.105
-0.46681356 -0.074780926 1.1014445
-0.20263696 -0.07317736 1.1049999
-0.19517444 -0.074812859 1.105185
-0.18529131 -0.074929811 1.1050868
-0.17921259 -0.07846605 1.105
-0.46508613 -0.064357556 1.1023332
-0.45847476 -0.06080823 1.1010001
-0.20430659 -0.063785098 1.108
-0.4634653 -0.055042807 1.1056314
-0.45626974 -0.054688744 1.1021999
-0.20463037 -0.057309452 1.1079999
-0.46294335 -0.048426408 1.10475
-0.45571703 -0.048122615 1.101
-0.46423444 -0.02691805 1.1046
-0.45687008 -0.023039678 1.1046001
-0.18628553 -0.01061731 1.1010001
-0.44466132 -0.0043664575 1.10625
-0.43917054 -0.00096520997 1.1010001
-0.19154845 -0.002252741 1.1016668
-0.18643878 -0.0043173498 1.1041999
-0.44196272 0.00097134669 1.108
-0.43706566 0.0038696066 1.103
-0.2026155 0.0077321995 1.1023334
-0.1956629 0.0044750078 1.1046665
-0.18941259 0.00097134669 1.108
-0.43263006 0.011957441 1.1056668
-0.22214501 0.017734382 1.1033334
-0.21430583 0.015960023 1.1031498
-0.20600283 0.012940012 1.1050587
-0.19912606 0.010684813 1.108
-0.41986635 0.020269411 1.1010001
-0.23020916 0.028169053 1.108
-0.22501199 0.02198563 1.1063333
-0.21855299 0.02039828 1.108
-0.23494062 0.035349753 1.1061817
-0.39074612 0.045572639 1.1060001
-0.38592157 0.04767935 1.1058182
-0.24130249 0.046330079 1.101
-0.23927426 0.044050746 1.1068
-0.38451451 0.052313954 1.1079999
-0.37573135 0.056759022 1.1047999
-0.36697286 0.05810564 1.1010001
-0.24369189 0.056549311 1.1047692
-0.37328491 0.063120961 1.1076999
-0.36470643 0.064870551 1.1057825
-0.35546717 0.066742383 1.1033334
-0.34513149 0.067426808 1.101
-0.25385702 0.066391185 1.104923
-0.24697652 0.062959321 1.1072856
-0.36231232 0.070908308 1.108
-0.35346544 0.072376631 1.1073333
-0.34480062 0.07442683 1.105238
-0.33692208 0.0763226 1.102
-0.27316388 0.076558247 1.1025999
-0.26482835 0.076327398 1.1037056
-0.25715226 0.072780214 1.1069165
-0.34094268 0.080621772 1.108
-0.33391708 0.082024217 1.10725
-0.32541358 0.084892899 1.1054
-0.31562367 0.08879932 1.1010001
-0.2747604 0.084331267 1.1045237
-0.26614898 0.081269339 1.1079999
-0.31428894 0.092154324 1.1065
-0.3046096 0.093518041 1.1045713
-0.29466924 0.095046267 1.1046427
-0.28441676 0.095570594 1.1050588
-0.27662894 0.092858151 1.1059998
-0.17642304 -0.15191756 1.118
-0.16971126 -0.15009147 1.1190001
-0.1635198 -0.14787437 1.11525
-0.15407637 -0.14560339 1.1147221
-0.14748076 -0.1443502 1.1156
-0.18229757 -0.071164295 1.1120001
-0.20339721 -0.065411896 1.1136667
-0.19497697 -0.065965228 1.1148332
-0.18557306 -0.066959128 1.1165295
-0.17952117 -0.067688309 1.1190001
-0.20273888 -0.055899993 1.1154166
-0.1982497 -0.059115093 1.1176667
-0.47227374 -0.022533549 1.1176667
-0.46493825 -0.022463851 1.1141669
-0.47185618 -0.01863881 1.1190001
-0.4641282 -0.016847078 1.1173999
-0.45636231 -0.015098732 1.1157779
-0.45235154 -0.0052249334 1.1176666
-0.44866484 -0.0019549667 1.115
-0.45027441 0.00098099001 1.1190001
-0.44481868 0.0051423074 1.117
-0.43875265 0.0074817655 1.113
-0.192001 0.006831279 1.113
-0.18563333 0.004504445 1.1156499
-0.44171777 0.012352759 1.1182001
-0.43583393 0.015686722 1.1182001
-0.20349288 0.016752899 1.1139232
-0.19583742 0.013084305 1.1155627
-0.18835008 0.01079089 1.1190001
-0.2250229 0.025076991 1.1144001
-0.2151397 0.021712314 1.1155002
-0.20687813 0.020884829 1.1166667
-0.40570712 0.037768029 1.1162001
-0.23260517 0.036134005 1.1139001
-0.22864039 0.032537676 1.1172223
-0.40262628 0.044705112 1.1190001
-0.39643365 0.045936719 1.1149
-0.24078877 0.049717519 1.1120001
-0.23527068 0.043575861 1.1150527
-0.39378029 0.054762155 1.1176667
-0.38637531 0.056721531 1.1137275
-0.24070263 0.054980807 1.115
-0.238932 0.054830238 1.1170001
-0.38323087 0.064394407 1.1163
-0.37605476 0.06736394 1.1136
-0.25151217 0.06921459 1.1120001
-0.24383515 0.06668929 1.1125627
-0.23916124 0.062476084 1.1135001
-0.37331185 0.072180934 1.1176667
-0.36534521 0.074610345 1.1155715
-0.35619596 0.076603368 1.1137275
-0.34997234 0.078963116 1.1120001
-0.26028582 0.078963116 1.1120001
-0.25353426 0.076263502 1.113
-0.24629046 0.074241653 1.1151177
-0.35217538 0.082076162 1.1190001
-0.34438255 0.083358727 1.1160002
-0.33545759 0.086009473 1.1134447
-0.32750514 0.088343896 1.1135001
-0.27152681 0.086363614 1.1131251
-0.26444966 0.085652016 1.1148422
-0.25659356 0.082741946 1.1175456
-0.33157462 0.091232069 1.1190001
-0.32312882 0.092641316 1.11525
-0.31544396 0.096331149 1.1140001
-0.30608377 0.097941078 1.1124285
-0.29830509 0.098460183 1.1120001
-0.27354687 0.095469564 1.1132354
-0.26800978 0.091951646 1.1182001
-0.3139168 0.10300396 1.1190002
-0.30470464 0.10263082 1.1162499
-0.29504165 0.10259097 1.1162502
-0.28452572 0.10303533 1.1153127
-0.27675974 0.10274479 1.116154
-0.18064418 -0.15103038 1.126
-0.17535941 -0.15072858 1.1237501
-0.17268217 -0.14787124 1.1255715
-0.16463092 -0.1443495 1.1245002
-0.15584952 -0.14181453 1.1233751
-0.14570552 -0.14078303 1.123
-0.15413728 -0.13835181 1.1252501
-0.14675282 -0.13852678 1.126
-0.19253942 -0.060898151 1.123
-0.1833778 -0.062309314 1.1234001
-0.20110427 -0.052246701 1.1245
-0.19535336 -0.055989545 1.1251177
-0.1850314 -0.057363026 1.126
-0.47220379 -0.015771672 1.1245
-0.46623239 -0.012812564 1.1243638
-0.45877546 -0.012798456 1.123
-0.46406135 -0.0070833866 1.1251819
-0.45790884 -0.0051725525 1.1245
-0.45229021 0.0046509677 1.1247143
-0.44794598 0.0078759734 1.123
-0.1823734 0.0072288476 1.1245
-0.45111689 0.012832646 1.126
-0.44598201 0.015441534 1.1242501
-0.43613204 0.018705437 1.123
-0.19403951 0.016595593 1.1245002
-0.18552321 0.012602475 1.125
-0.44105452 0.02067443 1.123
-0.43828422 0.020729659 1.126
-0.22446525 0.027565908 1.123
-0.2040617 0.02292111 1.1245
-0.19913265 0.020702045 1.1245
-0.4215031 0.032575179 1.126
-0.41557437 0.03448876 1.1240715
-0.23000051 0.03849794 1.126
-0.22840323 0.035441879 1.123
-0.41305599 0.041404527 1.1245
-0.40783602 0.045437437 1.1240001
-0.2337693 0.046319209 1.1242001
-0.40327698 0.053164765 1.1253333
-0.39854041 0.055753548 1.1236001
-0.23537646 0.052141141 1.1257502
-0.39384365 0.061476544 1.125
-0.38708031 0.067632347 1.1235001
-0.38358408 0.071983449 1.1248
-0.37467507 0.075331971 1.1242858
-0.36450768 0.079797484 1.1237501
-0.24513669 0.077503994 1.1248
-0.36326993 0.082516827 1.125
-0.35505584 0.085110165 1.1245002
-0.34541193 0.088190138 1.1246667
-0.33768237 0.089589193 1.123
-0.26154795 0.088932864 1.123
-0.25514048 0.086645164 1.1249287
-0.24858958 0.082864061 1.12525
-0.34055871 0.091802776 1.126
-0.33484825 0.093323946 1.1245
-0.3259587 0.096733652 1.1242857
-0.31996143 0.09943416 1.123
-0.27159044 0.09808892 1.1245
-0.26591343 0.095007665 1.1243848
-0.25862718 0.091802776 1.126
-0.32158828 0.1045677 1.1252501
-0.31531772 0.10707927 1.1240002
-0.30428413 0.10778251 1.1244999
-0.29400596 0.10744187 1.1243638
-0.28558281 0.10879997 1.1238571
-0.27447587 0.10604478 1.1245002
-0.26948559 0.10167404 1.126
-0.28330532 0.1115453 1.126
-0.27738258 0.1115453 1.126
-0.18167093 -0.14592819 1.1324
-0.17617354 -0.14439052 1.1327999
-0.16832948 -0.14175946 1.1308
-0.14216202 -0.14017373 1.1340001
-0.17259288 -0.13867289 1.138
-0.16373523 -0.13589367 1.1340001
-0.15486716 -0.13355428 1.1330911
-0.1445798 -0.13385703 1.1340001
-0.1386238 -0.1353946 1.1315
-0.16062111 -0.12869641 1.138
-0.15663053 -0.12869641 1.138
-0.14266348 -0.12803133 1.138
-0.13800779 -0.12736623 1.138
-0.19456039 -0.05171106 1.13
-0.18629311 -0.052518476 1.1303333
-0.17930463 -0.054484833 1.13
-0.20099074 -0.045764633 1.135
-0.19532749 -0.045933548 1.1352632
-0.18692398 -0.046978965 1.1358181
-0.47319254 -0.011557389 1.13
-0.4731811 -0.0044292705 1.1318666
-0.46522924 -0.0023118674 1.1304445
-0.47171944 0.0014912102 1.1340001
-0.4645029 0.004109594 1.1355
-0.4569129 0.0058067893 1.1305715
-0.1812859 0.0089157 1.13
-0.1788394 0.0069560581 1.1333333
-0.4619104 0.01197176 1.138
-0.45690203 0.011920037 1.133
-0.4487569 0.018822033 1.13
-0.43488804 0.018822033 1.13
-0.19119224 0.0178314 1.13
-0.18449317 0.01602941 1.13375
-0.17882305 0.011613496 1.1353334
-0.44248039 0.02638372 1.1355
-0.43490976 0.024903117 1.1316
-0.42696294 0.027737731 1.13
-0.22254236 0.027696906 1.1340001
-0.21518293 0.025941201 1.1340001
-0.20452106 0.025938559 1.1317142
-0.19604522 0.023594605 1.1330001
-0.18833196 0.020926034 1.1366667
-0.44195747 0.031924695 1.138
-0.43448478 0.034179483 1.1355557
-0.42515406 0.034935553 1.1313332
-0.23045638 0.038908221 1.138
-0.22691564 0.032821149 1.1345714
-0.43221593 0.041829273 1.136
-0.42436823 0.043851454 1.1350666
-0.4157958 0.045659196 1.13
-0.23066278 0.044994794 1.1334287
-0.22964634 0.048712861 1.1340001
-0.42100692 0.050879981 1.138
-0.41311163 0.053839996 1.134889
-0.40735516 0.055080466 1.1305715
-0.24057837 0.058654256 1.1340001
-0.23495065 0.055693362 1.1325456
-0.2288363 0.051512934 1.13
-0.40224448 0.063111819 1.1366667
-0.3958641 0.066202365 1.1326667
-0.24299973 0.064740077 1.136
-0.39314935 0.071329691 1.1353334
-0.38380042 0.076988116 1.1362858
-0.3774313 0.077269405 1.13
-0.24368502 0.075732231 1.1345714
-0.37324318 0.081282787 1.1353334
-0.36456183 0.085763521 1.1331111
-0.35761863 0.088166364 1.13
-0.25158638 0.087609969 1.1313334
-0.24588899 0.084452577 1.135
-0.36015046 0.090785846 1.138
-0.35396898 0.092674769 1.1366667
-0.34491006 0.093490265 1.1331111
-0.33436477 0.097758263 1.1339999
-0.32988089 0.096091434 1.13
-0.26226652 0.096686006 1.1317779
-0.25552267 0.093678415 1.1352502
-0.33321398 0.10175996 1.138
-0.32555544 0.10567515 1.1308
-0.3150214 0.1099603 1.13
-0.30412441 0.1099603 1.13
-0.29818064 0.1099603 1.13
-0.27173921 0.10757226 1.1326667
-0.26578188 0.1034242 1.135905
-0.31631359 0.11240386 1.1346667
-0.30474156 0.11353359 1.136
-0.29419267 0.11409903 1.1350001
-0.28547892 0.11379426 1.1320001
-0.2738252 0.11262536 1.1350909
-0.17804924 -0.14103901 1.141
-0.17264776 -0.13443717 1.1409999
-0.1677871 -0.13288325 1.142143
-0.17137517 -0.12844656 1.1476668
-0.16479194 -0.12801349 1.1462001
-0.15469611 -0.12490981 1.1450001
-0.14544897 -0.12446941 1.1419526
-0.13517071 -0.12316739 1.1409999
-0.1510935 -0.11886021 1.149
-0.1442937 -0.11715548 1.1464288
-0.1351883 -0.11546355 1.143667
-0.12912616 -0.11510966 1.1418002
-0.1333829 -0.10883729 1.1474001
-0.12863389 -0.1065226 1.1463333
-0.19405366 -0.041011345 1.141
-0.18585303 -0.041980345 1.1432223
-0.19328016 -0.037582211 1.145
-0.18646465 -0.038902964 1.1476667
-0.17344996 0.0070159636 1.1436667
-0.18105008 0.019005256 1.141
-0.17479314 0.015654461 1.1446002
-0.21364944 0.02908938 1.1442
-0.20433891 0.029191071 1.1482
-0.19373019 0.027965542 1.1450001
-0.18514878 0.024378601 1.1445296
-0.17711209 0.021511821 1.1466
-0.22358879 0.036517005 1.1450001
-0.21689713 0.032829415 1.1463335
-0.43087113 0.046095133 1.1430001
-0.42860848 0.047184829 1.145
-0.22736998 0.044027429 1.1466001
-0.4220545 0.054393657 1.149
-0.41601077 0.059430111 1.149
-0.23360682 0.059154253 1.1436667
-0.41054738 0.061230782 1.1450001
-0.40709552 0.065416873 1.148
-0.24151203 0.066782713 1.1455001
-0.23823009 0.062572666 1.145
-0.39451492 0.075480998 1.1480001
-0.24095856 0.073521942 1.1436667
-0.23926739 0.076538078 1.1458
-0.38277021 0.081590489 1.149
-0.37528315 0.086191811 1.1476668
-0.36838847 0.089336716 1.1450001
-0.2418669 0.087424181 1.141
-0.23906665 0.085383303 1.1458002
-0.36441696 0.093303852 1.1475002
-0.35461867 0.098208576 1.1470001
-0.34600106 0.098286599 1.1440002
-0.25255451 0.098132186 1.1438571
-0.24472189 0.095055744 1.1440771
-0.23831218 0.092511125 1.1470001
-0.34268507 0.10215139 1.1480001
-0.33565405 0.10485196 1.1463333
-0.26245558 0.10790627 1.1418
-0.25618276 0.1049519 1.1450001
-0.24678604 0.10375087 1.149
-0.31384227 0.1169525 1.1445556
-0.30461535 0.1182413 1.143
-0.29541504 0.11836606 1.1409999
-0.28497452 0.11860757 1.1446
-0.27412343 0.11801102 1.1440002
-0.26599935 0.11389403 1.1450001
-0.31125259 0.12188209 1.149
-0.30520886 0.12263756 1.149
-0.29513597 0.1218821 1.149
-0.28170541 0.12255362 1.149
-0.27585357 0.12245768 1.149
-0.17112094 -0.12555444 1.155
-0.16475576 -0.12424033 1.1553332
-0.156857 -0.12042391 1.1543332
-0.15416665 -0.11634025 1.1556667
-0.14586715 -0.11237646 1.1548461
-0.13847914 -0.11017684 1.153
-0.14342248 -0.10812473 1.1570001
-0.13483839 -0.10391126 1.1555262
-0.12837118 -0.10107967 1.153
-0.13185942 -0.097373113 1.1570001
-0.12881652 -0.096358813 1.1570001
-0.19211571 -0.032995455 1.1546
-0.18486059 -0.034518834 1.1547998
-0.1784398 -0.034470093 1.1565001
-0.19170333 -0.029414797 1.1570001
-0.18561752 -0.029414797 1.1570001
-0.17126909 0.0060779303 1.156
-0.16938865 0.0071001234 1.1570001
-0.17129874 0.015206834 1.1562001
-0.16938865 0.015214549 1.1570001
-0.19104058 0.029313102 1.153
-0.18428972 0.02818596 1.154143
-0.17676668 0.024820186 1.1554999
-0.22010382 0.039557829 1.1570001
-0.21534604 0.035685107 1.1556666
-0.20590357 0.031443402 1.1570001
-0.19880345 0.031443402 1.1570001
-0.43310753 0.049700864 1.1570001
-0.22420575 0.045276452 1.1549999
-0.43107891 0.05172947 1.1570001
-0.42310432 0.056754526 1.156
-0.23085964 0.054675944 1.155
-0.22862911 0.052346062 1.1556667
-0.41550407 0.063340485 1.156
-0.40735105 0.069071107 1.153
-0.23794837 0.0663229 1.155
-0.40221205 0.073961146 1.1556667
-0.39659259 0.078101359 1.1570001
-0.23896004 0.074926943 1.155
-0.3915211 0.081144273 1.1570001
-0.3843137 0.085105628 1.1556667
-0.37753254 0.08844471 1.153
-0.23794925 0.085051276 1.1550001
-0.37295032 0.093795434 1.1554
-0.36624536 0.096025683 1.153
-0.24098514 0.098217353 1.155
-0.23754422 0.094968639 1.1554999
-0.36278248 0.10109223 1.1570001
-0.35550299 0.10222504 1.1545
-0.34513006 0.10526092 1.1545
-0.33760607 0.10815524 1.153
-0.25269917 0.10579672 1.153
-0.24563134 0.10452521 1.1540525
-0.33616835 0.11036795 1.155
-0.3230052 0.1174558 1.155
-0.26404253 0.11669086 1.153
-0.25604129 0.11357771 1.1552855
-0.24688141 0.1113705 1.1570001
-0.32153416 0.1207021 1.1570001
-0.3152571 0.1240948 1.1551538
-0.30413729 0.12608507 1.1558571
-0.29389256 0.125522 1.1546665
-0.28565407 0.12612124 1.1551538
-0.27541184 0.12616512 1.155
-0.26583701 0.12272534 1.1557498
-0.28096202 0.13084513 1.1570001
-0.17200989 -0.12315501 1.161
-0.16712441 -0.12193364 1.161
-0.16448158 -0.1155784 1.164579
-0.15638995 -0.11301514 1.1614001
-0.16192208 -0.1096561 1.169
-0.15435719 -0.10639665 1.1670001
-0.14551505 -0.10426057 1.1626472
-0.13943997 -0.101781 1.161
-0.14392011 -0.095651098 1.1678571
-0.13587125 -0.09431304 1.1618
-0.12926187 -0.092620708 1.161
-0.14142561 -0.08915963 1.169
-0.13453458 -0.086063355 1.1670001
-0.19033048 -0.02748087 1.161
-0.18518318 -0.025651792 1.1644667
-0.17873041 -0.029618183 1.1650001
-0.16741031 0.0062409895 1.1636667
-0.16691646 0.014858893 1.165923
-0.18117018 0.02951649 1.161
-0.17365195 0.02599863 1.1646923
-0.16902614 0.02298313 1.1650001
-0.21281409 0.037743449 1.1635455
-0.20521212 0.034962501 1.1635455
-0.1943951 0.032760158 1.1636668
-0.18516964 0.032545276 1.1641113
-0.17801243 0.03171517 1.1670001
-0.22223833 0.047055788 1.1618
-0.21712223 0.04440067 1.1653078
-0.4353888 0.053943269 1.1665
-0.42831159 0.057403255 1.1623334
-0.23161007 0.056365281 1.169
-0.2241749 0.052939996 1.1649998
-0.21915118 0.050782669 1.1663333
-0.42559889 0.06240727 1.1670001
-0.41784018 0.066749923 1.1642001
-0.23644437 0.066447705 1.1661431
-0.41308415 0.072598808 1.1663334
-0.40625086 0.076216817 1.1643333
-0.39999932 0.078371368 1.161
-0.2360734 0.074778572 1.1645
-0.40275559 0.081644259 1.169
-0.39493528 0.085244432 1.1650001
-0.38778561 0.087022759 1.161
-0.23602796 0.084807158 1.1655333
-0.3930586 0.091966711 1.1682001
-0.38412043 0.094351143 1.1655334
-0.37637886 0.096903674 1.1635001
-0.36844721 0.098727569 1.161
-0.23615859 0.094842687 1.1632859
-0.3822591 0.10145751 1.169
-0.37467003 0.10269514 1.1685001
-0.36593252 0.10591123 1.1664286
-0.35505965 0.10703246 1.1654999
-0.3470732 0.10822713 1.161
-0.24197344 0.1063756 1.163
-0.23764436 0.10266049 1.1645557
-0.3515144 0.11170574 1.169
-0.34516522 0.11263209 1.1667777
-0.33507943 0.11598663 1.1678572
-0.32845163 0.11854199 1.1623334
-0.25349721 0.11808964 1.1623334
-0.24772292 0.11677366 1.165
-0.33101794 0.12195398 1.169
-0.32459459 0.12350976 1.1643335
-0.31967211 0.12970722 1.1650001
-0.30516678 0.12961814 1.1642001
-0.29618272 0.12926187 1.161
-0.28804022 0.12926187 1.161
-0.2748087 0.12926187 1.161
-0.26479277 0.12678888 1.1632223
-0.25610384 0.12311059 1.1669999
-0.24903207 0.12195398 1.169
-0.31462076 0.13015257 1.169
-0.30293584 0.1329316 1.1682001
-0.29464239 0.13300087 1.1670001
-0.28699172 0.13226226 1.1650001
-0.27482966 0.13282543 1.1646364
-0.26747888 0.13261214 1.169
-0.16658945 -0.11105964 1.1730001
-0.16367586 -0.10523244 1.1730002
-0.15708411 -0.10190672 1.1742002
-0.16144781 -0.099748008 1.1730001
-0.15466017 -0.095886014 1.1761112
-0.1483717 -0.09425582 1.174143
-0.15374367 -0.087706111 1.177
-0.14515652 -0.086083606 1.1752224
-0.13471124 -0.081825681 1.1730002
-0.12897958 -0.082546934 1.177
-0.14136162 -0.079451419 1.177
-0.13465406 -0.075502984 1.1756089
-0.12774138 -0.07697501 1.177
-0.13333623 -0.06752798 1.177
-0.18239972 -0.023186956 1.1755002
-0.17871858 -0.025232658 1.1750001
-0.18459181 -0.019249847 1.1763334
-0.17850775 -0.019604897 1.177
-0.16609327 0.0058307103 1.1743335
-0.16303675 0.015944667 1.1733335
-0.15928288 0.015982073 1.1760001
-0.17305049 0.029872417 1.1750001
-0.16569401 0.024428945 1.1750002
-0.20326726 0.037688777 1.1746
-0.19461808 0.036040641 1.1746
-0.18414676 0.035730597 1.1756668
-0.17526057 0.032990724 1.1760001
-0.21293311 0.045471091 1.1743335
-0.2081819 0.042285766 1.1764287
-0.44115356 0.054501489 1.1730001
-0.43806857 0.056558151 1.1730001
-0.23343091 0.058614809 1.1730001
-0.22474724 0.057700738 1.1730002
-0.21664934 0.054512937 1.1758237
-0.43263325 0.063181363 1.1750001
-0.42581263 0.067299768 1.1738001
-0.23339669 0.06452404 1.1735717
-0.22614694 0.064615108 1.1750002
-0.21978121 0.060878363 1.177
-0.42305303 0.071196727 1.177
-0.41554895 0.076509677 1.1762002
-0.23248148 0.075092278 1.1734002
-0.22642286 0.075132087 1.1740001
-0.40362126 0.085976452 1.1745001
-0.23205319 0.085961953 1.1748464
-0.22659059 0.084742628 1.1759335
-0.40138447 0.091833465 1.177
-0.39520547 0.095823042 1.1752857
-0.38768041 0.0983769 1.1730001
-0.23314963 0.095162019 1.1746472
-0.2280359 0.091833465 1.177
-0.3910661 0.10008816 1.177
-0.38476744 0.1024243 1.1754
-0.37534046 0.10386133 1.1730001
-0.36300048 0.10797465 1.1730001
-0.23437944 0.10535049 1.1743336
-0.3910661 0.11247019 1.177
-0.36505714 0.11003131 1.1730001
-0.35574165 0.11300518 1.1745001
-0.34442511 0.11724979 1.1743335
-0.33729222 0.11825795 1.1730001
-0.2434677 0.11477373 1.1738001
-0.23588116 0.11424983 1.1758333
-0.34153792 0.12072489 1.177
-0.33477882 0.12335292 1.1750001
-0.32653993 0.12772858 1.1750001
-0.26222414 0.12854125 1.1730001
-0.25395912 0.12749606 1.173889
-0.24571653 0.12337355 1.1755714
-0.23766637 0.12141278 1.177
-0.31386682 0.13334012 1.1754001
-0.30494937 0.13698243 1.1748184
-0.2951194 0.13789235 1.174778
-0.28469336 0.13565929 1.1735716
-0.27454364 0.13801569 1.173889
-0.26546758 0.13488749 1.1755883
-0.25692734 0.13104326 1.177
-0.27399868 0.14112142 1.1750001
-0.26724568 0.14136162 1.177
-0.16074999 -0.093336947 1.1830001
-0.15788986 -0.091627881 1.1810001
-0.15370712 -0.084786013 1.1828462
-0.14598341 -0.081792124 1.1810001
-0.15114172 -0.078176752 1.189
-0.14519349 -0.076439895 1.1858001
-0.13977134 -0.072474033 1.1810001
-0.12941791 -0.074889839 1.1810001
-0.14143351 -0.066030435 1.1872222
-0.13503224 -0.063104667 1.1833335
-0.12876174 -0.065413795 1.1845
-0.13416576 -0.057915051 1.1882001
-0.12820987 -0.059414331 1.189
-0.17807905 -0.023812898 1.1810001
-0.18266416 -0.015530149 1.1810001
-0.17862637 -0.017618371 1.1823335
-0.16047822 0.019671524 1.1810001
-0.16213045 0.025581134 1.1830002
-0.15921232 0.022895027 1.187
-0.19581243 0.038333654 1.1818001
-0.18557754 0.038359601 1.1826001
-0.17499566 0.03687245 1.1846666
-0.16730362 0.032595184 1.1853637
-0.4575946 0.048990767 1.189
-0.44925573 0.048990764 1.189
-0.21017469 0.048661135 1.1810001
-0.20461373 0.044895146 1.1853999
-0.19550395 0.040976569 1.1883334
-0.18588693 0.04065191 1.189
-0.45550984 0.051075477 1.189
-0.44545576 0.056215744 1.1844286
-0.21184695 0.055424184 1.1816666
-0.20724101 0.055196278 1.1879333
-0.44319972 0.062124982 1.1876668
-0.43612951 0.066836946 1.1832857
-0.42966747 0.069368005 1.1810001
-0.22141555 0.066705696 1.1810001
-0.21552959 0.065155581 1.1862173
-0.20708151 0.062541395 1.189
-0.43221423 0.074988313 1.1880001
-0.42451823 0.076056093 1.1830001
-0.41771445 0.07912121 1.1823335
-0.22163816 0.07560496 1.1814001
-0.21859966 0.075483434 1.1867777
-0.42505768 0.082889549 1.1886364
-0.41406104 0.084931396 1.1853638
-0.40688992 0.086968839 1.1810001
-0.22224055 0.085371062 1.1827779
-0.21796215 0.084647603 1.1862001
-0.41034573 0.090379946 1.1850001
-0.40531147 0.095076174 1.1846365
-0.39860719 0.098357618 1.1810001
-0.23088156 0.098357618 1.1810001
-0.22474752 0.094923399 1.1839089
-0.2192311 0.092172295 1.1880001
-0.40234965 0.10319331 1.189
-0.39507687 0.10437867 1.184294
-0.3852984 0.10765078 1.1855714
-0.37853855 0.10785981 1.1830001
-0.23068629 0.10561708 1.1840001
-0.22674599 0.10471389 1.1884999
-0.39580184 0.11115695 1.1850001
-0.37354854 0.11410429 1.1878573
-0.36467612 0.11469854 1.1840001
-0.35578117 0.1187103 1.1843334
-0.23079477 0.11435795 1.1823335
-0.22719018 0.11546282 1.1878234
-0.35289127 0.12487528 1.1884286
-0.34523046 0.12508248 1.18525
-0.33469555 0.12745681 1.1820002
-0.32820383 0.12941791 1.1810001
-0.24424243 0.12716806 1.1828183
-0.23406744 0.12504694 1.1849999
-0.22871268 0.12251387 1.1876668
-0.34189299 0.13029458 1.189
-0.33529139 0.13133694 1.189
-0.32413611 0.13416478 1.1863333
-0.31668666 0.13619129 1.1832858
-0.30956766 0.13977134 1.1810001
-0.29093146 0.13977134 1.1810001
-0.28575477 0.13873601 1.1810001
-0.26202425 0.13730791 1.1827143
-0.25474557 0.13551648 1.1849999
-0.24592417 0.13181706 1.1881112
-0.23557261 0.13029458 1.189
-0.31244311 0.14424805 1.1880001
-0.30502045 0.14423372 1.1862308
-0.29522115 0.1439732 1.1866001
-0.28509516 0.14346939 1.1865386
-0.27479947 0.14639732 1.1856155
-0.26480806 0.14546363 1.1861111
-0.25668031 0.14176051 1.189
-0.15374191 -0.080531478 1.1930001
-0.15098216 -0.073391899 1.1960001
-0.14756563 -0.072211564 1.1938001
-0.15005991 -0.066110313 1.197
-0.14588845 -0.065615579 1.1943334
-0.14142825 -0.056567796 1.1950001
-0.1348957 -0.053837348 1.1941427
-0.12885684 -0.054472558 1.1950001
-0.13347018 -0.047866296 1.1956667
-0.1290725 -0.049320389 1.197
-0.12067755 -0.03672795 1.197
-0.17884263 -0.024054857 1.1930001
-0.18259038 -0.01154307 1.197
-0.16089317 0.027572626 1.1943334
-0.15727311 0.024115346 1.1960001
-0.17047572 0.038696945 1.1930001
-0.16468289 0.034569949 1.1949999
-0.45507678 0.048620809 1.197
-0.20114064 0.048190366 1.1950001
-0.19634528 0.044244271 1.1945001
-0.18549302 0.042129971 1.1954
-0.17614602 0.040891238 1.1960001
-0.16894858 0.040925428 1.197
-0.46343377 0.056270316 1.1960002
-0.45607442 0.053787567 1.1944546
-0.20219238 0.055783678 1.1941429
-0.46277216 0.061912831 1.197
-0.45017973 0.061912831 1.197
-0.21021853 0.067981116 1.1930001
-0.20512022 0.065637715 1.1942308
-0.1997599 0.061705936 1.1930001
-0.44030845 0.070072845 1.1930001
-0.43968603 0.07240653 1.197
-0.21349034 0.074583896 1.1946844
-0.43298739 0.080531478 1.1930001
-0.42415878 0.087553583 1.1936666
-0.41869393 0.088201143 1.1930001
-0.21398808 0.083989039 1.1946002
-0.42079738 0.09129519 1.197
-0.41436687 0.094526932 1.1954
-0.40893257 0.099357016 1.1930001
-0.22067717 0.098311156 1.1930001
-0.21713673 0.095099442 1.1944544
-0.40567312 0.10551808 1.1936666
-0.39429051 0.10939731 1.1930001
-0.22200824 0.10582235 1.193
-0.21826896 0.10493699 1.197
-0.39390096 0.11279339 1.1950001
-0.38385266 0.11337466 1.1958572
