# .PCD v0.7 - Point Cloud Data file format
VERSION 0.7
FIELDS x y z
SIZE 4 4 4
TYPE F F F
COUNT 1 1 1
WIDTH 1469
HEIGHT 1
VIEWPOINT 0 0 0 1 0 0 0
POINTS 1469
DATA ascii
-0.36350897 -0.17238905 1.0955001
-0.35675511 -0.17215893 1.0910001
-0.14366926 -0.17414877 1.0933001
-0.13761327 -0.17650788 1.0965385
-0.11405802 -0.17906916 1.097
-0.36307499 -0.16861913 1.0916001
-0.35833749 -0.1691353 1.09
-0.1503543 -0.16375747 1.0924
-0.14678061 -0.16553158 1.0951765
-0.15002397 -0.1576685 1.09
-0.1471976 -0.15550256 1.0926666
-0.38318223 -0.1404683 1.09
-0.38313529 -0.13509141 1.0928891
-0.37935996 -0.1347349 1.09
-0.38513979 -0.12573789 1.0948751
-0.3785955 -0.12288587 1.09
-0.38343468 -0.11491163 1.0947369
-0.37720975 -0.1147708 1.0918182
-0.3824099 -0.10665088 1.0960001
-0.37505424 -0.10565866 1.0939091
-0.36761847 -0.1031375 1.0904444
-0.37342143 -0.097915776 1.0950001
-0.36693758 -0.098423369 1.09
-0.39034283 -0.070971429 1.0940001
-0.38728851 -0.072100922 1.0908
-0.11389281 -0.072497487 1.09175
-0.1089346 -0.073578633 1.09
-0.39034283 -0.068094209 1.0940001
-0.38498932 -0.064400464 1.0916001
-0.37608376 -0.061019752 1.09
-0.12135696 -0.061156265 1.09
-0.11648506 -0.065091871 1.09384
-0.38391525 -0.055820111 1.0955
-0.37500659 -0.054128777 1.0924286
-0.36711496 -0.053746544 1.0903077
-0.12196586 -0.053483777 1.0916667
-0.11806086 -0.056282476 1.0949092
-0.37479624 -0.045720134 1.09565
-0.36511409 -0.046010777 1.090889
-0.12526174 -0.045189094 1.0938751
-0.37264618 -0.036120422 1.0936667
-0.36980429 -0.0372671 1.09
-0.13185111 -0.035114154 1.0925001
-0.12971158 -0.037470486 1.0960001
-0.37317595 -0.023174684 1.0926001
-0.36980429 -0.023889167 1.09
-0.14142387 -0.0200669 1.09
-0.13570337 -0.023622502 1.0936364
-0.37089691 -0.016348956 1.097
-0.36528006 -0.014025711 1.0930909
-0.14382225 -0.01400864 1.0928125
-0.13846 -0.015778748 1.0957143
-0.36206639 -0.0072022551 1.0955
-0.35487661 -0.003967355 1.0932143
-0.34687069 -0.0015926111 1.09
-0.15002397 -0.0086000999 1.09
-0.148287 -0.0080063045 1.0960001
-0.35198343 0.00096170331 1.097
-0.34426516 0.0046900627 1.0949411
-0.33621114 0.0067033442 1.0920001
-0.15189886 0.0063952836 1.0943333
-0.14906402 0.0067319232 1.097
-0.34204581 0.011219871 1.097
-0.3349098 0.012640386 1.096077
-0.32525682 0.01459908 1.0937222
-0.31583008 0.017116236 1.0913334
-0.30769247 0.018155767 1.09
-0.1535923 0.014381717 1.0936667
-0.14906402 0.016348956 1.097
-0.32293996 0.020965131 1.097
-0.31391159 0.023916984 1.0957369
-0.30462527 0.024892215 1.0932581
-0.29583848 0.027054094 1.0914546
-0.17361462 0.028565012 1.0921668
-0.16553715 0.024441259 1.0944706
-0.15868105 0.020195769 1.097
-0.30278265 0.033193037 1.0956668
-0.29464614 0.034584858 1.0939413
-0.28603134 0.035473768 1.0935
-0.27589342 0.039002314 1.094
-0.26604342 0.03888227 1.0924
-0.1806021 0.031533699 1.09
-0.17603013 0.034226965 1.0946112
-0.28177908 0.041353244 1.097
-0.27489132 0.042945132 1.096077
-0.26552945 0.043045457 1.0945715
-0.25583833 0.04615527 1.0922
-0.24598272 0.0483055 1.0946666
-0.23448503 0.048264507 1.0917143
-0.22409694 0.048036508 1.0915
-0.21581565 0.048034195 1.0927143
-0.23513646 0.050970275 1.097
-0.22491108 0.051460087 1.0957143
-0.21275926 0.052229319 1.0965
-0.20477934 0.056107774 1.0946001
-0.1952889 0.056798894 1.0923846
-0.18598324 0.056294128 1.0945001
-0.17983852 0.050970275 1.097
-0.20291941 0.060587306 1.097
-0.19522576 0.060587309 1.097
-0.18945555 0.060587309 1.097
-0.29043266 -0.24186532 1.108
-0.2818293 -0.24408554 1.1079999
-0.27489111 -0.24405085 1.1079999
-0.26519608 -0.24384619 1.1070623
-0.25751558 -0.24238046 1.1068
-0.23215185 -0.24251288 1.108
-0.22958584 -0.24121045 1.105
-0.2928248 -0.23430061 1.1052999
-0.28562051 -0.23559746 1.1059198
-0.27535793 -0.2355312 1.1037081
-0.26494795 -0.23694916 1.1014
-0.25502104 -0.23537967 1.1039999
-0.2457412 -0.23368564 1.1067142
-0.23529086 -0.23467739 1.1073682
-0.22579171 -0.23467675 1.1040907
-0.21573859 -0.23390117 1.1056314
-0.20482977 -0.23238437 1.105
-0.2922858 -0.2263342 1.1027777
-0.2855601 -0.22703679 1.1013076
-0.27830222 -0.22811128 1.1010001
-0.25288501 -0.22489396 1.101
-0.24533962 -0.22505967 1.1017998
-0.234634 -0.22497457 1.1021665
-0.22499086 -0.2249928 1.1014799
-0.21527521 -0.22559722 1.1033702
-0.20482397 -0.22511579 1.1020768
-0.19769762 -0.22359684 1.1021999
-0.15444411 -0.22243838 1.108
-0.14375931 -0.22049569 1.108
-0.25307804 -0.21755834 1.1010001
-0.24677204 -0.21878092 1.101
-0.2326156 -0.21910267 1.1010001
-0.22382148 -0.2178157 1.101
-0.2144911 -0.21620706 1.101
-0.20558973 -0.21524185 1.101
-0.19808252 -0.21717222 1.101
-0.15153007 -0.21758166 1.108
-0.1442996 -0.21500103 1.1046999
-0.13626005 -0.21228696 1.1066362
-0.1291891 -0.21078223 1.108
-0.2123462 -0.20945057 1.1010001
-0.20848536 -0.20945057 1.1010001
-0.14285108 -0.20945057 1.1010001
-0.13423839 -0.2056139 1.1033157
-0.12508619 -0.2046019 1.1060798
-0.11672451 -0.2027353 1.1065
-0.13175116 -0.19690284 1.101
-0.12419514 -0.19464135 1.1020907
-0.11578987 -0.19453071 1.1055236
-0.10946498 -0.19277461 1.105
-0.13159031 -0.18306817 1.101
-0.12451209 -0.18435507 1.101
-0.11641426 -0.18561122 1.1023333
-0.14188586 -0.17084217 1.1010001
-0.13384895 -0.17427748 1.1031997
-0.12485646 -0.17518233 1.1040398
-0.11584139 -0.17429411 1.1016315
-0.14270583 -0.16352813 1.1027691
-0.13598019 -0.16614915 1.1057599
-0.12522046 -0.1669571 1.1072499
-0.11537798 -0.16604294 1.1059563
-0.14389049 -0.15623492 1.104375
-0.13793123 -0.1583295 1.108
-0.10587679 -0.15444411 1.108
-0.39162016 -0.1334427 1.103
-0.38833615 -0.1341642 1.1010001
-0.10781948 -0.1311318 1.108
-0.39194128 -0.12485348 1.1015714
-0.38897961 -0.12258167 1.1010001
-0.39272946 -0.11510615 1.1034
-0.38897958 -0.11421651 1.1010001
-0.393244 -0.10458733 1.1075714
-0.38642216 -0.10416477 1.1031429
-0.37932754 -0.10134705 1.1010001
-0.3837499 -0.099204913 1.1040001
-0.37932754 -0.098451421 1.1010001
-0.11188408 -0.06332276 1.1015713
-0.1093329 -0.06417755 1.1036667
-0.39039281 -0.051341984 1.105
-0.38608399 -0.05115613 1.1010001
-0.11394629 -0.054340877 1.1025554
-0.10912221 -0.054489087 1.1071428
-0.39092276 -0.04850027 1.1065
-0.38513327 -0.04577281 1.1047332
-0.37932754 -0.043434449 1.1010001
-0.12225088 -0.043896936 1.1018889
-0.11617731 -0.046824627 1.1059999
-0.10879083 -0.049538679 1.108
-0.37739712 -0.03957361 1.1010001
-0.13111141 -0.03192842 1.10375
-0.12626752 -0.037136827 1.1051332
-0.13337256 -0.024216259 1.1051112
-0.38230959 -0.016891439 1.1073999
-0.37592688 -0.014139757 1.1049999
-0.36967543 -0.01254773 1.1010001
-0.14285108 -0.01061731 1.1010001
-0.13663822 -0.014166775 1.104
-0.37414506 -0.0057397755 1.1079999
-0.36555478 -0.0039591063 1.1044544
-0.3580929 -0.00096520997 1.1010001
-0.15074927 -0.0016142355 1.1046667
-0.14503475 -0.0063938806 1.1053998
-0.13890257 -0.007770773 1.108
-0.36241919 0.0031296024 1.1076665
-0.35470721 0.0054080011 1.1035293
-0.3484408 0.0077216802 1.1010001
-0.15144905 0.003294864 1.1059999
-0.14960755 0.0086868899 1.1010001
-0.35304192 0.014214353 1.1077272
-0.34528649 0.015304148 1.1044998
-0.33498988 0.017149134 1.102
-0.32913661 0.018338989 1.1010001
-0.15315914 0.018418109 1.1057501
-0.14831477 0.013859223 1.1025555
-0.35259885 0.02039828 1.108
-0.34001955 0.02034305 1.105
-0.33413842 0.02068013 1.1058334
-0.32518807 0.025050815 1.1049284
-0.31739873 0.027239259 1.1018
-0.16305596 0.027081111 1.1032
-0.1570498 0.023129223 1.105857
-0.32151574 0.030111747 1.108
-0.31439281 0.03296661 1.1059999
-0.30744711 0.035530277 1.1051666
-0.29352114 0.039717384 1.105
-0.28763258 0.03957361 1.1010001
-0.1735189 0.037336968 1.1033
-0.16516592 0.033758517 1.1059089
-0.2918897 0.04225358 1.108
-0.28438717 0.045425899 1.1059998
-0.27515352 0.04795821 1.1040908
-0.26510915 0.048427362 1.1023333
-0.25564536 0.049449261 1.1060001
-0.24561045 0.049315132 1.103
-0.17819591 0.043617297 1.1055715
-0.27464825 0.052695554 1.1079999
-0.26507583 0.052016515 1.1075714
-0.25603545 0.052545156 1.1076666
-0.24495299 0.053590067 1.1056428
-0.23496611 0.054723106 1.1053998
-0.22429617 0.05559513 1.1059999
-0.21626213 0.056043133 1.103294
-0.20945057 0.058877811 1.1010001
-0.18201993 0.057083149 1.1035713
-0.22114325 0.061842401 1.108
-0.21403985 0.063163325 1.1055833
-0.20527847 0.064449281 1.1029998
-0.19431682 0.065081008 1.1040586
-0.18670273 0.064337686 1.1056249
-0.27337673 -0.25234774 1.1120002
-0.26401612 -0.25399837 1.1124091
-0.25753692 -0.25296828 1.117
-0.29031256 -0.24632579 1.115
-0.28696781 -0.24487755 1.1128571
-0.2758835 -0.24858759 1.1120001
-0.26353535 -0.24826264 1.1120001
-0.25393039 -0.24554029 1.1131999
-0.24501313 -0.24338838 1.1120001
-0.23688935 -0.2432259 1.1120001
-0.25151217 -0.23883906 1.1120001
-0.2438526 -0.23828198 1.1120001
-0.23786421 -0.23883906 1.1120001
-0.21349289 -0.23688936 1.1120001
-0.20764375 -0.23688936 1.1120001
-0.15230447 -0.22357893 1.1136668
-0.14845316 -0.22297299 1.1126001
-0.15110226 -0.21934199 1.1120001
-0.13391522 -0.2147205 1.115
-0.12770578 -0.21154317 1.1120001
-0.11243308 -0.19724531 1.1120001
-0.10820872 -0.19594552 1.1120001
-0.13379861 -0.16255678 1.1120001
-0.12575608 -0.16182563 1.1120002
-0.1152764 -0.16158192 1.1120001
-0.14335792 -0.15227461 1.1124287
-0.13457163 -0.15485038 1.1143103
-0.1243033 -0.15525696 1.1149999
-0.1143793 -0.15527931 1.1129229
-0.1082817 -0.15412873 1.1127501
-0.14370209 -0.14639193 1.1170001
-0.13488623 -0.1461145 1.1174614
-0.12429246 -0.14555399 1.1176665
-0.114838 -0.14483899 1.116074
-0.10850065 -0.14955495 1.115
-0.11377301 -0.13532987 1.1178
-0.10840335 -0.13314345 1.1140001
-0.40253291 -0.10758191 1.1190001
-0.398278 -0.10737983 1.1135001
-0.10820872 -0.055566639 1.1120001
-0.3909162 -0.0438684 1.1120001
-0.38799161 -0.041918691 1.1120001
-0.11414389 -0.043167692 1.1155715
-0.10800884 -0.047314286 1.1166668
-0.38311735 -0.039968986 1.1120001
-0.12410475 -0.033626352 1.114706
-0.11840501 -0.03816152 1.11625
-0.13127257 -0.025860164 1.1162857
-0.1278557 -0.027794717 1.1190001
-0.39271075 -0.012747172 1.1185
-0.38607424 -0.012705442 1.1149
-0.37921795 -0.010723387 1.1120001
-0.13501281 -0.014677153 1.1160001
-0.39309672 -0.0074274954 1.1190001
-0.38569424 -0.0050018216 1.1169446
-0.37652451 -0.0038248287 1.1124617
-0.3694694 -0.00097485335 1.1120001
-0.14416201 -0.0020393657 1.1131819
-0.13816425 -0.0064503378 1.1146001
-0.38420618 0.0019611034 1.118
-0.37450024 0.0037898298 1.115
-0.36676884 0.0060243071 1.1136669
-0.15110226 0.00097485335 1.1120001
-0.14644173 0.0031982551 1.1171334
-0.13842916 0.00097485335 1.1120001
-0.36242715 0.015009117 1.1163334
-0.35820231 0.015066589 1.1126667
-0.14759998 0.018572183 1.115
-0.36002332 0.02060079 1.1190001
-0.3529191 0.024763519 1.1169287
-0.34525263 0.023899313 1.1156667
-0.33835781 0.022492198 1.1155001
-0.32755071 0.028270746 1.1120001
-0.15337914 0.025337303 1.1144001
-0.14870983 0.022013539 1.1160001
-0.35119444 0.03041069 1.1190001
-0.34825146 0.03041069 1.1190001
-0.32314849 0.034073725 1.116091
-0.31552172 0.036948372 1.1132858
-0.30533358 0.039019775 1.1127501
-0.29927996 0.039968986 1.1120001
-0.17157418 0.039968986 1.1120001
-0.16403936 0.038048588 1.1128571
-0.15731639 0.034204084 1.1146003
-0.32078373 0.040220588 1.1190001
-0.31438676 0.042651031 1.1171818
-0.30537465 0.044039469 1.1162856
-0.29528624 0.045842599 1.1125627
-0.28758171 0.048742667 1.1120001
-0.18034786 0.049717519 1.1120001
-0.17465046 0.045621391 1.1150556
-0.16591826 0.042705063 1.1168462
-0.15990137 0.040220588 1.1190001
-0.30181792 0.050684482 1.1190001
-0.29458326 0.05315695 1.1180772
-0.28549352 0.05475321 1.1165335
-0.27463567 0.055920526 1.1138002
-0.26447901 0.057123031 1.1132352
-0.25419301 0.057150785 1.1120002
-0.24490483 0.058599513 1.1120001
-0.23493965 0.058908999 1.1120001
-0.22714083 0.058296226 1.1120001
-0.18044516 0.055598725 1.1126001
-0.1777823 0.054852154 1.1173334
-0.28154412 0.061802369 1.1190001
-0.27467719 0.061802369 1.1190001
-0.26503822 0.062092543 1.1183335
-0.25462961 0.062777221 1.1154
-0.24501973 0.065286614 1.1142498
-0.23535441 0.065648213 1.1150384
-0.22597067 0.065745078 1.1144762
-0.21659492 0.067881018 1.1133636
-0.2053041 0.068824641 1.1120001
-0.19838265 0.068727165 1.1120001
-0.18271661 0.066166915 1.1145716
-0.17849699 0.064260796 1.1178571
-0.24089047 0.071484275 1.1170001
-0.23838057 0.071612269 1.1190001
-0.22072275 0.071612269 1.1190001
-0.21342139 0.073099904 1.1171818
-0.20504986 0.072743803 1.1171819
-0.194765 0.07242687 1.1164
-0.18592456 0.071436279 1.11625
-0.14483297 -0.14201637 1.1238573
-0.13454787 -0.14143935 1.123
-0.12634374 -0.14078303 1.123
-0.14366989 -0.13617998 1.1240001
-0.13561535 -0.13660313 1.1250626
-0.12494829 -0.13540393 1.1245651
-0.11781144 -0.13225071 1.123
-0.14078303 -0.12896906 1.123
-0.13918486 -0.12832646 1.126
-0.12339082 -0.12832646 1.126
-0.11660981 -0.12736268 1.1246365
-0.39281416 -0.040364362 1.123
-0.11200351 -0.041056637 1.1240001
-0.10843929 -0.044360209 1.1245
-0.12174942 -0.031175727 1.123
-0.11670522 -0.034682397 1.1250001
-0.13171099 -0.021349171 1.1240001
-0.1260746 -0.025477542 1.1250001
-0.11944233 -0.028626673 1.126
-0.1332621 -0.017439237 1.126
-0.39453703 -0.0034457385 1.123
-0.39084518 0.00098449667 1.123
-0.38472295 0.0061662542 1.1252501
-0.37658006 0.0083800564 1.1245
-0.1464407 0.0066568591 1.1248751
-0.37175187 0.011648094 1.126
-0.36701962 0.014776391 1.1236
-0.14806899 0.01184552 1.126
-0.36247626 0.023087719 1.1253999
-0.35737228 0.026581412 1.123
-0.34457386 0.028058156 1.123
-0.33711982 0.027706549 1.123
-0.15082918 0.027604042 1.1245
-0.35042995 0.032575179 1.126
-0.34413904 0.031555437 1.1248
-0.3345508 0.03454167 1.1257143
-0.32765517 0.036115307 1.1235
-0.15336098 0.034520939 1.1250001
-0.14905612 0.03849794 1.126
-0.33305651 0.040867046 1.126
-0.32481378 0.043848995 1.1248001
-0.31635639 0.046294775 1.1235455
-0.30814746 0.048240338 1.123
-0.17031792 0.048240338 1.123
-0.16388159 0.046190541 1.1250001
-0.15643179 0.042216152 1.1251001
-0.14806899 0.040472195 1.126
-0.32081616 0.050343461 1.126
-0.3138299 0.052259479 1.1247145
-0.30485424 0.054643754 1.1241667
-0.29560348 0.056982335 1.1234286
-0.28747302 0.058085304 1.123
-0.17378376 0.053823005 1.1239375
-0.16814058 0.051001545 1.126
-0.29485795 0.061141036 1.1248749
-0.28470615 0.062235694 1.1242859
-0.27525184 0.064887196 1.1244117
-0.26550248 0.066320039 1.1239232
-0.25722235 0.066833779 1.1252501
-0.18016289 0.069899261 1.123
-0.17586748 0.064077757 1.1245
-0.26306927 0.070579559 1.126
-0.2532967 0.070875697 1.126
-0.24588872 0.073133536 1.1251429
-0.23468578 0.073168002 1.1248001
-0.22439621 0.073964685 1.1249092
-0.21525608 0.07782805 1.1237501
-0.20470016 0.077741981 1.1244
-0.19503744 0.075975873 1.1255001
-0.18437412 0.073947996 1.1246667
-0.17801185 0.070744075 1.126
-0.21519361 0.081931517 1.126
-0.20630947 0.081931517 1.126
-0.11180715 -0.1954096 1.1353334
-0.10874349 -0.19753404 1.138
-0.1348362 -0.13307507 1.13
-0.12878233 -0.13175423 1.13
-0.1341769 -0.1250381 1.1324
-0.12566043 -0.12403525 1.131091
-0.11618219 -0.12232902 1.1308
-0.13302481 -0.11560533 1.1374669
-0.124442 -0.11448432 1.1356002
-0.11529303 -0.11503186 1.1341742
-0.10774584 -0.11472937 1.138
-0.13168935 -0.10874349 1.138
-0.12470583 -0.10874349 1.138
-0.1177223 -0.10874349 1.138
-0.10641821 -0.042686302 1.1324
-0.11270197 -0.033344489 1.1315385
-0.107025 -0.036160395 1.1353335
-0.12354672 -0.022617841 1.1307273
-0.11628932 -0.025541861 1.1337999
-0.13271014 -0.014720285 1.1348002
-0.12586276 -0.017212741 1.1346153
-0.39568731 0.0064339368 1.1369092
-0.38702726 0.0084361639 1.132
-0.14259291 0.0077032703 1.1335001
-0.1396793 0.0049531665 1.13
-0.40005627 0.012969407 1.138
-0.39437777 0.014255528 1.1375295
-0.38460758 0.013609489 1.1356
-0.37601966 0.015336156 1.1334287
-0.36950624 0.018822033 1.13
-0.14521369 0.012704652 1.1365
-0.38010338 0.02095058 1.138
-0.3743411 0.02293974 1.1376668
-0.3664372 0.024460053 1.1340001
-0.15011513 0.02684178 1.1340001
-0.14812686 0.028830061 1.1340001
-0.35395825 0.03589366 1.1373334
-0.34531075 0.036521528 1.1306155
-0.33978724 0.037644066 1.13
-0.15084101 0.034733534 1.132
-0.1483141 0.033160795 1.1324002
-0.35017398 0.040903512 1.138
-0.34413725 0.043194413 1.1352
-0.33552846 0.045064993 1.1321334
-0.32818982 0.047593359 1.131
-0.16147323 0.048541032 1.13
-0.15482408 0.045709804 1.1315385
-0.14958563 0.042597234 1.13
-0.33221635 0.051877625 1.138
-0.32458156 0.054268226 1.1349231
-0.31609344 0.057042751 1.1326666
-0.30808696 0.058447365 1.13
-0.17203999 0.057786942 1.13
-0.16533169 0.054572664 1.1336365
-0.15762818 0.050879981 1.138
-0.31337327 0.06207677 1.1375
-0.30416566 0.063825279 1.1352501
-0.29527596 0.06668745 1.1353334
-0.28668183 0.067324489 1.1335
-0.27836797 0.068353698 1.13
-0.17279436 0.064792268 1.1343077
-0.16845238 0.061301794 1.1370001
-0.29131281 0.070832916 1.138
-0.28347418 0.071973078 1.138
-0.27407342 0.073307529 1.1337501
-0.26478684 0.075153783 1.1328572
-0.2552413 0.075706787 1.132889
-0.24482435 0.077343233 1.1326667
-0.23527806 0.077434912 1.1324
-0.22628896 0.077410921 1.13
-0.19356975 0.077863783 1.13
-0.18435617 0.0777843 1.1326667
-0.17668197 0.073658004 1.1340001
-0.2524046 0.080809377 1.138
-0.24342579 0.080809377 1.138
-0.23444697 0.081208438 1.138
-0.22447693 0.082399942 1.1346668
-0.21456023 0.085606933 1.13375
-0.20515838 0.085239947 1.1340002
-0.19601667 0.083340272 1.1337894
-0.18684697 0.081134997 1.1345714
-0.11242373 -0.19171792 1.1450001
-0.10489175 -0.19317527 1.1444547
-0.097761631 -0.19269094 1.1453637
-0.11281648 -0.18836322 1.149
-0.10576545 -0.18836322 1.149
-0.094782554 -0.18826854 1.1484287
-0.12491628 -0.10426165 1.1418422
-0.11608437 -0.10506245 1.1427501
-0.12408983 -0.098934464 1.1476668
-0.11750551 -0.098233126 1.1484287
-0.10102794 -0.041011345 1.141
-0.10265797 -0.032436375 1.1443335
-0.099721707 -0.031225991 1.149
-0.11192184 -0.022581618 1.1450001
-0.10629634 -0.026572892 1.1470002
-0.13318992 -0.011015902 1.1423334
-0.12448481 -0.01259059 1.1441112
-0.11641901 -0.017072605 1.1457274
-0.13649321 -0.0061521549 1.1476668
-0.12842947 -0.0085619651 1.149
-0.3951093 0.019005256 1.141
-0.38510653 0.018004982 1.1409999
-0.1439378 0.017441984 1.1434
-0.39332357 0.025151767 1.1474617
-0.38508055 0.024658779 1.1452223
-0.37449655 0.0278382 1.1422001
-0.36753049 0.028375069 1.1423334
-0.14630142 0.023588911 1.1450001
-0.39183581 0.032233283 1.149
-0.38243446 0.031897519 1.149
-0.37444061 0.033192974 1.1472858
-0.36470509 0.034791935 1.1463336
-0.35643193 0.03834394 1.141
-0.35301876 0.042626601 1.1440001
-0.3451007 0.047982246 1.1450001
-0.33909377 0.049013555 1.141
-0.15104178 0.049013555 1.141
-0.14904122 0.048013277 1.141
-0.3424786 0.05137179 1.149
-0.33505076 0.055828284 1.1464547
-0.32737714 0.058067773 1.1420001
-0.16104454 0.058016047 1.141
-0.15576679 0.055186167 1.1445001
-0.3313984 0.061444689 1.149
-0.32507768 0.063782506 1.1470002
-0.31529137 0.066711836 1.1462309
-0.30585191 0.068579443 1.1420001
-0.1648103 0.065443531 1.1442941
-0.15887305 0.061337736 1.1470001
-0.31225991 0.071517587 1.149
-0.30401647 0.073616467 1.1476668
-0.29475933 0.075403236 1.1452003
-0.28554103 0.076761104 1.1450001
-0.27647066 0.078277037 1.1418
-0.17302841 0.076703601 1.1422
-0.1688308 0.073362686 1.1463333
-0.28204119 0.081590489 1.149
-0.27355483 0.083448857 1.1468183
-0.26515624 0.08298707 1.1446923
-0.25508469 0.084508784 1.1455716
-0.24559689 0.086077861 1.1448098
-0.23580691 0.085613333 1.1452668
-0.22585037 0.087582722 1.1450002
-0.21906058 0.089024626 1.141
-0.19305252 0.08884725 1.143
-0.18508011 0.085515469 1.1453334
-0.17672428 0.083292179 1.1471819
-0.2216038 0.092670679 1.149
-0.21461341 0.093619354 1.1447144
-0.20530115 0.093710661 1.1450001
-0.19525947 0.092895232 1.1464287
-0.18735594 0.09166339 1.149
-0.11208051 -0.18713897 1.1570001
-0.10432829 -0.18535851 1.1553998
-0.095346168 -0.18607748 1.1556667
-0.12392367 -0.096430004 1.153
-0.11826321 -0.096025683 1.153
-0.10354234 -0.023859484 1.1547142
-0.09838742 -0.025357584 1.1570001
-0.12150425 -0.01113805 1.155
-0.11415565 -0.015770607 1.1552857
-0.10650185 -0.019271763 1.1570001
-0.13486002 -0.00534679 1.1541427
-0.1255562 -0.0070860968 1.155
-0.39117831 0.028302306 1.153
-0.38814592 0.029313102 1.153
-0.39117831 0.032345496 1.153
-0.38530937 0.03440531 1.1542
-0.37548122 0.038285408 1.1535714
-0.36793 0.03942107 1.153
-0.37278253 0.043599069 1.1565557
-0.36404821 0.044637032 1.155588
-0.35576534 0.046546791 1.1542
-0.34872484 0.049529035 1.153
-0.35196325 0.052743774 1.1570001
-0.34470147 0.05554786 1.1549999
-0.33760607 0.059637003 1.153
-0.15252256 0.057661388 1.1538889
-0.14858711 0.055593818 1.153
-0.34182021 0.061872505 1.1570001
-0.33542848 0.065585449 1.1551175
-0.32536629 0.06901712 1.1535001
-0.31840095 0.069744967 1.153
-0.16215731 0.068437569 1.1536666
-0.15658504 0.064279832 1.1556666
-0.3316772 0.072015539 1.1570001
-0.32352915 0.072608747 1.1556667
-0.31486762 0.075124778 1.1548666
-0.30492365 0.07816828 1.153
-0.29616341 0.079852939 1.153
-0.17082463 0.077831343 1.153
-0.16569394 0.073727444 1.156
-0.30530527 0.081144266 1.1570001
-0.29397818 0.08370588 1.1549999
-0.28528312 0.085081376 1.1553334
-0.277666 0.086582482 1.1541427
-0.26544851 0.087724745 1.1535
-0.25694451 0.089152262 1.153
-0.23551564 0.089960903 1.153
-0.22945084 0.089960903 1.153
-0.18447039 0.088950112 1.153
-0.17529152 0.086238593 1.1543334
-0.27284762 0.090272993 1.1570001
-0.26444337 0.091142401 1.1570002
-0.25425205 0.092977799 1.1570001
-0.24468921 0.093107648 1.1555455
-0.23430407 0.0923016 1.1570001
-0.22486606 0.095212661 1.1554
-0.21681589 0.097541876 1.153
-0.20519172 0.098047279 1.153
-0.1946623 0.097459249 1.155
-0.18535848 0.095011197 1.1553998
-0.17750309 0.092639707 1.1570001
-0.22111812 0.10041603 1.1570001
-0.21438518 0.10118625 1.1558571
-0.20657533 0.10113335 1.1565001
-0.19981776 0.10041603 1.1570001
-0.11321186 -0.18337746 1.1634001
-0.10490457 -0.18129434 1.1618001
-0.094305895 -0.182698 1.1634002
-0.086982131 -0.18366444 1.165
-0.11263501 -0.17816584 1.1680001
-0.10581163 -0.17809218 1.1667778
-0.095308565 -0.17934409 1.169
-0.084544174 -0.17751645 1.1683844
-0.10076319 -0.02137401 1.161
-0.098049022 -0.022052549 1.161
-0.11402329 -0.012645391 1.1634001
-0.10550987 -0.016415311 1.1650001
-0.097025089 -0.019405017 1.1650001
-0.13476646 -0.001835214 1.1646001
-0.1243503 -0.0043567945 1.1635455
-0.1173951 -0.0079283537 1.1669999
-0.3920573 0.037877552 1.1676668
-0.38563344 0.038359132 1.1616668
-0.38388756 0.044650871 1.1663334
-0.3754358 0.0467567 1.1617274
-0.3664116 0.04885488 1.161
-0.35826913 0.049872689 1.161
-0.38020945 0.050216343 1.169
-0.3743163 0.052435677 1.1676667
-0.36510876 0.054865412 1.1670001
-0.3558774 0.055458132 1.1631539
-0.34910882 0.056997359 1.161
-0.14758246 0.058015171 1.161
-0.35381258 0.062238801 1.1669999
-0.34546462 0.065082997 1.1630001
-0.15369606 0.066434793 1.1632859
-0.14885449 0.061175555 1.163
-0.34373459 0.071556672 1.1684287
-0.33462104 0.073571183 1.1655
-0.3258 0.076600753 1.1650001
-0.31857452 0.078371368 1.161
-0.16361637 0.077037558 1.1631819
-0.15610602 0.07322266 1.1647648
-0.32230693 0.081473455 1.169
-0.31459543 0.082659826 1.1672223
-0.30461186 0.085866876 1.166
-0.29482561 0.087531656 1.1610001
-0.28702241 0.088549472 1.161
-0.17172059 0.086371168 1.1625001
-0.16679175 0.083272479 1.1672502
-0.15884762 0.080961041 1.169
-0.29284874 0.092668489 1.168
-0.28446025 0.093826309 1.1658
-0.27579921 0.095155746 1.1656667
-0.2651594 0.095573641 1.1653637
-0.25676301 0.096200272 1.1655715
-0.24511249 0.098049909 1.1650002
-0.23534305 0.096763715 1.1635715
-0.2285917 0.098162413 1.1623334
-0.1825951 0.098320447 1.161
-0.17418589 0.094817974 1.1645001
-0.16909584 0.092234105 1.169
-0.24083348 0.10145751 1.169
-0.23382443 0.10297375 1.1681112
-0.22482425 0.10545494 1.1654212
-0.21552536 0.10652766 1.1635715
-0.20519313 0.10617714 1.1652668
-0.19520755 0.1022046 1.1658
-0.18485692 0.10213447 1.165
-0.17873041 0.10111035 1.1650001
-0.1123428 -0.17418051 1.1756667
-0.10389783 -0.17547496 1.1755456
-0.095439367 -0.17582913 1.1756667
-0.086295314 -0.17303085 1.1758573
-0.079451419 -0.17128488 1.177
-0.078763522 -0.1661257 1.177
-0.11003131 -0.01131163 1.1730001
-0.10429286 -0.012618959 1.1750001
-0.097911097 -0.017521352 1.1756667
-0.12382039 -0.0020636732 1.177
-0.11417405 -0.0065267836 1.1756668
-0.10679509 -0.0087706121 1.177
-0.14136162 0.0010318366 1.177
-0.13498826 0.0010304339 1.1754
-0.14617686 0.023044353 1.177
-0.39590704 0.038048211 1.1730001
-0.39393774 0.042626455 1.1763334
-0.38880661 0.046329785 1.1743335
-0.38435259 0.05317194 1.1754
-0.37582046 0.057404354 1.1745001
-0.36814213 0.058614809 1.1730001
-0.36400265 0.062262744 1.1752859
-0.35463271 0.067566164 1.1736668
-0.14821914 0.06520284 1.1752857
-0.35185629 0.072228566 1.177
-0.34426832 0.074617922 1.174
-0.33466452 0.078054011 1.1746
-0.32803726 0.07918141 1.1730001
-0.15332428 0.077178054 1.1738002
-0.14961632 0.075324073 1.177
-0.3322514 0.081515096 1.177
-0.32512197 0.084259324 1.174143
-0.31558511 0.087006539 1.1745001
-0.30696481 0.089103088 1.1750001
-0.16389355 0.087331392 1.1744547
-0.15600546 0.084015936 1.1754001
-0.30291802 0.093807973 1.1758573
-0.29615533 0.095906988 1.1738002
-0.28484741 0.099336676 1.1730001
-0.27250746 0.099748008 1.1730001
-0.26633748 0.099748008 1.1730001
-0.25296918 0.099748008 1.1730001
-0.1726695 0.098991975 1.1738001
-0.16721451 0.093393646 1.1750002
-0.29200977 0.10008816 1.177
-0.28618753 0.10134822 1.1756667
-0.27556178 0.10226434 1.1743335
-0.26449415 0.10077605 1.177
-0.25486368 0.10132636 1.177
-0.24462418 0.10407593 1.1754001
-0.23594628 0.10652421 1.1740001
-0.2012099 0.1072891 1.1730001
-0.19448763 0.10701996 1.1738002
-0.18473655 0.10718331 1.1743335
-0.17557208 0.10402754 1.1748668
-0.23216325 0.11143836 1.177
-0.22462326 0.11269946 1.1740001
-0.21528684 0.11296757 1.1750001
-0.20483261 0.11267293 1.175182
-0.19501713 0.11143836 1.177
-0.18573059 0.11040653 1.177
-0.11181708 -0.17083165 1.1810001
-0.10456967 -0.171867 1.181
-0.093920425 -0.17142329 1.1810001
-0.081792124 -0.17186698 1.1810001
-0.11159703 -0.16825892 1.1823335
-0.10497247 -0.16732545 1.1855334
-0.094180301 -0.16741216 1.1861429
-0.084723607 -0.16563147 1.1849999
-0.07912121 -0.16342264 1.1823335
-0.080261461 -0.15948057 1.189
-0.078176752 -0.15948057 1.189
-0.10042831 -0.013459464 1.1810001
-0.097430982 -0.013473489 1.1823335
-0.12334261 -0.0010365122 1.1823335
-0.11433573 -0.0025444853 1.1846365
-0.10448543 -0.0046665841 1.1835999
-0.097690843 -0.0066883401 1.1872857
-0.14180125 0.0062392373 1.1849999
-0.13585791 0.0038904275 1.1830001
-0.12595122 0.0010409539 1.1874001
-0.14479008 0.015622024 1.1882001
-0.15012479 0.025883583 1.1810001
-0.14583394 0.025949333 1.184
-0.15083663 0.034329738 1.1866
-0.14667609 0.034330677 1.1866001
-0.40357307 0.046608638 1.1880001
-0.39690334 0.046432063 1.1827779
-0.15135387 0.043098863 1.1874001
-0.1483621 0.043084074 1.189
-0.39388561 0.054581199 1.1850002
-0.38663465 0.057944532 1.1832858
-0.39296845 0.061499044 1.189
-0.3834163 0.063074514 1.1881112
-0.37467498 0.064505883 1.1867144
-0.36592233 0.067109875 1.1842729
-0.35926414 0.069368005 1.1810001
-0.14716807 0.067518242 1.1850001
-0.3639271 0.072577186 1.1883334
-0.35573646 0.075388312 1.1868182
-0.34497398 0.0783571 1.1827145
-0.33752191 0.079721436 1.1810001
-0.1471671 0.075657561 1.1822001
-0.35127419 0.080261461 1.189
-0.34491363 0.08420606 1.1880771
-0.33561704 0.085613646 1.1847144
-0.32695985 0.08771006 1.184
-0.15263429 0.086183973 1.1844286
-0.14698556 0.083676949 1.1867143
-0.33436483 0.092306472 1.189
-0.3243857 0.093078755 1.1866469
-0.31460705 0.094741322 1.1847894
-0.30675834 0.096334517 1.1815716
-0.16386774 0.09575589 1.184
-0.15721758 0.093362369 1.1876668
-0.31270701 0.1011086 1.189
-0.30449212 0.10188396 1.1872222
-0.29432443 0.10504706 1.1863333
-0.28525281 0.10634298 1.1865386
-0.27486366 0.10680354 1.1844286
-0.26526585 0.10618856 1.1856314
-0.25553483 0.10649391 1.1839334
-0.24586116 0.1080822 1.1816669
-0.17330581 0.10699037 1.1820002
-0.16669194 0.10462033 1.1867777
-0.28039393 0.11153216 1.189
-0.27622449 0.11153216 1.189
-0.26632214 0.11153216 1.189
-0.25491413 0.11245871 1.189
-0.24523395 0.11260695 1.1881112
-0.2353628 0.11556576 1.1859232
-0.22539377 0.11792944 1.1828183
-0.21434605 0.11818431 1.1846001
-0.20446394 0.11814812 1.1850002
-0.19495519 0.11739472 1.1850001
-0.18522848 0.11437934 1.1839333
-0.17506908 0.11267105 1.1863333
-0.16920924 0.11222706 1.189
-0.23244554 0.12195573 1.189
-0.22514904 0.12195573 1.189
-0.21576783 0.12195573 1.189
-0.20534427 0.12195573 1.189
-0.19700541 0.12195573 1.189
-0.11123322 -0.16370171 1.197
-0.10512427 -0.1624766 1.1945385
-0.095647283 -0.16263558 1.1940001
-0.086209014 -0.16091354 1.193
-0.10346788 -0.15761538 1.197
-0.094685473 -0.15651757 1.1970003
-0.084652655 -0.1544849 1.1959567
-0.078027964 -0.15380728 1.1958572
-0.078702748 -0.14796117 1.197
-0.094582684 -0.012216934 1.1943334
-0.10144874 -0.0010458634 1.1930001
-0.09545482 -0.0045373351 1.1943332
-0.1345413 0.0073298104 1.1943333
-0.12529539 0.0036710417 1.1960001
-0.11575173 0.0014663127 1.1938
-0.10784198 0.0010470323 1.1943334
-0.097376324 0.0010470323 1.1943334
-0.14228474 0.015694611 1.1933999
-0.13800381 0.01447289 1.1962001
-0.14247411 0.0251428 1.1950002
-0.13956621 0.025184881 1.197
-0.14298405 0.032863311 1.1963333
-0.13956621 0.030431731 1.197
-0.15165018 0.049155578 1.1930001
-0.14671053 0.045316029 1.1941429
-0.15165018 0.051247302 1.1930001
-0.14955845 0.051247302 1.1930001
-0.39115289 0.06379766 1.1930001
-0.38628158 0.066441692 1.1954
-0.3786025 0.067981116 1.1930001
-0.38197067 0.070307791 1.197
-0.37455758 0.07302662 1.1956668
-0.36564821 0.076899737 1.1943333
-0.35873112 0.07843975 1.1930001
-0.14547248 0.074303284 1.1938
-0.36273226 0.081501067 1.197
-0.35505715 0.084091119 1.1947144
-0.34699565 0.08844997 1.194
-0.15165018 0.088898383 1.1930001
-0.14704838 0.086388312 1.1930001
-0.34445047 0.092662536 1.1952858
-0.33587927 0.096342586 1.1945
-0.32587487 0.098555744 1.1941429
-0.15328442 0.095654331 1.1938
-0.32110721 0.10283826 1.197
-0.31501648 0.10410048 1.1946
-0.30422154 0.10668225 1.1943333
-0.2970252 0.10981565 1.1930001
-0.28865826 0.10981565 1.1930001
-0.16200764 0.10570444 1.1938001
-0.1566187 0.10371668 1.1950002
-0.30221856 0.11018385 1.197
-0.29369298 0.11277502 1.1958572
-0.28452885 0.11402228 1.1956667
-0.27462089 0.11440566 1.1945
-0.26446196 0.11543711 1.1945384
-0.2547974 0.11734095 1.1938888
-0.24540541 0.11706451 1.1934444
-0.2395027 0.11818255 1.1930001
-0.18285182 0.11750436 1.1946
-0.17419435 0.11725289 1.193
-0.16683365 0.11514422 1.1952224
-0.258145 0.12067755 1.197
-0.24345383 0.12067755 1.197
-0.23486513 0.12267372 1.1960001
-0.22501421 0.1245412 1.1938001
-0.21440199 0.12445774 1.1930001
-0.20428351 0.12571575 1.1950001
-0.19529767 0.12435362 1.1945
-0.18632551 0.12135434 1.1954
-0.1758828 0.121362 1.1960001
-0.16789919 0.12067755 1.197
-0.11217418 -0.16210561 1.2033334
-0.11276914 -0.15712263 1.2046667
-0.10504396 -0.15380999 1.2035556
-0.095692843 -0.15238161 1.2024446
-0.088515282 -0.15068673 1.202
-0.076923996 -0.15068673 1.202
-0.10194231 -0.14842142 1.205
-0.094696164 -0.14749916 1.2046666
-0.085496038 -0.14565641 1.2039998
-0.076788545 -0.14644937 1.204
-0.09198162 -0.00740082 1.2060001
-0.13171917 0.0094837798 1.202
-0.12587556 0.0064825746 1.2037144
-0.11534128 0.0038696062 1.2033335
-0.105726 0.0021145199 1.2060001
-0.13395818 0.014766924 1.2031999
-0.13611279 0.024269523 1.2035999
-0.14158385 0.036650363 1.2029999
-0.1370081 0.033000361 1.2045001
-0.14469841 0.045626998 1.2048001
-0.1512136 0.055322051 1.202
-0.14565641 0.054886345 1.2039999
-0.39370221 0.067554176 1.204
-0.38883498 0.06849397 1.202
-0.15068673 0.06006394 1.202
-0.14605746 0.063560091 1.2043999
-0.39118621 0.072950937 1.2060002
-0.38437334 0.075639382 1.2038667
-0.37583867 0.078328997 1.202
-0.14387153 0.07417652 1.2045001
-0.37476853 0.082068861 1.2053334
-0.36640927 0.083340026 1.2033335
-0.35761866 0.088965885 1.2033334
-0.14436421 0.085354015 1.202
-0.35305715 0.092642978 1.2036
-0.3450388 0.097285107 1.2036
-0.15068673 0.097999059 1.202
-0.14694197 0.094448909 1.2024
-0.34149498 0.1004397 1.2060001
-0.33437294 0.10210837 1.2042857
-0.32561854 0.10531894 1.2033333
-0.31507224 0.10853659 1.202
-0.15424757 0.10521695 1.2042222
-0.32034978 0.1110123 1.2060001
-0.31418622 0.11165577 1.2053334
-0.30504143 0.11357427 1.204
-0.29572904 0.11733287 1.2033334
-0.28635746 0.11828381 1.202
-0.27563179 0.11847198 1.202
-0.26765335 0.11907413 1.202
-0.16307665 0.11241409 1.204
-0.15858901 0.1110123 1.2060001
-0.29180378 0.1215849 1.2060001
-0.28389448 0.12187011 1.2053334
-0.27552193 0.12200781 1.2060001
-0.26504219 0.12249093 1.2045
-0.25448275 0.12275525 1.2045001
-0.2453935 0.12370706 1.2041818
-0.23590663 0.12639825 1.2040001
-0.22459605 0.12758902 1.2028
-0.21514714 0.12761024 1.2030001
-0.2061844 0.12926041 1.202
-0.19445461 0.1276456 1.2033335
-0.18542981 0.125126 1.2049092
-0.17506368 0.12480403 1.2044001
-0.22519639 0.13004299 1.2060001
-0.21462379 0.13110024 1.2060002
-0.20518312 0.13249275 1.2052002
-0.19594552 0.13074781 1.2060002
-0.18819228 0.13004299 1.2060001
-0.1150438 -0.15421404 1.2113334
-0.11284395 -0.14796935 1.2143334
-0.10533896 -0.14553082 1.2137225
-0.095345974 -0.14292765 1.2106667
-0.084861338 -0.14108196 1.21
-0.076375194 -0.14214271 1.21
-0.10223482 -0.13928159 1.2190001
-0.094634891 -0.13546233 1.2151251
-0.085030697 -0.13498072 1.2123998
-0.076701783 -0.13477126 1.2125262
-0.092438802 -0.12877312 1.2190001
-0.084002294 -0.12516259 1.2173334
-0.076759554 -0.12543879 1.2160833
-0.090463236 -0.011707007 1.2140001
-0.092140123 -0.0048889946 1.2136
-0.1236902 0.0087791597 1.2137501
-0.1138505 0.0066528041 1.2137501
-0.10601453 0.005330462 1.2153751
-0.1314092 0.016347729 1.2108001
-0.12856176 0.014285808 1.2160002
-0.13175073 0.02443796 1.2120001
-0.13429449 0.035700183 1.2130715
-0.14175473 0.046544738 1.2105715
-0.13709906 0.044500001 1.2152307
-0.14108196 0.055159867 1.21
-0.13672715 0.05462835 1.2134707
-0.39778751 0.068949834 1.21
-0.14249632 0.066121124 1.21
-0.13690065 0.064866811 1.2129374
-0.40074626 0.078011937 1.2190001
-0.39548022 0.075396709 1.2112857
-0.38930136 0.079557501 1.21
-0.14182137 0.076297805 1.2111429
-0.13814902 0.074227758 1.2153335
-0.39326566 0.081217907 1.2190001
-0.38416025 0.08407376 1.2138751
-0.37610352 0.086649254 1.2147273
-0.36679909 0.087586015 1.2110001
-0.14355619 0.084780097 1.219
-0.37082386 0.090835817 1.2190001
-0.36415914 0.092967585 1.2157779
-0.35580668 0.096739411 1.2125714
-0.34899223 0.098651297 1.21
-0.14450097 0.097751841 1.2120001
-0.35265669 0.10152239 1.2190001
-0.34476578 0.1038736 1.215889
-0.33598703 0.10643059 1.2122858
-0.32883766 0.10925896 1.21
-0.15136704 0.10551836 1.2122859
-0.14817506 0.10340985 1.2160001
-0.33431911 0.11241859 1.218375
-0.32439956 0.11354478 1.21325
-0.31549108 0.11598475 1.21375
-0.30634135 0.11782296 1.2108001
-0.29807544 0.11986663 1.21
-0.16271622 0.11645716 1.2131251
-0.15519515 0.1137148 1.2157692
-0.14854327 0.1111403 1.2190001
-0.3109791 0.12075821 1.2190001
-0.30534983 0.12184072 1.2170001
-0.29540423 0.12371213 1.2165002
-0.2841188 0.12660106 1.2164286
-0.27467895 0.12550953 1.21325
-0.26519445 0.12780298 1.2162857
-0.25536188 0.12726843 1.210889
-0.24503711 0.12835276 1.21
-0.18351264 0.12835276 1.21
-0.17384167 0.12739719 1.2110001
-0.16754679 0.12414944 1.2173334
-0.15922984 0.12075821 1.2190001
-0.25327161 0.13144477 1.2190001
-0.24384095 0.13205267 1.2161429
-0.23454717 0.13260049 1.2139001
-0.2245587 0.13549571 1.214
-0.21566057 0.13627799 1.2128333
-0.2046403 0.13599651 1.2108889
-0.19498061 0.13525052 1.2131666
-0.18552436 0.13307689 1.2143637
-0.17608616 0.13240319 1.2155
-0.11222648 -0.14323619 1.2258574
-0.10757372 -0.14116818 1.223
-0.11079401 -0.13876143 1.2270001
-0.10506494 -0.13499774 1.2254002
-0.099711187 -0.1318761 1.223
-0.10003731 -0.12692906 1.2270001
-0.094853394 -0.12534633 1.2248666
-0.088274777 -0.12186923 1.223
-0.092507616 -0.11939937 1.2270001
-0.08415629 -0.11546163 1.225476
-0.075449921 -0.11442428 1.2236665
-0.069918551 -0.11079401 1.2270001
-0.082288757 -0.10810483 1.2270001
-0.075279616 -0.10585136 1.2267144
-0.069918551 -0.10649133 1.2270001
-0.097885966 -0.021513401 1.2270001
-0.095557287 -0.016106997 1.2247144
-0.084977932 -0.011832369 1.2270001
-0.091991618 -0.0049319509 1.223
-0.084363267 -0.0081443591 1.2270001
-0.11472148 0.0096494695 1.223
-0.10417226 0.0071611977 1.2250001
-0.12547603 0.014207552 1.2256668
-0.11509669 0.011832369 1.2270001
-0.12886825 0.024700087 1.2250001
-0.1318761 0.037525713 1.223
-0.12800702 0.035618085 1.2254617
-0.13235241 0.045471236 1.2252222
-0.12687603 0.043547537 1.2265002
-0.13331002 0.054829359 1.2263335
-0.13277748 0.065530308 1.2254002
-0.13472 0.075143918 1.2245001
-0.3913396 0.084700905 1.223
-0.38660824 0.08806292 1.2250001
-0.14175524 0.08555419 1.2250001
-0.13757268 0.081685171 1.2260001
-0.3829385 0.091431953 1.2270001
-0.37500089 0.093722194 1.2256666
-0.36595035 0.097658038 1.2241429
-0.14363678 0.094769195 1.2250001
-0.37110615 0.10111298 1.2270001
-0.36624792 0.10141601 1.2263335
-0.35532135 0.10439719 1.2245002
-0.34712976 0.10784096 1.2240001
-0.14502397 0.10527819 1.2254002
-0.34366494 0.11339288 1.2260002
-0.33650613 0.11564048 1.2230002
-0.32540113 0.11836023 1.2236668
-0.31843251 0.11901013 1.223
-0.15311313 0.1171825 1.2235
-0.14757478 0.11424305 1.2265002
-0.32270098 0.12155071 1.2270001
-0.31561947 0.12225275 1.2254002
-0.3055284 0.12511216 1.2250001
-0.29484493 0.1267297 1.223
-0.28841195 0.12758744 1.223
-0.27597481 0.12930289 1.223
-0.269113 0.12973176 1.223
-0.17047396 0.12973176 1.223
-0.16501145 0.12476853 1.22425
-0.15613119 0.12235849 1.2258574
-0.28617933 0.13072941 1.2256669
-0.27501297 0.13159029 1.2270001
-0.26411188 0.1333109 1.2252223
-0.255519 0.13498183 1.2252225
-0.24556221 0.13605027 1.2247144
-0.23554866 0.13781929 1.2250001
-0.19191724 0.13830908 1.223
-0.18463697 0.13740654 1.2244999
-0.17538114 0.13598514 1.2256668
-0.16780452 0.13015607 1.2270001
-0.22409019 0.14115928 1.2254001
-0.21442258 0.14294927 1.2260001
-0.2057088 0.14251298 1.2253336
-0.19469626 0.14091277 1.2270001
-0.18178824 0.14091277 1.2270001
-0.1155657 -0.14256704 1.2320001
-0.11299884 -0.13680208 1.234286
-0.10755385 -0.13133255 1.233
-0.10387898 -0.12489845 1.234286
-0.098391213 -0.12217578 1.2333335
-0.094067492 -0.11532843 1.2333336
-0.089104399 -0.11286557 1.2320001
-0.092824973 -0.10871718 1.2360001
-0.085934535 -0.10415684 1.2333335
-0.074253663 -0.101255 1.2320002
-0.06809859 -0.1037684 1.233
-0.082892343 -0.09806218 1.2360001
-0.074076697 -0.096144862 1.2341334
-0.06809859 -0.095119208 1.233
-0.070431396 -0.086684801 1.2360001
-0.068153821 -0.086544536 1.2340001
-0.093964636 -0.011880587 1.2320001
-0.085324213 -0.011880587 1.2320001
-0.087581336 -0.0064873337 1.2333335
-0.10476517 0.0097204801 1.2320001
-0.094269723 0.0032506799 1.2360001
-0.12302738 0.017135074 1.2325716
-0.11651645 0.014869582 1.2335001
-0.10800533 0.011880587 1.2320001
-0.12410948 0.025146963 1.2337501
-0.12307765 0.035299201 1.2342501
-0.11880587 0.039961971 1.2320001
-0.13068645 0.048602398 1.2320001
-0.12528619 0.045902267 1.2320001
-0.11988592 0.042122081 1.2320001
-0.13187259 0.051885515 1.233
-0.12894364 0.050927319 1.2360001
-0.13068645 0.065883249 1.2320001
-0.12866545 0.065952219 1.2333335
-0.13160257 0.075396843 1.2330002
-0.12797448 0.073864862 1.2345002
-0.40271962 0.084008835 1.2337779
-0.39536616 0.086498946 1.2333335
-0.14148699 0.089644425 1.2320001
-0.13612472 0.085101545 1.2340001
-0.12894364 0.081266999 1.2360001
-0.38453791 0.095323481 1.2356001
-0.37647048 0.098444402 1.2340001
-0.14148699 0.095044687 1.2320001
-0.13966615 0.095278762 1.2350001
-0.37618536 0.10243955 1.2352002
-0.36434266 0.10619789 1.2342857
-0.35670775 0.10863391 1.233
-0.141847 0.1054852 1.2320002
-0.35398152 0.11366475 1.2348001
-0.34602866 0.11750358 1.2325002
-0.33481652 0.11988592 1.2320001
-0.14408426 0.11562941 1.2326669
-0.34782276 0.12027516 1.2360001
-0.33156937 0.12244228 1.2360001
-0.32480234 0.12396855 1.2350001
-0.31664008 0.12618038 1.2344002
-0.30605346 0.12826124 1.2336
-0.29917479 0.12852634 1.2320001
-0.16092795 0.12852634 1.2320001
-0.15476738 0.12623583 1.2345456
-0.14519703 0.12081695 1.2360001
-0.30285501 0.13165253 1.2360001
-0.29464769 0.13210566 1.2337143
-0.28503662 0.1335388 1.2344002
-0.27421781 0.13527107 1.2344002
-0.26576498 0.13775063 1.2340001
-0.25527483 0.13898534 1.2328001
-0.24571213 0.13932689 1.2320001
-0.1717411 0.13709103 1.2352002
-0.16573174 0.13328034 1.2340001
-0.15819976 0.13111076 1.2360001
-0.25246945 0.14194636 1.2360001
-0.24773373 0.14280024 1.2340001
-0.23404896 0.14302993 1.2360001
-0.22472402 0.1447005 1.2336
-0.21448667 0.1473901 1.2344
-0.20493193 0.14612396 1.2346667
-0.19554175 0.14267825 1.2342857
-0.18432893 0.14261164 1.2337145
-0.17768164 0.14236249 1.2333335
-0.2112942 0.15061484 1.2360001
-0.11896805 -0.1418885 1.245
-0.11646157 -0.13512346 1.2441111
-0.1134205 -0.12868851 1.244
-0.10777441 -0.12475614 1.2418001
-0.10358921 -0.11667118 1.2437999
-0.098516926 -0.11345433 1.2427143
-0.094332464 -0.10524697 1.245
-0.091317981 -0.098594308 1.245
-0.08526969 -0.095517397 1.2437999
-0.076014534 -0.091692843 1.2422001
-0.074470475 -0.085049145 1.245
-0.067562945 -0.081727251 1.243
-0.0720357 -0.079675846 1.245
-0.067888185 -0.077929534 1.245
-0.085731164 -0.0028356663 1.2442
-0.079675846 -0.00327435 1.245
-0.10150485 0.0098230503 1.245
-0.094507195 0.0054519903 1.2438892
-0.088407449 0.0054572499 1.245
-0.11299936 0.018071782 1.2418001
-0.10684755 0.014901287 1.2436666
-0.093500882 0.017099382 1.245
-0.11426371 0.024889296 1.2433335
-0.11384197 0.034429733 1.2422308
-0.1222424 0.0458409 1.245
-0.11896805 0.04474945 1.245
-0.12723821 0.056142293 1.2424546
-0.1245869 0.065017395 1.243
-0.12275621 0.075399153 1.2431818
-0.11803252 0.076869264 1.245
-0.39927521 0.088123411 1.2410001
-0.13236643 0.087398112 1.2410001
-0.12760691 0.085436136 1.2441112
-0.39506042 0.093518198 1.2440001
-0.38621986 0.099002846 1.2410001
-0.13404819 0.094818041 1.2431539
-0.1290094 0.09233667 1.245
-0.11096408 0.097866684 1.245
-0.39057165 0.10117873 1.2410001
-0.38590825 0.10247401 1.2435
-0.37218446 0.10805355 1.245
-0.3688128 0.10770639 1.2410001
-0.13795345 0.10491508 1.2423334
-0.37000155 0.11023645 1.245
-0.3633368 0.11522031 1.2445999
-0.35759261 0.11798793 1.2423334
-0.13799942 0.11532672 1.2434
-0.36126995 0.12115095 1.245
-0.35495794 0.12085901 1.2420001
-0.34487802 0.1229376 1.2410001
-0.33580279 0.12406147 1.245
-0.32525209 0.12769964 1.245
-0.31576043 0.12956958 1.2420001
-0.15122412 0.12946525 1.2410001
-0.14496197 0.12643535 1.2432859
-0.13861415 0.12115095 1.245
-0.32197773 0.13424835 1.245
-0.31681818 0.13404988 1.245
-0.30332774 0.13633461 1.2441111
-0.29433778 0.13735834 1.2435
-0.2842941 0.13786423 1.2438571
-0.27772361 0.13759196 1.2423334
-0.16223241 0.13773617 1.2420001
-0.15505087 0.1354517 1.2422501
-0.148996 0.13460007 1.2442
-0.29578295 0.14079705 1.245
-0.28705135 0.14079705 1.245
-0.27395394 0.14079705 1.245
-0.26414841 0.14269195 1.2425001
-0.25548685 0.1457358 1.2436666
-0.24433677 0.14640141 1.2431334
-0.23523192 0.14803025 1.2434
-0.22592986 0.14856315 1.243
-0.21867661 0.14904824 1.2410001
-0.20235747 0.14904824 1.2410001
-0.19505569 0.14820048 1.243
-0.18606615 0.14765565 1.243
-0.17171592 0.1419484 1.2423334
-0.16517583 0.14228286 1.2436666
-0.1549859 0.1418885 1.245
-0.23684464 0.15171155 1.245
-0.22418384 0.15214813 1.245
-0.21502571 0.15415777 1.243909
-0.20642461 0.15227555 1.2436666
-0.1946419 0.15171155 1.245
-0.18882085 0.15171155 1.245
-0.1216375 -0.13917083 1.25
-0.11725417 -0.13259584 1.25
-0.11725417 -0.1282125 1.25
-0.10454249 -0.1124325 1.25
-0.1029048 -0.10470054 1.2548182
-0.098125853 -0.10415402 1.250625
-0.10043883 -0.098231375 1.2590001
-0.09431652 -0.095325097 1.2543076
-0.08620555 -0.091684729 1.25
-0.091609038 -0.088297866 1.2590001
-0.085315041 -0.085307918 1.2542354
-0.079557501 -0.084817499 1.25
-0.081059664 -0.076646529 1.2580001
-0.075158395 -0.075497977 1.2520001
-0.066358797 -0.073664345 1.25
-0.073137671 -0.067990467 1.2576667
-0.066925488 -0.065191314 1.2544286
-0.066223398 -0.058497336 1.2590001
-0.084379166 -0.0010958334 1.25
-0.078899994 -0.0010958334 1.25
-0.096068054 0.0098625002 1.25
-0.085145697 0.0056005409 1.2516501
-0.078422107 0.003568362 1.251125
-0.10356809 0.016236303 1.2515
-0.095674679 0.014583012 1.25
-0.087183706 0.015114051 1.256
-0.10511756 0.025461115 1.2521431
-0.096287511 0.024046186 1.252889
-0.089259565 0.022041153 1.2570001
-0.11170778 0.036995333 1.2533334
-0.1049787 0.032580562 1.2567142
-0.098231375 0.032007977 1.2590001
-0.12253023 0.048647691 1.2516667
-0.12337024 0.055075265 1.2565
-0.12195273 0.061996989 1.2532856
-0.11823204 0.066140503 1.2552222
-0.1216375 0.079995833 1.25
-0.11610101 0.073559232 1.252375
-0.12309861 0.085840285 1.25
-0.11659623 0.085933387 1.2547503
-0.39669168 0.097529173 1.25
-0.13113473 0.098990284 1.25
-0.12464533 0.095273174 1.2527502
-0.1167076 0.094026215 1.2550002
-0.382992 0.10706116 1.2590001
-0.37857711 0.10926861 1.2590001
-0.13357683 0.10550245 1.2509999
-0.12624189 0.10345849 1.2576667
-0.11396623 0.10129971 1.256
-0.37357134 0.11239919 1.2570001
-0.36856529 0.11360139 1.25
-0.13392596 0.11502402 1.2522225
-0.34656912 0.12692818 1.2590001
-0.33639863 0.12752548 1.2540001
-0.32984585 0.1282125 1.25
-0.1413625 0.1282125 1.25
-0.13736911 0.12504491 1.2556
-0.33295652 0.13207889 1.2590001
-0.32609004 0.13351107 1.2524
-0.31204197 0.13619767 1.2514286
-0.30792916 0.13917083 1.25
-0.14433043 0.13529436 1.2522942
-0.13972752 0.13092579 1.2550001
-0.3222872 0.14017287 1.2590001
-0.31456113 0.14105585 1.2590001
-0.30288336 0.14207874 1.2563335
-0.29366425 0.14276569 1.2546
-0.28365561 0.14385009 1.2546667
-0.27497306 0.14613628 1.2546428
-0.26676649 0.14781652 1.2564001
-0.18081249 0.14793751 1.25
-0.17536525 0.14741965 1.2535715
-0.16448341 0.14763993 1.2536668
-0.15413322 0.1467246 1.2566364
-0.14619176 0.14252086 1.2570001
-0.26158243 0.1512101 1.2590001
-0.25531512 0.1517808 1.2564001
-0.24552764 0.15362629 1.2546668
-0.23493534 0.15504311 1.2542499
-0.22514504 0.15680987 1.2527778
-0.21524796 0.15852588 1.2540001
-0.20472226 0.15629345 1.2555001
-0.19556956 0.1555987 1.2539091
-0.18491749 0.15455562 1.2550666
-0.17549001 0.15414359 1.257316
-0.16680402 0.15302062 1.258
-0.23067817 0.16003989 1.2590001
-0.22515954 0.16151153 1.2589999
-0.21494973 0.16159967 1.2574002
-0.20507178 0.16048138 1.2590001
-0.19443925 0.16187942 1.2589999
-0.18579343 0.16151151 1.2589999
-0.10527013 -0.10305392 1.2640001
-0.10219629 -0.094905429 1.2651428
-0.098145463 -0.092043862 1.2650001
-0.095427416 -0.085595727 1.2657143
-0.089017898 -0.081630528 1.2640001
-0.090040676 -0.078924544 1.268
-0.085339867 -0.073938064 1.2663999
-0.081639588 -0.067753188 1.2670001
-0.075719446 -0.064828388 1.2650908
-0.069810718 -0.060945865 1.2640001
-0.072254859 -0.056057069 1.268
-0.065351881 -0.054545261 1.2663999
-0.064844109 -0.047799367 1.268
-0.080891788 0.0099729598 1.2640001
-0.083656445 0.016200799 1.2656
-0.078924544 0.010004519 1.268
-0.092597909 0.028000731 1.265
-0.086636588 0.022215609 1.2670001
-0.11004972 0.038906466 1.268
-0.10540198 0.03639359 1.2656
-0.094347946 0.03441092 1.2661538
-0.12116585 0.047799371 1.268
-0.117037 0.043670528 1.268
-0.12086008 0.054328781 1.2648
-0.11766582 0.054201379 1.2675556
-0.11397167 0.065464459 1.2657143
-0.11202291 0.075867079 1.2651999
-0.10782649 0.075219162 1.268
-0.11207383 0.083224893 1.2657778
-0.10782649 0.081147775 1.268
-0.39116165 0.10748634 1.2640001
-0.38783732 0.10748634 1.2640001
-0.12351952 0.10644557 1.2648
-0.1161408 0.10409891 1.2651428
-0.3835066 0.11004972 1.268
-0.13005877 0.11783101 1.268
-0.12720549 0.11388329 1.2666665
-0.34240496 0.12964848 1.2640001
-0.13460901 0.12618318 1.2648001
-0.34126529 0.13228199 1.268
