# .PCD v0.7 - Point Cloud Data file format
VERSION 0.7
FIELDS x y z
SIZE 4 4 4
TYPE F F F
COUNT 1 1 1
WIDTH 1482
HEIGHT 1
VIEWPOINT 0 0 0 1 0 0 0
POINTS 1482
DATA ascii
-0.34621322 0.0053652003 1.08
-0.35409015 0.013748177 1.0854443
-0.34565601 0.014771196 1.0837271
-0.33990121 0.017989198 1.08
-0.34425101 0.021395708 1.0847501
-0.072129622 0.026119156 1.0805714
-0.074538581 0.035437249 1.0841429
-0.080477998 0.047339998 1.08
-0.078254335 0.04435977 1.0841666
-0.35315213 0.05563616 1.0829
-0.34645581 0.055691775 1.08125
-0.33990121 0.059648398 1.08
-0.083379269 0.054095093 1.0825714
-0.35449243 0.060035009 1.087
-0.34393251 0.064596824 1.0862499
-0.33551949 0.066548824 1.0813333
-0.093243197 0.066779517 1.0837857
-0.087588646 0.062835962 1.086
-0.3401984 0.071470253 1.087
-0.33337066 0.074719928 1.0847142
-0.32853961 0.073850393 1.08
-0.098050542 0.073690206 1.084
-0.099782199 0.080776066 1.0840001
-0.33331418 0.09865506 1.0805714
-0.32711941 0.098940596 1.08
-0.09697938 0.096979372 1.08
-0.33344689 0.10372887 1.0855
-0.32489786 0.10528031 1.0829444
-0.31560943 0.10787646 1.0825555
-0.30771002 0.108882 1.08
-0.1107756 0.108882 1.08
-0.1042944 0.10596281 1.084
-0.097017415 0.10272888 1.085
-0.31369138 0.11225224 1.0851251
-0.30521461 0.11544551 1.0823332
-0.2968218 0.1178766 1.08
-0.12222626 0.11768023 1.0807999
-0.11454994 0.1150604 1.0834666
-0.1083837 0.11257558 1.0864
-0.30286008 0.12239397 1.086
-0.29468295 0.1233902 1.0841175
-0.28532475 0.1250473 1.0826249
-0.27614999 0.1284492 1.08
-0.26605079 0.1297116 1.08
-0.12404054 0.12380604 1.0842499
-0.11911708 0.12102295 1.087
-0.28235173 0.13093871 1.0862501
-0.27481824 0.13337205 1.0840832
-0.26504704 0.13395393 1.083647
-0.25563601 0.13611653 1.082
-0.24522118 0.1391796 1.08
-0.23636103 0.13872023 1.0813333
-0.1252256 0.13473138 1.0848889
-0.24204591 0.14198756 1.087
-0.23307312 0.14283331 1.0851429
-0.22493555 0.14444077 1.0839285
-0.21468243 0.14539963 1.084
-0.20458578 0.14638628 1.0836364
-0.19496338 0.14712729 1.0855333
-0.18538588 0.14803831 1.0832222
-0.17488642 0.14830308 1.0830001
-0.16454645 0.1479225 1.0839167
-0.15506674 0.14811188 1.0822223
-0.14486042 0.14864761 1.08
-0.13371465 0.14826031 1.0817778
-0.1274206 0.1451114 1.0847
-0.19154027 0.15151693 1.087
-0.18486971 0.15151693 1.087
-0.1610463 0.15151693 1.087
-0.15467629 0.15321186 1.0865384
-0.14581814 0.15343738 1.0862499
-0.13565047 0.15183659 1.085875
-0.12864645 0.15151693 1.087
-0.28484479 -0.14098378 1.0940001
-0.2519663 -0.14137039 1.097
-0.24487403 -0.14278649 1.0953846
-0.23561738 -0.14290786 1.0963078
-0.22393949 -0.14301905 1.097
-0.21419944 -0.14368112 1.0944375
-0.20603038 -0.14322937 1.0965
-0.1956532 -0.14222524 1.097
-0.1859293 -0.14169095 1.097
-0.28627515 -0.13545236 1.0958
-0.26086971 -0.1318682 1.09
-0.25431058 -0.13467549 1.0921739
-0.24494657 -0.13514224 1.09264
-0.2348669 -0.13499592 1.09208
-0.22464399 -0.13536665 1.0951
-0.21392113 -0.13525841 1.09424
-0.20441847 -0.13537592 1.0938749
-0.19477531 -0.13499208 1.0932307
-0.18527077 -0.1353568 1.095
-0.17674002 -0.13395791 1.0914286
-0.2863923 -0.12877949 1.0962501
-0.25418076 -0.1290015 1.09
-0.24844733 -0.1290015 1.09
-0.23268047 -0.12756816 1.09
-0.22459276 -0.12572363 1.0920401
-0.2156799 -0.12556161 1.0925455
-0.20582877 -0.12760758 1.0903335
-0.19398004 -0.12565704 1.09
-0.1844791 -0.12521684 1.0903201
-0.17699218 -0.12581627 1.09
-0.11203844 -0.12069377 1.097
-0.10482566 -0.12117463 1.097
-0.099055439 -0.12021291 1.097
-0.19079483 -0.11721617 1.09
-0.18469739 -0.11767121 1.09
-0.1777354 -0.11944583 1.09
-0.11303554 -0.11591208 1.0927
-0.10507078 -0.11498719 1.0926087
-0.095727347 -0.11422667 1.0960625
-0.10380285 -0.10557243 1.09
-0.094876193 -0.10465432 1.0907408
-0.086899847 -0.10244139 1.0941
-0.10395429 -0.094636947 1.0913913
-0.09464445 -0.094641924 1.0904801
-0.085082047 -0.094644457 1.0904801
-0.1126464 -0.081665009 1.0908
-0.10540557 -0.085552275 1.0948277
-0.095038071 -0.085432388 1.095
-0.085225008 -0.085218087 1.0922801
-0.079603083 -0.081521235 1.0940001
-0.11412241 -0.075484626 1.0939524
-0.10722992 -0.079340525 1.097
-0.094912715 -0.077897958 1.097
-0.086116165 -0.078422531 1.097
-0.079712227 -0.078750521 1.0955
-0.36024863 0.012422367 1.09
-0.35642636 0.017518722 1.09
-0.35458216 0.021713279 1.0926667
-0.34878182 0.021978034 1.09
-0.0716675 0.029622566 1.09
-0.071940295 0.034533214 1.0941668
-0.076702483 0.045066804 1.0936667
-0.08233127 0.054570746 1.092
-0.079457559 0.051697034 1.092
-0.36063874 0.067319229 1.097
-0.35427418 0.065150976 1.0937647
-0.34687069 0.066889666 1.09
-0.090778835 0.069756366 1.09
-0.086547062 0.065749668 1.090875
-0.3535842 0.070781484 1.0960001
-0.34472761 0.074708827 1.0953333
-0.33810225 0.076518096 1.0910001
-0.094265334 0.076126896 1.0926471
-0.086858243 0.075440623 1.0951053
-0.097847223 0.083623484 1.0964
-0.087336823 0.082056664 1.09475
-0.34198853 0.10600433 1.09425
-0.33627987 0.10737308 1.0916001
-0.32584822 0.10989016 1.09
-0.10176785 0.10941238 1.09
-0.096872047 0.10753206 1.0910001
-0.3423664 0.11059588 1.097
-0.33469641 0.11188633 1.0955001
-0.32519943 0.11465514 1.093889
-0.31606543 0.11739226 1.0927691
-0.11272846 0.11923894 1.0916001
-0.10447671 0.11547952 1.0933685
-0.096964046 0.11256608 1.0951251
-0.32178593 0.12098227 1.097
-0.31340769 0.12368954 1.0961429
-0.30532774 0.1272494 1.0940833
-0.29494044 0.12880863 1.0916001
-0.28953668 0.1290015 1.09
-0.12189261 0.12840274 1.0914
-0.11555495 0.12434644 1.0941579
-0.10803134 0.12085405 1.097
-0.30197483 0.13175336 1.097
-0.29492208 0.13257042 1.0958
-0.28550649 0.1346083 1.0936
-0.27520233 0.13827436 1.0937999
-0.26506326 0.13925631 1.0955
-0.25703165 0.13906564 1.0940001
-0.1223412 0.13404119 1.0937002
-0.2729997 0.14226766 1.0965
-0.26470557 0.1423635 1.0960001
-0.25439319 0.14461453 1.0960625
-0.24519241 0.14646296 1.0952941
-0.23626786 0.14674476 1.0927273
-0.22674866 0.14829402 1.0913334
-0.21786919 0.14811283 1.09
-0.20353571 0.14811283 1.09
-0.12428164 0.14535932 1.092625
-0.24331094 0.15098742 1.097
-0.23481682 0.15165707 1.0966251
-0.22502281 0.1524561 1.0958463
-0.21441661 0.15313262 1.0942106
-0.20482209 0.15386187 1.0946112
-0.19571505 0.15439051 1.0947335
-0.18566214 0.15453874 1.0958002
-0.17497757 0.15457755 1.0958096
-0.16544615 0.15553407 1.0943888
-0.15639441 0.15671293 1.09
-0.14361979 0.15728776 1.0911429
-0.13463576 0.15645143 1.0927694
-0.12730476 0.15330182 1.0936667
-0.16204701 0.16108532 1.097
-0.15471628 0.16111596 1.0946667
-0.14553776 0.16092503 1.097
-0.13752358 0.16060446 1.097
-0.23830429 -0.15015109 1.105
-0.29470411 -0.14249747 1.1076249
-0.28912205 -0.14311233 1.103
-0.24191761 -0.14721249 1.1023334
-0.23424378 -0.14753775 1.1014
-0.22679082 -0.14660387 1.102
-0.2026941 -0.14381629 1.1010001
-0.30165708 -0.13329035 1.1079999
-0.29395047 -0.13474295 1.103476
-0.30160311 -0.12578939 1.1079999
-0.29495272 -0.12529509 1.1061578
-0.28859779 -0.12644251 1.1010001
-0.12130034 -0.12439321 1.1034
-0.11608111 -0.12365537 1.1013076
-0.10713831 -0.1245121 1.1010001
-0.30063179 -0.11801862 1.108
-0.29645506 -0.11714442 1.1079999
-0.11775562 -0.11872083 1.1010001
-0.092433855 -0.11426812 1.1032858
-0.087301537 -0.11155364 1.1065
-0.085862972 -0.10660618 1.1027272
-0.10231226 -0.080112427 1.1010001
-0.11292958 -0.071425535 1.101
-0.10504702 -0.074160315 1.101
-0.095782898 -0.073072083 1.101
-0.08464472 -0.073313996 1.101
-0.078324035 -0.071553528 1.103
-0.11405497 -0.065571018 1.1036109
-0.10564326 -0.064934053 1.1055598
-0.095332272 -0.064589396 1.1033702
-0.08473365 -0.064981736 1.102857
-0.077566296 -0.064437337 1.1044445
-0.10315702 -0.05886361 1.108
-0.094014071 -0.056600079 1.1068331
-0.084277429 -0.055482522 1.1071248
-0.077261753 -0.056177925 1.1075714
-0.081593119 -0.049538679 1.108
-0.071554698 0.037713911 1.103
-0.068506964 0.035550732 1.1058334
-0.073481694 0.045254659 1.1049999
-0.081953868 0.057111185 1.1041666
-0.07779482 0.051972311 1.1046667
-0.36002332 0.064669073 1.1010001
-0.084313422 0.062990248 1.1055
-0.3608095 0.073797971 1.1046
-0.35475126 0.075686805 1.1035384
-0.34810853 0.078324035 1.103
-0.3536585 0.083094291 1.1079999
-0.34583446 0.082989067 1.105
-0.33782351 0.082042851 1.1010001
-0.094772369 0.085901685 1.1020908
-0.089764528 0.084938481 1.1010001
-0.34871346 0.090335242 1.108
-0.34651038 0.10906873 1.1010001
-0.35119197 0.11680987 1.1048
-0.34565136 0.11601415 1.1052725
-0.33602253 0.11752935 1.1038889
-0.32913661 0.11872083 1.1010001
-0.096858263 0.11703388 1.1032858
-0.35162753 0.12238968 1.108
-0.34871346 0.12238968 1.108
-0.33404776 0.12250859 1.1068751
-0.32544088 0.12536508 1.1050665
-0.31700113 0.12673891 1.1035554
-0.11244696 0.12789032 1.1010001
-0.10520068 0.124245 1.1043332
-0.097134665 0.12141833 1.108
-0.31471631 0.1311318 1.108
-0.30474648 0.13552001 1.1075714
-0.29492381 0.13730969 1.1030002
-0.28815681 0.13827576 1.103
-0.27894568 0.13995545 1.1010001
-0.12183738 0.13827576 1.103
-0.11593701 0.13366179 1.1035261
-0.10946498 0.13077675 1.105
-0.30014613 0.14084527 1.108
-0.2938 0.14291748 1.1079999
-0.28480232 0.14412716 1.1066664
-0.27568051 0.14621343 1.1033846
-0.26495016 0.14671192 1.101
-0.2569389 0.14883538 1.1010001
-0.12200683 0.14383909 1.1032857
-0.11872024 0.14136572 1.107
-0.27411404 0.15172434 1.1079999
-0.26468346 0.15298988 1.1068332
-0.25512531 0.15501672 1.1059998
-0.24527285 0.1549724 1.1025236
-0.23458923 0.15690167 1.1018571
-0.22521566 0.15781184 1.101
-0.21606915 0.1587081 1.101
-0.20713405 0.15887356 1.1010001
-0.19497241 0.15925966 1.101
-0.18435511 0.15925965 1.1010001
-0.17663342 0.15925965 1.1010001
-0.12543064 0.15543509 1.1040001
-0.25157878 0.1602722 1.108
-0.24575071 0.16066073 1.108
-0.23603722 0.16143781 1.108
-0.22468822 0.16283432 1.1063333
-0.21516855 0.16331723 1.1055833
-0.20478156 0.16348626 1.1054614
-0.1950516 0.16405636 1.1051109
-0.18518229 0.16450252 1.1041051
-0.17548977 0.1638761 1.1044375
-0.16522631 0.16407561 1.1034999
-0.15406775 0.16702205 1.1044374
-0.14490405 0.16665767 1.1052222
-0.1352111 0.1637968 1.1039999
-0.12821776 0.16124354 1.108
-0.15153007 0.17192836 1.108
-0.14861605 0.17192836 1.108
-0.23298995 -0.15110226 1.1120001
-0.30122969 -0.14135373 1.1120001
-0.29863003 -0.14460325 1.1120001
-0.31279466 -0.13000529 1.115
-0.30577904 -0.13528797 1.1120001
-0.32127422 -0.12213326 1.1190001
-0.31462669 -0.12394614 1.115105
-0.30737877 -0.12530616 1.1120002
-0.32209173 -0.1180458 1.1190001
-0.31457716 -0.11577673 1.1178573
-0.30559024 -0.11477193 1.11368
-0.29801822 -0.11218243 1.1127501
-0.084812239 -0.11015843 1.1120001
-0.31097382 -0.10888989 1.1190001
-0.30631414 -0.10766365 1.1190001
-0.11139509 -0.055114996 1.1137275
-0.10456109 -0.054717153 1.1126
-0.094839297 -0.052224286 1.1120001
-0.088711649 -0.051667225 1.1120001
-0.078963116 -0.05361693 1.1120001
-0.11167367 -0.045253001 1.1174002
-0.10471556 -0.045013785 1.1163332
-0.094876215 -0.044988751 1.1156999
-0.085172214 -0.044569828 1.1139642
-0.078607522 -0.043938421 1.113875
-0.10359255 -0.036689028 1.1190002
-0.095156029 -0.03727762 1.1190002
-0.084837086 -0.034969442 1.1184286
-0.077671655 -0.033822 1.1171539
-0.078479201 -0.02844871 1.1190001
-0.065692887 0.037519328 1.1137143
-0.071942188 0.049155284 1.114
-0.067547254 0.043467849 1.1167001
-0.080912828 0.059466053 1.1120001
-0.075693317 0.055397827 1.1159376
-0.069650292 0.050030489 1.1190001
-0.082859822 0.065990053 1.1143638
-0.078898683 0.063709125 1.118
-0.35972089 0.078963116 1.1120001
-0.085346133 0.071612269 1.1190001
-0.36118096 0.08493191 1.1135001
-0.35671386 0.08613155 1.1122502
-0.34932244 0.08806175 1.1120001
-0.3548466 0.090661362 1.1120001
-0.095535621 0.092611067 1.1120001
-0.35133383 0.12755179 1.1163334
-0.34476769 0.12495139 1.1144445
-0.33544612 0.12685947 1.1131251
-0.32755071 0.1296555 1.1120001
-0.10298846 0.12776189 1.1153334
-0.097894438 0.12628792 1.1166667
-0.33389664 0.13201912 1.1178572
-0.32493705 0.13465193 1.1160002
-0.31580499 0.13592529 1.1142858
-0.30731702 0.13839661 1.1128571
-0.11255194 0.13721411 1.1140001
-0.10618572 0.13302907 1.1174001
-0.098099001 0.13047168 1.1190001
-0.32274571 0.14028157 1.1190001
-0.31489778 0.14067397 1.1190001
-0.30409998 0.14462458 1.1153637
-0.29581383 0.14785275 1.1120001
-0.28758171 0.14915256 1.1120001
-0.12123358 0.14763132 1.1152501
-0.11528027 0.14312215 1.1182002
-0.29310194 0.15232047 1.1151999
-0.28476575 0.15347925 1.115077
-0.27524748 0.15722659 1.1139288
-0.26451021 0.15857615 1.1120001
-0.25833613 0.1589011 1.1120001
-0.12260384 0.15587859 1.1162858
-0.27206445 0.16232447 1.1176667
-0.26465148 0.16259648 1.1154546
-0.25480342 0.16452698 1.1151177
-0.24478666 0.1663699 1.1152633
-0.23575658 0.16578484 1.1141818
-0.22565761 0.16763312 1.1143
-0.21476804 0.16815139 1.113
-0.206019 0.16799973 1.1120001
-0.19594552 0.16864963 1.1120001
-0.18522213 0.16864963 1.1120001
-0.17408161 0.16855218 1.1135
-0.16649093 0.16844168 1.1131999
-0.13309933 0.16857658 1.1136667
-0.12672356 0.16489302 1.11625
-0.22170374 0.17167325 1.1190001
-0.21445282 0.17234741 1.117
-0.20477131 0.17218131 1.1152223
-0.19485736 0.1725421 1.1150835
-0.18467422 0.17281179 1.1145715
-0.1760793 0.17255826 1.1171
-0.16494617 0.17422362 1.1167895
-0.15544021 0.17602865 1.1151578
-0.14486147 0.17497683 1.1142942
-0.13563167 0.17249832 1.1155385
-0.33170816 -0.11210258 1.125
-0.32563755 -0.11434431 1.1233333
-0.31750017 -0.11247874 1.123
-0.33134553 -0.10726777 1.126
-0.32485303 -0.10543297 1.1249999
-0.31550735 -0.10522223 1.1234998
-0.30596966 -0.10485339 1.1235455
-0.32261088 -0.097187109 1.1260002
-0.31526601 -0.096175835 1.1257272
-0.30831257 -0.099041708 1.126
-0.32081616 -0.087854274 1.126
-0.31711444 -0.088101059 1.126
-0.10140315 -0.032488391 1.123
-0.095513888 -0.032493826 1.1232001
-0.088112451 -0.031011645 1.123
-0.094171882 -0.028231824 1.126
-0.085291117 -0.027114205 1.1247501
-0.0779064 -0.02563801 1.1248749
-0.064743005 0.044805653 1.1246667
-0.071962938 0.056683514 1.1245
-0.068019688 0.051262204 1.1245
-0.076269418 0.062463671 1.125
-0.083831251 0.071996249 1.125
-0.34851182 0.12896906 1.123
-0.35141706 0.13128784 1.126
-0.34385031 0.13288924 1.1245002
-0.3360875 0.13667049 1.1242502
-0.32980639 0.13881403 1.123
-0.10418247 0.13573489 1.1246667
-0.098856971 0.1355602 1.1253999
-0.33134553 0.14313336 1.126
-0.32495642 0.14423947 1.1247145
-0.31481913 0.14585879 1.1241667
-0.30716294 0.14865899 1.123
-0.11415541 0.14688647 1.1245
-0.1094251 0.14195821 1.1245
-0.30422518 0.15260409 1.1246667
-0.29483634 0.15698434 1.1248002
-0.28717342 0.15811756 1.1237501
-0.12117396 0.15417695 1.1237501
-0.11841543 0.15369269 1.125625
-0.28446087 0.16235192 1.1251
-0.27607769 0.165135 1.1239001
-0.26541409 0.1676978 1.1242858
-0.25892264 0.16834892 1.123
-0.12252397 0.16501139 1.1246365
-0.11944233 0.16188878 1.126
-0.25509411 0.17142327 1.1247143
-0.24570085 0.17304826 1.1242858
-0.23508944 0.17241076 1.1247144
-0.22415586 0.17518686 1.1247501
-0.21359684 0.17727278 1.1242858
-0.20504749 0.17744742 1.1245
-0.19548866 0.17751504 1.1233751
-0.18459386 0.17802441 1.124
-0.1744528 0.1770125 1.123
-0.16834892 0.1781939 1.123
-0.14115912 0.17866993 1.126
-0.13523635 0.17709053 1.126
-0.12759742 0.17216925 1.1248
-0.19446395 0.18064418 1.126
-0.18367782 0.1811395 1.1255714
-0.17407697 0.18130772 1.1246667
-0.16449636 0.18239549 1.1246156
-0.15481266 0.18341094 1.1248001
-0.14653133 0.18163623 1.1248
-0.33503279 -0.10275584 1.1306667
-0.32988089 -0.1010446 1.13
-0.070832916 -0.1027576 1.138
-0.3401975 -0.091783494 1.138
-0.33506685 -0.094182059 1.134889
-0.32712981 -0.093889005 1.1305333
-0.33177295 -0.086573556 1.138
-0.32539871 -0.085323513 1.1344
-0.093803212 -0.023597179 1.1310668
-0.085132785 -0.022250917 1.1303637
-0.077599615 -0.022124143 1.13
-0.094344348 -0.014948232 1.1369568
-0.084373251 -0.016073728 1.1350527
-0.078083999 -0.01569128 1.1332
-0.092781141 -0.008180703 1.138
-0.06174802 0.046375666 1.1315
-0.05865426 0.046724577 1.1340001
-0.070334964 0.057456732 1.13
-0.06504494 0.054353997 1.135
-0.058196053 0.05154508 1.138
-0.0802413 0.068353698 1.13
-0.073374592 0.065186083 1.133
-0.06883762 0.061854094 1.138
-0.082512617 0.073710389 1.1340001
-0.077248365 0.071269497 1.1370001
-0.35258594 0.13620184 1.1340001
-0.34562379 0.13720159 1.1305715
-0.10322399 0.13928305 1.13
-0.0980727 0.1396793 1.13
-0.35083905 0.14133328 1.138
-0.34342715 0.14355066 1.1362222
-0.33617228 0.14439313 1.132
-0.32624856 0.1489252 1.13
-0.31997457 0.14958563 1.13
-0.11034954 0.14812686 1.1340001
-0.10541278 0.14470766 1.1337646
-0.09841986 0.14216202 1.1340001
-0.33204275 0.15011513 1.1340001
-0.3243331 0.1554063 1.1358824
-0.31493083 0.15503982 1.1339998
-0.30463523 0.15727341 1.1306667
-0.29818064 0.15949197 1.13
-0.11450541 0.15464343 1.1332
-0.10874349 0.15064465 1.138
-0.30384442 0.16253574 1.1374286
-0.29449576 0.16493967 1.1337649
-0.28488883 0.16775568 1.1322857
-0.2746025 0.16951823 1.1308
-0.11776614 0.16464356 1.1336666
-0.29031518 0.17059758 1.138
-0.28565946 0.17126268 1.138
-0.27336094 0.17364636 1.1374286
-0.2647467 0.17502089 1.1356002
-0.25553685 0.17634889 1.1322223
-0.244552 0.17742157 1.1316667
-0.23508295 0.17827462 1.1314546
-0.2275739 0.17876601 1.1316
-0.21793933 0.17930463 1.13
-0.13273188 0.17916226 1.1316
-0.12457328 0.17504521 1.1331999
-0.11871995 0.17159523 1.138
-0.25439987 0.18057404 1.138
-0.24375834 0.18190424 1.138
-0.23245168 0.18256934 1.138
-0.2238761 0.18302053 1.1366667
-0.21471305 0.18343581 1.1343637
-0.20469916 0.18410976 1.1342858
-0.19559176 0.18565194 1.1343077
-0.18640213 0.18491441 1.1325001
-0.17583576 0.18598326 1.1317778
-0.16548005 0.18781048 1.132
-0.15554734 0.18828872 1.1316
-0.14435819 0.18524592 1.1334287
-0.13632502 0.18373388 1.1350909
-0.12769878 0.18057404 1.138
-0.16508861 0.19099002 1.1366667
-0.15707412 0.19186902 1.1340001
-0.14864935 0.19055051 1.138
-0.081164435 -0.10420586 1.143
-0.076077551 -0.10359485 1.1428666
-0.068018809 -0.10102794 1.141
-0.081590489 -0.099721707 1.149
-0.075546749 -0.099721707 1.149
-0.06808164 -0.098934464 1.1476668
-0.33682713 -0.084760658 1.1437693
-0.33744216 -0.079575911 1.149
-0.084167011 -0.01102233 1.1430001
-0.078021578 -0.011003044 1.141
-0.083980866 -0.0068562641 1.1450001
-0.077871673 -0.0076828138 1.1436666
-0.061755028 0.058418438 1.1423334
-0.056131959 0.056910023 1.1450001
-0.064830504 0.064978413 1.1452858
-0.058926467 0.062955625 1.149
-0.082166463 0.078160092 1.1430001
-0.074841589 0.076098941 1.1440003
-0.068374738 0.07239864 1.1470001
-0.083605073 0.081590489 1.149
-0.076554038 0.081590489 1.149
-0.35217425 0.14587879 1.1423334
-0.34702164 0.14695124 1.1434
-0.10102794 0.14804095 1.141
-0.098476253 0.14788169 1.1423334
-0.35255149 0.15008621 1.149
-0.34650776 0.1510935 1.149
-0.33579054 0.15417223 1.1472858
-0.11103071 0.15804371 1.141
-0.10514347 0.15542611 1.1445793
-0.09844353 0.15320364 1.1482
-0.3313984 0.16015911 1.149
-0.32373303 0.16327512 1.1454002
-0.31434041 0.16369206 1.1437502
-0.30553478 0.16720487 1.1455002
-0.11238815 0.1660815 1.1425999
-0.10689776 0.16266446 1.1482002
-0.30319428 0.17157507 1.149
-0.29461274 0.17371801 1.1454003
-0.28540614 0.17600137 1.1450001
-0.27567792 0.17718771 1.1435001
-0.26807415 0.17904952 1.141
-0.12103347 0.17904952 1.141
-0.11556468 0.17510848 1.1446668
-0.27366132 0.1828492 1.1481112
-0.26440528 0.18374991 1.1453334
-0.25452191 0.18540011 1.1440771
-0.24580842 0.18565331 1.1436667
-0.23560338 0.18713173 1.1430001
-0.2258274 0.18761443 1.1425385
-0.21624298 0.18876474 1.1427143
-0.20705728 0.18855214 1.141
-0.19305339 0.18905228 1.141
-0.18421485 0.18921797 1.1420001
-0.14103901 0.18905228 1.141
-0.13444705 0.1881613 1.1416668
-0.12534307 0.18507516 1.1450002
-0.11785293 0.18097644 1.149
-0.2518225 0.1903778 1.149
-0.24448368 0.19124119 1.149
-0.23469858 0.19239239 1.149
-0.224178 0.19328775 1.149
-0.21475071 0.19328836 1.1476667
-0.20565021 0.19299692 1.1454002
-0.19539584 0.19239148 1.143
-0.18522777 0.19210684 1.1438571
-0.17404677 0.19210684 1.1438571
-0.16438426 0.1953643 1.1441112
-0.15463565 0.19609359 1.1439334
-0.14522502 0.19330011 1.1424546
-0.13577549 0.19275691 1.1457274
-0.12893312 0.1903778 1.149
-0.16318098 0.2004507 1.149
-0.15814453 0.2004507 1.149
-0.080711484 -0.094893031 1.1556667
-0.075744174 -0.095977411 1.1540666
-0.068514712 -0.095852979 1.1550001
-0.33558449 -0.079852939 1.153
-0.062914334 0.068580404 1.1538
-0.056129556 0.064455353 1.1547778
-0.071891055 0.078977153 1.155
-0.067958325 0.074044146 1.1570001
-0.078842141 0.083896123 1.153
-0.35318053 0.15252203 1.156
-0.34498772 0.15444189 1.1547778
-0.33833459 0.15820472 1.1543332
-0.10006887 0.15869507 1.153
-0.098047279 0.15397803 1.153
-0.33382502 0.16296408 1.1545999
-0.325369 0.16842081 1.155
-0.31570551 0.16880304 1.153
-0.11017684 0.16880304 1.153
-0.10468248 0.16540116 1.1543334
-0.32356274 0.17141728 1.1570001
-0.31499752 0.17231886 1.1570001
-0.30572036 0.17434807 1.1552857
-0.295966 0.17863084 1.1538
-0.11199007 0.17574507 1.1543332
-0.29333809 0.18184048 1.1562001
-0.28475511 0.18330297 1.1551819
-0.27632695 0.18665251 1.1545999
-0.26602536 0.18874581 1.1538
-0.25977474 0.18901898 1.153
-0.12099884 0.1878289 1.155
-0.11705034 0.18495166 1.1559999
-0.26371887 0.19170333 1.1570001
-0.25484526 0.19387114 1.1554
-0.24514097 0.19550849 1.1554999
-0.23490985 0.19663933 1.155
-0.22520858 0.19815449 1.1548181
-0.21559425 0.19737886 1.1545999
-0.20522738 0.19778915 1.1570001
-0.19474816 0.1981933 1.1557999
-0.1853323 0.19703677 1.1552222
-0.17455022 0.19682081 1.1547143
-0.16779225 0.19912694 1.153
-0.1440348 0.19871426 1.155
-0.13248976 0.19587159 1.1536666
-0.12651308 0.19356775 1.1545
-0.16379319 0.20296383 1.1556667
-0.15532391 0.20251639 1.1558571
-0.14808828 0.20184636 1.1570001
-0.081424803 -0.09058509 1.161
-0.073989987 -0.091663204 1.1632223
-0.064878672 -0.092353709 1.1646365
-0.081457235 -0.088273026 1.1663333
-0.074684113 -0.087982267 1.1670001
-0.063769385 -0.088352874 1.1684999
-0.056365281 -0.081985861 1.169
-0.052706078 0.066764295 1.1636667
-0.07022889 0.078371368 1.161
-0.063933305 0.074327067 1.1642728
-0.056266218 0.072128192 1.1670001
-0.086060092 0.086877145 1.1658001
-0.070712812 0.080961041 1.169
-0.08915963 0.091209278 1.169
-0.36176264 0.15782279 1.169
-0.35585991 0.15742967 1.165
-0.34605539 0.15826945 1.161
-0.098727569 0.15979616 1.161
-0.35267162 0.16149691 1.1674001
-0.34489363 0.16436313 1.1674
-0.33524522 0.16745298 1.1623334
-0.10223598 0.16711254 1.1623334
-0.099067718 0.16341066 1.1650001
-0.33449778 0.17302682 1.1678572
-0.32538199 0.17589076 1.1653334
-0.31515339 0.17746644 1.1634001
-0.30671266 0.1783213 1.1623334
-0.11094129 0.17709894 1.161
-0.10720158 0.1747776 1.1646365
-0.32281935 0.18139373 1.169
-0.31462076 0.18139373 1.169
-0.30357146 0.18346266 1.1676667
-0.29391718 0.18691635 1.1636667
-0.28700793 0.18811031 1.1630001
-0.11364317 0.18548018 1.1632222
-0.1096561 0.18139373 1.169
-0.29104984 0.19164196 1.169
-0.28457594 0.1924482 1.1676668
-0.27545053 0.19444217 1.1655715
-0.26547593 0.1969249 1.1647145
-0.25547031 0.19806583 1.161
-0.24732782 0.19847293 1.161
-0.20457982 0.19847295 1.161
-0.18015237 0.19847295 1.161
-0.17811675 0.19847295 1.161
-0.1333331 0.19847295 1.161
-0.12341657 0.19637661 1.1617274
-0.11714716 0.19525243 1.1660668
-0.26286715 0.20240262 1.169
-0.25515139 0.20241737 1.1667777
-0.2448303 0.20256755 1.1663333
-0.23473316 0.20299734 1.1646365
-0.22462624 0.20399635 1.164111
-0.21500576 0.20305081 1.1647145
-0.20464598 0.20328984 1.1644667
-0.19439849 0.2051623 1.163
-0.18478742 0.20419085 1.1645554
-0.17579782 0.20393489 1.1670001
-0.1655982 0.20645387 1.1650001
-0.15426265 0.2061955 1.1615001
-0.14485091 0.20511562 1.165
-0.13618854 0.20188369 1.1655713
-0.12544522 0.20092306 1.1633999
-0.19164196 0.21008877 1.169
-0.16397172 0.21008877 1.169
-0.081422754 -0.083481751 1.1756667
-0.075138226 -0.083369061 1.1740668
-0.065161541 -0.083794944 1.1732355
-0.058614809 -0.083294727 1.1730001
-0.073850028 -0.078566983 1.177
-0.065779589 -0.078677543 1.177
-0.057374615 -0.078673519 1.1756667
-0.063863419 0.078286916 1.1750002
-0.055148151 0.076685302 1.1748183
-0.084954552 0.088394009 1.177
-0.072104082 0.08343675 1.1750001
-0.06810122 0.081515096 1.177
-0.091833465 0.092865303 1.177
-0.09802448 0.15993468 1.177
-0.36124977 0.16261552 1.174
-0.35493252 0.1663489 1.1742002
-0.34706137 0.16916029 1.1730001
-0.098102681 0.16514979 1.1730001
-0.35391995 0.17128488 1.177
-0.34460038 0.17345923 1.1760001
-0.33592442 0.17761356 1.1745001
-0.32803726 0.17995775 1.1730001
-0.10253493 0.17415728 1.1755
-0.09802448 0.17128488 1.177
-0.33429632 0.18168548 1.1762002
-0.32562533 0.18482237 1.1745001
-0.31520373 0.18541676 1.1750001
-0.30644235 0.18681328 1.1730002
-0.11092901 0.1866674 1.1738001
-0.10744375 0.18333642 1.1762002
-0.30426338 0.19184053 1.1765001
-0.29512611 0.19374882 1.1740001
-0.28541315 0.19717179 1.1734446
-0.27867743 0.19846769 1.1730001
-0.11253441 0.193911 1.1750001
-0.28375509 0.20120816 1.177
-0.27441838 0.20212573 1.1743335
-0.26493812 0.20593768 1.173889
-0.25453576 0.20689571 1.174143
-0.24413276 0.20818292 1.1764287
-0.23636337 0.20854001 1.1756667
-0.22533226 0.20852685 1.1736668
-0.2145782 0.20840819 1.1730002
-0.20669432 0.20875101 1.1730001
-0.18201441 0.20875099 1.1730001
-0.17584443 0.20875099 1.1730001
-0.16967446 0.20875099 1.1730001
-0.14225231 0.20806544 1.1730001
-0.13498476 0.20691085 1.1754
-0.12794775 0.2053355 1.177
-0.23009957 0.21152651 1.177
-0.22473402 0.21193925 1.177
-0.21565385 0.21152651 1.177
-0.2053355 0.21152651 1.177
-0.19445106 0.21238039 1.1735716
-0.18523462 0.21203083 1.1755002
-0.17430718 0.2124685 1.1765001
-0.16535346 0.21341778 1.1747779
-0.1554887 0.21315701 1.1746001
-0.14629024 0.2128313 1.1759092
-0.13826612 0.21152651 1.177
-0.081792124 -0.079721436 1.1810001
-0.07608059 -0.074613571 1.1831179
-0.065040268 -0.074199155 1.1842941
-0.057662752 -0.074067511 1.1863333
-0.075049683 -0.069837898 1.189
-0.065668479 -0.069837898 1.189
-0.057329621 -0.069837898 1.189
-0.061085258 0.079721436 1.1810001
-0.081792124 0.088004179 1.1810001
-0.073492192 0.087233067 1.1874001
-0.065404072 0.083885081 1.1842
-0.057136748 0.082588576 1.1850001
-0.092534795 0.096958674 1.1860001
-0.087210506 0.092769742 1.189
-0.094164871 0.10497767 1.1856
-0.09609215 0.11332502 1.1879091
-0.1011086 0.15114172 1.189
-0.098106891 0.15426323 1.1863334
-0.36237016 0.16772562 1.1810001
-0.095332727 0.16674659 1.1863333
-0.36048093 0.17348795 1.1850001
-0.35370114 0.17624259 1.1831819
-0.34639084 0.17803609 1.1830001
-0.10173874 0.17799331 1.1818001
-0.094759576 0.17568143 1.1849999
-0.35335889 0.18171751 1.189
-0.34376416 0.18384767 1.1867143
-0.33525595 0.18645756 1.1823334
-0.32613313 0.18808736 1.1810001
-0.31577972 0.18946783 1.1810001
-0.10414563 0.18507506 1.1834617
-0.097377069 0.18225901 1.188
-0.3340354 0.19320594 1.1870002
-0.32486537 0.19312917 1.1868463
-0.31494686 0.19420461 1.1856668
-0.30555385 0.19746697 1.1855001
-0.29559052 0.19826823 1.1810001
-0.11181708 0.19775057 1.1810001
-0.10789478 0.19416755 1.1872222
-0.30228344 0.20117484 1.189
-0.29481435 0.20339185 1.1875457
-0.28517762 0.20629407 1.1868184
-0.27549359 0.20759183 1.1825001
-0.12444916 0.20750028 1.1841111
-0.11619142 0.20430845 1.186
-0.27518216 0.2115984 1.189
-0.26575285 0.21228121 1.1861429
-0.25321522 0.21263111 1.187
-0.24552427 0.21360072 1.1853637
-0.23551871 0.2137344 1.1835002
-0.22491014 0.21608256 1.1850002
-0.21510667 0.21643394 1.1853637
-0.20471577 0.21701096 1.1864547
-0.19432914 0.21823528 1.1854
-0.18423524 0.21789065 1.1860911
-0.17526932 0.21737723 1.1830002
-0.1661485 0.21922217 1.1870002
-0.15437207 0.21860543 1.1818001
-0.14411435 0.21773314 1.1845555
-0.13510762 0.21348004 1.184
-0.12827754 0.2118614 1.1858001
-0.1803277 0.22202197 1.189
-0.17511591 0.22202197 1.189
-0.16156529 0.22202197 1.189
-0.15520665 0.22187257 1.1882001
-0.14801463 0.22202197 1.189
-0.053339031 -0.070072845 1.1930001
-0.073800944 -0.065413006 1.1955885
-0.064925931 -0.06492199 1.1945002
-0.0555044 -0.064927325 1.1946001
-0.049237981 -0.062855244 1.1950001
-0.070307791 -0.059814088 1.197
-0.064361364 -0.059114512 1.197
-0.055616613 -0.05847853 1.1970001
-0.049320389 -0.058764718 1.197
-0.080531478 0.088898383 1.1930001
-0.075890839 0.08844997 1.194
-0.065185249 0.088658877 1.1954
-0.097265288 0.099357016 1.1930001
-0.08668983 0.095857799 1.1950001
-0.075554639 0.09129519 1.197
-0.063871302 0.091091812 1.1943334
-0.095870815 0.10423771 1.1930001
-0.088260382 0.1052846 1.1950001
-0.093580566 0.11659968 1.1934444
-0.088254407 0.1140279 1.1964285
-0.095235676 0.12494647 1.1960002
-0.095479354 0.13535121 1.1968404
-0.088296995 0.13686784 1.1969999
-0.10144874 0.14119154 1.1930001
-0.095652685 0.145327 1.1956091
-0.088147081 0.14481306 1.197
-0.094028518 0.1543726 1.1955715
-0.089196451 0.15005991 1.197
-0.094847433 0.16270912 1.1955
-0.093081839 0.17256744 1.1930001
-0.35292724 0.18578725 1.1946001
-0.34691742 0.18741995 1.1943334
-0.10144874 0.1882554 1.1930001
-0.095532268 0.18547986 1.1953334
-0.34442064 0.19277261 1.1941427
-0.33711663 0.19557643 1.1930001
-0.32526347 0.19808653 1.1930001
-0.31480488 0.19906266 1.1930001
-0.10413168 0.19506691 1.1950001
-0.099690147 0.19308408 1.197
-0.3316009 0.20042966 1.197
-0.32504237 0.20147903 1.197
-0.3179591 0.20042966 1.197
-0.3039819 0.20548919 1.1952223
-0.29622918 0.20777832 1.194
-0.11296463 0.20693079 1.1947144
-0.10831217 0.20335101 1.1956668
-0.30326793 0.21302211 1.197
-0.2933096 0.21220507 1.1963334
-0.28479218 0.21412103 1.1943334
-0.27605495 0.21560952 1.1947143
-0.26456112 0.21550584 1.1941429
-0.25596651 0.21650918 1.1950001
-0.24555258 0.21931833 1.197
-0.23531923 0.21858545 1.1930001
-0.13341972 0.21846025 1.1946
-0.12375831 0.21452893 1.1946665
-0.11682056 0.21162191 1.1962001
-0.24030572 0.22141707 1.197
-0.23470908 0.22141707 1.197
-0.2249625 0.22193877 1.1947778
-0.21456893 0.22225417 1.1952224
-0.20603187 0.22244509 1.1950001
-0.19486435 0.22358194 1.1941429
-0.18525381 0.22506504 1.1950002
-0.17447983 0.22540013 1.1958572
-0.16519402 0.22435895 1.1945
-0.1539979 0.22628698 1.1950001
-0.14491914 0.22349215 1.1950001
-0.13787556 0.22175679 1.1960001
-0.076961569 -0.061296783 1.2025715
-0.073326848 -0.057687826 1.2052
-0.064379714 -0.054666948 1.2038666
-0.054716907 -0.053565446 1.2023636
-0.048472654 -0.053741422 1.202
-0.062378339 -0.049162589 1.2060001
-0.054977521 -0.048633963 1.2060002
-0.047902819 -0.048254069 1.2053335
-0.083445385 0.095518343 1.2048572
-0.07560432 0.092834324 1.2033334
-0.065332711 0.093257174 1.202
-0.085515328 0.10452195 1.2042859
-0.085816391 0.11507552 1.2042857
-0.088729382 0.12506662 1.2033334
-0.08730197 0.13377233 1.2046667
-0.084411778 0.14455287 1.2036
-0.091676541 0.15595549 1.202
-0.086726554 0.15502074 1.2038823
-0.092159055 0.16512927 1.2028
-0.089112587 0.1641383 1.2053334
-0.091879927 0.17214286 1.2046667
-0.0898671 0.17021886 1.2060001
-0.092730299 0.18756808 1.202
-0.089792579 0.18592435 1.205
-0.35195363 0.19072935 1.202
-0.10177048 0.19879819 1.2030001
-0.095385537 0.19330642 1.2036
-0.0898671 0.19136406 1.2060001
-0.33298606 0.20337439 1.202
-0.32446244 0.20637387 1.2027272
-0.31542057 0.2055348 1.2033334
-0.30838969 0.20781969 1.2033334
-0.1106441 0.20969692 1.202
-0.1037608 0.20436065 1.2036667
-0.30428299 0.21452208 1.2045715
-0.29596555 0.21672894 1.2033334
-0.28767467 0.21601944 1.202
-0.2729221 0.21812694 1.202
-0.26238456 0.21812694 1.202
-0.12118163 0.21812694 1.202
-0.11490703 0.21573742 1.2043334
-0.10889778 0.21039474 1.2060001
-0.29478127 0.22124366 1.2052001
-0.28498504 0.22165814 1.204
-0.27495775 0.22139382 1.2040001
-0.26558888 0.22253102 1.2047693
-0.25616023 0.22260261 1.2046666
-0.24603431 0.22386165 1.2045002
-0.23537974 0.22535154 1.2040001
-0.22447751 0.22659554 1.205
-0.21405149 0.22713065 1.2028
-0.2053159 0.22783184 1.2037778
-0.19603595 0.22827773 1.203143
-0.18440683 0.22866447 1.202
-0.17457181 0.22866447 1.202
-0.16543928 0.22866447 1.202
-0.15911674 0.22866447 1.202
-0.14405368 0.22798146 1.2033334
-0.13325465 0.22403172 1.2040001
-0.12543076 0.2221714 1.2041819
-0.11947038 0.22096734 1.2060001
-0.19453584 0.23153993 1.2060001
-0.18489917 0.23138635 1.2052
-0.17444789 0.23153993 1.2060001
-0.1638753 0.23153992 1.2060001
-0.15541722 0.23153993 1.2060001
-0.14801639 0.23153993 1.2060001
-0.082061559 -0.052218065 1.2156668
-0.07619676 -0.053546801 1.210889
-0.067889065 -0.051977567 1.21
-0.081217907 -0.044883579 1.2190001
-0.075092338 -0.045375176 1.2145716
-0.065194026 -0.044959221 1.2115237
-0.055175934 -0.043502826 1.2103333
-0.0465209 -0.043691609 1.2106668
-0.075808868 -0.039507858 1.2180001
-0.06431327 -0.037334729 1.2168571
-0.054673668 -0.034854591 1.214522
-0.046542466 -0.035913765 1.2121333
-0.052605588 -0.027503118 1.218375
-0.045681961 -0.026253451 1.2175
-0.081679031 0.097590536 1.21
-0.075437516 0.09690287 1.212
-0.067788467 0.096615896 1.2177501
-0.082336441 0.10489466 1.2135
-0.078916222 0.10131417 1.2165
-0.083157688 0.11509562 1.2144445
-0.083964951 0.12488899 1.2146429
-0.083647147 0.13450825 1.2125385
-0.081841037 0.14560907 1.2124002
-0.081545033 0.15443435 1.2125715
-0.078741319 0.15611367 1.216143
-0.084039539 0.16514985 1.2135295
-0.078916222 0.16103622 1.2165
-0.090239681 0.17623544 1.2110001
-0.086796694 0.17485769 1.2141818
-0.090835817 0.18274029 1.2190001
-0.08731094 0.18492739 1.2162223
-0.092589147 0.19711939 1.2105001
-0.086943932 0.19576426 1.2169167
-0.10159105 0.20849413 1.2113334
-0.095625482 0.20390016 1.2137501
-0.087629847 0.20197611 1.2190001
-0.32380298 0.21266268 1.2190001
-0.31518078 0.21245892 1.2154001
-0.11244127 0.21851793 1.21
-0.10654883 0.21374325 1.2130001
-0.099385068 0.21052536 1.2190001
-0.28321332 0.22785224 1.2145001
-0.27594352 0.22726312 1.2125001
-0.26462883 0.22748332 1.2106668
-0.25474319 0.22760898 1.2113334
-0.2441771 0.22825332 1.2110001
-0.23442942 0.22806484 1.21
-0.22806484 0.22806484 1.21
-0.13471738 0.22806482 1.21
-0.12397946 0.22778179 1.2117144
-0.11551052 0.22458529 1.2141179
-0.28212535 0.2318985 1.2190001
-0.27357608 0.2318985 1.2190001
-0.26421484 0.23118511 1.21525
-0.25480053 0.23223737 1.2175715
-0.24579103 0.23261094 1.219
-0.23504503 0.2316411 1.2154001
-0.22474667 0.23327217 1.2149999
-0.21539122 0.23340887 1.214
-0.20487116 0.23467666 1.214
-0.19534315 0.23651804 1.2146667
-0.18502663 0.23607668 1.2130001
-0.17481065 0.23571989 1.2117778
-0.16500284 0.2354853 1.2114545
-0.15450782 0.23595561 1.2117778
-0.14472692 0.2350775 1.2124166
-0.1357471 0.23335788 1.2163076
-0.12490024 0.23166069 1.2177501
-0.19128954 0.24044774 1.2190001
-0.16457313 0.24044774 1.2190001
-0.15495522 0.24044773 1.2190001
-0.14747462 0.24044774 1.2190001
-0.074367411 -0.036242496 1.2250001
-0.065952122 -0.033034261 1.2243333
-0.062564015 -0.02773335 1.2262002
-0.055325557 -0.023688059 1.2246
-0.04574563 -0.021085879 1.223
-0.051901072 -0.015866132 1.2270001
-0.045154762 -0.015767727 1.2263335
-0.039670043 -0.011793797 1.223
-0.042668242 -0.0064540203 1.2270001
-0.039261956 -0.0048405146 1.2270001
-0.080412246 0.1082885 1.223
-0.076300435 0.10362915 1.2258574
-0.069918551 0.10003731 1.2270001
-0.080412246 0.11472148 1.223
-0.078122683 0.11574892 1.2263335
-0.080412246 0.12544312 1.223
-0.077416241 0.12472731 1.2265
-0.080587588 0.13431497 1.2256668
-0.078523912 0.13230741 1.2270001
-0.080675252 0.14844246 1.2270001
-0.078523912 0.14951813 1.2270001
-0.077320248 0.15464926 1.2250001
-0.080412246 0.16832964 1.223
-0.077612177 0.16446741 1.2262001
-0.082675017 0.17477763 1.2247779
-0.078523912 0.17103153 1.2270001
-0.084370837 0.18432926 1.2260002
-0.083670445 0.19543393 1.2258574
-0.091895267 0.2079747 1.2260002
-0.085447676 0.20582569 1.2260002
-0.078523912 0.20975564 1.2270001
-0.33023068 0.21620966 1.2270001
-0.3247261 0.214697 1.2244999
-0.31947398 0.21620966 1.2270001
-0.10388386 0.21744125 1.2252858
-0.095822126 0.21335034 1.2254002
-0.084977932 0.21190698 1.2270001
-0.11127033 0.22647543 1.2243334
-0.10714941 0.22290127 1.2263335
-0.27676558 0.23382434 1.2246001
-0.26053569 0.23480377 1.223
-0.25366029 0.23577686 1.2243334
-0.24438682 0.23580164 1.224
-0.23510019 0.23757818 1.2245386
-0.22515431 0.23909242 1.223
-0.21621887 0.23928791 1.2240001
-0.20799968 0.23909242 1.223
-0.14091277 0.23987441 1.2270001
-0.13703032 0.23792352 1.2243334
-0.12779257 0.23411208 1.2250001
-0.23234472 0.24202575 1.2270001
-0.22481504 0.24202576 1.2270001
-0.21539463 0.2427223 1.2258574
-0.20525415 0.24286473 1.2258002
-0.19518392 0.24297495 1.2250001
-0.18578584 0.24243799 1.2250001
-0.17470805 0.24233937 1.2245002
-0.16457751 0.24417707 1.2270001
-0.15452039 0.24358007 1.2240001
-0.14588802 0.24300094 1.2254001
-0.075806729 -0.032555506 1.2333336
-0.068043359 -0.031321548 1.2320001
-0.07383687 -0.028636944 1.2360001
-0.06480097 -0.024482589 1.2338183
-0.058322877 -0.020521013 1.2320001
-0.061762918 -0.017336961 1.2360001
-0.057111036 -0.014592116 1.2330002
-0.045362238 -0.012960641 1.2320001
-0.053982016 -0.0085348375 1.2342223
-0.046288583 -0.0055826134 1.2326669
-0.039241936 -0.0039601955 1.2320001
-0.041106902 0.0021653667 1.2340001
-0.037158977 0.0032495111 1.2346667
-0.051926717 0.077891834 1.2340001
-0.046982318 0.078303866 1.2320001
-0.051967919 0.082283057 1.2350001
-0.045509521 0.08235056 1.2360001
-0.073780902 0.10600717 1.2327275
-0.067070261 0.10060802 1.2340001
-0.075591266 0.11525089 1.2337779
-0.072865382 0.12583917 1.2332002
-0.067396969 0.12794307 1.2333335
-0.081004001 0.13932689 1.2320001
-0.075316191 0.13353878 1.2344002
-0.068264283 0.13111076 1.2360001
-0.081004001 0.14364709 1.2320001
-0.078971885 0.14495859 1.2340001
-0.075766213 0.15586433 1.2346668
-0.075553142 0.16578667 1.2337143
-0.081004001 0.17712875 1.2320001
-0.076423235 0.17385036 1.2348001
-0.082291722 0.18561138 1.2333335
-0.079099879 0.18095452 1.2360001
-0.082042471 0.19421573 1.2337143
-0.081436023 0.20585816 1.2320001
-0.078907892 0.20537758 1.233
-0.10044496 0.21925083 1.2320001
-0.094007216 0.21811816 1.2325716
-0.085710496 0.21567936 1.234316
-0.079099879 0.216712 1.2360001
-0.10348141 0.22494979 1.2330911
-0.096391253 0.22326545 1.2354287
-0.085469738 0.22177036 1.2340001
-0.27433354 0.23653167 1.2320001
-0.13197866 0.23907927 1.2340001
-0.12663741 0.23704366 1.2346667
-0.11314172 0.23223689 1.2350001
-0.10908539 0.23005135 1.2320001
-0.23079827 0.24596812 1.2360001
-0.22429515 0.24629247 1.2340001
-0.21618862 0.24699295 1.233
-0.2004586 0.24813524 1.2360001
-0.1947252 0.24773371 1.2340001
-0.18633141 0.24687986 1.2333335
-0.17462264 0.24714752 1.2346667
-0.16430223 0.24753296 1.233
-0.15413904 0.24794939 1.2320002
-0.1446991 0.24635737 1.2336
-0.13977924 0.243801 1.2360001
-0.1571162 0.25030234 1.2360001
-0.074229836 -0.024278963 1.2435454
-0.068160392 -0.022354562 1.244
-0.064083703 -0.015124379 1.245
-0.06221265 -0.0098230503 1.245
-0.053718247 -0.0038905216 1.2432858
-0.047869503 -0.0010879433 1.2410001
-0.051298149 0.00109145 1.245
-0.044234745 0.0035137774 1.2441112
-0.036341924 0.0069090105 1.2436666
-0.032743499 0.01200595 1.245
-0.051215742 0.087177485 1.243
-0.044663183 0.087149084 1.2426001
-0.038139384 0.087177485 1.243
-0.06221265 0.099321947 1.245
-0.053088006 0.095633514 1.2443333
-0.046113756 0.094001129 1.2450001
-0.064302877 0.10510068 1.2432855
-0.055227369 0.10281459 1.245
-0.070830286 0.11551135 1.243
-0.067669898 0.11351081 1.245
-0.070716314 0.12076171 1.2410001
-0.068160392 0.1237805 1.2440001
-0.072504014 0.13738751 1.2418001
-0.066664144 0.13632056 1.2415
-0.073063567 0.14503847 1.2439333
-0.067054041 0.14446515 1.2436666
-0.071890607 0.15439963 1.2425001
-0.068033718 0.15425827 1.245
-0.070830286 0.16563389 1.243
-0.068761349 0.16480894 1.245
-0.07206744 0.17657872 1.2418001
-0.066890292 0.17416422 1.245
-0.074661754 0.18438886 1.2433333
-0.077087641 0.19453497 1.2443334
-0.077243976 0.20126952 1.2410001
-0.32416064 0.22156435 1.245
-0.10117873 0.22955604 1.2410001
-0.093835108 0.22765215 1.2410001
-0.084968984 0.2259326 1.2426001
-0.079419866 0.22520427 1.2410001
-0.12115095 0.23902754 1.245
-0.11496384 0.23780373 1.2436666
-0.10540238 0.23521136 1.2434616
-0.094956152 0.23269713 1.245
-0.086224549 0.23029594 1.245
-0.2117413 0.24994205 1.245
-0.20606546 0.24967438 1.2436666
-0.18277448 0.24913903 1.2410001
-0.17951065 0.24913903 1.2410001
-0.14057088 0.24845259 1.243
-0.1341261 0.24566467 1.2438571
-0.12570296 0.24469006 1.2445792
-0.11484478 0.24424225 1.2450002
-0.10805355 0.2423019 1.245
-0.19100375 0.25212494 1.245
-0.18882085 0.25212494 1.245
-0.17354055 0.25212494 1.245
-0.16563389 0.25171992 1.243
-0.15663315 0.2533102 1.2436666
-0.14601585 0.25171992 1.243
-0.077365831 -0.021259166 1.25
-0.080443807 -0.016526043 1.2570001
-0.074559793 -0.015609576 1.2544001
-0.068137661 -0.014878912 1.2507143
-0.073949464 -0.0099335099 1.2590001
-0.063785121 -0.0056320904 1.2544376
-0.057248957 -0.0028500431 1.251
-0.060704783 0.0011037233 1.2590001
-0.054351185 0.0041078213 1.2559091
-0.046247337 0.0076954467 1.2536155
-0.038354166 0.0098625002 1.25
-0.044328537 0.014867608 1.2561252
-0.035410758 0.01582665 1.2510713
-0.040837765 0.020970743 1.2590001
-0.034573272 0.024658823 1.2569376
-0.029129254 0.026300127 1.2572858
-0.060270835 0.097529173 1.25
-0.058079164 0.097529173 1.25
-0.042757772 0.096754961 1.250625
-0.037517823 0.094033532 1.2534286
-0.062690429 0.10889252 1.2546667
-0.054636251 0.10638063 1.2532727
-0.045511317 0.10494269 1.2527224
-0.038630318 0.10043883 1.2590001
-0.063930482 0.11561999 1.2543572
-0.055462096 0.11285571 1.2589999
-0.049667548 0.11147606 1.2590001
-0.067086473 0.12317912 1.2545
-0.063137531 0.14713754 1.2525001
-0.058079164 0.14574583 1.25
-0.063604742 0.15611823 1.2540714
-0.063895337 0.16507773 1.2528824
-0.057899013 0.16211846 1.2580001
-0.065425627 0.17368896 1.2528572
-0.071777083 0.18629166 1.25
-0.06813661 0.18463683 1.253625
-0.073876984 0.19501849 1.2536666
-0.06953457 0.19094414 1.2590001
-0.075058155 0.20174934 1.253
-0.33001328 0.22626328 1.2590001
-0.32491109 0.22578402 1.2563335
-0.3188875 0.22464584 1.25
-0.10264305 0.23925693 1.25
-0.095337503 0.23779583 1.25
-0.08803194 0.23414306 1.25
-0.13588333 0.24765833 1.25
-0.1216375 0.24875416 1.25
-0.11287083 0.24765833 1.25
-0.10415246 0.24457589 1.2533
-0.095245883 0.24306834 1.256
-0.22902916 0.25094584 1.25
-0.20347653 0.25530943 1.2580001
-0.19550686 0.25545093 1.254625
-0.18454139 0.25484613 1.253
-0.17501405 0.25713688 1.2556
-0.16443227 0.25759876 1.2551112
-0.15429522 0.25778696 1.2558572
-0.14582868 0.25648269 1.2538334
-0.13483332 0.25320086 1.2522727
-0.12529027 0.25240695 1.25
-0.11769249 0.2518225 1.25
-0.080891788 -0.012189173 1.2640001
-0.078675576 -0.012189173 1.2640001
-0.074038357 -0.0059875171 1.2656
-0.068480991 -0.004654048 1.2640001
-0.071513794 0.001852689 1.268
-0.06367597 0.0041391416 1.2661818
-0.056513436 0.0077567468 1.2640001
-0.061583377 0.012672392 1.268
-0.055737637 0.015225329 1.2670586
-0.048756693 0.017729707 1.2640001
-0.052245826 0.021676458 1.268
-0.044026788 0.024047552 1.2659999
-0.038229678 0.02825672 1.2640001
-0.041129693 0.031125173 1.268
-0.034581937 0.034923967 1.2661538
-0.026679797 0.035715129 1.2640001
-0.031125173 0.041129693 1.268
-0.026122913 0.041685499 1.268
-0.035513766 0.09877754 1.266
-0.040999945 0.10527013 1.2640001
-0.037524838 0.10369565 1.2664001
-0.060945865 0.11191877 1.2640001
-0.05651344 0.11413498 1.2640001
-0.049864799 0.11413498 1.2640001
-0.064775147 0.12177952 1.2666668
-0.061684605 0.15328808 1.2640001
-0.05737257 0.15731139 1.2666668
-0.056104563 0.16343802 1.2648001
-0.058915507 0.17007683 1.268
-0.065447256 0.18746758 1.2653333
-0.07136184 0.19782157 1.2653333
-0.065971859 0.1951098 1.2669332
-0.072790384 0.20473722 1.2662858
-0.066750571 0.20321289 1.2666667
-0.076701321 0.21009491 1.268
-0.21087164 0.25748926 1.266
-0.20721595 0.2574501 1.2640001
-0.14206034 0.25859737 1.266
-0.13629712 0.25818884 1.2640001
-0.20120201 0.26122913 1.268
-0.19634409 0.26067975 1.2653333
-0.18394572 0.26040506 1.2640001
-0.17341168 0.26345235 1.268
-0.16531268 0.2629537 1.2656001
-0.15451425 0.26345235 1.268
-0.14562134 0.26122913 1.268
-0.066959798 0.0055799833 1.273
-0.063611813 0.012275963 1.273
-0.053830486 0.023456093 1.2739999
-0.047369514 0.027226051 1.2763335
-0.05489862 0.032491021 1.2780001
-0.043265838 0.033195566 1.2763333
-0.037462596 0.038576402 1.2755001
-0.033843827 0.043351717 1.276125
-0.026863914 0.045892842 1.2767501
-0.0280095 0.050417099 1.2780001
-0.034731779 0.097473063 1.2780001
-0.041291878 0.10825168 1.273
-0.036340028 0.1056699 1.2755001
-0.058259759 0.11876028 1.2780001
-0.064258084 0.12560757 1.2770001
-0.05938014 0.12212142 1.2780001
-0.057139378 0.16917738 1.2780001
-0.061620899 0.17365889 1.2780001
-0.058259759 0.17253852 1.2780001
-0.065355502 0.18560962 1.2780001
-0.071795784 0.20794737 1.273
-0.07380262 0.21189779 1.2755001
-0.33835477 0.22855753 1.2780001
-0.33349979 0.23266558 1.2780001
-0.32773101 0.2317553 1.273
-0.10378769 0.25109926 1.273
-0.099323705 0.25109926 1.273
-0.13949959 0.26002723 1.273
-0.054470681 0.027154999 1.2830001
-0.052494623 0.033574052 1.2850001
-0.046188064 0.035600383 1.2850001
-0.042699926 0.044634353 1.2865715
-0.036232721 0.046809003 1.2835001
-0.024369873 0.04761498 1.2830001
-0.042907577 0.053069893 1.2880001
-0.034637142 0.054816708 1.2851741
-0.024635024 0.055510767 1.2866844
-0.01863092 0.05758648 1.2880001
-0.032269921 0.064989753 1.2870001
-0.024835475 0.065475434 1.2876877
-0.018743834 0.064813018 1.2880001
-0.023712078 0.071136236 1.2880001
-0.034867663 0.095604882 1.2830001
-0.033595972 0.10484757 1.286
-0.062484637 0.12778667 1.2842501
-0.057663526 0.12646045 1.2841111
-0.065490499 0.13211016 1.2880001
-0.054588895 0.15631431 1.2865002
-0.052534949 0.16550188 1.286
-0.048553307 0.16598457 1.2880001
-0.062103067 0.17727603 1.2880001
-0.053892098 0.17324017 1.2873751
-0.048553307 0.17163029 1.2880001
-0.06310875 0.18594466 1.2855
-0.058715627 0.1863092 1.2880001
-0.061861984 0.19008501 1.2830001
-0.07483238 0.21690388 1.2836251
-0.077608667 0.22157837 1.2830001
-0.0509694 0.039642867 1.2920001
-0.047571439 0.039642867 1.2920001
-0.046438783 0.044173479 1.2920001
-0.036845207 0.06405957 1.2932501
-0.016989799 0.060030628 1.2920001
-0.031536855 0.073285118 1.294
-0.025205044 0.075607032 1.2931538
-0.023353912 0.083186224 1.2958889
-0.017450312 0.086569346 1.2924999
-0.032289263 0.096214294 1.2955714
-0.028425917 0.09778516 1.2970001
-0.017055551 0.092857994 1.2970001
-0.03108204 0.105045 1.294
-0.028425917 0.10460737 1.2970001
-0.031837028 0.11029255 1.2970001
-0.06116328 0.13252044 1.2920001
-0.056401227 0.13210724 1.2953334
-0.05436736 0.17707147 1.2919999
-0.06197232 0.18170996 1.2919999
-0.054965507 0.18239638 1.2955
-0.046798218 0.052505322 1.302
-0.040103115 0.063019186 1.307
-0.037666861 0.0627781 1.302
-0.034157187 0.076640449 1.3048573
-0.040103115 0.088226855 1.307
-0.034312733 0.084627256 1.3045
-0.027231019 0.085606501 1.302
-0.034260679 0.091356888 1.3026251
-0.024730764 0.094357401 1.302
-0.015716475 0.096493892 1.302
-0.02397676 0.10504388 1.3024167
-0.017158924 0.10524917 1.3049167
-0.040103115 0.11801774 1.307
-0.034286436 0.11543393 1.3036667
-0.02515151 0.11433734 1.3041877
-0.017395377 0.11426783 1.307
-0.032769974 0.12168431 1.307
-0.025207674 0.12145516 1.307
-0.01695789 0.12489257 1.307
-0.064164989 0.13749641 1.307
-0.016041245 0.13176738 1.307
-0.038100809 0.066965058 1.317
-0.038100809 0.079665333 1.317
-0.041077387 0.084837079 1.3136667
-0.040256534 0.1207696 1.312
-0.034928445 0.12246244 1.3136667
-0.024455164 0.1268678 1.3126251
-0.019553173 0.12767071 1.312
-0.060959894 0.13802239 1.312
-0.022365343 0.1348813 1.3150002
-0.017050449 0.1367113 1.3124547
-0.02193683 0.14316668 1.317
-0.016163981 0.14316668 1.317
-0.038375642 0.074421547 1.3265001
-0.040655419 0.081308201 1.325
-0.029105334 0.12922768 1.3280001
-0.025289381 0.13432778 1.3232
-0.059106618 0.14023335 1.322
-0.0248137 0.14470103 1.3226001
-0.016225345 0.14834602 1.322
-0.025612695 0.15417509 1.3279999
-0.015638761 0.15584973 1.3266665
