# .PCD v0.7 - Point Cloud Data file format
VERSION 0.7
FIELDS x y z
SIZE 4 4 4
TYPE F F F
COUNT 1 1 1
WIDTH 1454
HEIGHT 1
VIEWPOINT 0 0 0 1 0 0 0
POINTS 1454
DATA ascii
-0.23426144 0.0068844198 1.00685
-0.22576262 0.0063811881 1.0057999
-0.21571961 0.0082887085 1.0059999
-0.20414825 0.009269434 1.0070001
-0.1942303 0.0051815575 1.0068696
-0.1870752 0.0063630529 1.0029411
-0.050607085 0.0048951814 1.0027143
-0.047257449 0.0085114101 1.0045
-0.2410053 0.011476443 1.0070001
-0.23503935 0.014492552 1.0062857
-0.22523406 0.014599129 1.0023845
-0.21426912 0.012927451 1.0022858
-0.20520623 0.01338866 1.0025884
-0.19510426 0.013291778 1.0034999
-0.18594678 0.014206848 1.0018823
-0.17989638 0.016673323 1.001
-0.045477804 0.014785701 1.0029091
-0.23253353 0.024199946 1.0063571
-0.22470276 0.024633458 1.0023546
-0.21763074 0.02895893 1.001
-0.04433405 0.024844937 1.0037693
-0.2310002 0.031486653 1.0070001
-0.22426684 0.034969445 1.0043213
-0.21668848 0.035986237 1.0011766
-0.042122081 0.031591561 1.001
-0.22276072 0.042668831 1.0070001
-0.21513216 0.044139285 1.0049
-0.20682883 0.047343884 1.0027143
-0.041244537 0.04475471 1.001
-0.037515193 0.044920277 1.0018574
-0.20421264 0.053675041 1.0055001
-0.19803569 0.056122251 1.0020001
-0.04153705 0.055870254 1.001
-0.038942702 0.053584784 1.002
-0.23041166 0.069741465 1.0070001
-0.22652733 0.069035217 1.0070001
-0.20039636 0.061796233 1.0070001
-0.1945644 0.065242916 1.0045768
-0.18769024 0.068224244 1.002
-0.050019968 0.06844838 1.001
-0.044790234 0.065243289 1.0037142
-0.039726149 0.060913429 1.0070001
-0.23182416 0.073802367 1.0070001
-0.22542697 0.075477377 1.0061429
-0.2151785 0.076108664 1.0063182
-0.2048751 0.075917982 1.0045356
-0.19484797 0.07560885 1.0045
-0.18591218 0.074982695 1.0042499
-0.17836069 0.078320749 1.001
-0.060989261 0.078540131 1.001
-0.054060746 0.075163864 1.0027499
-0.047819011 0.072876945 1.0064001
-0.23041166 0.081217907 1.0070001
-0.22526513 0.083017386 1.0068421
-0.21537405 0.084212281 1.0041
-0.20780227 0.083542123 1.0010002
-0.19218199 0.081611529 1.001
-0.18493319 0.082659498 1.0031
-0.17554545 0.0853936 1.0016249
-0.16796181 0.087929837 1.001
-0.083366618 0.088631876 1.001
-0.074786194 0.088046841 1.001
-0.064846374 0.085514672 1.0029999
-0.05769743 0.082189351 1.0056666
-0.21336558 0.094681151 1.0063684
-0.20695344 0.096070148 1.0027143
-0.17112094 0.090386964 1.001
-0.16848832 0.091264509 1.001
-0.083786182 0.094708063 1.0027367
-0.075389154 0.091920257 1.0044615
-0.066821069 0.091523118 1.00625
-0.20339502 0.10292319 1.0053334
-0.19680095 0.10655572 1.0026666
-0.091177836 0.10647968 1.0014286
-0.086352363 0.10450895 1.0035263
-0.19316936 0.11252581 1.0061429
-0.18519925 0.11620742 1.0052856
-0.13375236 0.11703697 1.00375
-0.12558469 0.11767958 1.00175
-0.11528273 0.11691471 1.0016431
-0.10510269 0.1173883 1.0010002
-0.093670651 0.11590407 1.00235
-0.088301808 0.1134045 1.0047501
-0.18156321 0.12153259 1.0070001
-0.17543028 0.12522839 1.0047501
-0.16710998 0.12884875 1.0032501
-0.1341597 0.12518863 1.0059565
-0.12509002 0.12299566 1.0066251
-0.11418076 0.12278593 1.0050589
-0.10561743 0.1229388 1.0035263
-0.0961174 0.12125033 1.0058751
-0.16373941 0.1322239 1.0055001
-0.15558058 0.13552698 1.0034001
-0.14435244 0.1385722 1.003143
-0.13427913 0.1359053 1.0036538
-0.12810497 0.13529164 1.0067858
-0.15154791 0.14095426 1.0070001
-0.14476329 0.14420103 1.0063182
-0.13527508 0.14508964 1.0043213
-0.12888928 0.14345554 1.0070001
-0.1333033 0.15095937 1.0070001
-0.16258484 -0.16169152 1.0190001
-0.15760714 -0.16026343 1.01
-0.16207287 -0.15763123 1.013
-0.15760714 -0.15849257 1.01
-0.18357883 -0.14168817 1.0165001
-0.1764973 -0.14329317 1.0127001
-0.1911712 -0.13667847 1.0190001
-0.18394127 -0.13541959 1.016273
-0.17750856 -0.13512212 1.0104617
-0.091118976 -0.090225659 1.0190001
-0.052042689 -0.097344562 1.0159999
-0.045798555 -0.094459176 1.0184002
-0.036626253 -0.090225659 1.0190001
-0.10154108 -0.081887968 1.0190001
-0.094127044 -0.084147073 1.01675
-0.087211266 -0.08353956 1.0144
-0.042954914 -0.087868825 1.0124
-0.035400979 -0.084333494 1.0140346
-0.025693117 -0.083473116 1.0180527
-0.018313129 -0.082632408 1.0190001
-0.23137075 -0.07057254 1.0190001
-0.22869077 -0.07057254 1.0190001
-0.19438717 -0.071287207 1.0190001
-0.18491793 -0.07057254 1.0190001
-0.17955799 -0.07057254 1.0190001
-0.14084731 -0.071168087 1.0190001
-0.13389926 -0.073649541 1.0190002
-0.12581079 -0.07254494 1.0186472
-0.11453298 -0.071495287 1.018
-0.10481326 -0.074582703 1.0142003
-0.095282346 -0.077412769 1.0113847
-0.087151937 -0.078044631 1.0100001
-0.034236155 -0.075523116 1.0103915
-0.024710437 -0.075197399 1.0135628
-0.015628217 -0.074508347 1.0161366
-0.0098265568 -0.071465865 1.0190001
-0.23349237 -0.064654276 1.0190001
-0.22502767 -0.065188058 1.0186005
-0.21517706 -0.064987443 1.0177503
-0.20531289 -0.065141618 1.0167782
-0.1951474 -0.064862475 1.0154647
-0.1854482 -0.065080516 1.0178624
-0.1750582 -0.06504523 1.0182761
-0.16515315 -0.063649289 1.0190001
-0.15514065 -0.063901603 1.0184288
-0.14452414 -0.064948827 1.0158801
-0.13503572 -0.064824112 1.0157859
-0.12471341 -0.065072633 1.0148623
-0.1149459 -0.064847134 1.0132401
-0.10791048 -0.067510523 1.0106
-0.033726957 -0.064556137 1.0100001
-0.025179509 -0.065522052 1.0100001
-0.014576586 -0.065806486 1.0124286
-0.0090164188 -0.065505892 1.0173334
-0.23456709 -0.05510217 1.0184647
-0.2250201 -0.055507202 1.0167276
-0.21495722 -0.054865252 1.0117146
-0.20519918 -0.057553168 1.0100001
-0.19447581 -0.055546656 1.0108712
-0.18492879 -0.055259075 1.0127356
-0.17503691 -0.055196818 1.0129092
-0.16507521 -0.054912478 1.0139709
-0.15531555 -0.055878166 1.012786
-0.1454441 -0.056714334 1.0100001
-0.132815 -0.059324034 1.01
-0.12471943 -0.058704011 1.0107501
-0.11740802 -0.05826129 1.0107501
-0.043678097 -0.052808505 1.0104617
-0.035329241 -0.054827411 1.0111144
-0.025290187 -0.054509491 1.0100001
-0.01614557 -0.053478077 1.0102309
-0.23437099 -0.044860065 1.0176073
-0.22492166 -0.045339733 1.0140802
-0.21618024 -0.045066752 1.0101668
-0.1912536 -0.048698831 1.01
-0.18682644 -0.048698831 1.01
-0.052015059 -0.044787284 1.0109233
-0.045392189 -0.04538874 1.0153079
-0.034745872 -0.045175571 1.0162147
-0.02499043 -0.045078378 1.0121293
-0.015487079 -0.044694029 1.0135219
-0.2332563 -0.035105702 1.0175884
-0.22468315 -0.035520956 1.0130004
-0.21596523 -0.035256345 1.0100001
-0.2098477 -0.034531899 1.01
-0.053089097 -0.03566248 1.0124547
-0.048537236 -0.037817355 1.0190001
-0.031266317 -0.035732932 1.0190001
-0.024655322 -0.035586577 1.0149415
-0.015325979 -0.035303149 1.0158931
-0.0089200828 -0.032113615 1.0175
-0.23280482 -0.026021972 1.0185715
-0.225196 -0.024793804 1.0160971
-0.21548298 -0.024714205 1.0108892
-0.2098477 -0.022135833 1.01
-0.052473322 -0.028461421 1.0145
-0.023555629 -0.027810832 1.0183077
-0.017176421 -0.027884465 1.0178751
-0.0098265568 -0.028586347 1.0190001
-0.2237369 -0.01652303 1.0188125
-0.21474268 -0.014868027 1.014091
-0.20807685 -0.015052366 1.0100001
-0.25102386 -0.00089332333 1.0190001
-0.24487619 -0.0026792684 1.0182
-0.23518561 -0.0026755317 1.0161874
-0.22462785 -0.0031881861 1.0170001
-0.21470396 -0.0053455629 1.0162004
-0.2054123 -0.0045055337 1.0105219
-0.050694566 -0.005348105 1.0145
-0.048045527 -0.0034711128 1.017
-0.25454971 0.005265174 1.0176455
-0.24491781 0.0048651146 1.0132402
-0.23641069 0.0026562999 1.0100001
-0.22315013 0.0024800024 1.0109001
-0.21460183 0.0031671464 1.0121431
-0.20515122 0.0043567531 1.0102402
-0.19846356 0.0056920713 1.0100001
-0.0504697 0.00088543334 1.01
-0.045470573 0.0045278454 1.0128423
-0.25277436 0.014608116 1.0174999
-0.24536321 0.015294142 1.0134739
-0.23906699 0.017708667 1.01
-0.042002853 0.015725486 1.0116365
-0.25102386 0.020546436 1.0190001
-0.24428244 0.02407275 1.0169548
-0.23703663 0.025975497 1.0109233
-0.041785263 0.023116473 1.0142002
-0.038412903 0.025906377 1.0190001
-0.2411973 0.033052966 1.0190001
-0.23516643 0.035241306 1.0142633
-0.22932723 0.038959064 1.01
-0.23317422 0.042711593 1.0173335
-0.22548001 0.045978535 1.0136317
-0.21622281 0.048344657 1.01
-0.034198243 0.047311071 1.0106
-0.2532154 0.059061784 1.0185715
-0.24499123 0.058234282 1.0180625
-0.23470058 0.058313772 1.0185385
-0.22460681 0.055838715 1.0176555
-0.21488854 0.055060018 1.0128932
-0.20754559 0.056844819 1.0100001
-0.035151221 0.055005532 1.0152501
-0.027916353 0.054716051 1.0190001
-0.25273222 0.064686723 1.0182
-0.24482641 0.064988844 1.0155202
-0.23501228 0.065339588 1.0132815
-0.22453962 0.065202266 1.0132072
-0.21500556 0.065618739 1.0128183
-0.20526767 0.066040151 1.0107002
-0.19922251 0.069063798 1.01
-0.042058084 0.068621084 1.01
-0.037025753 0.065071806 1.0154001
-0.25161943 0.071168087 1.0190001
-0.24431534 0.074008353 1.0170912
-0.23643209 0.076211669 1.0116001
-0.22224377 0.072605543 1.0100001
-0.21486515 0.072015241 1.0100001
-0.20542052 0.071720101 1.01
-0.0504697 0.078803569 1.01
-0.043983925 0.076203488 1.0132611
-0.037281182 0.073469967 1.0168823
-0.24179284 0.08307907 1.0190001
-0.23467204 0.08493913 1.0153685
-0.22445945 0.088118322 1.0112001
-0.061094899 0.088543333 1.01
-0.054834958 0.0850183 1.0125
-0.045297854 0.081781596 1.0176667
-0.23295887 0.093203396 1.0190001
-0.2250573 0.09518227 1.0146801
-0.21840687 0.095331661 1.0100001
-0.081459865 0.097397663 1.01
-0.074833833 0.096995957 1.0110714
-0.064827919 0.095833763 1.0117145
-0.059676453 0.093526304 1.016
-0.22449197 0.10372927 1.0167894
-0.21527298 0.10503992 1.0136005
-0.20635651 0.1066974 1.0114001
-0.08181189 0.10501671 1.0118463
-0.075138614 0.10274275 1.0155501
-0.065983303 0.10165246 1.017125
-0.21171764 0.11166541 1.0190001
-0.20405956 0.11356527 1.0177143
-0.19532152 0.1162006 1.0118002
-0.188007 0.11894321 1.01
-0.084770009 0.11572337 1.0123481
-0.19418955 0.12267651 1.0173637
-0.18515326 0.12495705 1.0135626
-0.17708665 0.12794513 1.01
-0.13074897 0.12720726 1.01
-0.12566341 0.12661697 1.0100001
-0.1160505 0.1272708 1.0105001
-0.10262392 0.12726262 1.0109
-0.094777122 0.12617104 1.0123687
-0.086243361 0.12459219 1.0151252
-0.18134463 0.13131852 1.0190001
-0.17405604 0.13392088 1.0157692
-0.16574472 0.13696934 1.0132
-0.15784252 0.13921949 1.0115
-0.12327718 0.13442957 1.0122802
-0.11558361 0.13355862 1.015286
-0.1051442 0.13247299 1.0149412
-0.095519431 0.13246623 1.0183077
-0.08843901 0.13131852 1.0190001
-0.17062476 0.14025176 1.0190001
-0.16586037 0.14174064 1.0190001
-0.15443233 0.14437531 1.012
-0.14680484 0.14822155 1.01
-0.13015869 0.14963824 1.01
-0.12439861 0.14489397 1.0144448
-0.118812 0.14293173 1.0190001
-0.1514205 0.15052718 1.016
-0.14371344 0.15333609 1.0157
-0.13451727 0.15527733 1.0145003
-0.12638611 0.15374893 1.0176667
-0.17829472 -0.1478323 1.0220001
-0.19316009 -0.13343436 1.0229002
-0.18859819 -0.13304907 1.0220001
-0.2037798 -0.12242611 1.0260001
-0.19366793 -0.12866201 1.0227501
-0.18904616 -0.12991323 1.0220001
-0.20589867 -0.11834981 1.0273999
-0.12526865 -0.10003468 1.028
-0.0529433 -0.10499452 1.0236002
-0.046396416 -0.1039717 1.0243334
-0.037740499 -0.10153992 1.0250001
-0.1340805 -0.093225494 1.028
-0.125872 -0.094324447 1.0267367
-0.10381936 -0.093612984 1.0273999
-0.096134827 -0.093641683 1.0248333
-0.042305466 -0.097412258 1.0228184
-0.035134129 -0.094953902 1.0230434
-0.028371856 -0.091685891 1.0220002
-0.23251304 -0.080207989 1.028
-0.22620456 -0.080658592 1.028
-0.21899484 -0.080207989 1.028
-0.17467077 -0.082122065 1.0277857
-0.16569449 -0.080722973 1.028
-0.15365687 -0.082010403 1.028
-0.14451206 -0.084876448 1.0262858
-0.13502446 -0.085507609 1.024357
-0.12560396 -0.084924735 1.0248798
-0.1147524 -0.082480222 1.0277272
-0.10532023 -0.085564673 1.0242857
-0.097914897 -0.08741945 1.0220002
-0.024588941 -0.087305665 1.0220002
-0.01524107 -0.082487538 1.0227501
-0.00811092 -0.080207989 1.028
-0.2340439 -0.074175179 1.0251765
-0.2246896 -0.074879661 1.0244443
-0.21497299 -0.074323513 1.024111
-0.20517489 -0.074714608 1.0239999
-0.1950928 -0.075934783 1.0240526
-0.18458343 -0.075159907 1.0239091
-0.17472111 -0.074855357 1.023222
-0.16514383 -0.074499659 1.0237998
-0.15454285 -0.075260535 1.0247095
-0.14495811 -0.07543052 1.0222068
-0.13678221 -0.077350646 1.0220002
-0.12482097 -0.077537149 1.0227895
-0.11543103 -0.076798499 1.0237142
-0.10706642 -0.079291865 1.0220001
-0.012555621 -0.078025967 1.0230001
-0.0052204202 -0.074618779 1.0245553
0.0015002688 -0.071656398 1.026
-0.25143853 -0.060381293 1.028
-0.24489394 -0.06387385 1.0261738
-0.23846404 -0.065802954 1.0226002
-0.21234094 -0.068988405 1.0220001
-0.20696522 -0.068988405 1.0220001
-0.17291899 -0.068988405 1.0220001
-0.16493687 -0.068173893 1.0220002
-0.15525591 -0.068476431 1.0220002
-0.14872825 -0.068988405 1.0220001
-0.0038531378 -0.066947713 1.0260714
0.0023426285 -0.068271466 1.0274
-0.25143853 -0.056776438 1.028
-0.24531916 -0.054813795 1.025
-0.23921953 -0.058236968 1.0220001
-0.24508648 -0.045188252 1.025107
-0.23921953 -0.041213855 1.0220001
-0.042707108 -0.041711602 1.0220002
-0.036734089 -0.0403179 1.0220001
-0.24405399 -0.035875078 1.0267142
-0.23854756 -0.034270216 1.0220002
-0.04448083 -0.034697425 1.0246667
-0.035650738 -0.034793939 1.0227143
-0.029566459 -0.031358365 1.0220001
-0.2429532 -0.025628312 1.0274545
-0.23763447 -0.024462096 1.0233999
-0.051219247 -0.028752036 1.0250001
-0.04415945 -0.029379552 1.028
-0.034464762 -0.025994336 1.0254999
-0.02592578 -0.023505794 1.0227824
-0.014499947 -0.024030589 1.0221363
-0.24062397 -0.015320627 1.028
-0.23474327 -0.015209556 1.025913
-0.22613862 -0.0134393 1.0220002
-0.031542465 -0.018925481 1.028
-0.025032248 -0.015413279 1.0260342
-0.016149217 -0.015862685 1.026421
-0.27126521 -0.00090121332 1.028
-0.26459223 -0.0025631709 1.0268461
-0.2551972 -0.0044981767 1.025
-0.24539493 -0.0079883412 1.025353
-0.23492287 -0.0079756556 1.0239412
-0.22529779 -0.0079257404 1.0220002
-0.046487 -0.0056997947 1.0263333
-0.023431547 -0.0093125375 1.028
-0.017123053 -0.0099133467 1.028
-0.27126521 0.0036048533 1.028
-0.26551279 0.0053265248 1.0255767
-0.2589305 0.0053757201 1.0220001
-0.26330778 0.014547479 1.02625
-0.25818774 0.016244536 1.0230001
-0.26105145 0.021328717 1.028
-0.25470316 0.024916796 1.0259
-0.24859913 0.027191713 1.0225002
-0.0403179 0.024190739 1.0220001
-0.037549764 0.023706194 1.0232857
-0.25203934 0.032143276 1.028
-0.24592271 0.035429608 1.0251577
-0.24396826 0.045781646 1.0275909
-0.23664732 0.046029877 1.0244375
-0.032346368 0.049422085 1.0250001
-0.029653249 0.049422082 1.0250001
-0.26260799 0.056529772 1.027625
-0.25570136 0.054636866 1.0253156
-0.24488796 0.053799286 1.0258822
-0.23482683 0.053444616 1.0236667
-0.2266762 0.055549107 1.0220001
-0.032075129 0.056086678 1.0220001
-0.027416173 0.056803443 1.0220001
-0.26304698 0.064082928 1.0273076
-0.25815833 0.065304302 1.0232002
-0.032181237 0.06460803 1.0222729
-0.026625758 0.06395109 1.0237498
-0.26135188 0.071195856 1.028
-0.2548078 0.074925661 1.025923
-0.24869105 0.077435963 1.0220002
-0.033432856 0.076141596 1.0234001
-0.028824359 0.072963648 1.0275
-0.25203931 0.082010418 1.028
-0.24587989 0.085513517 1.0252143
-0.23885632 0.088188864 1.0230001
-0.052174468 0.087676309 1.0226002
-0.045252446 0.086125128 1.0239413
-0.036839664 0.082798786 1.025
-0.24152517 0.092824973 1.028
-0.23594229 0.095704034 1.0241001
-0.060116976 0.098700829 1.0235001
-0.055837903 0.093325801 1.025
-0.049566735 0.091022544 1.028
-0.23317842 0.10193733 1.0230001
-0.07460881 0.10778906 1.0229
-0.065409265 0.10586932 1.0240002
-0.22306082 0.1118013 1.0267999
-0.21513581 0.11373546 1.0244546
-0.20667574 0.11771653 1.0250001
-0.081531756 0.11378607 1.0220001
-0.076933637 0.11392598 1.0255712
-0.067457743 0.11063358 1.026
-0.20195384 0.1248175 1.0261251
-0.19607729 0.12659164 1.0241001
-0.18725425 0.12901728 1.0220001
-0.082886793 0.12717657 1.024
-0.079296835 0.12328621 1.024
-0.19075684 0.13127674 1.028
-0.18433869 0.13401993 1.0250001
-0.17746262 0.13768326 1.0245714
-0.11250615 0.1381048 1.0220002
-0.10477459 0.1378807 1.0230908
-0.094528638 0.13743867 1.0246471
-0.086697333 0.1338273 1.0259
-0.17453845 0.14393996 1.0266
-0.16510335 0.14639138 1.0251765
-0.15798645 0.1490269 1.0220001
-0.1209537 0.14872825 1.0220001
-0.11549538 0.14439411 1.0246249
-0.10370246 0.14190778 1.0266666
-0.09492781 0.14209129 1.028
-0.15343201 0.15298402 1.0265
-0.14577769 0.15735008 1.0243335
-0.12274409 0.15651187 1.0233637
-0.11775719 0.15414199 1.0264999
-0.14345481 0.16176106 1.027
-0.13531862 0.16301571 1.0245
-0.12718704 0.16215535 1.0250001
-0.21059549 -0.12292269 1.031
-0.20878781 -0.12201885 1.031
-0.19746566 -0.12102734 1.0380001
-0.15560658 -0.12102734 1.0380001
-0.1137475 -0.12102734 1.0380001
-0.21226028 -0.11450188 1.0325
-0.20647646 -0.11500858 1.0330001
-0.17016625 -0.11010758 1.0380001
-0.16444638 -0.11062758 1.0380001
-0.15487996 -0.11502345 1.0364829
-0.14542238 -0.11410016 1.0364764
-0.13522303 -0.11174555 1.0380001
-0.12484466 -0.11372727 1.0368236
-0.11528736 -0.11528911 1.0368335
-0.10731251 -0.11372753 1.0340002
-0.20110558 -0.10100778 1.0380001
-0.19493993 -0.10277584 1.0374668
-0.18456313 -0.10315238 1.0351431
-0.17480165 -0.10437714 1.0352801
-0.16499671 -0.1042338 1.0351037
-0.15496409 -0.10492951 1.0350002
-0.1451536 -0.10501309 1.0339146
-0.13472898 -0.10454673 1.0329632
-0.12489954 -0.10514259 1.0326287
-0.11512209 -0.10515093 1.0340003
-0.10569686 -0.10458756 1.0333228
-0.098518923 -0.10032661 1.031
-0.23295489 -0.090088017 1.0380001
-0.22522005 -0.090088017 1.0380001
-0.21424972 -0.091301322 1.0380001
-0.20423491 -0.095106073 1.0366088
-0.19492249 -0.095194988 1.0341603
-0.18536484 -0.095351033 1.0336668
-0.17529492 -0.094860248 1.0326073
-0.16489741 -0.095135242 1.0335002
-0.15495317 -0.095147826 1.0336403
-0.14493302 -0.095134959 1.0321381
-0.13580246 -0.097615071 1.031
-0.12188632 -0.095258281 1.0312728
-0.11480123 -0.094914377 1.0311201
-0.10630589 -0.096433133 1.031
-0.2411447 -0.081898198 1.0380001
-0.23454002 -0.084418185 1.0329446
-0.22514179 -0.084708169 1.0327201
-0.2147883 -0.084315635 1.0325358
-0.20507576 -0.085376561 1.0330001
-0.19505911 -0.084823139 1.0322729
-0.18536085 -0.084995627 1.0314001
-0.17561679 -0.087220892 1.031
-0.16516757 -0.086179517 1.031
-0.15622029 -0.08637128 1.031
-0.14732647 -0.089028567 1.031
-0.12093423 -0.088034339 1.031
-0.11549107 -0.086869404 1.031
-0.10936505 -0.089480489 1.031
-0.25297445 -0.070523441 1.0380001
-0.2436606 -0.074696884 1.0354286
-0.23771079 -0.077278599 1.031
-0.18890326 -0.078634366 1.031
-0.26116425 -0.06096866 1.0380001
-0.25495449 -0.064575523 1.0331001
-0.2482858 -0.0682908 1.0317501
-0.0037464979 -0.062968083 1.0324286
0.0036261126 -0.066092558 1.03275
-0.26116422 -0.054598797 1.0380001
-0.25530213 -0.055097573 1.0321054
-0.25482094 -0.045495685 1.0334349
-0.2527369 -0.03536066 1.0343573
-0.24765305 -0.033442203 1.031
-0.25204402 -0.026655341 1.0366668
-0.24734321 -0.02468155 1.0318573
-0.051681474 -0.023569401 1.03425
-0.045446541 -0.024690919 1.0334518
-0.037678987 -0.022003604 1.0315
-0.27208403 -0.010616433 1.0380001
-0.26753414 -0.01000978 1.0380001
-0.2538594 -0.013901439 1.0356156
-0.24541293 -0.01537574 1.0316523
-0.23951848 -0.01355765 1.031
-0.05077688 -0.017653611 1.0380001
-0.044807374 -0.014734427 1.0374668
-0.035696272 -0.014669392 1.0341113
-0.029826829 -0.011749963 1.031
-0.012653808 -0.013557649 1.031
-0.27432802 -0.0047277249 1.0345265
-0.26515594 -0.0076293796 1.0322858
-0.25639021 -0.0096409954 1.031
-0.04338466 -0.0070803105 1.0354
-0.033643048 -0.0059796968 1.037158
-0.025259294 -0.0048616687 1.0331113
-0.015656475 -0.0058226944 1.0333811
-0.27514893 0.005435498 1.0336876
-0.024560498 0.0017184616 1.0375557
-0.019085033 0.0027287712 1.0366668
-0.2727522 0.013974068 1.0350001
-0.26763526 0.016501386 1.0313751
-0.27026406 0.0227495 1.0380001
-0.26467448 0.0251207 1.0330001
-0.25831842 0.028742218 1.031
-0.037165407 0.020848887 1.034
-0.26126656 0.033910051 1.036
-0.25552315 0.036031242 1.0331668
-0.27162901 0.047773946 1.0380001
-0.26441899 0.047051352 1.0353686
-0.25496635 0.045366816 1.0330969
-0.24825561 0.044589609 1.031
-0.27255711 0.05450967 1.0363334
-0.2661874 0.053960357 1.0316001
-0.25397998 0.05151907 1.031
-0.24674922 0.05151907 1.031
-0.27136689 0.064094856 1.0370001
-0.2673848 0.065895781 1.0325
-0.024480479 0.068922222 1.0345001
-0.27026406 0.070068456 1.0380001
-0.26371542 0.075004749 1.0349168
-0.25844777 0.076902956 1.0320001
-0.026803287 0.075306229 1.0350001
-0.25450739 0.084001437 1.033125
-0.24801469 0.089610673 1.0325
-0.042058304 0.089093655 1.03175
-0.034312375 0.085869342 1.0348825
-0.028164495 0.081955358 1.0364001
-0.25115448 0.090997994 1.0380001
-0.24493118 0.095157787 1.0337274
-0.23951848 0.097615078 1.031
-0.053036664 0.097089797 1.0350001
-0.045771591 0.093848817 1.0357648
-0.037309181 0.091301322 1.0380001
-0.24068007 0.10172314 1.036
-0.23771079 0.10213429 1.031
-0.061759591 0.10667684 1.0330001
-0.057897173 0.10182483 1.0352001
-0.22206564 0.1174814 1.0356001
-0.21592768 0.11791577 1.0320001
-0.073923498 0.11698981 1.0332309
-0.06578204 0.11533316 1.0350502
-0.22203511 0.12648723 1.0380001
-0.2145396 0.12383185 1.0357897
-0.20702378 0.12607674 1.0325001
-0.19974938 0.1292496 1.031
-0.080442056 0.1292496 1.031
-0.077623896 0.12574282 1.035625
-0.21202534 0.13012713 1.0380001
-0.20283636 0.13410357 1.0335716
-0.19522734 0.13509816 1.0324349
-0.18673404 0.13792649 1.031
-0.083286457 0.13562183 1.0342858
-0.077752739 0.13336262 1.0380001
-0.19235364 0.14159113 1.034
-0.18500496 0.14359576 1.0330911
-0.17711964 0.14771515 1.032125
-0.11238674 0.14822206 1.0322001
-0.10532145 0.14705645 1.0327145
-0.095277622 0.14574125 1.0335386
-0.088097103 0.14298983 1.034091
-0.18108602 0.15014669 1.0380001
-0.16474424 0.15271606 1.034091
-0.1556624 0.15611666 1.0323334
-0.14913414 0.15998027 1.031
-0.12021116 0.15998027 1.031
-0.11372758 0.15514669 1.0349413
-0.10610367 0.15233067 1.0380001
-0.09736786 0.15014669 1.0380001
-0.15220116 0.16379026 1.0365
-0.14548706 0.16578001 1.0333335
-0.13413365 0.16759427 1.0315
-0.12420207 0.16645141 1.0333686
-0.11750095 0.16386697 1.0370001
-0.14195688 0.17016625 1.0380001
-0.13522302 0.17053024 1.0380001
-0.12466726 0.17125824 1.0380001
-0.15236643 -0.1312554 1.0470001
-0.14364666 -0.13263221 1.0470001
-0.13416198 -0.13278519 1.0470001
-0.12611534 -0.13217327 1.0470001
-0.11748736 -0.1312554 1.0470001
-0.20168681 -0.12137713 1.041
-0.19416368 -0.12158489 1.04475
-0.18918322 -0.1235045 1.0470001
-0.17347743 -0.12161777 1.0470001
-0.16452357 -0.12385032 1.0454999
-0.15463325 -0.12510592 1.044261
-0.14463493 -0.12541454 1.0442002
-0.13467883 -0.12552029 1.0450802
-0.12512535 -0.12574117 1.0452225
-0.11714423 -0.1248319 1.0434
-0.2121838 -0.1115784 1.0432501
-0.20361786 -0.11404133 1.0426803
-0.1951611 -0.11500509 1.0441073
-0.1853108 -0.11445171 1.045552
-0.17492284 -0.11453386 1.04375
-0.16547102 -0.11636639 1.0423046
-0.15970674 -0.11955191 1.041
-0.14292473 -0.11872542 1.0417501
-0.13530712 -0.11704263 1.0418572
-0.12506703 -0.11877898 1.0413333
-0.11955191 -0.11955191 1.041
-0.22221921 -0.10178626 1.046
-0.21500152 -0.10483683 1.0448184
-0.20568879 -0.10520438 1.0420002
-0.19564955 -0.10747739 1.0410001
-0.18586825 -0.10829639 1.041
-0.17978416 -0.10860059 1.041
-0.23271555 -0.0909568 1.041
-0.22386155 -0.095055684 1.04355
-0.21542692 -0.096593253 1.0427145
-0.20807508 -0.09947449 1.041
-0.25057852 -0.081690431 1.0470001
-0.24444255 -0.08521644 1.0438125
-0.2381912 -0.088523172 1.041
-0.27138355 -0.071287908 1.0470001
-0.26370877 -0.072931595 1.0454999
-0.25530347 -0.075534061 1.0434784
-0.24813065 -0.077685602 1.0425
-0.27179155 -0.06557671 1.0470001
-0.2653352 -0.065104283 1.0431429
-0.0027536098 -0.06149729 1.0470001
0.004571992 -0.064027876 1.0434
0.01009657 -0.063333027 1.0470001
-0.27123058 -0.058284745 1.0470001
-0.26608208 -0.054859463 1.0430001
-0.26422006 -0.044729874 1.0436667
-0.25826862 -0.041067451 1.041
-0.26266107 -0.035375077 1.0453999
-0.25799099 -0.033808649 1.0423334
-0.261774 -0.025380814 1.0465
-0.2566191 -0.024181446 1.0422
-0.28220075 -0.01128796 1.044
-0.27720615 -0.011633993 1.0435714
-0.26394522 -0.014343495 1.0441999
-0.25685763 -0.017580891 1.04175
-0.28252426 -0.0053362702 1.0434999
-0.041869603 -0.002375416 1.0428001
-0.036792502 -0.0025733353 1.042091
-0.28179473 0.0048324368 1.0431429
-0.042209659 0.0045890873 1.0467
-0.034834877 0.0045867199 1.0456003
-0.024681401 0.0061724451 1.0426877
-0.019220039 0.0073245503 1.044
-0.28097868 0.01098551 1.044
-0.27754784 0.015559736 1.044
-0.04121539 0.012817962 1.04475
-0.03620626 0.014048197 1.0461602
-0.02478249 0.011014441 1.0470001
-0.01927527 0.01009657 1.0470001
-0.27335343 0.023491161 1.044
-0.26999581 0.02837244 1.044
-0.034776486 0.02105052 1.044
-0.27077165 0.034879059 1.0470001
-0.26640901 0.035931937 1.0438
-0.28288707 0.046957664 1.045125
-0.27548608 0.044740684 1.0440001
-0.26623195 0.042324293 1.0420001
-0.28345695 0.054082241 1.0455884
-0.27750027 0.054770842 1.0412501
-0.28178608 0.06149729 1.0470001
-0.27653554 0.064970292 1.0438
-0.27308238 0.073813058 1.0446
-0.26760426 0.077722639 1.043
-0.024417361 0.075394653 1.0445
-0.26304674 0.083545171 1.0446666
-0.2581329 0.087266028 1.0434
-0.030753469 0.087999798 1.0419999
-0.026871586 0.085503064 1.0450001
-0.25381681 0.093877062 1.0437
-0.24858761 0.098705217 1.0425
-0.052018769 0.09947449 1.041
-0.043933567 0.098117992 1.0416666
-0.034858257 0.094603486 1.0440001
-0.02845397 0.09270487 1.0470001
-0.25241426 0.10004783 1.0470001
-0.24524368 0.1037009 1.0434546
-0.06114487 0.10860059 1.041
-0.054607347 0.10452771 1.04475
-0.044253036 0.10204005 1.0462501
-0.038550541 0.10096569 1.0470001
-0.23038536 0.11656949 1.0470001
-0.22684978 0.11753646 1.0420001
-0.062174957 0.11551046 1.043
-0.058936547 0.1142095 1.0450001
-0.2240302 0.12429007 1.0437499
-0.2182395 0.12656191 1.0416
-0.073781781 0.12419266 1.0437273
-0.065854549 0.12163948 1.04325
-0.21416132 0.1322158 1.0425
-0.20736323 0.13549936 1.0419999
-0.082134902 0.13962933 1.041
-0.076914683 0.13716666 1.0413749
-0.091260999 0.14875543 1.041
-0.084175169 0.1458991 1.044353
-0.077678032 0.14596598 1.0454999
-0.18449187 0.15144855 1.0470001
-0.1657526 0.15732923 1.0446
-0.15970674 0.15788153 1.041
-0.11141797 0.15799528 1.04175
-0.10443188 0.15648156 1.0438124
-0.095238343 0.15421794 1.0446002
-0.087592803 0.15179899 1.0462501
-0.078018941 0.15144855 1.0470001
-0.16016699 0.16016699 1.044
-0.1561504 0.16571249 1.0443333
-0.11393782 0.16578093 1.044158
-0.10702364 0.1609944 1.0470001
-0.1519158 0.17208968 1.046
-0.14503729 0.17537072 1.0448892
-0.13496597 0.17515875 1.0452856
-0.1246274 0.17549203 1.0446922
-0.1170762 0.1738793 1.0449998
-0.14410558 0.18082039 1.0470001
-0.15382168 -0.15104178 1.057
-0.1644312 -0.14278735 1.0549001
-0.1549069 -0.14428917 1.0564001
-0.14477608 -0.1438491 1.0560626
-0.1363648 -0.14325142 1.0524
-0.12860875 -0.14189622 1.0524
-0.18272899 -0.13296138 1.0556667
-0.17420433 -0.13388264 1.0566471
-0.16572441 -0.13562982 1.0556295
-0.1551251 -0.13554935 1.0524349
-0.14561452 -0.13731514 1.0522144
-0.13618341 -0.13745795 1.0512308
-0.12532836 -0.13661198 1.0516472
-0.11904607 -0.1356595 1.0526667
-0.18403237 -0.12501854 1.0504999
-0.17587306 -0.12555033 1.0516471
-0.16512416 -0.12828214 1.0505716
-0.158326 -0.1297905 1.0500001
-0.1813385 -0.1187445 1.0500001
-0.24577349 -0.091129497 1.0500001
-0.2605015 -0.080083497 1.0500001
-0.25518224 -0.083156742 1.0516001
-0.24900664 -0.087617576 1.052
-0.27073395 -0.074844539 1.054
-0.26712912 -0.074928701 1.0500001
-0.28156385 -0.062362414 1.0565001
-0.27705267 -0.065165326 1.0515386
-0.0042504305 -0.060430039 1.054
0.0039160699 -0.061068602 1.0515
0.011368029 -0.06113581 1.0513334
-0.28114158 -0.05615418 1.057
-0.27539474 -0.054454565 1.052842
-0.0018532733 -0.058378108 1.057
0.0056979675 -0.057625707 1.0545833
0.013022816 -0.056703605 1.055077
-0.27434728 -0.045262005 1.0536667
-0.26970649 -0.044183999 1.0500001
-0.27308995 -0.0352589 1.0544285
-0.26795051 -0.034988638 1.0503334
-0.27177522 -0.027315399 1.0562501
-0.26677456 -0.024645355 1.0524286
-0.2929101 -0.010780078 1.054
-0.28839087 -0.011057396 1.0510001
-0.27073395 -0.015708113 1.054
-0.26787728 -0.017543603 1.0531429
-0.2938191 -0.0044033932 1.0545294
-0.28816074 -0.0043741278 1.051
-0.29218337 0.003572667 1.0561429
-0.28737593 0.0046112668 1.052
-0.29003727 0.012046277 1.057
-0.28485462 0.015239205 1.05325
-0.2789115 0.0193305 1.0500001
-0.031904448 0.016163982 1.0507274
-0.025287744 0.016383732 1.0511112
-0.018231876 0.015214869 1.0542728
-0.28112128 0.023145752 1.0560001
-0.27688465 0.025697604 1.0522858
-0.03057901 0.021312643 1.057
-0.024758928 0.022216596 1.0558751
-0.019459371 0.021312643 1.057
-0.2807709 0.039845377 1.057
-0.27487543 0.035500713 1.0533333
-0.2932137 0.047541369 1.0551
-0.28729358 0.045978248 1.0560001
-0.27777651 0.041527703 1.0526667
-0.29245773 0.053856753 1.0531111
-0.28785351 0.055624504 1.0500001
-0.28362748 0.06500534 1.0528572
-0.021171499 0.068117 1.0500001
-0.018251147 0.067669898 1.0516
-0.28182203 0.071148515 1.054
-0.27614999 0.074560501 1.0500001
-0.021882039 0.075322762 1.0510001
-0.015727017 0.074147969 1.0555626
-0.0083397301 0.073204294 1.057
-0.27156281 0.085697532 1.0548334
-0.26682112 0.087098107 1.0518183
-0.023449332 0.085638061 1.052
-0.018532733 0.085868329 1.057
-0.26294324 0.093349002 1.05425
-0.25759742 0.096407034 1.0506667
-0.031757247 0.098033249 1.0500001
-0.025152938 0.095206067 1.0530626
-0.019459371 0.093590297 1.057
-0.26038489 0.10193003 1.057
-0.25441459 0.10449155 1.0525883
-0.24486177 0.10810878 1.054
-0.23931773 0.10810878 1.054
-0.053944025 0.10881402 1.0508889
-0.045161199 0.10614767 1.0513334
-0.03523301 0.10396054 1.0533158
-0.027315399 0.10185836 1.05625
-0.25111854 0.11026976 1.057
-0.24476445 0.11079927 1.057
-0.23654929 0.11410581 1.0559334
-0.055045526 0.11261247 1.0541428
-0.042625286 0.11026976 1.057
-0.039845377 0.11026976 1.057
-0.2310455 0.1205855 1.0500001
-0.22920451 0.1242675 1.0500001
-0.072764501 0.12772392 1.0506667
-0.067171514 0.12627113 1.0532501
-0.073439464 0.13210292 1.05375
-0.068571113 0.13065577 1.057
-0.19126938 0.15153709 1.054
-0.18596259 0.15358728 1.0553751
-0.17540196 0.15671986 1.0555456
-0.16785187 0.15954983 1.052
-0.093642026 0.15873395 1.0506668
-0.084575742 0.15499672 1.0520002
-0.07772819 0.1545347 1.0513334
-0.17211115 0.16100466 1.0555
-0.16493791 0.16483632 1.0543332
-0.1592465 0.167531 1.0500001
-0.1113805 0.1684515 1.0500001
-0.10514452 0.16552138 1.0525237
-0.096910648 0.16398808 1.0546364
-0.15476684 0.17482542 1.0523751
-0.13807499 0.1794975 1.0500001
-0.11224587 0.17445725 1.0504446
-0.10908232 0.17471661 1.0545001
-0.15104178 0.18254742 1.057
-0.14439987 0.18289633 1.0536667
-0.13486241 0.18197688 1.0556364
-0.12574524 0.18201999 1.056625
-0.1756314 -0.14031927 1.0600001
-0.15539402 -0.1481664 1.0600001
-0.14801891 -0.14828442 1.0600001
-0.181207 -0.13753146 1.0600001
-0.1777997 -0.13722171 1.0600001
-0.010250864 -0.060573284 1.0630001
-0.0083870701 -0.060573284 1.0630001
-0.28296173 -0.053897467 1.0600001
-0.010250864 -0.058709491 1.0630001
-0.0046649822 -0.056877971 1.0636364
0.004511259 -0.053507213 1.0622309
0.015424824 -0.052520603 1.0617143
0.023533788 -0.052423902 1.063125
-0.28348491 -0.045160256 1.0644001
-0.27970928 -0.045534067 1.0600001
0.0074832262 -0.049576376 1.067
0.0156346 -0.049309116 1.067
0.025255889 -0.049576376 1.067
-0.28232387 -0.034306593 1.0658572
-0.27819386 -0.035144161 1.0606002
-0.2815564 -0.028997503 1.067
-0.27593556 -0.024874138 1.063077
-0.27575228 -0.017537521 1.0654445
-0.30100262 -0.00093189668 1.0630001
-0.2982946 -0.00092926668 1.0600001
-0.30138442 0.0042066853 1.066
-0.29634416 0.0052228426 1.0606925
-0.3007322 0.013563348 1.067
-0.29435056 0.014689721 1.063
-0.28900194 0.018585334 1.0600001
-0.01457166 0.017363844 1.061
-0.29250681 0.022429517 1.066
-0.28561407 0.025153844 1.0626001
-0.27970928 0.028807266 1.0600001
-0.032188393 0.024376243 1.0612
-0.025354894 0.026751097 1.0613126
-0.016920645 0.025466908 1.061941
-0.2839058 0.033504054 1.064889
-0.27970928 0.033453599 1.0600001
-0.023917921 0.032330241 1.0658
-0.014729949 0.033819854 1.0650001
-0.29182085 0.044749014 1.0635
-0.28888798 0.043799143 1.0630001
-0.012160243 0.040222343 1.067
-0.29204717 0.061896462 1.0643334
-0.2883895 0.066265658 1.0646001
-0.010221933 0.069694996 1.0600001
-0.27599218 0.078987665 1.0600001
-0.011671259 0.076740958 1.0603334
-0.27781478 0.081380092 1.067
-0.01380989 0.084670536 1.0634545
-0.0083870701 0.082006909 1.0630001
-0.27158871 0.094266035 1.0646001
-0.2662591 0.096674748 1.0628752
-0.021373134 0.09943153 1.0600001
-0.015650341 0.094951242 1.0628999
-0.26385695 0.10254765 1.0635
-0.032081395 0.10833649 1.0607501
-0.025318334 0.10508137 1.0636156
-0.016650179 0.10121064 1.067
-0.24414504 0.11494669 1.0602502
-0.236963 0.11578663 1.0600001
-0.051254317 0.11462329 1.0630001
-0.045377888 0.1133441 1.063077
-0.035729717 0.11233022 1.0633334
-0.028997503 0.11131299 1.067
-0.24087995 0.12137625 1.0650001
-0.23595673 0.12372792 1.0638334
-0.064119399 0.12916806 1.0600001
-0.072309799 0.13624042 1.0620002
-0.067113653 0.13386062 1.0633
-0.20345023 0.14685832 1.067
-0.19669478 0.1477534 1.0600001
-0.19596568 0.15195282 1.0634
-0.18468668 0.15802141 1.0610001
-0.17934847 0.1589046 1.0600001
-0.080846198 0.1589046 1.0600001
-0.0766645 0.15843996 1.0600001
-0.18376034 0.16321732 1.0652223
-0.17566709 0.16496465 1.0618999
-0.16819726 0.16726799 1.0600001
-0.092753351 0.16651502 1.0623001
-0.085397094 0.16298763 1.0633076
-0.075832047 0.16192596 1.0641429
-0.17122833 0.17029643 1.0615001
-0.16510125 0.17233825 1.0613334
-0.15759662 0.17657469 1.0612
-0.10431529 0.17486827 1.0634999
-0.097041391 0.17225693 1.0644
-0.15562674 0.18171985 1.0630001
-0.14374723 0.18651661 1.0606
-0.13407029 0.18668593 1.0613638
-0.1250983 0.18648416 1.0609376
-0.11533515 0.18440308 1.0610002
-0.10827563 0.18366809 1.0616666
-0.13002107 0.19175768 1.067
-0.12487415 0.19103882 1.0630001
-0.11894614 0.19049966 1.0600001
-0.011125777 -0.05599954 1.0754001
-0.0052585094 -0.053324215 1.0709001
0.0015654344 -0.051074892 1.0723333
-0.28735352 -0.042928904 1.0723333
0.0060523814 -0.048009396 1.0738572
0.015821412 -0.045033701 1.0735236
0.025404014 -0.044217978 1.0733199
0.03109975 -0.043349415 1.075
-0.28741658 -0.034800515 1.0727999
-0.28407559 -0.024886988 1.0727333
-0.28216711 -0.01692635 1.0728751
-0.27859589 -0.0140705 1.0700001
-0.3043502 0.0065741236 1.0715001
-0.30110869 0.015946567 1.0700001
-0.29923263 0.018760666 1.0700001
-0.3000716 0.024457246 1.0730001
-0.29536936 0.025514238 1.0716923
-0.28985229 0.028140999 1.0700001
-0.29233149 0.034262765 1.0756668
-0.28793892 0.035541322 1.0708572
-0.025791802 0.036921289 1.0713845
-0.017842688 0.036857586 1.071125
-0.29269269 0.041543484 1.077
-0.28891602 0.041543484 1.077
-0.025310973 0.041977867 1.076
-0.015301206 0.042419877 1.0752307
-0.29450676 0.065462574 1.0732858
-0.29458103 0.070812747 1.077
-0.28559178 0.075278603 1.0733751
-0.27859589 0.083484963 1.0700001
-0.27202967 0.098493502 1.0700001
-0.011273276 0.096778519 1.07175
-0.27109164 0.10036957 1.0700001
-0.26921555 0.10036957 1.0700001
-0.023838144 0.10830954 1.0706002
-0.015659276 0.10543365 1.0732353
-0.25020504 0.11802125 1.077
-0.24739446 0.11946424 1.0730001
-0.053083263 0.11791802 1.07175
-0.044726178 0.11843996 1.073
-0.034106154 0.11749882 1.0722144
-0.025433851 0.11362032 1.0746666
-0.017624507 0.11109734 1.077
-0.24422517 0.12393124 1.0744287
-0.23646915 0.1284457 1.0746666
-0.042487651 0.12179793 1.077
-0.036822628 0.12179793 1.077
-0.2242904 0.13749553 1.0734445
-0.21715471 0.13929795 1.0700001
-0.072228566 0.1391416 1.0700001
-0.063410178 0.13604622 1.0732
-0.22286297 0.14270906 1.0756667
-0.21499328 0.14523956 1.0722998
-0.20810938 0.14700322 1.0700001
-0.072566085 0.14262082 1.075
-0.066424407 0.14134133 1.0758572
-0.21388038 0.15223199 1.0763334
-0.20486555 0.15396981 1.0728235
-0.19654094 0.15660176 1.0708181
-0.2011082 0.16145307 1.077
-0.19370872 0.16273516 1.073
-0.18582335 0.1675957 1.0716001
-0.17916436 0.16978404 1.0700001
-0.090989232 0.16978404 1.0700001
-0.085230611 0.16785643 1.0710001
-0.077197254 0.16701595 1.0739
-0.18370286 0.17202182 1.0746
-0.17514396 0.17527533 1.0737332
-0.16514365 0.17766362 1.071
-0.10162028 0.17853899 1.0700001
-0.094192013 0.17629635 1.0729285
-0.085969299 0.17272772 1.0756667
-0.076477766 0.17089479 1.077
-0.16806225 0.18033648 1.077
-0.15686855 0.18317556 1.0715001
-0.14956547 0.18907332 1.0730001
-0.112564 0.18854471 1.0700001
-0.10428207 0.18530108 1.073409
-0.096927151 0.18239789 1.0764287
-0.14274834 0.19292702 1.0744545
-0.13473946 0.19505596 1.0732105
-0.12612548 0.19541019 1.0716251
-0.11251938 0.19496222 1.0752727
-0.10771208 0.19392559 1.0759
-0.011046 -0.052074 1.08
-0.0047426415 -0.050820988 1.0821429
-0.29215616 -0.040787794 1.082
-0.010448551 -0.047490347 1.0835
-0.0047646835 -0.048599768 1.087
0.0052280747 -0.044829592 1.08425
0.012554743 -0.041934472 1.081
0.032506797 -0.0413436 1.08
-0.29261592 -0.035087705 1.0816001
0.015904954 -0.037199534 1.0843999
0.025326516 -0.035734612 1.0839999
0.033289444 -0.03550449 1.0849166
-0.29163292 -0.024222549 1.0805714
-0.28877398 -0.0246168 1.08
-0.29066759 -0.0198828 1.08
-0.28782719 -0.017989198 1.08
-0.3010824 0.028403999 1.08
-0.298242 0.0293508 1.08
-0.30013561 0.031244399 1.08
-0.29662457 0.035379637 1.081
-0.031379405 0.046597753 1.0846667
-0.025362719 0.046931598 1.0829999
-0.016704533 0.046697401 1.0826
-0.024776353 0.050505642 1.087
-0.015246987 0.050505642 1.087
-0.30351961 0.065244287 1.0848666
-0.297979 0.068570524 1.0813333
-0.30071113 0.072324559 1.0855
-0.2954677 0.073698856 1.0837144
-0.28782719 0.077637598 1.08
-0.28485164 0.08406166 1.0855
-0.0085212002 0.099413998 1.08
-0.01073683 0.10579322 1.0806667
-0.0082272245 0.10475669 1.0830001
-0.25503594 0.11800109 1.0855
-0.023438061 0.11802813 1.082
-0.014992927 0.11434732 1.0827333
-0.25230375 0.12330229 1.0846666
-0.24737357 0.12684797 1.0825
-0.2395404 0.1297116 1.08
-0.063846759 0.12864645 1.087
-0.053253334 0.12124892 1.0847501
-0.046565026 0.12258956 1.0840001
-0.026634667 0.12082812 1.08525
-0.24337158 0.13351485 1.0849373
-0.23450767 0.13555035 1.0820526
-0.061905641 0.1327673 1.0864
-0.23372284 0.14152803 1.0864
-0.2258994 0.14606546 1.0819167
-0.072748803 0.14753099 1.0817143
-0.066104725 0.14595392 1.0842727
-0.22230251 0.15263964 1.0836667
-0.21593089 0.15588845 1.0824546
-0.2073492 0.1581156 1.08
-0.21253103 0.16145848 1.0855
-0.20485735 0.16397186 1.0847142
-0.19654633 0.16715927 1.0813333
-0.19485019 0.17173374 1.0857143
-0.18518059 0.176852 1.0832307
-0.1789452 0.1789452 1.08
-0.084538989 0.17704795 1.0835383
-0.078287736 0.17581585 1.0864
-0.18162973 0.18353561 1.087
-0.17477484 0.18319161 1.0834999
-0.16418174 0.18490477 1.0853333
-0.15745789 0.18885262 1.08525
-0.094220616 0.18570647 1.0832222
-0.084632583 0.18212785 1.0867499
-0.079093739 0.18010503 1.087
-0.1533848 0.19334228 1.0852222
-0.14689223 0.19687507 1.0825555
-0.1391796 0.1997748 1.08
-0.12592441 0.19851239 1.08
-0.1126692 0.1997748 1.08
-0.10360559 0.19541977 1.0828571
-0.14351048 0.20161246 1.0865
-0.13487576 0.20247202 1.086
-0.11125425 0.20444568 1.0846667
-0.10672795 0.20334953 1.0843636
-0.0047880029 -0.044049699 1.0924
0.0026282468 -0.042780455 1.0905001
-0.0048058867 -0.038563009 1.0966668
0.0052988962 -0.036500387 1.0942632
0.013228901 -0.033315085 1.0910001
0.023889167 -0.031533699 1.09
0.032489266 -0.031533699 1.09
0.015130061 -0.029060954 1.095875
0.025281789 -0.027109319 1.0939091
0.034735579 -0.025691465 1.0933809
-0.031533699 0.050645035 1.09
-0.024047432 0.053778242 1.0914667
-0.015600347 0.054603871 1.0926429
-0.3118014 0.066951908 1.0910001
-0.30801097 0.067845233 1.09
-0.31169882 0.070012353 1.0940001
-0.30365804 0.074395686 1.0926667
-0.29581156 0.078325011 1.092875
-0.29364064 0.085662864 1.0961429
-0.28795269 0.086322859 1.0922859
-0.28639168 0.092261054 1.0962501
-0.28274077 0.10482566 1.097
-0.0044427076 0.10556111 1.0937272
-0.27171442 0.11425702 1.0952002
-0.26592842 0.11639423 1.09575
-0.25990888 0.11796602 1.0940001
-0.013536109 0.11858482 1.0921429
-0.0069927946 0.11260357 1.095143
-0.26449886 0.12473891 1.0966251
-0.25736001 0.12622212 1.0924001
-0.061052315 0.12661095 1.0905715
-0.055152752 0.12636791 1.0924706
-0.048201177 0.12481016 1.0923333
-0.022031009 0.12330379 1.0927143
-0.014727928 0.12375939 1.09575
-0.26285738 0.13344732 1.0967
-0.25516158 0.13556093 1.0933044
-0.24816753 0.13617262 1.0905715
-0.06062711 0.1348366 1.0908
-0.056940816 0.13334559 1.0962501
-0.25380448 0.14187983 1.0943333
-0.24500212 0.14247139 1.0951
-0.23595551 0.14558533 1.0930769
-0.061380692 0.14290193 1.0940001
-0.23241529 0.15078096 1.0955
-0.22572713 0.15553208 1.0938001
-0.21882476 0.15957963 1.09
-0.072956644 0.15359375 1.095
-0.066145808 0.1514674 1.0935
-0.22154593 0.16016525 1.0940001
-0.21438769 0.16591486 1.0927
-0.20659351 0.16837087 1.09
-0.21157473 0.1711832 1.097
-0.20414373 0.17288379 1.0947143
-0.19519131 0.17623989 1.0932223
-0.073398694 0.17654619 1.0945001
-0.19137897 0.18176194 1.097
-0.18687887 0.18400137 1.0931667
-0.17319514 0.18854602 1.0945001
-0.16708881 0.18814072 1.0916001
-0.090778835 0.18824664 1.09
-0.084828578 0.18732814 1.0917274
-0.074949428 0.18362732 1.0952941
-0.068280935 0.18272364 1.097
-0.1711832 0.19137897 1.097
-0.16333304 0.19299048 1.0952222
-0.15575737 0.19660783 1.09
-0.10099638 0.19720793 1.092
-0.095874079 0.19462861 1.0943334
-0.088234752 0.19085559 1.0940001
-0.15198135 0.20279777 1.09375
-0.14548908 0.20541342 1.0936251
-0.13536671 0.20736977 1.0951002
-0.12835246 0.20485334 1.0953335
-0.1154044 0.20772792 1.097
-0.10369732 0.20548622 1.0919167
-0.099055439 0.2019577 1.097
-0.10549806 0.21003705 1.0940001
-0.0029029939 -0.034059204 1.1038001
0.0039568748 -0.031385385 1.1031818
0.0064108879 -0.027780514 1.108
0.014743642 -0.024127757 1.1057367
0.024592502 -0.021691864 1.1032857
0.035712771 -0.020269411 1.1010001
0.017808022 -0.017808022 1.108
0.024818685 -0.015111481 1.1071427
0.034879845 -0.014532126 1.1051663
0.041692514 -0.016481332 1.1060001
0.027197707 -0.007770773 1.108
0.03491842 -0.0048482297 1.1064998
0.036911175 0.00097134669 1.108
-0.021717224 0.058395207 1.1010001
-0.015136819 0.058949113 1.1023334
-0.021620059 0.062283952 1.1043334
-0.015739037 0.062704302 1.1034545
-0.30122072 0.085318774 1.1034
-0.2982499 0.086868897 1.1010001
-0.30213264 0.093317412 1.1071428
-0.29497758 0.094766729 1.1023529
-0.28737333 0.097175993 1.1037143
-0.29091835 0.10150573 1.108
-0.28644174 0.10382985 1.1069089
-0.0019321733 0.10926685 1.103
0.00097134669 0.10976217 1.108
-0.27508485 0.11485999 1.1010001
-0.0039317333 0.11566687 1.1037999
0.00097134669 0.11559025 1.108
-0.27195472 0.122693 1.102
-0.26865011 0.12612076 1.101
-0.05115613 0.12837292 1.1010001
-0.046968952 0.12832581 1.10475
-0.02316504 0.12644251 1.1010001
-0.01320406 0.1233736 1.1023334
-0.0080805281 0.12184674 1.1060001
-0.054434147 0.13569492 1.1034545
-0.048293639 0.13208333 1.1062
-0.2514087 0.14698018 1.103
-0.2459999 0.14677899 1.1015
-0.23840687 0.14960755 1.1010001
-0.061497949 0.14672706 1.10475
-0.057634871 0.14224584 1.1068001
-0.2446975 0.15147911 1.1076249
-0.23550142 0.15547508 1.1042666
-0.22838831 0.15880904 1.1023334
-0.072978869 0.15851498 1.1015714
-0.065031715 0.15425244 1.1035554
-0.2331232 0.1602722 1.108
-0.22431986 0.16396281 1.1044999
-0.21910267 0.16698132 1.1010001
-0.074087188 0.16326907 1.1033
-0.067994267 0.1602722 1.108
-0.21369562 0.17401218 1.10425
-0.20507841 0.17796378 1.10475
-0.19786805 0.17856385 1.1010001
-0.07058832 0.17598557 1.103
-0.068965614 0.17969914 1.108
-0.19529749 0.18405512 1.1049999
-0.18688385 0.18881428 1.1045001
-0.074321173 0.18789423 1.101
-0.066599488 0.18551336 1.101
-0.18276869 0.19168229 1.1054001
-0.17560613 0.19433407 1.1046666
-0.16690543 0.19649868 1.1041428
-0.15925965 0.19979846 1.1010001
-0.12258167 0.19979846 1.1010001
-0.092259087 0.1973221 1.102
-0.084203921 0.1956801 1.105238
-0.075209096 0.19403838 1.1055498
-0.067810163 0.19083719 1.105
-0.16221489 0.20171632 1.108
-0.15577655 0.2064082 1.1053749
-0.14381629 0.20945056 1.1010001
-0.12390884 0.20631365 1.101
-0.11823823 0.20703754 1.1010001
-0.10134705 0.20848536 1.1010001
-0.094459943 0.20477434 1.1046362
-0.087226935 0.20301147 1.108
-0.15201575 0.2112679 1.108
-0.14457443 0.21346588 1.1068
-0.13463023 0.21420859 1.1039443
-0.12469703 0.21448541 1.1060498
-0.11547521 0.21462497 1.1027777
-0.104871 0.21424538 1.1049091
-0.097435609 0.21136948 1.1067144
-0.12141833 0.22049569 1.108
-0.11753295 0.22049569 1.108
0.0064901235 -0.023728896 1.1153637
0.011382933 -0.021140233 1.113
0.0088289101 -0.01765782 1.1190001
0.014663807 -0.01488093 1.1153333
0.021460582 -0.011705473 1.1127501
0.01863881 -0.0078479201 1.1190001
0.024544258 -0.0050066439 1.1145
0.027760819 0.0016338145 1.1176667
0.034844358 0.0052151443 1.1144999
0.041514769 0.0073278379 1.1142501
0.03727762 0.013488613 1.1190001
0.041692074 0.014551352 1.1190002
0.042182568 0.02354376 1.1190001
0.044144548 0.03041069 1.1190001
-0.30247718 0.10317542 1.1166
-0.29599559 0.10428558 1.1143126
-0.29331601 0.11085187 1.1190001
-0.28953144 0.11015843 1.1120001
0.0019555511 0.11375304 1.1153334
-0.042090517 0.12824172 1.1166668
-0.0035911191 0.12182365 1.1176667
-0.052317128 0.13875411 1.1120001
-0.045201939 0.13532379 1.11615
-0.054347806 0.14604978 1.1150999
-0.046798438 0.14285217 1.118
-0.24528271 0.15639733 1.113091
-0.23883906 0.1589011 1.1120001
-0.06257797 0.15707387 1.1128572
-0.057204247 0.15386049 1.1168573
-0.24078877 0.16182566 1.1120001
-0.23510028 0.16439626 1.1150835
-0.22809047 0.16654848 1.1142501
-0.071797028 0.16752729 1.1142501
-0.065298744 0.16570474 1.1161304
-0.059840389 0.16186334 1.1190001
-0.22196691 0.17308047 1.1154001
-0.21607664 0.17803106 1.1127501
-0.072138272 0.17262356 1.115
-0.06636212 0.17512463 1.1171905
-0.21370077 0.18215939 1.115625
-0.20479113 0.18511735 1.1148667
-0.19789523 0.1874968 1.1120001
-0.066812523 0.18153839 1.1153334
-0.19241999 0.1938915 1.1170001
-0.18569304 0.19643252 1.1138335
-0.17401132 0.19935751 1.1120001
-0.16864963 0.19984493 1.1120001
-0.073114 0.19887008 1.1120001
-0.067463011 0.19653407 1.1153334
-0.18213627 0.20074351 1.1170001
-0.17496951 0.20155707 1.115
-0.16491142 0.20504938 1.1142728
-0.1589011 0.20959346 1.1120001
-0.091636211 0.20959346 1.1120001
-0.083947435 0.20515618 1.1126002
-0.075316623 0.20503049 1.1158
-0.068342306 0.20241094 1.1190001
-0.16167046 0.21262352 1.1176667
-0.15545692 0.21566044 1.1143751
-0.14623109 0.21846752 1.1135
-0.13680442 0.21934199 1.1120001
-0.12868065 0.21934199 1.1120001
-0.11015843 0.21934199 1.1120001
-0.10382187 0.21861087 1.1120001
-0.094581343 0.2159604 1.1153334
-0.085142747 0.21236986 1.1163332
-0.079270832 0.21236987 1.1163334
-0.15499642 0.22072275 1.1190001
-0.14322454 0.22268473 1.1190001
-0.13415368 0.22302246 1.117
-0.12626587 0.22316821 1.1165
-0.11333358 0.22233757 1.1158571
-0.10455164 0.22422232 1.1175716
-0.098010458 0.22248572 1.118
0.0049224831 -0.02067443 1.123
0.0068914765 -0.017228693 1.123
0.01231344 -0.011328945 1.1237501
0.015883839 -0.0066817589 1.1246667
0.021866871 -0.0021664186 1.1236001
0.025493095 0.0046479618 1.1247145
0.030519396 0.0088604698 1.123
0.028626675 0.014806899 1.126
0.0330723 0.015349507 1.1231765
0.035785891 0.023840025 1.1247647
0.041458249 0.024612416 1.123
0.03849794 0.030600926 1.126
0.042397976 0.032539483 1.1247143
-0.31094489 0.10562255 1.126
-0.30555156 0.10800446 1.1246365
-0.2983025 0.10927913 1.123
-0.30502215 0.11154531 1.126
-0.29692721 0.11245814 1.12525
0.0046449555 0.11668271 1.1238573
-0.035865601 0.12865551 1.126
-0.0043388866 0.12559451 1.1245
0.0017757758 0.12286554 1.1248
-0.040801294 0.13659851 1.1242001
-0.03745953 0.13209876 1.1245
-0.044151209 0.1456643 1.1242001
-0.052897189 0.15475065 1.1243334
-0.047668163 0.15155433 1.125
-0.060054291 0.16637993 1.123
-0.057191275 0.16467395 1.1248
-0.23353523 0.17046958 1.1240001
-0.22598913 0.17445692 1.1242858
