# .PCD v0.7 - Point Cloud Data file format
VERSION 0.7
FIELDS x y z
SIZE 4 4 4
TYPE F F F
COUNT 1 1 1
WIDTH 1481
HEIGHT 1
VIEWPOINT 0 0 0 1 0 0 0
POINTS 1481
DATA ascii
-0.26535365 -0.11771541 1.0903078
-0.255795 -0.11792986 1.0909232
-0.24787398 -0.11868139 1.09
-0.13546845 -0.11457179 1.0936501
-0.12982994 -0.1154044 1.097
-0.39368045 -0.1050666 1.0961667
-0.38454917 -0.10500278 1.0910436
-0.37553772 -0.10989016 1.09
-0.29463306 -0.10989016 1.09
-0.28456777 -0.10950794 1.09
-0.2771143 -0.10925312 1.09
-0.14094082 -0.10833818 1.0936667
-0.13944699 -0.10867248 1.097
-0.3917338 -0.09584976 1.097
-0.38527006 -0.094879352 1.0932
-0.37935996 -0.095238149 1.09
-0.3857438 -0.085399747 1.09455
-0.37904143 -0.084408395 1.09
-0.17301336 -0.083938919 1.0914546
-0.16690098 -0.083368659 1.0910001
-0.3850131 -0.075134188 1.0949545
-0.37829819 -0.075914465 1.09
-0.17482246 -0.075156733 1.0948077
-0.16460648 -0.074886128 1.0947038
-0.15745917 -0.073465012 1.0912001
-0.38232222 -0.065755382 1.0961429
-0.37589902 -0.064250723 1.0922105
-0.1806021 -0.063067399 1.09
-0.17935547 -0.0659355 1.0964
-0.16200329 -0.065308399 1.097
-0.15423375 -0.064633287 1.0932223
-0.14439681 -0.064522333 1.0913334
-0.41184923 -0.050645035 1.09
-0.40747786 -0.0508154 1.0936667
-0.3762868 -0.054714125 1.09495
-0.36925825 -0.054194275 1.09
-0.1806021 -0.058289565 1.09
-0.17926475 -0.055603899 1.0935
-0.16060446 -0.058663905 1.097
-0.15382059 -0.056119379 1.0966251
-0.14515407 -0.054792251 1.0965201
-0.13944699 -0.052893683 1.097
-0.41448584 -0.044684809 1.0939333
-0.40538263 -0.045601714 1.0912501
-0.39534801 -0.045894668 1.0931112
-0.38475648 -0.046437033 1.0937144
-0.37647259 -0.048040982 1.0916001
-0.17359227 -0.041240152 1.0940001
-0.14406316 -0.048662189 1.097
-0.41160902 -0.038468134 1.097
-0.4044891 -0.0354307 1.092375
-0.39847127 -0.033444833 1.09
-0.17119303 -0.035047673 1.0936667
-0.40294033 -0.026636859 1.095
-0.39780822 -0.02352237 1.0908
-0.17104644 -0.029622566 1.09
-0.4010303 -0.01731066 1.097
-0.39419857 -0.014532357 1.0931667
-0.38796008 -0.0114668 1.09
-0.39169756 -0.0080063045 1.0960001
-0.38555047 -0.004223316 1.0928824
-0.37935996 -0.0019111333 1.09
-0.39141324 0.0086553302 1.097
-0.38505784 0.0049579516 1.094875
-0.37631074 0.0058247326 1.0907273
-0.40290692 0.016012609 1.0960001
-0.39622736 0.012208132 1.092375
-0.38386017 0.011374263 1.0913334
-0.37649325 0.011944584 1.09
-0.15315066 0.015605167 1.0928572
-0.14906402 0.018272363 1.097
-0.40219736 0.023067072 1.0962501
-0.3980296 0.026519896 1.0931668
-0.15471748 0.024514936 1.09404
-0.14752528 0.021349814 1.097
-0.39296573 0.035026886 1.094625
-0.388053 0.036149178 1.0908
-0.16217647 0.038629878 1.0925001
-0.15672232 0.034555569 1.0948572
-0.39141324 0.041353244 1.097
-0.38518131 0.045494031 1.0925001
-0.17365958 0.046639346 1.0931112
-0.16600002 0.043663979 1.0952941
-0.38242549 0.052387141 1.0944
-0.37604812 0.055143688 1.0930001
-0.36789313 0.058289569 1.09
-0.18218076 0.057532784 1.09375
-0.17653054 0.052119479 1.0958751
-0.37192473 0.061988443 1.0962501
-0.36497366 0.064221486 1.0933334
-0.35635182 0.06739857 1.0905001
-0.20162457 0.067845233 1.09
-0.19464654 0.066415444 1.0916001
-0.18666911 0.063039981 1.094
-0.36231428 0.071118049 1.0962501
-0.35466173 0.073909797 1.094875
-0.34673256 0.07755582 1.0921429
-0.33922616 0.079312034 1.09
-0.20213883 0.075060725 1.0948666
-0.1972425 0.072085083 1.0963334
-0.34317014 0.083966732 1.095077
-0.33581764 0.08630567 1.0930001
-0.32903343 0.088230662 1.09
-0.20233978 0.085201159 1.0920001
-0.33373913 0.09204261 1.0952857
-0.32522032 0.095385939 1.0935
-0.31724811 0.098423369 1.09
-0.20609686 0.094902679 1.0934666
-0.32120889 0.10194056 1.097
-0.31644702 0.101967 1.0938334
-0.29335895 0.10989016 1.09
-0.23029156 0.10989016 1.09
-0.22417934 0.10778502 1.0919001
-0.21420927 0.10515127 1.0944999
-0.20772792 0.10194056 1.097
-0.30101314 0.11059588 1.097
-0.29451779 0.11268687 1.0955
-0.28580338 0.11566706 1.0931538
-0.27902544 0.11849026 1.09
-0.23349357 0.11649025 1.0926155
-0.22635844 0.11184454 1.0966668
-0.28242019 0.12213632 1.097
-0.2746481 0.1242509 1.0941334
-0.26450291 0.12729841 1.0945001
-0.2553176 0.12804347 1.0916001
-0.2447225 0.12872496 1.0922859
-0.23666263 0.12542008 1.0939444
-0.26062161 0.13175336 1.097
-0.25384477 0.13338983 1.0958462
-0.24506667 0.1345484 1.0962501
-0.23850244 0.13367677 1.097
-0.34114662 -0.16251346 1.1073999
-0.33467045 -0.16402134 1.101
-0.32381701 -0.16267689 1.1041764
-0.31904617 -0.16750908 1.1045001
-0.28188482 -0.16143781 1.108
-0.27577415 -0.16186167 1.1079999
-0.26129225 -0.16124354 1.108
-0.25497848 -0.16172922 1.1079999
-0.24652779 -0.1627977 1.1079999
-0.34254655 -0.15407811 1.107357
-0.33495677 -0.15510905 1.1070343
-0.32571259 -0.15489139 1.107111
-0.31510481 -0.15172434 1.1079999
-0.30492753 -0.15273432 1.1073332
-0.29428118 -0.15253945 1.1064998
-0.28461945 -0.15418434 1.1071922
-0.27489111 -0.15444411 1.1079999
-0.26481524 -0.15352918 1.1076999
-0.2556293 -0.15509385 1.1060525
-0.24505535 -0.15565792 1.1022172
-0.23927301 -0.15790081 1.105
-0.34532133 -0.14479735 1.1055498
-0.33511451 -0.14473064 1.1079999
-0.32531047 -0.14491723 1.1068258
-0.31487235 -0.14538798 1.1044209
-0.30484423 -0.14489709 1.1029047
-0.29438904 -0.1447815 1.101
-0.28493738 -0.14516647 1.102857
-0.27496922 -0.14521869 1.1052606
-0.26574895 -0.14572009 1.1041539
-0.25650457 -0.14791842 1.101
-0.2326156 -0.14188586 1.1010001
-0.36744782 -0.13054004 1.103
-0.35434076 -0.13650441 1.1057273
-0.34531361 -0.13437195 1.1057141
-0.33515015 -0.13481525 1.1056085
-0.32503283 -0.13456045 1.1013635
-0.31900188 -0.13609461 1.101
-0.30082381 -0.1377033 1.101
-0.2947751 -0.13660938 1.101
-0.28492999 -0.13763894 1.101
-0.27580875 -0.13923155 1.101
-0.26832837 -0.13995545 1.1010001
-0.37643191 -0.1254773 1.101
-0.36908105 -0.12883931 1.105
-0.34168434 -0.12837292 1.1010001
-0.33396265 -0.12837292 1.1010001
-0.3281714 -0.12837292 1.1010001
-0.39477089 -0.11099915 1.1010001
-0.13263442 -0.11170983 1.1016667
-0.12792933 -0.11241978 1.1055
-0.40429345 -0.10458675 1.1052941
-0.39863172 -0.10231226 1.1010001
-0.14046392 -0.10559011 1.105
-0.13603412 -0.10867998 1.1057777
-0.40153247 -0.096327007 1.1067144
-0.39686739 -0.094778121 1.1032499
-0.39588657 -0.084597401 1.1044374
-0.39537323 -0.074614532 1.1053748
-0.38897961 -0.070460327 1.1010001
-0.17373781 -0.071103796 1.101
-0.16891176 -0.070460327 1.1010001
-0.39320311 -0.06485872 1.1069999
-0.38708431 -0.064349964 1.1021999
-0.18049426 -0.06080823 1.1010001
-0.17487788 -0.064629368 1.1031247
-0.16698132 -0.063979641 1.101
-0.40635341 -0.05115613 1.1010001
-0.39177647 -0.056014325 1.1079999
-0.38612419 -0.055159513 1.1038666
-0.18049426 -0.058877811 1.1010001
-0.17576976 -0.056061752 1.1071427
-0.16549748 -0.055160895 1.1039563
-0.15717903 -0.052678216 1.1014444
-0.42179677 -0.041504029 1.1010001
-0.41986635 -0.041504029 1.1010001
-0.40225586 -0.049434353 1.1056668
-0.39264473 -0.048535116 1.10725
-0.38678709 -0.049315132 1.103
-0.17507279 -0.045614369 1.107
-0.16236523 -0.04699976 1.1076999
-0.15468228 -0.045410182 1.1042607
-0.14592299 -0.044587724 1.1014705
-0.42312491 -0.03849414 1.107
-0.41521719 -0.034221753 1.1048887
-0.1717732 -0.035905633 1.107
-0.16998567 -0.033997133 1.108
-0.15444411 -0.039339539 1.108
-0.14606233 -0.038977224 1.1075714
-0.41337585 -0.024851745 1.1073999
-0.40803385 -0.024176614 1.1032223
-0.17289971 -0.028169053 1.108
-0.41087964 -0.018455587 1.108
-0.4048157 -0.014536374 1.1055832
-0.39766651 -0.01158252 1.1010001
-0.40172601 -0.0071832305 1.1073999
-0.39611173 -0.0040298905 1.1038332
-0.41507196 0.0078760711 1.1076665
-0.39625427 0.0046811807 1.1055832
-0.41433471 0.01351058 1.106846
-0.40706447 0.013088235 1.1024547
-0.40689519 0.024213159 1.1047143
-0.15250318 0.0289563 1.1010001
-0.1483206 0.026704142 1.101
-0.40189624 0.033961363 1.1068
-0.39720955 0.038222887 1.10375
-0.15287822 0.036690544 1.1032665
-0.14718093 0.033743422 1.1059999
-0.39333779 0.044998199 1.10375
-0.16306183 0.047559563 1.1029999
-0.15718928 0.044690821 1.105125
-0.3914527 0.051481374 1.108
-0.38468736 0.056812007 1.1037142
-0.37932754 0.058877811 1.1010001
-0.18139592 0.058203213 1.1065
-0.17499791 0.055674799 1.1043749
-0.16675948 0.053303149 1.1054614
-0.38268897 0.062434737 1.107
-0.37602136 0.065919451 1.1034286
-0.36967543 0.068529911 1.1010001
-0.19014637 0.068529911 1.1010001
-0.1855009 0.064803556 1.1032
-0.38173923 0.070908308 1.108
-0.37444529 0.073225781 1.107357
-0.36539158 0.075302273 1.104
-0.3571277 0.078182012 1.1010001
-0.19401124 0.07529556 1.1031427
-0.18861997 0.074038558 1.1076249
-0.36312017 0.081556745 1.1075
-0.35448259 0.082818016 1.1039284
-0.34682685 0.087913886 1.102
-0.20135596 0.087236047 1.1032
-0.19722654 0.082187101 1.104923
-0.18782736 0.08250989 1.10725
-0.34453592 0.092313215 1.1055001
-0.33639202 0.096372969 1.104
-0.3281714 0.099416628 1.1010001
-0.20260514 0.095975943 1.1043999
-0.33381948 0.10069627 1.108
-0.32564956 0.10402669 1.106375
-0.31567496 0.10803177 1.1068333
-0.30985957 0.10976217 1.108
-0.20427974 0.1056348 1.103222
-0.19788419 0.10795395 1.1054001
-0.30456454 0.11367772 1.1063999
-0.29549831 0.11757513 1.1043334
-0.23132867 0.11807736 1.1010001
-0.22441061 0.11635599 1.1026314
-0.21525384 0.11450613 1.1042398
-0.20598839 0.11196239 1.1057501
-0.19729529 0.11204823 1.105
-0.29217744 0.12230749 1.10725
-0.28540623 0.12506263 1.1042727
-0.27735308 0.12852837 1.1023334
-0.23279436 0.12495634 1.1049166
-0.22624965 0.12178554 1.1062857
-0.28169054 0.1311318 1.108
-0.2743386 0.13280927 1.105769
-0.26563701 0.13441329 1.1041428
-0.25717384 0.13728966 1.1028334
-0.24130249 0.13899024 1.1010001
-0.23708872 0.1349483 1.1051428
-0.25350204 0.14130217 1.1065
-0.24622773 0.14167362 1.1068751
-0.23992263 0.14084527 1.108
-0.27173424 -0.18246414 1.1190001
-0.26554671 -0.18184823 1.1158888
-0.29282552 -0.17216374 1.1190001
-0.28511366 -0.17431909 1.1167059
-0.27501348 -0.17449616 1.1154398
-0.26478711 -0.17489718 1.1145198
-0.2556788 -0.17368931 1.1134119
-0.320741 -0.16452819 1.1137501
-0.31649148 -0.16412181 1.1165555
-0.30472654 -0.16369528 1.1172001
-0.29498518 -0.16507767 1.1141818
-0.28614509 -0.1652633 1.1120001
-0.27383116 -0.16608423 1.1120001
-0.26474231 -0.16530727 1.1120001
-0.25492415 -0.16718735 1.1120002
-0.24793769 -0.16734982 1.1120001
-0.32121417 -0.15695138 1.1120001
-0.31557393 -0.1569514 1.1120002
-0.30543721 -0.15808219 1.1123334
-0.29581386 -0.15803456 1.1120001
-0.27003437 -0.1589011 1.1120001
-0.26662236 -0.15841366 1.1120001
-0.35387176 -0.14135373 1.1120001
-0.34412321 -0.14330344 1.1120001
-0.34451318 -0.13862415 1.1120001
-0.12557223 -0.1108004 1.1128572
-0.41041327 -0.10138474 1.1120001
-0.13374996 -0.10654306 1.115
-0.12476078 -0.10712633 1.1176667
-0.11869979 -0.10692792 1.1190001
-0.41208282 -0.095006242 1.1172857
-0.40664628 -0.094340362 1.1132501
-0.41260439 -0.083972745 1.1190002
-0.40619224 -0.085154667 1.1164668
-0.41279727 -0.075620219 1.1174002
-0.40592647 -0.075279191 1.1151999
-0.41103479 -0.068669304 1.1190001
-0.40494049 -0.066172548 1.1168237
-0.39856935 -0.064692885 1.1125001
-0.41170195 -0.054276183 1.1155001
-0.40587777 -0.055026125 1.1183126
-0.39744166 -0.055361945 1.1135001
-0.17352389 -0.051667225 1.1120001
-0.40066472 -0.049717519 1.1120001
-0.39712384 -0.049112331 1.113
-0.17201729 -0.046704337 1.1120002
-0.16628215 -0.04456472 1.1120002
-0.43065462 -0.036296628 1.1190001
-0.42452919 -0.033217777 1.1145002
-0.17059933 -0.039968986 1.1120001
-0.16493113 -0.035130341 1.1132333
-0.1550104 -0.034309942 1.1136295
-0.146373 -0.033934884 1.1146001
-0.42370293 -0.0262287 1.1173334
-0.41812542 -0.022775069 1.1135
-0.17222409 -0.025996089 1.1120001
-0.1661946 -0.027241718 1.1178
-0.15561548 -0.0281539 1.1184286
-0.14812949 -0.02844871 1.1190001
-0.4208447 -0.01863881 1.1190001
-0.41538212 -0.014283938 1.1162667
-0.40818095 -0.011382933 1.113
-0.41264006 -0.0057967589 1.1190002
-0.40595227 -0.0037105791 1.1142001
-0.42442569 0.0064527928 1.115
-0.4141311 0.0041995426 1.1164707
-0.40559945 0.0050896504 1.1148422
-0.42401674 0.014965764 1.1166431
-0.41793826 0.017888969 1.113
-0.42182571 0.02060079 1.1190001
-0.41490996 0.024452459 1.1156155
-0.40771565 0.03499927 1.1166251
-0.15110226 0.039968986 1.1120001
-0.14583759 0.0371093 1.1140001
-0.4030014 0.042908452 1.1174001
-0.39765733 0.046411611 1.1145
-0.15302783 0.046608049 1.1129233
-0.14765601 0.044326577 1.1165001
-0.39389056 0.055370618 1.1160001
-0.38896647 0.059466053 1.1120001
-0.1735239 0.059466053 1.1120001
-0.1639404 0.056966573 1.1131251
-0.15507735 0.055152852 1.1167406
-0.1474755 0.050684482 1.1190001
-0.39099333 0.061581451 1.115
-0.38619497 0.066739924 1.1130002
-0.18328422 0.066229023 1.1138237
-0.17524242 0.065375268 1.1157082
-0.16680963 0.063846759 1.1177694
-0.15990137 0.061802369 1.1190001
-0.18547004 0.075035304 1.1154667
-0.36284077 0.086746521 1.1168001
-0.35679018 0.088343889 1.1135001
-0.19424863 0.086394869 1.1128335
-0.18717994 0.084439874 1.1135
-0.35339114 0.09392938 1.1173334
-0.34628728 0.096845232 1.1158334
-0.20038408 0.095793366 1.115
-0.19618805 0.093060099 1.1173571
-0.18933107 0.091232069 1.1190001
-0.34138453 0.10104197 1.1190001
-0.33304152 0.10543156 1.115
-0.32560101 0.10772129 1.1120001
-0.31682733 0.10820872 1.1120001
-0.20038408 0.10068078 1.115
-0.19942257 0.10313616 1.1162001
-0.32346705 0.11327132 1.1186669
-0.31500611 0.1149742 1.1152942
-0.30524746 0.11800271 1.1124285
-0.21280205 0.11909123 1.1135001
-0.20615692 0.11529511 1.1145
-0.19984493 0.11405784 1.1120001
-0.3119548 0.12164276 1.1190001
-0.30452478 0.12396686 1.1169335
-0.29597983 0.12568806 1.1142502
-0.28855658 0.12868065 1.1120001
-0.23169015 0.12770578 1.1120001
-0.22505416 0.12607326 1.1147858
-0.21608216 0.12256171 1.1164446
-0.29230303 0.13072897 1.1170001
-0.28492346 0.13512903 1.1155834
-0.27498358 0.13827182 1.1123002
-0.26613495 0.13940403 1.1120001
-0.23444247 0.13503712 1.1145999
-0.22970858 0.13000529 1.115
-0.28154412 0.14028157 1.1190001
-0.27411801 0.14301176 1.1184286
-0.26472214 0.14354083 1.1161538
-0.2564339 0.14592203 1.1156
-0.24369256 0.14590898 1.1155002
-0.23724458 0.14344266 1.1145999
-0.29613799 -0.19051544 1.126
-0.27738258 -0.19051544 1.126
-0.31094489 -0.18064418 1.126
-0.30378821 -0.18348219 1.1260002
-0.29511988 -0.18457343 1.1258799
-0.28515953 -0.18424682 1.1248748
-0.27651119 -0.18467079 1.1236924
-0.32279041 -0.17274716 1.126
-0.31462413 -0.17403696 1.1247498
-0.30478162 -0.17465536 1.1244998
-0.29542473 -0.17622492 1.123
-0.31331608 -0.16761054 1.123
-0.30617845 -0.16834892 1.123
-0.14214624 -0.10562255 1.126
-0.13368173 -0.10379148 1.1240001
-0.12484208 -0.10348547 1.1242501
-0.11796793 -0.10515192 1.1245
-0.41250411 -0.089589193 1.123
-0.41545761 -0.071868256 1.123
-0.41421914 -0.064435273 1.1243125
-0.40856612 -0.061038792 1.123
-0.41447312 -0.057297707 1.123
-0.40790978 -0.056772638 1.123
-0.43153772 -0.032488391 1.123
-0.14373651 -0.031503893 1.123
-0.43060815 -0.026603326 1.1240001
-0.42713404 -0.021996299 1.1235
-0.17054541 -0.021686541 1.1245
-0.1645482 -0.022906808 1.1239375
-0.15469012 -0.023644751 1.1238999
-0.14592117 -0.024207884 1.1246667
-0.42418233 -0.015376559 1.1242001
-0.16485015 -0.018015061 1.126
-0.15469685 -0.018191334 1.126
-0.14560118 -0.018261842 1.126
-0.42181593 -0.0049287947 1.1242001
-0.4170984 -0.003828598 1.123
-0.42136458 0.00098449667 1.123
-0.41742659 0.00098449667 1.123
-0.43176201 0.015665557 1.1232728
-0.43334863 0.020729659 1.126
-0.42447481 0.024106262 1.1243638
-0.41841108 0.028550403 1.123
-0.41464284 0.033260625 1.1241251
-0.14472102 0.038395371 1.123
-0.4105351 0.040364362 1.123
-0.40663886 0.044348635 1.1242001
-0.14353122 0.045274094 1.1249092
-0.40176055 0.050343461 1.126
-0.39775276 0.056934942 1.1236
-0.15161249 0.058085304 1.123
-0.14519607 0.054244034 1.125
-0.39281416 0.065961279 1.123
-0.17228691 0.069899261 1.123
-0.16320571 0.066427141 1.1242001
-0.15564212 0.06336607 1.1253079
-0.14905612 0.060214728 1.126
-0.18188292 0.073937193 1.1245
-0.17393172 0.071665399 1.126
-0.16879866 0.070085995 1.126
-0.3668879 0.089012645 1.1240001
-0.36277866 0.092667609 1.1245
-0.35624716 0.096902601 1.123
-0.3494963 0.09943416 1.123
-0.19692008 0.096981548 1.125
-0.35213593 0.10300607 1.1251428
-0.34420979 0.10536207 1.1246002
-0.33728856 0.10770394 1.123
-0.19889259 0.10421082 1.125
-0.33341578 0.11430746 1.1249092
-0.32694048 0.11679312 1.1233001
-0.31996143 0.1191241 1.123
-0.2033267 0.11813153 1.1248
-0.32363653 0.1231088 1.126
-0.31537107 0.1249935 1.12375
-0.3066707 0.12847681 1.123
-0.22124815 0.12854241 1.125
-0.21474387 0.12599513 1.1248463
-0.20814367 0.12182926 1.12525
-0.31094489 0.13128784 1.126
-0.30392948 0.13281645 1.1250001
-0.29529309 0.13553186 1.1249287
-0.28845751 0.13881403 1.123
-0.23175603 0.13619609 1.1237501
-0.2252717 0.13299577 1.1249287
-0.28411075 0.1426879 1.1247143
-0.27486342 0.14734702 1.1246667
-0.26640481 0.1482652 1.123
-0.25301564 0.14865899 1.123
-0.24809316 0.14865899 1.123
-0.23384322 0.1450142 1.1243126
-0.27244693 0.15103038 1.126
-0.26494288 0.15181839 1.1253333
-0.25543818 0.15199305 1.125
-0.24563147 0.15315083 1.1252501
-0.23921846 0.15241046 1.12525
-0.30115253 -0.19119224 1.13
-0.29347512 -0.19243054 1.13
-0.28497219 -0.19152246 1.13
-0.31006822 -0.18326716 1.13
-0.30660102 -0.18772501 1.13
-0.28133988 -0.18921097 1.13
-0.14216553 -0.10388114 1.1372001
-0.13555947 -0.10177373 1.1334286
-0.12581043 -0.10038418 1.13
-0.11584508 -0.10194347 1.1326667
-0.13120368 -0.097986199 1.1366667
-0.12448666 -0.097595789 1.136
-0.11535794 -0.096931271 1.1360002
-0.42250949 -0.062630817 1.1340001
-0.41837749 -0.063070327 1.13
-0.43488804 -0.030709634 1.13
-0.43466711 -0.021832507 1.132
-0.43406531 -0.014918572 1.1346154
-0.42870927 -0.013889907 1.132
-0.16321768 -0.013198419 1.1315385
-0.15474899 -0.013554436 1.1315558
-0.14492229 -0.014227132 1.1326667
-0.43597159 -0.0089788204 1.138
-0.42847434 -0.0069636558 1.1339999
-0.16310284 -0.0081191864 1.1374286
-0.15427245 -0.0077090878 1.1380001
-0.14500697 -0.0077784881 1.1376002
-0.44195747 0.025938813 1.138
-0.43541601 0.025455894 1.1354287
-0.42734081 0.027763156 1.131
-0.431981 0.030927047 1.138
-0.42466667 0.034009118 1.1353333
-0.4181444 0.035492025 1.1308
-0.14364183 0.038634699 1.13
-0.41400969 0.044484213 1.1331111
-0.40814093 0.047550399 1.13
-0.14141247 0.044163838 1.132
-0.1396793 0.048541032 1.13
-0.41003278 0.050879981 1.138
-0.40439844 0.053588878 1.132
-0.14185974 0.05734136 1.1316
-0.13895771 0.054198459 1.1331111
-0.40205163 0.064348213 1.138
-0.39835557 0.067722499 1.136
-0.15298857 0.066821285 1.1320001
-0.14508581 0.063211553 1.1344445
-0.18368329 0.076728791 1.1366667
-0.17696042 0.073569864 1.1340001
-0.16433205 0.072159022 1.1326667
-0.156359 0.071153022 1.1340001
-0.37597096 0.086436406 1.1362222
-0.37338263 0.09337455 1.1371112
-0.36608475 0.096385993 1.1334286
-0.35959989 0.0980727 1.13
-0.19429211 0.097643711 1.1326667
-0.36316398 0.1023745 1.1365
-0.35568544 0.10626878 1.1328572
-0.34771228 0.10863946 1.13
-0.19769828 0.10366076 1.1357778
-0.35246944 0.11178026 1.1364
-0.34500313 0.11423113 1.1346666
-0.33734486 0.11663407 1.1306667
-0.3401975 0.12071525 1.138
-0.33402193 0.12428995 1.136
-0.32702348 0.12613256 1.1328572
-0.31799328 0.12911254 1.13
-0.21298617 0.12878233 1.13
-0.20479368 0.12501274 1.133158
-0.19982214 0.12526163 1.1340001
-0.32323751 0.1320219 1.138
-0.31422362 0.13497795 1.1340001
-0.30412444 0.13769804 1.13
-0.29719001 0.13868867 1.13
-0.23081757 0.13868867 1.13
-0.22397318 0.13769804 1.13
-0.21484558 0.135132 1.1319999
-0.20719953 0.13243261 1.1358184
-0.3051016 0.14158343 1.1373334
-0.29470402 0.14316042 1.1351429
-0.28593665 0.14669 1.1325001
-0.27836797 0.14958563 1.13
-0.23131289 0.14661373 1.13
-0.22500731 0.14495409 1.1341739
-0.21655396 0.14138104 1.1368572
-0.2828337 0.1518746 1.136
-0.27483037 0.15491736 1.1347272
-0.26447338 0.1566578 1.1317778
-0.25485608 0.1564807 1.1303637
-0.24476659 0.15831573 1.1317143
-0.23488253 0.15465626 1.1350527
-0.22852361 0.15179718 1.1366667
-0.26238108 0.16062111 1.138
-0.25454447 0.16220573 1.1366667
-0.2450732 0.16179058 1.1364
-0.14153345 -0.10138211 1.1450001
-0.13903846 -0.10102794 1.141
-0.14001331 -0.099721707 1.149
-0.13464758 -0.096461043 1.1462001
-0.12544322 -0.093325883 1.1447334
-0.11488932 -0.092472956 1.1431818
-0.10666982 -0.094243005 1.1428666
-0.12523971 -0.089648813 1.149
-0.115213 -0.088614732 1.1472223
-0.10534615 -0.087666668 1.1475716
-0.099131271 -0.085039735 1.148
-0.16214009 -0.0030014142 1.1416667
-0.15548298 -0.0028589352 1.1421429
-0.14508528 -0.0025021527 1.1426667
-0.13853833 -0.0055015218 1.141
-0.16227831 0.0016729723 1.1450001
-0.15523273 0.0021026451 1.1464548
-0.14695652 0.001408102 1.1466
-0.4381212 0.029008023 1.141
-0.44018573 0.03424786 1.149
-0.43431854 0.035466548 1.1464287
-0.42686301 0.038078893 1.1430001
-0.43263108 0.041802533 1.149
-0.42439902 0.044737492 1.1479093
-0.4178465 0.048099194 1.1430001
-0.13566388 0.048571128 1.1463333
-0.41338953 0.05486653 1.1462002
-0.40954012 0.056222387 1.145
-0.13404623 0.055390593 1.145
-0.12994041 0.059430111 1.149
-0.40559095 0.064705893 1.1455716
-0.14353856 0.068667367 1.1418002
-0.13568328 0.06523627 1.1448003
-0.12994041 0.062451981 1.149
-0.39047173 0.078295097 1.1450001
-0.38779497 0.078629695 1.1450001
-0.18214007 0.078539692 1.1436666
-0.17532866 0.07628987 1.145
-0.16581009 0.076042943 1.1463333
-0.15342964 0.075715773 1.1454002
-0.14492539 0.074214712 1.1461432
-0.13687046 0.072966278 1.1480001
-0.39183581 0.083605073 1.149
-0.38612923 0.085470967 1.1470002
-0.18606715 0.084947139 1.1458889
-0.15008621 0.081590489 1.149
-0.14807163 0.082597777 1.149
-0.3835963 0.094506025 1.1479093
-0.37700194 0.097703837 1.146
-0.19088408 0.096189618 1.143
-0.18874019 0.096439078 1.1472223
-0.37327093 0.10430357 1.1476667
-0.36689287 0.10755841 1.1466
-0.1939951 0.10563483 1.1454002
-0.18903914 0.10155921 1.1470001
-0.36282584 0.11301794 1.149
-0.35528052 0.11642007 1.145889
-0.347096 0.11836607 1.141
-0.2004507 0.11180919 1.149
-0.3515442 0.12188209 1.149
-0.34447554 0.1240568 1.1463335
-0.33609295 0.12753528 1.141
-0.19774181 0.12898615 1.1450001
-0.33124852 0.13149561 1.1450001
-0.32456917 0.13572431 1.1434
-0.31664324 0.13928217 1.1430001
-0.20357645 0.13644572 1.143
-0.19821921 0.13315077 1.1444286
-0.32132551 0.14001331 1.149
-0.31380215 0.14364412 1.1458001
-0.30435562 0.1465517 1.1441112
-0.29571193 0.14760612 1.1415
-0.21484719 0.14629973 1.1443335
-0.20607665 0.14174436 1.1467143
-0.30269063 0.15058985 1.149
-0.29411274 0.15157127 1.1450001
-0.28547511 0.15529361 1.1458
-0.27539986 0.15922983 1.1423334
-0.23206419 0.15904398 1.141
-0.22401559 0.15600845 1.1428825
-0.21932666 0.15307696 1.1450001
-0.28204119 0.16015911 1.149
-0.27359137 0.16286661 1.1482002
-0.26520097 0.16419464 1.1439091
-0.25605786 0.16703004 1.1454445
-0.24449396 0.16677442 1.1450001
-0.23514688 0.16467771 1.1450001
-0.22647531 0.16311304 1.1473335
-0.25685894 0.17023201 1.149
-0.14353313 -0.10006887 1.153
-0.14213419 -0.096021086 1.156
-0.13608707 -0.092342816 1.155
-0.13197182 -0.088181958 1.1562001
-0.12424976 -0.086699165 1.1551538
-0.11406732 -0.084789366 1.1551818
-0.10458245 -0.081869654 1.1549999
-0.097597837 -0.080711484 1.1556667
-0.10447324 -0.078101359 1.1570001
-0.16071667 0.0050539831 1.153
-0.15451391 0.0067812852 1.1554614
-0.14591441 0.0065165125 1.155857
-0.1511312 0.011157337 1.1570001
-0.14428793 0.011489009 1.1563333
-0.43902269 0.038747206 1.153
-0.14098816 0.037529223 1.1570001
-0.13693094 0.037529223 1.1570001
-0.43363175 0.044272892 1.153
-0.4279713 0.047911763 1.153
-0.12881652 0.049700864 1.1570001
-0.42223158 0.053161502 1.155
-0.41782108 0.057667136 1.154
-0.1317405 0.055930749 1.153
-0.12721837 0.056113858 1.1553999
-0.41307816 0.064965636 1.1552857
-0.40937266 0.067723379 1.153
-0.13147895 0.067763709 1.1536666
-0.12823266 0.06421987 1.1554
-0.40673563 0.072015539 1.1570001
-0.39724308 0.077831343 1.153
-0.1809326 0.079852939 1.153
-0.17516589 0.07847175 1.155
-0.1662046 0.07803385 1.156
-0.15414649 0.079347536 1.153
-0.14454392 0.078842141 1.153
-0.13447829 0.075128205 1.1558571
-0.40064982 0.081144273 1.1570001
-0.3960802 0.08559598 1.1554999
-0.18329848 0.085712738 1.1551818
-0.17676543 0.082527414 1.1569999
-0.15404348 0.082085803 1.156
-0.14542541 0.080566108 1.156
-0.39331999 0.092761554 1.1543334
-0.38797629 0.096616119 1.154
-0.18512066 0.093827106 1.1554998
-0.38172787 0.1032836 1.155
-0.37601635 0.10714445 1.153
-0.19221705 0.10723825 1.1539999
-0.18755344 0.10384304 1.1564286
-0.37396461 0.11324202 1.1553999
-0.36597309 0.11558434 1.1539999
-0.35681123 0.11826321 1.153
-0.20184636 0.11461627 1.1570001
-0.19629987 0.11263623 1.1553999
-0.3545936 0.12414143 1.155
-0.34771407 0.12736037 1.153
-0.20184636 0.12475931 1.1570001
-0.19981776 0.12475931 1.1570001
-0.3427473 0.13112611 1.155
-0.33476931 0.13537048 1.1552222
-0.32850891 0.13847914 1.153
-0.19755888 0.13879941 1.1556667
-0.3250477 0.14352874 1.1556665
-0.31744224 0.14808775 1.1554
-0.21226731 0.14858711 1.153
-0.20554882 0.14530356 1.1549999
-0.19804272 0.14276318 1.1570001
-0.31186715 0.15086995 1.155
-0.30470115 0.15372662 1.1547143
-0.2947925 0.15665244 1.1555454
-0.28706625 0.15869507 1.153
-0.22010382 0.15823132 1.1570001
-0.21647149 0.15298408 1.1556666
-0.28637162 0.16195042 1.1570001
-0.2756663 0.16656622 1.155
-0.26786113 0.16880304 1.153
-0.2415804 0.16880304 1.153
-0.23147243 0.16880304 1.153
-0.22301061 0.16605775 1.1549999
-0.27081898 0.17141727 1.1570001
-0.2643052 0.17286336 1.1561112
-0.25493065 0.17427392 1.1546841
-0.24554603 0.17250094 1.1548461
-0.23430339 0.17254026 1.155
-0.22640091 0.17220932 1.1554999
-0.14427333 -0.093013167 1.1616668
-0.13943997 -0.09058509 1.161
-0.14215413 -0.087870926 1.161
-0.13571969 -0.083997041 1.1613998
-0.12570232 -0.082414955 1.1628462
-0.11551048 -0.081342496 1.1614445
-0.13242663 -0.076950066 1.1665001
-0.12529582 -0.078524783 1.1683334
-0.11507254 -0.07509926 1.166273
-0.10497607 -0.074042328 1.1625651
-0.097183958 -0.073963352 1.1631539
-0.11221816 -0.067125931 1.169
-0.10501565 -0.06533736 1.1664002
-0.095724858 -0.064694904 1.1675265
-0.08915963 -0.055340461 1.169
-0.15877835 0.0091602895 1.161
-0.15399873 0.015302218 1.1633531
-0.1461698 0.015442078 1.1622308
-0.13943997 0.01526715 1.161
-0.15167385 0.021521291 1.169
-0.1422282 0.033642083 1.163
-0.13943997 0.035623349 1.161
-0.43300581 0.054253686 1.1676668
-0.42738056 0.055903375 1.1641111
-0.12654771 0.056658089 1.161
-0.42381227 0.063534074 1.1667777
-0.41802096 0.066273369 1.1630001
-0.12589449 0.065960884 1.1654446
-0.42120239 0.070712812 1.169
-0.41401988 0.074629754 1.166091
-0.40620241 0.076147929 1.1620001
-0.13275251 0.076968707 1.1661428
-0.12888734 0.072104953 1.1650002
-0.41095415 0.080961041 1.169
-0.40571776 0.084824122 1.1657273
-0.39999932 0.087531656 1.161
-0.18015237 0.088549472 1.161
-0.17379969 0.08632578 1.1639333
-0.16559519 0.082585253 1.1650001
-0.15727103 0.083431497 1.1634001
-0.14390676 0.082672641 1.1642001
-0.13771527 0.080591671 1.1636666
-0.40275559 0.093258917 1.169
-0.39728752 0.094987124 1.165
-0.18142122 0.095862046 1.161889
-0.17603944 0.093424618 1.1655715
-0.39250734 0.10145751 1.169
-0.38477337 0.10675748 1.1642001
-0.19033048 0.10890567 1.161
-0.1845696 0.10454718 1.1653334
-0.17831926 0.10145751 1.169
-0.38299376 0.11132351 1.1650001
-0.37363622 0.11976758 1.1676668
-0.36742941 0.11908377 1.161
-0.20186563 0.11840523 1.161
-0.19406787 0.11663807 1.1640589
-0.18892634 0.11492953 1.1670001
-0.37201086 0.12195398 1.169
-0.36548051 0.1234969 1.1663333
-0.35971299 0.12810291 1.169
-0.20159915 0.12333034 1.1625999
-0.19658446 0.12390125 1.1665385
-0.18959232 0.12195398 1.169
-0.35179672 0.13273464 1.1676668
-0.34490335 0.1361665 1.1658889
-0.33703449 0.13992038 1.1650001
-0.19632483 0.1351779 1.1623334
-0.342291 0.1404008 1.169
-0.33541822 0.14297117 1.1676668
-0.32641602 0.1477496 1.1623334
-0.20370741 0.14903648 1.1610001
-0.19440173 0.14517671 1.1610001
-0.32378748 0.15303357 1.1663333
-0.31630266 0.15280388 1.1619999
-0.30587077 0.157011 1.1630001
-0.29618269 0.15979616 1.161
-0.21386732 0.15661551 1.161
-0.20528081 0.15524362 1.1650002
-0.19728133 0.15429793 1.1675
-0.30334771 0.16192208 1.169
-0.29439431 0.1630394 1.1660001
-0.28539219 0.16639496 1.1644286
-0.27887994 0.16895646 1.161
-0.22086477 0.16997427 1.161
-0.2146059 0.16557106 1.1636153
-0.20688933 0.16207939 1.1676667
-0.28218818 0.1716335 1.1676668
-0.27473241 0.17439333 1.165
-0.26595351 0.17696422 1.1623334
-0.24453494 0.17758846 1.1642001
-0.23500846 0.17740576 1.163
-0.22391935 0.17642978 1.1632859
-0.21767239 0.17230269 1.1630001
-0.26132995 0.18139373 1.169
-0.25355217 0.18144734 1.1655715
-0.24779421 0.18226337 1.168
-0.23304482 0.18180366 1.169
-0.22546113 0.18241856 1.169
-0.1305979 -0.073011428 1.1730001
-0.12523374 -0.073731437 1.1748824
-0.11825795 -0.07095477 1.1730001
-0.12485223 -0.069133058 1.177
-0.114831 -0.064902663 1.175154
-0.10523244 -0.060671467 1.1730001
-0.098719679 -0.060671471 1.1730001
-0.11040653 -0.05881469 1.177
-0.10401801 -0.056132846 1.1764287
-0.095176913 -0.054837573 1.1742729
-0.089464709 -0.051416501 1.1730001
-0.094486766 -0.047611892 1.177
-0.088944323 -0.045194443 1.177
-0.14485121 0.019074077 1.1760001
-0.14529881 0.026552685 1.1754616
-0.13929795 0.029923264 1.177
-0.14088121 0.031878229 1.1730001
-0.13805975 0.033637874 1.177
-0.435478 0.056624774 1.1743335
-0.43219256 0.063217022 1.1756668
-0.42675695 0.067355618 1.1730001
-0.42310715 0.074425712 1.1750001
-0.41784477 0.07849586 1.1730001
-0.1305979 0.07918141 1.1730001
-0.12780279 0.07558503 1.1756668
-0.41472584 0.083419457 1.1747143
-0.16570051 0.087827109 1.1740001
-0.15906562 0.088294655 1.1756667
-0.14214975 0.084468588 1.1750001
-0.13463525 0.083634146 1.1753334
-0.40516201 0.094606355 1.1730001
-0.1732654 0.096576229 1.1748463
-0.16750149 0.092521362 1.177
-0.39406022 0.10409745 1.1756667
-0.38973707 0.10591799 1.1730001
-0.18256174 0.10741066 1.1743335
-0.1752802 0.1039608 1.1756668
-0.18476945 0.11395206 1.1745557
-0.37320489 0.12526383 1.1760001
-0.36619723 0.12824449 1.1750001
-0.19291471 0.12689592 1.1730002
-0.18663409 0.1247683 1.1762
-0.3628988 0.13144784 1.1760001
-0.3551195 0.13543209 1.174143
-0.34860387 0.13882455 1.1730001
-0.19305536 0.13442066 1.1734446
-0.18705726 0.13251732 1.177
-0.35185629 0.14136162 1.177
-0.34456378 0.14318246 1.1750002
-0.33616772 0.14785571 1.1747143
-0.1916593 0.14529189 1.1754
-0.33328322 0.15167999 1.177
-0.32803726 0.1511645 1.1730001
-0.31433994 0.15785728 1.1743335
-0.30952734 0.15939115 1.1730001
-0.1927958 0.15537237 1.1750001
-0.31058285 0.16199836 1.177
-0.30521238 0.16526271 1.1738001
-0.29571304 0.16689968 1.174143
-0.28896073 0.16967446 1.1730001
-0.20367789 0.16597244 1.1730002
-0.19630948 0.16486387 1.1748669
-0.29304162 0.17025305 1.177
-0.28583774 0.17418402 1.1756668
-0.27812427 0.17820442 1.1750001
-0.22109094 0.17995775 1.1730001
-0.21509969 0.17560825 1.1746472
-0.2055648 0.17185812 1.177
-0.19811264 0.17128488 1.177
-0.27343673 0.18057142 1.177
-0.26311833 0.18366691 1.177
-0.25451297 0.18568589 1.1754001
-0.24416561 0.18460232 1.175182
-0.23564537 0.18419801 1.1738001
-0.22499457 0.18622275 1.1762002
-0.21689208 0.18139689 1.177
-0.12418271 -0.066307813 1.1818572
-0.11740793 -0.061913531 1.1810001
-0.11471348 -0.056248359 1.1855
-0.1058011 -0.051920388 1.1818889
-0.10407247 -0.04555146 1.1852105
-0.09479063 -0.042596232 1.1812667
-0.086968839 -0.040378388 1.1810001
-0.1018035 -0.036135029 1.189
-0.094180167 -0.034385644 1.1826665
-0.086998641 -0.034176499 1.1814001
-0.092814021 -0.025500042 1.1873335
-0.087946318 -0.025571838 1.1858001
-0.088600315 -0.019804776 1.189
-0.14232245 0.0186993 1.1850001
-0.15081501 0.024503125 1.1810001
-0.14394093 0.024602534 1.1828183
-0.13828014 0.027551442 1.1860001
-0.13509554 0.032664362 1.1879092
-0.44002092 0.05901457 1.1810001
-0.44002092 0.063155942 1.1810001
-0.43663132 0.06653209 1.1836667
-0.12278944 0.069720425 1.187
-0.43299532 0.073148772 1.1863333
-0.42786977 0.075753056 1.1836667
-0.12505658 0.075149067 1.1860909
-0.42379981 0.084260471 1.1866
-0.41794997 0.086598448 1.1830001
-0.15461624 0.088600315 1.189
-0.14522985 0.087057039 1.1850001
-0.13543446 0.087758422 1.1823335
-0.12751357 0.082585946 1.1850001
-0.42145956 0.092074841 1.189
-0.41408771 0.093498603 1.1850001
-0.16485201 0.095876001 1.1854999
-0.15948057 0.091727391 1.189
-0.14024475 0.090379946 1.1850001
-0.1371282 0.090379946 1.1850001
-0.40203494 0.10284615 1.1850001
-0.39735663 0.10596795 1.1850001
-0.17253019 0.10621473 1.182
-0.16826636 0.10470834 1.1868182
-0.39372414 0.11115695 1.1850001
-0.18170707 0.11792807 1.1844286
-0.17566796 0.11503763 1.1869998
-0.16920923 0.11465923 1.189
-0.38125795 0.12570085 1.1850001
-0.37649015 0.12747146 1.182143
-0.18185496 0.12534191 1.1844286
-0.17537089 0.12534979 1.1887143
-0.16990414 0.12404044 1.189
-0.38046017 0.13029458 1.189
-0.37345779 0.13434459 1.185889
-0.3661609 0.13584316 1.1843336
-0.3582288 0.13770066 1.1810001
-0.18358576 0.13560209 1.1845789
-0.17615826 0.13371947 1.189
-0.36198708 0.14125524 1.1876668
-0.35514313 0.14491273 1.1860909
-0.34624666 0.14732611 1.1818001
-0.19010955 0.14855555 1.1850001
-0.18505399 0.14427318 1.1859229
-0.17711397 0.14496532 1.1884286
-0.35231656 0.15114172 1.189
-0.34411654 0.15271148 1.1866001
-0.33497372 0.15613119 1.1861429
-0.32647505 0.15855876 1.186
-0.31992108 0.15840752 1.1810001
-0.19153851 0.15840752 1.1810001
-0.18566296 0.15499638 1.1853199
-0.17770472 0.15187392 1.1882001
-0.32372031 0.16267891 1.1884286
-0.31532639 0.16561858 1.1846924
-0.30516678 0.16918966 1.184
-0.19157232 0.1659188 1.1835456
-0.18666539 0.16437826 1.1867143
-0.31166464 0.17198884 1.189
-0.30424607 0.17307395 1.1875001
-0.29555765 0.17478018 1.1843333
-0.28599584 0.1782307 1.1820002
-0.21086492 0.17842416 1.1810001
-0.20502542 0.17741486 1.1834618
-0.19499539 0.17434676 1.1849999
-0.18866655 0.17198884 1.189
-0.2908175 0.1803277 1.189
-0.28405753 0.18265758 1.1883334
-0.27458265 0.18502401 1.1856668
-0.26606336 0.18687756 1.1850002
-0.25469446 0.18843248 1.1810001
-0.24537636 0.18843248 1.1810001
-0.23502293 0.18781129 1.1810001
-0.22193867 0.18667915 1.1830001
-0.21539998 0.1848094 1.187
-0.2052047 0.18395744 1.1882
-0.19804776 0.18137006 1.189
-0.26413316 0.19116822 1.189
-0.25525573 0.19260134 1.1875455
-0.24472906 0.19190289 1.1879091
-0.23485418 0.19189379 1.1880001
-0.22593541 0.19123226 1.1876668
-0.21993725 0.19075127 1.189
-0.12027428 -0.052293167 1.1930001
-0.11650918 -0.052083991 1.1930001
-0.12067755 -0.04617228 1.197
-0.11525905 -0.045051906 1.1952002
-0.10842115 -0.042183157 1.193
-0.11202024 -0.036990289 1.197
-0.10563584 -0.034081496 1.1948462
-0.099357016 -0.030330036 1.1930001
-0.10313135 -0.026918052 1.1963333
-0.098132968 -0.02433561 1.194
-0.093968675 -0.01711446 1.1954001
-0.089047417 -0.014663126 1.1950001
-0.09129519 -0.0094443299 1.197
-0.089196451 -0.0094443299 1.197
-0.14142825 0.018855346 1.1950001
-0.13956621 0.019938029 1.197
-0.14119154 0.021963131 1.1930001
-0.13716239 0.025126435 1.1943333
-0.13235225 0.036940105 1.1941427
-0.1290725 0.038826689 1.197
-0.13331938 0.041881289 1.1943334
-0.1290725 0.040925428 1.197
-0.44030845 0.072164573 1.1930001
-0.43612504 0.076348022 1.193
-0.12105868 0.075040691 1.193
-0.11641911 0.074791469 1.1963849
-0.43395469 0.084033906 1.1956667
-0.42762661 0.086026773 1.1938001
-0.15374191 0.088898383 1.1930001
-0.1485126 0.088898383 1.1930001
-0.13073291 0.088898383 1.1930001
-0.12466462 0.083809331 1.1950002
-0.42236528 0.096686468 1.1955001
-0.41506925 0.099005297 1.1938
-0.40788668 0.099357016 1.1930001
-0.16054001 0.097788215 1.1930001
-0.15486607 0.094444729 1.1948949
-0.14364359 0.092268288 1.1960001
-0.13607708 0.092114002 1.194
-0.42079738 0.10178889 1.197
-0.41380662 0.10259116 1.1958572
-0.40473664 0.10575102 1.1943333
-0.16331129 0.10544779 1.193706
-0.15845487 0.104937 1.197
-0.40295807 0.11123322 1.197
-0.39726588 0.11355668 1.1956667
-0.1636841 0.11467388 1.1946002
-0.38383183 0.12864119 1.1930001
-0.17187022 0.12341187 1.193
-0.16463789 0.12422127 1.1942177
-0.15845487 0.12067755 1.197
-0.38174012 0.13282464 1.1930001
-0.1721009 0.13595131 1.1937274
-0.16736653 0.13402112 1.1962001
-0.36549443 0.14389518 1.1946001
-0.3580339 0.14886121 1.1930001
-0.17273894 0.1448916 1.1942
-0.35356206 0.15486228 1.1947143
-0.34599596 0.15761292 1.1938001
-0.33990559 0.15792537 1.1930001
-0.18302609 0.15583363 1.1930001
-0.17549519 0.15492764 1.1948181
-0.34419337 0.1605536 1.197
-0.33471668 0.16241314 1.1952223
-0.32650602 0.16622359 1.1950001
-0.18283166 0.16630845 1.194778
-0.32005784 0.17104732 1.197
-0.31480926 0.17345874 1.1943334
-0.30485645 0.17774679 1.1950001
-0.19230413 0.17834526 1.1943334
-0.1859127 0.17353976 1.1944544
-0.30116919 0.18154101 1.197
-0.29429263 0.18316559 1.1958572
-0.28509265 0.18692374 1.1945
-0.27819964 0.18930127 1.1930001
-0.21410315 0.18870363 1.193
-0.20393312 0.18927 1.1950001
-0.19609894 0.18498804 1.1942308
-0.2801818 0.19203471 1.197
-0.2734715 0.19219835 1.1936668
-0.26500672 0.1958764 1.1948181
-0.25557163 0.19738238 1.1938
-0.24531169 0.19696403 1.1938
-0.23520353 0.19680065 1.1947778
-0.22478333 0.19625401 1.1951538
-0.21490943 0.19443849 1.1958238
-0.20562805 0.19275083 1.1958572
-0.19833092 0.19203471 1.197
-0.2549969 0.20077945 1.197
-0.24660195 0.20042966 1.197
-0.22351581 0.20042966 1.197
-0.12118163 -0.038988873 1.202
-0.11592711 -0.033892591 1.2034999
-0.10853659 -0.030558847 1.202
-0.1110123 -0.027488761 1.2060001
-0.10564984 -0.024037227 1.2037778
-0.10092244 -0.017231176 1.2033334
-0.096442096 -0.013294125 1.2036
-0.093611516 -0.0059150448 1.2052001
-0.088965885 -0.0035148486 1.2033334
-0.086462125 0.0028687038 1.2048571
-0.14120294 0.016860053 1.202
-0.13850106 0.017973419 1.2060001
-0.13804169 0.021075066 1.202
-0.11240375 0.078241095 1.2028
-0.12472987 0.087025702 1.2042857
-0.11778543 0.081870146 1.205
-0.15155637 0.097405262 1.2033334
-0.14535958 0.096179098 1.2035384
-0.13521969 0.094019875 1.2050002
-0.42044759 0.10432158 1.202
-0.41569823 0.10709053 1.2034999
-0.40991005 0.10748284 1.202
-0.15532035 0.10411994 1.20425
-0.14836882 0.10114453 1.2060001
-0.41519555 0.11279943 1.2045455
-0.40612108 0.11472435 1.2037143
-0.39752975 0.11735586 1.2060001
-0.15687846 0.11500453 1.2048235
-0.16227801 0.12961166 1.202
-0.15790895 0.12412473 1.2042857
-0.38388619 0.1355204 1.2030001
-0.16375853 0.13548288 1.2036
-0.15964626 0.13110024 1.2060001
-0.36837184 0.14724407 1.204
-0.17127612 0.14907366 1.2060001
-0.16683668 0.14440148 1.2045
-0.36520708 0.15093745 1.204
-0.17165211 0.15590018 1.2052729
-0.16810434 0.15224543 1.2060001
-0.35089985 0.16122426 1.202
-0.34474605 0.16504262 1.2042222
-0.33598366 0.16728844 1.2026668
-0.32877105 0.16965428 1.202
-0.18019181 0.16543928 1.202
-0.17438588 0.16493137 1.2055788
-0.33620867 0.17021886 1.2060001
-0.32487637 0.17367944 1.2048572
-0.31528336 0.17778134 1.2028
-0.18266192 0.17632957 1.2043999
-0.17761967 0.17127612 1.2060001
-0.31225172 0.18129641 1.2046667
-0.30557418 0.18316245 1.2037143
-0.29684195 0.1869816 1.2050002
-0.28978217 0.18862185 1.202
-0.19211254 0.18555196 1.2033334
-0.18753515 0.18330924 1.2055557
-0.29074651 0.19242132 1.2060001
-0.28571445 0.1932233 1.2044001
-0.27521265 0.19676153 1.2028
-0.2687071 0.19915938 1.202
-0.21601944 0.19915938 1.202
-0.20553771 0.19710001 1.2034545
-0.19551596 0.19411096 1.2046667
-0.18924955 0.19242132 1.2060001
-0.26313207 0.2045985 1.2029999
-0.25547048 0.20568562 1.2032001
-0.24444447 0.20323472 1.2053334
-0.23510145 0.20303869 1.2045455
-0.22508065 0.20424756 1.2032501
-0.21611455 0.20292158 1.204
-0.26220047 0.21039474 1.2060001
-0.2590287 0.21145201 1.2060001
-0.11986663 -0.030762233 1.21
-0.11442585 -0.024307147 1.2133571
-0.10805829 -0.021440811 1.2108001
-0.11134309 -0.017429886 1.2173334
-0.1048551 -0.014723546 1.21425
-0.098651297 -0.011668433 1.21
-0.10332733 -0.0056360895 1.2168572
-0.097545139 -0.0041267625 1.210889
-0.10152239 0.0021373134 1.2190001
-0.094685264 0.005321519 1.2134783
-0.085214928 0.0081325434 1.21
-0.079820499 0.0095784599 1.2140001
-0.092822336 0.013871496 1.217
-0.08464928 0.015158541 1.2154444
-0.078671359 0.014715025 1.2160001
-0.090835817 0.020304477 1.2190001
-0.084423877 0.020660697 1.219
-0.078011937 0.020304477 1.2190001
-0.13358209 0.045952238 1.2190001
-0.10685059 0.078814089 1.2116001
-0.12112552 0.088189155 1.2120001
-0.11430599 0.08578483 1.213294
-0.10673747 0.083521992 1.2162223
-0.13506342 0.09670531 1.2155
-0.12482593 0.092182018 1.2170001
-0.11557488 0.094082721 1.2187058
-0.15253825 0.10756174 1.21
-0.14537859 0.10558318 1.2129999
-0.13828418 0.10472836 1.219
-0.11862089 0.10152239 1.2190001
-0.42112437 0.11562356 1.21
-0.41518408 0.1177451 1.21
-0.40521288 0.11986663 1.21
-0.15248522 0.11588876 1.21
-0.14597322 0.11523683 1.2146957
-0.13802113 0.11368863 1.219
-0.12717015 0.11648358 1.2190001
-0.41346502 0.12350907 1.2171249
-0.40513715 0.12383978 1.2177501
-0.39686438 0.12677477 1.21775
-0.15335202 0.12596056 1.21375
-0.14518914 0.12243596 1.2167778
-0.13999403 0.12075821 1.2190001
-0.39379808 0.13268408 1.2173334
-0.16070615 0.13736928 1.21
-0.15728487 0.13445507 1.2172
-0.37232909 0.14744657 1.21
-0.16200782 0.14541174 1.2107273
-0.15808199 0.14493988 1.2156669
-0.37252036 0.15391473 1.2155715
-0.3671743 0.15538391 1.2140001
-0.17290497 0.15593269 1.21
-0.16409399 0.15514669 1.2125791
-0.15809588 0.15489253 1.2184999
-0.35111377 0.16654037 1.21
-0.34687069 0.16866189 1.21
-0.17502651 0.16441883 1.21
-0.16489995 0.16490732 1.2136002
-0.15851741 0.16386069 1.219
-0.34174114 0.17396748 1.2144001
-0.33528689 0.17533684 1.2134545
-0.32626703 0.17822658 1.2111429
-0.17480226 0.17565578 1.2114
-0.16771631 0.17358755 1.216625
-0.33235222 0.18060298 1.2190001
-0.32422385 0.18415987 1.2182857
-0.31598067 0.18583427 1.2135834
-0.30654401 0.18757966 1.2116001
-0.2959539 0.18987723 1.21
-0.1844012 0.18638271 1.2102666
-0.17679982 0.18448257 1.2163999
-0.3109791 0.19128954 1.2190001
-0.30300444 0.19333966 1.2184445
-0.295214 0.19635068 1.2156923
-0.28636715 0.19861132 1.2158334
-0.27990389 0.19901912 1.2140001
-0.19270594 0.1976562 1.21
-0.18465047 0.19548649 1.213091
-0.17893118 0.19174044 1.2173334
-0.28319404 0.20197611 1.2190001
-0.27376401 0.2040804 1.2166667
-0.26837397 0.20472796 1.21
-0.25273946 0.20849413 1.2113334
-0.24483487 0.20802265 1.2113334
-0.23627996 0.20835786 1.2117144
-0.22488253 0.20897104 1.21
-0.21179974 0.20402078 1.21
-0.2046001 0.20329562 1.2121539
-0.19638121 0.20222946 1.2125001
-0.18642387 0.20134649 1.2152002
-0.26823282 0.21266268 1.2190001
-0.25434029 0.21266268 1.2190001
-0.24472237 0.21266267 1.2190001
-0.2340358 0.21266268 1.2190001
-0.11377954 -0.014206774 1.2256668
-0.1082885 -0.012865961 1.223
-0.11229994 -0.0064540198 1.2270001
-0.1081082 -0.0046513011 1.2250001
-0.11079401 0.0032270099 1.2270001
-0.10435382 0.0044120685 1.2243334
-0.099711187 0.0096494695 1.223
-0.10218865 0.01398371 1.2270001
-0.096693449 0.016090965 1.2235715
-0.093522981 0.023435581 1.2262001
-0.084919617 0.025970414 1.2261578
-0.077244952 0.025194718 1.2256668
-0.091431953 0.03119443 1.2270001
-0.086053602 0.03119443 1.2270001
-0.078523912 0.03119443 1.2270001
-0.13242687 0.047109187 1.2252858
-0.12800473 0.048405148 1.2270001
-0.13359553 0.05121867 1.2256669
-0.12666015 0.05647267 1.2270001
-0.10585137 0.088246837 1.2246001
-0.13294825 0.098639026 1.223
-0.12513676 0.09772002 1.2229998
-0.11204106 0.097566865 1.223
-0.1064939 0.09492971 1.225154
-0.13367924 0.10514145 1.2237999
-0.12548415 0.10510673 1.2233998
-0.11484382 0.10518774 1.2243333
-0.10801629 0.10318103 1.2260001
-0.13322417 0.11575069 1.2241428
-0.12639488 0.11296945 1.2253333
-0.11663336 0.11171599 1.2270001
-0.41278288 0.12865961 1.223
-0.4054262 0.12654841 1.2254001
-0.39784774 0.1234332 1.2243334
-0.14513576 0.1270102 1.2243334
-0.13703483 0.12198948 1.2260002
-0.41413295 0.13123174 1.2270001
-0.40509734 0.13295282 1.2270001
-0.39710382 0.13574295 1.2247144
-0.1535143 0.13557993 1.2229999
-0.14779706 0.13467388 1.2270001
-0.15406162 0.14464958 1.223222
-0.14856198 0.14521545 1.2270001
-0.37632933 0.157608 1.223
-0.1536143 0.15530263 1.2241428
-0.14951813 0.15489648 1.2270001
-0.1540138 0.16533017 1.2251333
-0.14871138 0.16377077 1.2270001
-0.35439423 0.17290175 1.2250001
-0.34696418 0.17573607 1.2238001
-0.33987579 0.17905128 1.223
-0.16491781 0.17663774 1.2251819
-0.15646151 0.17215435 1.2258002
-0.34240732 0.18302257 1.2256668
-0.33559668 0.18477562 1.2248464
-0.32665241 0.18798597 1.223
-0.17272981 0.1868929 1.2237999
-0.16692893 0.18359658 1.2265
-0.33023068 0.19039358 1.2270001
-0.32379016 0.19249156 1.2247144
-0.31495973 0.19403642 1.2243333
-0.30768317 0.19517598 1.2246001
-0.17516997 0.19493099 1.2248667
-0.29270059 0.20263886 1.223
-0.2863991 0.20475622 1.2254002
-0.27706873 0.20726825 1.2250001
-0.21550484 0.20907184 1.223
-0.2047832 0.20907184 1.223
-0.19442768 0.20769884 1.2240909
-0.18515274 0.20619848 1.2245998
-0.17846362 0.20319234 1.2263335
-0.2613878 0.21620966 1.2270001
-0.25459713 0.21592772 1.2254002
-0.24525854 0.21607606 1.2238001
-0.23483007 0.21506861 1.2254002
-0.22804204 0.21405832 1.2270001
-0.2141528 0.21307889 1.2260002
-0.20577355 0.21473704 1.2267777
-0.19519274 0.21372734 1.2270001
-0.18716657 0.21190698 1.2270001
-0.1134056 -0.0054002665 1.2320001
-0.11124549 0.0010800533 1.2320001
-0.10702546 0.0069502136 1.233143
-0.13219431 0.02925612 1.2360001
-0.12894364 0.02925612 1.2360001
-0.10044496 0.023761174 1.2320001
-0.096604772 0.026761321 1.2320002
-0.07452368 0.028081387 1.2320001
-0.13250835 0.034779899 1.2355556
-0.12840186 0.033048581 1.2360001
-0.094441243 0.03469082 1.2330911
-0.085110679 0.03610298 1.2322108
-0.075723715 0.034618564 1.2340002
-0.13068645 0.043202132 1.2320001
-0.12794307 0.04649489 1.2333335
-0.092102602 0.040091719 1.2360001
-0.084616184 0.042849872 1.2360001
-0.077474535 0.042258836 1.2360001
-0.13160345 0.055130057 1.2330002
-0.12542178 0.052978721 1.2333335
-0.11988592 0.05508272 1.2320001
-0.10168982 0.086541027 1.2340002
-0.097881585 0.08704599 1.2360001
-0.10177348 0.094669983 1.233143
-0.11124549 0.10908539 1.2320001
-0.10598128 0.10490193 1.2336001
-0.12403606 0.11647131 1.2330002
-0.11468489 0.11547231 1.2330911
-0.10943956 0.11269024 1.2360001
-0.14279673 0.12873499 1.2340001
-0.13659753 0.12434289 1.2333335
-0.41166863 0.13746601 1.2346667
-0.40660694 0.13721703 1.2324446
-0.14400162 0.13643634 1.2332002
-0.40525144 0.14194636 1.2360001
-0.39983365 0.14194636 1.2360001
-0.1445161 0.14491075 1.2327275
-0.14521994 0.15515536 1.2345884
-0.14512211 0.16480155 1.2345456
-0.35473368 0.17769051 1.2344002
-0.162008 0.1782088 1.2320001
-0.15378276 0.17606272 1.2336001
-0.14796731 0.17172848 1.2320001
-0.35389069 0.18225478 1.2360001
-0.34831721 0.18306904 1.2320001
-0.33589658 0.18900934 1.2320001
-0.16393989 0.18556082 1.2330002
-0.15856095 0.18167688 1.2360001
-0.33445653 0.19188948 1.2320001
-0.17186612 0.19781019 1.233
-0.1675275 0.19346982 1.2328891
-0.29316786 0.20770863 1.2340001
-0.28513408 0.20845029 1.2320001
-0.17564309 0.20449828 1.2342224
-0.28064203 0.21237776 1.2360001
-0.27414069 0.21346132 1.2360001
-0.26029286 0.21925083 1.2320001
-0.25489259 0.21925083 1.2320001
-0.24360041 0.21896116 1.2328001
-0.23397081 0.21883704 1.233143
-0.22418821 0.21631922 1.2320002
-0.2169978 0.21807872 1.2330002
-0.20305002 0.21925083 1.2320001
-0.1945639 0.21863365 1.2320002
-0.18418747 0.21596912 1.2330002
-0.25463659 0.22212979 1.2360001
-0.24596812 0.22212978 1.2360001
-0.23426566 0.22256322 1.2360001
-0.22581215 0.22386456 1.2348001
-0.21491979 0.22318149 1.234182
-0.20541319 0.22350951 1.2338183
-0.19637741 0.22237118 1.2353334
-0.18528876 0.22212979 1.2360001
-0.12536465 0.035701595 1.2435
-0.070716314 0.038078018 1.2410001
-0.12587127 0.044723503 1.2442
-0.090299293 0.044605676 1.2410001
-0.084950753 0.047559459 1.2423334
-0.073394328 0.04627943 1.2410001
