# .PCD v0.7 - Point Cloud Data file format
VERSION 0.7
FIELDS x y z
SIZE 4 4 4
TYPE F F F
COUNT 1 1 1
WIDTH 1437
HEIGHT 1
VIEWPOINT 0 0 0 1 0 0 0
POINTS 1437
DATA ascii
-0.27533022 -0.29434308 1.1556665
-0.26595119 -0.29549539 1.1540666
-0.25775313 -0.29717422 1.153
-0.29110506 -0.28806216 1.1570001
-0.2860907 -0.2851294 1.1565788
-0.27657923 -0.28567639 1.153
-0.28524864 -0.27544487 1.1565554
-0.27909219 -0.27594748 1.153
-0.28328043 -0.26589236 1.1570002
-0.27812925 -0.26514798 1.1536666
-0.27298319 -0.25519365 1.1556666
-0.26988271 -0.25269917 1.153
-0.27132612 -0.24698284 1.1570001
-0.26637068 -0.24422133 1.1547499
-0.26401663 -0.23548509 1.1553332
-0.25977474 -0.23551561 1.153
-0.26209906 -0.22768992 1.1543332
-0.2594378 -0.22473378 1.153
-0.25441331 -0.21569417 1.1535714
-0.24966678 -0.2112565 1.153
-0.24038988 -0.19271764 1.1570001
-0.23774323 -0.19272244 1.154
-0.23435514 -0.18672234 1.156
-0.22742926 -0.1809326 1.153
-0.084162757 -0.1838038 1.1547142
-0.076738238 -0.18751794 1.1534444
-0.2232265 -0.17729621 1.1556667
-0.10281985 -0.17310221 1.1547143
-0.094094127 -0.17406581 1.155588
-0.087516166 -0.17655498 1.1563333
-0.2152997 -0.16880304 1.153
-0.11110786 -0.16311231 1.1556667
-0.10756893 -0.16753292 1.1554
-0.20215935 -0.1546519 1.153
-0.19448453 -0.15263867 1.1547778
-0.18531522 -0.15291129 1.1551331
-0.17494339 -0.15375179 1.1559089
-0.1654647 -0.15173942 1.1547778
-0.15566269 -0.1506087 1.153
-0.11219843 -0.1536411 1.153
-0.19170333 -0.14910258 1.1570001
-0.18629371 -0.14910258 1.1570001
-0.16330284 -0.14859544 1.1570001
-0.15450071 -0.14797188 1.1552223
-0.14479466 -0.14580545 1.155
-0.13895956 -0.14504537 1.1570001
-0.11328726 -0.14367627 1.1552857
-0.12476669 -0.1337782 1.1551998
-0.11651047 -0.13609537 1.1556666
-0.1267879 -0.12780221 1.1570001
-0.26459703 -0.39228347 1.1683334
-0.25474706 -0.3933259 1.1623334
-0.27260298 -0.38430876 1.1689999
-0.26508671 -0.38489774 1.1657622
-0.25648811 -0.38560459 1.1610001
-0.27260301 -0.37508529 1.169
-0.26533803 -0.37507543 1.1647896
-0.25837833 -0.37644431 1.1610001
-0.27309805 -0.36510164 1.1680768
-0.26524976 -0.36569849 1.1624286
-0.258863 -0.36878648 1.161
-0.27427989 -0.35512593 1.1674001
-0.26723415 -0.35626096 1.1615715
-0.27286258 -0.3461079 1.1676667
-0.26809114 -0.34463045 1.161
-0.27420777 -0.33407962 1.1685555
-0.26971966 -0.33689511 1.161
-0.28182641 -0.3207697 1.169
-0.27608526 -0.32533699 1.1669999
-0.29166472 -0.31175122 1.169
-0.28419325 -0.31430578 1.1672857
-0.27580008 -0.31380492 1.1627142
-0.26971966 -0.31043205 1.161
-0.30129808 -0.30232286 1.169
-0.29394433 -0.30468398 1.1662499
-0.2846891 -0.30439675 1.1625558
-0.27547821 -0.3047674 1.1615713
-0.26971966 -0.305343 1.161
-0.30149531 -0.29331636 1.1658
-0.29570282 -0.29537737 1.163316
-0.28702241 -0.29821834 1.161
-0.30129805 -0.28490087 1.169
-0.29567477 -0.28495008 1.1645001
-0.29348558 -0.27509233 1.1652857
-0.29242474 -0.26853788 1.1676668
-0.28549787 -0.26365903 1.1646924
-0.28320292 -0.25503552 1.1683333
-0.27760902 -0.25449973 1.1627779
-0.28316897 -0.24720486 1.1672858
-0.27551562 -0.24388139 1.161706
-0.27338663 -0.23685291 1.1667144
-0.26852915 -0.23417632 1.1621429
-0.26564839 -0.22900724 1.161
-0.25547031 -0.2137401 1.161
-0.24325658 -0.19643733 1.161
-0.23245516 -0.18300724 1.163
-0.22697163 -0.18015237 1.161
-0.080915898 -0.18167908 1.161
-0.07442306 -0.18317999 1.163
-0.22505453 -0.17558774 1.1658
-0.101781 -0.17200989 1.161
-0.098727569 -0.17200989 1.161
-0.082708545 -0.17445779 1.1628668
-0.075183347 -0.17675194 1.1663334
-0.21882915 -0.16997427 1.161
-0.1111324 -0.16108926 1.1630001
-0.10465223 -0.16489035 1.1646668
-0.094650112 -0.16560893 1.1635714
-0.086131357 -0.16587915 1.1631054
-0.2022242 -0.15421882 1.165
-0.19847295 -0.15165369 1.161
-0.18015237 -0.15165369 1.161
-0.17608112 -0.15165369 1.161
-0.11140797 -0.15488362 1.1623334
-0.1082387 -0.15530343 1.1670001
-0.19292514 -0.14774962 1.1623335
-0.18394679 -0.14615375 1.1633159
-0.17464875 -0.14486136 1.1634002
-0.16534887 -0.14432122 1.1645555
-0.15492833 -0.14323214 1.1652224
-0.14538012 -0.14207777 1.1646923
-0.13968018 -0.14273712 1.1630001
-0.11124708 -0.14390256 1.1642001
-0.10956229 -0.14539956 1.1680001
-0.17319514 -0.13835114 1.169
-0.16533817 -0.13766794 1.169
-0.1404008 -0.13835114 1.169
-0.13835114 -0.13835114 1.169
-0.11481934 -0.13353936 1.1628183
-0.12377715 -0.12581393 1.1636668
-0.11773564 -0.12734021 1.1658001
-0.28444296 -0.39209795 1.177
-0.27658957 -0.39191541 1.1746
-0.26839414 -0.39179373 1.1730001
-0.29200977 -0.38900241 1.177
-0.28430539 -0.38583812 1.177
-0.27753484 -0.38516676 1.1730002
-0.28342354 -0.37417316 1.1763334
-0.2776491 -0.37534046 1.1730002
-0.28435272 -0.36439744 1.1756668
-0.2782661 -0.36670247 1.1730001
-0.28338066 -0.35519946 1.1748668
-0.27867743 -0.35066053 1.1730001
-0.2816914 -0.34618121 1.177
-0.27774414 -0.34460735 1.1734002
-0.28258738 -0.33203137 1.1750001
-0.27785477 -0.33585256 1.1730001
-0.2936607 -0.32296488 1.177
-0.28593147 -0.3255468 1.1737502
-0.31058285 -0.31161469 1.177
-0.30380222 -0.31294134 1.177
-0.29504761 -0.31578863 1.1739233
-0.28827515 -0.31912509 1.1730001
-0.31058285 -0.3043918 1.177
-0.3052589 -0.30589119 1.1736156
-0.29924402 -0.30952734 1.1730001
-0.31058285 -0.29820079 1.177
-0.30675688 -0.29543051 1.1742002
-0.30573049 -0.28533307 1.1750001
-0.30170992 -0.27696127 1.1762002
-0.29821569 -0.27456412 1.1730001
-0.29374689 -0.26490161 1.1750001
-0.28896073 -0.26016748 1.1730001
-0.292927 -0.25532225 1.177
-0.28807929 -0.25546655 1.1730002
-0.28575581 -0.24457844 1.1742002
-0.27867743 -0.24165756 1.1730001
-0.28073409 -0.23960088 1.1730001
-0.27594995 -0.23555525 1.1754
-0.23382892 -0.18129292 1.1750001
-0.23121236 -0.17830318 1.1756667
-0.22661658 -0.1745965 1.1750001
-0.07427609 -0.17223208 1.1744288
-0.069133058 -0.17128488 1.177
-0.10180467 -0.16144781 1.1730001
-0.098719679 -0.16144781 1.1730001
-0.082930818 -0.1641458 1.1743335
-0.076339029 -0.16608955 1.1767501
-0.1040354 -0.15583789 1.1750002
-0.09492898 -0.1592468 1.177
-0.086392872 -0.15843382 1.177
-0.079451419 -0.15993468 1.177
-0.19024105 -0.14499453 1.1730001
-0.1856859 -0.14199352 1.1754
-0.17892942 -0.14088121 1.1730001
-0.15733449 -0.14088121 1.1730001
-0.11003131 -0.14088121 1.1730001
-0.10743089 -0.14607479 1.1755002
-0.18160325 -0.13929795 1.177
-0.17452632 -0.13582136 1.1750002
-0.16531126 -0.13387178 1.1736668
-0.15643823 -0.13631184 1.1753531
-0.14511098 -0.13720958 1.1753335
-0.1382968 -0.13623546 1.1743335
-0.11134144 -0.13537087 1.1747779
-0.10834285 -0.13929795 1.177
-0.16406202 -0.12897958 1.177
-0.1229227 -0.12189204 1.1750001
-0.11560619 -0.12453706 1.1756667
-0.28817058 -0.39308533 1.1810001
-0.30124107 -0.38462961 1.189
-0.29370737 -0.38433105 1.1844286
-0.28782547 -0.38445747 1.1810001
-0.30124107 -0.3700366 1.189
-0.29548427 -0.37486696 1.1863333
-0.28826919 -0.37671706 1.1810001
-0.29463661 -0.36514238 1.1847777
-0.2888608 -0.36961758 1.1810001
-0.29367068 -0.35552126 1.1872858
-0.28795606 -0.35279912 1.1821431
-0.29174405 -0.34478843 1.189
-0.28579977 -0.34486306 1.1839093
-0.32208821 -0.33146942 1.189
-0.31548661 -0.33112195 1.189
-0.30451706 -0.33102268 1.189
-0.2940852 -0.33443534 1.1862
-0.28675812 -0.33679846 1.1830001
-0.32236126 -0.32482314 1.1879092
-0.3145467 -0.32413507 1.1858889
-0.30542088 -0.32464889 1.1855001
-0.29687744 -0.32589251 1.182
-0.32241279 -0.31478053 1.1867778
-0.31567168 -0.31554136 1.1835001
-0.30600134 -0.31681961 1.1814445
-0.32184741 -0.30517986 1.1881112
-0.31594378 -0.30542293 1.1827145
-0.32104585 -0.298114 1.189
-0.31452906 -0.2951991 1.184077
-0.3129313 -0.28587759 1.1867778
-0.30853435 -0.28296551 1.1823335
-0.30611688 -0.27506414 1.1858001
-0.30260921 -0.26535386 1.187
-0.29817888 -0.26504788 1.1810001
-0.301658 -0.25704518 1.189
-0.29737979 -0.25429824 1.184
-0.29320291 -0.24666968 1.1860001
-0.28855571 -0.24184427 1.184
-0.28393629 -0.23621294 1.1870002
-0.27635601 -0.2325404 1.1842
-0.27263808 -0.22893097 1.187
-0.26764956 -0.22421442 1.1858889
-0.26441535 -0.21673012 1.1866668
-0.25936386 -0.21295957 1.1850001
-0.25604016 -0.20562303 1.1882001
-0.24951774 -0.20189194 1.1810001
-0.25036284 -0.19842035 1.1850001
-0.24844997 -0.19688514 1.1858
-0.23749514 -0.18252726 1.1830001
-0.2340004 -0.17710647 1.1842
-0.22776179 -0.17298825 1.1863333
-0.21350515 -0.16195059 1.1880001
-0.073766336 -0.16214915 1.1814445
-0.069485478 -0.16385777 1.1830001
-0.2119254 -0.15894406 1.1850001
-0.20810401 -0.15633684 1.1810001
-0.10184655 -0.1529422 1.1814445
-0.094695747 -0.15386847 1.1832856
-0.084279127 -0.15345632 1.1836667
-0.076697089 -0.15721087 1.1850001
-0.19176891 -0.14314792 1.1850001
-0.18803185 -0.14024475 1.1850001
-0.10388099 -0.14469595 1.1850001
-0.094507009 -0.1483621 1.189
-0.086515605 -0.14801465 1.189
-0.18371376 -0.13682906 1.1854445
-0.17615828 -0.13193093 1.1850001
-0.15335719 -0.13295628 1.1833335
-0.14546315 -0.1323868 1.1864287
-0.13873601 -0.13355929 1.1810001
-0.11078174 -0.13148861 1.1810001
-0.10655724 -0.13522483 1.1847333
-0.17169955 -0.12903306 1.187
-0.16463043 -0.12684578 1.1854705
-0.15558089 -0.12633671 1.1872855
-0.14801463 -0.12716752 1.189
-0.12527654 -0.12113517 1.1810001
-0.1120155 -0.12421811 1.1818891
-0.10786664 -0.1261574 1.1854001
-0.12303151 -0.11768486 1.1850001
-0.11567713 -0.11671519 1.1852223
-0.10944745 -0.11778631 1.189
-0.30155727 -0.3831346 1.193
-0.30414745 -0.3759208 1.1944546
-0.30237395 -0.36494055 1.1945
-0.30158892 -0.35741544 1.197
-0.29785261 -0.35310921 1.1938
-0.29731569 -0.34550261 1.1950001
-0.32735524 -0.33153868 1.1930001
-0.31271312 -0.33363041 1.1930001
-0.30433798 -0.33574596 1.1941429
-0.2970252 -0.33885974 1.1930001
-0.3310762 -0.32320595 1.197
-0.32770386 -0.32456625 1.193
-0.33055153 -0.3179591 1.197
-0.32779425 -0.31522566 1.1946
-0.32663035 -0.30508539 1.1947144
-0.32234591 -0.29511565 1.1946
-0.31898832 -0.29179588 1.1930001
-0.32005784 -0.28857675 1.197
-0.31690606 -0.2836712 1.1952858
-0.31453207 -0.2751337 1.1951333
-0.30852968 -0.27087861 1.1930001
-0.31166288 -0.26863873 1.197
-0.30787176 -0.26493612 1.1945001
-0.30450782 -0.25526807 1.1950001
-0.30016276 -0.24996133 1.1930001
-0.29577827 -0.24409468 1.1950001
-0.29200497 -0.23695686 1.1960001
-0.28668711 -0.23332438 1.1934999
-0.28309408 -0.22909535 1.1960001
-0.27502954 -0.22491986 1.1940666
-0.27185741 -0.21737958 1.1950001
-0.26616293 -0.21239266 1.1947778
-0.26317358 -0.20760256 1.1960001
-0.25820842 -0.20300239 1.1956667
-0.25457087 -0.19834702 1.1950001
-0.24660195 -0.19308408 1.197
-0.24282423 -0.18573849 1.197
-0.23349053 -0.17415714 1.1943334
-0.22695236 -0.17117296 1.1930001
-0.22194175 -0.16527577 1.197
-0.21789837 -0.16346039 1.1941427
-0.21231905 -0.15656547 1.1954
-0.20708093 -0.15583363 1.1930001
-0.074116677 -0.15334293 1.1950002
-0.19531403 -0.14360121 1.1956667
-0.10144874 -0.14328328 1.1930001
-0.095400847 -0.14444925 1.194474
-0.084157921 -0.14455935 1.1944739
-0.076577708 -0.14665177 1.1966002
-0.19139299 -0.13909982 1.1930001
-0.18535057 -0.13403751 1.1945001
-0.17884263 -0.13073291 1.1930001
-0.14119154 -0.13073291 1.1930001
-0.13712119 -0.13136543 1.194
-0.10256737 -0.13470286 1.1952223
-0.099690147 -0.1364181 1.197
-0.18154101 -0.1290725 1.197
-0.17416671 -0.12649839 1.1950001
-0.16562285 -0.12185947 1.1941999
-0.1538046 -0.12110909 1.1935
-0.14525671 -0.12515369 1.1943334
-0.13799216 -0.12854782 1.197
-0.12864119 -0.12027428 1.1930001
-0.10463833 -0.12445732 1.1945384
-0.16160297 -0.11857881 1.197
-0.15530676 -0.11857881 1.197
-0.12399154 -0.11397747 1.1952223
-0.11439774 -0.11172917 1.1951817
-0.10661821 -0.11557471 1.1955456
-0.31085724 -0.38040495 1.202
-0.31306639 -0.37650207 1.2060002
-0.30874974 -0.3751362 1.202
-0.3118917 -0.36581194 1.2060001
-0.30781305 -0.36518407 1.202
-0.30587953 -0.35544997 1.203143
-0.3118917 -0.34149498 1.2060001
-0.30557597 -0.34487692 1.2035
-0.33443078 -0.33266753 1.2046667
-0.31480485 -0.33909902 1.205
-0.34149498 -0.32457882 1.2060001
-0.33635712 -0.32491922 1.2040001
-0.33359721 -0.31506836 1.2037778
-0.3330369 -0.30607677 1.2060001
-0.32982481 -0.3024272 1.202
-0.33092237 -0.29814732 1.2060001
-0.32632709 -0.29443043 1.2037778
-0.32429102 -0.28472719 1.2043999
-0.32490495 -0.27473289 1.2047499
-0.31770664 -0.27134147 1.202
-0.32105461 -0.26889643 1.2060001
-0.314542 -0.26556441 1.204
-0.3118917 -0.25797144 1.2060001
-0.30828586 -0.25401264 1.2037144
-0.30260816 -0.24664488 1.2044001
-0.2982122 -0.24236327 1.202
-0.29568422 -0.2352213 1.2041818
-0.28978217 -0.23077197 1.202
-0.29145136 -0.22872059 1.2060001
-0.2843813 -0.22599006 1.2036668
-0.27854213 -0.22093694 1.202
-0.2801739 -0.21885282 1.2060001
-0.27443209 -0.21426645 1.204
-0.26500565 -0.20496291 1.2034545
-0.26155934 -0.19889636 1.2046667
-0.25532797 -0.19408874 1.2043334
-0.2481589 -0.19125623 1.202
-0.25183934 -0.18671212 1.2060001
-0.24610068 -0.18361919 1.2032307
-0.24369842 -0.1781483 1.2060001
-0.23518723 -0.17325096 1.2042223
-0.22418244 -0.17225072 1.2054288
-0.23153993 -0.16810434 1.2060001
-0.22645819 -0.16527037 1.2033334
-0.22335818 -0.15911746 1.2052
-0.21456154 -0.15418695 1.2046667
-0.20535311 -0.15264887 1.2023635
-0.070601471 -0.15174048 1.202
-0.21208635 -0.14822784 1.2060001
-0.20459123 -0.14558606 1.2045
-0.19827046 -0.14316362 1.2029999
-0.094837807 -0.14014919 1.202
-0.085413635 -0.14024246 1.2028
-0.076129481 -0.14306073 1.2037144
-0.19390039 -0.13686045 1.2048571
-0.18788019 -0.13193658 1.204
-0.10010657 -0.13171917 1.202
-0.096357591 -0.13587177 1.2052001
-0.084933229 -0.13814865 1.2060002
-0.079294503 -0.13850106 1.2060001
-0.18266331 -0.12775734 1.2044001
-0.17606875 -0.12375046 1.2042222
-0.1426959 -0.12265092 1.2035
-0.13521005 -0.12465322 1.2037499
-0.12961166 -0.12328914 1.202
-0.10102181 -0.12476018 1.2035
-0.17092371 -0.11876554 1.2060001
-0.16444528 -0.11625189 1.2045455
-0.15492694 -0.11533579 1.20425
-0.14545722 -0.11748803 1.2056925
-0.13391961 -0.11841312 1.2060002
-0.12750416 -0.11485911 1.202
-0.1106441 -0.1106441 1.202
-0.1040052 -0.11455987 1.2037778
-0.12118163 -0.10853659 1.202
-0.11420442 -0.10744847 1.204
-0.10736888 -0.1073677 1.2046667
-0.32144573 -0.37590635 1.2181667
-0.31663579 -0.37396187 1.2110001
-0.32166564 -0.36868656 1.2190001
-0.31723994 -0.36463198 1.215
-0.31396452 -0.35546353 1.214
-0.31487137 -0.3468183 1.215143
-0.34390974 -0.3321861 1.2145001
-0.3395032 -0.33524609 1.2140001
-0.34466943 -0.32431564 1.2134376
-0.35158804 -0.31952834 1.2190001
-0.34522659 -0.3159022 1.2176667
-0.33821747 -0.31451175 1.2106668
-0.34218389 -0.30584949 1.2190001
-0.3373926 -0.30470344 1.2133636
-0.33531237 -0.29434574 1.2135834
-0.32989842 -0.29277158 1.21
-0.33550861 -0.28508499 1.2149333
-0.32989842 -0.28534624 1.21
-0.3335084 -0.27644762 1.2128334
-0.32777691 -0.27332422 1.21
-0.32356152 -0.26548603 1.2154166
-0.31758863 -0.26320302 1.2116001
-0.32237807 -0.25897112 1.2190001
-0.31528986 -0.25499594 1.2146922
-0.3127602 -0.24614723 1.219
-0.30685365 -0.24406873 1.2119092
-0.30384418 -0.23667398 1.2161
-0.29769671 -0.23114718 1.2113334
-0.30029252 -0.22976118 1.2190001
-0.29428744 -0.22630797 1.2157779
-0.28743759 -0.22274809 1.2124287
-0.28425542 -0.21620522 1.2159166
-0.27868497 -0.2132099 1.2124002
-0.27367666 -0.20679733 1.2147
-0.26806536 -0.20224175 1.2110001
-0.27037013 -0.1998388 1.2190001
-0.26429084 -0.19499575 1.2142727
-0.25988784 -0.19305953 1.21
-0.26182088 -0.18808357 1.2190001
-0.25583956 -0.18503682 1.2130715
-0.25225893 -0.17693223 1.2158333
-0.24544786 -0.17447893 1.2126875
-0.23796533 -0.17149061 1.21
-0.22382176 -0.17290497 1.21
-0.24303649 -0.16683047 1.2185832
-0.23447691 -0.16434243 1.2120557
-0.23406094 -0.15742236 1.2178888
-0.2256304 -0.15397656 1.2131052
-0.21904831 -0.15328079 1.21
-0.22401221 -0.14643247 1.21775
-0.21530588 -0.14468381 1.2113125
-0.2068495 -0.14161235 1.21
-0.073186763 -0.14318559 1.2150002
-0.069177769 -0.14367689 1.2140001
-0.22121193 -0.13999403 1.2190001
-0.2144718 -0.13844396 1.2171251
-0.20450313 -0.13628991 1.2135555
-0.1961711 -0.13307931 1.2128333
-0.18987723 -0.1304743 1.21
-0.093087457 -0.1332636 1.2105715
-0.085204631 -0.13364714 1.2118667
-0.076963939 -0.13515849 1.2151875
-0.1927041 -0.12739971 1.2182857
-0.18543461 -0.12412403 1.2146429
-0.17956588 -0.12112552 1.2120001
-0.095074616 -0.12530015 1.2147143
-0.084423885 -0.1282388 1.219
-0.078011937 -0.12930745 1.2190001
-0.18131542 -0.11790846 1.2190001
-0.17457099 -0.1151825 1.2146472
-0.16633141 -0.1122598 1.2118889
-0.15487193 -0.1113805 1.21
-0.14461784 -0.11314844 1.21
-0.13595098 -0.11397714 1.2126111
-0.12877707 -0.11387724 1.2140001
-0.10159105 -0.11397953 1.2113334
-0.097915165 -0.1158316 1.2167
-0.16427699 -0.10823415 1.2151999
-0.15426451 -0.10687565 1.2146251
-0.14568673 -0.10720707 1.2142857
-0.13970691 -0.10877724 1.2165
-0.12184993 -0.10372954 1.2156668
-0.11562356 -0.10322075 1.21
-0.104505 -0.10450958 1.2123333
-0.098748825 -0.10782146 1.2177501
-0.12075821 -0.098316416 1.2190001
-0.11442744 -0.096834041 1.2160833
-0.10642859 -0.097191714 1.2160833
-0.32593766 -0.38061798 1.223
-0.33023068 -0.37756017 1.2270001
-0.32658097 -0.37482834 1.2229999
-0.33151835 -0.36675262 1.2254002
-0.32574576 -0.36588576 1.223941
-0.32120594 -0.35557827 1.2254001
-0.31843251 -0.35166958 1.223
-0.32057685 -0.34845307 1.223
-0.35274175 -0.32272115 1.223
-0.35198754 -0.31490332 1.2235715
-0.34738094 -0.31199953 1.223
-0.35131219 -0.30914044 1.223
-0.34630877 -0.30771089 1.223
-0.34342149 -0.28390488 1.2247144
-0.34453729 -0.27834925 1.2243334
-0.33987579 -0.27876246 1.223
-0.33023068 -0.26246345 1.2270001
-0.32786754 -0.26396662 1.223
-0.33023068 -0.25923645 1.2270001
-0.32441851 -0.25428709 1.2251177
-0.31843251 -0.25195837 1.223
-0.32162532 -0.24847977 1.2270001
-0.31639475 -0.24531423 1.2243334
-0.31194431 -0.23879874 1.2270001
-0.30639654 -0.23425181 1.2246001
-0.30265191 -0.22815162 1.2256669
-0.29604039 -0.22306319 1.2241429
-0.29291207 -0.21692942 1.2250001
-0.28713962 -0.21276087 1.2236668
-0.28228649 -0.20789781 1.2262001
-0.27707136 -0.20431221 1.2250001
-0.27256587 -0.19806558 1.2256669
-0.26878196 -0.19315156 1.2254002
-0.26388419 -0.18508223 1.2246001
-0.25839135 -0.1811956 1.223
-0.2613878 -0.1796369 1.2270001
-0.25542629 -0.17428939 1.2242
-0.25179064 -0.16654533 1.2256669
-0.24711023 -0.16457528 1.2240909
-0.24297409 -0.15732616 1.2250001
-0.23677082 -0.15345484 1.2240909
-0.23322035 -0.14587222 1.225
-0.22649449 -0.14232968 1.223
-0.071834944 -0.1404534 1.223
-0.22355789 -0.13811052 1.2260002
-0.21505138 -0.13531175 1.2250001
-0.20786905 -0.13166015 1.2243334
-0.073079221 -0.13411471 1.2238889
-0.069690615 -0.13616474 1.223
-0.20319723 -0.12742263 1.2251819
-0.19606124 -0.12450361 1.2243334
-0.18870074 -0.12115446 1.223
-0.091848664 -0.12186923 1.223
-0.084866188 -0.1235384 1.2254001
-0.076878533 -0.12690389 1.2252859
-0.19290347 -0.11796514 1.2270001
-0.18513007 -0.11549293 1.2247143
-0.17812552 -0.11159528 1.2240001
-0.13198216 -0.1110592 1.2240001
-0.12779433 -0.11168557 1.2250001
-0.093541332 -0.11444036 1.2245998
-0.085456006 -0.11844322 1.2270001
-0.17406918 -0.10744894 1.2256668
-0.16479178 -0.10420182 1.2254002
-0.15528765 -0.10201998 1.225
-0.14446568 -0.10266744 1.2248464
-0.13498315 -0.10654838 1.2257693
-0.12623736 -0.10501656 1.2255001
-0.10185552 -0.10185552 1.223
-0.096762396 -0.10477083 1.2251821
-0.15382081 -0.097885966 1.2270001
-0.14736679 -0.097885966 1.2270001
-0.11393739 -0.092908956 1.2238001
-0.1041109 -0.093736708 1.2243333
-0.098798573 -0.097724661 1.2250001
-0.11079401 -0.088204943 1.2270001
-0.10622241 -0.087398186 1.2270001
-0.34132141 -0.36407614 1.2360001
-0.33421808 -0.36358365 1.2355556
-0.32833037 -0.36220708 1.2333335
-0.32652831 -0.35536873 1.2337779
-0.32615155 -0.34998989 1.2360001
-0.34710038 -0.29292238 1.2360001
-0.34806034 -0.28752652 1.233
-0.33211464 -0.25746822 1.2340001
-0.32373723 -0.2464494 1.2330002
-0.31824052 -0.2418326 1.2333335
-0.31389344 -0.2366813 1.2346668
-0.30886838 -0.23246044 1.2333335
-0.30434057 -0.22574016 1.2354287
-0.29917479 -0.22141093 1.2320001
-0.29495624 -0.21399233 1.2337143
-0.28837425 -0.2106104 1.2320001
-0.29147765 -0.20912708 1.2360001
-0.28514746 -0.20508005 1.2341819
-0.27973381 -0.20196997 1.2320001
-0.28064203 -0.19829148 1.2360001
-0.27517965 -0.19607027 1.2337143
-0.27197355 -0.189623 1.2360001
-0.267748 -0.18390712 1.2340001
-0.26229984 -0.1760674 1.2346668
-0.25855178 -0.17092369 1.2340001
-0.25430697 -0.16556866 1.2344
-0.24949232 -0.16092795 1.2320001
-0.25030234 -0.15928333 1.2360001
-0.24449007 -0.15289591 1.2340001
-0.24163388 -0.14844772 1.2360001
-0.23763804 -0.1442403 1.2340001
-0.23271643 -0.13962846 1.2346667
-0.22530544 -0.13656715 1.2344002
-0.21677563 -0.13241224 1.2337145
-0.21275298 -0.12790987 1.2344002
-0.20545988 -0.12298543 1.2342223
-0.19980986 -0.12204602 1.2320001
-0.07478375 -0.1236176 1.2333335
-0.20154215 -0.11702448 1.2360001
-0.19544582 -0.11502919 1.2340001
-0.18738925 -0.11178552 1.2320001
-0.085103944 -0.11374377 1.2327503
-0.07769721 -0.11795374 1.2344002
-0.19179012 -0.10943956 1.2360001
-0.18467988 -0.10793234 1.2345456
-0.17489207 -0.10493407 1.2340001
-0.16492485 -0.10094221 1.2328001
-0.15876783 -0.10044496 1.2320001
-0.14256704 -0.10044496 1.2320001
-0.13481316 -0.10255756 1.2338184
-0.12765142 -0.10168807 1.2340001
-0.093467042 -0.10363497 1.2340002
-0.087358661 -0.10865816 1.2353334
-0.16430399 -0.098364636 1.233
-0.15444762 -0.097744823 1.2320001
-0.14505522 -0.096261114 1.2337779
-0.13631186 -0.098170534 1.2360001
-0.11713319 -0.092623927 1.2333335
-0.10044496 -0.092884585 1.2320001
-0.096008152 -0.09546987 1.2340001
-0.11289262 -0.08601854 1.233143
-0.10462467 -0.084843554 1.2340002
-0.098603956 -0.088851921 1.2360001
-0.108356 -0.079099879 1.2360001
-0.34271529 -0.36345285 1.245
-0.33544889 -0.36158526 1.2423334
-0.34216958 -0.35635841 1.245
-0.33515927 -0.35519332 1.2420669
-0.32964683 -0.35140568 1.2410001
-0.33508655 -0.34922981 1.2410001
-0.32964683 -0.34922981 1.2410001
-0.32197773 -0.24121045 1.245
-0.31615672 -0.23538937 1.245
-0.30888036 -0.2270216 1.245
-0.29796585 -0.21283275 1.245
-0.29256034 -0.20679076 1.2436666
-0.28674626 -0.20242964 1.2436666
-0.28268555 -0.19755244 1.245
-0.27734667 -0.19368319 1.2426001
-0.2724987 -0.18518269 1.245
-0.26958814 -0.18227215 1.245
-0.26522234 -0.17499582 1.245
-0.26085654 -0.16917475 1.245
-0.25212494 -0.15826026 1.245
-0.24775915 -0.15171155 1.245
-0.25212494 -0.14079705 1.245
-0.24488507 -0.14424898 1.2438571
-0.23825958 -0.14034469 1.2410001
-0.24507858 -0.1381761 1.2443334
-0.23435475 -0.13617511 1.2443333
-0.22538574 -0.13310714 1.2420001
-0.22447486 -0.12842728 1.245
-0.21480839 -0.12452191 1.2437999
-0.20888512 -0.12184966 1.2410001
-0.070716314 -0.12076171 1.2410001
-0.068540432 -0.12076171 1.2410001
-0.2117413 -0.11896805 1.245
-0.20514929 -0.11423597 1.2434
-0.19800568 -0.11205816 1.2410001
-0.073262028 -0.11412223 1.2416154
-0.068706118 -0.11559814 1.2440001
-0.20272011 -0.10915697 1.2410001
-0.1950527 -0.10832808 1.2410001
-0.18381004 -0.10347691 1.2425001
-0.17515887 -0.10226667 1.2410001
-0.12946525 -0.10117873 1.2410001
-0.084662952 -0.10411907 1.2427143
-0.076643214 -0.10732867 1.2438573
-0.18227215 -0.099321947 1.245
-0.17441173 -0.098226778 1.2415001
-0.1680833 -0.097139053 1.245
-0.14348763 -0.092233412 1.2410001
-0.13502771 -0.093180515 1.2421428
-0.12566811 -0.097068138 1.2441111
-0.11896805 -0.09059035 1.245
-0.091815345 -0.093265153 1.2418889
-0.086435534 -0.097103596 1.2445556
-0.14217575 -0.086177208 1.2443334
-0.13570362 -0.08695218 1.245
-0.11605752 -0.086224549 1.245
-0.10117873 -0.081595749 1.2410001
-0.094845183 -0.085034661 1.2435715
-0.11096408 -0.077492952 1.245
-0.10393935 -0.07631734 1.2436668
-0.098448791 -0.077929534 1.245
-0.35152841 -0.3658523 1.2570001
-0.34594056 -0.36319661 1.2527143
-0.34299582 -0.35614583 1.25
-0.35536999 -0.29595828 1.2550001
-0.32148024 -0.2360083 1.2580001
-0.3176586 -0.23323734 1.2538
-0.31505096 -0.22502983 1.2557648
-0.30708244 -0.2221656 1.2525001
-0.31300622 -0.21663952 1.2586666
-0.30515364 -0.21450397 1.2548002
-0.29806668 -0.21149583 1.25
-0.30311266 -0.20705926 1.2572858
-0.29542041 -0.20493925 1.2535
-0.28820416 -0.2005375 1.25
-0.29248667 -0.19811833 1.2590001
-0.28549844 -0.19411644 1.2548002
-0.27943751 -0.19177084 1.25
-0.2825951 -0.18729229 1.2582
-0.27603662 -0.18438651 1.2526364
-0.27295411 -0.17672876 1.258
-0.26780501 -0.17377374 1.253
-0.26409939 -0.16504022 1.2571877
-0.25793284 -0.163977 1.2520001
-0.2633484 -0.15496275 1.2589999
-0.25523883 -0.15448196 1.2537224
-0.26116687 -0.14766574 1.2570001
-0.25446126 -0.14579844 1.252
-0.24802361 -0.14428473 1.25
-0.24217917 -0.13588333 1.25
-0.23584768 -0.13210879 1.25
-0.23287921 -0.12799187 1.2550001
-0.22410287 -0.12505592 1.2513572
-0.21807082 -0.12382916 1.25
-0.21471174 -0.11703439 1.2546999
-0.20857362 -0.11433194 1.25
-0.074671052 -0.10341793 1.2505555
-0.13040416 -0.093145825 1.25
-0.12558249 -0.092926674 1.25
-0.083616599 -0.093658939 1.2527143
-0.077031672 -0.09720552 1.2553333
-0.14192794 -0.082516253 1.2550001
-0.13410728 -0.083676286 1.2546923
-0.12501799 -0.08577311 1.2564377
-0.11795063 -0.08355023 1.2522223
-0.091684721 -0.082918055 1.25
-0.086918183 -0.085506 1.2550715
-0.11407713 -0.075094566 1.256
-0.10593056 -0.071959719 1.25
-0.09460856 -0.075072914 1.2520002
-0.089259565 -0.077136144 1.2570001
-0.11147606 -0.06953457 1.2590001
-0.1036322 -0.067784183 1.2563636
-0.095979348 -0.068241611 1.2584286
-0.32740867 -0.24194773 1.266
-0.3323724 -0.23010395 1.268
-0.32618171 -0.23447537 1.2664
-0.32464442 -0.2283359 1.2656
-0.30315134 -0.20283963 1.2666668
-0.29808068 -0.20167542 1.2640001
-0.29476342 -0.19482182 1.2666668
-0.29128057 -0.18729807 1.2672001
-0.28508383 -0.18475419 1.2653333
-0.28123817 -0.17896974 1.268
-0.27625445 -0.17384495 1.2666667
-0.27324209 -0.16605294 1.267
-0.26871586 -0.16233763 1.2640001
-0.26926991 -0.15845925 1.2640001
-0.2219907 -0.11708993 1.2640001
-0.218297 -0.1163512 1.2640001
-0.075021036 -0.092020191 1.2646667
-0.14072955 -0.080891788 1.2640001
-0.13518901 -0.080891788 1.2640001
-0.12698902 -0.08133503 1.2640001
-0.08279556 -0.084790155 1.266
-0.074728146 -0.08702521 1.2664615
-0.068404548 -0.086891688 1.2653333
-0.13436259 -0.078471012 1.2666668
-0.12375727 -0.078430101 1.2672
-0.11807648 -0.074397437 1.2666668
-0.090040676 -0.070031643 1.268
-0.088047147 -0.075841598 1.266
-0.11215372 -0.065883249 1.2666668
-0.10551093 -0.063378915 1.2646667
-0.094430521 -0.064010695 1.2651428
-0.10399597 -0.055101074 1.2675294
-0.096679151 -0.056673694 1.2675999
-0.33359432 -0.24376579 1.2754999
-0.34037897 -0.2354753 1.273
-0.33446297 -0.23511516 1.2733126
-0.30750179 -0.20127171 1.2755001
-0.31034526 -0.19382574 1.2780001
-0.30370766 -0.19526191 1.2744707
-0.2979711 -0.19306742 1.273
-0.30134013 -0.18810344 1.2746667
-0.29488006 -0.18401717 1.2755001
-0.28829914 -0.18265146 1.273
-0.29107472 -0.17634782 1.2780001
-0.28391168 -0.17520031 1.2739999
-0.28011516 -0.1673995 1.273
-0.27713919 -0.1647955 1.273
-0.081467755 -0.081467755 1.273
-0.076036811 -0.082743756 1.2754999
-0.1341826 -0.075475521 1.2754999
-0.12523709 -0.075475521 1.2754999
-0.11882398 -0.071143836 1.2746667
-0.085127205 -0.075162373 1.2761817
-0.079546981 -0.079546981 1.2780001
-0.11527264 -0.064431742 1.2765714
-0.090514071 -0.063692175 1.2746667
-0.088336878 -0.067089111 1.2755001
-0.11214551 -0.055205215 1.2757272
-0.10750768 -0.050963849 1.273
-0.095497429 -0.053089559 1.2729999
-0.11091762 -0.048176341 1.2780001
-0.10446689 -0.04551499 1.27675
-0.099187635 -0.045449734 1.2770001
-0.35342291 -0.26986605 1.2880001
-0.33761486 -0.2517997 1.2880001
-0.34146738 -0.24342448 1.2855
-0.33824372 -0.24664314 1.2846667
-0.3408033 -0.23957458 1.2830001
-0.14059542 -0.077608667 1.2830001
-0.1343116 -0.07203234 1.2838334
-0.12645553 -0.071824178 1.2830001
-0.082242355 -0.072586499 1.2851429
-0.07543689 -0.075195953 1.2843161
-0.068610564 -0.070860088 1.2830001
-0.12270957 -0.066088654 1.2865001
-0.11810015 -0.062986746 1.2830001
-0.085539669 -0.066503741 1.2857778
-0.073394537 -0.068313368 1.2880001
-0.068877943 -0.068877943 1.2880001
-0.12081869 -0.058715627 1.2880001
-0.11730491 -0.054707017 1.2852223
-0.094662026 -0.051842123 1.2855
-0.11429343 -0.045406871 1.2861819
-0.10797728 -0.042741008 1.2830001
-0.096675418 -0.044556085 1.2844286
-0.11178552 -0.038390987 1.2880001
-0.10485455 -0.036450874 1.2860559
-0.09735588 -0.038716231 1.2863334
-0.35179976 -0.27122796 1.2945001
-0.36135024 -0.26220065 1.2970001
-0.35428175 -0.26405764 1.2940588
-0.34856343 -0.26454216 1.295125
-0.36044061 -0.25810733 1.2970001
-0.35516152 -0.25836137 1.296
-0.34438559 -0.25545114 1.2934285
-0.34580657 -0.24590695 1.2950001
-0.1459197 -0.081487626 1.2970001
-0.14359613 -0.075446554 1.2955714
-0.13931637 -0.071357161 1.2920001
-0.13487306 -0.067887843 1.295
-0.12653631 -0.063549131 1.2945
-0.092099972 -0.060262945 1.2970001
-0.084222794 -0.06408532 1.293875
-0.07487084 -0.065339014 1.2939999
-0.066826552 -0.063428588 1.2920001
-0.12269314 -0.053970225 1.2941428
-0.093055099 -0.054479137 1.2945001
-0.12211418 -0.047139898 1.29575
-0.11847733 -0.043647699 1.2932501
-0.094101183 -0.045348868 1.2932501
-0.11529991 -0.036435142 1.2951818
-0.10464668 -0.031356465 1.2928333
-0.097785741 -0.035112251 1.2920001
-0.11029255 -0.028425917 1.2970001
-0.1057444 -0.028425917 1.2970001
-0.36456954 -0.25773263 1.302
-0.35428828 -0.25502187 1.3045001
-0.34813309 -0.25225383 1.302
-0.35108876 -0.2470223 1.3045001
-0.15239184 -0.081352033 1.307
-0.14952601 -0.081040822 1.302
-0.15124604 -0.076768823 1.307
-0.14735627 -0.074704096 1.3030001
-0.14314389 -0.066137053 1.3045001
-0.13451852 -0.062633924 1.3033637
-0.12898046 -0.060495261 1.302
-0.083757468 -0.061294924 1.3028334
-0.076094665 -0.061256204 1.302
-0.067597426 -0.063539043 1.302
-0.14093381 -0.058435969 1.307
-0.13474646 -0.055915207 1.307
-0.12802477 -0.054865412 1.3038751
-0.09137132 -0.054822493 1.3028334
-0.08588703 -0.05709454 1.3062857
-0.074421115 -0.056099653 1.306
-0.068748198 -0.054998558 1.307
-0.13176738 -0.049269542 1.307
-0.12592536 -0.0443995 1.3047274
-0.092810072 -0.049269542 1.307
-0.1224837 -0.035482645 1.30575
-0.11650009 -0.032359958 1.3028334
-0.099684887 -0.03093669 1.307
-0.11373284 -0.025491076 1.3056364
-0.1050254 -0.024382729 1.3054616
-0.099684887 -0.028645083 1.307
-0.10541391 -0.019478656 1.307
-0.36426511 -0.25475416 1.3149168
-0.35747373 -0.25212869 1.3132501
-0.35584626 -0.24741746 1.3157501
-0.17203093 -0.0923656 1.317
-0.16675289 -0.092200659 1.317
-0.17302057 -0.085603118 1.317
-0.16625808 -0.085438177 1.317
-0.15612531 -0.085415028 1.3134707
-0.1731855 -0.075047053 1.3170002
-0.16550511 -0.074745856 1.3169998
-0.1556513 -0.074403882 1.3128824
-0.17203093 -0.065810487 1.317
-0.16433381 -0.066195354 1.3170002
-0.15453184 -0.064577296 1.3154374
-0.14705957 -0.063260265 1.3120002
-0.16048522 -0.056573931 1.317
-0.15448147 -0.055650271 1.317
-0.14522894 -0.055006981 1.3126668
-0.13648883 -0.053675372 1.3120002
-0.090864748 -0.051758401 1.312
-0.084698707 -0.053872041 1.3145002
-0.077928655 -0.053357735 1.3136667
-0.15355781 -0.049646508 1.317
-0.14524035 -0.045832124 1.3167058
-0.13607955 -0.045116931 1.3154376
-0.12997109 -0.043707095 1.312
-0.092525497 -0.046377771 1.316
-0.087747321 -0.049646508 1.317
-0.073201664 -0.048524749 1.3134286
-0.14247394 -0.035329841 1.317
-0.13554652 -0.034637101 1.3170002
-0.12744066 -0.034045525 1.3120002
-0.097140275 -0.034840837 1.316
-0.1420121 -0.02886425 1.317
-0.13546954 -0.026939966 1.317
-0.12457685 -0.025373695 1.3157501
-0.11789413 -0.023578824 1.312
-0.10006624 -0.024153918 1.312
-0.098138452 -0.02886425 1.317
-0.12430869 -0.018088263 1.317
-0.11518504 -0.018064398 1.3153335
-0.10579009 -0.017283045 1.3145001
-0.10275673 0.00577285 1.317
-0.37138405 -0.25263429 1.3280001
-0.36490244 -0.25119612 1.3235
-0.36275238 -0.24778423 1.322
-0.18278149 -0.10128656 1.3280001
-0.17500196 -0.10198789 1.322
-0.18380807 -0.095395356 1.327
-0.17533307 -0.095365293 1.3220003
-0.16727559 -0.09696576 1.322
-0.1948117 -0.081883006 1.3280001
-0.18559735 -0.085713454 1.3248001
-0.17809251 -0.085633785 1.322
-0.20234029 -0.072879754 1.3280001
-0.19522798 -0.07479234 1.3269413
-0.18543249 -0.075331964 1.3220003
-0.17847882 -0.075331971 1.3220001
-0.20218505 -0.067912444 1.3280001
-0.19508889 -0.065528587 1.3279999
-0.18553971 -0.064937562 1.3227501
-0.17568366 -0.064560525 1.3220003
-0.16573034 -0.062583484 1.322
-0.19267732 -0.057628561 1.3280001
-0.18556845 -0.054508965 1.3257143
-0.17475793 -0.055812735 1.3220003
-0.16537374 -0.055362299 1.3220003
-0.15877661 -0.052152898 1.322
-0.082285687 -0.052152898 1.322
-0.18366142 -0.0473678 1.327143
-0.17402376 -0.04582414 1.3253334
-0.1646471 -0.045217581 1.3226002
-0.15550426 -0.04438109 1.3220003
-0.14718707 -0.040563367 1.322
-0.13791545 -0.042881269 1.322
-0.093118489 -0.042027753 1.3244001
-0.08539544 -0.044679727 1.3248422
-0.07724759 -0.045780312 1.324
-0.17230357 -0.037254825 1.3280001
-0.16477527 -0.035377257 1.3262857
-0.15543288 -0.034795228 1.3231252
-0.1473978 -0.034452524 1.3220001
-0.13692205 -0.034271903 1.3219999
-0.093898207 -0.034745026 1.326
-0.089644425 -0.038419038 1.3280001
-0.17113936 -0.023284268 1.3280001
-0.1639424 -0.025295181 1.3280001
-0.1556502 -0.025554175 1.3250002
-0.14588325 -0.025207233 1.3220003
-0.13506266 -0.02487292 1.3220003
-0.097461231 -0.026686171 1.3235
-0.17113936 -0.019791627 1.3280001
-0.16315618 -0.0174632 1.3280001
-0.15543292 -0.015121887 1.3270998
-0.14473121 -0.015263497 1.3225003
-0.13462427 -0.0150827 1.3238001
-0.12548304 -0.012537768 1.3220001
-0.11509296 -0.012391885 1.3220003
-0.10471258 -0.012761638 1.3235002
-0.15134773 -0.0064031733 1.3280001
-0.14399587 -0.0054579917 1.327077
-0.13459463 -0.0065931175 1.3273335
-0.12559302 -0.0046476475 1.3264999
-0.11535115 -0.0048387377 1.327684
-0.10710762 -0.0058210664 1.3280001
-0.14319824 0.0011642133 1.3280001
-0.12457082 0.0011642133 1.3280001
-0.11913783 0.0019403555 1.3280001
-0.19421196 -0.10305467 1.3380002
-0.18697546 -0.10166791 1.3330001
-0.20228572 -0.093945034 1.3380002
-0.19477588 -0.095434576 1.3366112
-0.18814406 -0.098162115 1.3330001
-0.21230938 -0.082108602 1.3380001
-0.20592056 -0.084588833 1.3368235
-0.19593088 -0.086509034 1.3335001
-0.21418615 -0.074601531 1.3380002
-0.20705481 -0.075613134 1.3343638
-0.21418616 -0.066156067 1.3380002
-0.20642297 -0.064848579 1.3337693
-0.19983003 -0.06310422 1.3330001
-0.21348235 -0.055130053 1.3380002
-0.20621613 -0.055066943 1.3364999
-0.19705461 -0.054193672 1.3330001
-0.21230938 -0.04457324 1.3380001
-0.20601028 -0.044346653 1.3374118
-0.19510226 -0.044632953 1.3343159
-0.18470885 -0.04278598 1.3335001
-0.1776267 -0.040900882 1.3330001
-0.080633171 -0.040900882 1.3330001
-0.077274218 -0.042146191 1.3355
-0.20424515 -0.035629265 1.3379999
-0.19471468 -0.035189398 1.3379999
-0.18528727 -0.035180356 1.3376875
-0.17623621 -0.034310617 1.3342501
-0.16827792 -0.03155211 1.3330001
-0.0913193 -0.031611286 1.3355
-0.087221533 -0.036586586 1.3355001
-0.20245636 -0.028386116 1.3380001
-0.19421197 -0.026140701 1.3380001
-0.18520291 -0.025789395 1.3370625
-0.17593405 -0.026064616 1.3340715
-0.16897908 -0.026410285 1.3330001
-0.095103569 -0.026504993 1.3338333
-0.19158673 -0.016030727 1.3380002
-0.18522891 -0.015238876 1.3372499
-0.17550933 -0.014947814 1.3332633
-0.1666085 -0.013689278 1.3330001
-0.10166791 -0.015191756 1.3330001
-0.19119574 -0.0082108602 1.3380001
-0.18509623 -0.0049265157 1.3379999
-0.17507812 -0.0044234651 1.3363334
-0.16445827 -0.0049365107 1.3346667
-0.15503383 -0.0040900884 1.3330001
-0.14607458 -0.0011685967 1.3330001
-0.13613255 -0.0021708771 1.3337144
-0.11335388 -0.0011685967 1.3330001
-0.1051737 -0.0035057904 1.3330001
-0.18382272 0.0028486657 1.3380002
-0.17477402 0.0046919212 1.3379998
-0.16421719 0.0046919202 1.3379999
-0.15465611 0.0046872627 1.3364376
-0.14507294 0.0051752133 1.3330001
-0.13594131 0.0046880851 1.33675
-0.12566309 0.0056871702 1.3330001
-0.11505518 0.0042928909 1.3346667
-0.10724051 0.0031819248 1.3358573
-0.17477402 0.01055682 1.3380001
-0.163748 0.012433588 1.3380002
-0.15480509 0.015246768 1.3377498
-0.1451247 0.015219373 1.3349999
-0.13541402 0.014336422 1.3379998
-0.12529038 0.012522308 1.3356923
-0.11768899 0.011338807 1.3379999
-0.15332523 0.023962306 1.3380002
-0.14544952 0.024632581 1.3380002
-0.20459384 -0.11234922 1.3490001
-0.22115056 -0.10052298 1.3490001
-0.21441634 -0.10439628 1.3468828
-0.20514454 -0.10508468 1.3436319
-0.1989744 -0.1059627 1.3430001
-0.2229245 -0.093427241 1.3490001
-0.21446256 -0.094268292 1.3441253
-0.2076084 -0.094973974 1.3430001
-0.22365269 -0.08478979 1.3476155
-0.21592844 -0.085241094 1.3430002
-0.22420397 -0.075519577 1.3460002
-0.21781221 -0.077705979 1.3430001
-0.23061155 -0.065044284 1.3490001
-0.22395281 -0.064827308 1.3445003
-0.21781223 -0.062400255 1.3430001
-0.23061155 -0.056765921 1.3490001
-0.22407839 -0.054248132 1.3452502
-0.21781221 -0.054158714 1.3430001
-0.23061155 -0.048487555 1.3490001
-0.2240784 -0.044813447 1.3452502
-0.21663482 -0.044739809 1.3430002
-0.22445251 -0.035439249 1.3475002
-0.21451558 -0.035085429 1.3430003
-0.20839331 -0.031788811 1.3430001
-0.084425628 -0.034881692 1.3455715
-0.22262885 -0.026904684 1.3490001
-0.21466514 -0.024763551 1.3454003
-0.20541066 -0.023468776 1.3430003
-0.19838572 -0.021781221 1.3430001
-0.10007589 -0.020015176 1.3430001
-0.094155744 -0.024496699 1.3467501
-0.088696748 -0.028382961 1.3490001
-0.21500093 -0.014428006 1.3490003
-0.2049776 -0.014134936 1.3437502
-0.19661967 -0.014128361 1.3430003
-0.10007589 -0.01766045 1.3430001
-0.098157734 -0.01773935 1.3490001
-0.22115056 -0.0023652466 1.3490001
-0.21452658 -0.0043914737 1.3477144
-0.20509136 -0.004717343 1.3445002
-0.19567779 -0.0044739801 1.3430003
-0.1895555 -0.0011773633 1.3430001
-0.21417344 0.004138743 1.3485001
-0.20486122 0.0047094529 1.3430003
-0.1954423 0.0047094529 1.3430003
-0.18720078 0.0061484524 1.3430002
-0.11263442 0.0074566342 1.3430001
-0.10745566 0.0066892593 1.3470001
-0.21287221 0.01064361 1.3490001
-0.20511389 0.013930761 1.3462003
-0.19549787 0.014133292 1.3433752
-0.18509391 0.014314261 1.3430003
-0.17424977 0.015305724 1.3430003
-0.16561578 0.016875541 1.3430001
-0.12409411 0.017189506 1.3430001
-0.11520158 0.014254998 1.3446366
-0.10973938 0.011802563 1.3460001
-0.19450276 0.023808641 1.348143
-0.18465059 0.02445088 1.3445655
-0.17475447 0.024801688 1.3469003
-0.16512857 0.024773022 1.3454003
-0.15658933 0.027340993 1.3430002
-0.14279214 0.026832333 1.3436668
-0.13474697 0.024254538 1.345667
-0.12577759 0.02297966 1.3466924
-0.11944496 0.020104596 1.3490001
-0.19040236 0.033113454 1.3490001
-0.18377966 0.034059551 1.3490001
-0.17502826 0.0354787 1.3490003
-0.16547719 0.03546029 1.3482503
-0.15502468 0.035648875 1.3453336
-0.14645489 0.034230575 1.3462729
-0.18094137 0.041391816 1.3490001
-0.17581667 0.042180229 1.3490001
-0.16556728 0.041391816 1.3490001
-0.15650049 0.041391816 1.3490001
-0.22993827 -0.12033039 1.3590001
-0.23443907 -0.11450581 1.3590001
-0.22582532 -0.11413921 1.3587058
-0.21513909 -0.11378272 1.3558183
-0.23470382 -0.10451739 1.3590001
-0.22616054 -0.10487662 1.3563334
-0.21959624 -0.10801761 1.3540001
-0.23441744 -0.095197238 1.3573335
-0.22731176 -0.096147545 1.3540001
-0.24185216 -0.085780084 1.3590001
-0.23546563 -0.085622273 1.3565
-0.22909229 -0.086651482 1.3540001
-0.24423496 -0.073667616 1.3590001
-0.2354466 -0.075103998 1.3553158
-0.063824467 -0.071653597 1.3590001
-0.054293346 -0.071313195 1.3590001
-0.24542636 -0.064335056 1.3589998
-0.23553602 -0.064267941 1.3540001
-0.061952278 -0.067909233 1.3590001
-0.057186719 -0.067909233 1.3590001
-0.25138327 -0.058378108 1.3590001
-0.24518807 -0.055042218 1.3589998
-0.23553602 -0.054263167 1.3540001
-0.24344069 -0.045669947 1.3590001
-0.23567234 -0.044943366 1.3563333
-0.077155434 -0.041545235 1.3540001
-0.24185216 -0.035741702 1.3590001
-0.23546509 -0.035675403 1.3565
-0.082694799 -0.032840516 1.3540001
-0.0784849 -0.038052157 1.3565001
-0.24185216 -0.02978475 1.3590001
-0.23521172 -0.02511796 1.3573333
-0.22691612 -0.0235423 1.3540001
-0.092757471 -0.021403378 1.3565001
-0.085957929 -0.025873832 1.357125
-0.079823129 -0.02978475 1.3590001
-0.23470382 -0.01429668 1.3590001
-0.22567657 -0.014176635 1.3553333
-0.21959624 -0.01068306 1.3540001
-0.10089557 -0.015431087 1.3540001
-0.09411981 -0.017870849 1.3590001
-0.23490238 -0.0053612553 1.3590001
-0.22640128 -0.0050959378 1.3561429
-0.21959624 -0.0071220398 1.3540001
-0.10193529 -0.0059525669 1.3573335
-0.23351243 0.00119139 1.3590001
-0.22585201 0.0045223143 1.3573333
-0.21900272 0.0065285368 1.3540001
-0.22231337 0.011675621 1.3590001
-0.21469252 0.0149782 1.3560002
-0.21207516 0.021803431 1.3565001
-0.20437482 0.024956606 1.3553889
-0.19644961 0.029081665 1.3540001
-0.13294475 0.029675167 1.3540001
-0.12344869 0.026114147 1.3540001
-0.11988767 0.022553127 1.3540001
-0.2027065 0.034550309 1.3590001
-0.19543862 0.035997249 1.3557856
-0.18636005 0.037984215 1.3540001
-0.14301033 0.036051165 1.3556668
-0.13581845 0.032167532 1.3590001
-0.19435699 0.042441774 1.3573335
-0.18542054 0.043747518 1.3567779
-0.1653934 0.045956761 1.3556668
-0.15429509 0.043633163 1.3573335
-0.14773236 0.042890042 1.3590001
-0.2352614 -0.12181897 1.365
-0.25009984 -0.1124851 1.365
-0.24387726 -0.11463907 1.3649999
-0.23653781 -0.11447952 1.3650001
-0.25112554 -0.10479234 1.3649999
-0.2441166 -0.10530519 1.3649999
-0.23574005 -0.10889515 1.365
-0.25129649 -0.099321947 1.365
-0.2441166 -0.095731996 1.3649999
-0.25078365 -0.084278345 1.3649999
-0.24650988 -0.084962144 1.3649999
-0.043079399 -0.080175549 1.365
-0.039489448 -0.080175549 1.365
-0.25249314 -0.07395298 1.3649999
-0.24650989 -0.077782251 1.365
-0.05863585 -0.072995648 1.365
-0.045130808 -0.073679455 1.3649999
-0.037395313 -0.072696492 1.3649999
-0.027522951 -0.07060235 1.3650001
-0.2536898 -0.064619102 1.3649999
-0.06273865 -0.063080542 1.3649999
-0.054953847 -0.064342946 1.3649999
-0.045363914 -0.066033319 1.3649999
-0.036225855 -0.066033319 1.3649999
-0.029916249 -0.068209052 1.365
-0.25339064 -0.05414841 1.3649999
-0.061029151 -0.05863585 1.365
-0.056242552 -0.05863585 1.3650001
-0.25249314 -0.0454727 1.3649999
-0.24770655 -0.044276047 1.3650001
-0.25105715 -0.037574809 1.365
-0.24650989 -0.035899498 1.3649999
-0.077782251 -0.0335062 1.365
-0.25009984 -0.02034305 1.365
-0.24445848 -0.024787752 1.3649999
-0.083765499 -0.023135236 1.3649999
-0.25009984 -0.017949751 1.365
-0.24387726 -0.014120473 1.3649999
-0.10171525 -0.01076985 1.365
-0.096130885 -0.015556451 1.3650001
-0.089748748 -0.017949751 1.365
-0.2433551 -0.0051129591 1.3649999
-0.23813334 -0.00119665 1.365
-0.24132442 0.0019944166 1.3650001
-0.23526137 0.0055045895 1.3649999
-0.23215011 0.0119665 1.365
-0.22497021 0.014958125 1.3649999
-0.21898694 0.017949751 1.365
-0.22138025 0.02034305 1.365
-0.21552996 0.025395572 1.3649999
-0.20941375 0.029916249 1.365
-0.1268449 0.029916249 1.365
-0.1412047 0.03709615 1.365
-0.27624118 -0.13269226 1.376
-0.27704537 -0.12746499 1.376
-0.2545279 -0.12183563 1.376
-0.24494416 -0.1227763 1.373
-0.27624118 -0.11459786 1.376
-0.2640641 -0.11454894 1.3754003
-0.25545463 -0.11579039 1.3717145
-0.24861389 -0.1189023 1.3700001
-0.28210035 -0.10322424 1.3760002
-0.27495447 -0.104465 1.376
-0.26485202 -0.10550169 1.3721178
-0.25662076 -0.10609129 1.37
-0.28187057 -0.093688779 1.376
-0.27511036 -0.094666734 1.375625
-0.26471066 -0.094864391 1.3734738
-0.25524664 -0.094646081 1.3707061
-0.039807681 -0.090471998 1.376
-0.28154889 -0.085164309 1.376
-0.27580255 -0.084769517 1.3760003
-0.26502654 -0.084324494 1.374125
-0.25652668 -0.084384076 1.3712001
-0.042036165 -0.085273363 1.3700002
-0.034911204 -0.084279805 1.3733335
-0.026021468 -0.082889594 1.3760002
-0.28106636 -0.078409068 1.376
-0.27727515 -0.075307176 1.3760002
-0.26483747 -0.074945182 1.3744
-0.25774175 -0.075184688 1.3700001
-0.033301383 -0.075883478 1.37
-0.026422733 -0.075665109 1.37
-0.27624118 -0.065139838 1.376
-0.26379779 -0.065045163 1.3740002
-0.25822216 -0.064855799 1.3700001
-0.051644433 -0.061252698 1.3700001
-0.045879472 -0.061733115 1.3700001
-0.037232034 -0.061252698 1.3700002
-0.27624118 -0.055489495 1.376
-0.26358157 -0.05546372 1.3754003
-0.25822216 -0.05524753 1.3700001
-0.064220138 -0.055024698 1.3727274
-0.055026617 -0.054468248 1.3713849
-0.045652751 -0.055261675 1.3703753
-0.038673274 -0.056928981 1.3700001
-0.26379779 -0.045772523 1.3740002
-0.25822216 -0.045639265 1.3700001
-0.070860967 -0.046840299 1.3700001
-0.056695785 -0.049458027 1.376
-0.046580222 -0.048179846 1.3740001
-0.26313087 -0.037073135 1.3752502
-0.25579926 -0.03390491 1.3715999
-0.076211795 -0.034858368 1.3712001
-0.25444743 -0.024424732 1.3743638
-0.24861389 -0.024020668 1.3700001
-0.081269927 -0.022819633 1.3700002
-0.078409068 -0.02533216 1.376
-0.2535125 -0.014152249 1.3737501
-0.24861389 -0.0180155 1.3700001
-0.10208783 -0.013211367 1.3700001
-0.09388078 -0.012811024 1.37
-0.086807534 -0.014951925 1.3725717
-0.2521866 -0.007618818 1.3720001
-0.24801338 -0.0030025833 1.3700001
-0.095955849 -0.0080314353 1.3740001
-0.08805941 -0.0084440531 1.376
-0.2449552 0.0042991736 1.3725716
-0.23900563 0.0084072333 1.3700001
-0.24005237 0.012062933 1.376
-0.23511469 0.014848687 1.3730001
-0.22859669 0.01721481 1.3700002
-0.2197891 0.0252217 1.3700001
-0.29060885 -0.15928771 1.3870001
-0.28598636 -0.15502097 1.3858001
-0.27723619 -0.15208185 1.3834001
-0.3015523 -0.14348052 1.3870001
-0.29406565 -0.14558445 1.3865386
-0.28516838 -0.14515029 1.382385
-0.27640679 -0.14547944 1.3828752
-0.26675239 -0.14407051 1.3810002
-0.30309248 -0.13480686 1.3870003
-0.29488724 -0.13509791 1.3850003
-0.28547755 -0.13567652 1.3810003
-0.27603194 -0.13602664 1.3818575
-0.26513818 -0.1355958 1.3810003
-0.25484744 -0.13458689 1.3810002
-0.24751192 -0.13224781 1.3840001
-0.2941106 -0.12435007 1.3866473
-0.28507331 -0.12627229 1.3819234
-0.27556863 -0.12544474 1.3810003
-0.26513818 -0.12591037 1.3810003
-0.2545723 -0.12734117 1.3810002
-0.24724498 -0.12725912 1.3825001
-0.2940135 -0.11454124 1.3870003
-0.284509 -0.11501429 1.3810003
-0.27595362 -0.11565998 1.3810003
-0.26836666 -0.11824276 1.381
-0.29452115 -0.10492502 1.3863333
-0.28773749 -0.10452174 1.381
-0.27482361 -0.10653955 1.381
-0.29393977 -0.094740488 1.3855001
-0.28741461 -0.094674915 1.3810002
-0.27482361 -0.090800747 1.381
-0.03283029 -0.091195248 1.3870001
-0.026750606 -0.091195248 1.3870001
-0.29435137 -0.084445611 1.3840001
-0.28715047 -0.084417194 1.3810002
-0.27433935 -0.084020957 1.381
-0.030266916 -0.088379398 1.381
-0.026690116 -0.088571385 1.3840001
-0.29447919 -0.075743996 1.3846
-0.28596181 -0.074819811 1.3810003
-0.27428555 -0.074658394 1.381
-0.26998091 -0.071429923 1.381
-0.29277053 -0.06579569 1.3870001
-0.2848815 -0.065655917 1.3810003
-0.27563074 -0.065376528 1.3810002
-0.26998091 -0.065376535 1.381
-0.29141948 -0.056743711 1.3870001
-0.28481975 -0.055748548 1.3825002
-0.27563074 -0.055691127 1.3810002
-0.26917377 -0.055691123 1.381
-0.066587217 -0.052059095 1.381
-0.29060885 -0.048637465 1.3870001
-0.28550002 -0.044948626 1.3858001
-0.27603334 -0.045659836 1.3813531
-0.26998091 -0.046005715 1.381
-0.072340488 -0.043242168 1.383
-0.065490164 -0.044866569 1.3834003
-0.055783175 -0.044256762 1.3832502
-0.049637742 -0.047216389 1.381
-0.28185412 -0.034289416 1.3870001
-0.2759507 -0.035323095 1.3836253
-0.26776132 -0.033697169 1.3810002
-0.07314878 -0.035696216 1.3830001
-0.066181704 -0.036651809 1.3870001
-0.059580896 -0.037694037 1.3870001
-0.27382895 -0.024318732 1.3870001
-0.26435196 -0.024432443 1.3813533
-0.081115335 -0.020581502 1.381
-0.076604009 -0.027966544 1.3870001
-0.27196449 -0.017428426 1.3870001
-0.26437655 -0.014808477 1.3846003
-0.25787413 -0.014124561 1.381
-0.083311088 -0.015369427 1.3840002
-0.26223701 -0.0077009317 1.3870001
-0.25582448 -0.0048497198 1.383
-0.10070445 -0.0024239833 1.3840001
-0.095025487 -0.0038593262 1.3848184
-0.087824762 -0.006070917 1.3850001
-0.25237042 0.0024239833 1.3840001
-0.24774103 0.0076798922 1.383
