# .PCD v0.7 - Point Cloud Data file format
VERSION 0.7
FIELDS x y z
SIZE 4 4 4
TYPE F F F
COUNT 1 1 1
WIDTH 1412
HEIGHT 1
VIEWPOINT 0 0 0 1 0 0 0
POINTS 1412
DATA ascii
-0.18403384 -0.081987739 0.96680003
-0.17483202 -0.082624033 0.9663685
-0.16526283 -0.081786975 0.9655
-0.15852675 -0.08053498 0.96700007
-0.31315392 -0.070701241 0.96700013
-0.30453384 -0.072594054 0.96590936
-0.29497612 -0.074163623 0.96544862
-0.28608507 -0.072179139 0.96520013
-0.27708128 -0.070753016 0.96571434
-0.26873252 -0.070362143 0.96700007
-0.23418726 -0.070997946 0.96700007
-0.2263457 -0.071209885 0.96700013
-0.2145209 -0.072006255 0.96629423
-0.20474502 -0.072968863 0.9655602
-0.19432725 -0.073358811 0.96496457
-0.18469045 -0.07539919 0.96392626
-0.175311 -0.075073048 0.9629631
-0.16544692 -0.075127944 0.96286678
-0.15564579 -0.073877618 0.96493363
-0.33398536 -0.062391274 0.96662503
-0.32520264 -0.064800709 0.9649201
-0.31488606 -0.065138124 0.9640348
-0.30512741 -0.066144407 0.96273685
-0.29469174 -0.066865861 0.96199995
-0.28493106 -0.066546984 0.96222222
-0.27478984 -0.065643668 0.96314818
-0.26522732 -0.064690672 0.96385199
-0.25492486 -0.065074205 0.96480042
-0.24501818 -0.064340614 0.96458346
-0.23553285 -0.065875895 0.96386975
-0.2245767 -0.066836186 0.96349996
-0.2148608 -0.065253243 0.96264017
-0.20552573 -0.064966604 0.96240002
-0.19585565 -0.066203453 0.9623158
-0.18750556 -0.068311617 0.96200001
-0.17120072 -0.069998324 0.96200007
-0.16417278 -0.069436096 0.96200007
-0.15471488 -0.066571131 0.96238101
-0.1467987 -0.06336081 0.96500003
-0.13987654 -0.060189303 0.96700007
-0.34415752 -0.052070882 0.96666676
-0.33589688 -0.055182051 0.96390009
-0.32469103 -0.057709463 0.96200001
-0.3190687 -0.059315849 0.96200007
-0.27155977 -0.059878085 0.96200007
-0.2639696 -0.059315845 0.96200001
-0.25553605 -0.058958068 0.96199995
-0.24710251 -0.059878085 0.96200007
-0.15096025 -0.059878085 0.96200007
-0.14537361 -0.05517615 0.96271884
-0.13648385 -0.05404124 0.96590936
-0.35376316 -0.044154078 0.96625
-0.34583014 -0.044935074 0.96326315
-0.33987138 -0.049757846 0.96200007
-0.14297061 -0.046473209 0.96200001
-0.13570617 -0.045271724 0.96412522
-0.12970372 -0.041539095 0.96700007
-0.35295099 -0.036243893 0.96621072
-0.3449555 -0.035547052 0.96480674
-0.33589679 -0.035215165 0.96303576
-0.32975116 -0.034577485 0.96200007
-0.14084001 -0.039637607 0.96200007
-0.13414158 -0.037546936 0.96299994
-0.12784405 -0.034199644 0.96485716
-0.34354526 -0.028611112 0.96700007
-0.33569381 -0.025177155 0.96543783
-0.32559925 -0.02341927 0.96199995
-0.31541413 -0.023383887 0.96199995
-0.309089 -0.022348862 0.96200007
-0.12393288 -0.025098965 0.96328008
-0.11878029 -0.023135962 0.96550006
-0.33337244 -0.018438272 0.96700007
-0.32493281 -0.015665788 0.96531063
-0.31493449 -0.015326661 0.96342432
-0.3053202 -0.014873418 0.96274996
-0.2948575 -0.013936755 0.96240008
-0.28617966 -0.013410456 0.96209991
-0.2783066 -0.010963594 0.96200007
-0.13313192 -0.012511641 0.96216673
-0.12485733 -0.015078015 0.96325737
-0.11871849 -0.016075436 0.96500015
-0.31239095 -0.0089012347 0.96700007
-0.30478284 -0.0085491734 0.96645457
-0.2942991 -0.0063448749 0.96550018
-0.28562039 -0.0054439623 0.96534413
-0.27525428 -0.0050142747 0.96329421
-0.26495895 -0.0042175855 0.96253324
-0.25528949 -0.0034103859 0.96217388
-0.24442364 -0.0024308423 0.96200001
-0.2355767 -0.0019678245 0.96199995
-0.22348863 -0.0016867067 0.96200007
-0.21580476 -0.0021552364 0.96200001
-0.20534098 -0.0036550506 0.96244454
-0.19593254 -0.0036301627 0.96208698
-0.18830875 -0.0020481439 0.96200001
-0.16332942 -0.00084335334 0.96200007
-0.15407416 -0.00214082 0.96199995
-0.14509052 -0.0035420845 0.96199995
-0.13505664 -0.004946779 0.96374315
-0.12596609 -0.0067412592 0.96660894
-0.11953088 -0.0076296297 0.96700007
-0.33316052 0.0080534983 0.96700007
-0.32513854 0.008159955 0.963
-0.31422609 0.0080749774 0.96518189
-0.30510327 0.0055775293 0.96459997
-0.29474124 0.004082052 0.96450019
-0.2851682 0.0037073856 0.96400011
-0.27473903 0.0028678402 0.96249992
-0.26462907 0.0024310483 0.96223527
-0.25553608 0.001405589 0.96200001
-0.24440381 0.001518036 0.96200001
-0.23384981 0.0021686228 0.96199995
-0.22384372 0.0028851565 0.96200001
-0.21482392 0.0032050062 0.96210003
-0.20482674 0.0047267247 0.96408135
-0.19484 0.0050682835 0.96368778
-0.18492587 0.0052452814 0.96321076
-0.17506877 0.0049872724 0.96322608
-0.16539139 0.0051853391 0.96348667
-0.15522502 0.0050734156 0.96405578
-0.14570908 0.0042883907 0.96483368
-0.13725404 0.0022335076 0.96590918
-0.3543539 0.019497944 0.96700007
-0.34434 0.019482821 0.96625006
-0.33494705 0.016055858 0.96400005
-0.32727072 0.013840914 0.96200001
-0.31608883 0.011638277 0.96200001
-0.3086673 0.010963594 0.96200007
-0.2024048 0.010963594 0.96200007
-0.19577847 0.011204551 0.96200001
-0.18454845 0.01134095 0.96222222
-0.17489181 0.013581637 0.96290916
-0.16513972 0.014993679 0.96447402
-0.15552859 0.014089841 0.96681255
-0.35181072 0.021617284 0.96700007
-0.34370828 0.023799259 0.96566677
-0.33539435 0.025578475 0.96383351
-0.32590178 0.026948532 0.96235299
-0.31663233 0.028767718 0.96200001
-0.16164272 0.021646068 0.96200007
-0.1549821 0.024427148 0.96404767
-0.14684615 0.028503546 0.96577781
-0.33329394 0.031685889 0.96640003
-0.3249456 0.033903789 0.96561915
-0.31472111 0.034660053 0.96418524
-0.30520731 0.036192127 0.96310347
-0.2951816 0.037495714 0.96233338
-0.28589678 0.03921593 0.96200001
-0.27914995 0.039637607 0.96200007
-0.14469872 0.035624575 0.96300024
-0.13838997 0.037604 0.9661001
-0.305821 0.041962966 0.96700007
-0.29586011 0.041539095 0.96700013
-0.28450271 0.04336267 0.96535301
-0.27494171 0.044590991 0.9636668
-0.26538739 0.047219742 0.96282339
-0.25436333 0.047317553 0.96266663
-0.24465784 0.047260392 0.96263623
-0.23540394 0.047694068 0.96287501
-0.22404164 0.046911463 0.96316677
-0.2159313 0.047132 0.96273685
-0.20582013 0.049093507 0.96220005
-0.19581315 0.048505753 0.96224993
-0.18487479 0.048119593 0.96294737
-0.17520607 0.047838982 0.96329409
-0.16522974 0.04698905 0.96283334
-0.1552321 0.046360523 0.96271425
-0.1452803 0.044769526 0.96350026
-0.13897836 0.044508561 0.96600014
-0.27212346 0.050016463 0.96700007
-0.26491767 0.051711943 0.96700007
-0.25460359 0.050958395 0.96700013
-0.2451193 0.052412 0.96600002
-0.23617943 0.051881485 0.96700013
-0.22592181 0.050864197 0.96700007
-0.21404229 0.05294089 0.96561551
-0.2046555 0.054894898 0.9653452
-0.19460981 0.05500203 0.96516699
-0.18491077 0.054110911 0.96504366
-0.17507853 0.052911539 0.96678579
-0.16457886 0.052339353 0.96653849
-0.15428808 0.051711936 0.96700013
-0.14750618 0.050016463 0.96700007
-0.29162139 0.067818932 0.96700007
-0.28400028 0.06679558 0.96452177
-0.27520218 0.066909634 0.96442878
-0.26448074 0.066926591 0.9643752
-0.25457492 0.066869572 0.96475899
-0.24506256 0.065308146 0.96496582
-0.23515606 0.064716473 0.96414316
-0.22502308 0.066370182 0.96424019
-0.21545297 0.068170272 0.96553856
-0.20477927 0.06480097 0.96700037
-0.19752264 0.060189303 0.96700007
-0.29406348 0.074010238 0.96666676
-0.28544393 0.074670583 0.96350002
-0.27481532 0.074899919 0.96206445
-0.26576406 0.074615531 0.96215379
-0.25486135 0.071685031 0.96200007
-0.22433197 0.071685031 0.96200007
-0.21414304 0.071431272 0.96272731
-0.20477025 0.073601559 0.96296877
-0.19521071 0.074590646 0.96348584
-0.1855918 0.077059641 0.96484214
-0.17887244 0.078839511 0.96700007
-0.28399178 0.080874071 0.96700013
-0.274427 0.082519218 0.96483338
-0.26494068 0.084423386 0.96431446
-0.25498605 0.08486554 0.96418208
-0.24490611 0.086774506 0.96331251
-0.23416601 0.087528303 0.96215379
-0.22391431 0.087822914 0.96222222
-0.21487787 0.087028347 0.96262491
-0.20522276 0.085784301 0.9627201
-0.19539803 0.084380366 0.96219355
-0.18472786 0.084429078 0.96282971
-0.1750661 0.085478723 0.96539319
-0.16869959 0.088164613 0.96700007
-0.26534158 0.090707824 0.96700007
-0.24330042 0.090707816 0.96700007
-0.23407999 0.092154764 0.96437496
-0.2256932 0.092366137 0.96461129
-0.21499109 0.091414861 0.96550006
-0.20451733 0.091797903 0.96571428
-0.19483814 0.092119932 0.9650588
-0.18431866 0.091798283 0.9657144
-0.17470315 0.092387185 0.96583337
-0.16869959 0.091555558 0.96700007
-0.30192849 -0.16246338 0.97171438
-0.29813856 -0.16378061 0.97000009
-0.31122893 -0.15089887 0.97800004
-0.30412492 -0.15535973 0.97149992
-0.31233677 -0.14321958 0.97433335
-0.30763224 -0.14536473 0.97128576
-0.1629664 -0.14354256 0.97088253
-0.15802017 -0.14359914 0.97585714
-0.31229493 -0.1349687 0.97131258
-0.3086831 -0.1377594 0.97000003
-0.16249442 -0.13559303 0.97113341
-0.15724042 -0.13557044 0.97684634
-0.31298497 -0.12480383 0.97000021
-0.30712804 -0.12597917 0.97046161
-0.16071931 -0.127555 0.97000003
-0.15713345 -0.12554282 0.97415
-0.31325173 -0.11821248 0.973625
-0.18433811 -0.11184276 0.97730768
-0.17482267 -0.11335789 0.97622752
-0.16223256 -0.11237493 0.97483331
-0.15814161 -0.11703807 0.97333342
-0.20234168 -0.10117084 0.97800004
-0.19451672 -0.10396033 0.97585207
-0.18474165 -0.10521132 0.97400004
-0.17449126 -0.10466791 0.97485298
-0.16470055 -0.10423931 0.97659403
-0.15824755 -0.10140535 0.97750002
-0.3300913 -0.090882279 0.97800004
-0.32837653 -0.090024896 0.97800004
-0.31497023 -0.091271996 0.97800004
-0.30446944 -0.092271678 0.97714287
-0.29464918 -0.092937432 0.97771436
-0.2877939 -0.092025451 0.9780001
-0.22634831 -0.090882279 0.97800004
-0.21062969 -0.09059649 0.97799999
-0.20382297 -0.094105914 0.97628593
-0.19439702 -0.095063761 0.97362489
-0.18498509 -0.095478818 0.97239971
-0.17584921 -0.095419526 0.97305691
-0.1655039 -0.094696067 0.97313309
-0.15581729 -0.094018772 0.97496158
-0.14746936 -0.090024896 0.97800004
-0.33307412 -0.083419815 0.97630775
-0.32544219 -0.08389236 0.97645456
-0.31543237 -0.084936947 0.97727603
-0.30457672 -0.085142277 0.97335476
-0.29480705 -0.084919885 0.97303021
-0.28534287 -0.084253088 0.97666681
-0.27430299 -0.084480815 0.97695464
-0.26527679 -0.083864212 0.97612518
-0.25504532 -0.083165869 0.97799999
-0.24486734 -0.084049642 0.9766252
-0.2349534 -0.084049061 0.97554564
-0.22529352 -0.083515652 0.97538102
-0.21465296 -0.084203131 0.97488016
-0.20467289 -0.084949017 0.97339374
-0.19518706 -0.085546769 0.97253317
-0.18572007 -0.086907476 0.97000009
-0.17523639 -0.087886341 0.97093773
-0.16466226 -0.087138467 0.9712857
-0.15452111 -0.085375272 0.97384995
-0.14609508 -0.084387235 0.97760004
-0.3431212 -0.072853044 0.97766674
-0.33466882 -0.075194538 0.97427595
-0.32508358 -0.074919783 0.97238213
-0.31586277 -0.075882517 0.97251838
-0.3052986 -0.078132771 0.97050017
-0.29451033 -0.079084098 0.97000003
-0.28472438 -0.077359907 0.9717142
-0.27468497 -0.075749829 0.9722665
-0.26486999 -0.075114012 0.97202837
-0.25502744 -0.075067118 0.97294438
-0.24517012 -0.074987508 0.97323531
-0.23525818 -0.076241963 0.97188002
-0.224692 -0.076277077 0.97169209
-0.21534777 -0.077531107 0.97182363
-0.20533919 -0.078409754 0.97100002
-0.19643469 -0.078658916 0.97000015
-0.1524034 -0.077480681 0.97120011
-0.14535584 -0.074916057 0.97364706
-0.13685496 -0.071893968 0.97499996
-0.35066843 -0.062588744 0.97799999
-0.34472296 -0.065029673 0.97491664
-0.33605501 -0.06695009 0.97046161
-0.32342279 -0.068312787 0.97000003
-0.26446402 -0.068879701 0.97000003
-0.25596038 -0.068879701 0.97000003
-0.24575596 -0.068879701 0.97000003
-0.14337637 -0.066240579 0.97119999
-0.13566609 -0.064499669 0.97286183
-0.12880249 -0.060562763 0.97300005
-0.35358238 -0.053226907 0.97610009
-0.34621704 -0.056503151 0.97160023
-0.13217065 -0.055763781 0.97112513
-0.12574407 -0.052890964 0.97309983
-0.36369637 -0.042134352 0.97100008
-0.35773325 -0.046182361 0.97100008
-0.13074008 -0.046511695 0.97049999
-0.12435597 -0.044615675 0.9731763
-0.1190296 -0.044353373 0.97680008
-0.37160391 -0.034051925 0.9772501
-0.36519217 -0.035077222 0.97404152
-0.35774273 -0.034472551 0.97000021
-0.12364601 -0.035865668 0.97216654
-0.11860424 -0.033437818 0.9780001
-0.36300346 -0.026116885 0.97687501
-0.3549709 -0.025594804 0.9733333
-0.34618872 -0.024571124 0.97000009
-0.12172604 -0.029793516 0.97100002
-0.11613017 -0.024552334 0.97364718
-0.38457274 -0.013895276 0.975375
-0.37896195 -0.01457546 0.97800004
-0.3542645 -0.016524468 0.97679985
-0.34474432 -0.015491396 0.97279316
-0.33593041 -0.014156055 0.97077274
-0.32526526 -0.011054766 0.97000003
-0.11398768 -0.014976562 0.97265619
-0.10888726 -0.01457546 0.97800004
-0.34197804 -0.0071416181 0.97766674
-0.33436832 -0.0053701471 0.97528571
-0.3248547 -0.0052463408 0.97209656
-0.31535059 -0.0043673194 0.9707998
-0.30478558 -0.003472331 0.96999997
-0.2964378 -0.0025511 0.97000015
-0.28487283 -0.0017007333 0.97000003
-0.13010611 -0.00085036666 0.97000003
-0.12392378 -0.002187972 0.97107136
-0.11534648 -0.0058675301 0.97513348
-0.34163395 0.0065684249 0.97750002
-0.33509549 0.0042716898 0.97535002
-0.3246583 0.0034912818 0.97174996
-0.31564665 0.003440612 0.97117388
-0.30503866 0.0010933286 0.97000015
-0.29507723 0.00085036666 0.97000003
-0.14298308 0.0088681085 0.97000015
-0.13398668 0.005960275 0.97093087
-0.12465097 0.005125212 0.97391659
-0.11917582 0.00171476 0.97800004
-0.35324231 0.018878141 0.97000009
-0.34534645 0.015536726 0.9729445
-0.33844593 0.012755499 0.97000003
-0.16071931 0.015306599 0.97000003
-0.15421236 0.016415957 0.97085714
-0.14493701 0.015348852 0.97252762
-0.13520585 0.015133046 0.97467649
-0.12575826 0.01387607 0.97586972
-0.36231828 0.026783591 0.97762513
-0.35470533 0.025889572 0.97338897
-0.3473435 0.027755177 0.97110003
-0.15203916 0.022483367 0.97042859
-0.1443028 0.024816887 0.97162044
-0.13734159 0.02599448 0.97550011
-0.36781603 0.03172306 0.97800004
-0.35371688 0.031913586 0.9780001
-0.34476691 0.034600191 0.97439992
-0.335412 0.035622094 0.97071427
-0.32398972 0.03864444 0.97000015
-0.31684661 0.039627083 0.97000009
-0.14102206 0.032062914 0.97100002
-0.13429126 0.034971926 0.9730714
-0.12889279 0.038010512 0.97799999
-0.34095144 0.040868446 0.97799999
-0.33378071 0.042246513 0.97593749
-0.32521474 0.043402329 0.97517639
-0.31526852 0.045323048 0.97262955
-0.30470586 0.046011496 0.97186357
-0.29535228 0.045964248 0.97089994
-0.2867153 0.047337074 0.97000021
-0.13381292 0.044930451 0.97224998
-0.12781939 0.043785997 0.97680008
-0.31358543 0.050866306 0.97680008
-0.30382121 0.053276587 0.9776842
-0.29502168 0.054730263 0.97543347
-0.2851522 0.054794237 0.97299981
-0.27546179 0.05480073 0.9715997
-0.265055 0.056482226 0.97030002
-0.25513333 0.055982742 0.97047991
-0.24477133 0.056795541 0.97000009
-0.23425438 0.056012716 0.97049981
-0.22464316 0.056018185 0.97107995
-0.21559884 0.057307143 0.9715001
-0.1838007 0.05818937 0.97000015
-0.17501895 0.057276912 0.97149998
-0.16531126 0.057093799 0.972
-0.15477526 0.056474689 0.97199994
-0.14476696 0.054832287 0.97273523
-0.13574941 0.053943839 0.97558647
-0.1290357 0.052300181 0.97800004
-0.32474977 0.069405176 0.9774
-0.31424952 0.067152724 0.97460014
-0.30403733 0.065791689 0.97288895
-0.29521134 0.064257115 0.97238457
-0.2856085 0.061785236 0.97161549
-0.27479953 0.061713014 0.97046161
-0.26514432 0.061736625 0.97000021
-0.25556785 0.06155346 0.97000021
-0.24533078 0.060376033 0.97000003
-0.23360449 0.061060492 0.97075009
-0.22403473 0.061926093 0.97120005
-0.21455221 0.063181475 0.97131979
-0.20469539 0.064263426 0.97000015
-0.19489682 0.065177239 0.9714998
-0.18485153 0.064943641 0.97469437
-0.17464027 0.064889729 0.9756217
-0.16474566 0.065295175 0.97645473
-0.15556836 0.063942164 0.97617877
-0.14613979 0.06197454 0.97661531
-0.13975294 0.060873978 0.97800004
-0.3300913 0.07201992 0.97800004
-0.32377085 0.074417241 0.9768948
-0.31494811 0.075289465 0.97409672
-0.30470881 0.074803226 0.97088218
-0.29715589 0.076627485 0.97000015
-0.19172525 0.070725955 0.97200006
-0.18454805 0.072743006 0.97280008
-0.17458171 0.075175233 0.97364086
-0.1672422 0.075803012 0.97706246
-0.31378719 0.08190535 0.97757149
-0.30470616 0.083943419 0.9760502
-0.29512635 0.084640414 0.97370386
-0.28548917 0.08579798 0.9727999
-0.27643666 0.08769317 0.97115386
-0.26446402 0.089288503 0.97000003
-0.17282332 0.082154736 0.97112501
-0.16495329 0.085279882 0.97413534
-0.15983824 0.089748748 0.97500002
-0.2920236 0.090710804 0.97800004
-0.28414541 0.092764266 0.97674996
-0.27530852 0.093099907 0.97426671
-0.26452753 0.094065882 0.97269565
-0.25521865 0.094638839 0.97249991
-0.24597026 0.095339507 0.97259247
-0.23621377 0.097074799 0.97209078
-0.22407436 0.096642338 0.97185719
-0.21489502 0.096363522 0.97272217
-0.20513305 0.096606717 0.97149998
-0.1945955 0.096935369 0.97235727
-0.18516265 0.096645594 0.97213328
-0.17506528 0.096976064 0.97175002
-0.16504715 0.095019229 0.97341371
-0.15943061 0.093547344 0.97600001
-0.25460738 0.10092917 0.9756667
-0.2450334 0.10097399 0.97546154
-0.23463282 0.1003826 0.97628582
-0.22720569 0.10031346 0.97800004
-0.21319422 0.10112935 0.97666669
-0.20531268 0.10115988 0.97650003
-0.19486402 0.10071409 0.97633338
-0.18477854 0.10144193 0.97615379
-0.17502415 0.10067991 0.97600007
-0.16453062 0.10026217 0.97750002
-0.31438363 -0.15159452 0.98250008
-0.31540713 -0.1473624 0.98300004
-0.1933462 -0.13092053 0.98900002
-0.18881997 -0.13208868 0.98800004
-0.15320437 -0.13448402 0.98550004
-0.28351662 -0.12051624 0.98900002
-0.27542439 -0.1219613 0.98900008
-0.2031789 -0.12345622 0.98846686
-0.19528967 -0.12489457 0.98672408
-0.18575798 -0.12491079 0.98386365
-0.17916875 -0.12183475 0.98100013
-0.15393741 -0.12343701 0.98466665
-0.32219639 -0.11442374 0.98137498
-0.31492761 -0.11416435 0.9824999
-0.30528268 -0.11506487 0.98548472
-0.29484278 -0.11494436 0.9852221
-0.28493169 -0.11497967 0.98609996
-0.2751087 -0.11487176 0.98766667
-0.26623577 -0.11313526 0.98890018
-0.25443858 -0.11204862 0.98887515
-0.24503729 -0.11316718 0.98900014
-0.23577257 -0.11219282 0.98900014
-0.21126468 -0.11213502 0.98900002
-0.20491825 -0.11493322 0.98695832
-0.19470017 -0.11535915 0.98309082
-0.18540758 -0.11707646 0.98152947
-0.17830874 -0.11638802 0.98100001
-0.16856197 -0.1118013 0.98100007
-0.15481053 -0.114558 0.98604774
-0.32347593 -0.10473428 0.98100024
-0.31537017 -0.10524725 0.98175013
-0.30475596 -0.10503051 0.98199981
-0.29498342 -0.10492121 0.98100036
-0.28518933 -0.1050482 0.98216695
-0.27470192 -0.10523975 0.9851141
-0.26473069 -0.1052974 0.98632246
-0.25503528 -0.10493508 0.98615605
-0.24458866 -0.1046817 0.98513776
-0.23516826 -0.10472466 0.985645
-0.22620943 -0.10376996 0.98822236
-0.21454398 -0.1044586 0.98745847
-0.20523921 -0.10574105 0.98315984
-0.19823231 -0.10793126 0.98100007
-0.16311522 -0.10864794 0.98100013
-0.15598843 -0.10638287 0.98542869
-0.33282387 -0.090301052 0.98100007
-0.32487032 -0.094734371 0.98239279
-0.31502539 -0.096208945 0.98100024
-0.30500004 -0.097181134 0.98100001
-0.29498345 -0.098041147 0.98100007
-0.2848638 -0.095069833 0.98110038
-0.27432287 -0.09497419 0.98357129
-0.26495019 -0.095042393 0.98399979
-0.25519127 -0.09483669 0.98341686
-0.24497469 -0.095032334 0.98299998
-0.23518065 -0.095059827 0.98312896
-0.22480986 -0.095587626 0.98422235
-0.21549422 -0.094984896 0.98337936
-0.20862211 -0.0969944 0.98200005
-0.15305407 -0.098060079 0.98640001
-0.14796117 -0.092583887 0.98700005
-0.33196387 -0.088581033 0.98100007
-0.32479712 -0.087434351 0.98100001
-0.2833733 -0.08815103 0.98100007
-0.27821323 -0.08772102 0.98100007
-0.26380807 -0.087936021 0.98100001
-0.25484964 -0.087577678 0.98100001
-0.24381284 -0.088151023 0.98100007
-0.23478274 -0.088294357 0.98100001
-0.22514789 -0.087921277 0.98185718
-0.21930255 -0.08772102 0.98100007
-0.14591503 -0.085714318 0.98100013
-0.34314397 -0.076827556 0.98100001
-0.3532491 -0.063855737 0.98100001
-0.36106479 -0.05492492 0.98650008
-0.35647887 -0.056688149 0.98185718
-0.11603403 -0.042584963 0.98340005
-0.37238431 -0.031247029 0.98100013
-0.11396598 -0.035110857 0.98559099
-0.3740305 -0.024404977 0.98562509
-0.36743927 -0.024295282 0.98100001
-0.11232155 -0.026571475 0.98477775
-0.10899532 -0.022492416 0.98675001
-0.38098443 -0.016340191 0.98100007
-0.3747111 -0.016459923 0.98819244
-0.36463544 -0.015655713 0.98400021
-0.35539916 -0.011825139 0.98100001
-0.11094129 -0.01978023 0.98100007
-0.10739327 -0.014810408 0.98400003
-0.3633984 -0.0055510537 0.98764724
-0.35486001 -0.0052572004 0.98409653
-0.3459695 -0.0040427046 0.9814502
-0.33970395 -0.00172002 0.98100007
-0.11307317 -0.0018925478 0.98160011
-0.10699826 -0.0050446168 0.98557901
-0.36154872 0.00086702331 0.98900002
-0.35404894 0.0043314109 0.98786372
-0.346118 0.0039043133 0.9831177
-0.33884394 0.00086000998 0.98100007
-0.11488754 0.0055657458 0.98386204
-0.10765241 0.0040419209 0.98766679
-0.35216138 0.012542032 0.98700005
-0.34744403 0.01204014 0.98100007
-0.13244155 0.01978023 0.98100007
-0.12399972 0.018410958 0.9829092
-0.11582019 0.014076398 0.9866364
-0.36722428 0.027520321 0.98100007
-0.1321049 0.024771592 0.98400015
-0.12548555 0.024608763 0.98775011
-0.36390185 0.034041945 0.98287517
-0.3556172 0.036241986 0.9816668
-0.34744403 0.03870045 0.98100007
-0.13092008 0.031006385 0.98250008
-0.12656671 0.034536771 0.98511124
-0.36322272 0.040647089 0.98650002
-0.35426539 0.043744624 0.9875716
-0.34574234 0.045552112 0.98596162
-0.33576927 0.047107998 0.9820714
-0.32671338 0.047964297 0.98137504
-0.12310659 0.045906808 0.98364717
-0.11953204 0.045228109 0.98566669
-0.34212807 0.052378204 0.98871428
-0.33410835 0.053919673 0.98819071
-0.32461217 0.054438859 0.98695654
-0.31519434 0.055979241 0.98351997
-0.30675891 0.056826815 0.98100001
-0.13330156 0.058357816 0.98100001
-0.12511426 0.055222172 0.98483992
-0.33194569 0.066828929 0.98642862
-0.32431573 0.065937385 0.98487508
-0.31522128 0.062819801 0.98357153
-0.30731022 0.06220739 0.98100001
-0.15369608 0.068677939 0.98100001
-0.14456102 0.066679701 0.98349994
-0.13481426 0.064869575 0.98555541
-0.12753272 0.062716737 0.98771429
-0.34074017 0.075431027 0.98900002
-0.33556253 0.075189993 0.98584223
-0.32717237 0.076049455 0.98100001
-0.16349202 0.074951492 0.98120004
-0.15566547 0.075213529 0.98610717
-0.14575928 0.072396718 0.98794138
-0.13872373 0.07022889 0.98900002
-0.33342877 0.082144536 0.9884001
-0.32486016 0.083004989 0.98478585
-0.31531891 0.086523853 0.98288244
-0.30616355 0.08815103 0.98100007
-0.16082187 0.08342097 0.98100007
-0.15518838 0.084448501 0.98553115
-0.14806956 0.087141059 0.98772734
-0.31391466 0.093183048 0.98769242
-0.30484533 0.093706757 0.98615384
-0.2954151 0.095437393 0.98490489
-0.28599674 0.097317003 0.98450011
-0.27478886 0.098447353 0.9842729
-0.26746309 0.098327816 0.98100013
-0.1549671 0.094828017 0.9820717
-0.14712189 0.094938204 0.98643476
-0.28207159 0.10201975 0.98900002
-0.27451316 0.10305175 0.98780018
-0.26510438 0.10285263 0.98586679
-0.25472662 0.10524208 0.98618186
-0.2443105 0.10633084 0.98606271
-0.23482345 0.10531526 0.98421067
-0.22517043 0.10496779 0.98466688
-0.21578729 0.10578557 0.9852106
-0.20451808 0.10608666 0.98379999
-0.19509932 0.10566143 0.98384988
-0.18493143 0.10663948 0.98360002
-0.17539269 0.10519764 0.98556256
-0.16446671 0.10532997 0.98582608
-0.15483515 0.10452677 0.98670822
-0.14823571 0.10402571 0.98883343
-0.23322928 0.11011196 0.98900002
-0.2265408 0.11085512 0.98899996
-0.20288345 0.11011196 0.98900002
-0.19508025 0.11011197 0.98900002
-0.18351994 0.11011196 0.98900002
-0.17947383 0.11011196 0.98900002
-0.28358448 -0.14146431 0.99762505
-0.27429631 -0.1422863 0.99725002
-0.26684856 -0.14086105 0.99800003
-0.24497573 -0.14086105 0.99800003
-0.23710151 -0.14348578 0.99800003
-0.22835238 -0.14086105 0.99800003
-0.20210497 -0.14191094 0.99800003
-0.19773042 -0.14086105 0.99800003
-0.15338628 -0.14232683 0.99600005
-0.30359492 -0.13036208 0.99800003
-0.29367924 -0.13269518 0.99800003
-0.2843968 -0.13522053 0.99510747
-0.27493808 -0.13505445 0.99488485
-0.26570681 -0.13510159 0.9960717
-0.25506908 -0.13393253 0.99755549
-0.24489757 -0.13560826 0.99706912
-0.23460487 -0.13546024 0.99770933
-0.22640811 -0.13327846 0.99800003
-0.21462296 -0.13157348 0.99800009
-0.20512535 -0.13574678 0.99755543
-0.19638588 -0.13532215 0.99515796
-0.15166225 -0.13422905 0.99425
-0.14786035 -0.13318872 0.99800009
-0.31134579 -0.12317179 0.99242866
-0.30508402 -0.12488864 0.99359399
-0.29473525 -0.12515131 0.99396574
-0.28509042 -0.12579663 0.99253589
-0.27411982 -0.12669586 0.99212509
-0.26497155 -0.12551507 0.99425018
-0.25497279 -0.12508778 0.99518776
-0.24481742 -0.12546028 0.99380022
-0.23514135 -0.12541278 0.99341691
-0.22560199 -0.12525281 0.99650002
-0.21515967 -0.12510359 0.99696547
-0.20625168 -0.12712671 0.99269229
-0.15231481 -0.12551545 0.99424994
-0.146808 -0.12486295 0.99739999
-0.27046219 -0.1191425 0.99200004
-0.26367337 -0.11765912 0.99219984
-0.25486049 -0.11742721 0.9921999
-0.24495238 -0.11812792 0.99199992
-0.23360546 -0.11640932 0.99200004
-0.2249501 -0.1150953 0.99458337
-0.21593903 -0.11559526 0.99387503
-0.20958646 -0.1191425 0.99200004
-0.15123674 -0.11416584 0.99259996
-0.14726627 -0.11571559 0.99694997
-0.22419098 -0.10706091 0.99285704
-0.21741334 -0.10870667 0.99200004
-0.15235923 -0.10454127 0.99540001
-0.14961018 -0.10848925 0.99800003
-0.15075335 -0.096727885 0.99400002
-0.36493573 -0.056615572 0.99350005
-0.11071318 -0.034002744 0.99440002
-0.10856172 -0.031142123 0.99600005
-0.11044598 -0.02869856 0.99200004
-0.10573122 -0.024625687 0.99677271
-0.37569022 -0.011885262 0.99200004
-0.10362889 -0.015188075 0.99560004
-0.38058731 -0.0078742197 0.99800003
-0.37479374 -0.0052306312 0.99500006
-0.36849642 -0.00434853 0.99229991
-0.10254101 -0.0053409273 0.99443746
-0.3725881 0.0018748142 0.99800009
-0.36408424 0.0050462885 0.99566674
-0.35764369 0.0078326659 0.99260008
-0.10428429 0.0058731986 0.99519998
-0.36133921 0.011373873 0.99800003
-0.35736856 0.012203419 0.99425006
-0.11273565 0.016729431 0.99379998
-0.10767001 0.012886562 0.99650002
-0.12216321 0.027277192 0.99300003
-0.11674177 0.02327187 0.99650002
-0.12322699 0.032769185 0.99409997
-0.11986312 0.030621966 0.99800003
-0.36377308 0.045133561 0.99542856
-0.35683653 0.048100822 0.99242866
-0.35393709 0.05407203 0.9957059
-0.34540892 0.055715092 0.99299991
-0.33690369 0.057571054 0.99199998
-0.32829413 0.057831947 0.99200004
-0.12130278 0.056214847 0.99260008
-0.11841564 0.053967055 0.99687511
-0.34375668 0.062836185 0.9964
-0.3358053 0.063199863 0.99271441
-0.32770118 0.062061619 0.99199998
-0.13131765 0.068702616 0.99200004
-0.12449351 0.065616712 0.99476004
-0.34245187 0.070761465 0.99650002
-0.33829513 0.070441917 0.99200004
-0.1510298 0.078558683 0.99200004
-0.14385973 0.077030823 0.99395001
-0.13476081 0.075142592 0.99548382
-0.12728418 0.072528161 0.99675006
-0.34213969 0.084885806 0.99475002
-0.33497578 0.086793803 0.99333328
-0.32634109 0.088290676 0.9932
-0.15045002 0.081747413 0.99200004
-0.14496057 0.083770066 0.99585712
-0.13736139 0.081366941 0.99799997
-0.34150782 0.090699352 0.99799997
-0.33479121 0.092308 0.99710006
-0.32462883 0.093624957 0.99559999
-0.31600356 0.097017087 0.99300003
-0.30698764 0.098270826 0.99200004
-0.14264169 0.09511546 0.99660003
-0.31298423 0.10097688 0.99725008
-0.30438095 0.10200844 0.99556249
-0.29439202 0.10291046 0.99478573
-0.28523812 0.10603408 0.99436849
-0.27456579 0.10781772 0.99254537
-0.2649323 0.10783862 0.99384618
-0.25573841 0.10910116 0.99560004
-0.24785119 0.10870667 0.99200004
-0.17340887 0.1083588 0.99199998
-0.1695824 0.10870667 0.99200004
-0.15415613 0.10887104 0.99350005
-0.14417239 0.10450396 0.99614286
-0.28129998 0.11094699 0.99650002
-0.27509746 0.11091359 0.99620008
-0.26708287 0.1110305 0.99725008
-0.25213358 0.11251842 0.99714291
-0.24496993 0.11272136 0.99574995
-0.23519647 0.11398553 0.99517643
-0.22445372 0.11347524 0.99457139
-0.21454543 0.1130408 0.99547374
-0.20506944 0.11479715 0.99540919
-0.1956495 0.11412776 0.99552941
-0.1853998 0.11283323 0.99599999
-0.17462981 0.1117658 0.99600005
-0.16429484 0.11334918 0.99657911
-0.15583271 0.11169586 0.99609089
-0.14786035 0.111114 0.99799997
-0.28514546 -0.16155301 1.0070001
-0.26336965 -0.16343632 1.0070001
-0.25497797 -0.16432457 1.0048181
-0.24556023 -0.16255254 1.003
-0.2346504 -0.16205662 1.0042307
-0.22246644 -0.16155301 1.0070001
-0.29192415 -0.15109642 1.0040001
-0.28518984 -0.15500966 1.0049706
-0.27505285 -0.15483513 1.0060909
-0.26506513 -0.15498948 1.0044998
-0.25541943 -0.15501481 1.0046667
-0.24512431 -0.15506062 1.0035311
-0.23525701 -0.15488726 1.0038333
-0.22543208 -0.1545855 1.006129
-0.21616641 -0.15378734 1.0034544
-0.20856281 -0.15064494 1.001
-0.15737976 -0.1528855 1.0070001
-0.30280155 -0.14191064 1.0070001
-0.29462937 -0.14499921 1.0039998
-0.28558147 -0.14645419 1.0023333
-0.27567226 -0.14705731 1.0016925
-0.26492733 -0.14491571 1.0009998
-0.25479314 -0.14496997 1.0021999
-0.24466741 -0.14546326 1.001
-0.2347766 -0.14492965 1.0009999
-0.22503076 -0.14526111 1.0033791
-0.21554103 -0.14515938 1.0035199
-0.20705403 -0.14470229 1.001
-0.19920233 -0.14303957 1.001
-0.15337941 -0.14588916 1.0055001
-0.14464143 -0.14464451 1.0060455
-0.13579573 -0.14285778 1.0067858
-0.12977208 -0.14036573 1.0070001
-0.30474561 -0.13525489 1.0036399
-0.29562002 -0.13712007 1.0022002
-0.26238546 -0.13952939 1.001
-0.25565764 -0.13923688 1.001
-0.22388001 -0.1360859 1.0014799
-0.21523939 -0.13728219 1.0016668
-0.15116233 -0.13973847 1.0025001
-0.14399648 -0.13593569 1.0015454
-0.13561623 -0.1352053 1.0033824
-0.12757877 -0.13441591 1.00625
-0.14253211 -0.12457136 1.001231
-0.13570143 -0.1251265 1.0051666
-0.12556398 -0.12551033 1.0065588
-0.11756665 -0.12437231 1.0061429
-0.14277957 -0.11433027 1.00475
-0.13577515 -0.11717741 1.0070001
-0.12663323 -0.11839374 1.0070001
-0.11564723 -0.11741284 1.0070001
-0.15039721 -0.1037809 1.0032501
-0.14771152 -0.10602576 1.0055001
-0.15050964 -0.097699247 1.0040001
-0.14908265 -0.097038016 1.00625
-0.11002167 -0.036087107 1.0040001
-0.10753965 -0.034090236 1.0022001
-0.1020144 -0.024790598 1.001
-0.098577373 -0.020768525 1.001
-0.10091748 -0.01579578 1.001
-0.098380797 -0.015927183 1.0030001
-0.10091748 -0.003217659 1.001
-0.099162392 -0.0052652601 1.001
-0.37474999 0.0058479337 1.0027647
-0.36827567 0.0084829191 1.001
-0.10175455 0.0052753412 1.0035001
-0.099608183 0.0017642917 1.0055001
-0.37305674 0.011465047 1.006
-0.36578614 0.013012558 1.0043333
-0.10536341 0.015865346 1.0020589
-0.11284459 0.026455512 1.0021666
-0.10646989 0.024240231 1.0037271
-0.12159322 0.035843395 1.0032501
-0.11556751 0.032793161 1.0045295
-0.1068192 0.030898117 1.0070001
-0.37171125 0.046684034 1.0047501
-0.36769068 0.046948567 1.001
-0.3716602 0.050319791 1.0070001
-0.36485958 0.05400401 1.0040001
-0.35722533 0.05826911 1.002
-0.12022343 0.058795404 1.001
-0.11713424 0.057426579 1.0016
-0.36194935 0.061796233 1.0070001
-0.35475749 0.064229861 1.0047826
-0.34711838 0.067280576 1.0019001
-0.12040359 0.065039463 1.0025001
-0.11764853 0.064256154 1.0039999
-0.35047293 0.071507066 1.0070001
-0.34662962 0.071081012 1.001
-0.13163149 0.07985644 1.001
-0.12539884 0.075276822 1.0031002
-0.34789151 0.087280929 1.0016
-0.14242223 0.087280937 1.0016
-0.13593754 0.085265331 1.0045453
-0.12840047 0.081779353 1.006143
-0.3452107 0.09446317 1.0032499
-0.33507636 0.097153626 1.0028752
-0.3264713 0.098139763 1.0017501
-0.14160673 0.092585996 1.0058
-0.13886562 0.095303558 1.0052857
-0.32366884 0.10142156 1.006
-0.31453428 0.10465112 1.005
-0.30503944 0.10710273 1.00275
-0.29562569 0.10762037 1.002125
-0.28871176 0.10969292 1.001
-0.1418695 0.10735279 1.001
-0.13923201 0.10486686 1.0052
-0.30294636 0.11088416 1.0065001
-0.2950044 0.11287008 1.0058333
-0.28633657 0.11306984 1.005
-0.2735503 0.11478929 1.005091
-0.26451263 0.11521621 1.00475
-0.25598249 0.11602886 1.0030527
-0.24483459 0.11759082 1.0010002
-0.23664419 0.11817583 1.001
-0.22461802 0.11786377 1.0026364
-0.21589988 0.11794334 1.002125
-0.20534514 0.11759081 1.001
-0.19328134 0.11761272 1.0036668
-0.18476006 0.11730594 1.0041875
-0.17482442 0.11717504 1.0039999
-0.16566283 0.11798772 1.0025001
-0.15518174 0.1162518 1.003625
-0.14442821 0.11292301 1.0058
-0.13860013 0.11035042 1.0070001
-0.2535339 0.12147254 1.0065001
-0.24468693 0.12158281 1.0056365
-0.2345299 0.12299396 1.0050589
-0.22711238 0.12193516 1.0059091
-0.21436207 0.12173676 1.00625
-0.20415142 0.12226848 1.0050589
-0.19576165 0.12160614 1.0070001
-0.1853887 0.12094405 1.0070001
-0.17567787 0.12094405 1.0070001
-0.16331862 0.12094405 1.0070001
-0.33124763 -0.16073947 1.013
-0.32809556 -0.16050145 1.0115
-0.2820105 -0.16159159 1.01
-0.27509734 -0.16257916 1.0100001
-0.26769599 -0.16498573 1.01
-0.22755636 -0.1620343 1.0100001
-0.34012824 -0.15097077 1.013
-0.33483309 -0.15364322 1.0164286
-0.32817987 -0.15517202 1.0132308
-0.15288481 -0.15258968 1.0100001
-0.14571702 -0.152674 1.0100001
-0.1348535 -0.15109687 1.0129999
-0.12915054 -0.15052718 1.016
-0.34385476 -0.14364751 1.0171053
-0.33513328 -0.14465272 1.016706
-0.15273724 -0.14831008 1.01
-0.14584352 -0.14938524 1.0100001
-0.13401878 -0.1470914 1.0107502
-0.12638992 -0.14419879 1.0153334
-0.34269255 -0.135579 1.0190001
-0.33671576 -0.13522238 1.0185001
-0.12346464 -0.13554639 1.0105456
-0.34112191 -0.12723477 1.0190001
-0.33714023 -0.12667325 1.0190001
-0.12130436 -0.1221898 1.01
-0.11909079 -0.12351795 1.01
-0.14078391 -0.1115646 1.01
-0.13381425 -0.11284015 1.0101581
-0.12443686 -0.11401895 1.0115002
-0.11744707 -0.11468654 1.0115001
-0.14356929 -0.10406909 1.0125002
-0.13519914 -0.10517787 1.0155716
-0.12463219 -0.10504613 1.0155002
-0.11574861 -0.10505655 1.0156252
-0.14574192 -0.096946642 1.0158
-0.13429627 -0.098861121 1.0190001
-0.12660828 -0.097534664 1.0190001
-0.11226096 -0.098563343 1.0190001
-0.10939354 -0.097830296 1.0145
-0.096604809 -0.014258457 1.0166
-0.098466031 -0.0092213638 1.018
-0.10089191 0.0076943575 1.0125002
-0.37482423 0.015792904 1.0131669
-0.36718199 0.016134875 1.0112001
-0.10236923 0.015138105 1.0154001
-0.10320704 0.023948779 1.012
-0.1221898 0.039844498 1.01
-0.11464845 0.03741825 1.0119413
-0.10674521 0.035232119 1.0130001
-0.12202235 0.042755909 1.016
-0.1155072 0.042070914 1.0170909
-0.1071988 0.040199548 1.0190001
-0.37473473 0.05582374 1.0150001
-0.36745483 0.058438599 1.01
-0.37132475 0.06461706 1.0190001
-0.36540279 0.0652382 1.0138
-0.35741994 0.06876865 1.01
-0.11569035 0.064211592 1.0124999
-0.36256427 0.07271675 1.0168571
-0.35647503 0.072121754 1.0115
-0.12280031 0.076064512 1.0136001
-0.11988855 0.071933128 1.013
-0.1323462 0.088454783 1.0115001
-0.12638967 0.085110426 1.0142857
-0.35280514 0.097887427 1.012
-0.14078391 0.094741367 1.01
-0.13538085 0.094939306 1.0145653
-0.12854323 0.091944575 1.01825
-0.36000931 0.10094553 1.0190001
-0.35332423 0.10206747 1.0163332
-0.34415027 0.10345186 1.015143
-0.33454457 0.1054154 1.0153754
-0.32545972 0.10657157 1.0150001
-0.3171612 0.10788859 1.0115
-0.13662063 0.1047039 1.0113639
-0.32070309 0.11255874 1.0190001
-0.31448656 0.11342145 1.0162307
-0.30575889 0.11548169 1.0137058
-0.29521662 0.1177595 1.0121429
-0.285629 0.11717686 1.0132728
-0.27622452 0.11856797 1.0113639
-0.26651543 0.1195335 1.01
-0.15229627 0.11932135 1.0112001
-0.14420386 0.11785731 1.0108001
-0.13768895 0.11487181 1.0123574
-0.30104995 0.12059865 1.0190001
-0.29391608 0.12109111 1.0175
-0.28544134 0.12131443 1.0175
-0.27457684 0.12320455 1.0168999
-0.26513273 0.12367322 1.0148752
-0.25459766 0.12508437 1.013
-0.24510285 0.12610763 1.013
-0.2350823 0.12775576 1.0129999
-0.22461113 0.12616119 1.0127002
-0.21579893 0.12551603 1.0130001
-0.20568609 0.12745103 1.0142499
-0.19468322 0.12554151 1.0111252
-0.1846707 0.12495266 1.0118002
-0.17469035 0.12498248 1.0126667
-0.16531323 0.12487069 1.0135715
-0.15598366 0.12359364 1.0151999
-0.14439817 0.12300795 1.01675
-0.13846512 0.12059865 1.0190001
-0.20457104 0.13131852 1.0190001
-0.35121369 -0.14156061 1.0220001
-0.34583798 -0.14066467 1.0220001
-0.1224267 -0.14521009 1.026
-0.11974478 -0.14495246 1.027
-0.35233694 -0.13470137 1.0223532
-0.3472715 -0.13457221 1.0220002
-0.36138654 -0.12256502 1.028
-0.35509887 -0.1251135 1.0267498
-0.34632912 -0.12495923 1.0235651
-0.33956632 -0.12901728 1.0220001
-0.36138654 -0.11896016 1.028
-0.35507807 -0.11857391 1.028
-0.34504655 -0.11706357 1.027647
-0.14382745 -0.09353254 1.0243684
-0.13534477 -0.093874022 1.0229599
-0.12464174 -0.09393055 1.0228748
-0.1154545 -0.094591662 1.024516
-0.10888769 -0.093585484 1.0265
-0.14419413 -0.089220122 1.028
-0.1345558 -0.087858282 1.0271428
-0.12551345 -0.087576032 1.0266153
-0.11493475 -0.087778181 1.028
-0.10904681 -0.084714055 1.028
-0.093716718 -0.012364155 1.0220001
-0.096216828 -0.0056311884 1.0248634
-0.10003468 0.0072097061 1.028
-0.098987505 0.0017997967 1.0265
-0.10134179 0.013450697 1.0230001
-0.11379103 0.045930006 1.0243572
-0.10783 0.04403409 1.0250001
-0.37898827 0.058236968 1.0220001
-0.38084245 0.062124982 1.027
-0.37593162 0.065780349 1.0256923
-0.11580591 0.067590997 1.028
-0.37220111 0.072097063 1.028
-0.3673768 0.073333688 1.0226002
-0.1215792 0.07851164 1.0235001
-0.11886597 0.074281238 1.0263333
-0.12317543 0.085290983 1.0241001
-0.11986137 0.082010411 1.028
-0.13159804 0.098401301 1.0235001
-0.12705928 0.094214894 1.0252727
-0.35201198 0.10716672 1.0238001
-0.34634823 0.10856947 1.0235001
-0.13508441 0.10303756 1.0250001
-0.35309538 0.11157022 1.028
-0.34482253 0.1121741 1.0261538
-0.33544606 0.11287872 1.0250001
-0.32541987 0.114651 1.0247693
-0.31649947 0.11847605 1.0246667
-0.13598563 0.11651719 1.0250001
-0.31362224 0.1216638 1.028
-0.30605748 0.12202972 1.0250001
-0.29355139 0.12573531 1.0259001
-0.28479463 0.12667902 1.0248001
-0.27536136 0.1276302 1.0238001
-0.26508525 0.12849742 1.025
-0.25474939 0.12931593 1.0220001
-0.24638717 0.12991323 1.0220001
-0.23921953 0.12991323 1.0220001
-0.22219643 0.12991323 1.0220001
-0.21502881 0.12991323 1.0220002
-0.19710973 0.12991323 1.0220001
-0.18752646 0.12830937 1.0235001
-0.17202303 0.12991323 1.0220001
-0.16395947 0.12991323 1.0220001
-0.15392409 0.1275252 1.0244001
-0.1454816 0.12734601 1.0244
-0.13754682 0.12286469 1.0254999
-0.27216643 0.13067593 1.028
-0.26345468 0.13217795 1.028
-0.25491863 0.13296424 1.0263846
-0.24492037 0.13303651 1.0265
-0.2360346 0.13286439 1.0263333
-0.2248615 0.13222061 1.026
-0.21442603 0.13271719 1.0258572
-0.20533971 0.1334368 1.0252728
-0.19587846 0.13202801 1.0259001
-0.17303297 0.13202775 1.028
-0.16476622 0.13266195 1.0254285
-0.15580703 0.131192 1.0273333
-0.14779899 0.13067593 1.028
-0.12252358 -0.14157838 1.0352501
-0.11789852 -0.14328897 1.0345001
-0.36265332 -0.11262688 1.0353637
-0.35561335 -0.11356401 1.0333638
-0.34720495 -0.11272217 1.031
-0.36360198 -0.10750764 1.0380001
-0.35426673 -0.10603545 1.0375001
-0.34751505 -0.10797203 1.035
-0.14410116 -0.084280789 1.0337827
-0.13504042 -0.082891613 1.0315001
-0.12444445 -0.082833849 1.0318573
-0.11517913 -0.082801163 1.0325884
-0.14213835 -0.078560725 1.036
-0.13415828 -0.076991998 1.0350001
-0.12518953 -0.075968012 1.0351201
-0.11530218 -0.07709831 1.0375296
-0.10907897 -0.076445922 1.034
-0.093089543 -0.0036302763 1.0350001
-0.095984057 0.0051100901 1.0344738
-0.10107941 0.016181514 1.0334287
-0.097304165 0.011518816 1.0373334
-0.10243148 0.020848887 1.034
-0.11269155 0.049331788 1.0325
-0.10614705 0.047422405 1.0374286
-0.11402172 0.052556865 1.0372001
-0.1043168 0.052696113 1.0380001
-0.11433618 0.069144011 1.031
-0.37509498 0.071403623 1.031
-0.11421996 0.075573482 1.0340456
-0.1094446 0.074171044 1.03175
-0.12167098 0.087583378 1.0342
-0.11496845 0.083363503 1.0356364
-0.12427597 0.094441451 1.0347779
-0.13335805 0.10617466 1.0337694
-0.12802172 0.10219467 1.033875
-0.35464004 0.11574615 1.0355002
-0.34512436 0.11788992 1.0360001
-0.33546624 0.11759003 1.0326667
-0.32809514 0.11840347 1.031
-0.13443124 0.11470471 1.0343751
-0.34124249 0.12102734 1.0380001
-0.3342998 0.1214807 1.0374286
-0.32491177 0.12386817 1.0357648
-0.31551245 0.12593219 1.0334212
-0.3058573 0.12640598 1.0373334
-0.29717597 0.12787867 1.0316001
-0.14120601 0.12853381 1.0325
-0.13560678 0.12439948 1.0343637
-0.32122293 0.13012713 1.0380001
-0.31849301 0.13103712 1.0380001
-0.30120337 0.13012713 1.0380001
-0.29429409 0.13261554 1.0361001
-0.2844761 0.13332404 1.0345334
-0.27448171 0.13498253 1.0333334
-0.26555973 0.13647082 1.0328572
-0.25491783 0.13759878 1.0326
-0.24457763 0.13753952 1.0315455
-0.23448351 0.13696741 1.0327144
-0.22512664 0.1368435 1.0328751
-0.21542266 0.13685356 1.0318573
-0.20510425 0.13757403 1.0316666
-0.19440892 0.13637128 1.0329001
-0.18533882 0.13486728 1.0341202
-0.17633139 0.13487111 1.0343335
-0.16519587 0.13712525 1.0329287
-0.15544234 0.13582692 1.032889
-0.14588961 0.13345544 1.0345715
-0.26480418 0.1410469 1.0380001
-0.25408664 0.14165355 1.0380001
-0.24436317 0.14205618 1.0369092
-0.23557305 0.14166144 1.0375001
-0.22432292 0.14207904 1.0366668
-0.21459827 0.14182474 1.0376365
-0.20390272 0.14155382 1.0357778
-0.19468942 0.14161181 1.0368
-0.18745588 0.1410469 1.0380001
-0.17016625 0.1410469 1.0380001
-0.16379641 0.1410469 1.0380001
-0.1217256 -0.14048803 1.044
-0.11777534 -0.14252496 1.0455
-0.12299458 -0.13859837 1.0470001
-0.36387065 -0.10351606 1.0410001
-0.35573536 -0.10166476 1.041
-0.34952962 -0.10221232 1.041
-0.36321726 -0.097658247 1.04275
-0.35626838 -0.097148858 1.0422001
-0.34952962 -0.09947449 1.041
-0.13514571 -0.072477713 1.043
-0.12447625 -0.071031369 1.042125
-0.11502026 -0.072108567 1.0427649
-0.10901788 -0.072369717 1.0450001
-0.13289368 -0.066369586 1.0442499
-0.12529869 -0.066064157 1.0453639
-0.11636552 -0.067412451 1.0470001
-0.10922653 -0.067922384 1.0470001
-0.091043591 -0.0015218933 1.0419999
-0.087402791 -0.001371545 1.044
-0.09136568 0.00457094 1.0421999
-0.087855414 0.0038526873 1.0460999
-0.095263146 0.014726565 1.0440001
-0.089033388 0.01009657 1.0470001
-0.10245954 0.023425033 1.0448571
-0.09807007 0.021539701 1.0455
-0.11264619 0.057010729 1.04325
-0.10728341 0.056153998 1.0415002
-0.11288102 0.06400995 1.0442307
-0.10799831 0.063151568 1.044
-0.11371463 0.088092506 1.044
-0.12249201 0.096882984 1.0434546
-0.11761439 0.092519984 1.0449001
-0.13050322 0.10860059 1.041
-0.12503931 0.10463928 1.0452
-0.35500529 0.11955191 1.041
-0.13290638 0.1145125 1.0428749
-0.1285018 0.11198014 1.0470001
-0.35443866 0.12319279 1.0437273
-0.34512162 0.1248356 1.0437145
-0.33547369 0.12653132 1.0433334
-0.32794172 0.12819321 1.0419999
-0.31211263 0.12867801 1.041
-0.30633277 0.1277654 1.041
-0.1333936 0.12538458 1.044
-0.3317942 0.13106737 1.0455
-0.32445177 0.13267376 1.0437
-0.31379697 0.13396506 1.0435716
-0.30508265 0.1347864 1.0438573
-0.29511386 0.13705036 1.0422
-0.28443009 0.13861534 1.041
-0.27743345 0.13962933 1.041
-0.18343461 0.13962933 1.041
-0.17613372 0.13962933 1.041
-0.15331848 0.13962933 1.041
-0.1434076 0.13645072 1.0446
-0.13732204 0.13238341 1.0443001
-0.30197921 0.14043412 1.0470001
-0.2934202 0.140871 1.045125
-0.28531009 0.14337727 1.0454999
-0.27508304 0.14335079 1.0435386
-0.26432773 0.14486627 1.0433078
-0.25525957 0.14673297 1.0436251
-0.24508753 0.14731406 1.0429411
-0.23490341 0.14667834 1.0445294
-0.22565553 0.14717367 1.0427144
-0.21543092 0.14714228 1.0438422
-0.20528139 0.14714168 1.0440001
-0.19567727 0.14638053 1.044
-0.18475956 0.14421313 1.0433334
-0.17524944 0.14339812 1.0449231
-0.16517347 0.14490424 1.0448
-0.15565552 0.14297611 1.0449231
-0.14848059 0.14023292 1.0455
-0.25057852 0.15144855 1.0470001
-0.24690704 0.15144855 1.0470001
-0.22487815 0.15144855 1.0470001
-0.21753518 0.15144855 1.0470001
-0.11497998 -0.14240167 1.0513752
-0.12204369 -0.13710658 1.052
-0.11616603 -0.13798119 1.0563334
-0.36302152 -0.09305729 1.0510001
-0.35991549 -0.091129497 1.0500001
-0.123347 -0.062593997 1.0500001
-0.11423862 -0.063668206 1.050889
-0.10913214 -0.062095474 1.052
-0.12454595 -0.056644939 1.0530909
-0.11529464 -0.056499463 1.0547894
-0.10741162 -0.057873368 1.0562501
-0.1213894 -0.049111743 1.057
-0.11891838 -0.048493985 1.057
-0.085186146 0.00621732 1.0505002
-0.092780553 0.017512878 1.0513334
-0.087605231 0.013553779 1.05375
-0.10278916 0.027308166 1.0500001
-0.096119568 0.024935829 1.0533637
-0.10331828 0.031912614 1.0533334
-0.099009417 0.031462252 1.0555
-0.11499104 0.095319241 1.0521667
-0.12294003 0.10615401 1.050889
-0.11686406 0.10330104 1.0552223
-0.12628849 0.11477947 1.0539231
-0.35423234 0.12811081 1.0513334
-0.34702849 0.1297905 1.0500001
-0.13188106 0.12665789 1.0520002
-0.12851407 0.12173919 1.0546666
-0.35324496 0.13192342 1.0544286
-0.34327438 0.13523121 1.0550667
-0.33569452 0.13473208 1.0536429
-0.32513759 0.13799183 1.052875
-0.31619173 0.1389955 1.0500001
-0.30836749 0.1389955 1.0500001
-0.141757 0.1389955 1.0500001
-0.13400288 0.13585663 1.0542001
-0.12880249 0.13250904 1.057
-0.32154292 0.14177541 1.057
-0.31429875 0.14395726 1.0541112
-0.30528054 0.14439315 1.0532501
-0.29521963 0.14601842 1.0526154
-0.28497538 0.14779243 1.052
-0.27571541 0.14807777 1.0528572
-0.26786551 0.1482005 1.0500001
-0.18331626 0.14831342 1.0508001
-0.17472084 0.14796323 1.0526667
-0.16415583 0.1482005 1.0500001
-0.15441042 0.14702849 1.0533334
-0.14577597 0.14378729 1.0550001
-0.13714223 0.14223874 1.057
-0.29003727 0.15104178 1.057
-0.28447747 0.15104178 1.057
-0.27441978 0.15168317 1.056625
-0.2645309 0.15229034 1.0547693
-0.25485447 0.15384017 1.0533001
-0.24480207 0.15417796 1.0530834
-0.23562196 0.15317497 1.054
-0.22425191 0.1541139 1.0526667
-0.21502432 0.15319759 1.0527
-0.20569639 0.15347762 1.0553334
-0.19485883 0.15238194 1.0534286
-0.18616399 0.151908 1.0536364
-0.17513433 0.15104178 1.057
-0.16501907 0.15148273 1.052889
-0.15679169 0.15125377 1.0541668
-0.11104736 -0.14171317 1.0600001
-0.10686079 -0.14203128 1.062
-0.12164626 -0.13408966 1.0646667
-0.11460643 -0.13553192 1.0628463
-0.10712399 -0.13857733 1.0656667
-0.1150745 -0.051867545 1.0603001
-0.10593176 -0.053960588 1.0612857
-0.11440104 -0.046086408 1.062619
-0.10882326 -0.047221299 1.0646001
-0.084987216 0.016589865 1.063
-0.091848359 0.025711581 1.0626
-0.087450713 0.022719987 1.0650001
-0.10380206 0.037020754 1.0610001
-0.096968614 0.034190949 1.0635834
-0.10195896 0.040222343 1.067
-0.1142998 0.09943153 1.0600001
-0.1151699 0.10604186 1.0629001
-0.12280181 0.11701056 1.0621113
-0.11806839 0.11289644 1.0623335
-0.12652859 0.12410498 1.0644001
-0.35506335 0.13624871 1.0636667
-0.34663463 0.13735145 1.061
-0.33546525 0.13846073 1.0600001
-0.12822454 0.13521837 1.06375
-0.343247 0.14204544 1.0625001
-0.33444676 0.14307433 1.0643334
-0.32545811 0.14497937 1.0631819
-0.30201167 0.1477534 1.0600001
-0.2982946 0.14961194 1.0600001
-0.15147047 0.14961194 1.0600001
-0.14408046 0.14759336 1.0603335
-0.13495781 0.14465083 1.0626668
-0.12865916 0.14078259 1.0635
-0.3042486 0.15103535 1.0656668
-0.29474562 0.15378048 1.0642729
-0.28493726 0.15521254 1.0633334
-0.27499864 0.15710883 1.0633529
-0.26550382 0.15809609 1.0639168
-0.25613075 0.1588635 1.064375
-0.24555495 0.1589518 1.0638572
-0.23457831 0.15824972 1.0618333
-0.22456387 0.15840903 1.0629001
-0.21470457 0.15846866 1.0627273
-0.2044367 0.15802698 1.0624168
-0.19518922 0.15824561 1.0643002
-0.18449581 0.15617247 1.0629001
-0.17422624 0.15468259 1.0618335
-0.16494495 0.15666454 1.0630001
-0.15468535 0.15508871 1.0638572
-0.14471401 0.15125218 1.0650001
-0.13937509 0.15059994 1.067
-0.24320486 0.16182478 1.067
-0.23478624 0.16182478 1.067
-0.22730301 0.16182478 1.067
-0.21420737 0.16182478 1.067
-0.10291453 -0.14068133 1.077
-0.12134557 -0.13263352 1.0730001
-0.1149483 -0.13284765 1.0747498
-0.10543262 -0.1365419 1.0752141
-0.09913785 -0.13407214 1.077
-0.11162597 -0.042211499 1.0700001
-0.1097499 -0.042211499 1.0700001
-0.082932666 0.016965253 1.075
-0.090989232 0.029079033 1.0700001
-0.087513126 0.026750607 1.0734288
-0.093295343 0.035251778 1.0733076
-0.089057498 0.032514252 1.075
-0.10365836 0.043514349 1.0742666
-0.095975824 0.045070719 1.0754665
-0.089696147 0.046264328 1.077
-0.12134557 0.11946424 1.0730001
-0.11711258 0.11523126 1.0730001
-0.12394723 0.12598999 1.0738333
-0.11946424 0.12134557 1.0730001
-0.35645264 0.13882893 1.0700001
-0.12683262 0.1340549 1.0743333
-0.35406375 0.14256968 1.077
-0.34405068 0.14591728 1.0718572
-0.33534846 0.14854832 1.0707501
-0.32525539 0.14925185 1.0707501
