# .PCD v0.7 - Point Cloud Data file format
VERSION 0.7
FIELDS x y z
SIZE 4 4 4
TYPE F F F
COUNT 1 1 1
WIDTH 1427
HEIGHT 1
VIEWPOINT 0 0 0 1 0 0 0
POINTS 1427
DATA ascii
-0.11648358 -0.17632835 1.2190001
-0.10277832 -0.17678015 1.2154546
-0.09799847 -0.17335264 1.2106668
-0.10152239 -0.16884775 1.2190001
-0.094715677 -0.16543975 1.213923
-0.086404614 -0.16113028 1.2108001
-0.0010607666 -0.16017577 1.21
0.0063645998 -0.16017577 1.21
0.015159798 -0.16229762 1.2114545
0.022844989 -0.16334216 1.2141538
-0.091393247 -0.15577792 1.2182857
-0.085191533 -0.15439877 1.21465
-0.077045918 -0.1526974 1.2115384
-0.011681291 -0.15185446 1.2113334
-0.0052139345 -0.15343612 1.2116367
0.0053140726 -0.15407193 1.2120801
0.014933141 -0.15463391 1.2165
0.023510447 -0.15816119 1.219
-0.091548257 -0.14604974 1.219
-0.085370116 -0.14558019 1.2172143
-0.074893259 -0.14580047 1.2140002
-0.06664595 -0.14258282 1.2115
-0.011707007 -0.14474118 1.2140001
-0.0053340783 -0.1450949 1.2170001
0.0053283791 -0.14497611 1.2160001
0.013460253 -0.14570382 1.2184999
-0.063283056 -0.13913015 1.2152002
-0.05520808 -0.13695198 1.2110001
-0.045172684 -0.1329274 1.210889
-0.037657216 -0.13100469 1.21
-0.01232969 -0.13565414 1.2157143
-0.0089054722 -0.13928159 1.2190001
0.0080149248 -0.1394597 1.2190001
0.011755223 -0.13892537 1.2190001
-0.041677609 -0.1282388 1.2190001
-0.035511471 -0.12455425 1.2133809
-0.022806482 -0.12251855 1.21
-0.015287514 -0.12436979 1.2125385
-0.032625411 -0.11641791 1.2161
-0.024463657 -0.11505213 1.2133104
-0.016649855 -0.11507971 1.2163846
-0.024556698 -0.10736001 1.2178888
-0.017098505 -0.10793433 1.2190001
-0.084088728 -0.34503138 1.226077
-0.075739935 -0.34508666 1.2262727
-0.06884288 -0.34313872 1.2270001
-0.091431953 -0.33238202 1.2270001
-0.086942248 -0.33523586 1.2243333
-0.075051434 -0.33987579 1.223
-0.064675421 -0.33760956 1.2245002
-0.055934839 -0.3366847 1.2270001
-0.092618704 -0.32362685 1.2264287
-0.08779826 -0.32438901 1.223
-0.054680329 -0.32915413 1.223
-0.10165081 -0.31570911 1.2270001
-0.095947132 -0.31638411 1.2242
-0.10057514 -0.30387676 1.2270001
-0.098424599 -0.30728203 1.223
-0.10003731 -0.2936579 1.2270001
-0.096954204 -0.29515123 1.2230002
-0.103231 -0.28539056 1.2266002
-0.098853454 -0.28540987 1.223
-0.10438287 -0.27584198 1.2251819
-0.099711187 -0.27983463 1.223
-0.10602953 -0.26502639 1.2254617
-0.12262638 -0.25493374 1.2270001
-0.11496396 -0.25571996 1.2256
-0.10646663 -0.25577331 1.2244546
-0.13338308 -0.24363925 1.2270001
-0.12417491 -0.24498656 1.2249999
-0.11579364 -0.24981405 1.223
-0.13230741 -0.23557171 1.2270001
-0.12506264 -0.23589803 1.2244999
-0.13159029 -0.22577119 1.2270001
-0.12687266 -0.22586906 1.223
-0.13015607 -0.21836101 1.2270001
-0.12571663 -0.21525604 1.2256668
-0.12171113 -0.20583169 1.2250001
-0.11901013 -0.2015667 1.223
-0.12155071 -0.19792327 1.2270001
-0.11762717 -0.19425018 1.2253336
-0.12208854 -0.18662874 1.2270001
-0.11491494 -0.18521988 1.2239523
-0.11426403 -0.17568998 1.2249998
-0.106729 -0.17378791 1.2229999
-0.11151112 -0.16816308 1.2270001
-0.10452147 -0.1642001 1.2265999
-0.097138003 -0.16361211 1.223
-0.10111298 -0.15597215 1.2270001
-0.095850073 -0.15512314 1.2242308
0.023614479 -0.15348476 1.2243334
-0.094952472 -0.14452429 1.2244545
-0.084466614 -0.14131495 1.2235
-0.075808875 -0.14124474 1.2236668
-0.069690615 -0.1404534 1.223
-0.0032164901 -0.1404534 1.223
0.0021443267 -0.1404534 1.223
0.016900599 -0.14405364 1.224
0.023429619 -0.14722267 1.2258002
-0.095196784 -0.13687901 1.2270001
-0.083687127 -0.13682522 1.2270001
-0.075058274 -0.13677999 1.2266002
-0.065413833 -0.13556542 1.2255882
-0.055312745 -0.13402501 1.226077
-0.0066219014 -0.13588728 1.2253336
0.0056088162 -0.13712694 1.2252223
0.013965175 -0.13641822 1.2252858
-0.04299261 -0.12575082 1.2260002
-0.011793797 -0.12437095 1.223
-0.0096810302 -0.12800473 1.2270001
-0.013095821 -0.11487577 1.2246001
-0.024530951 -0.10250302 1.2248461
-0.016396517 -0.10510334 1.2265002
-0.093727946 -0.35269877 1.2360001
-0.085408725 -0.3528741 1.2332002
-0.074962333 -0.35299447 1.2327275
-0.067180723 -0.352157 1.2360001
-0.094068669 -0.34490985 1.2333335
-0.088564374 -0.34669712 1.2320001
-0.07236357 -0.34885725 1.2320001
-0.064958446 -0.34562948 1.2330911
-0.057629876 -0.34280339 1.2345001
-0.11160668 -0.33156937 1.2360001
-0.10634368 -0.33141455 1.2360001
-0.095157661 -0.33458635 1.2334287
-0.11305142 -0.32492223 1.2348573
-0.10503674 -0.3248471 1.2337779
-0.096434653 -0.32684895 1.2325002
-0.11160668 -0.3196502 1.2360001
-0.10635107 -0.31562075 1.2336668
-0.10424355 -0.30496982 1.2343334
-0.10440258 -0.29482931 1.2328002
-0.11160668 -0.28389272 1.2360001
-0.10782386 -0.2859073 1.2330002
-0.1120401 -0.27500755 1.2360001
-0.1090854 -0.2754136 1.2320001
-0.12462517 -0.26331317 1.2340001
-0.11504033 -0.265504 1.2331767
-0.10908539 -0.26677316 1.2320001
-0.13504298 -0.25399715 1.2351429
-0.12749845 -0.25499734 1.2325002
-0.14194636 -0.24705169 1.2360001
-0.13534719 -0.2457082 1.2328891
-0.12852634 -0.24949232 1.2320001
-0.13583921 -0.23510242 1.2330002
-0.13472088 -0.22405435 1.2326669
-0.13284606 -0.21728361 1.2348573
-0.12809063 -0.21240142 1.233
-0.12650535 -0.20543222 1.2333335
-0.12552588 -0.19543768 1.2324709
-0.11664575 -0.17172848 1.2320001
-0.11455765 -0.16496015 1.2320002
-0.10800533 -0.16308805 1.2320001
-0.11291563 -0.15556371 1.2330912
-0.10591703 -0.15394726 1.2334738
-0.101165 -0.14544718 1.2320002
-0.098284863 -0.14364709 1.2320001
0.018360907 -0.14148699 1.2320001
0.025173549 -0.14364709 1.2320002
0.031321548 -0.14148699 1.2320001
-0.10044496 -0.13932689 1.2320001
-0.09373188 -0.13451968 1.2325002
-0.086188249 -0.13342257 1.2320002
-0.074883699 -0.13248654 1.2320002
-0.065451227 -0.13111848 1.2320001
-0.05508272 -0.13068645 1.2320001
-0.046874315 -0.13155049 1.2320001
-0.0037842777 -0.13324107 1.2340002
0.0049757268 -0.13321874 1.2341335
0.016030727 -0.1334579 1.2326669
0.024894247 -0.13528354 1.2345601
0.032351729 -0.13481419 1.2346668
-0.084408976 -0.12607005 1.2333335
-0.075503044 -0.12671742 1.2354287
-0.064962752 -0.12775575 1.2350001
-0.055154961 -0.1276104 1.2336001
-0.046069887 -0.12479736 1.2336003
-0.039961971 -0.12204602 1.2320001
-0.0065623764 -0.12516907 1.2344002
0.006656155 -0.12801486 1.2360001
0.015415846 -0.12641102 1.2356924
0.023188183 -0.12851021 1.2360001
0.031423241 -0.12894364 1.2360001
-0.042122081 -0.11988592 1.2320001
-0.03888192 -0.11988592 1.2320001
-0.011906303 -0.11364873 1.2346667
-0.0090244068 -0.11695961 1.2353334
-0.021601066 -0.10044496 1.2320001
-0.014774756 -0.10307846 1.2333335
-0.023799745 -0.097360842 1.2340002
-0.0166749 -0.097673282 1.2352002
-0.10150485 -0.3623614 1.245
-0.09367875 -0.36222398 1.2441111
-0.085680239 -0.36270985 1.2441112
-0.10385566 -0.35354584 1.245
-0.096633129 -0.35628679 1.2435455
-0.087173983 -0.3585102 1.243
-0.061021261 -0.35197201 1.243
-0.11096408 -0.34235147 1.245
-0.10475837 -0.34482959 1.24475
-0.0991624 -0.34434766 1.243
-0.058748938 -0.34922981 1.2410001
-0.11521728 -0.33591753 1.2443846
-0.10466015 -0.33682722 1.2410001
-0.099002846 -0.33835039 1.2410001
-0.11670334 -0.32514113 1.2441112
-0.11275518 -0.31492534 1.245
-0.10988227 -0.3165915 1.2410001
-0.11241934 -0.30451453 1.2450001
-0.10805355 -0.30560601 1.245
-0.11285593 -0.29512805 1.245
-0.10879433 -0.29592058 1.2410001
-0.14436907 -0.28268555 1.245
-0.1375227 -0.28050265 1.245
-0.11605753 -0.28438339 1.245
-0.15171155 -0.27831975 1.245
-0.1443924 -0.2749812 1.2450001
-0.13606744 -0.27449968 1.245
-0.12384713 -0.27406308 1.2446667
-0.11677972 -0.27560523 1.2426001
-0.14424476 -0.26516569 1.2442383
-0.13507855 -0.26471496 1.2425998
-0.12749685 -0.26806596 1.2429999
-0.14352442 -0.25564501 1.2428181
-0.14399482 -0.24544473 1.2443334
-0.14079705 -0.23575319 1.245
-0.13861415 -0.2248387 1.245
0.033071082 -0.22277999 1.2436666
-0.13517804 -0.21502945 1.2435
0.03601785 -0.21938145 1.245
-0.13272908 -0.20997307 1.2410001
-0.073859259 -0.12197053 1.2410001
-0.06531167 -0.12300247 1.2416667
-0.055496097 -0.12296356 1.2412666
-0.047869503 -0.12184966 1.2410001
-0.0018144078 -0.12161675 1.2423334
0.0050625443 -0.12361067 1.2426471
0.014784483 -0.12186105 1.2427142
0.026023082 -0.12383959 1.24325
0.033968881 -0.12471832 1.2437693
-0.074715868 -0.117828 1.2432222
-0.064213641 -0.11714896 1.245
-0.054870166 -0.11698361 1.245
-0.04473269 -0.11795541 1.2445556
-0.038200751 -0.11896805 1.245
-0.0036314456 -0.11426634 1.2433333
0.0027286252 -0.11733088 1.245
0.017099382 -0.11751278 1.245
0.021829 -0.11678515 1.245
0.033834949 -0.11896805 1.245
-0.0073197922 -0.10499286 1.2438573
-0.022439687 -0.093899943 1.2426
-0.014998216 -0.092922419 1.2425385
-0.0098230503 -0.098230496 1.245
-0.01418885 -0.088407449 1.245
-0.11147606 -0.37195477 1.2590001
-0.10407349 -0.37444606 1.2584667
-0.094041981 -0.37455451 1.2574615
-0.087929964 -0.37269059 1.2590001
-0.11337066 -0.36468485 1.2555001
-0.10614935 -0.36448696 1.2504166
-0.097228914 -0.36661837 1.2508334
-0.086917117 -0.36857259 1.2550001
-0.12140957 -0.35319147 1.2590001
-0.1143922 -0.3548829 1.2538002
-0.10673417 -0.35746083 1.25
-0.1244493 -0.34546712 1.2582726
-0.11569944 -0.34626937 1.2509375
-0.12483621 -0.33461517 1.2542
-0.11944583 -0.33751667 1.25
-0.12518324 -0.3247169 1.2542633
-0.11871528 -0.32180974 1.25
-0.14017287 -0.31124997 1.2590001
-0.13434865 -0.31347969 1.2581999
-0.12505278 -0.31452918 1.2531766
-0.11834998 -0.31450418 1.25
-0.14017287 -0.30462766 1.2590001
-0.13448951 -0.30524066 1.2580589
-0.12528464 -0.30422017 1.2518423
-0.11834998 -0.30464166 1.25
-0.15176196 -0.2924867 1.2590001
-0.14395706 -0.29485181 1.2589999
-0.13535662 -0.29569751 1.2589999
-0.12547535 -0.29495877 1.2554446
-0.11834998 -0.29477918 1.25
-0.15380152 -0.28387925 1.2555455
-0.14433703 -0.28801918 1.253
-0.13526782 -0.28553066 1.2545
-0.12503505 -0.28544435 1.2532667
-0.11944583 -0.2860125 1.25
-0.16003989 -0.27593082 1.2590001
-0.15405095 -0.27466482 1.2535294
-0.13223056 -0.27724585 1.25
-0.12733583 -0.27768415 1.25
-0.15356371 -0.26530764 1.2550001
-0.15184473 -0.25526455 1.2551
-0.14793751 -0.25423333 1.25
-0.15111402 -0.24597111 1.2582
-0.1474696 -0.24412821 1.253
-0.1512101 -0.23840424 1.2590001
-0.14572747 -0.23513746 1.2564707
-0.14364924 -0.22541657 1.2542727
0.029626951 -0.22274785 1.2516667
0.032509722 -0.22099304 1.25
-0.13917083 -0.21807083 1.25
0.02970585 -0.21784291 1.2550001
0.03538242 -0.21521157 1.2544118
0.04069991 -0.2133936 1.25475
-0.072324999 -0.1150625 1.25
-0.064556278 -0.11301839 1.2516667
-0.054426387 -0.11214027 1.25
-0.045687351 -0.11335813 1.2537143
-0.0010958334 -0.111775 1.25
0.0060053756 -0.11460393 1.2507143
0.014574583 -0.11393722 1.2514286
0.026271623 -0.11448781 1.2513158
0.034241796 -0.11480746 1.25325
-0.064015955 -0.10926861 1.2590001
-0.0546395 -0.10817378 1.2572858
-0.046987049 -0.10875769 1.2582
-0.0019182563 -0.10470194 1.250625
0.0048773983 -0.10514777 1.2550002
0.015989086 -0.10679217 1.258
0.024516422 -0.10631797 1.2567501
0.032007977 -0.10816488 1.2590001
0.043045212 -0.10043883 1.2590001
-0.023651151 -0.091833457 1.2545
-0.0052814782 -0.094937705 1.2513181
0.0024807474 -0.095594585 1.2570001
0.038630318 -0.096023932 1.2590001
0.041873105 -0.095871389 1.2570001
-0.022296591 -0.086699814 1.255875
-0.015425318 -0.084281221 1.2520527
-0.0066746818 -0.086007848 1.2568824
-0.014708713 -0.077587046 1.2583333
-0.11449617 -0.38239497 1.268
-0.10495353 -0.381347 1.2640001
-0.098621495 -0.38118869 1.2640001
-0.12205515 -0.37327978 1.268
-0.11595468 -0.37550309 1.2652308
-0.10970256 -0.37675625 1.2640001
-0.098621495 -0.37675625 1.2640001
-0.089756638 -0.37675625 1.2640001
-0.13005877 -0.36127433 1.268
-0.1235761 -0.36391601 1.2653333
-0.11856742 -0.3645671 1.2640001
-0.13117038 -0.35460463 1.268
-0.12565567 -0.35540226 1.2643636
-0.13228199 -0.34460011 1.268
-0.12927911 -0.34535992 1.2640001
-0.1328378 -0.33348402 1.268
-0.12964848 -0.33686441 1.2640001
-0.14095223 -0.32186115 1.266
-0.13508195 -0.324211 1.2650666
-0.15173522 -0.31069595 1.268
-0.14410786 -0.31485519 1.2664
-0.13541064 -0.31669688 1.2640001
-0.15445699 -0.30354872 1.2659999
-0.1460951 -0.30449599 1.2640001
-0.1340809 -0.30140501 1.2640001
-0.16229555 -0.29013109 1.268
-0.15622552 -0.29543665 1.2653333
-0.14737819 -0.29697257 1.2640001
-0.13334216 -0.29475635 1.2640001
-0.16197689 -0.28401327 1.2654999
-0.15772051 -0.28847709 1.2640001
-0.1340809 -0.28921583 1.2640001
-0.1624794 -0.27470675 1.2657143
-0.16118394 -0.26678717 1.268
-0.1581163 -0.26322934 1.2648001
-0.15677838 -0.25402176 1.2653333
-0.15586464 -0.24423455 1.2658181
-0.15404819 -0.23454913 1.2658181
-0.1495944 -0.23159429 1.2640001
-0.15181062 -0.22716187 1.2640001
-0.1495944 -0.22826996 1.2640001
0.03504863 -0.21076068 1.2662858
0.041129693 -0.21009491 1.268
0.036683243 -0.20787169 1.268
0.037794854 -0.11227295 1.268
0.041129693 -0.11227295 1.268
-0.063279845 -0.10435168 1.2663332
-0.055661045 -0.10339488 1.2640001
-0.044995621 -0.1042888 1.2642
-0.03581205 -0.10438494 1.2667499
0.0084954845 -0.10231519 1.2640001
0.014177842 -0.10221077 1.2657777
0.026605519 -0.10253976 1.2645
0.035329875 -0.10428951 1.2663528
0.04243461 -0.10456573 1.2654999
-0.06169454 -0.09726616 1.268
-0.054420933 -0.095512457 1.2668889
-0.045385033 -0.096325889 1.2671427
-0.034015365 -0.097599648 1.2679999
-0.027746502 -0.093228236 1.266
0.0055555617 -0.094443552 1.2674286
0.01519205 -0.098933585 1.268
0.024455493 -0.098933585 1.268
0.034650967 -0.097288325 1.2676363
0.042108051 -0.098621495 1.2640001
-0.024034694 -0.083563864 1.2653333
-0.0030481701 -0.082895853 1.265
0.0015548562 -0.086815946 1.2664001
-0.021120653 -0.077812932 1.268
-0.014115585 -0.073599167 1.2665714
-0.0057226103 -0.07628268 1.2667692
-0.013339359 -0.067808412 1.268
-0.13164464 -0.38709131 1.2780001
-0.12504672 -0.38408396 1.2766362
-0.14004751 -0.37644768 1.2780001
-0.1325783 -0.3742069 1.278
-0.12680431 -0.37616074 1.2754999
-0.14004751 -0.36188275 1.2780001
-0.13404372 -0.36483335 1.2759166
-0.12833962 -0.36827892 1.273
-0.14004751 -0.35516047 1.2780001
-0.13595833 -0.35572699 1.2746665
-0.14004751 -0.34545049 1.2780001
-0.13609071 -0.34504801 1.2752726
-0.14139196 -0.33275282 1.2780001
-0.13669363 -0.33622095 1.2765714
-0.1624551 -0.32154906 1.2780001
-0.15304391 -0.32289353 1.2780001
-0.14536667 -0.32427463 1.2754999
-0.16373581 -0.31488666 1.2777058
-0.15527993 -0.31598133 1.2756922
-0.14760305 -0.31868368 1.2755001
-0.16479479 -0.30402863 1.2760768
-0.15902951 -0.30745709 1.273
-0.17141815 -0.29241917 1.2780001
-0.16608252 -0.2953921 1.2759999
-0.17141815 -0.28457654 1.2780001
-0.16756497 -0.28485969 1.2742499
-0.16661225 -0.27507433 1.2754999
-0.16309541 -0.26511103 1.276
-0.15958752 -0.26002723 1.273
-0.1624551 -0.25544664 1.2780001
-0.15958752 -0.25407523 1.273
-0.1624551 -0.24536324 1.2780001
-0.15958752 -0.24775127 1.273
-0.16021433 -0.23752055 1.2780001
-0.15756154 -0.23578067 1.2746667
0.03013191 -0.21092337 1.273
0.035163235 -0.20556539 1.2749231
0.042184677 -0.20601299 1.273
-0.10755648 -0.14901054 1.2780001
-0.07058394 -0.10531572 1.2780001
-0.068075798 -0.10490368 1.273
-0.063736737 -0.094483621 1.2754999
-0.055466559 -0.090826899 1.2738333
-0.043597136 -0.091823317 1.2751428
-0.03495983 -0.092943974 1.2753333
0.0072539784 -0.092069723 1.273
0.014234318 -0.095899798 1.275
0.0253163 -0.09505976 1.2757272
0.032639176 -0.092954606 1.274111
-0.061620899 -0.088510022 1.2780001
-0.053042326 -0.086577751 1.2752222
-0.047569029 -0.086742878 1.2767501
-0.030250261 -0.088510022 1.2780001
-0.027421914 -0.08506231 1.2767501
0.0053990972 -0.084311806 1.2738332
-0.023044761 -0.076737091 1.276
-0.016181951 -0.070865788 1.273
-0.0030689908 -0.07226079 1.2729999
0.0037771729 -0.075493328 1.2758125
-0.012789008 -0.065680064 1.2746665
-0.0044705616 -0.064819306 1.2748749
0.001568532 -0.065654263 1.2780001
-0.0033611399 -0.05938014 1.2780001
-0.13399836 -0.38332739 1.2844286
-0.12934779 -0.3835443 1.2830001
-0.1524348 -0.37148926 1.2880001
-0.14208837 -0.37326393 1.2863334
-0.13670987 -0.37495521 1.2830001
-0.14417668 -0.36447904 1.2857274
-0.13609636 -0.36779761 1.2830001
-0.14422034 -0.35510427 1.2841113
-0.14308476 -0.34620044 1.2851429
-0.15017651 -0.33083996 1.2880001
-0.14332534 -0.33603719 1.2844286
-0.17330885 -0.32453182 1.2872858
-0.16698019 -0.3240594 1.2835001
-0.15596719 -0.32543153 1.2830001
-0.14884369 -0.32730615 1.2830001
-0.17484185 -0.31474119 1.2855002
-0.16983926 -0.31493375 1.2830001
-0.17534292 -0.30434585 1.2851877
-0.16983926 -0.30706036 1.2830001
-0.18179262 -0.292449 1.2880001
-0.17610265 -0.29476431 1.2845627
-0.18179262 -0.2879324 1.2880001
-0.17619215 -0.28463733 1.2847859
-0.17185955 -0.27497265 1.2855
-0.16908942 -0.27331749 1.2830001
-0.16707273 -0.26483223 1.2855
-0.16534021 -0.25532126 1.2830001
-0.16555499 -0.24664022 1.2846667
-0.16284609 -0.23722294 1.2855
0.033623148 -0.2033118 1.2870001
0.039520133 -0.19985896 1.2880001
0.045542251 -0.19835342 1.2880001
0.051940747 -0.18405092 1.2880001
-0.11258701 -0.1519888 1.28425
-0.10910204 -0.15296781 1.2830001
-0.11239364 -0.14847665 1.2863334
-0.1071487 -0.14485063 1.2865715
-0.10124681 -0.13662675 1.2880001
-0.09654393 -0.13335489 1.2855
-0.092213638 -0.12759358 1.2880001
-0.086426005 -0.12343222 1.2870001
-0.082347713 -0.115059 1.2867501
-0.075901538 -0.11432664 1.2833846
-0.072971985 -0.10621385 1.2855
-0.068610564 -0.10010394 1.2830001
-0.067366049 -0.0948506 1.2850001
0.014951426 -0.091799267 1.2837144
0.023225356 -0.092218675 1.286
0.034867663 -0.091105826 1.2830001
-0.063359857 -0.086355865 1.286
-0.055597175 -0.083768129 1.2855
-0.044548344 -0.084054917 1.2853335
-0.034927886 -0.084495604 1.2851743
-0.028119083 -0.082107723 1.2830001
0.013914035 -0.085127681 1.2865715
0.0257798 -0.086023107 1.2872308
0.033655971 -0.084340319 1.2864212
-0.025256889 -0.075765669 1.2844286
0.0073109618 -0.073109612 1.2830001
0.011130161 -0.075007603 1.2880001
-0.01463617 -0.063609399 1.28425
0.0056365286 -0.065362081 1.2855
0.01016232 -0.0677488 1.2880001
-0.011291467 -0.059844773 1.2880001
-0.0038848994 -0.057510018 1.2863334
0.0028217707 -0.059222121 1.2867501
-0.15139799 -0.37113273 1.2920001
-0.14708313 -0.37329012 1.2919999
-0.15264197 -0.36547452 1.2955
-0.14837758 -0.36697966 1.2920001
-0.15178715 -0.35520428 1.2945
-0.14837758 -0.35565314 1.2920001
-0.15122588 -0.34793323 1.2970001
-0.14756218 -0.34539855 1.2936666
-0.19215919 -0.33087766 1.2970001
-0.18556437 -0.3322421 1.2970001
-0.17579067 -0.33229554 1.2936667
-0.15330271 -0.33348167 1.2953334
-0.1478139 -0.33834508 1.2936667
-0.19215919 -0.3263295 1.2970001
-0.18502377 -0.32524148 1.296474
-0.17669392 -0.32733682 1.2919999
-0.16423473 -0.32960212 1.2920001
-0.15970412 -0.32960212 1.2920001
-0.18328482 -0.31515968 1.2953334
-0.18439679 -0.30408651 1.2947272
-0.19215919 -0.29904065 1.2970001
-0.1860311 -0.29626003 1.2947778
-0.18157521 -0.28371125 1.2945001
-0.18078883 -0.27857399 1.2970001
-0.17554142 -0.27511099 1.2933636
-0.17358804 -0.26531366 1.2954615
-0.17169254 -0.25469619 1.2970001
-0.16876535 -0.25484699 1.2920001
-0.1684442 -0.24452628 1.2953334
-0.1644534 -0.2358842 1.2962857
-0.15970412 -0.23219393 1.2920001
-0.16032217 -0.22854437 1.2970001
-0.15722772 -0.22801049 1.294
-0.15122588 -0.21717401 1.2970001
-0.14667773 -0.21035178 1.2970001
-0.14440365 -0.20807771 1.2970001
0.035565313 -0.20138577 1.2920001
0.043040827 -0.20274495 1.2919999
0.036101259 -0.19735309 1.2927142
0.044013575 -0.19443485 1.2939999
0.046253242 -0.18648146 1.2959287
0.050969403 -0.18235719 1.2920001
0.05116665 -0.17737772 1.2970001
-0.11757042 -0.15392053 1.29575
-0.11338947 -0.14565501 1.296
-0.10873472 -0.14271432 1.2920001
-0.11029255 -0.1398555 1.2970001
-0.10452671 -0.13588262 1.296
-0.09740819 -0.13025513 1.2920001
-0.10119626 -0.1273481 1.2970001
-0.095606238 -0.12476336 1.2946923
-0.08947961 -0.12119391 1.2920001
-0.092668489 -0.11768329 1.2970001
-0.087516308 -0.11435313 1.2936666
-0.081894442 -0.10751265 1.2948571
-0.076716833 -0.10417614 1.2945
-0.072299279 -0.096143454 1.2953334
-0.06922555 -0.093055099 1.2945001
-0.071633309 -0.087551825 1.2970001
-0.065396838 -0.084426984 1.2946923
-0.056632668 -0.080418386 1.2920001
-0.041908175 -0.080418386 1.2920001
-0.039642867 -0.080418386 1.2920001
0.018688781 -0.082117364 1.2920001
0.023138491 -0.082360081 1.2919999
-0.060831465 -0.07674998 1.2970001
-0.054625738 -0.076099761 1.2956363
-0.045621641 -0.076485917 1.2945
-0.034803133 -0.075274639 1.2945001
-0.026841195 -0.072959416 1.2936667
0.016657813 -0.074558146 1.2931538
0.02503801 -0.075113446 1.2943333
0.035165735 -0.074867338 1.2940003
-0.022699092 -0.06922555 1.2945001
-0.017055551 -0.064053066 1.2970001
0.0079285735 -0.06116328 1.2920001
0.01324278 -0.065632232 1.2945
0.036385171 -0.068790719 1.2970001
-0.011350641 -0.057877094 1.2945001
-0.0049159573 -0.053323347 1.2942222
0.0042308732 -0.055183377 1.2942727
0.01023333 -0.055714797 1.2970001
-0.0022740734 -0.048892576 1.2970001
-0.16384988 -0.36321965 1.307
-0.15774445 -0.36463407 1.3038751
-0.15624042 -0.35475063 1.3032501
-0.18605146 -0.34128457 1.302
-0.15391414 -0.34480771 1.3047777
-0.19061714 -0.33786032 1.302
-0.18529052 -0.33709934 1.302
-0.17806152 -0.33671889 1.302
-0.16094021 -0.33443606 1.302
-0.15485264 -0.33671892 1.302
-0.19259331 -0.32189852 1.3030001
-0.19296242 -0.31513381 1.3024167
-0.1883343 -0.31503189 1.302
-0.19289997 -0.30658537 1.302
-0.1883343 -0.307042 1.302
-0.19061714 -0.29791063 1.302
-0.1883343 -0.29334494 1.302
-0.18250166 -0.27546722 1.3060001
-0.17920296 -0.27279937 1.302
-0.18218273 -0.26697218 1.307
-0.17790897 -0.26362216 1.3036667
-0.17535453 -0.25540295 1.3045001
-0.17329283 -0.24580918 1.304143
-0.171213 -0.23855677 1.302
-0.1653018 -0.23251724 1.3040001
-0.16135226 -0.2254325 1.3053334
-0.15709758 -0.22107626 1.3032501
-0.15403627 -0.21498701 1.3036667
-0.14952601 -0.21344554 1.302
-0.15124604 -0.20853621 1.307
-0.14746758 -0.20599422 1.3040001
-0.14362401 -0.19695747 1.3036667
-0.13405898 -0.19134915 1.307
0.036696188 -0.19370636 1.3050771
-0.14093381 -0.18791175 1.307
-0.13441154 -0.18570828 1.307
-0.12862934 -0.18473573 1.3061668
0.037760369 -0.18767212 1.3053335
0.043255985 -0.18331675 1.3034286
-0.13253124 -0.17912726 1.307
-0.12832996 -0.17874531 1.307
0.046898413 -0.17828795 1.3048573
0.051462524 -0.17382678 1.3045001
-0.12336483 -0.16308601 1.307
-0.12202805 -0.15640216 1.307
-0.1198491 -0.15295029 1.302
-0.12030935 -0.14437121 1.307
-0.11633201 -0.14375502 1.3035001
-0.12030935 -0.13864221 1.307
-0.11348304 -0.13560309 1.3053335
-0.10691301 -0.13278519 1.302
-0.12030935 -0.12947577 1.307
-0.11286163 -0.12890287 1.307
-0.10540257 -0.12490794 1.3040001
-0.099303536 -0.12213194 1.302
-0.10245187 -0.11790268 1.30575
-0.096138939 -0.11470508 1.3035625
-0.091988482 -0.10725418 1.3061668
-0.085489422 -0.10418394 1.3033637
-0.082845189 -0.096587032 1.3064446
-0.076963909 -0.094374925 1.3043078
-0.08192493 -0.08593525 1.307
-0.075672984 -0.084819697 1.3045001
-0.068865679 -0.081801772 1.302
-0.065060943 -0.076221496 1.302
-0.054559875 -0.072822593 1.302
-0.045276325 -0.072670408 1.302
-0.038808279 -0.071909457 1.302
0.02396982 -0.071909457 1.302
-0.060727578 -0.069894001 1.307
-0.054134607 -0.068997905 1.3045001
-0.044422451 -0.066797361 1.304143
-0.03510822 -0.065981366 1.3044999
-0.025610264 -0.066091359 1.3050771
-0.018297786 -0.062896453 1.3045001
0.017355131 -0.063487567 1.3038182
0.024905562 -0.065689266 1.3045
0.034647156 -0.064920001 1.304647
0.040103115 -0.063019186 1.307
-0.03781151 -0.058435969 1.307
-0.013237916 -0.056051064 1.3048573
-0.0079899402 -0.0513639 1.302
0.0062778103 -0.051934611 1.302
0.014462051 -0.055651199 1.305182
0.03781151 -0.057290167 1.307
-0.0036236283 -0.044803146 1.3049167
0.0045775147 -0.04461313 1.3050001
0.011069524 -0.04656459 1.3061668
-0.16315205 -0.36315095 1.3136667
-0.16279437 -0.3552227 1.317
-0.15987594 -0.35425749 1.312
-0.16192843 -0.34492779 1.317
-0.15757558 -0.345056 1.312
-0.1731855 -0.33828902 1.317
-0.16699184 -0.33743277 1.3136667
-0.15872577 -0.33930507 1.312
-0.18564013 -0.2730543 1.312
-0.19165862 -0.26786023 1.317
-0.18447229 -0.26486316 1.3142223
-0.18232095 -0.25586045 1.3153335
-0.17844878 -0.25327888 1.3132501
-0.18126749 -0.24823254 1.317
-0.17776643 -0.24554995 1.3150001
-0.17203093 -0.23206857 1.317
-0.16939962 -0.23393719 1.3145001
-0.16559464 -0.22604023 1.3147779
-0.16048522 -0.21705917 1.317
-0.15772571 -0.21471255 1.3132501
-0.15304506 -0.20529497 1.3147779
-0.14837408 -0.20243284 1.312
-0.15320626 -0.19836196 1.3140001
-0.14628136 -0.19494361 1.3138751
0.031114215 -0.19129261 1.3145001
-0.13917258 -0.18748042 1.312
0.035724826 -0.18524098 1.3145001
0.040256534 -0.1817295 1.312
-0.13342166 -0.17597857 1.312
-0.12920429 -0.17521177 1.312
0.045257919 -0.1765946 1.3141429
-0.13046642 -0.16625808 1.317
-0.12694298 -0.16444896 1.316375
0.051955651 -0.16972178 1.317
-0.12492207 -0.15451659 1.3153332
-0.12371941 -0.14583807 1.314
-0.12338459 -0.13645121 1.3153335
-0.11789413 -0.13399675 1.312
-0.11468878 -0.12574109 1.3135002
-0.10926773 -0.12191978 1.312
-0.10481657 -0.11518139 1.3138751
-0.10096306 -0.10863975 1.3136667
-0.094818026 -0.10479704 1.3136668
-0.088564374 -0.10006624 1.312
-0.091211028 -0.098138452 1.317
-0.085747644 -0.093974531 1.3141429
-0.085278183 -0.088733137 1.3145001
-0.056359146 -0.067861013 1.312
-0.041406721 -0.060959894 1.312
-0.032205228 -0.060959894 1.312
-0.02507407 -0.061419971 1.312
-0.019553173 -0.060959894 1.312
0.027604479 -0.060959894 1.312
0.031055041 -0.060959894 1.312
-0.03404773 -0.057406388 1.3134286
-0.025811959 -0.056925736 1.3145001
-0.015852874 -0.054473985 1.3151251
0.018019589 -0.05329198 1.3120002
0.024607236 -0.056434859 1.3138183
0.034267914 -0.056725048 1.3138752
-0.0115457 -0.047337368 1.317
-0.0072947429 -0.042992901 1.3136668
0.015437632 -0.044923905 1.3140002
0.02193683 -0.049646508 1.317
-0.0041184546 -0.037031025 1.3141429
0.0046065915 -0.035698157 1.3136668
0.01190937 -0.036490519 1.3145
-0.17113936 -0.36439878 1.3280001
-0.1677372 -0.36354312 1.3232
-0.16703886 -0.35521013 1.325
-0.17113936 -0.34344292 1.3280001
-0.16621076 -0.34633943 1.3235002
-0.19346806 -0.26408729 1.3237144
-0.18798223 -0.26261884 1.322
-0.18722551 -0.25380725 1.3232
-0.18311462 -0.24801601 1.322
-0.17384841 -0.23649764 1.3235002
-0.17217469 -0.2268489 1.327
-0.16696048 -0.22222343 1.3244001
-0.1626208 -0.21488766 1.325
-0.15877661 -0.21208847 1.322
-0.15779781 -0.20652908 1.3235
-0.15204906 -0.19460714 1.324
-0.14795971 -0.19277257 1.322
-0.14453135 -0.18715256 1.3260001
-0.13791545 -0.18195567 1.322
0.033735011 -0.18380804 1.327
-0.13511033 -0.1740431 1.32575
-0.12922768 -0.17346779 1.3280001
0.037704177 -0.17589739 1.3262857
0.044336185 -0.17325221 1.3240001
-0.13367277 -0.16460626 1.3233335
0.038419038 -0.16881093 1.3280001
0.045704637 -0.16803671 1.327143
0.051687825 -0.16407168 1.325
-0.13222137 -0.15517302 1.3280001
-0.12864383 -0.15529975 1.322
0.053083334 -0.15770648 1.3260001
-0.13155611 -0.14436245 1.3280001
-0.1277746 -0.14486916 1.322
-0.1222424 -0.12457082 1.3280001
-0.11783662 -0.12387791 1.3256
-0.11276037 -0.11779477 1.3260001
-0.10724263 -0.11235885 1.3268001
-0.10384876 -0.10655826 1.3260001
-0.096833453 -0.10193916 1.3244001
-0.093456425 -0.095778838 1.3254286
-0.089239396 -0.093875222 1.322
-0.089239404 -0.089239404 1.322
-0.033065673 -0.053950503 1.3235
-0.024422182 -0.052327793 1.3265001
-0.018808708 -0.051779788 1.3244001
0.026725059 -0.052285146 1.3254286
0.034382343 -0.051803458 1.3250002
-0.013649262 -0.044718329 1.325
0.019145086 -0.042347822 1.3235
0.022677176 -0.045932513 1.3265001
0.035702541 -0.046956602 1.3280001
-0.011642134 -0.0349264 1.3280001
-0.0050291442 -0.032868572 1.3233335
0.0046358136 -0.031291738 1.322
0.015746847 -0.034551505 1.3258183
-0.012806347 -0.029105334 1.3280001
-0.0038807106 -0.026388837 1.3280001
0.0046509355 -0.025580477 1.3265001
0.011254062 -0.028329192 1.3280001
-0.0011642133 -0.019791627 1.3280001
0.0037513541 -0.017980628 1.3280001
-0.18230107 -0.36109638 1.3330001
-0.17569637 -0.36380589 1.3366668
-0.17327887 -0.35474667 1.3355001
-0.17311558 -0.34739867 1.3342501
-0.19591938 -0.26192468 1.335
-0.19588767 -0.25922859 1.3379999
-0.17873023 -0.23354153 1.3360001
-0.17477402 -0.22497757 1.3380001
-0.16944651 -0.22086477 1.3330001
-0.17066859 -0.21758778 1.3380001
-0.16653919 -0.21450864 1.3346667
-0.16274178 -0.20840032 1.3355
-0.153519 -0.19394957 1.33675
-0.15131442 -0.18884978 1.3380001
-0.14509009 -0.18506388 1.3346667
0.029214917 -0.18346968 1.3330001
0.032331172 -0.18191154 1.3330001
-0.1438496 -0.17665909 1.3367501
-0.13815521 -0.17444527 1.3355
0.034668371 -0.17451043 1.3330001
-0.14427654 -0.16773614 1.3380001
-0.13787524 -0.16394331 1.3344287
0.038154114 -0.16501407 1.335
0.044072784 -0.1631027 1.3330001
-0.13620318 -0.15376718 1.3355001
0.03870834 -0.1583523 1.3380001
0.045986913 -0.15594059 1.3374447
0.051513955 -0.15454186 1.3355001
-0.13497292 -0.14607459 1.3330001
-0.12153405 -0.12153405 1.3330001
-0.11802826 -0.12036546 1.3330001
-0.12153405 -0.11802826 1.3330001
-0.11465266 -0.1137134 1.3345001
-0.11101668 -0.10751089 1.3330001
-0.10584549 -0.10417104 1.335143
-0.10166791 -0.099330716 1.3330001
-0.098551653 -0.097772576 1.3330001
-0.031670459 -0.05043814 1.3380001
-0.028101113 -0.050343897 1.3355
0.029214917 -0.050249655 1.3330001
-0.024002258 -0.047415834 1.3355
-0.017561825 -0.044487763 1.3355001
0.02668296 -0.043822374 1.3330001
0.033597156 -0.042945925 1.3330001
-0.01524874 -0.035189398 1.3380001
0.019111918 -0.032370627 1.3346667
0.025221383 -0.036071803 1.3352729
0.033952862 -0.037463039 1.3355001
-0.012347851 -0.025341025 1.3341112
-0.0070115803 -0.023371935 1.3330001
0.013652623 -0.025610941 1.3346667
-0.012120794 -0.019158674 1.3379999
-0.0041360543 -0.015679067 1.3349999
0.0054208282 -0.012858149 1.3334546
0.01141683 -0.016097791 1.3355001
-0.0011729799 -0.0082108602 1.3380001
0.0030488714 -0.0072663398 1.3370001
-0.18249132 -0.36145055 1.3430001
-0.18161969 -0.35615745 1.3452501
-0.17778187 -0.3555637 1.3430001
-0.18190265 -0.34908819 1.3430001
-0.17778187 -0.34849954 1.3430001
-0.18249132 -0.23429531 1.3430001
-0.18115577 -0.22631313 1.3455715
-0.17683998 -0.22205071 1.3430001
-0.18094137 -0.21878532 1.3490001
-0.17464206 -0.21433523 1.3439233
-0.16836296 -0.21074803 1.3430001
-0.172663 -0.20932433 1.3490001
-0.16536511 -0.20735078 1.3454001
-0.16129878 -0.19779703 1.3430001
-0.15722553 -0.19429602 1.3455715
-0.15255842 -0.18567187 1.3490001
-0.14952514 -0.18249132 1.3430001
-0.15019317 -0.17384563 1.3490001
-0.14533994 -0.17329183 1.3447144
0.034143537 -0.17071769 1.3430001
-0.15019317 -0.16911514 1.3490001
-0.1443691 -0.16512437 1.3454001
0.035359036 -0.1650176 1.3445002
-0.14160183 -0.15929911 1.3460001
0.037978429 -0.15592305 1.3454001
0.042819612 -0.15307486 1.3443335
0.050626624 -0.15187986 1.3430001
-0.1377515 -0.14952514 1.3430001
0.047199734 -0.14867651 1.3460001
0.051919706 -0.14867651 1.3460001
-0.10780458 -0.10119662 1.3454001
-0.033113454 -0.048487555 1.3490001
-0.024779862 -0.044365119 1.3460001
-0.01766045 -0.041207716 1.3430001
-0.020104596 -0.036661323 1.3490001
-0.017680176 -0.035356406 1.3445001
0.027079355 -0.033201646 1.3430001
0.033672594 -0.033201646 1.3430001
-0.016522536 -0.023993196 1.3460001
0.01691499 -0.022812327 1.3460001
0.023630112 -0.029532708 1.3475001
-0.012754974 -0.014168861 1.3472002
-0.0076712715 -0.012388615 1.3460001
0.014748601 -0.014745971 1.3460001
-0.012220441 -0.0074899481 1.3490001
-0.0039731329 -0.0050425068 1.3468182
0.0051946007 -0.0037744008 1.3460002
0.01061994 -0.0070773298 1.3460001
-0.0011826233 0.0011826233 1.3490001
0.0023652466 0.0011826233 1.3490001
-0.18636005 -0.35966301 1.3540001
-0.18398602 -0.22434425 1.3540001
-0.17124237 -0.20691831 1.3565001
-0.16974196 -0.20772617 1.3540001
-0.16143467 -0.19236988 1.3573335
-0.15787189 -0.19110808 1.3540001
-0.16083765 -0.18585685 1.3590001
-0.156205 -0.18520653 1.3560002
-0.15469991 -0.17742001 1.3562224
0.046028633 -0.14588998 1.356143
0.053165667 -0.14346255 1.3552501
0.053546797 -0.13604464 1.3573335
-0.032049179 -0.046293259 1.3540001
-0.027301153 -0.042336572 1.3540001
-0.02296414 -0.036424186 1.3548335
0.036797207 -0.032049179 1.3540001
-0.017805099 -0.026114147 1.3540001
0.025844611 -0.025406597 1.3567275
0.03593234 -0.026973348 1.3559232
0.041545235 -0.026114147 1.3540001
-0.017330298 -0.013531876 1.3540001
0.01602459 -0.013650577 1.3540001
-0.013404359 -0.0045803329 1.3547144
-0.0077155433 -0.0029675169 1.3540001
0.0083090467 -0.0011870067 1.3540001
0.013092141 -0.0043640467 1.3573335
-0.01072251 0.00238278 1.3590001
-0.0038325919 0.0038325924 1.3562224
0.0044334624 0.0057323636 1.3562728
0.01072251 0.0035741702 1.3590001
0.0047655599 0.01072251 1.3590001
-0.16154775 -0.18069415 1.365
0.047467116 -0.14240135 1.3650001
0.051455949 -0.14000805 1.365
0.04762667 -0.13234949 1.365
0.052413266 -0.13330682 1.365
-0.029916249 -0.04188275 1.365
-0.026326299 -0.035899501 1.3649999
-0.02102685 -0.026155353 1.3649999
0.025129652 -0.021140816 1.3650001
0.035899498 -0.022138024 1.365
-0.021539699 -0.014359801 1.3649999
0.021539699 -0.0143598 1.365
0.03709615 -0.01076985 1.365
-0.02130037 -0.00550459 1.365
-0.017471092 -0.0040686103 1.365
0.016354216 -0.0059832502 1.3650001
-0.01268449 0.0040686103 1.365
-0.0064619095 0.00646191 1.365
0.0119665 0.0047865999 1.365
-0.01076985 0.01076985 1.365
-0.0031112898 0.011727169 1.365
0.0040686103 0.01220583 1.365
-0.16526219 -0.19421323 1.376
0.045087401 -0.14247631 1.3715
0.046181798 -0.13580169 1.3708572
0.051644433 -0.13571677 1.3700001
-0.043426558 -0.051870614 1.376
-0.037317071 -0.052962065 1.3730001
-0.042220265 -0.049458027 1.376
-0.036780484 -0.04511394 1.3736924
-0.033191077 -0.036692645 1.3743638
-0.02702325 -0.031827383 1.3700001
-0.030157333 -0.027744746 1.376
-0.025006235 -0.02420087 1.3726668
0.0252217 -0.020417567 1.3700001
0.033628933 -0.020417567 1.3700001
-0.026062714 -0.013629246 1.3720001
0.025702115 -0.013931988 1.37
0.034563076 -0.014812746 1.3700004
-0.025265694 -0.0044842302 1.3721819
0.017434709 -0.0030038985 1.3715
0.023690455 -0.0065553244 1.3740002
0.03458187 -0.0061913966 1.3738573
-0.023602497 0.0048247981 1.3755715
-0.016164761 0.0057452843 1.3713334
-0.0084072333 0.0084072333 1.3700001
0.01444659 0.00360836 1.373
-0.02352272 0.0135708 1.3760002
-0.014452227 0.014449972 1.3734286
-0.005579425 0.015648343 1.3727274
0.0043014274 0.01634182 1.3734286
0.01085664 0.01085664 1.376
-0.01085664 0.020506987 1.376
-0.0036188802 0.020506987 1.376
0.0020104889 0.021311181 1.376
-0.17257036 -0.19641365 1.383
-0.16779979 -0.19298187 1.381
-0.046205591 -0.062620744 1.3870001
-0.053258024 -0.054230772 1.3870001
-0.046225075 -0.056121834 1.3846923
-0.03995233 -0.056901801 1.381
-0.05471715 -0.045337062 1.3870002
-0.046603851 -0.045169625 1.3838241
-0.053501215 -0.034451541 1.3870001
-0.045087419 -0.034435008 1.3864291
-0.036110781 -0.033442032 1.3822
-0.043773714 -0.025013555 1.3870002
-0.034244176 -0.024040127 1.3850003
-0.027845563 -0.021792181 1.381
-0.040733878 -0.015807176 1.3870001
-0.034013353 -0.014575461 1.3855002
-0.027845563 -0.016949473 1.381
-0.033767976 -0.004939198 1.3854002
0.024732396 -0.0025943071 1.3809999
-0.040936533 0.0077009317 1.3870001
-0.033986725 0.0048535555 1.3843751
-0.027845563 0.0048427065 1.381
0.016363859 0.0048466516 1.3825001
0.023102796 0.0012159366 1.3870001
-0.041341845 0.014591239 1.3870001
-0.033986725 0.014563296 1.3843751
-0.024818871 0.015436128 1.381
-0.018160149 0.018160149 1.381
0.0084747365 0.016949473 1.381
0.010896089 0.013317443 1.381
-0.04012591 0.021886859 1.3870001
-0.034038011 0.024313144 1.3866253
-0.024277966 0.024283886 1.3847501
-0.014802166 0.024509324 1.3838001
-0.0051314002 0.025097419 1.3833078
0.0044502523 0.024409421 1.3843334
-0.03283029 0.032135468 1.3870001
-0.024075545 0.033803042 1.3870003
-0.014510178 0.033803042 1.3870003
0.0012159366 0.030398417 1.3870001
-0.03283029 0.04012591 1.3870001
-0.023102796 0.040733878 1.3870001
-0.012159366 0.04012591 1.3870001
-0.063258782 -0.063258782 1.398
-0.054286212 -0.065807112 1.3937143
-0.04759248 -0.065897286 1.3920001
-0.073289685 -0.052209713 1.3980001
-0.06602516 -0.053798288 1.3946252
-0.056744885 -0.056338105 1.3920001
-0.073379628 -0.0440262 1.3950001
-0.065897278 -0.043931518 1.3920001
-0.058819424 -0.043199327 1.3920001
-0.073182382 -0.034407161 1.3945715
-0.065897278 -0.034168959 1.3920001
-0.057599105 -0.0339249 1.3920001
-0.072309218 -0.025737181 1.3980001
-0.065953501 -0.02442514 1.3931252
-0.055456769 -0.02427081 1.3920001
-0.046982322 -0.02257592 1.3920001
-0.06519033 -0.014763769 1.3960001
-0.054670502 -0.014839012 1.3923159
-0.044948455 -0.014237068 1.3920001
-0.061959878 -0.0058555491 1.398
-0.053799607 -0.004888841 1.3946252
-0.043931521 -0.0048812795 1.3920001
-0.037829921 -0.0036609599 1.3920001
0.03172832 -0.00122032 1.3920001
-0.060053419 0.0061279 1.3980001
-0.052628055 0.0048953067 1.396
-0.044588618 0.0042241844 1.3920001
0.017517554 0.007740967 1.3940001
0.024626568 0.0040193913 1.3945714
0.030639499 0.00122558 1.3980001
-0.052337002 0.014333978 1.3941818
-0.04637216 0.01464384 1.3920001
0.012830455 0.014045515 1.3935001
-0.051968802 0.023273246 1.397143
-0.044498473 0.024778729 1.3932859
0.0079504903 0.02629474 1.3950001
0.011030219 0.020834859 1.3980001
-0.043791953 0.034004852 1.3952001
-0.035118096 0.035660461 1.3920001
-0.02806736 0.037829921 1.3920001
-0.01586416 0.037829921 1.3920001
-0.0048816088 0.034179151 1.3923751
0.0034014666 0.034132726 1.3960001
-0.043070629 0.043682542 1.397
-0.034250315 0.04417558 1.3920001
-0.024813173 0.044948455 1.3920001
-0.014992503 0.044454515 1.3920001
-0.0053899218 0.042387705 1.3974
-0.034282051 0.051420443 1.3965001
-0.024554638 0.052336995 1.3941818
-0.015034036 0.0524575 1.3974545
-0.064249851 -0.070650212 1.404
-0.07169643 -0.063080549 1.4040002
-0.066055082 -0.066055082 1.4039999
-0.080825157 -0.053336397 1.4040002
-0.076136239 -0.055387795 1.4040002
-0.080496937 -0.045048743 1.404
-0.077542916 -0.044310238 1.404
-0.080004603 -0.0369252 1.404
-0.076722354 -0.035694361 1.4039999
0.05046444 -0.030771 1.404
0.072619557 -0.030771 1.404
-0.074465819 -0.0246168 1.404
0.05169528 -0.028309319 1.404
0.064413965 -0.025027081 1.4039999
0.073850393 -0.028309319 1.404
-0.073358059 -0.014523911 1.4040002
-0.070773296 -0.0067696203 1.404
-0.066289529 -0.0036925201 1.4040002
-0.064249851 0.0048413044 1.4039999
-0.057849478 0.00492336 1.404
0.024206519 0.0069747604 1.4039999
0.030771 0.0036925201 1.404
-0.063652016 0.014594245 1.404
-0.057357144 0.015508583 1.404
0.01353924 0.01353924 1.404
-0.064824246 0.024411658 1.4040002
-0.055036128 0.025144303 1.4040002
0.01107756 0.023385961 1.404
-0.063891783 0.03390405 1.4040002
-0.053131264 0.034053236 1.4040002
-0.048002761 0.03815604 1.404
0.0073850402 0.033232681 1.404
-0.052105561 0.04225884 1.4040002
-0.047387343 0.045541082 1.404
-0.00492336 0.046771921 1.404
0.00246168 0.040617719 1.404
-0.043899957 0.052105561 1.4040002
-0.033936016 0.056442801 1.4040002
-0.024206519 0.057028919 1.4039999
-0.01518036 0.057028919 1.4039999
-0.020924279 0.060311161 1.404
-0.0184626 0.060311161 1.404
-0.080631413 -0.081871897 1.4150001
-0.076165676 -0.0816238 1.4150001
-0.082253732 -0.073987752 1.4144444
-0.074281894 -0.074285179 1.4121877
-0.066809669 -0.074853085 1.4112501
-0.091382265 -0.061610673 1.4150001
-0.083930321 -0.064121149 1.4120001
-0.076329172 -0.065204278 1.41
-0.091795765 -0.054581262 1.4150001
-0.085816458 -0.05490344 1.4104999
-0.093745098 -0.044302974 1.4150002
-0.085515648 -0.044162478 1.41
-0.093036257 -0.03473353 1.4150001
-0.08469446 -0.034299277 1.4117857
-0.077874303 -0.032138601 1.4100001
0.046724871 -0.031839069 1.4150001
0.076226167 -0.031726565 1.4100002
0.084206022 -0.033641353 1.4125
0.093449749 -0.031839073 1.4150001
-0.092540048 -0.024561569 1.4150001
-0.084226571 -0.024770491 1.4128126
-0.07737986 -0.023980338 1.4100001
0.047494877 -0.023950534 1.4133334
0.054051284 -0.023261154 1.41
0.064806961 -0.022073213 1.41
0.074451253 -0.02386624 1.41
0.084203832 -0.024770219 1.4125
0.094236732 -0.024799805 1.4143752
0.10047915 -0.024809666 1.4150001
-0.094276734 -0.014885801 1.4150003
-0.084208213 -0.014859499 1.4125001
-0.077256247 -0.014215151 1.4100001
0.046394076 -0.014389606 1.4150001
0.054184575 -0.015403345 1.4139287
0.06460125 -0.015394581 1.4132144
0.074329279 -0.01486224 1.4131253
0.084127128 -0.014844159 1.41125
0.093016528 -0.016996374 1.41
-0.093745105 -0.0053163571 1.4150002
-0.084189318 -0.0049517979 1.4121876
-0.07519608 -0.0043263496 1.41
0.0358469 -0.0012361 1.4100001
0.045897886 -0.0086833835 1.4150001
0.052100301 -0.0086833835 1.4150001
0.076909967 -0.0086833835 1.4150001
0.081725061 -0.0086680418 1.4125001
-0.09220925 0.0050997646 1.4150001
-0.084226571 0.0049534407 1.4128127
-0.074166 0.0049444018 1.41
0.025958098 0.0086527001 1.4100002
0.033405386 0.0049498789 1.41125
-0.092540056 0.014885801 1.4150001
-0.084317245 0.014880318 1.4143752
-0.074166 0.014833201 1.41
-0.066749394 0.0160693 1.4100001
0.016633289 0.015808247 1.4111111
0.023997553 0.013634557 1.4136363
0.031012082 0.01116435 1.4150001
-0.092209257 0.022742195 1.4150001
-0.083998434 0.024278032 1.4150002
-0.074166 0.024722002 1.41
-0.061804999 0.025340049 1.4100001
-0.058096699 0.0271942 1.4100001
0.014249668 0.023845881 1.413125
-0.082886837 0.035071846 1.4150001
-0.074217774 0.034634639 1.4109375
-0.06452442 0.035846896 1.4100001
-0.057478651 0.0358469 1.4100001
0.0074275583 0.035914842 1.4125001
0.01116435 0.032252565 1.4150001
-0.082616188 0.044657398 1.4150001
-0.074334212 0.044598766 1.4131252
-0.064277202 0.044499602 1.41
-0.055624504 0.045735702 1.41
-0.0024722 0.048207901 1.4100001
0.0012404834 0.043416917 1.4150001
-0.081871897 0.053340781 1.4150001
-0.074677102 0.054333165 1.4150003
-0.064448148 0.054536335 1.4137501
-0.054439902 0.054436617 1.41125
-0.045029361 0.057037186 1.41
-0.0383191 0.058096699 1.4100001
-0.024721999 0.058096699 1.4100001
-0.012380725 0.058199707 1.4125001
-0.0078388611 0.051566992 1.4116668
-0.07343661 0.063264653 1.4150001
-0.064617902 0.064166814 1.4150001
-0.054558255 0.064477183 1.4143752
-0.044853192 0.064184859 1.4133334
-0.035167921 0.062660187 1.4125
-0.026645187 0.06135023 1.4137501
-0.016107289 0.06153908 1.4133334
-0.084267832 -0.084577948 1.4240001
-0.078481831 -0.08595629 1.4210001
-0.091948748 -0.073183693 1.427
-0.087486692 -0.075371668 1.4227144
-0.10133127 -0.062550165 1.427
-0.09520226 -0.065016717 1.4237275
-0.088447779 -0.068515882 1.4210001
-0.10322993 -0.054047182 1.4263333
-0.097219922 -0.054843612 1.4217502
-0.10423779 -0.044544932 1.4227144
-0.098413721 -0.047338247 1.4210001
0.08595629 -0.041109528 1.4210001
-0.10395277 -0.035226155 1.4233079
-0.098413721 -0.034880813 1.4210001
0.087202035 -0.038618043 1.4210001
0.094946414 -0.036457743 1.4230001
0.10257263 -0.033195682 1.4234002
-0.1034112 -0.025312955 1.4242729
-0.097583227 -0.025330113 1.4210001
0.043601017 -0.021177636 1.4210001
0.1033967 -0.024914866 1.4210001
-0.10358211 -0.014975657 1.4235001
0.043601017 -0.017440407 1.4210001
0.057304192 -0.01121169 1.4210001
0.063532904 -0.01121169 1.4210001
-0.10436403 -0.0053509236 1.4244286
-0.098413721 -0.0024914867 1.4210001
0.045652591 -0.0037388082 1.4228002
0.055364672 -0.0046979217 1.4228463
0.064847037 -0.0049842885 1.4225
0.074478842 -0.0044505862 1.4227145
0.081803821 -0.0053982213 1.4210001
-0.1044264 0.0049980017 1.4252859
-0.097345941 0.0048050103 1.4210002
0.037654061 0.0052373819 1.4222001
0.065837957 0.002084129 1.4260001
0.073183693 0.001876505 1.427
-0.10431235 0.014709996 1.4256155
-0.097583227 0.014948919 1.4210001
0.026658908 0.017689556 1.4210001
0.033083208 0.01498311 1.4240001
-0.10240356 0.024483923 1.427
-0.095963791 0.026172709 1.4216002
-0.087202035 0.028652096 1.4210001
0.017038308 0.027011268 1.4220001
0.024692127 0.024118789 1.4246923
0.031275082 0.021267056 1.427
-0.094930291 0.034974836 1.42475
-0.087949477 0.034133367 1.4210001
0.0087202033 0.036126558 1.4210001
0.015012041 0.031275082 1.427
-0.092948586 0.044596329 1.4263334
-0.087617278 0.044846762 1.4210001
0.0037372299 0.043601017 1.4210001
-0.092093252 0.054174203 1.426
-0.086390063 0.055679552 1.4240001
-0.071007371 0.058549937 1.4210001
-0.0052384338 0.053657431 1.4234
-0.08261992 0.064536914 1.4225001
-0.076405592 0.066854894 1.4210001
-0.064529508 0.065526105 1.4210001
-0.041109528 0.068515882 1.4210001
-0.034124833 0.067830034 1.4240001
-0.02498259 0.065577075 1.4247501
-0.013761036 0.062550165 1.427
-0.095875777 -0.092091203 1.439
-0.10434601 -0.084161624 1.439
-0.095705822 -0.085628085 1.4363751
-0.088692181 -0.086179659 1.4330001
-0.11371733 -0.074429877 1.439
-0.10591469 -0.07565327 1.4382499
-0.096557528 -0.076031558 1.4335002
-0.11551949 -0.065238781 1.4389999
-0.10609721 -0.065705292 1.4334289
-0.097988538 -0.069094487 1.4330001
-0.12344907 -0.054966379 1.439
-0.11594246 -0.05545114 1.4375001
-0.10785918 -0.056531847 1.433
0.097137295 -0.056768551 1.439
0.10638104 -0.05470382 1.4378002
0.11180744 -0.05276306 1.4330001
-0.12362928 -0.045414839 1.439
-0.11570115 -0.04527282 1.4345001
-0.10929491 -0.047738008 1.4330001
0.095681153 -0.041543476 1.436
0.10750982 -0.044713993 1.439
0.11278667 -0.04725584 1.4375001
-0.12466145 -0.034978598 1.439
-0.11570115 -0.035212189 1.4345002
-0.10929491 -0.033919111 1.4330001
0.099244803 -0.038944162 1.4330001
0.10503852 -0.038539492 1.4366
-0.12433013 -0.026211651 1.439
-0.11582214 -0.025175234 1.436
-0.1087924 -0.024371509 1.4330001
-0.12236776 -0.015558787 1.439
-0.11588328 -0.015115925 1.4367501
-0.10929491 -0.01507516 1.4330001
-0.12337699 -0.0032799609 1.439
-0.11582343 -0.0050355736 1.436
-0.10929491 -0.0025125267 1.4330001
0.041456688 -0.0012562633 1.4330001
0.054019324 -0.0012562633 1.4330001
-0.12404978 0.0049059242 1.439
-0.11573172 0.0050306423 1.4348751
-0.10929491 0.0050250534 1.4330001
0.038944162 0.008793843 1.4330001
0.044608109 0.0043566963 1.4348462
0.0557709 0.0029377101 1.4350001
0.062944666 0.0050382037 1.4360001
-0.12320878 0.014297265 1.439
-0.11576229 0.015099488 1.4352503
-0.10845741 0.016331425 1.4330001
0.037959039 0.015654135 1.4364287
0.042217635 0.013234159 1.4375001
-0.12236776 0.021445896 1.439
-0.11571352 0.024959575 1.4377999
-0.10761989 0.025544021 1.4330001
0.02638153 0.028894057 1.4330001
0.033174526 0.024357891 1.4369999
-0.1135371 0.035322651 1.439
-0.10561192 0.035203975 1.4341253
0.008793843 0.038944162 1.4330001
0.015466553 0.036085751 1.4373637
0.024588527 0.033098552 1.4382501
-0.11227558 0.041630268 1.439
-0.1052432 0.044974752 1.4364284
-0.098168001 0.045763876 1.433
0.0056676501 0.046263669 1.4360001
0.013876757 0.042261031 1.439
-0.097317889 0.055826485 1.4342
-0.0062997267 0.056655459 1.4360001
0.0012615233 0.051722456 1.439
-0.10324284 -0.094692051 1.4449999
-0.096275531 -0.095008746 1.4450001
-0.11337711 -0.084557787 1.4449999
-0.1064098 -0.087408043 1.4450001
-0.12118894 -0.07305117 1.4450001
-0.11679742 -0.0777805 1.4450001
-0.12379927 -0.0659879 1.4449998
-0.1274384 -0.056498535 1.4450001
0.095642142 -0.053838294 1.4450001
0.10197607 -0.052571509 1.4450001
-0.12794511 -0.045604199 1.4450001
0.089941613 -0.046870984 1.4450001
0.09532544 -0.04655429 1.4449999
0.10311617 -0.046617627 1.4449999
-0.1313232 -0.034625411 1.4450001
-0.12794511 -0.039270282 1.4450001
-0.1313232 -0.026180191 1.4450001
-0.12710059 -0.022379838 1.4450001
-0.1257735 -0.015020431 1.4449999
-0.13047868 -0.0025335667 1.4450001
-0.12649736 -0.0063339169 1.4449999
-0.13047868 0.0025335667 1.4450001
-0.12794511 0.0054893945 1.4450001
0.048137769 0.0076007 1.4450001
0.054471683 0.006333916 1.4450001
-0.12667833 0.0152014 1.4450001
0.044337418 0.015201401 1.4450001
-0.12287798 0.026095737 1.4450001
0.036103323 0.025335666 1.4450001
-0.1216112 0.032936364 1.4450001
-0.11781085 0.034203153 1.4450001
0.01900175 0.039270282 1.4450001
0.024913406 0.037581235 1.4450001
0.031669583 0.031669583 1.4450001
0.0088674836 0.048137769 1.4450001
0.013934617 0.046147108 1.4449999
0.021535316 0.041803848 1.4450001
-0.13165253 -0.10097622 1.4580001
