# .PCD v0.7 - Point Cloud Data file format
VERSION 0.7
FIELDS x y z
SIZE 4 4 4
TYPE F F F
COUNT 1 1 1
WIDTH 1409
HEIGHT 1
VIEWPOINT 0 0 0 1 0 0 0
POINTS 1409
DATA ascii
-0.21202138 0.034057621 0.94749999
-0.20645231 0.03499952 0.94231832
-0.063463621 0.034390043 0.94477767
-0.058093775 0.032365367 0.94666672
-0.21026324 0.040722921 0.94800007
-0.20401509 0.044243652 0.94447833
-0.19727944 0.04602332 0.9402501
-0.063305326 0.045071889 0.94520009
-0.23104024 0.05900668 0.94800007
-0.22403541 0.058769234 0.94800001
-0.20252889 0.053783581 0.94645458
-0.19690162 0.054860298 0.94200009
-0.06511654 0.056090925 0.94468176
-0.23104024 0.063162073 0.94800001
-0.22464846 0.064561047 0.94748479
-0.21546315 0.065860204 0.94570363
-0.20552047 0.065626219 0.94760001
-0.19428384 0.064261191 0.9444347
-0.18709275 0.067044131 0.9418
-0.071051337 0.06681101 0.94085723
-0.065135948 0.064468808 0.94581246
-0.22356626 0.07428322 0.94600004
-0.21429627 0.074686408 0.9410001
-0.20606169 0.075429112 0.94425011
-0.19142543 0.072580986 0.94800001
-0.18484147 0.074341305 0.94517839
-0.1774798 0.077154405 0.94081825
-0.083576262 0.078863554 0.94128573
-0.074675381 0.074510865 0.94468963
-0.067823023 0.071699642 0.94733334
-0.22189836 0.081999891 0.94800001
-0.21413341 0.084635869 0.94253594
-0.2038126 0.084394209 0.94329441
-0.19530413 0.086875655 0.94723791
-0.18464369 0.08519838 0.94719994
-0.17647941 0.085448623 0.94250017
-0.12307661 0.08774443 0.94042861
-0.11555344 0.087491758 0.94150001
-0.10516868 0.08775489 0.94190919
-0.094293557 0.085475512 0.94385195
-0.084787361 0.082716674 0.94587505
-0.077556953 0.081211597 0.94720012
-0.21272531 0.093589716 0.9436667
-0.20455503 0.094363093 0.94176507
-0.19494601 0.094449416 0.94205302
-0.18541114 0.094589964 0.94669235
-0.17486537 0.094742857 0.94500005
-0.16586934 0.096243031 0.94131255
-0.15673748 0.099052809 0.94000006
-0.12404863 0.095021091 0.94314831
-0.11483791 0.091832221 0.94581252
-0.10475793 0.091934241 0.94563144
-0.097527072 0.091214359 0.94760007
-0.20326357 0.10258051 0.94471419
-0.19483986 0.10505918 0.94246185
-0.18584901 0.104881 0.94546175
-0.1703714 0.10056068 0.94800007
-0.16347779 0.1026628 0.94657141
-0.15519086 0.1046311 0.94315392
-0.14571533 0.10677206 0.94120014
-0.1340621 0.10619914 0.94221753
-0.1271438 0.10442556 0.94450009
-0.20088729 0.11160405 0.94300002
-0.194782 0.11382767 0.94509518
-0.18618384 0.11442079 0.94659972
-0.15042548 0.11053364 0.94800007
-0.14304991 0.11081944 0.94760001
-0.13392581 0.11144233 0.94672734
-0.12881739 0.11136472 0.94800007
-0.1340514 -0.1716677 0.95366675
-0.1426796 -0.16877341 0.95400012
-0.13619743 -0.16878155 0.95310009
-0.16171366 -0.15541218 0.95825005
-0.053962298 -0.10414183 0.95724994
-0.048777033 -0.10275024 0.95600003
-0.09266337 -0.092664249 0.958
-0.052267406 -0.095448762 0.95569241
-0.045258474 -0.095172152 0.9534573
-0.035348613 -0.094394982 0.95525008
-0.02886907 -0.092465103 0.95450002
-0.21102156 -0.081550166 0.95900005
-0.15048948 -0.081550166 0.95900005
-0.14880803 -0.081550166 0.95900005
-0.12156858 -0.082222745 0.95899999
-0.11601982 -0.082390897 0.95900005
-0.10264289 -0.082474552 0.95857143
-0.095143139 -0.085750237 0.95526099
-0.089550912 -0.087878235 0.95466667
-0.051016741 -0.08948838 0.95400006
-0.046829026 -0.08853256 0.95142871
-0.033986792 -0.087725416 0.95180011
-0.025554439 -0.084735252 0.95306921
-0.018582178 -0.082531154 0.95480001
-0.21228266 -0.074404024 0.95899993
-0.20305958 -0.074177392 0.95829391
-0.19500476 -0.073977597 0.956909
-0.18520939 -0.073752768 0.95595819
-0.17556445 -0.072429977 0.95650011
-0.16418186 -0.072375439 0.95738471
-0.15463571 -0.075130224 0.95729607
-0.14579917 -0.074489169 0.9554286
-0.13581434 -0.073550135 0.95631808
-0.12525836 -0.075026132 0.95503032
-0.1154203 -0.075623751 0.95385718
-0.10607841 -0.076784849 0.95481837
-0.098760009 -0.078729928 0.95200008
-0.022204038 -0.078635424 0.95220006
-0.016115075 -0.077121809 0.95321447
-0.0091708098 -0.072532773 0.95100003
-0.21260412 -0.065823697 0.95899987
-0.20469184 -0.065722361 0.9573102
-0.19518998 -0.065013923 0.95333362
-0.18597001 -0.066464357 0.95162517
-0.17529315 -0.067615107 0.95216686
-0.16530828 -0.066086665 0.95251745
-0.15563966 -0.066513248 0.95292324
-0.14583404 -0.067200184 0.95220023
-0.13433883 -0.067477211 0.95180017
-0.12573144 -0.067324661 0.95178968
-0.11866472 -0.068642117 0.95100003
-0.0054786657 -0.06514848 0.95100015
-0.21186228 -0.055487748 0.95899993
-0.20548086 -0.055353198 0.95666665
-0.19687767 -0.05558439 0.95225024
-0.18925217 -0.05919341 0.95100003
-0.00083371002 -0.055858567 0.95100003
0.0025081434 -0.053467549 0.95300007
-0.2121283 -0.045858439 0.95857131
-0.20519511 -0.045227181 0.95533347
-0.19819744 -0.046144884 0.95125008
-0.0020951238 -0.046047684 0.95512509
0.0041956347 -0.047192261 0.95684201
-0.21102157 -0.035814814 0.95899999
-0.20475109 -0.035441201 0.95500016
-0.19810231 -0.034438636 0.95100015
-0.052889831 -0.032367408 0.95160007
-0.047915973 -0.031553164 0.95220006
-0.23298685 -0.02231857 0.95866668
-0.22555803 -0.022472914 0.95824999
-0.21478063 -0.022846414 0.9587273
-0.20443435 -0.025466491 0.9567728
-0.19692117 -0.024692522 0.95212525
-0.061544627 -0.021444144 0.95300007
-0.055196632 -0.025385244 0.95551729
-0.045295056 -0.024988744 0.95512122
-0.038411587 -0.02254392 0.95250005
-0.013061456 -0.021398554 0.95100003
-0.23458026 -0.015260313 0.95632005
-0.22524109 -0.015117383 0.95340556
-0.21494441 -0.015170172 0.95383793
-0.20485842 -0.01452738 0.95696855
-0.19548544 -0.01503652 0.95292324
-0.062657371 -0.015992904 0.95300013
-0.058757264 -0.017627575 0.95749998
-0.04324989 -0.01603511 0.95742112
-0.036661781 -0.01427926 0.95317417
-0.021585539 -0.0153855 0.95228577
-0.019205574 -0.016697869 0.95250005
-0.23464118 -0.0053353938 0.95681804
-0.22643326 -0.0057685752 0.95162517
-0.21884885 -0.0079202447 0.95100003
-0.20437098 -0.0072089965 0.95376205
-0.1949347 -0.0055003278 0.95234507
-0.18925217 -0.0033348398 0.95100003
-0.059691355 -0.0092479568 0.95900005
-0.041755926 -0.0086874748 0.95900005
-0.035165515 -0.0050191823 0.95497227
-0.025437681 -0.0046806699 0.95456678
-0.23226139 0.0042004236 0.95792854
-0.22658803 0.0055100839 0.95233351
-0.057525989 0.0091708098 0.95100003
-0.033321697 0.0030816004 0.95819992
-0.02696763 0.0017739838 0.95800006
-0.23119892 0.011770126 0.95900005
-0.2262627 0.015197267 0.95538104
-0.062089041 0.015474919 0.95215404
-0.058568861 0.015062959 0.95441681
-0.22331397 0.024943594 0.95569235
-0.21882521 0.027249871 0.95150012
-0.061815187 0.023599977 0.95287508
-0.058045905 0.025592413 0.95406693
-0.22144015 0.032754019 0.958
-0.21683811 0.035507485 0.95416683
-0.05919341 0.03584953 0.95100003
-0.24128759 0.048761953 0.95900005
-0.23578466 0.048838388 0.95899999
-0.22951747 0.049602676 0.95900005
-0.2136353 0.045487702 0.95688885
-0.20817436 0.047143407 0.95175004
-0.061823189 0.044905934 0.95300001
-0.24214815 0.055382412 0.95830762
-0.23501912 0.054732073 0.95469993
-0.22543195 0.054499559 0.95442855
-0.21495482 0.055631168 0.95594436
-0.20713879 0.056232776 0.95328587
-0.062361509 0.053023957 0.95100009
-0.059349015 0.058515307 0.95350003
-0.24128759 0.062213525 0.95900005
-0.23559865 0.065544553 0.95365012
-0.21338433 0.062429514 0.95181823
-0.20549779 0.065157108 0.95287526
-0.19858971 0.067863986 0.95100003
-0.061325684 0.066751376 0.95175004
-0.058604583 0.065304361 0.9550001
-0.23334166 0.072930075 0.95400012
-0.22895551 0.07594914 0.95200008
-0.20231362 0.073505424 0.95100015
-0.19605836 0.075711891 0.95193124
-0.18925217 0.078368738 0.95100003
-0.071338095 0.078014344 0.95175004
-0.065248139 0.075498112 0.95472008
-0.058945898 0.071796656 0.95600003
-0.23119892 0.081550166 0.95900005
-0.22425841 0.085442781 0.95391673
-0.21926573 0.089206971 0.95100003
-0.19477549 0.082328871 0.95100015
-0.18897425 0.083648913 0.95100003
-0.090874389 0.089206971 0.95100003
-0.084931031 0.087759487 0.95450014
-0.075214289 0.084812194 0.95522732
-0.068347566 0.082119651 0.95780003
-0.2207644 0.09233623 0.95750004
-0.2175983 0.094209231 0.95100003
-0.18174878 0.097544074 0.95100003
-0.17924765 0.099211492 0.95100003
-0.12181699 0.098456025 0.95175004
-0.11550061 0.097452939 0.95335007
-0.10543285 0.097905114 0.95450008
-0.095660247 0.094867647 0.95519066
-0.088205591 0.091987535 0.95825005
-0.21203761 0.10140929 0.95600003
-0.20712881 0.10532115 0.9550001
-0.18091507 0.10504746 0.95100003
-0.17536947 0.10527226 0.9519431
-0.16654071 0.1069729 0.95210534
-0.15923861 0.10921601 0.95100003
-0.12270483 0.10555049 0.95480013
-0.11563916 0.10203991 0.95666671
-0.10504867 0.10210811 0.95862508
-0.098364629 0.10004608 0.95900005
-0.19279127 0.1193459 0.95200008
-0.18188775 0.11574676 0.95100015
-0.17478016 0.11541053 0.95395249
-0.164627 0.11499533 0.95584613
-0.15520318 0.11542156 0.95361775
-0.14535899 0.11552856 0.95292866
-0.13546614 0.11679764 0.95308709
-0.12591009 0.11387805 0.95480955
-0.19218148 0.12384657 0.9572857
-0.18492804 0.12481951 0.95420712
-0.17601119 0.12442183 0.95562059
-0.16629508 0.12055971 0.95899999
-0.1527483 0.12216489 0.95840007
-0.14544512 0.1214845 0.95900005
-0.13522942 0.12229489 0.95809996
-0.18308832 0.13185592 0.958
-0.17879397 0.13262783 0.95750004
-0.17039508 -0.15683128 0.96700007
-0.16612075 -0.15438166 0.96417654
-0.098054878 -0.11161866 0.96700007
-0.13196434 -0.10144582 0.96700007
-0.1255421 -0.10165132 0.96700007
-0.11529944 -0.10289987 0.96668434
-0.10498549 -0.10275459 0.96700019
-0.097913586 -0.10441289 0.96700007
-0.057348028 -0.10288911 0.96200007
-0.035863053 -0.10155143 0.96414286
-0.21405351 -0.091131687 0.96700007
-0.2033634 -0.091863677 0.96618193
-0.19465336 -0.093642272 0.96700037
-0.18584996 -0.094098769 0.96700037
-0.17406861 -0.090990402 0.96700007
-0.16575016 -0.091238104 0.96587509
-0.14241976 -0.090707824 0.96700007
-0.13486461 -0.094218835 0.96590036
-0.12506898 -0.094648212 0.96394473
-0.11502332 -0.094729282 0.96477818
-0.10497617 -0.094818801 0.96566701
-0.096745022 -0.095620163 0.96333337
-0.034577485 -0.098672338 0.96200007
-0.22168311 -0.081806585 0.96700007
-0.21520203 -0.084689595 0.96500027
-0.20514271 -0.08450868 0.96365726
-0.19503972 -0.08441212 0.96505153
-0.1845156 -0.08464396 0.96547252
-0.17514385 -0.084613822 0.96513361
-0.16529207 -0.084673181 0.96378976
-0.15603164 -0.083395667 0.96350002
-0.14443721 -0.084200241 0.96433347
-0.13523866 -0.084525205 0.96413928
-0.12557103 -0.085530981 0.96230769
-0.11414582 -0.086147964 0.96254539
-0.10535645 -0.08617308 0.96281821
-0.098672338 -0.088552102 0.96200007
-0.2217638 -0.074485116 0.96550006
-0.21665378 -0.075792968 0.96214288
-0.20830825 -0.075836927 0.96199995
-0.19565797 -0.078431852 0.96200007
-0.18553774 -0.078431852 0.96200007
-0.17499582 -0.076955989 0.96199995
-0.16554531 -0.076844372 0.96200001
-0.15517703 -0.076745152 0.96200007
-0.14252673 -0.07843186 0.96200007
-0.13542922 -0.078050949 0.96250004
-0.22170617 -0.06431029 0.96525002
-0.21739054 -0.065457195 0.96199995
-0.2095733 -0.065359883 0.96200007
-0.22196755 -0.054623984 0.96672732
-0.2167418 -0.055661321 0.96200001
-0.22125927 -0.04832099 0.96700007
-0.21730675 -0.045190357 0.96356249
-0.0016867067 -0.043011021 0.96200007
0.005306941 -0.043289397 0.96481824
0.013437046 -0.042972449 0.96657145
-0.23482305 -0.031366255 0.96700007
-0.22973664 -0.031366255 0.96700007
-0.21592544 -0.035436019 0.96450007
-0.20999497 -0.032890778 0.96200007
-0.24406487 -0.024397518 0.96534795
-0.23568398 -0.02676226 0.96387511
-0.22440247 -0.027404558 0.96385717
-0.21547903 -0.026248107 0.9628095
-0.2095733 -0.024457246 0.96200001
-0.05313126 -0.021505509 0.96200007
-0.049757846 -0.021083834 0.96200007
-0.24420296 -0.015129119 0.96431047
-0.20797093 -0.016698396 0.96200007
-0.060002573 -0.010986387 0.96400005
-0.054771014 -0.01470237 0.964167
-0.047798827 -0.01434873 0.96287495
-0.24262793 -0.005538634 0.96394444
-0.23866899 -0.0016867067 0.96200007
-0.051146779 -0.0081947874 0.96700007
-0.04500911 -0.0048112478 0.96442324
-0.24192028 0.0028240355 0.96600008
-0.23728907 0.0058045746 0.96281248
-0.04280325 0.0039758179 0.96607691
-0.036873471 0.0064750179 0.96319056
-0.026026379 0.0057334979 0.96466666
-0.23504114 0.014853862 0.96423823
-0.03533658 0.012610282 0.9664706
-0.029670782 0.011868313 0.96700007
-0.23154043 0.023821037 0.96542865
-0.22823007 0.0260178 0.96350002
-0.2531175 0.036789414 0.96600002
-0.24578884 0.038072865 0.96512502
-0.23764884 0.039843623 0.96700007
-0.22523537 0.036088817 0.96404999
-0.060189303 0.038995884 0.96700007
-0.25285029 0.043956 0.96561533
-0.24494594 0.044959202 0.96280003
-0.23448206 0.04423064 0.96319228
-0.22464408 0.045602009 0.96333355
-0.21794657 0.046625387 0.96200001
-0.06062822 0.045960415 0.96500009
-0.056823291 0.046034373 0.96568751
-0.25008228 0.054255143 0.96700007
-0.24651606 0.055380963 0.963
-0.22180192 0.051444549 0.96200007
-0.21842851 0.051444553 0.96200007
-0.060039915 0.053272754 0.96460009
-0.056652602 0.054603603 0.96452641
-0.25008231 0.061037041 0.96700007
-0.24480034 0.065017663 0.96464705
-0.05511269 0.063681558 0.96531248
-0.24152911 0.072755009 0.96500003
-0.2369301 0.076443136 0.96350002
-0.061302848 0.077854313 0.96320009
-0.057268184 0.074600421 0.96615386
-0.23143211 0.084773667 0.96700007
-0.22870713 0.086926758 0.96266675
-0.07172142 0.088176459 0.9625001
-0.064297833 0.085097462 0.96426696
-0.05849383 0.081382722 0.96700007
-0.22550036 0.093159489 0.96458334
-0.092666306 0.097743198 0.96471441
-0.084583364 0.093571946 0.96481258
-0.074770294 0.091562778 0.96500003
-0.065884896 0.091308445 0.96662503
-0.21412425 0.10477551 0.96540004
-0.20874135 0.10732855 0.96400005
-0.12059952 0.10879258 0.96200007
-0.11459336 0.10647316 0.96352386
-0.10456996 0.10680284 0.96477294
-0.098018058 0.10403568 0.96477783
-0.20769548 0.1110535 0.96700007
-0.16782731 0.11891282 0.96200007
-0.1226625 0.11651419 0.96307141
-0.11864532 0.11332569 0.9657144
-0.19507946 0.12684305 0.96330005
-0.17298913 0.12814537 0.9625715
-0.16584158 0.12528946 0.96380013
-0.15504602 0.12575044 0.96411109
-0.14517416 0.12665853 0.96400011
-0.13496435 0.12659836 0.96361911
-0.12580489 0.1236946 0.96475023
-0.1922527 0.13277583 0.96466666
-0.18553923 0.13429937 0.96346664
-0.1746545 0.13452685 0.96418542
-0.16758984 0.13394821 0.96549994
-0.18046324 -0.15309231 0.97560006
-0.17494912 -0.15347822 0.97390485
-0.16804034 -0.15098041 0.97300005
-0.17414118 -0.14911081 0.97612506
-0.1686448 -0.148954 0.97650003
-0.163188 -0.12146217 0.97799999
-0.15518577 -0.12131926 0.9780001
-0.14746936 -0.12174796 0.97800004
-0.13441813 -0.12165269 0.9780001
-0.12550724 -0.12194582 0.97799999
-0.11517917 -0.12203594 0.97735721
-0.10616554 -0.1227514 0.97600013
-0.18227899 -0.11128793 0.97800004
-0.17490552 -0.11128793 0.97800004
-0.16318798 -0.11460312 0.97799999
-0.15509643 -0.11463222 0.97645473
-0.14532478 -0.11452825 0.97594291
-0.13517459 -0.11464478 0.97588921
-0.12481464 -0.11455949 0.97516656
-0.11436939 -0.11472511 0.97444117
-0.10494148 -0.11518088 0.9731999
-0.099800609 -0.11600754 0.97300005
-0.23063523 -0.10031346 0.97800004
-0.22404595 -0.10233514 0.9764545
-0.21455102 -0.1038239 0.975375
-0.20490393 -0.10420498 0.97572744
-0.1954837 -0.10430736 0.97449988
-0.18475747 -0.10495307 0.97540015
-0.1743076 -0.10443977 0.97534311
-0.16515854 -0.10413636 0.97650015
-0.15567146 -0.10435179 0.97566688
-0.14540727 -0.10473035 0.97421885
-0.1351708 -0.10532386 0.97167987
-0.12519819 -0.10624926 0.97150004
-0.11558446 -0.10734244 0.97000021
-0.10533916 -0.10799656 0.97000021
-0.098642528 -0.10799657 0.97000003
-0.03582586 -0.10491859 0.97300005
-0.23309045 -0.09415663 0.97718185
-0.22469573 -0.094845124 0.97238696
-0.21468252 -0.095568106 0.97099972
-0.2055207 -0.097309247 0.97194993
-0.19612484 -0.098582238 0.9703334
-0.18282735 -0.097543806 0.97090018
-0.17586014 -0.095664568 0.9716152
-0.16487597 -0.095657714 0.97263628
-0.15538965 -0.094771259 0.97390002
-0.14510271 -0.095649719 0.97144812
-0.13804285 -0.098925985 0.97000003
-0.23411618 -0.084771387 0.97495466
-0.22571 -0.085817531 0.97128552
-0.2117413 -0.089288503 0.97000003
-0.15429567 -0.088150151 0.9715001
-0.14711343 -0.089288503 0.97000003
-0.24092378 -0.07630682 0.97800004
-0.23498 -0.075191475 0.97466677
-0.22732274 -0.074922413 0.97116673
-0.23416078 -0.065811947 0.97624999
-0.227466 -0.064745538 0.9717778
-0.23291038 -0.054803286 0.97675008
-0.22735155 -0.054315083 0.97205263
-0.25433046 -0.041104797 0.97679996
-0.24587739 -0.040694647 0.9772501
-0.23358163 -0.043947302 0.97707683
-0.22622535 -0.0443413 0.97271425
0.0048950873 -0.040889706 0.97175002
0.01332241 -0.042234879 0.97000003
-0.26202637 -0.032389499 0.9774
-0.25510192 -0.034983348 0.9731999
-0.24510461 -0.035207696 0.97177422
-0.23534445 -0.035331603 0.97295839
-0.2250084 -0.03514877 0.97131014
0.0070369351 -0.037697881 0.97569221
0.015330863 -0.035170969 0.97461778
-0.26178572 -0.025680635 0.97650003
-0.25459468 -0.025542617 0.97126651
-0.2474567 -0.028790986 0.97000015
-0.2615009 -0.018862359 0.97800004
-0.25483239 -0.015770033 0.97337043
-0.24915743 -0.017857701 0.97000003
-0.2531375 -0.0059854412 0.97550011
-0.24821477 -0.0047166268 0.97054559
-0.055181377 -0.0044852602 0.97233319
-0.048470899 -0.00085036666 0.97000003
-0.25156641 0.0036409062 0.97687501
-0.24603333 0.0058708903 0.97183335
-0.05332825 0.004352394 0.97587514
-0.046756551 0.0059665926 0.97176486
-0.022423379 0.0070934021 0.97133338
-0.24463053 0.014784063 0.97465003
-0.23871262 0.018298006 0.97075003
-0.050585419 0.012003319 0.97800004
-0.044205952 0.014941416 0.97488004
-0.035202257 0.017699804 0.97155571
-0.025639977 0.014378596 0.97375989
-0.26258126 0.027097033 0.97616673
-0.25531426 0.027501341 0.97435015
-0.24447607 0.026811568 0.97692311
-0.23618247 0.026231723 0.97258824
-0.041616824 0.023332484 0.97766674
-0.03528145 0.02383901 0.97657895
-0.26453161 0.035050578 0.97524995
-0.25675422 0.033914451 0.97018766
-0.24414055 0.033273689 0.97337031
-0.23453456 0.035698637 0.97106236
-0.057186138 0.037556689 0.97366685
-0.26289532 0.044644721 0.97553331
-0.25689337 0.046235982 0.97066677
-0.056123484 0.041687176 0.97409093
-0.2615009 0.050585419 0.97800004
-0.25542969 0.053882211 0.97249997
-0.25251272 0.063339464 0.97200012
-0.24802361 0.067745872 0.97000003
-0.052039288 0.06706132 0.97320002
-0.048870664 0.06773302 0.97799999
-0.24351183 0.074861526 0.97037506
-0.053229392 0.075532869 0.97416675
-0.04887066 0.074592061 0.97800004
-0.24079141 0.081972718 0.97400004
-0.23608549 0.08518406 0.97360003
-0.060376033 0.087587766 0.97000003
-0.055919733 0.085052483 0.97459102
-0.23452657 0.092890404 0.97536367
-0.22578913 0.098361112 0.97188896
-0.09127064 0.099800609 0.97300005
-0.084608987 0.098241955 0.97184634
-0.074776009 0.096444942 0.97252935
-0.064555898 0.095723666 0.97447634
-0.057404134 0.092629179 0.97733337
-0.23063523 0.10117084 0.97800004
-0.22394481 0.10437248 0.97425014
-0.21646942 0.10641682 0.97109103
-0.11309876 0.1096973 0.97000003
-0.094433986 0.10458819 0.97487509
-0.08447805 0.10296204 0.97600007
-0.075776055 0.10167892 0.97668743
-0.068108454 0.10066522 0.9772501
-0.2219501 0.11083258 0.97500008
-0.21493912 0.11369201 0.97561544
-0.20743886 0.11695106 0.97375
-0.11579607 0.11489619 0.97335291
-0.10598403 0.11223701 0.97233337
-0.098831303 0.1113653 0.97466677
-0.21177286 0.12089058 0.97800004
-0.20337765 0.12253784 0.97357136
-0.16412076 0.12840536 0.97000003
-0.1581682 0.12840536 0.97000003
-0.12263953 0.12732574 0.97150004
-0.11809736 0.12525643 0.97443759
-0.1923838 0.13844284 0.97360003
-0.18722597 0.13829175 0.97075003
-0.17942737 0.13860977 0.97000003
-0.16289984 0.13504806 0.97199994
-0.15541001 0.13443504 0.97403574
-0.14506562 0.13570681 0.97437936
-0.13466148 0.13381036 0.97465008
-0.12478366 0.13324741 0.97347838
-0.11790095 0.13232154 0.97377777
-0.19291049 0.14146771 0.97800004
-0.18425858 0.14308681 0.97587508
-0.17468894 0.14436148 0.97475016
-0.16631541 0.14215919 0.97369236
-0.14318246 0.14146771 0.97800004
-0.17233337 0.15004151 0.97800004
-0.18335575 -0.14468016 0.98613662
-0.17497708 -0.14489111 0.98648477
-0.1673355 -0.1413248 0.98900002
-0.1413248 -0.14219183 0.98900002
-0.13449943 -0.14333411 0.98790014
-0.12458087 -0.1453045 0.98751611
-0.11693568 -0.14243616 0.98469245
-0.19161215 -0.13092053 0.98900002
-0.18542984 -0.13517338 0.98838902
-0.17497075 -0.13513649 0.98661757
-0.1650483 -0.13447697 0.98661757
-0.15521166 -0.13341346 0.98621732
-0.14488517 -0.13421932 0.98596531
-0.13476458 -0.13526717 0.98438686
-0.12515749 -0.13483454 0.98410702
-0.11607936 -0.13444774 0.98481798
-0.10945666 -0.13195367 0.98700005
-0.21328774 -0.12051624 0.98900002
-0.204184 -0.12094975 0.98899996
-0.19429727 -0.12385385 0.98795253
-0.18484999 -0.12525104 0.98529983
-0.17511846 -0.12508409 0.98400003
-0.16559227 -0.12510164 0.98195982
-0.15469447 -0.12591502 0.9821431
-0.14391032 -0.12533988 0.98150009
-0.13549934 -0.12623037 0.98100007
-0.1258003 -0.12655346 0.98118752
-0.11483086 -0.12648177 0.98146158
-0.10886886 -0.12782939 0.98300004
-0.24016546 -0.11271303 0.98900002
-0.23507187 -0.112773 0.98800004
-0.22498092 -0.11305756 0.98792326
-0.21495117 -0.1150631 0.98623085
-0.2049672 -0.11474983 0.98466682
-0.19489451 -0.11523546 0.98472399
-0.18533798 -0.11597837 0.98112023
-0.17533158 -0.11667914 0.98269594
-0.16727194 -0.11599385 0.98100001
-0.24120589 -0.10490981 0.98900002
-0.2349667 -0.10557555 0.98439991
-0.22604233 -0.10696892 0.98258829
-0.21487963 -0.10848413 0.98100001
-0.20554237 -0.10922126 0.98100007
-0.19399369 -0.10872984 0.98100001
-0.16684194 -0.10922127 0.98100007
-0.24275808 -0.09393961 0.98800009
-0.23737963 -0.095872045 0.98225003
-0.24422732 -0.085045017 0.98600012
-0.23959878 -0.086517006 0.98100007
-0.24380304 -0.075123034 0.98500007
-0.24297744 -0.065807767 0.98633331
-0.23865277 -0.064285748 0.98100001
-0.24260528 -0.054697495 0.98775011
-0.23784842 -0.055151537 0.98300004
-0.27137831 -0.040750097 0.98900002
-0.26478699 -0.044147149 0.98580772
-0.25473809 -0.045891639 0.98541182
-0.24463159 -0.045823641 0.98463988
-0.23765308 -0.044830374 0.9819231
-0.27137831 -0.037282005 0.98900002
-0.26632297 -0.035264935 0.98383355
0.0063872174 -0.034154762 0.98400003
0.011618682 -0.031413376 0.98175001
-0.26751924 -0.025302792 0.98674995
0.017040975 -0.027828798 0.984375
0.023009518 -0.026462883 0.9866001
-0.26564822 -0.015924649 0.98664719
-0.258863 -0.01118013 0.98100007
-0.26184106 -0.0069361869 0.98900002
-0.25773764 -0.0043091085 0.98400009
-0.25624311 0.0055110645 0.98515391
-0.055441275 0.0089060562 0.9830001
-0.28004855 0.01820749 0.98900002
-0.27451396 0.015905904 0.987077
-0.26505738 0.016554724 0.98587996
-0.25539839 0.015944995 0.98593104
-0.24811289 0.018490216 0.98100007
-0.053575084 0.015342726 0.98647368
-0.048143275 0.018102665 0.98314285
-0.023291279 0.01897808 0.98400003
-0.27359557 0.024793951 0.98492867
-0.26614782 0.023624981 0.98100001
-0.25410026 0.023367736 0.98207146
-0.24607036 0.024510285 0.98100001
-0.051154375 0.023409629 0.98900002
-0.045830186 0.025357975 0.98622239
-0.03354039 0.02666031 0.98100001
-0.027204001 0.02501297 0.9837274
-0.27264634 0.034454267 0.98522228
-0.26918313 0.032680377 0.98100007
-0.043815274 0.032499608 0.98766685
-0.03495454 0.032363117 0.98700011
-0.027716985 0.032048594 0.98799998
-0.2708295 0.044128772 0.98700005
-0.26773575 0.044768736 0.98200005
-0.26356676 0.052540824 0.98250008
-0.050740588 0.075680874 0.98100007
-0.04902057 0.074820869 0.98100007
-0.24470922 0.086440705 0.98711109
-0.23994279 0.08772102 0.98100007
-0.051639389 0.085638717 0.98175001
-0.047829181 0.08586555 0.98600012
-0.23994279 0.091161057 0.98100007
-0.061060708 0.098901153 0.98100007
-0.053847037 0.096042469 0.9832105
-0.047708053 0.095469154 0.98735315
-0.092671052 0.1081828 0.9827143
-0.086052902 0.10800743 0.98560011
-0.074151911 0.10690255 0.98678577
-0.064614683 0.10489918 0.98513645
-0.056086209 0.10361537 0.98766679
-0.048033096 0.10213535 0.98900002
-0.22225116 0.11610135 0.98100001
-0.21500251 0.11868138 0.98100007
-0.11347727 0.11821785 0.98250008
-0.10549439 0.11732587 0.98260003
-0.096066222 0.11417817 0.9872309
-0.086330757 0.11135056 0.98899996
-0.11390912 0.12380827 0.98509103
-0.10621064 0.12227373 0.98790914
-0.15566181 0.1384616 0.98100007
-0.14018163 0.1384616 0.98100007
-0.134231 0.13871565 0.98280001
-0.12436678 0.13856746 0.98175001
-0.19209869 0.14521958 0.98514283
-0.1855191 0.14841264 0.98425001
-0.17974208 0.14878173 0.98100007
-0.16378835 0.14715751 0.98364717
-0.15561278 0.14459051 0.98530781
-0.144879 0.14426585 0.98621434
-0.13545759 0.14328805 0.98615795
-0.12736037 0.14153187 0.98560011
-0.18318065 0.1533249 0.98716682
-0.17489766 0.15463096 0.98586369
-0.16466309 0.15421399 0.9873845
-0.15798029 0.15364927 0.98833328
-0.15136001 -0.16098404 0.99800003
-0.14523561 -0.16098404 0.99800003
-0.13577063 -0.16122267 0.99800009
-0.12997022 -0.16137241 0.99500006
-0.16395035 -0.15151244 0.99612498
-0.15464093 -0.15201619 0.99800009
-0.14486066 -0.15402642 0.99799991
-0.13535382 -0.1545634 0.9960801
-0.12684597 -0.15471837 0.99350011
-0.19045408 -0.14175349 0.99200004
-0.16485731 -0.14528938 0.99376488
-0.15514494 -0.14472687 0.99588227
-0.14559843 -0.14554101 0.99531037
-0.1356604 -0.14834227 0.9928571
-0.12957835 -0.14871071 0.99200004
-0.20254244 -0.13167445 0.99800003
-0.1957643 -0.13353498 0.99371421
-0.15305899 -0.13827488 0.99200004
-0.14871071 -0.13827488 0.99200004
-0.24336705 -0.12124738 0.99500006
-0.23010221 -0.12161295 0.99800003
-0.22406597 -0.12395 0.99531585
-0.21513408 -0.12367466 0.99305868
-0.20500816 -0.12550637 0.99416667
-0.19777861 -0.12815441 0.99275005
-0.25198841 -0.11438152 0.99766666
-0.24570809 -0.11327028 0.99387497
-0.23378049 -0.11706042 0.99361521
-0.22548573 -0.11790384 0.99307138
-0.25151566 -0.1040469 0.99733341
-0.24617498 -0.10488155 0.99365008
-0.25184616 -0.09520629 0.99633336
-0.24725141 -0.095276125 0.99249989
-0.25134718 -0.084716685 0.99619997
-0.24859664 -0.08634416 0.99200004
-0.25149813 -0.075149968 0.99680007
-0.24785118 -0.074268393 0.99199998
-0.25110012 -0.0656185 0.99800003
-0.24743988 -0.063385479 0.99499995
-0.2732313 -0.05378956 0.99690914
-0.26515803 -0.052893862 0.99559993
-0.25448507 -0.054294229 0.9965716
-0.24777861 -0.054890729 0.99379998
-0.27433938 -0.04573692 0.99483329
-0.26450565 -0.049595222 0.99250007
-0.25480843 -0.04957024 0.99199998
-0.27442247 -0.034542419 0.99500006
-0.00087491336 -0.039371099 0.99800003
0.0049578422 -0.033538345 0.99799997
-0.27282104 -0.023970477 0.99425
0.0096240463 -0.02887214 0.99800003
0.015032593 -0.025892936 0.99566674
0.024106445 -0.02275921 0.99569225
-0.27253416 -0.014660423 0.99374992
-0.26841399 -0.01305795 0.99300003
0.028288864 -0.017789906 0.99799997
0.031205242 -0.01720663 0.99799997
-0.26500019 -0.0052321223 0.995
-0.28348544 0.0084431767 0.99633342
-0.27499115 0.0079530105 0.99462491
-0.26446217 0.0065576569 0.99473917
-0.28384364 0.014604438 0.99283338
-0.2739408 0.011305493 0.99200004
-0.26459202 0.011957733 0.99200004
-0.056527466 0.01826272 0.99200004
-0.28272161 0.022051785 0.99612504
-0.27828908 0.025219947 0.99200004
-0.054394178 0.024659598 0.99411762
-0.048990469 0.028118789 0.99200004
-0.28084719 0.033246707 0.99800003
-0.2775006 0.034442373 0.99462503
-0.053436134 0.034715693 0.99729413
-0.046189692 0.03640116 0.99414283
-0.034734789 0.03747775 0.99414283
-0.02817665 0.036310945 0.99400002
-0.2746338 0.045335505 0.99449992
-0.051619887 0.041120928 0.99800003
-0.045470506 0.041100327 0.9975
-0.03797124 0.041820858 0.99800003
-0.27270031 0.05331536 0.99700004
-0.26872289 0.053048853 0.99200004
-0.24785119 0.088704638 0.99200004
-0.054274272 0.10768033 0.99418181
-0.046587214 0.10534155 0.9968462
-0.095604703 0.11719946 0.9932
-0.083226748 0.11364007 0.99363631
-0.074969731 0.11420355 0.99440026
-0.065097556 0.11273718 0.99599999
-0.055869464 0.11161395 0.99800009
-0.11197208 0.12729795 0.9932
-0.10317566 0.1255019 0.9946
-0.11286382 0.13036208 0.99799997
-0.15218933 0.14871071 0.99200004
-0.14528921 0.14855698 0.99387503
-0.13351204 0.14763145 0.99409997
-0.12669973 0.14517462 0.99671429
-0.19248641 0.1514549 0.99575007
-0.18612483 0.15670517 0.99542862
-0.17422055 0.15914656 0.99200004
-0.16540806 0.15914656 0.99199998
-0.15472247 0.15472648 0.99500012
-0.144886 0.15257788 0.99680007
-0.13626775 0.15201619 0.99800009
-0.1711029 0.16306315 0.99680007
-0.16503718 0.16304491 0.99607146
-0.15819889 0.1611135 0.99700004
-0.14567219 -0.16146797 1.001
-0.13601921 -0.1641006 1.001
-0.15436468 -0.15594585 1.0016
-0.14654973 -0.15727526 1.001
-0.20534514 -0.13163149 1.001
-0.23254897 -0.12483053 1.001
-0.2290388 -0.12373361 1.001
-0.26130977 -0.11211602 1.0070001
-0.25678101 -0.11343584 1.0031
-0.25634566 -0.1055278 1.0037693
-0.25669217 -0.094939269 1.00275
-0.25583366 -0.084852241 1.0034546
-0.2558167 -0.075226873 1.0036252
-0.27373391 -0.060731959 1.0040001
-0.25482103 -0.064867638 1.0037857
-0.28332761 -0.053923905 1.0058461
-0.27583471 -0.056079239 1.0022354
-0.26503512 -0.057194021 1.0036666
-0.25793463 -0.057496011 1.0028
-0.28351432 -0.045601241 1.005125
-0.27993631 -0.044754714 1.001
-0.006173111 -0.044025987 1.0052857
-0.28185624 -0.035698306 1.0055001
-0.27875164 -0.035133291 1.002
-0.0035180636 -0.036921516 1.0028001
0.0027834894 -0.032964639 1.00275
-0.27814367 -0.026017839 1.0035714
-0.00088280335 -0.02913251 1.0070001
0.0068298909 -0.027986269 1.0055001
0.01444778 -0.022366334 1.0033572
0.0222896 -0.020534514 1.001
-0.27637443 -0.011442253 1.0040001
0.016301399 -0.016595665 1.00525
0.024192624 -0.014617477 1.0028888
0.032009356 -0.012927076 1.0022857
-0.28337988 -0.00088280335 1.0070001
-0.27320379 -0.0041849334 1.0056875
-0.26832262 -0.0040388033 1.0022
0.027354505 -0.0086977864 1.0065714
0.033212155 -0.0074926508 1.0057501
-0.29132509 0.0070624268 1.0070001
-0.28499231 0.0038144353 1.0048
-0.27525207 0.0028321692 1.0038333
-0.26835278 0.0029836474 1.001
-0.29044229 0.025601298 1.0070001
-0.28525412 0.02631524 1.003077
-0.28554764 0.032593466 1.0048573
-0.056162775 0.032469105 1.001
-0.032469101 0.039489448 1.001
-0.028249707 0.038843349 1.0070001
-0.27818123 0.048264883 1.001
-0.051068794 0.045791037 1.0043751
-0.044884495 0.045766253 1.0038501
-0.035841327 0.044947218 1.0029413
-0.28161427 0.052085396 1.0070001
-0.27772054 0.051852643 1.0025001
-0.043338455 0.10623964 1.0049001
-0.031339519 0.10328799 1.0070001
-0.02913251 0.10328799 1.0070001
-0.095652223 0.11846835 1.001
-0.064348288 0.11770997 1.00325
-0.054120634 0.11517443 1.0038127
-0.046317611 0.11271518 1.0053334
-0.10706028 0.12899888 1.001
-0.099225342 0.124608 1.0052001
-0.071507066 0.12094405 1.0070001
-0.067093059 0.12094405 1.0070001
-0.11282788 0.13310474 1.0055001
-0.10684478 0.13179967 1.0045
-0.12321966 0.14632851 1.0040001
-0.11873706 0.14455904 1.0070001
-0.19564922 0.15717569 1.0040002
-0.15153243 0.15798175 1.0030001
-0.14478737 0.15805808 1.0037693
-0.13488254 0.15619348 1.0043
-0.12629125 0.15295337 1.0057647
-0.19921505 0.16131237 1.0055001
-0.18196853 0.16315819 1.006
-0.17623743 0.16441195 1.0044286
-0.16397962 0.16781752 1.0031819
-0.15561187 0.16476743 1.0055715
-0.14610395 0.16221511 1.0070001
-0.17038104 0.17038104 1.0070001
-0.16508423 0.17126386 1.0070001
-0.1589046 0.17038104 1.0070001
-0.26208827 -0.11067916 1.01
-0.27067697 -0.10809212 1.0190001
-0.26454869 -0.10484502 1.0135456
-0.27147102 -0.093401909 1.0190001
-0.26522389 -0.094927847 1.0147145
-0.27127251 -0.087843455 1.0190001
-0.2647787 -0.085644856 1.0155503
-0.25943196 -0.083230726 1.01
-0.2649745 -0.074840322 1.0163002
-0.25943196 -0.074819118 1.01
-0.28068236 -0.061094899 1.01
-0.27091032 -0.065102667 1.0172
-0.26531318 -0.064791225 1.0160002
-0.25943196 -0.065522067 1.01
-0.29162526 -0.052131511 1.0148
-0.28776583 -0.051355131 1.01
-0.2660245 -0.059412137 1.0115
-0.30104995 -0.045559488 1.0190001
-0.29240137 -0.045135096 1.0175
-0.28807104 -0.043942366 1.012625
-0.29062787 -0.035435159 1.0190001
-0.28615919 -0.034620151 1.0126667
-0.28503543 -0.026084946 1.0153077
0.0052901115 -0.024060536 1.0133916
0.011510633 -0.020364966 1.01
0.0091003254 -0.017309431 1.0178001
0.014054208 -0.013760378 1.01275
-0.3013483 -0.0014879955 1.018
-0.29450262 -0.0023462786 1.0154544
-0.28493711 -0.0043751006 1.0139132
-0.27783757 -0.0058480678 1.0106001
0.016936589 -0.0080217626 1.0169001
0.024465561 -0.0047695218 1.0142225
0.034693893 -0.0025311245 1.0110716
-0.30271867 0.0038605479 1.017
-0.29560739 0.0036652342 1.0148751
-0.2883561 0.0014757222 1.01
0.027475221 0.0022817682 1.0183333
0.035066895 0.0036764354 1.0144349
0.040081199 0.00267208 1.016
-0.29130757 0.0292193 1.01
-0.28953668 0.0292193 1.01
-0.28776583 0.034531899 1.01
-0.025289422 0.039489232 1.0122499
-0.032155145 0.04679504 1.011875
-0.027259238 0.044956509 1.0154376
-0.0526122 0.054399662 1.0171539
-0.045090474 0.054859929 1.0153797
-0.035556462 0.054021731 1.0150002
-0.029037654 0.052912444 1.016
-0.041615367 0.098283097 1.01
-0.036112823 0.097390056 1.0130001
-0.041615367 0.1089083 1.01
-0.036286868 0.10472595 1.0112002
-0.093153723 0.11888389 1.012
-0.088491172 0.11873135 1.0145
-0.054285828 0.11933123 1.0104287
-0.044213254 0.11649202 1.0118949
-0.037548948 0.11197949 1.0137501
-0.095698625 0.12482545 1.0143125
-0.08824373 0.12122437 1.0167501
-0.063617475 0.1240356 1.0111541
-0.055692811 0.12500855 1.0146157
-0.046384629 0.1227378 1.0153333
-0.11415765 0.13760236 1.0117143
-0.10502694 0.13525431 1.0139475
-0.099158891 0.13221185 1.0190001
-0.11565612 0.14474431 1.0144118
-0.10809212 0.14114508 1.0190001
-0.19745164 0.15849257 1.01
-0.13015869 0.15849257 1.01
-0.12356166 0.1571902 1.0130001
-0.11795864 0.15382716 1.0142499
-0.1936076 0.16386709 1.0140001
-0.18568206 0.16571213 1.0141538
-0.17637743 0.16751258 1.011
-0.15193203 0.16703962 1.0135001
-0.14397946 0.16625601 1.0134001
-0.13559978 0.16425721 1.01495
-0.12581624 0.16195968 1.0178751
-0.18277395 0.17133942 1.0190001
-0.17687804 0.17181586 1.0190001
-0.16384181 0.17655773 1.0149286
-0.15638651 0.17419384 1.0152941
-0.14471838 0.17062475 1.0190001
-0.16258484 0.18134463 1.0190001
-0.15990488 0.18134463 1.0190001
-0.27212238 -0.10266095 1.0227501
-0.26968196 -0.10124273 1.0220001
-0.27508581 -0.096604206 1.0241001
-0.27401444 -0.084151238 1.024182
-0.26968196 -0.083323665 1.0220001
-0.27265298 -0.075768948 1.0233637
-0.26968196 -0.075260073 1.0220001
-0.26968196 -0.067196503 1.0220001
-0.30010405 -0.05136916 1.028
-0.29656056 -0.051069338 1.0220001
-0.30010405 -0.044519939 1.028
-0.29694238 -0.044583756 1.0239999
-0.30010405 -0.038752172 1.028
-0.29530954 -0.035207175 1.0250001
-0.29333889 -0.026224878 1.0261538
-0.28791487 -0.022089895 1.0244
-0.29109192 -0.018024266 1.028
-0.28781474 -0.014992911 1.028
0.0064154468 -0.015146419 1.0250002
0.011647393 -0.011647393 1.0220001
-0.29109192 -0.0099133467 1.028
-0.28793767 -0.0084335338 1.0232
0.0093028946 -0.0093028946 1.027
0.014712987 -0.0047149328 1.025
0.021533124 -0.0008972683 1.0235001
-0.30731198 0.00089595333 1.0220001
0.018324671 0.0015020221 1.028
0.024615398 0.0062206155 1.0248799
0.034745805 0.009190754 1.0227501
0.027669061 0.014586858 1.027
0.034737114 0.01520018 1.0251303
0.02913923 0.022830738 1.028
0.035179023 0.024231143 1.0267498
0.036949746 0.031542465 1.028
-0.051069338 0.058236968 1.0220001
-0.03225432 0.058236968 1.0220001
-0.029566459 0.058236968 1.0220001
-0.051855054 0.063081428 1.02425
-0.045010868 0.063723862 1.0237306
-0.034933418 0.063016832 1.0245264
-0.028436435 0.062763005 1.0243335
-0.029566459 0.10841035 1.0220001
-0.0403179 0.11916179 1.0220001
-0.034508482 0.11636635 1.0244285
-0.028986458 0.11612712 1.0267999
-0.092987165 0.12736376 1.024143
-0.085481822 0.12338752 1.0240002
-0.051965293 0.12812133 1.0220001
-0.043625358 0.12562527 1.0252309
-0.03610016 0.12250677 1.0266666
-0.10177732 0.13840058 1.0238001
-0.097176358 0.13373277 1.0253334
-0.052117832 0.13029458 1.0250001
-0.11237683 0.14624189 1.0255001
-0.10578947 0.1420733 1.0244
-0.11617529 0.15649319 1.0220002
-0.19381127 0.16958371 1.0235001
-0.18904616 0.16933517 1.0220001
-0.13263805 0.16852351 1.0232859
-0.12538438 0.16646166 1.0237646
-0.1172248 0.16383703 1.0252143
-0.19346046 0.17273258 1.028
-0.18556578 0.17375885 1.0254287
-0.17448984 0.17628853 1.0267142
-0.16933517 0.17739877 1.0220001
-0.1528949 0.17625283 1.0245385
-0.14441255 0.17435721 1.0231541
-0.13658741 0.17383887 1.0246001
-0.12504335 0.17123054 1.028
-0.11986137 0.17032932 1.028
-0.16403964 0.18441162 1.0250001
-0.15695533 0.18349332 1.026
-0.27928758 -0.096711233 1.031
-0.27928758 -0.0876728 1.031
-0.30484331 -0.050048899 1.0380001
-0.30278751 -0.044288322 1.031
-0.30221489 -0.035620283 1.0331668
-0.29917213 -0.033442203 1.031
-0.30004266 -0.0271942 1.034
-0.2964606 -0.023273965 1.031
-0.29373935 -0.015778733 1.0316666
-0.28742218 -0.016269181 1.031
0.0051320065 -0.011169902 1.0333334
0.008166275 -0.0068703112 1.0351429
0.012099314 -0.0015132729 1.0355
0.007251787 0.00815826 1.034
0.01431991 0.0049614948 1.0362694
0.020788396 0.0090384334 1.031
0.0081898198 0.01000978 1.0380001
0.0181996 0.01182974 1.0380001
0.022892397 0.016131543 1.0336668
0.026009455 0.025250077 1.0344738
0.032990284 0.029374907 1.031
0.027886765 0.032435495 1.0373334
0.033177447 0.035321053 1.0360589
0.036095873 0.04276906 1.0380001
-0.042822246 0.069060877 1.0320001
-0.035280135 0.06875284 1.0319
-0.028965067 0.068793349 1.0325
-0.04269743 0.074887618 1.0362859
-0.035714693 0.074520692 1.0366001
-0.02772546 0.071364164 1.0370001
-0.039129138 0.080988221 1.0380001
-0.091288179 0.1292496 1.031
-0.085258201 0.12716988 1.0347
-0.07916826 0.12557724 1.0380001
-0.043444969 0.12943766 1.0325
-0.034580469 0.12715903 1.0326002
-0.02751728 0.12526947 1.0349334
-0.093848355 0.13507384 1.0350716
-0.086812094 0.13158311 1.0380001
-0.051312178 0.13441929 1.036
-0.044956069 0.13376038 1.0368463
-0.035084788 0.1319471 1.0380001
-0.02638942 0.13012713 1.0380001
-0.11223832 0.14935112 1.0325
-0.1048461 0.1454951 1.0335715
-0.098996706 0.14168511 1.036
-0.1137816 0.15349247 1.0346667
-0.10646766 0.15014669 1.0380001
-0.11414252 0.16713825 1.0340002
-0.1931449 0.17705698 1.0343751
-0.1856799 0.17754094 1.0315
-0.17745458 0.17745458 1.031
-0.15094183 0.17986482 1.031
-0.14629351 0.1790901 1.031
-0.13374527 0.17742638 1.0343335
-0.12497504 0.1757683 1.0345336
-0.11608995 0.17277926 1.0362
-0.18380119 0.18120725 1.0357143
-0.17527014 0.18253554 1.035889
-0.16436039 0.18848217 1.0320001
-0.15351173 0.18631251 1.0327779
-0.14619692 0.18334813 1.0358182
-0.1319471 0.18108602 1.0380001
-0.16348606 0.19072583 1.036
-0.15520447 0.19151251 1.0353334
-0.30359495 -0.054452401 1.041
-0.30389914 -0.03011613 1.041
-0.30344284 -0.026009385 1.041
0.0027378299 -0.01003871 1.041
0.004566995 -0.0063987901 1.0425
0.0082134902 0.00091260998 1.041
0.01368915 0.0063882703 1.041
0.014811422 0.014669404 1.0429202
0.018876035 0.023276551 1.0452001
0.021528805 0.025445249 1.0418571
0.01927527 0.035796933 1.0470001
0.023919741 0.035353009 1.0428752
0.03011613 0.03832962 1.041
0.01927527 0.04405776 1.0470001
0.024965331 0.04456272 1.0447828
0.033249211 0.045159113 1.0411431
0.028413206 0.051328395 1.0455
0.032957513 0.052992858 1.0443749
-0.032609954 0.078332216 1.043
-0.027955584 0.07561776 1.0455
-0.034826458 0.081573397 1.0455
-0.0823716 0.12904884 1.044
-0.078420684 0.12795016 1.04625
-0.024640471 0.12502757 1.041
-0.091782399 0.13744707 1.04175
-0.085150003 0.13485812 1.0444286
-0.07985469 0.1312554 1.0470001
-0.050193548 0.13597889 1.041
-0.044767529 0.13612583 1.042125
-0.034677777 0.13597275 1.0428001
-0.027444487 0.13356498 1.0435001
-0.10151603 0.14862064 1.04325
-0.095611505 0.1433644 1.0449375
-0.088421471 0.14104603 1.0470001
-0.11220311 0.15635554 1.0443333
-0.10567673 0.1541557 1.0446
-0.11411044 0.16177261 1.0455
-0.19621114 0.17978416 1.041
-0.12411497 0.17978416 1.041
-0.11671 0.17761631 1.0435715
-0.19539216 0.18218535 1.0464001
-0.18510926 0.18510795 1.044
-0.17492481 0.1877446 1.0446668
-0.1437684 0.18753198 1.0427999
-0.13511774 0.18526383 1.0444287
-0.12508279 0.18483715 1.0456365
-0.11748736 0.18082039 1.0470001
-0.17164169 0.19183482 1.0470001
-0.16452029 0.19476992 1.0455
-0.15454143 0.19588597 1.0438237
-0.14610571 0.19287497 1.046
0.017087767 0.026098367 1.05375
0.018252553 0.034845393 1.0516
0.0193305 0.041422501 1.0500001
0.022092 0.048786499 1.0500001
-0.022770142 0.054699466 1.0542728
-0.018942136 0.054054391 1.054
0.026549673 0.053655855 1.0516001
0.032953899 0.059096098 1.0500001
-0.02279526 0.06134335 1.057
0.028644206 0.061908443 1.054
0.032687329 0.064195104 1.0525
-0.025797669 0.077396519 1.0510001
0.036138829 0.071351022 1.057
-0.031129265 0.08352413 1.0546666
-0.026817553 0.082983516 1.0549092
-0.076012261 0.12807137 1.0510001
-0.021908483 0.12683086 1.0560001
-0.08158318 0.13706684 1.050889
-0.07652089 0.13465519 1.054
-0.023488179 0.1348473 1.0550001
-0.019459371 0.13065577 1.057
-0.093293108 0.1469568 1.0513334
-0.085347064 0.14448601 1.0539376
-0.078146361 0.14239317 1.057
-0.10315453 0.15704167 1.0516667
-0.096103385 0.15284145 1.0566251
-0.08988376 0.15104178 1.057
-0.11191452 0.16465053 1.0525715
-0.10565548 0.16381203 1.0549376
-0.099150121 0.16030814 1.057
-0.11220895 0.1777823 1.0535001
-0.1961498 0.18638246 1.0547143
-0.18541448 0.18909788 1.0522001
-0.12073863 0.18710113 1.0513334
-0.1145832 0.18573163 1.0544784
-0.18254744 0.19181378 1.057
-0.17468522 0.19314858 1.0527143
-0.16415583 0.19729383 1.0500001
-0.150962 0.198828 1.0500001
-0.14468665 0.19729033 1.0526001
-0.13545488 0.19477044 1.0542173
-0.12565395 0.19310819 1.0539286
-0.11768285 0.19181378 1.057
-0.16030814 0.20293343 1.057
-0.15368597 0.20306754 1.0548
-0.14455533 0.20154348 1.057
-0.13992214 0.20108016 1.057
0.014698192 0.024745846 1.0612
-0.021939898 0.045511492 1.0650001
-0.017977687 0.045595031 1.0643334
-0.026049128 0.056128144 1.0611666
-0.018637933 0.051254317 1.0630001
0.019643471 0.058930408 1.067
0.023662347 0.056579109 1.0643636
-0.026019465 0.060402334 1.0600001
0.019643471 0.062672019 1.067
0.025374984 0.064568028 1.06435
0.031285312 0.069075488 1.0600001
0.028295953 0.075299978 1.067
0.033922534 0.076075174 1.0649999
-0.033874489 0.086917385 1.0615001
-0.023749538 0.086634748 1.0605456
-0.019542214 0.087473363 1.0615001
0.034342665 0.083117269 1.0670002
0.042093154 0.0844981 1.067
-0.032438792 0.092239484 1.0658572
-0.026024843 0.092865899 1.0628
-0.019569829 0.090393975 1.0630001
-0.017679298 0.12842071 1.0615001
-0.072250485 0.13544062 1.0600001
-0.066007204 0.13667373 1.0621667
-0.057888053 0.1381802 1.0650001
-0.022012809 0.13797183 1.061
-0.017527489 0.13349801 1.064889
-0.083014488 0.14899243 1.0600001
-0.074478306 0.14501731 1.0626191
-0.06556385 0.14252932 1.0654001
-0.057059605 0.1412459 1.067
-0.026093107 0.14071639 1.0630001
-0.09352383 0.15686691 1.0624706
-0.085524596 0.15386902 1.0637144
-0.077178806 0.15094009 1.0650001
-0.1031486 0.16708215 1.0600001
-0.096183151 0.16491693 1.0633636
-0.11064533 0.1742461 1.0606
-0.10530891 0.17457753 1.0623702
-0.097324222 0.17421442 1.0652223
-0.19421673 0.18864113 1.0600001
-0.10592601 0.1838347 1.0655501
-0.098217346 0.18053284 1.067
-0.19393025 0.19326976 1.0620716
-0.18575865 0.19626024 1.0641252
-0.17559728 0.19754376 1.0609001
-0.16819726 0.19979233 1.0600001
-0.1324205 0.19932769 1.0600001
-0.12492736 0.19873324 1.0603001
-0.11449463 0.19537596 1.061
-0.10892525 0.19451274 1.0650001
-0.17437513 0.20158938 1.0652858
-0.16436543 0.20522895 1.0636364
-0.15527384 0.20803221 1.062
-0.14485538 0.20611146 1.0626251
-0.13467699 0.20528835 1.0634999
-0.12519822 0.20311844 1.0635
-0.11569127 0.20181519 1.0652223
-0.16369557 0.21046574 1.067
-0.15567321 0.21153551 1.0665001
-0.14810552 0.21108936 1.067
-0.13656887 0.21046574 1.067
-0.01605089 0.059010625 1.077
0.0196987 0.055343967 1.0700001
0.021574767 0.055343967 1.0700001
-0.022660078 0.06703607 1.077
-0.019318664 0.062671587 1.075
0.018760666 0.065662332 1.0700001
0.022981817 0.068007417 1.0700001
-0.022132546 0.077690855 1.0742501
0.024934663 0.074970558 1.0734166
-0.021715909 0.082142793 1.077
-0.019405719 0.083466202 1.0746
0.026608078 0.085485756 1.0740525
0.035066027 0.087964743 1.0705454
0.04243461 0.087124452 1.0709
-0.0334136 0.096006282 1.073625
-0.024337435 0.096629709 1.0724444
-0.019827571 0.094416998 1.077
0.029269271 0.091584489 1.077
0.034672733 0.093927756 1.0758234
0.042816576 0.093181953 1.0758001
-0.03210178 0.10102619 1.077
-0.026409581 0.10093239 1.076
0.036822628 0.10102619 1.077
-0.055343967 0.13976696 1.0700001
-0.013990778 0.13668509 1.0734375
-0.070352502 0.1491473 1.0700001
-0.065361284 0.14724931 1.0712
-0.056288194 0.14452413 1.0737332
-0.049855158 0.14392149 1.0730001
-0.023673428 0.14553601 1.0722728
-0.016202277 0.14407074 1.0741053
-0.083874792 0.15805043 1.071
-0.074639186 0.15603249 1.0732499
-0.066044345 0.15355738 1.07625
-0.059482709 0.15012303 1.077
-0.023981918 0.15182252 1.0769999
-0.018175272 0.15177533 1.077
-0.091657102 0.16642304 1.0705001
-0.084914096 0.16493936 1.0742413
-0.07578364 0.16394211 1.0761111
-0.068924412 0.16145307 1.077
-0.092530482 0.17574409 1.0711538
-0.086314291 0.17417897 1.0755453
-0.078366108 0.17089477 1.077
-0.10286526 0.18714957 1.0706
-0.095065691 0.18543446 1.0736957
-0.088227443 0.18243463 1.077
-0.10421135 0.19511358 1.0725833
-0.097221181 0.19437164 1.0766922
-0.19184956 0.20201854 1.0738001
-0.18542279 0.20297484 1.0724444
-0.174786 0.20613092 1.0725557
-0.16837698 0.20683636 1.0700001
-0.12404194 0.20792684 1.0703
-0.11476473 0.20690708 1.0724666
-0.10622225 0.20338652 1.0746874
-0.17183894 0.21054991 1.077
-0.15300083 0.2163856 1.0736667
-0.14423628 0.21472871 1.0728824
-0.13493185 0.21372606 1.0733333
-0.12546746 0.21355568 1.0737857
-0.11514421 0.21179286 1.0766
-0.15012303 0.22187994 1.077
-0.016639309 0.066256307 1.0827333
-0.0227232 0.072903596 1.08
-0.017109159 0.075102858 1.0844499
-0.016129114 0.084013462 1.0823847
0.0231966 0.084738597 1.08
-0.021776401 0.099413998 1.08
-0.018355146 0.094499148 1.0857143
0.026596313 0.093101412 1.0836667
0.035505001 0.098467201 1.08
0.044120882 0.09770976 1.08
-0.032049529 0.10487177 1.0816001
-0.024221702 0.10600173 1.0846
-0.018105797 0.10196421 1.087
0.035334248 0.10531966 1.0840454
0.043366674 0.10407059 1.0844615
-0.027635163 0.11149359 1.087
0.028724233 0.11666667 1.087
0.037149873 0.11308248 1.0865715
0.040976275 0.11149359 1.087
0.028588099 0.12102295 1.087
-0.0104148 0.132552 1.08
-0.0075875497 0.13658905 1.0820001
-0.052313328 0.14838459 1.085
-0.046482131 0.14770518 1.087
-0.011906303 0.14594513 1.0817778
-0.0069993068 0.14391616 1.0845455
-0.062635198 0.15697943 1.0826
-0.056119449 0.15404654 1.0850588
-0.048599768 0.15151693 1.087
-0.026205389 0.15654549 1.0822308
-0.014549159 0.15528573 1.0838946
-0.0085764304 0.15342279 1.087
-0.072947435 0.16737145 1.0806667
-0.065252855 0.16398296 1.0848094
-0.056858554 0.16231687 1.087
-0.02437452 0.16409338 1.0844399
-0.016729431 0.16173612 1.0861429
-0.081376143 0.17627883 1.0825001
-0.07501395 0.1747084 1.0844761
-0.068060704 0.17264099 1.0866666
-0.084141456 0.18608384 1.0842856
-0.076806702 0.18391676 1.087
-0.092609204 0.19578005 1.0821249
-0.086160116 0.19342788 1.086
-0.18295801 0.20697398 1.0813333
-0.1770516 0.20924281 1.08
-0.10293821 0.2070711 1.08225
-0.095380455 0.20372678 1.0840526
-0.18010503 0.21059901 1.087
-0.17580673 0.21191838 1.0840001
-0.14864761 0.2187108 1.08
-0.13549128 0.21887282 1.0808001
-0.12370975 0.2180492 1.080889
-0.11461598 0.21658809 1.0819999
-0.10573249 0.21385066 1.0855999
-0.16199923 0.22584599 1.087
-0.15557487 0.22288506 1.0864999
-0.14450347 0.22293648 1.0834285
-0.13471386 0.22262201 1.0856364
-0.12507701 0.22293265 1.0857999
-0.11530533 0.22108132 1.087
-0.10958771 0.22012837 1.087
-0.012150016 0.066197388 1.0943335
-0.0086553302 0.067319229 1.097
-0.012207834 0.074207202 1.0952858
-0.012838784 0.085279152 1.0930001
-0.015515071 0.09559454 1.0926001
0.022615077 0.092689969 1.09
-0.015990401 0.10552187 1.0914286
0.028256062 0.10872924 1.0927501
0.032489266 0.10989016 1.09
