# .PCD v0.7 - Point Cloud Data file format
VERSION 0.7
FIELDS x y z
SIZE 4 4 4
TYPE F F F
COUNT 1 1 1
WIDTH 1430
HEIGHT 1
VIEWPOINT 0 0 0 1 0 0 0
POINTS 1430
DATA ascii
-0.075510293 -0.14539118 1.1833156
-0.065829061 -0.14372316 1.1833634
-0.054801311 -0.14365211 1.1835455
-0.044646703 -0.14431852 1.1843599
-0.034505591 -0.14479639 1.1868331
-0.025641974 -0.14738922 1.189
-0.017198885 -0.14853582 1.189
-0.09589681 -0.13654873 1.189
-0.061499044 -0.13863343 1.189
-0.055244904 -0.13863343 1.189
-0.044512752 -0.13651541 1.1887143
-0.035902135 -0.13631682 1.1886364
-0.14166495 -0.32110721 1.197
-0.13505967 -0.32222426 1.1967335
-0.12627418 -0.32075742 1.197
-0.15005991 -0.31271225 1.197
-0.1441361 -0.31344759 1.1966002
-0.13512205 -0.31423503 1.1948004
-0.12462431 -0.31418222 1.1946002
-0.11628896 -0.31429026 1.1950001
-0.15005991 -0.30536667 1.197
-0.1448147 -0.30486134 1.1941113
-0.13617142 -0.30811134 1.1930001
-0.12445774 -0.30852968 1.1930001
-0.064639844 -0.30362737 1.1956667
-0.16139309 -0.29235446 1.197
-0.1545722 -0.29424331 1.1970003
-0.14432913 -0.29493344 1.1930001
-0.13753104 -0.29493347 1.193
-0.061705936 -0.29807106 1.1930001
-0.055129576 -0.29756182 1.1965556
-0.049320389 -0.29907045 1.197
-0.16125318 -0.28787717 1.197
-0.15413693 -0.28477126 1.1960591
-0.14520068 -0.28569499 1.1930003
-0.13826314 -0.28719407 1.1930001
-0.15005991 -0.27808306 1.197
-0.14454918 -0.27547425 1.1948001
-0.13805395 -0.27192447 1.1930001
-0.14447466 -0.26575905 1.1961113
-0.1370081 -0.26460344 1.1930001
-0.14218964 -0.25762033 1.197
-0.13724075 -0.25491786 1.1936153
-0.13576719 -0.24535298 1.1943334
-0.13416314 -0.23488887 1.1939412
-0.12565301 -0.23382518 1.193
-0.1605536 -0.22141707 1.197
-0.1531221 -0.22234313 1.1963334
-0.14437899 -0.22383775 1.1945001
-0.13488597 -0.22532395 1.1935221
-0.1247192 -0.22499135 1.1930001
-0.16186176 -0.21364805 1.1958001
-0.15494594 -0.21461937 1.1942002
-0.1476759 -0.21607535 1.193
-0.12278436 -0.21523871 1.1930001
-0.16193365 -0.20539273 1.1959093
-0.15503465 -0.20476079 1.1934707
-0.14746672 -0.20371094 1.193
-0.15292957 -0.1967829 1.1954615
-0.14521529 -0.19564095 1.1934001
-0.13909982 -0.19139299 1.1930001
0.0087155281 -0.19209023 1.1930001
0.014001402 -0.19421697 1.1951817
-0.14416943 -0.18750423 1.1960001
-0.13811226 -0.1838863 1.1934999
-0.0020917268 -0.18093435 1.1930001
0.0049951947 -0.18572819 1.1953532
0.01469118 -0.1888866 1.197
-0.1347539 -0.177844 1.1956668
-0.1244206 -0.17391944 1.1944546
-0.11678807 -0.17117296 1.1930001
-0.011504496 -0.17361331 1.1930001
-0.0052379076 -0.17482923 1.1956002
0.0017489499 -0.17699374 1.197
-0.12121958 -0.16467044 1.1964285
-0.11537586 -0.16368788 1.1952224
-0.10625972 -0.16169046 1.193
-0.012288894 -0.16341615 1.193
-0.0083949603 -0.16606279 1.197
-0.12172691 -0.15530677 1.197
-0.11438134 -0.15425739 1.1970004
-0.10483287 -0.15409958 1.1958003
-0.097730115 -0.15397432 1.193
-0.025100719 -0.15165018 1.1930001
-0.012451297 -0.15443428 1.194778
-0.0094443299 -0.15215865 1.197
-0.11285497 -0.14605322 1.1970001
-0.104786 -0.1446033 1.1952503
-0.096010253 -0.14474747 1.1930002
-0.085611388 -0.14178918 1.193
-0.075302161 -0.14119154 1.1930001
-0.030330036 -0.14119154 1.1930001
-0.024891548 -0.14453831 1.1930001
-0.015600194 -0.14462727 1.1946002
-0.0083949603 -0.14481306 1.197
-0.10403967 -0.13637014 1.1952858
-0.095124558 -0.13479166 1.193522
-0.084895313 -0.13520223 1.1955605
-0.074689806 -0.13705939 1.1957502
-0.065248623 -0.13706595 1.195182
-0.055136919 -0.13460673 1.1946473
-0.045420982 -0.13245341 1.1948181
-0.033327483 -0.13345359 1.1932857
-0.02511948 -0.13502806 1.1940002
-0.016719367 -0.13591059 1.1959475
-0.0094443299 -0.13851684 1.197
-0.093993567 -0.12817304 1.1969999
-0.085698545 -0.12872271 1.197
-0.033789709 -0.12669393 1.1970003
-0.025534667 -0.12599437 1.1970003
-0.018139109 -0.1275734 1.1969999
-0.14431599 -0.331451 1.2060001
-0.16528498 -0.32105461 1.2060002
-0.15502183 -0.32413724 1.2056669
-0.14500353 -0.32575557 1.204
-0.13804169 -0.32877105 1.202
-0.12539664 -0.32244852 1.202
-0.17418456 -0.31517172 1.2080001
-0.16489904 -0.31499794 1.2057501
-0.15531337 -0.31525382 1.2023476
-0.14647172 -0.31823352 1.202
-0.17127611 -0.30343363 1.2060002
-0.16473426 -0.30506143 1.2049472
-0.1550391 -0.30471572 1.2023476
-0.061184321 -0.30487368 1.2033334
-0.056558277 -0.30390951 1.2042857
-0.17265868 -0.29513818 1.2060002
-0.16579051 -0.29575345 1.2019999
-0.1724844 -0.28410083 1.2060002
-0.16542709 -0.2847321 1.2039129
-0.15788825 -0.28201434 1.2033334
-0.17377415 -0.27524745 1.2080001
-0.1646305 -0.27534074 1.2060002
-0.1551068 -0.27501911 1.203565
-0.16317046 -0.26889643 1.2060001
-0.15464352 -0.26618674 1.2051579
-0.14752546 -0.26133081 1.202
-0.15118818 -0.2590287 1.2060001
-0.14588961 -0.25468579 1.2041335
-0.14350404 -0.24521202 1.2041177
-0.18563415 -0.23442943 1.2099997
-0.17401491 -0.23348716 1.2079999
-0.16458014 -0.23294963 1.2060002
-0.15501456 -0.23410685 1.2057648
-0.14465939 -0.23550044 1.2036363
-0.17320406 -0.225072 1.2060001
-0.16528538 -0.22495721 1.2041051
-0.1558329 -0.22689469 1.2029229
-0.14752546 -0.22866447 1.202
-0.17412259 -0.21511173 1.2060002
-0.16754676 -0.21563624 1.2019999
-0.17180476 -0.20669433 1.2060001
-0.16712342 -0.20528203 1.2030909
-0.16321254 -0.19912782 1.205
-0.15623806 -0.19373161 1.2035384
0.014752546 -0.19072935 1.202
-0.15286112 -0.18503882 1.2050771
-0.14610849 -0.18267657 1.2033333
0.0081665879 -0.18282619 1.202
0.014597976 -0.18431343 1.2028419
0.020054627 -0.18365991 1.204
-0.15239647 -0.17656243 1.2060002
-0.14425728 -0.17595971 1.2055001
-0.13559102 -0.17314167 1.2042857
-0.12792613 -0.17220713 1.2026668
-0.0021075066 -0.1717618 1.202
0.0060577658 -0.17406034 1.204105
0.013505146 -0.17649657 1.2055558
-0.14061558 -0.16704708 1.2060001
-0.1348107 -0.1653413 1.2055556
-0.12676644 -0.16528413 1.20375
-0.0041374615 -0.16597471 1.2035384
0.0026422732 -0.16849181 1.205
-0.13333224 -0.15753174 1.2060002
-0.12633723 -0.15522139 1.2032307
-0.0076511088 -0.15542379 1.204
-0.12215532 -0.14820401 1.2046667
-0.11557478 -0.14319521 1.2034545
-0.0046414239 -0.14371479 1.2036
-0.1110123 -0.13850106 1.2060001
-0.10660616 -0.13299209 1.2040001
-0.073923238 -0.13222064 1.2030908
-0.064688481 -0.1317853 1.2040001
-0.056997359 -0.13088107 1.2040001
-0.01264504 -0.13382667 1.202
-0.0068966681 -0.13464643 1.2035385
-0.10115085 -0.12817885 1.2044001
-0.094995588 -0.12507579 1.2040001
-0.085593119 -0.12489101 1.2035
-0.077065431 -0.12773755 1.2042223
-0.06026382 -0.12792847 1.2060001
-0.053870168 -0.12810731 1.2048572
-0.045068357 -0.12805523 1.2041538
-0.03573858 -0.12291119 1.2028888
-0.023042558 -0.12214245 1.2025715
-0.014285108 -0.12505393 1.2041334
-0.0087999804 -0.12848954 1.2046667
-0.032775059 -0.11947038 1.2060001
-0.026402278 -0.1193383 1.2046667
-0.0158589 -0.11947038 1.2060001
-0.18274029 -0.3318179 1.2190001
-0.17479829 -0.33268398 1.2168572
-0.16495256 -0.33426732 1.2153636
-0.15610218 -0.33238581 1.2113334
-0.14886092 -0.33343431 1.21
-0.18573296 -0.32422462 1.2165715
-0.17520078 -0.32491928 1.2112001
-0.16455144 -0.32711393 1.21
-0.15423548 -0.32947412 1.21
-0.1495681 -0.32989842 1.21
-0.19128954 -0.3109791 1.2190001
-0.18525033 -0.31512368 1.2143888
-0.16654037 -0.31080464 1.21
-0.19128954 -0.30670446 1.2190001
-0.18533562 -0.30478576 1.2146189
-0.17661764 -0.30523556 1.21
-0.056220632 -0.3086831 1.21
-0.18553793 -0.29520777 1.2167059
-0.17820878 -0.29489312 1.21
-0.18358172 -0.28587836 1.2155455
-0.17820878 -0.28534621 1.21
-0.18369268 -0.27451408 1.215
-0.16760114 -0.27155626 1.21
-0.19220553 -0.26456887 1.219
-0.18518731 -0.26484397 1.2144119
-0.1752817 -0.26494601 1.2110908
-0.16480224 -0.26453218 1.210222
-0.15699346 -0.26307011 1.21
-0.21479999 -0.25113431 1.2190001
-0.19358078 -0.25441584 1.2174375
-0.18487111 -0.25455987 1.2145003
-0.17535122 -0.25519815 1.213889
-0.16506547 -0.25527883 1.2142072
-0.1553981 -0.25544959 1.2116001
-0.1495681 -0.25246245 1.21
-0.20368595 -0.24215761 1.2190001
-0.19479311 -0.24493551 1.215579
-0.1844825 -0.24514419 1.2149473
-0.17506707 -0.24489288 1.2154707
-0.16485471 -0.24462333 1.2132
-0.15475944 -0.24489939 1.210421
-0.1495681 -0.24503711 1.21
-0.20246841 -0.23511624 1.2182858
-0.19557136 -0.23489478 1.2124001
-0.1652144 -0.23787692 1.21
-0.15699346 -0.23867249 1.21
-0.20197611 -0.22869253 1.2190001
-0.19527641 -0.22490159 1.2158501
-0.18562149 -0.22463295 1.2105713
-0.17884526 -0.22551899 1.21
-0.19216204 -0.21591227 1.2177501
-0.18505858 -0.21507318 1.21455
-0.1786634 -0.2144264 1.21
-0.18249042 -0.2066768 1.2173334
-0.17578356 -0.20472066 1.2127776
-0.16866189 -0.2004849 1.21
-0.17419104 -0.1998388 1.2190001
-0.16562688 -0.19519696 1.2151766
-0.16392931 -0.18523733 1.2155883
-0.15744807 -0.18533109 1.21
-0.16304176 -0.1773593 1.2140909
-0.15619166 -0.17416695 1.212
-0.1463221 -0.17226051 1.2104445
0.0095469002 -0.17078343 1.21
0.015927119 -0.1734453 1.2110909
0.020780506 -0.17315263 1.2155001
-0.15189798 -0.16825922 1.2173334
-0.14468616 -0.16489245 1.2135001
-0.0028817283 -0.16191909 1.2117144
0.0056052865 -0.16413763 1.2122273
0.013690391 -0.16655608 1.2165833
0.020304477 -0.16991641 1.2190001
-0.14265978 -0.15715601 1.2162001
-0.13571601 -0.15399507 1.2126
-0.12856492 -0.15087609 1.2120001
-0.0028362356 -0.15527791 1.2145833
0.0042705564 -0.15655582 1.2172142
0.011755223 -0.15816119 1.2190001
-0.13168447 -0.14629249 1.2155715
-0.12577017 -0.14477345 1.2131875
-0.11915946 -0.14178914 1.21
-0.0015948757 -0.14689405 1.2142501
-0.12329014 -0.13822253 1.2168572
-0.11520978 -0.13585487 1.2135295
-0.10867218 -0.13132524 1.2113334
-0.0026561904 -0.13328566 1.2138751
-0.11007164 -0.12930745 1.2190001
-0.10410225 -0.12520887 1.2150909
-0.096044391 -0.12155695 1.2127779
-0.083800562 -0.12198815 1.21
-0.074802689 -0.1233632 1.212579
-0.064972691 -0.12409946 1.2116665
-0.054853037 -0.12290559 1.2129413
-0.04544634 -0.12300761 1.2131332
-0.039313242 -0.12112552 1.2120001
-0.013789967 -0.12198816 1.21
-0.0052161668 -0.12388175 1.2134545
0.0010686567 -0.12289552 1.2190001
-0.091054633 -0.11749034 1.2162001
-0.084741667 -0.11669139 1.2150556
-0.075051792 -0.1151305 1.2166315
-0.065059341 -0.11432637 1.2148697
-0.055748001 -0.11737087 1.2171251
-0.044883579 -0.11862089 1.2190001
-0.034830667 -0.11722472 1.2112
-0.023372352 -0.11534196 1.2145716
-0.014858854 -0.11589478 1.2152631
-0.006134639 -0.1157983 1.2174375
-0.067187294 -0.10877724 1.2165
-0.19469628 -0.33437967 1.2270001
-0.18588069 -0.33527446 1.2242
-0.17710097 -0.33702746 1.2243334
-0.20299427 -0.32439134 1.2270001
-0.1950396 -0.32462427 1.2238886
-0.18762858 -0.32915413 1.223
-0.20115027 -0.3151713 1.2270001
-0.19581872 -0.31553283 1.22475
-0.20176496 -0.30533662 1.2270001
-0.19585396 -0.30479056 1.223941
-0.19483076 -0.29536691 1.224647
-0.1897729 -0.29055625 1.223
-0.19374013 -0.28529155 1.2270001
-0.18870074 -0.28519544 1.223
-0.20115028 -0.2721445 1.2270001
-0.19534662 -0.2748588 1.2256666
-0.18896879 -0.27635008 1.223
-0.2024411 -0.26482993 1.2270001
-0.19704461 -0.26529425 1.2233638
-0.22323652 -0.25313029 1.2266001
-0.21513955 -0.25452057 1.2249999
-0.20472543 -0.25518957 1.2247777
-0.19835022 -0.25731921 1.223
-0.22158802 -0.24847977 1.2270001
-0.21457466 -0.24568424 1.2237998
-0.20621276 -0.24695493 1.2229998
-0.213971 -0.23588756 1.2256668
-0.20725742 -0.23496869 1.2229998
-0.21244483 -0.22750419 1.2270001
-0.20571044 -0.22446316 1.2244736
-0.20209758 -0.2177466 1.2252858
-0.19677891 -0.21484339 1.2243334
-0.1897729 -0.21121618 1.223
-0.19198911 -0.20789781 1.2262001
-0.18571812 -0.20437776 1.2245386
-0.17905128 -0.20049454 1.223
-0.18305874 -0.1964976 1.2265002
-0.17564376 -0.194343 1.2241427
-0.16832964 -0.19191724 1.223
-0.17353979 -0.18601769 1.2247498
-0.16832964 -0.1897729 1.223
-0.17103153 -0.1796369 1.2270001
-0.16493462 -0.17423604 1.2243334
-0.157608 -0.17047396 1.223
0.022515429 -0.17047396 1.223
-0.15422058 -0.16588126 1.2252859
-0.14919318 -0.16207083 1.2243334
0.016974548 -0.16371611 1.2254002
0.024058226 -0.16544501 1.2260771
-0.14409158 -0.15513857 1.2252858
-0.13830908 -0.15117502 1.223
0.006444552 -0.15356869 1.225
0.013429657 -0.15577884 1.2255002
-0.14091277 -0.14951813 1.2270001
-0.13564712 -0.14518915 1.2247778
-0.12973176 -0.1404534 1.223
-0.00107567 -0.14198844 1.2270001
0.0019355047 -0.14769956 1.2262001
-0.13123174 -0.13876143 1.2270001
-0.12432063 -0.13591401 1.2246001
-0.11674272 -0.13136061 1.2262002
-0.0010721633 -0.13830908 1.223
0.00107567 -0.13876143 1.2270001
-0.11267095 -0.12822784 1.2240001
-0.1063195 -0.12296433 1.2250001
-0.0010721633 -0.12973176 1.223
0.0010721633 -0.12329879 1.223
-0.10111298 -0.11939937 1.2270001
-0.0949862 -0.11677488 1.2252858
-0.084216982 -0.11216687 1.2263335
-0.076123595 -0.11043283 1.223
-0.06131319 -0.11079401 1.2270001
-0.054794293 -0.11388651 1.2255715
-0.045290731 -0.11621682 1.2258574
-0.037192233 -0.11545052 1.2262002
-0.024740409 -0.11079401 1.2270001
-0.015010287 -0.11043283 1.223
-0.0039328244 -0.11194263 1.2238889
0.0014318889 -0.11448565 1.2243334
-0.07450632 -0.1079999 1.2246001
-0.066196397 -0.10638507 1.2258002
-0.022566861 -0.10852461 1.2256669
-0.015757792 -0.10780749 1.2256669
-0.0075296895 -0.10864267 1.2270001
-0.20370927 -0.34132141 1.2360001
-0.19179012 -0.34132141 1.2360001
-0.189623 -0.34132141 1.2360001
-0.21346132 -0.33193055 1.2360001
-0.20513998 -0.33507171 1.235077
-0.19980986 -0.33481652 1.2320001
-0.21216106 -0.323551 1.2360001
-0.20645939 -0.32535934 1.2330002
-0.21346132 -0.314542 1.2360001
-0.20656048 -0.31511551 1.2326156
-0.21328074 -0.3057445 1.2360001
-0.20679167 -0.30423689 1.2331431
-0.2035687 -0.29585457 1.2345456
-0.19908983 -0.29269445 1.2320001
-0.20118099 -0.28678223 1.2360001
-0.19678572 -0.28491807 1.2320001
-0.20438038 -0.27466711 1.2335001
-0.19980986 -0.27973381 1.2320001
-0.23188183 -0.26113796 1.2360001
-0.22371832 -0.26183578 1.2352002
-0.21453086 -0.26281118 1.2344617
-0.20780858 -0.26564139 1.2330002
-0.23180714 -0.25455418 1.2356001
-0.2266978 -0.25552729 1.2333335
-0.23079827 -0.24813524 1.2360001
-0.22458425 -0.24505612 1.2336003
-0.22267157 -0.23784141 1.2360001
-0.21883704 -0.23366022 1.233143
-0.21524233 -0.22533529 1.2337779
-0.21095231 -0.2185232 1.2340001
-0.2048935 -0.21506071 1.2340002
-0.19764976 -0.2106104 1.2320001
-0.20100038 -0.20750174 1.2360001
-0.19496365 -0.20433673 1.2341335
-0.18900934 -0.20196997 1.2320001
-0.18681662 -0.19481532 1.2332002
-0.18286867 -0.18719487 1.2342857
-0.17633447 -0.18228354 1.2340001
-0.17210019 -0.17714977 1.2346667
-0.16578467 -0.17373078 1.2360001
-0.16092795 -0.16956837 1.2320001
-0.15541196 -0.16362457 1.2328001
0.024380686 -0.16320416 1.2328891
-0.15117474 -0.15838914 1.2346667
-0.14609125 -0.15344822 1.2344002
0.0081003997 -0.15066743 1.2320001
0.016380811 -0.15318756 1.2320002
0.023284851 -0.15684968 1.2353334
0.031423241 -0.15928333 1.2360001
-0.14194636 -0.14844772 1.2360001
-0.1383345 -0.14411348 1.2360001
0.0060461126 -0.14447366 1.2336472
0.014699444 -0.14543799 1.2354287
-0.13299035 -0.13803525 1.2333335
-0.12567292 -0.13401879 1.2342857
-0.11988592 -0.13068645 1.2320001
0.0041518938 -0.13692306 1.2346668
0.01191916 -0.13977924 1.2360001
-0.12027516 -0.12894364 1.2360001
-0.11505335 -0.12587102 1.2342223
-0.10908539 -0.12312607 1.2320001
0.0027080234 -0.1239633 1.2350001
-0.10368513 -0.11880587 1.2320001
-0.096124746 -0.1155657 1.2320001
-0.086546287 -0.11142609 1.2340001
-0.051482543 -0.11196553 1.2320001
-0.045257431 -0.1127257 1.2324446
-0.037881348 -0.11365107 1.2346667
0.0037872 -0.11413148 1.2340001
-0.082084052 -0.10908539 1.2320001
-0.07457488 -0.10613067 1.2328001
-0.064280011 -0.10345157 1.2344002
-0.055761576 -0.10522726 1.2340001
-0.047026508 -0.10857271 1.2360001
-0.021287804 -0.10643435 1.2346667
-0.014851689 -0.10416202 1.234182
-0.0051112855 -0.10428046 1.233273
0.0018053488 -0.10685223 1.2353334
-0.05634512 -0.097881585 1.2360001
-0.0050566131 -0.097881585 1.2360001
-0.21378088 -0.3410702 1.2410001
-0.20670924 -0.34161419 1.2410001
-0.19474186 -0.34270215 1.2410001
-0.22156435 -0.33180079 1.245
-0.21563983 -0.33478585 1.2417274
-0.20997307 -0.33835039 1.2410001
-0.22156435 -0.32525209 1.245
-0.21673568 -0.32618734 1.2423334
-0.22302246 -0.31425449 1.2442727
-0.21830887 -0.31739235 1.2420001
-0.22280291 -0.30507019 1.2446001
-0.21741199 -0.30298677 1.2428182
-0.21368532 -0.29533875 1.2446666
-0.2078716 -0.29421139 1.2414445
-0.21137749 -0.28668752 1.245
-0.20637347 -0.28484914 1.2433333
-0.2130826 -0.27417222 1.2443334
-0.20947103 -0.27554771 1.2423334
-0.24193807 -0.26158416 1.245
-0.23511282 -0.26443937 1.2431818
-0.22493075 -0.26687002 1.2424999
-0.21735458 -0.26837131 1.2434
-0.24193807 -0.25539929 1.245
-0.23755562 -0.25498903 1.243
-0.24121045 -0.24994205 1.245
-0.23496895 -0.24602933 1.2441429
-0.22901206 -0.24206738 1.2410001
-0.23102356 -0.23648082 1.245
-0.22611411 -0.23410229 1.243
-0.2229192 -0.22696713 1.2438571
-0.21757728 -0.22266018 1.243
-0.2131056 -0.21583425 1.245
-0.20819905 -0.2134296 1.2434001
-0.21064985 -0.20846695 1.245
-0.20522293 -0.2052194 1.2432855
-0.19800568 -0.20126952 1.2410001
-0.20382828 -0.19782531 1.245
-0.19500934 -0.19533291 1.2434003
-0.1882142 -0.19039008 1.2410001
-0.19100375 -0.18882085 1.245
-0.18460026 -0.1836074 1.2446363
-0.17897588 -0.1818794 1.2423334
-0.1811807 -0.17790635 1.245
-0.17483518 -0.17592487 1.2445
-0.16721521 -0.17200918 1.2434
-0.16262604 -0.16626421 1.245
-0.15758741 -0.16194794 1.244
-0.15171155 -0.15607736 1.245
-0.14734575 -0.15171155 1.245
0.027480088 -0.15361743 1.2427778
0.032483127 -0.15631056 1.2434
-0.14243422 -0.1462543 1.245
-0.13861415 -0.14079705 1.245
0.017407093 -0.14034469 1.2410001
0.022169439 -0.14573269 1.2436666
-0.13424835 -0.1375227 1.245
-0.12551674 -0.13206545 1.245
0.0076271254 -0.13400087 1.2427143
0.014598077 -0.13791037 1.2426001
0.020737549 -0.13861415 1.245
-0.1222424 -0.12879109 1.245
-0.11382077 -0.12191666 1.2432858
0.0065399334 -0.12858421 1.243
-0.1069621 -0.11896805 1.245
-0.092574537 -0.11290386 1.2423334
-0.086224549 -0.11023645 1.245
-0.034548946 -0.11165159 1.2445556
-0.028741516 -0.11278317 1.245
-0.081858747 -0.10805355 1.245
-0.075190239 -0.10461029 1.243
-0.044054445 -0.10432917 1.2425554
-0.035581268 -0.10761698 1.245
-0.024375716 -0.10587066 1.245
-0.015261013 -0.10134178 1.243
0.0054432238 -0.10429019 1.2418001
-0.063113861 -0.096790135 1.2436666
-0.054393899 -0.094022416 1.2431818
-0.046220601 -0.095989078 1.2442501
-0.014179732 -0.097948395 1.2442
-0.0054473146 -0.09475217 1.2423334
0.0025443789 -0.096670032 1.2436666
-0.2269991 -0.33074909 1.2590001
-0.23214923 -0.32387587 1.2584286
-0.22755679 -0.32398179 1.2570001
-0.23514317 -0.3142027 1.2575713
-0.2284513 -0.31361505 1.2508334
-0.2339267 -0.30485454 1.2576667
-0.22807604 -0.30397686 1.2527778
-0.2317819 -0.29690158 1.2589999
-0.2243928 -0.29524818 1.2555716
-0.21719417 -0.29214916 1.25
-0.22416317 -0.28485242 1.2587143
-0.2163341 -0.28458071 1.2526155
-0.2417154 -0.27261966 1.2590001
-0.2337019 -0.27398118 1.2551
-0.22519684 -0.27517539 1.2538668
-0.21660973 -0.27688053 1.25
-0.25385636 -0.26599732 1.2590001
-0.24622498 -0.26501995 1.2532222
-0.23998749 -0.26738334 1.25
-0.25330448 -0.25440824 1.2589999
-0.24683386 -0.25540847 1.2513636
-0.25275266 -0.24723402 1.2590001
-0.24468209 -0.24555588 1.2553334
-0.23889166 -0.24437083 1.25
-0.2417154 -0.23950796 1.2590001
-0.23617649 -0.23479423 1.2537501
-0.23174901 -0.22549956 1.2568334
-0.22620043 -0.22399905 1.2530001
-0.23067817 -0.21964094 1.2590001
-0.22482724 -0.21530269 1.2581054
-0.21682085 -0.21333903 1.2533334
-0.22332002 -0.20713206 1.2589999
-0.21555266 -0.20531997 1.2562858
-0.20930417 -0.20163333 1.25
-0.2122993 -0.19575398 1.258
-0.20463261 -0.1926247 1.2533847
-0.19874252 -0.19105417 1.2525001
-0.21081115 -0.18873669 1.2590001
-0.2046303 -0.1882952 1.2590001
-0.19549035 -0.1855734 1.2558889
-0.18848333 -0.18300417 1.25
-0.1933161 -0.17898054 1.2576667
-0.18479075 -0.17488442 1.2546875
-0.176696 -0.17230171 1.251875
-0.18211435 -0.16886967 1.2590001
-0.17453459 -0.16675089 1.2567649
-0.16652507 -0.16381279 1.252846
-0.16207434 -0.15803085 1.2576667
-0.15469067 -0.15482229 1.25475
-0.14793751 -0.15012917 1.25
0.028491667 -0.15012917 1.25
0.031779166 -0.151225 1.25
-0.15260164 -0.14745212 1.2583333
-0.1455918 -0.14478685 1.2555455
0.026456224 -0.14471857 1.2538
0.031940181 -0.14648195 1.2563335
-0.14017287 -0.13796541 1.2590001
-0.13473132 -0.13472795 1.2557693
-0.1276529 -0.1313086 1.2516667
0.0098625002 -0.13150001 1.25
0.01558538 -0.13368233 1.2520002
0.024490975 -0.13458622 1.2545792
0.035319149 -0.13355052 1.2590001
-0.12429424 -0.12583348 1.2569001
-0.11968473 -0.1229766 1.2525001
0.0087850774 -0.12515761 1.2523333
0.015427581 -0.12782678 1.2570001
0.024339534 -0.12730707 1.2568182
-0.11454954 -0.11895128 1.256375
-0.10474111 -0.1165017 1.2576666
-0.096071124 -0.11367109 1.2548333
-0.088762499 -0.11067916 1.25
0.0077260635 -0.11589095 1.2590001
-0.091609038 -0.10926861 1.2590001
-0.084780864 -0.10538065 1.2559288
-0.07604596 -0.10191815 1.2531112
-0.034767803 -0.10390492 1.25
-0.026230542 -0.10332258 1.2507693
0.0089277783 -0.10502037 1.2551111
0.012140957 -0.10154255 1.2590001
-0.072722279 -0.097323887 1.2568334
-0.066026285 -0.094087176 1.2536155
-0.055887502 -0.090954162 1.25
-0.042250466 -0.093389362 1.25
-0.035169985 -0.095615439 1.2537501
-0.026054023 -0.097605944 1.2557501
-0.015567553 -0.095415086 1.2535
-0.0062162974 -0.091380082 1.2508334
0.0065365299 -0.09446837 1.2538824
0.012140957 -0.098231375 1.2590001
-0.060704783 -0.089401588 1.2590001
-0.055057298 -0.089188561 1.256
-0.044486586 -0.087190755 1.2565385
-0.036402415 -0.088250525 1.2583333
-0.0051096114 -0.087843187 1.2568183
0.00441051 -0.087076962 1.2573334
-0.23159429 -0.33132389 1.2640001
-0.22937807 -0.33354011 1.2640001
-0.24279858 -0.31257325 1.2662858
-0.24224965 -0.30508417 1.2664
-0.23768888 -0.30195907 1.2640001
-0.24122009 -0.29791236 1.268
-0.23547472 -0.29406354 1.265
-0.22937807 -0.29143205 1.2640001
-0.23331921 -0.28459054 1.2653333
-0.22937806 -0.28699961 1.2640001
-0.25455946 -0.27012205 1.268
-0.24821588 -0.27148613 1.2640001
-0.23602672 -0.27813476 1.2640001
-0.25407761 -0.26561457 1.2656
-0.2590059 -0.25567108 1.268
-0.26192522 -0.24749878 1.266
-0.25438565 -0.24467304 1.2657499
-0.24710779 -0.24156725 1.2640001
-0.24384387 -0.23520811 1.2662222
-0.2414638 -0.22590707 1.2673334
-0.23658079 -0.22439164 1.2640001
-0.24122009 -0.21787621 1.268
-0.2353735 -0.21454276 1.2651111
-0.22937807 -0.21164837 1.2640001
-0.23375441 -0.20573774 1.2664615
-0.22588006 -0.2037123 1.2642667
-0.218297 -0.20167542 1.2640001
-0.22336064 -0.19727629 1.266
-0.21736072 -0.19406946 1.265
-0.2130931 -0.18589891 1.266
-0.20545624 -0.18370439 1.26425
-0.21009491 -0.17896974 1.268
-0.20358305 -0.17804046 1.2666668
-0.19444089 -0.17484736 1.265
-0.18837813 -0.17175654 1.2640001
-0.18367675 -0.1659281 1.2651999
-0.17571606 -0.16177055 1.2651428
-0.17230006 -0.15821962 1.268
-0.16475669 -0.15451561 1.2652308
-0.15845925 -0.15181062 1.2640001
-0.16092971 -0.14871949 1.266
-0.15570492 -0.14480428 1.2661818
-0.14782143 -0.14161603 1.2640001
0.029918879 -0.14294577 1.2640001
0.032158762 -0.14139494 1.265
-0.15006781 -0.13895166 1.268
-0.14367209 -0.13673589 1.2654999
-0.13732575 -0.13140182 1.2666668
0.029918879 -0.13740522 1.2640001
0.033634387 -0.1358989 1.2648889
-0.13293742 -0.12586862 1.2665454
-0.12692863 -0.12332465 1.2645
0.0088648535 -0.12189174 1.2640001
0.015113464 -0.12303625 1.2661538
0.024545498 -0.12296829 1.2662221
0.030013559 -0.1256123 1.268
-0.12330336 -0.11688304 1.2671111
-0.11484838 -0.11318053 1.2657499
-0.10536432 -0.11233456 1.2651428
-0.097986788 -0.11129575 1.2653333
0.0088648535 -0.11524309 1.2640001
0.01167194 -0.11783101 1.268
0.024455493 -0.11894263 1.268
-0.11171714 -0.10727069 1.268
-0.10404702 -0.10604791 1.2679999
-0.095450088 -0.1049407 1.2659999
-0.087540433 -0.10210412 1.2640001
0.014450973 -0.10115682 1.268
-0.091819264 -0.098044291 1.268
-0.084395528 -0.096606918 1.2666665
-0.075888038 -0.093811423 1.2658463
-0.069810718 -0.09197285 1.2640001
-0.024778575 -0.09267839 1.2656
-0.0166479 -0.091006763 1.2660002
0.013320073 -0.093226492 1.266
-0.070772715 -0.087076373 1.268
-0.065110624 -0.087676607 1.2659999
-0.055494752 -0.086937867 1.266
-0.043891441 -0.082232341 1.2651428
-0.034132451 -0.083866879 1.2656469
-0.025736598 -0.086473815 1.2673331
-0.014446687 -0.08704482 1.2675555
-0.0040724087 -0.083281785 1.2666667
0.0055433381 -0.083380826 1.2648
0.011103275 -0.085500717 1.2666668
-0.041870769 -0.078183472 1.268
-0.036048029 -0.077971734 1.268
-0.0033348401 -0.078924544 1.268
0.0044417777 -0.07810048 1.2666668
-0.25434986 -0.30360907 1.2770909
-0.2476258 -0.3038922 1.2734998
-0.25880778 -0.29914147 1.2780001
-0.24539319 -0.29567015 1.2770909
-0.23919529 -0.29201913 1.273
-0.24280235 -0.28473657 1.278
-0.23882329 -0.28532314 1.2729999
-0.25208551 -0.27673385 1.2780001
-0.24600582 -0.27730852 1.2755001
-0.2617451 -0.26472303 1.274111
-0.26401481 -0.25417477 1.2749999
-0.2614851 -0.24360287 1.2746667
-0.26104853 -0.23640019 1.2780001
-0.25485829 -0.23743805 1.2758571
-0.24832961 -0.23427366 1.2751428
-0.24667841 -0.22530079 1.2757777
-0.24433488 -0.21526542 1.2752222
-0.24288467 -0.20762557 1.2767501
-0.23682033 -0.20330755 1.27425
-0.23146498 -0.19903533 1.2755001
-0.22560392 -0.1940642 1.2746665
-0.21985134 -0.19083543 1.273
-0.22295563 -0.18766364 1.2780001
-0.21722461 -0.18498255 1.2744285
-0.20526785 -0.1757835 1.2771667
-0.19728874 -0.17234726 1.2738333
-0.19307601 -0.16801633 1.276
-0.18626875 -0.16333275 1.276125
-0.18150157 -0.15797357 1.2780001
-0.17450656 -0.15600683 1.2752726
-0.16799212 -0.15160079 1.2746667
-0.16383031 -0.14547536 1.2765
-0.15830554 -0.1419142 1.2746667
-0.15347861 -0.13613172 1.2763332
-0.14610454 -0.13308653 1.2757272
-0.13949959 -0.1305716 1.273
-0.14325617 -0.1257423 1.2775455
-0.13694873 -0.12419449 1.2729999
0.027899917 -0.12164363 1.273
0.031619906 -0.12238763 1.273
-0.14116788 -0.11988066 1.2780001
-0.13406505 -0.11794735 1.2765
-0.12601328 -0.11399659 1.2748749
-0.11941164 -0.11048367 1.273
0.015585981 -0.11473364 1.274579
0.024847565 -0.11597773 1.2749231
0.031835273 -0.11584129 1.2761817
-0.12212142 -0.10867686 1.2780001
-0.1151734 -0.10555478 1.2754999
-0.10564768 -0.10229969 1.2729999
0.013420451 -0.1062257 1.2755001
-0.1045688 -0.098966897 1.278
-0.095205441 -0.095362373 1.2754999
-0.084901221 -0.091600485 1.2742499
-0.07811977 -0.090395726 1.273
0.014507957 -0.098207712 1.273
-0.085148878 -0.088510022 1.2780001
-0.074501589 -0.085685223 1.2759999
-0.064854927 -0.082743749 1.2754999
-0.053939007 -0.08404576 1.2756922
-0.047987856 -0.081467755 1.273
-0.023821808 -0.082265086 1.2738333
-0.015667787 -0.083665118 1.27675
0.013792451 -0.084236123 1.2754999
-0.063861661 -0.079546981 1.2780001
-0.050417099 -0.079546981 1.2780001
-0.044740055 -0.074935846 1.2758571
-0.034512009 -0.073781528 1.2751875
-0.025738683 -0.078177623 1.2765714
-0.019046459 -0.079546981 1.2780001
-0.002905098 -0.076228447 1.275
0.004472753 -0.074916422 1.2754999
0.010633748 -0.077788606 1.2767501
-0.036972541 -0.067782991 1.2780001
-0.26206985 -0.3003118 1.2830001
-0.25532126 -0.3003118 1.2830001
-0.26196203 -0.29696557 1.2880001
-0.25449178 -0.29547191 1.2851876
-0.24786663 -0.29198891 1.2840002
-0.25262791 -0.28390509 1.2872858
-0.24774699 -0.28504616 1.2837143
-0.25644603 -0.27556702 1.2830001
-0.27106795 -0.25532126 1.2830001
-0.26431939 -0.24182412 1.2830001
-0.26258051 -0.23215054 1.2855
-0.25697708 -0.23333403 1.28425
-0.26120928 -0.22545296 1.2880001
-0.25166485 -0.22597995 1.2850001
-0.25131094 -0.21862708 1.2855
-0.24905705 -0.21411707 1.2855
-0.24419093 -0.2054079 1.286
-0.23844981 -0.2024574 1.2830001
-0.23348117 -0.19542098 1.2852223
-0.22832696 -0.19120976 1.2830001
-0.22477233 -0.18545608 1.2865715
-0.21736133 -0.18207198 1.2846668
-0.21145549 -0.1777126 1.2830001
-0.20548292 -0.17317396 1.2855
-0.20172495 -0.16904107 1.2855
-0.19557413 -0.16431211 1.2848753
-0.18783547 -0.16084115 1.2830001
-0.19082579 -0.15920968 1.2880001
-0.18498699 -0.15642871 1.2857778
-0.17769168 -0.15262514 1.2848752
-0.17250684 -0.14657155 1.2861251
-0.16654661 -0.14319462 1.2836251
-0.16269392 -0.13563728 1.2857778
-0.15709195 -0.13309699 1.2830001
-0.16146797 -0.12985186 1.2880001
-0.15453508 -0.12579334 1.2855003
-0.1478439 -0.12384894 1.2830001
-0.15092927 -0.11780763 1.2880001
-0.14397036 -0.11512673 1.2850001
-0.13524871 -0.11319458 1.2835001
-0.12709826 -0.11135157 1.2830001
0.024069935 -0.11180148 1.2830001
0.034163114 -0.11224899 1.2846668
-0.14227247 -0.10952722 1.2880001
-0.13503282 -0.10870359 1.2871667
-0.12513891 -0.10687389 1.286
-0.11574092 -0.10165727 1.284875
0.017696235 -0.10504746 1.2834547
0.024787532 -0.10478117 1.2852503
0.032705214 -0.10487241 1.2863334
-0.11396411 -0.095497534 1.287091
-0.10546157 -0.09391138 1.2848753
-0.096167266 -0.091668211 1.2830001
0.018033473 -0.094664223 1.2855
0.023147505 -0.097671181 1.2880001
-0.11178552 -0.089202583 1.2880001
-0.10404279 -0.088557355 1.2880001
-0.094071731 -0.086264662 1.2856923
-0.085064009 -0.083370283 1.2851877
-0.077646479 -0.082990199 1.2836251
-0.059612457 -0.082107723 1.2830001
-0.012372397 -0.082107723 1.2830001
0.016897749 -0.084486991 1.2850001
-0.08016941 -0.077911116 1.2880001
-0.073519804 -0.078024693 1.2857778
-0.065430194 -0.076393656 1.2853335
-0.055373549 -0.075264819 1.284667
-0.04761498 -0.071609937 1.2830001
-0.030368609 -0.071984857 1.2830001
-0.024676012 -0.074030437 1.2848182
-0.015289066 -0.078702368 1.2851429
-0.00338744 -0.07339453 1.2880001
0.0045070895 -0.071748011 1.2855
0.01361369 -0.07482107 1.2856923
-0.0508116 -0.068877943 1.2880001
-0.044608682 -0.067795508 1.2858572
-0.033295922 -0.066755041 1.2844287
-0.027439376 -0.068036057 1.2863334
0.0046420475 -0.067372411 1.2880001
0.010915085 -0.068125181 1.2880001
-0.26617354 -0.30015314 1.2920001
-0.26423594 -0.29417968 1.2956363
-0.25635719 -0.29184702 1.2920001
-0.2625711 -0.28644225 1.2965833
-0.25665921 -0.2861082 1.2920001
-0.26164293 -0.27976537 1.2920001
-0.25824493 -0.27976537 1.2920001
-0.2603814 -0.23081844 1.2970001
-0.25824493 -0.23219393 1.2920001
-0.2603814 -0.2262703 1.2970001
-0.25653219 -0.22457913 1.2924999
-0.26254514 -0.21648781 1.2948571
-0.25488797 -0.2151653 1.2945
-0.25080073 -0.20880929 1.2945001
-0.24544138 -0.20339732 1.2961667
-0.24218881 -0.19898142 1.2970001
-0.23792085 -0.19424796 1.293875
-0.23343529 -0.18714377 1.29575
-0.22572511 -0.18261963 1.293875
-0.21789244 -0.18044035 1.2945001
-0.22172216 -0.17851475 1.2970001
-0.21496253 -0.17542168 1.296
-0.20878576 -0.17178576 1.2920001
-0.21092029 -0.16771291 1.2970001
-0.20508458 -0.16438758 1.2945
-0.20175488 -0.15860011 1.2953334
-0.19486752 -0.15644212 1.2945
-0.18629538 -0.15228362 1.2931111
-0.18395235 -0.14681938 1.2965833
-0.17604139 -0.1440306 1.2936666
-0.17303109 -0.13722979 1.296375
-0.16760208 -0.13403349 1.2934999
-0.1633905 -0.12606955 1.2955714
-0.15800515 -0.12289289 1.2920001
-0.15389608 -0.11627155 1.2948571
-0.14866468 -0.11121261 1.2945001
-0.14412531 -0.10742979 1.2945
-0.13506511 -0.10418916 1.2946668
-0.125691 -0.10274339 1.2942222
-0.12289538 -0.096593641 1.2962857
-0.11811452 -0.093628183 1.293
0.025519034 -0.094318084 1.2936666
0.032889321 -0.096396804 1.2936666
-0.11436386 -0.084989056 1.2948124
-0.1053475 -0.083792575 1.293875
-0.096383236 -0.081801765 1.2934285
-0.08947961 -0.080418386 1.2920001
0.019255107 -0.084949002 1.2920001
0.022740733 -0.086699046 1.2970001
-0.10233329 -0.07845553 1.2970001
-0.094374053 -0.07845553 1.2970001
-0.084169485 -0.075843647 1.2945
-0.075009547 -0.073494472 1.2942222
-0.065693893 -0.071357161 1.2920001
-0.021562055 -0.072627887 1.2945001
-0.017322276 -0.074118219 1.29575
-0.00339796 -0.071357161 1.2920001
0.018537262 -0.074143939 1.2945
0.021603696 -0.076181456 1.2970001
-0.072088122 -0.066630349 1.2970001
-0.064997114 -0.066809937 1.2946666
-0.054944832 -0.067908227 1.2941428
-0.048704091 -0.066826545 1.2920001
-0.031418566 -0.063211761 1.2953334
-0.025249753 -0.066103078 1.2945
-0.017813573 -0.068601213 1.2970001
-0.0028367473 -0.065210119 1.2936666
0.0044276449 -0.062090002 1.2919999
0.013612817 -0.064649217 1.2937857
-0.0011370367 -0.057988871 1.2970001
0.0054203328 -0.056097899 1.2942222
0.01023333 -0.055714797 1.2970001
-0.26823369 -0.29106209 1.302
-0.26823369 -0.28877926 1.302
-0.2617867 -0.21422648 1.3040001
-0.2583414 -0.21344554 1.302
-0.25348711 -0.20631507 1.3060001
-0.24876614 -0.20228703 1.3036667
-0.24479604 -0.19489774 1.3042728
-0.2417645 -0.18791175 1.307
-0.23632275 -0.18425556 1.3036667
-0.22942542 -0.18148577 1.302
-0.23030646 -0.17989112 1.307
-0.22392473 -0.17541197 1.3041428
-0.21744052 -0.17178372 1.302
-0.22114004 -0.16843309 1.307
-0.21486057 -0.1649631 1.3042728
-0.20887986 -0.16094021 1.302
-0.20449644 -0.15543504 1.3047779
-0.19797252 -0.15228504 1.3028334
-0.1928924 -0.14688122 1.3038751
-0.18566047 -0.14252803 1.3032501
-0.17920294 -0.14039466 1.302
-0.18258139 -0.1367909 1.30575
-0.17710699 -0.13409947 1.3033637
-0.17203327 -0.12778293 1.3053335
-0.16602959 -0.12287634 1.3038751
-0.16211613 -0.1186282 1.3053334
-0.15580936 -0.11371607 1.3027143
-0.15239184 -0.10808744 1.307
-0.14479204 -0.1039807 1.3034286
-0.13582897 -0.10158638 1.302
-0.14093381 -0.099684887 1.307
-0.13459492 -0.097988635 1.3047779
-0.12667103 -0.093905032 1.3036667
0.0285355 -0.090172179 1.302
0.034639142 -0.091732554 1.3025556
-0.12368813 -0.085606597 1.306375
-0.11927839 -0.084465086 1.302
0.026305696 -0.084626831 1.3045001
0.034374099 -0.088226855 1.307
-0.12145516 -0.079060428 1.307
-0.11352425 -0.078094922 1.3036667
-0.10517976 -0.075451709 1.3040833
-0.095092528 -0.074529983 1.3029376
-0.086177208 -0.072480172 1.302
-0.078757979 -0.071909457 1.302
-0.01172147 -0.074617922 1.3045001
-0.0074345721 -0.073766239 1.3045001
0.023434725 -0.075727016 1.3038751
-0.1019765 -0.069894001 1.307
-0.09484525 -0.068564534 1.3035001
-0.084684975 -0.067515455 1.3053334
-0.076508746 -0.066611566 1.3025556
-0.061124049 -0.062836185 1.3032501
-0.055372722 -0.063377567 1.3050001
-0.047619071 -0.064380355 1.3036667
-0.032082494 -0.060727578 1.307
-0.024012679 -0.062627703 1.3042223
-0.014647137 -0.064863607 1.3046191
-0.0071442854 -0.064293087 1.3038751
0.018290663 -0.06372457 1.3038751
0.021770263 -0.067602396 1.307
-0.014895443 -0.058435969 1.307
-0.0022850316 -0.057178393 1.3045001
0.0038076558 -0.052953005 1.3036667
0.013960389 -0.055372722 1.3050001
0.0068748202 -0.049269542 1.307
0.01031223 -0.049269542 1.307
-0.26491696 -0.21142551 1.3150001
-0.25879201 -0.21048416 1.312
-0.27132395 -0.20897716 1.317
-0.265782 -0.20851533 1.317
-0.25639296 -0.20468487 1.3148572
-0.25176111 -0.19640899 1.3153334
-0.2495905 -0.19553173 1.312
-0.24314743 -0.18667871 1.3145001
-0.23609072 -0.18080871 1.3136667
-0.23329152 -0.17619181 1.31575
-0.22737993 -0.17211619 1.3132501
-0.22465573 -0.1657169 1.3162309
-0.21842821 -0.16237941 1.3136667
-0.21358173 -0.15746082 1.3153335
-0.20665908 -0.1527462 1.314
-0.20374365 -0.1479028 1.316
-0.19645049 -0.14474241 1.3148572
-0.1897808 -0.14147297 1.312
-0.19165862 -0.1385484 1.317
-0.18626148 -0.13530903 1.3142223
-0.1809234 -0.12906417 1.3145001
-0.1756015 -0.12468544 1.3149168
-0.16907744 -0.1207696 1.312
-0.17434007 -0.11799705 1.317
-0.16597041 -0.11461552 1.3153335
-0.15872577 -0.1127183 1.312
-0.17664921 -0.10968415 1.317
-0.16125494 -0.10891443 1.317
-0.15418178 -0.10457983 1.3157502
-0.14710695 -0.10152273 1.3130001
-0.15240324 -0.098138452 1.317
-0.14490528 -0.096216619 1.3160001
-0.13621287 -0.093340889 1.3145001
-0.12997109 -0.090864748 1.312
-0.13046642 -0.088901892 1.317
-0.12594545 -0.08338853 1.312
0.028754666 -0.081663251 1.312
0.034551624 -0.084068097 1.3136668
0.040307671 -0.08560095 1.3136667
0.026827376 -0.07455311 1.3141429
0.032327957 -0.079665333 1.317
-0.052908584 -0.060959894 1.312
-0.047732748 -0.061534986 1.312
-0.01035168 -0.060959894 1.312
0.024202136 -0.064533189 1.3145001
-0.031173389 -0.058883071 1.317
-0.024500094 -0.057356026 1.3151251
-0.014980918 -0.057155777 1.3145002
-0.0039141411 -0.05598148 1.314
0.0011501866 -0.051758401 1.312
0.018259963 -0.054116379 1.3134286
0.022706544 -0.058113355 1.317
0.0040360638 -0.046979137 1.3151251
0.013830732 -0.048399162 1.3145
-0.27003613 -0.20745264 1.322
-0.26483944 -0.20513351 1.325
-0.25806496 -0.20157488 1.324
-0.25380093 -0.19471154 1.3268001
-0.24523281 -0.18421157 1.32575
-0.2417683 -0.17579621 1.3280001
-0.23719014 -0.17405769 1.3226666
-0.23348141 -0.16610537 1.325
-0.22657537 -0.16167399 1.322
-0.22385859 -0.1572797 1.3265001
-0.21642776 -0.15352012 1.3233335
-0.20977055 -0.15182288 1.322
-0.21345973 -0.14648838 1.3262001
-0.2051346 -0.1441046 1.3241431
-0.19740838 -0.14100599 1.322
-0.20257312 -0.13854139 1.3280001
-0.19483466 -0.13517952 1.3255001
-0.18813676 -0.13173437 1.322
-0.20629369 -0.12632591 1.322
-0.1856211 -0.12556078 1.3252308
-0.17963776 -0.12284905 1.322
-0.18414664 -0.11866174 1.3244001
-0.17582977 -0.11374296 1.3220003
-0.16688928 -0.11010057 1.322
-0.17113876 -0.10701003 1.322
-0.16457139 -0.10430579 1.3220003
-0.15819713 -0.10256737 1.322
-0.16109452 -0.098511033 1.322
-0.15480305 -0.096193127 1.3219999
-0.1462599 -0.092484474 1.322
-0.13791545 -0.091557309 1.322
-0.14255126 -0.089239396 1.322
-0.13435997 -0.086343475 1.3250002
-0.12864383 -0.082285687 1.322
0.041462243 -0.081755012 1.3260001
0.028973833 -0.073014058 1.322
0.034240037 -0.075895734 1.3256924
0.042144522 -0.076139554 1.3280001
0.028245032 -0.064223431 1.324
0.032365132 -0.066825844 1.3280001
-0.054470807 -0.059106618 1.322
-0.049834993 -0.059106618 1.322
-0.032209903 -0.057046454 1.3280001
-0.025434244 -0.0530582 1.3253332
-0.015300066 -0.052658495 1.324182
-0.0058105467 -0.053830836 1.3253334
0.025862981 -0.05418808 1.32575
-0.022120053 -0.047732748 1.3280001
-0.018022953 -0.048258305 1.3265001
-0.0011615832 -0.048783869 1.325
0.0046368651 -0.04268736 1.3232002
0.015733927 -0.043836158 1.3236669
0.023866376 -0.045404319 1.3280001
0.0058122999 -0.037196964 1.3260001
0.015816199 -0.03539557 1.3276471
0.022896195 -0.037642896 1.3280001
-0.26520023 -0.20153217 1.335
-0.26108581 -0.19903183 1.3355
-0.25585458 -0.19305952 1.3346667
-0.2528156 -0.18599521 1.3371668
-0.24891108 -0.1834697 1.3330001
-0.25219071 -0.17946593 1.3380001
-0.24624346 -0.17452081 1.336077
-0.24124289 -0.16695416 1.3379999
-0.2358875 -0.16233306 1.3360001
-0.23278113 -0.15729557 1.3370001
-0.22575045 -0.1536639 1.3357779
-0.22433637 -0.14513601 1.3376155
-0.21630748 -0.14281151 1.3337144
-0.20917881 -0.1414002 1.3330001
-0.22086477 -0.139063 1.3330001
-0.21443106 -0.13653 1.3352729
-0.2055539 -0.13425882 1.3344706
-0.19905096 -0.13283049 1.3330001
-0.20553333 -0.12909444 1.3346667
-0.19430077 -0.12590925 1.335143
0.037628811 -0.073154151 1.3330001
0.043238074 -0.072219275 1.3330001
0.036252797 -0.064740807 1.3339092
0.04278598 -0.06593208 1.3335001
-0.053755447 -0.057261236 1.3330001
-0.034016419 -0.055130061 1.3380001
-0.028472381 -0.051091548 1.3346667
-0.011685967 -0.050249655 1.3330001
-0.0070115803 -0.050249655 1.3330001
0.029214917 -0.050249655 1.3330001
0.03467967 -0.056037247 1.3351876
0.041927814 -0.057857543 1.3360001
-0.024109911 -0.046111088 1.335
-0.015220247 -0.045424394 1.3355001
-0.0045745266 -0.0452093 1.3348184
0.027475722 -0.04325835 1.3336251
0.031670459 -0.044964235 1.3379999
-0.0011729799 -0.037535362 1.3380001
0.0039741052 -0.03368013 1.3340001
0.011296433 -0.032331172 1.3330001
0.02583449 -0.034762304 1.3339092
0.0065276599 -0.02728237 1.3365716
0.015207974 -0.025734553 1.3345001
0.023821859 -0.026161976 1.3363335
0.017594701 -0.019940659 1.3380001
-0.26441696 -0.19560683 1.3455001
-0.25739151 -0.18426876 1.3452501
-0.25330612 -0.17503059 1.3460001
-0.24842367 -0.17071769 1.3430001
-0.25189877 -0.16911514 1.3490001
-0.24565899 -0.16534479 1.3472002
-0.23900476 -0.16129878 1.3430001
-0.24164937 -0.15728891 1.3490001
-0.23583728 -0.15464704 1.3443334
-0.22958584 -0.15187986 1.3430001
-0.23288245 -0.14764135 1.3430001
-0.22958584 -0.14717041 1.3430001
-0.21545748 -0.13304205 1.3430001
-0.20486122 -0.1283326 1.3430001
-0.035382047 -0.053068798 1.3452501
0.037130341 -0.051271848 1.3445001
0.041299768 -0.051917076 1.3460001
-0.033042446 -0.048379727 1.3460001
-0.025784146 -0.044318635 1.3455715
-0.013360984 -0.042053994 1.3450001
-0.0058868164 -0.041796397 1.3430001
0.035429608 -0.046842348 1.3470001
-0.020104596 -0.03902657 1.3490001
-0.014191479 -0.03902657 1.3490001
-0.0046177218 -0.035730943 1.3462728
0.029565584 -0.034296077 1.3490001
0.031859823 -0.037757158 1.3460001
-0.001773935 -0.027791649 1.3490001
0.0037160551 -0.023314815 1.3453078
0.012950997 -0.020015176 1.3430001
0.022440037 -0.02007479 1.3470001
0.0062041697 -0.015659897 1.34825
0.01416288 -0.014158935 1.3463752
0.021287221 -0.014191479 1.3490001
0.015374104 -0.0082783634 1.3490001
0.022469843 -0.0082783634 1.3490001
-0.27169946 -0.19554108 1.3573335
-0.26732308 -0.19306502 1.3552501
-0.26299879 -0.18602464 1.3550001
-0.26091442 -0.17632572 1.3590001
-0.25796092 -0.17522076 1.3560002
-0.25448626 -0.16886398 1.3565001
-0.24689738 -0.16143291 1.3540001
-0.24452338 -0.15668488 1.3540001
-0.22278993 -0.13700984 1.3590001
-0.21840923 -0.13531876 1.3540001
-0.046464209 -0.060760889 1.3590001
-0.043541752 -0.054959811 1.3570001
-0.038056538 -0.051135529 1.3565001
-0.033859275 -0.046333805 1.3552501
-0.027301153 -0.042732239 1.3540001
0.036203705 -0.043919247 1.3540001
0.04169865 -0.044081431 1.3590001
-0.021445021 -0.038124479 1.3590001
-0.014271694 -0.034959801 1.3565001
-0.0075177089 -0.032840516 1.3540001
0.037727352 -0.037727352 1.3590001
0.04169865 -0.036933091 1.3590001
-0.0032218751 -0.023909707 1.3540001
-0.0017816059 -0.016036645 1.3552501
0.0035610197 -0.013057074 1.3540001
0.0065362072 -0.0077210222 1.3552501
0.014534188 -0.0050246487 1.3555386
0.022553127 -0.0037984215 1.3540001
-0.27243733 -0.19186288 1.3650001
-0.26924625 -0.19026735 1.365
-0.26685295 -0.18428409 1.3649999
-0.26445964 -0.17530923 1.365
-0.22138025 -0.13761474 1.365
-0.051455949 -0.055045899 1.365
-0.046968512 -0.053550087 1.3649999
-0.044058479 -0.045799062 1.3649999
-0.03709615 -0.044276051 1.3649999
-0.0287196 -0.04188275 1.365
0.039489448 -0.04188275 1.365
0.04188275 -0.04188275 1.365
-0.043079399 -0.039489448 1.365
-0.035181507 -0.039010786 1.365
-0.025471549 -0.036070447 1.3649999
-0.0143598 -0.032309551 1.365
0.03709615 -0.03709615 1.365
0.04188275 -0.039489448 1.365
-0.021539699 -0.029916249 1.365
-0.014188849 -0.028548649 1.3649999
-0.0064619095 -0.025129652 1.365
-0.0027921833 -0.013163149 1.3650001
0.00119665 -0.01076985 1.365
0.0051854835 -0.0059832497 1.3650001
0.0119665 -0.00119665 1.365
0.017151983 0.0019944166 1.3650001
0.025129652 0.00119665 1.3650001
-0.27684522 -0.19138247 1.3730001
-0.28187057 -0.18295449 1.376
-0.27439982 -0.18493493 1.3716
-0.27366653 -0.17814842 1.3717145
-0.26783043 -0.17775293 1.3700001
-0.23040202 -0.14234261 1.376
-0.2269953 -0.1405209 1.3700001
-0.056094922 -0.053923588 1.3730001
-0.065139838 -0.044632852 1.3760003
-0.055279758 -0.045664255 1.3707502
-0.048761953 -0.044918645 1.3700001
-0.071171306 -0.037395094 1.376
-0.064643122 -0.035692088 1.376
-0.055358786 -0.034894928 1.3727002
-0.045918152 -0.034303483 1.3703337
-0.035536461 -0.033134393 1.3700002
-0.026422733 -0.031226866 1.3700001
0.0365909 -0.034178313 1.376
0.042220265 -0.034982506 1.376
-0.056695785 -0.027744746 1.376
-0.045437049 -0.026940549 1.376
-0.034922894 -0.02496279 1.3736001
-0.02382254 -0.024298746 1.3723999
-0.0145145 -0.023387717 1.3709232
-0.0084072333 -0.024020666 1.3700001
-0.033776212 -0.0180944 1.376
-0.02257492 -0.016026467 1.3760002
-0.014464016 -0.014461386 1.3748749
-0.0068169599 -0.014029006 1.3720001
-0.014073421 -0.0060314666 1.376
-0.0036188802 -0.0057298932 1.3760002
0.0038752565 -0.0030769054 1.3733335
-0.014303192 0.0043081907 1.3760002
-0.0038869451 0.0057634017 1.3760002
0.0048205708 0.0048238588 1.37525
0.013793205 0.0054662195 1.3727695
0.022639392 0.0055436892 1.3736001
-0.014992503 0.013613882 1.3760002
-0.0036188799 0.013269226 1.3760002
0.0036188802 0.012062932 1.376
0.01447552 0.01085664 1.376
-0.28208765 -0.19007623 1.381
-0.28208765 -0.18402284 1.381
-0.09241119 -0.064444654 1.3870001
-0.084840737 -0.064235561 1.3825001
-0.075388074 -0.063228711 1.3870001
-0.066471212 -0.062823392 1.3870001
-0.091195248 -0.059580896 1.3870001
-0.084872372 -0.056176271 1.3870003
-0.075307854 -0.05587589 1.3855002
-0.065484367 -0.055786464 1.3832502
-0.059323158 -0.059323158 1.381
-0.084710248 -0.044854548 1.3870004
-0.075083315 -0.046017881 1.3813753
-0.065376535 -0.049637742 1.381
-0.091195248 -0.036478102 1.3870001
-0.085115559 -0.034046233 1.3870003
-0.075782113 -0.034714505 1.3824121
-0.068201452 -0.031074034 1.381
0.036396567 -0.031543344 1.3840002
0.042463101 -0.030938007 1.3840001
-0.084304936 -0.024926702 1.3870001
-0.075349279 -0.024304265 1.3862503
-0.065394625 -0.024219124 1.3813753
-0.055535831 -0.023701061 1.3814288
-0.046247847 -0.022518585 1.3810002
-0.035109624 -0.021550044 1.381
-0.027845563 -0.020581502 1.381
0.03283029 -0.027966544 1.3870001
0.043005235 -0.026971703 1.3858001
-0.08456286 -0.013375303 1.3870001
-0.075388074 -0.01459124 1.3870003
-0.065556042 -0.014564282 1.3847504
-0.055859774 -0.014568556 1.3851254
-0.046106968 -0.014555735 1.3840003
-0.03526051 -0.014129819 1.381667
-0.02542421 -0.013317442 1.381
-0.083413251 -0.0048637465 1.3870001
-0.075388074 -0.0048637469 1.3870003
-0.065660588 -0.004863746 1.3870003
-0.055933088 -0.0048637465 1.3870003
-0.044989653 -0.004863746 1.3870004
-0.034015656 -0.0048588151 1.3858752
-0.02425627 -0.0048473086 1.3832502
-0.014621248 -0.0045633204 1.3810003
-0.0060533839 -0.0039346991 1.381
-0.081467755 0.0012159366 1.3870001
-0.074733339 0.0042090109 1.3870002
-0.065417401 0.0046205586 1.3870003
-0.055852022 0.0046205595 1.3870003
-0.044989649 0.004863746 1.3870004
-0.034038007 0.0048621027 1.3866253
-0.024296377 0.0048584868 1.3855002
-0.014662638 0.0052462658 1.381
-0.0060533835 0.00363203 1.3809999
-0.064444639 0.01094343 1.3870001
-0.054717153 0.013375303 1.3870001
-0.044989653 0.014591239 1.3870004
-0.034029793 0.014582033 1.3862503
-0.024241151 0.01454127 1.3825002
-0.014129821 0.015209485 1.3816668
-0.0063992911 0.016084705 1.3809999
0.005575425 0.015996713 1.3822002
0.014566254 0.015782192 1.3845001
0.022242201 0.012541008 1.3840002
-0.063228711 0.025534669 1.3870001
-0.052893244 0.025534671 1.3870001
-0.042931914 0.024038132 1.3870002
-0.034038011 0.024313144 1.3866253
-0.024285531 0.024290133 1.3851254
-0.01509357 0.023945021 1.3852857
-0.0051953658 0.022881716 1.3870001
0.0040531219 0.021481546 1.3870001
0.01094343 0.020670922 1.3870001
-0.062012773 0.03283029 1.3870001
-0.057149023 0.031857543 1.3870001
-0.045476031 0.030884791 1.3870001
-0.033911124 0.032019671 1.3870001
-0.024075544 0.033803042 1.3870003
-0.015807176 0.034046229 1.3870001
-0.022060562 0.044642247 1.3870001
-0.015633473 0.044989653 1.3870002
-0.015807176 0.052285273 1.3870001
-0.10236111 -0.065963402 1.397143
-0.097855866 -0.065278932 1.3933334
-0.071998879 -0.067117602 1.3920001
-0.10335725 -0.053516991 1.398
-0.095255971 -0.054411486 1.3930001
-0.089083359 -0.051253438 1.3920001
-0.11152778 -0.040444139 1.3980001
-0.10494892 -0.043788444 1.3952001
-0.095184967 -0.043931518 1.3920001
-0.089083359 -0.042711198 1.3920001
-0.11234484 -0.033499185 1.3980001
-0.10512175 -0.03422419 1.3942502
-0.09570796 -0.033820298 1.3920001
-0.11201801 -0.025246948 1.3980001
-0.10520689 -0.024464589 1.3953751
-0.095184959 -0.024406401 1.3920001
-0.087863043 -0.022575919 1.3920001
0.034569092 -0.02444059 1.394143
0.041281532 -0.022715837 1.3932002
-0.11152778 -0.0183837 1.3980001
-0.10500852 -0.014766573 1.3960001
-0.095184967 -0.01464384 1.3920001
-0.08664272 -0.017328545 1.3920001
-0.10388553 -0.0056339856 1.3974
-0.095290154 -0.0048839096 1.3935001
-0.088269822 -0.0048812795 1.3920001
-0.10356151 0.0045959246 1.398
-0.095190212 0.0046508918 1.3956001
-0.085666463 0.0051253438 1.3920001
