# .PCD v0.7 - Point Cloud Data file format
VERSION 0.7
FIELDS x y z
SIZE 4 4 4
TYPE F F F
COUNT 1 1 1
WIDTH 1474
HEIGHT 1
VIEWPOINT 0 0 0 1 0 0 0
POINTS 1474
DATA ascii
-0.20460847 -0.10742469 1.0868125
-0.19493131 -0.10493123 1.0846426
-0.18542635 -0.1038914 1.0814117
-0.17629416 -0.10244377 1.08
-0.45645666 -0.091481917 1.087
-0.44973001 -0.091839597 1.08
-0.19317676 -0.096543401 1.0864545
-0.18531983 -0.094972156 1.085129
-0.17790774 -0.094852202 1.0835713
-0.45353618 -0.086896956 1.0853332
-0.44861436 -0.084578291 1.0805714
-0.18582265 -0.088623106 1.087
-0.45073903 -0.079093739 1.087
-0.44491804 -0.07528837 1.0846363
-0.43823338 -0.072091803 1.082
-0.44120967 -0.06956438 1.087
-0.43549976 -0.06506326 1.0846428
-0.19836979 -0.065492846 1.0826668
-0.43318728 -0.055219475 1.086
-0.42890039 -0.055861197 1.08
-0.45297322 -0.040919729 1.0855
-0.44460785 -0.042520311 1.08175
-0.43450844 -0.047384709 1.0810001
-0.45202029 -0.036160309 1.0855
-0.44529468 -0.034757122 1.0821817
-0.45073903 -0.029541036 1.087
-0.44402987 -0.027843183 1.0845715
-0.43701521 -0.02433042 1.0813334
-0.18755275 -0.024349151 1.0849
-0.4345358 -0.015673835 1.0839
-0.42777377 -0.013666482 1.0805714
-0.19217481 -0.012899974 1.082
-0.18886556 -0.016450776 1.0857142
-0.42534918 -0.00513002 1.0841333
-0.41880119 -0.001578 1.08
-0.20253313 -0.0024651866 1.0816
-0.19533677 -0.0051449006 1.0842916
-0.1896344 -0.0076234937 1.087
-0.42275387 0.0034292568 1.0861
-0.41588286 0.0053849979 1.0830833
-0.40996438 0.0075743999 1.08
-0.21494098 0.0054637701 1.0836874
-0.20581526 0.0019912289 1.0855454
-0.19916376 0.00095293665 1.087
-0.41262159 0.01143524 1.087
-0.40510401 0.01470116 1.0841539
-0.39712706 0.018024852 1.082
-0.22317925 0.017302703 1.0826154
-0.21866916 0.011409817 1.0845
-0.40118635 0.020011669 1.087
-0.23432416 0.02635118 1.0825713
-0.22643013 0.023326345 1.086
-0.382063 0.034480173 1.0823333
-0.37737402 0.036317959 1.0806667
-0.23615278 0.033253912 1.0837779
-0.37340251 0.041531555 1.0816001
-0.3635712 0.048286799 1.08
-0.24427441 0.048286799 1.08
-0.36206684 0.050366253 1.0840001
-0.35618249 0.052833047 1.0825001
-0.34877482 0.058129136 1.087
-0.26285756 0.058492515 1.0805
-0.25511873 0.055847038 1.0835263
-0.24521434 0.05286821 1.0839472
-0.23859361 0.050180398 1.08
-0.3331497 0.063592233 1.0826668
-0.32345319 0.065451935 1.082
-0.31762362 0.068717517 1.0836667
-0.2715238 0.066979617 1.0821999
-0.26586291 0.063233823 1.0839999
-0.25737122 0.060613316 1.086
-0.31340212 0.075004101 1.0850768
-0.30523142 0.077061541 1.0803636
-0.29413918 0.078268804 1.08
-0.28593358 0.078584403 1.08
-0.27473763 0.077030942 1.0823636
-0.31161028 0.080999613 1.087
-0.30462345 0.082820982 1.0858749
-0.29506019 0.082809322 1.0857142
-0.28503317 0.083085015 1.0837778
-0.27740011 0.081385642 1.0836667
-0.33178765 -0.24138753 1.097
-0.32845148 -0.24201787 1.0955
-0.33268169 -0.23503281 1.0959091
-0.32534137 -0.2349491 1.0949999
-0.31505215 -0.23357296 1.0942942
-0.3053278 -0.23401642 1.0952272
-0.29496655 -0.23208581 1.0904446
-0.28953668 -0.23411383 1.09
-0.3506991 -0.22326156 1.0930002
-0.34438026 -0.22433625 1.0931363
-0.33513173 -0.22554621 1.0956364
-0.32540271 -0.22523433 1.092
-0.31724811 -0.22838043 1.09
-0.30400673 -0.22783439 1.09
-0.29622564 -0.22774339 1.09
-0.28858113 -0.22551373 1.09
-0.35069296 -0.21882476 1.09
-0.3450979 -0.21827692 1.0904446
-0.33620444 -0.21834986 1.0917143
-0.32871491 -0.21882476 1.09
-0.17224783 -0.15155603 1.0928
-0.16475464 -0.15268221 1.0937647
-0.15497187 -0.15241458 1.0934666
-0.14741895 -0.1512605 1.0955
-0.4436391 -0.14467806 1.0944
-0.4386051 -0.1404683 1.09
-0.44509843 -0.13552715 1.0955789
-0.4386051 -0.1347349 1.09
-0.44471857 -0.12477858 1.0941364
-0.43822289 -0.12517923 1.09
-0.44354948 -0.11641069 1.0961429
-0.43491626 -0.11460704 1.0918422
-0.4290494 -0.11371243 1.09
-0.44238353 -0.10674907 1.097
-0.4351261 -0.10728016 1.0917274
-0.42904943 -0.10989016 1.09
-0.21080238 -0.10252529 1.0930001
-0.2053802 -0.10236894 1.0913334
-0.19971344 -0.1003345 1.09
-0.45962757 -0.090778835 1.09
-0.21003705 -0.096866407 1.0940001
-0.20499593 -0.094698548 1.0948333
-0.19691861 -0.093667895 1.0921668
-0.46211007 -0.085894264 1.09475
-0.45717993 -0.084404156 1.0910001
-0.20484413 -0.086863749 1.0963751
-0.19405998 -0.08700718 1.0954667
-0.18497922 -0.085171096 1.09375
-0.17849381 -0.085777551 1.0940001
-0.45482093 -0.074643314 1.0941176
-0.44657716 -0.071718693 1.0908
-0.20116082 -0.073972262 1.0958
-0.45396459 -0.065103695 1.0958462
-0.44564471 -0.064560659 1.0924168
-0.4386051 -0.061156265 1.09
-0.19907258 -0.065395832 1.097
-0.45103887 -0.057702199 1.097
-0.44439986 -0.055075604 1.0954118
-0.43741062 -0.054706186 1.09
-0.44392765 -0.04815647 1.0913335
-0.4558053 -0.038222667 1.09
-0.44615731 -0.025192479 1.0913334
-0.1852686 -0.02207768 1.0949999
-0.44198602 -0.01435955 1.0922859
-0.43669397 -0.010511233 1.09
-0.19015777 -0.010511233 1.09
-0.18481457 -0.014138536 1.0943043
-0.17911309 -0.013922343 1.0955
-0.44142184 -0.0086553302 1.097
-0.43472004 -0.005060934 1.0929286
-0.42904943 -0.00095556665 1.09
-0.19158359 -0.0021050521 1.0916001
-0.18763967 -0.0052759261 1.0948334
-0.42550015 0.0053238715 1.09
-0.21239297 0.007973575 1.0913334
-0.20441721 0.0064879525 1.0935295
-0.19563048 0.0034141783 1.0945001
-0.18945555 0.00096170331 1.097
-0.42180043 0.013618842 1.0940001
-0.41599134 0.014515375 1.0923847
-0.40930104 0.017518722 1.09
-0.22088799 0.018247377 1.0955
-0.21525332 0.013532927 1.0947001
-0.2067662 0.010578737 1.097
-0.41181681 0.021439468 1.0950001
-0.4051798 0.02299135 1.092625
-0.3984713 0.023889167 1.09
-0.23071411 0.028721353 1.092
-0.22548918 0.026077326 1.0936
-0.3831822 0.039178234 1.09
-0.23452333 0.03509393 1.0937001
-0.22984709 0.03173621 1.097
-0.38398001 0.042238679 1.0950001
-0.37499768 0.046035521 1.0940001
-0.37116137 0.050830886 1.0940001
-0.36475468 0.052701693 1.0930001
-0.35707861 0.057440951 1.092
-0.25226963 0.058289565 1.09
-0.24545479 0.057511475 1.0913334
-0.23816986 0.057864089 1.0940001
-0.35217541 0.061290395 1.0958
-0.34486678 0.064434126 1.097
-0.33528078 0.067270912 1.0944446
-0.32636723 0.067568205 1.0906668
-0.2710624 0.069119327 1.09
-0.26477176 0.067228936 1.0903335
-0.25498766 0.064562209 1.0941154
-0.24501079 0.06245549 1.0960001
-0.23828502 0.062455487 1.0960001
-0.3332302 0.070685193 1.097
-0.32518375 0.073730767 1.0952106
-0.318055 0.077076882 1.0908
-0.27206841 0.076106779 1.0938182
-0.26521209 0.074866109 1.0958215
-0.2578623 0.071309164 1.0955
-0.3202472 0.081744783 1.097
-0.31437555 0.084347345 1.0933001
-0.30459434 0.088124111 1.0926001
-0.29485279 0.088075191 1.092
-0.2842623 0.088162467 1.0917778
-0.27493766 0.085606918 1.0952001
-0.30101314 0.091361813 1.097
-0.29430479 0.091875665 1.0965716
-0.28494087 0.092912443 1.0960768
-0.27697057 0.091361813 1.097
-0.32400495 -0.24399211 1.1036469
-0.31716487 -0.24222605 1.103
-0.34323087 -0.23314801 1.1034999
-0.33801657 -0.23377386 1.1010001
-0.31755409 -0.23840685 1.1010001
-0.16565055 -0.15015109 1.105
-0.45524639 -0.14571199 1.1065998
-0.44882265 -0.14285108 1.1010001
-0.16212182 -0.14823192 1.1051666
-0.15444575 -0.14751334 1.1043683
-0.14597245 -0.14790814 1.1051666
-0.45075306 -0.13802503 1.1010001
-0.4515067 -0.11279485 1.1060001
-0.44629687 -0.11381451 1.1015714
-0.45045325 -0.10946498 1.105
-0.445503 -0.10920081 1.1023334
-0.20230225 -0.082320541 1.1015
-0.19633739 -0.082487144 1.1017998
-0.18435511 -0.080112427 1.1010001
-0.17856385 -0.081077635 1.1010001
-0.46169209 -0.073034219 1.101
-0.45847476 -0.07239075 1.1010001
-0.20112662 -0.075417876 1.103
-0.19549279 -0.074647792 1.1048964
-0.18521027 -0.075084031 1.1045454
-0.17921259 -0.077497333 1.105
-0.46192908 -0.064745046 1.1023333
-0.45783129 -0.06273865 1.1010001
-0.20052435 -0.06877888 1.105
-0.19718337 -0.068965614 1.108
-0.45351028 -0.05470169 1.1017272
-0.44882265 -0.054051757 1.1010001
-0.45316401 -0.021445522 1.1048572
-0.18435511 -0.02316504 1.1010001
-0.45264754 -0.018455587 1.108
-0.44689223 -0.01447815 1.1010001
-0.44451091 -0.0067830621 1.1046667
-0.18347155 -0.004488688 1.1025293
-0.19343489 0.0070881415 1.1023333
-0.18640646 0.0038787567 1.1053123
-0.21311678 0.017398765 1.1025
-0.20547068 0.014433232 1.1043332
-0.19610292 0.0117243 1.1059091
-0.18941259 0.010684813 1.108
-0.22338888 0.025036043 1.103111
-0.21690576 0.020901861 1.1052858
-0.23294342 0.037430085 1.1040833
-0.22761375 0.032855615 1.105889
-0.3850385 0.04740319 1.1072499
-0.37656721 0.048641849 1.1023334
-0.24186532 0.045653295 1.108
-0.23740561 0.04433303 1.1073333
-0.38319626 0.051967047 1.108
-0.37530762 0.055496987 1.1062222
-0.36647367 0.057232399 1.1023334
-0.37202576 0.061680514 1.108
-0.36396149 0.064580135 1.1067777
-0.35541955 0.065835312 1.1043123
-0.34651038 0.066323712 1.101
-0.25191981 0.068529911 1.1010001
-0.2454579 0.067647688 1.1023332
-0.23840687 0.066599488 1.1010001
-0.36036962 0.070908308 1.108
-0.35357258 0.071990989 1.1075714
-0.34419626 0.074038841 1.1053498
-0.33590823 0.075417593 1.1037999
-0.32720619 0.078182012 1.1010001
-0.26058477 0.07846605 1.105
-0.25462297 0.074904315 1.1043634
-0.24584691 0.07225246 1.1062499
-0.23895128 0.070908308 1.108
-0.33334622 0.081232958 1.1075
-0.32564783 0.083877645 1.1060833
-0.31562367 0.088316716 1.1010001
-0.27074799 0.086056232 1.103
-0.26537097 0.084322773 1.104409
-0.25870201 0.081269331 1.108
-0.31379265 0.092179045 1.1068001
-0.30470747 0.094601668 1.1059284
-0.29510635 0.096240118 1.1044
-0.28451559 0.09660954 1.102
-0.27524257 0.094973385 1.1034706
-0.26784989 0.092130125 1.1062
-0.29140401 0.10004871 1.108
-0.28460458 0.10004871 1.108
-0.2768338 0.1000487 1.108
-0.46270508 -0.15130609 1.1135001
-0.45915592 -0.15110226 1.1120001
-0.17105958 -0.15150991 1.115
-0.16918045 -0.15059686 1.1155001
-0.46282184 -0.14798689 1.113
-0.16448209 -0.14659257 1.1158572
-0.15501069 -0.14344889 1.1159091
-0.14588164 -0.14359866 1.1155835
-0.13831958 -0.14028157 1.1190001
-0.18237865 -0.072171144 1.1125001
-0.17887945 -0.072333768 1.115
-0.20209415 -0.062483534 1.1136668
-0.19466852 -0.065222986 1.1145198
-0.18571584 -0.066649608 1.1162778
-0.17952117 -0.069650292 1.1190001
-0.20257866 -0.059697788 1.1163334
-0.19815998 -0.059840389 1.1190001
-0.46208048 -0.020471919 1.1120001
-0.46302703 -0.015569202 1.1166365
-0.4554005 -0.014823875 1.114091
-0.45232272 -0.0058815568 1.118
-0.4478583 -0.0048768967 1.113
-0.18091609 -0.0048834714 1.1135
-0.17920032 -0.0019602268 1.1170001
-0.16971126 -0.00490495 1.1190001
-0.18271586 0.0059943958 1.1128573
-0.1792645 0.0049007419 1.1173999
-0.20268235 0.018142268 1.1126001
-0.19493842 0.01589161 1.1153126
-0.18573695 0.012183436 1.1156365
-0.22246961 0.026760776 1.1140001
-0.21437982 0.022456944 1.1137143
-0.20482968 0.021692535 1.1161669
-0.19848697 0.021254783 1.1190001
-0.23104024 0.039968986 1.1120001
-0.22623236 0.035016041 1.11475
-0.40318689 0.040874582 1.1190001
-0.39579195 0.045452271 1.1175001
-0.24078877 0.048742667 1.1120001
-0.23385435 0.045838758 1.1151111
-0.22867763 0.041430388 1.1163334
-0.39290094 0.053720377 1.1182001
-0.38525459 0.056992035 1.1144167
-0.37921795 0.059466053 1.1120001
-0.24143839 0.051806618 1.115
-0.23697177 0.050918553 1.1170001
-0.38222989 0.062998727 1.117
-0.37537515 0.066139407 1.1148669
-0.36800712 0.068727158 1.1120001
-0.37200618 0.072180934 1.1176667
-0.36447662 0.073800772 1.1155385
-0.35550684 0.076267816 1.1153001
-0.34802261 0.078313217 1.1120001
-0.25118721 0.078313217 1.1120001
-0.24619177 0.076563783 1.1148889
-0.35119444 0.082403161 1.1190001
-0.34403038 0.082995124 1.1159168
-0.33520174 0.086385354 1.1142858
-0.32728487 0.08828406 1.1127501
-0.2622914 0.087432213 1.1134286
-0.25571677 0.083775252 1.1160001
-0.33294046 0.091559514 1.1170001
-0.32441536 0.092553765 1.1155454
-0.315341 0.096298955 1.1136364
-0.30610394 0.098460183 1.1120001
-0.27165914 0.097160377 1.1120001
-0.26645908 0.094507925 1.1162857
-0.31333658 0.10323264 1.1184286
-0.3049525 0.10284042 1.1147058
-0.29534563 0.10301831 1.1158464
-0.2846269 0.10407217 1.1157
-0.27501351 0.10319092 1.1153334
-0.26879126 0.10202296 1.1190001
-0.17620878 -0.15292415 1.1253999
-0.17143099 -0.14839804 1.126
-0.16492254 -0.14388195 1.125
-0.15536256 -0.14123656 1.1240001
-0.144721 -0.14078303 1.123
-0.15339948 -0.13879001 1.126
-0.14453389 -0.13740024 1.125077
-0.13691002 -0.13559325 1.1253333
-0.19296135 -0.060054295 1.123
-0.1832367 -0.062680684 1.12375
-0.17827508 -0.062583826 1.126
-0.20257145 -0.055147037 1.1251819
-0.19468054 -0.055552214 1.12555
-0.18435872 -0.055426788 1.1258421
-0.17801185 -0.055608135 1.126
-0.46271342 -0.01181396 1.123
-0.45877546 -0.010829464 1.123
-0.46265402 -0.0078910962 1.12525
-0.45644969 -0.0054873074 1.1238571
-0.44914263 -0.00098712661 1.126
-0.18032332 -0.0068993666 1.1240001
-0.17520241 -0.0044620661 1.1248571
-0.16784251 -0.0022980357 1.1240001
-0.17666446 0.0046268445 1.1248462
-0.1914846 0.01821319 1.123
-0.18378308 0.015493018 1.1245
-0.17805737 0.012331851 1.1252501
-0.2208205 0.027602727 1.1245
-0.21490562 0.025632417 1.1245
-0.20480007 0.025385635 1.1245
-0.19472881 0.022026835 1.1250001
-0.41442013 0.036777169 1.1251428
-0.40856612 0.038395371 1.123
-0.22442074 0.033539291 1.1252501
-0.41163182 0.040472195 1.126
-0.40491176 0.04438125 1.1250001
-0.39872116 0.048240338 1.123
-0.22838494 0.045087077 1.1241251
-0.40069014 0.050209329 1.123
-0.39805248 0.055053156 1.1242858
-0.23339985 0.051413365 1.1247143
-0.39219931 0.060819339 1.125
-0.38653407 0.066228665 1.1242001
-0.38201803 0.071073122 1.126
-0.37411752 0.07538832 1.1251428
-0.36376187 0.078866243 1.1244999
-0.35737228 0.079744227 1.123
-0.24349388 0.077879645 1.1245
-0.2376965 0.073411867 1.1257694
-0.36128837 0.083905764 1.126
-0.35418615 0.085768245 1.1245002
-0.34618795 0.088163547 1.1243334
-0.2544463 0.087554537 1.1242502
-0.24645117 0.08307188 1.1254001
-0.23987179 0.081931517 1.126
-0.34253296 0.091802776 1.126
-0.33494911 0.09359096 1.12375
-0.3256031 0.097226545 1.1248001
-0.31996143 0.09943416 1.123
-0.26338938 0.096089959 1.1246156
-0.25829142 0.092938408 1.1253999
-0.32081616 0.10266117 1.126
-0.31554136 0.10574453 1.1242858
-0.30371314 0.1082791 1.1242858
-0.29475769 0.10844059 1.1245
-0.28563926 0.10868672 1.1245
-0.2746501 0.10815883 1.1243638
-0.26720515 0.10409402 1.1247143
-0.28133109 0.11154531 1.126
-0.27501348 0.11194017 1.126
-0.17797211 -0.15098619 1.1316
-0.18057404 -0.14565641 1.138
-0.17526513 -0.14490589 1.1342106
-0.16702077 -0.14205682 1.13
-0.17159522 -0.13667759 1.138
-0.16456816 -0.13565511 1.1339999
-0.15535989 -0.13412963 1.1319132
-0.14553958 -0.13235553 1.1311765
-0.13868867 -0.13274486 1.13
-0.16062111 -0.12869641 1.138
-0.15513405 -0.12869641 1.138
-0.14421536 -0.12780961 1.138
-0.13574202 -0.12797789 1.1352
-0.19515477 -0.050852511 1.13
-0.18590885 -0.050852511 1.13
-0.20052698 -0.044894099 1.138
-0.19495994 -0.045945905 1.1339998
-0.18582785 -0.046204142 1.1328235
-0.1812859 -0.011887601 1.13
-0.17704032 -0.012312157 1.13
-0.46525288 -0.004303264 1.1340001
-0.45775735 -0.0016533934 1.1326667
-0.16602138 -0.00099414005 1.1340001
-0.45592451 0.00099764671 1.138
-0.17406699 0.004470123 1.1330001
-0.16800965 0.00099414005 1.1340001
-0.18348108 0.018844241 1.1313334
-0.17690285 0.014910054 1.1336666
-0.43555337 0.025540026 1.134889
-0.42797726 0.026344709 1.1340001
-0.21447356 0.028796161 1.1326667
-0.20488341 0.028135741 1.1326666
-0.19471882 0.026453856 1.13325
-0.1859432 0.022890469 1.1350667
-0.17857875 0.02095058 1.138
-0.43253943 0.034654636 1.1375
-0.42638341 0.035294015 1.135778
-0.41903791 0.037644066 1.13
-0.22302991 0.034750905 1.1325455
-0.2182263 0.030890813 1.1366667
-0.42331558 0.043130245 1.1375
-0.41477925 0.044834923 1.1332501
-0.4071503 0.047550403 1.13
-0.22733684 0.044674583 1.1323999
-0.41145799 0.053445358 1.138
-0.40561122 0.054679103 1.1340001
-0.24156901 0.055675346 1.1340001
-0.23556778 0.054977082 1.135
-0.22924131 0.051605858 1.132
-0.4013699 0.063208021 1.1372001
-0.39550784 0.065324649 1.1323999
-0.39322707 0.071269497 1.1370001
-0.38459966 0.074619412 1.1348002
-0.37710869 0.07740441 1.132
-0.23672061 0.077091001 1.131
-0.37254259 0.083481021 1.1370001
-0.36557844 0.083885372 1.1329091
-0.35888454 0.088478461 1.1340001
-0.25063023 0.088166364 1.13
-0.24416634 0.086784735 1.1318463
-0.2377007 0.08205381 1.1345
-0.35421017 0.092189208 1.1356
-0.34615391 0.093650796 1.1340001
-0.33655861 0.096953072 1.1334286
-0.32988089 0.0980727 1.13
-0.26053655 0.0980727 1.13
-0.25445703 0.094887644 1.133619
-0.24568428 0.091566272 1.1366668
-0.33321398 0.10126114 1.138
-0.3253966 0.10442571 1.1344
-0.31204951 0.1099603 1.13
-0.30412444 0.1099603 1.13
-0.2704429 0.1099603 1.13
-0.26364443 0.10463423 1.1344211
-0.25739282 0.10076232 1.138
-0.32124221 0.11073878 1.138
-0.31375986 0.11273407 1.138
-0.30417517 0.11426998 1.1364615
-0.29389414 0.11487971 1.1345
-0.28508645 0.11466733 1.1343077
-0.27446154 0.11533844 1.1333846
-0.26852977 0.11227921 1.1362857
-0.17704897 -0.14103901 1.141
-0.17434378 -0.13534984 1.1436667
-0.1683799 -0.13170308 1.141
-0.17224659 -0.12994041 1.149
-0.16445857 -0.1260145 1.1438891
-0.15498893 -0.12456654 1.1438891
-0.14554574 -0.12349757 1.1430001
-0.13516076 -0.12314811 1.1420667
-0.12948805 -0.12246157 1.1450001
-0.15210079 -0.11986751 1.149
-0.14392744 -0.11716548 1.1468463
-0.13500887 -0.11607905 1.1448097
-0.12781323 -0.11589371 1.1467144
-0.13195498 -0.10979461 1.149
-0.12893312 -0.10979461 1.149
-0.19405366 -0.041011345 1.141
-0.18340012 -0.041759629 1.1432222
-0.17967722 -0.045170251 1.1450001
-0.19344847 -0.036642473 1.1453335
-0.18551715 -0.037076309 1.1470002
-0.46712923 -0.0010002767 1.141
-0.46453828 0.0034187078 1.1458001
-0.45525497 0.0053426097 1.147154
-0.44824404 0.0090656104 1.149
-0.17154746 0.0070019364 1.141
-0.16664043 0.0058667795 1.1421429
-0.4518255 0.014213981 1.149
-0.44604838 0.015226552 1.1465386
-0.17220591 0.016238848 1.1434001
-0.16777822 0.012559566 1.1460001
-0.44607168 0.022103397 1.1460001
-0.19105284 0.029008023 1.141
-0.18356733 0.027857836 1.1429999
-0.17619511 0.02429436 1.1450002
-0.43693367 0.03425575 1.1426001
-0.22225516 0.038044702 1.1420001
-0.21571535 0.034526303 1.1453078
-0.20491646 0.031189755 1.1476668
-0.19462264 0.032048889 1.1463335
-0.18596616 0.031786058 1.1484287
-0.42622608 0.045750991 1.1427779
-0.41911593 0.049013555 1.141
-0.22413723 0.044025466 1.1456667
-0.42107263 0.051924091 1.1463333
-0.41526207 0.056414373 1.146143
-0.23324053 0.058275163 1.1432858
-0.22769961 0.053166151 1.1442001
-0.41198161 0.061444689 1.149
-0.40590048 0.066032581 1.1470001
-0.23523276 0.06275209 1.1483334
-0.4019087 0.071517587 1.149
-0.39451489 0.075480998 1.1480001
-0.38813889 0.077426322 1.1470001
-0.38210571 0.081448466 1.1470001
-0.37571916 0.086626939 1.149
-0.36738467 0.089336716 1.1450001
-0.23656134 0.087154821 1.1427143
-0.3636317 0.092670679 1.149
-0.35541615 0.095807396 1.1463333
-0.34590653 0.098564751 1.1455715
-0.25106946 0.099027388 1.141
-0.24513991 0.097458735 1.1444668
-0.23769379 0.093353257 1.1450001
-0.34268504 0.10215139 1.1480001
-0.33392403 0.10619805 1.1457275
-0.32823715 0.10941238 1.1450001
-0.26107222 0.10903016 1.141
-0.25447887 0.10577111 1.1440911
-0.24764781 0.1023488 1.1483334
-0.31436476 0.11704689 1.1467143
-0.30577549 0.11850517 1.1423334
-0.29708219 0.11903292 1.141
-0.28407857 0.11903292 1.141
-0.27207524 0.11903292 1.141
-0.26522872 0.11554475 1.1424545
-0.25763917 0.11171187 1.1480001
-0.30405515 0.12249303 1.1463335
-0.29410988 0.12244666 1.1458889
-0.28446832 0.123037 1.1466001
-0.27552727 0.12303828 1.1456667
-0.268677 0.12212931 1.1450001
-0.16099545 -0.12150425 1.155
-0.15795955 -0.12049345 1.155
-0.15380228 -0.11618076 1.1552856
-0.14551915 -0.11239105 1.1549999
-0.13686188 -0.11098547 1.153
-0.12634958 -0.11118764 1.153
-0.14234056 -0.10717805 1.1570001
-0.13435371 -0.10509584 1.1564283
-0.12810968 -0.10523643 1.1558571
-0.13084513 -0.09838742 1.1570001
-0.12881652 -0.09838742 1.1570001
-0.17891102 -0.04245346 1.153
-0.19271764 -0.031443402 1.1570001
-0.18404746 -0.033202156 1.1540909
-0.17909014 -0.035139721 1.1563333
-0.18561751 -0.029414797 1.1570001
-0.46505401 0.0082352813 1.1535714
-0.45644692 0.0064979787 1.153
-0.16403136 0.0091129504 1.155
-0.46387473 0.011833538 1.1570001
-0.45671594 0.015942402 1.1545
-0.17082463 0.019205136 1.153
-0.16500382 0.015467029 1.1556666
-0.45362413 0.021263551 1.155
-0.17390414 0.026073599 1.155
-0.16938865 0.02130037 1.1570001
-0.21415345 0.03729764 1.1549999
-0.20605423 0.03442904 1.1549999
-0.19912694 0.03335629 1.153
-0.1836165 0.032879822 1.1539999
-0.17864859 0.03208337 1.1556667
-0.22207919 0.046845958 1.1548181
-0.21794839 0.043591078 1.1563333
-0.42444131 0.055100877 1.1547143
-0.41948062 0.057615411 1.153
-0.23065537 0.059098732 1.1556667
-0.22567736 0.054461326 1.1562728
-0.41514724 0.0627781 1.155
-0.40937266 0.066712581 1.153
-0.24038988 0.067958325 1.1570001
-0.23403288 0.064840607 1.1556667
-0.40400395 0.072905354 1.155
-0.38915673 0.079852939 1.153
-0.39253542 0.080806173 1.1570001
-0.38409337 0.085055955 1.155
-0.37702715 0.088613175 1.153
-0.23543672 0.08724989 1.1545999
-0.3739562 0.092221826 1.156
-0.36497048 0.095543273 1.1541427
-0.357822 0.098047279 1.153
-0.23555927 0.09548004 1.1562001
-0.36007768 0.10041603 1.1570001
-0.35404697 0.10171525 1.1552857
-0.34527951 0.10571197 1.155
-0.33861688 0.10815524 1.153
-0.24482475 0.10490584 1.1543332
-0.23734698 0.10041603 1.1570001
-0.34182021 0.11055906 1.1570001
-0.33527011 0.11162193 1.1554
-0.32416239 0.11435445 1.1543332
-0.31840095 0.11826321 1.153
-0.26291981 0.11679829 1.1535
-0.25457975 0.11515069 1.1541998
-0.24726853 0.1124474 1.1555455
-0.31339779 0.1236024 1.1556667
-0.30446368 0.12643725 1.1538
-0.29497325 0.12728713 1.1548181
-0.2857624 0.12763201 1.1541427
-0.27502054 0.12789522 1.1547778
-0.26473412 0.12391665 1.1547998
-0.25748813 0.12302049 1.1570002
-0.28299063 0.13084513 1.1570001
-0.16105226 -0.11532672 1.1642001
-0.15630177 -0.11277024 1.1615001
-0.16089725 -0.1096561 1.169
-0.15419818 -0.10606362 1.1666472
-0.14592797 -0.10428553 1.1619999
-0.13791326 -0.10127209 1.161
-0.12671734 -0.1022899 1.161
-0.14399922 -0.097625509 1.1667777
-0.13518322 -0.094890371 1.1627142
-0.12649599 -0.094419055 1.1636667
-0.13343857 -0.085058704 1.1669999
-0.1254697 -0.084949881 1.165167
-0.11918633 -0.083534934 1.1620001
-0.1311774 -0.078911394 1.169
-0.12338689 -0.078331478 1.1680001
-0.11949405 -0.078641385 1.1650001
-0.17740226 -0.041802097 1.1630001
-0.17654893 -0.035430655 1.1614001
-0.19134828 -0.027989775 1.161
-0.18383031 -0.025069037 1.1615713
-0.17873041 -0.025532916 1.1650001
-0.18218799 -0.01933839 1.161
-0.17873041 -0.019405017 1.1650001
-0.4590323 0.00101781 1.161
-0.47136351 0.013294649 1.1663333
-0.46461228 0.016831124 1.1635001
-0.16386741 0.018829484 1.161
-0.15979616 0.01933839 1.161
-0.46447551 0.02148447 1.1670001
-0.4590323 0.02137401 1.161
-0.17216097 0.028242985 1.1643335
-0.16531402 0.024677873 1.1657621
-0.15898262 0.022130864 1.165
-0.21068667 0.039694589 1.161
-0.20543095 0.038229775 1.1645557
-0.19608623 0.035838135 1.1680001
-0.1842017 0.036026325 1.163
-0.1756386 0.033534605 1.1661999
-0.22086477 0.049872689 1.161
-0.2143044 0.045403965 1.1631175
-0.20870453 0.041945871 1.1670001
-0.43201694 0.054129783 1.1650001
-0.42744425 0.058148425 1.1636667
-0.22286531 0.055537712 1.1638571
-0.2167304 0.051714569 1.1643333
-0.42419076 0.063701227 1.1682
-0.41684753 0.066332102 1.164
-0.23193434 0.066512793 1.1632222
-0.22768062 0.063215077 1.1646363
-0.41505346 0.070712812 1.169
-0.40530181 0.076664492 1.1660001
-0.39898151 0.078371368 1.161
-0.23406805 0.07461755 1.1659603
-0.22751078 0.074812099 1.1689999
-0.40070593 0.080961041 1.169
-0.39418626 0.086295851 1.1672223
-0.38799778 0.08807198 1.1636667
-0.23286174 0.084613703 1.1658423
-0.22802319 0.083523102 1.169
-0.39250734 0.09120927 1.169
-0.38428152 0.093774728 1.1660908
-0.37532693 0.096403733 1.163154
-0.36844721 0.09770976 1.161
-0.2319039 0.094406419 1.1637694
-0.22916593 0.098214716 1.1670001
-0.37354809 0.10196992 1.169
-0.36526465 0.105165 1.1659414
-0.35625511 0.10724144 1.165
-0.34809101 0.10890567 1.161
-0.24188833 0.10731123 1.163
-0.23469523 0.10534822 1.1646522
-0.22916593 0.10230699 1.1670001
-0.35267159 0.11237271 1.1674001
-0.34522992 0.11283915 1.1655715
-0.33443403 0.11614665 1.169
-0.32603452 0.11734885 1.164
-0.25081083 0.11928891 1.1630001
-0.24427028 0.11520039 1.1658572
-0.23775901 0.11273056 1.169
-0.32301399 0.12266582 1.166
-0.31732219 0.12529846 1.1619999
-0.30560863 0.12937321 1.1620001
-0.26357272 0.12907104 1.1623334
-0.25430384 0.12445623 1.165
-0.24800725 0.12297879 1.169
-0.31257111 0.13015257 1.169
-0.30378315 0.13324419 1.1678572
-0.29507795 0.13317108 1.1639999
-0.28632104 0.13262154 1.1636667
-0.27565765 0.13272873 1.1646001
-0.26561168 0.13402481 1.1669999
-0.25859711 0.13083579 1.169
-0.1562064 -0.10228403 1.1738001
-0.15382521 -0.098886244 1.1750001
-0.14566256 -0.093858428 1.1745386
-0.14317088 -0.087262869 1.1766001
-0.1383722 -0.08455012 1.174143
-0.14204951 -0.078763522 1.177
-0.134738 -0.075526088 1.1751055
-0.12643306 -0.07490544 1.1754616
-0.13173115 -0.068445168 1.177
-0.17790109 -0.04010487 1.1730001
-0.17790109 -0.025708249 1.1730001
-0.47424245 0.017526321 1.1760001
-0.4699468 0.01953827 1.1730001
-0.47361302 0.022700407 1.177
-0.4699468 0.02262326 1.1730001
-0.16556114 0.029821569 1.1730001
-0.1597535 0.027830368 1.1756667
-0.20052435 0.038048211 1.1730001
-0.1947927 0.03779076 1.1756668
-0.18438491 0.038113084 1.1750001
-0.17337784 0.036697973 1.1758001
-0.16586296 0.033681873 1.175154
-0.21149321 0.047645956 1.1730001
-0.20548287 0.044671033 1.175889
-0.19811264 0.040241629 1.177
-0.22177649 0.057929259 1.1730001
-0.21463203 0.055412341 1.1748002
-0.2079151 0.05313959 1.177
-0.43233955 0.060878363 1.177
-0.42490849 0.066957168 1.1750001
-0.22403231 0.065265507 1.1751177
-0.21900731 0.064747751 1.177
-0.41501752 0.07455086 1.1756667
-0.40963915 0.079451419 1.177
-0.22334912 0.075134963 1.1740668
-0.21909332 0.07807564 1.177
-0.40276057 0.085562296 1.1758573
-0.3979637 0.086379722 1.1730001
-0.22477068 0.085743211 1.1743335
-0.40138447 0.091833465 1.177
-0.39555141 0.093738757 1.1750001
-0.3863093 0.0983769 1.1730002
-0.22687319 0.094519198 1.1755716
-0.38194177 0.10260829 1.1743335
-0.37585241 0.10441574 1.1746
-0.36300048 0.10797465 1.1730001
-0.22678739 0.10523931 1.1750001
-0.36320651 0.11143836 1.177
-0.35626361 0.11440646 1.1756667
-0.34434238 0.11695405 1.1736668
-0.3362639 0.11825795 1.1730001
-0.24234311 0.1175724 1.1730001
-0.23451971 0.11535443 1.1730002
-0.22695857 0.11410996 1.1750002
-0.34153792 0.12072489 1.177
-0.33414829 0.12134491 1.1755002
-0.32601532 0.12500897 1.1746
-0.31981063 0.12854125 1.1730001
-0.25262639 0.1278557 1.1730001
-0.24467061 0.12469701 1.1755265
-0.2342498 0.12346981 1.1766001
-0.2280359 0.12175673 1.177
-0.32090122 0.13104326 1.177
-0.3144784 0.13242559 1.1746
-0.30580455 0.13720164 1.1745001
-0.29473513 0.13823083 1.1745001
-0.28507599 0.13700284 1.1750001
-0.27512676 0.1379631 1.1734446
-0.26251796 0.13764931 1.1730002
-0.25604698 0.13377832 1.1753335
-0.2816914 0.14136162 1.177
-0.27550039 0.14239344 1.177
-0.26597401 0.14204015 1.1752859
-0.1540114 -0.09308622 1.1835716
-0.15318595 -0.08587081 1.1873335
-0.14624062 -0.084305353 1.1814001
-0.14404474 -0.075755045 1.1838
-0.13770066 -0.072128922 1.1810001
-0.12941791 -0.071438693 1.1810001
-0.14117852 -0.066495799 1.1878573
-0.13501473 -0.06456358 1.1836667
-0.12674625 -0.065474682 1.1833529
-0.14048144 -0.056197841 1.187
-0.13452019 -0.055622913 1.1869998
-0.12534283 -0.055054784 1.18775
-0.13237929 -0.048990764 1.189
-0.12508279 -0.048990764 1.189
-0.11987101 -0.044821337 1.189
-0.17764334 -0.03012665 1.1850001
-0.17680086 -0.025305567 1.1863333
-0.17972104 -0.019738151 1.1850001
-0.47867373 0.018981295 1.1810001
-0.47729328 0.02174221 1.1810001
-0.15790169 0.028048949 1.1850001
-0.16343634 0.036237013 1.1810001
-0.15921232 0.031219853 1.187
-0.20189194 0.045555107 1.1810001
-0.19666514 0.043542806 1.1844667
-0.18522388 0.040583529 1.187
-0.17407356 0.04065191 1.189
-0.21017469 0.05901457 1.1810001
-0.20379196 0.055383664 1.1834761
-0.19909012 0.055244904 1.189
-0.44091687 0.063583754 1.189
-0.43548527 0.065036222 1.1850001
-0.42935628 0.068450138 1.1830001
-0.21417643 0.065456718 1.1833634
-0.20603779 0.065489724 1.1875999
-0.4304933 0.071922608 1.189
-0.42464355 0.075106353 1.1853638
-0.41669631 0.07770475 1.1818001
-0.22052813 0.073509373 1.1810001
-0.21556148 0.075511605 1.1873635
-0.20951371 0.075397126 1.189
-0.42215443 0.080261461 1.189
-0.41268581 0.08503601 1.1865001
-0.40723443 0.085488588 1.1820002
-0.22052813 0.084898151 1.1810001
-0.21621878 0.084382787 1.1865001
-0.41138458 0.090379946 1.1850001
-0.4046751 0.094378605 1.1830001
-0.39722064 0.097595967 1.1818001
-0.22242603 0.095434658 1.1820909
-0.21689244 0.095194399 1.1871176
-0.40234965 0.10319331 1.189
-0.3951174 0.10327058 1.1843847
-0.38566756 0.1051544 1.1836668
-0.37625393 0.10814356 1.1823335
-0.22293307 0.10450255 1.1835716
-0.21604048 0.1047089 1.1879089
-0.37392521 0.11342576 1.187
-0.36509466 0.11561392 1.1838001
-0.35525671 0.11855742 1.1842
-0.34787536 0.11906448 1.1810001
-0.22245461 0.11546401 1.183
-0.21958978 0.11500669 1.189
-0.35246587 0.12327716 1.1883334
-0.34527889 0.12514253 1.1852858
-0.33550048 0.12652813 1.183
-0.32772431 0.12963708 1.1830001
-0.24434103 0.12941791 1.1810001
-0.23611468 0.12929195 1.1830001
-0.22594807 0.12453977 1.1838571
-0.34335226 0.13071153 1.189
-0.33424902 0.13133693 1.189
-0.32340771 0.13486676 1.1872857
-0.31596938 0.13655223 1.1830001
-0.30956766 0.13977134 1.1810001
-0.28679013 0.13925368 1.1810001
-0.25348079 0.13667536 1.183154
-0.24503219 0.13416672 1.1874999
-0.23557261 0.13237929 1.189
-0.31335679 0.14404663 1.1885
-0.30505353 0.14540318 1.1861764
-0.29530588 0.14471526 1.1852666
-0.28568321 0.14520304 1.1850002
-0.27534238 0.14741237 1.1832223
-0.26490209 0.14606418 1.1850001
-0.25624838 0.14287591 1.1876667
-0.27518216 0.15114172 1.189
-0.26997039 0.15114172 1.189
-0.13282464 -0.051944543 1.1930001
-0.12864119 -0.051247302 1.1930001
-0.13384089 -0.04712487 1.1945999
-0.12519149 -0.044260055 1.1950002
-0.11818255 -0.040788669 1.1930001
-0.17734353 -0.030431731 1.197
-0.12172692 -0.03777732 1.197
-0.11838068 -0.037712447 1.1950001
-0.17694844 -0.024776645 1.1943334
-0.18259038 -0.01783929 1.197
-0.17854281 -0.019216241 1.1956667
-0.15583363 0.02823831 1.1930001
-0.16001709 0.034513488 1.1930001
-0.15819012 0.031430252 1.1950001
-0.19520983 0.046500154 1.1945999
-0.18543516 0.04190642 1.1950001
-0.17884263 0.040788669 1.1930001
-0.20042966 0.057715349 1.197
-0.19918832 0.055086751 1.1946
-0.45087931 0.064711154 1.197
-0.44525459 0.066503063 1.1956668
-0.20185162 0.06379766 1.1930001
-0.19904542 0.064952232 1.1950001
-0.43502149 0.073598139 1.1950001
-0.42984983 0.07843975 1.1930001
-0.21021853 0.074256293 1.1930001
-0.20432408 0.074594617 1.1934003
-0.19904542 0.072283797 1.1950001
-0.43129107 0.081850857 1.197
-0.42453641 0.085428037 1.1960591
-0.41729948 0.086283728 1.1930001
-0.21186794 0.085719265 1.1937274
-0.20742838 0.083742999 1.1956667
-0.42079738 0.09129519 1.197
-0.41470605 0.094802856 1.1958572
-0.40893257 0.097265288 1.1930001
-0.21236624 0.094629213 1.1942308
-0.20882463 0.09129519 1.197
-0.40161151 0.10563219 1.1930001
-0.39508095 0.1074957 1.1943333
-0.38487771 0.10929272 1.1930001
-0.2115145 0.10657724 1.1935713
-0.39456311 0.11018385 1.197
-0.38459411 0.11228259 1.197
-0.37661907 0.11681013 1.1950001
-0.36918977 0.11818255 1.1930001
-0.21605921 0.114363 1.1948181
-0.37128147 0.12027428 1.1930001
-0.36330426 0.12110142 1.1960001
-0.35628241 0.12587968 1.1946001
-0.22172302 0.12341188 1.1930001
-0.34408903 0.13282464 1.1930001
-0.33429736 0.13435109 1.1954
-0.32668778 0.13731669 1.1956667
-0.24500085 0.1389055 1.1943334
-0.23606236 0.13514371 1.1950001
-0.22981203 0.13222063 1.197
-0.31480485 0.14328328 1.1930001
-0.30539209 0.14955845 1.1930001
-0.2952821 0.14955845 1.1930001
-0.28865826 0.14955845 1.1930001
-0.26146585 0.14955845 1.1930001
-0.25427365 0.14577985 1.1945999
-0.24667472 0.14185694 1.1956668
-0.30326793 0.15215865 1.197
-0.29487297 0.15005991 1.197
-0.28374806 0.15181966 1.1943334
-0.2740162 0.15374191 1.1930001
-0.26594231 0.15275499 1.1955001
-0.258145 0.15005991 1.197
-0.13498639 -0.042982969 1.2042857
-0.12855791 -0.041096378 1.202
-0.1772911 -0.033177625 1.2052001
-0.1321575 -0.038413778 1.2060001
-0.12522316 -0.034297984 1.2027059
-0.11830898 -0.03226519 1.2028
-0.17612322 -0.02372786 1.2030001
-0.12475669 -0.02854602 1.2060001
-0.11841312 -0.02854602 1.2060001
-0.18115476 -0.01412801 1.2028
-0.17670077 -0.014507878 1.2056365
-0.17656241 -0.0095153395 1.2060001
-0.1533027 0.02854602 1.2060001
-0.16122426 0.036881365 1.202
-0.15467766 0.034549955 1.2052
-0.14907366 0.034889579 1.2060001
-0.19245289 0.048202638 1.2040001
-0.18622272 0.045413673 1.2046667
-0.175357 0.042783085 1.205
-0.19521983 0.054907188 1.2044444
-0.18924955 0.054977521 1.2060001
-0.45627519 0.064278953 1.202
-0.19427457 0.064406253 1.2043998
-0.18864539 0.063586637 1.2060002
-0.44468391 0.071128346 1.202
-0.43898031 0.077096991 1.2046667
-0.20126688 0.079031497 1.202
-0.19617145 0.074037246 1.2040001
-0.43520012 0.081139006 1.202
-0.20406434 0.086139947 1.2037499
-0.19982214 0.084580801 1.2060001
-0.42220268 0.094997346 1.2040001
-0.41973221 0.096210659 1.2060001
-0.20717067 0.094792217 1.2036668
-0.21039474 0.10784052 1.2060001
-0.20779033 0.10326467 1.2044001
-0.40148002 0.1127516 1.202
-0.39393041 0.11509355 1.202857
-0.3858403 0.11635216 1.202889
-0.21371455 0.1153786 1.2042857
-0.37153658 0.12138326 1.204
-0.36466953 0.12557349 1.2037144
-0.22188492 0.12518567 1.2033335
-0.21779555 0.12264216 1.2060001
-0.34526953 0.1362056 1.2044001
-0.33617324 0.13780394 1.2036002
-0.23335874 0.13741574 1.2026668
-0.22741501 0.13358714 1.2056925
-0.33409417 0.14114422 1.2060001
-0.325037 0.14346027 1.2042223
-0.31823349 0.14541796 1.202
-0.25184706 0.14752546 1.202
-0.24519116 0.14622033 1.2042499
-0.23616497 0.14212316 1.2053335
-0.22942542 0.14061558 1.2060001
-0.31294894 0.1533027 1.2060001
-0.30470303 0.15556864 1.2041818
-0.29527757 0.15410572 1.204
-0.28594869 0.15468642 1.2036002
-0.27277309 0.15753174 1.2060001
-0.26354352 0.15648045 1.2044002
-0.25560996 0.15392095 1.2044616
-0.24634159 0.15118818 1.2060001
-0.13789967 -0.0413699 1.21
-0.1738508 -0.033211447 1.2133334
-0.16920398 -0.031703483 1.2190001
-0.13393487 -0.034431212 1.2111429
-0.11581468 -0.031873845 1.2120001
-0.17342485 -0.024470394 1.2136668
-0.16963764 -0.02453527 1.217
-0.13244066 -0.02691179 1.2141429
-0.12459214 -0.023214784 1.2125264
-0.11587413 -0.024501136 1.2154377
-0.17265414 -0.01524689 1.2132223
-0.16991641 -0.014961193 1.2190001
-0.1252649 -0.017545855 1.2182857
-0.18209828 -0.0088397218 1.21
-0.1750793 -0.0065700491 1.2138823
-0.16991641 -0.0032059699 1.2190001
-0.16564178 0.0032059699 1.2190001
-0.15185446 0.026548387 1.2113334
-0.14905569 0.028747216 1.2145001
-0.16335806 0.039248366 1.21
-0.15593269 0.039248366 1.21
-0.14667748 0.035873197 1.2137144
-0.18390138 0.048060119 1.2105715
-0.17507127 0.046005584 1.216
-0.16484359 0.044669144 1.2131001
-0.1544227 0.044830583 1.2111111
-0.14744893 0.043685965 1.2153
-0.1941203 0.058342166 1.21
-0.18480612 0.054664858 1.2108498
-0.17538357 0.054435771 1.2137085
-0.16496263 0.054276742 1.2140001
-0.15679242 0.053250827 1.2166922
-0.1844292 0.065138325 1.2113889
-0.17612588 0.063565291 1.2151668
-0.16627233 0.061652459 1.21775
-0.44584376 0.076329432 1.2126
-0.19332165 0.076808669 1.2122728
-0.18843132 0.072887816 1.2166667
-0.19655758 0.084732667 1.214
-0.20242964 0.095468998 1.21
-0.19733781 0.09450379 1.2135
-0.40627363 0.10925896 1.21
-0.2038098 0.105508 1.2115557
-0.19755062 0.10497248 1.2170768
-0.21217512 0.11724875 1.2121668
-0.20559229 0.11398636 1.2151333
-0.1979211 0.11213224 1.2181667
-0.39183688 0.12369233 1.2145833
-0.38493434 0.12509547 1.2140667
-0.37654006 0.12660713 1.2149334
-0.22170024 0.12835276 1.21
-0.21511482 0.12554665 1.2147778
-0.38207412 0.13090561 1.2140001
-0.37685326 0.13164873 1.2143334
-0.3436884 0.13896044 1.21
-0.22312093 0.13590837 1.2111429
-0.21728589 0.13442764 1.21575
-0.34260026 0.14477645 1.2165
-0.33579195 0.14616574 1.2151999
-0.32804781 0.14650765 1.2110001
-0.24079403 0.14850733 1.21
-0.23425265 0.14673939 1.21
-0.22578293 0.1433326 1.2143636
-0.33021492 0.15068059 1.2190001
-0.32566765 0.15006255 1.2140001
-0.31292617 0.15593269 1.21
-0.30019698 0.15805423 1.21
-0.295048 0.15835376 1.215
-0.28522527 0.15857673 1.2140001
-0.278382 0.15831548 1.2120001
-0.25208154 0.15645826 1.212
-0.24475521 0.15497367 1.2135333
-0.23496869 0.15245697 1.2161
-0.22976118 0.15068059 1.2190001
-0.30242985 0.16136716 1.2190001
-0.29494923 0.16136716 1.2190001
-0.28533131 0.16136716 1.2190001
-0.27492881 0.16090384 1.2155001
-0.26508808 0.16179048 1.2130002
-0.25631756 0.16169737 1.2143333
-0.17154613 -0.035381388 1.223
-0.166852 -0.02440377 1.2266924
-0.11257715 -0.020371104 1.223
-0.16726245 -0.015163703 1.2256668
-0.13087319 -0.013266596 1.2270001
-0.12461378 -0.013758486 1.2244545
-0.1154682 -0.015282639 1.2258888
-0.10702916 -0.01290804 1.2270001
-0.17112724 -0.004933354 1.2246001
-0.16774052 -0.0053709471 1.2256668
-0.13015607 -0.0086053601 1.2270001
-0.12477772 -0.0086053601 1.2270001
-0.11653093 -0.0080077657 1.2270001
-0.10563079 -0.0079599582 1.2270001
-0.17047396 0.0010721633 1.223
-0.16761488 0.0017869389 1.223
-0.14712483 0.027921831 1.2250001
-0.14299801 0.035426274 1.2246001
-0.13804431 0.039082676 1.2270001
-0.14300726 0.04564175 1.2250001
-0.13876143 0.043026801 1.2270001
-0.15326487 0.05597882 1.224
-0.14717391 0.052641202 1.2254002
-0.1811956 0.069690615 1.223
-0.17504841 0.068373859 1.2250001
-0.16430575 0.064434417 1.2250001
-0.15705536 0.061663501 1.2254002
-0.18547656 0.074792638 1.2258002
-0.19210821 0.085447021 1.2242308
-0.18900758 0.080543749 1.2250001
-0.19302006 0.095404483 1.2244116
-0.191991 0.10479046 1.2245384
-0.18716657 0.10649133 1.2270001
-0.20406842 0.11865274 1.223
-0.19390211 0.1152693 1.2253997
-0.18824224 0.11294535 1.2270001
-0.21121618 0.12544312 1.223
-0.20568883 0.12409759 1.224647
-0.1968476 0.12155071 1.2270001
-0.21228836 0.13509259 1.223
-0.20867997 0.13230741 1.2270001
-0.35131219 0.14188294 1.223
-0.34702352 0.14545684 1.223
-0.2240179 0.1477541 1.2237273
-0.21735898 0.14326188 1.2250001
-0.34202009 0.15117502 1.223
-0.33532545 0.15183473 1.2240001
-0.32915413 0.15331936 1.223
-0.24338108 0.15921625 1.223
-0.23468788 0.15711489 1.2233332
-0.22598512 0.1542927 1.2258571
-0.30408302 0.16487831 1.2256668
-0.29460749 0.16543701 1.2237999
-0.285124 0.16538492 1.2250001
-0.274979 0.16584884 1.2248182
-0.26568425 0.16762131 1.2247778
-0.25504091 0.16601154 1.2252222
-0.24561957 0.16415811 1.2250001
-0.23541579 0.16361062 1.2262001
-0.22911771 0.1613505 1.2270001
-0.28074986 0.17103153 1.2270001
-0.27429584 0.17103153 1.2270001
-0.2689175 0.17103153 1.2270001
-0.1641681 -0.020521013 1.2320001
-0.16376045 -0.01513302 1.2330002
-0.11124549 -0.012960641 1.2320001
-0.10908539 -0.014040694 1.2320001
-0.16497289 -0.0054104356 1.2348001
-0.13089859 -0.0043254732 1.2340001
-0.12480197 -0.0032439588 1.2343335
-0.11443773 -0.0041044364 1.2322669
-0.10739271 -0.0041045537 1.2324002
-0.12027516 0.0032506799 1.2360001
-0.11501013 0.0044668359 1.2347502
-0.10751323 0.0034914713 1.2360001
-0.11594092 0.01408628 1.2360001
-0.14364709 0.027001334 1.2320002
-0.13932689 0.02916144 1.2320001
-0.14220703 0.032041583 1.2320001
-0.13855331 0.034798056 1.2328001
-0.13811989 0.045608409 1.2328001
-0.15012741 0.059402931 1.2320001
-0.1445598 0.055722523 1.2330911
-0.13977924 0.050927319 1.2360001
-0.17092369 0.068153821 1.2340001
-0.16398926 0.066676937 1.2333335
-0.15325046 0.062900484 1.2328001
-0.14844772 0.061762918 1.2360001
-0.18370783 0.077086471 1.2326669
-0.17701739 0.072539777 1.2350001
-0.18613485 0.085493892 1.2344446
-0.18726429 0.095451474 1.2334547
-0.18493545 0.10436687 1.2336668
-0.18671198 0.11443555 1.233143
-0.20229609 0.12765318 1.2340001
-0.19580525 0.12413775 1.2340001
-0.2106104 0.13824683 1.2320001
-0.2061397 0.13595282 1.2334547
-0.35533753 0.14292705 1.2320001
-0.21360222 0.14532234 1.2345456
-0.34167561 0.1540619 1.2346667
-0.33517656 0.15478194 1.2346667
-0.32560977 0.15684532 1.2360001
-0.22273059 0.15677838 1.2333335
-0.21866873 0.15205188 1.2336
-0.31372568 0.16335282 1.2340001
-0.3099753 0.16524816 1.2320001
-0.29269445 0.16956837 1.2320001
-0.28535008 0.16913636 1.2320001
-0.27865374 0.16956837 1.2320001
-0.25489259 0.16956837 1.2320001
-0.24463207 0.16956837 1.2320001
-0.23317152 0.16836832 1.2320002
-0.22627118 0.16146797 1.2320001
-0.30664745 0.17011891 1.2360001
-0.29364479 0.17228603 1.2360001
-0.28475884 0.17320378 1.2337143
-0.27491629 0.17557622 1.2341819
-0.26479265 0.1754114 1.2338949
-0.25499779 0.17409195 1.2360001
-0.24498275 0.17282255 1.2346667
-0.23527434 0.17300139 1.2342224
-0.22754759 0.17228603 1.2360001
-0.15992767 -0.01305532 1.2410001
-0.16085824 -0.0054528667 1.244
-0.15920238 -0.0039891251 1.2410001
-0.12946525 -0.0010879433 1.2410001
-0.12581976 0.0057431231 1.2420907
-0.11532199 0.0097914897 1.2410001
-0.10615218 0.0085481266 1.2410001
-0.12184965 0.014143263 1.2410001
-0.11498296 0.015597829 1.2412666
-0.10590488 0.015315421 1.242412
-0.12095633 0.021795686 1.243
-0.11458439 0.024996232 1.2448099
-0.10368775 0.020737549 1.245
-0.13490498 0.035902128 1.2410001
-0.13457666 0.044131838 1.243
-0.14106999 0.059111584 1.2410001
-0.1371769 0.054966621 1.2432858
-0.16227537 0.068614073 1.2423334
-0.15448795 0.066364542 1.2410001
-0.14471146 0.063820072 1.2432222
-0.13861415 0.061121199 1.245
-0.17478544 0.076129809 1.2419231
-0.16826594 0.071595907 1.2436666
-0.17784242 0.085108958 1.2431818
-0.18204917 0.094288416 1.2410001
-0.17757723 0.095249079 1.2427143
-0.18168654 0.10226667 1.2410001
-0.17665304 0.10353696 1.2431818
-0.18212399 0.11396272 1.244
-0.17790635 0.11023645 1.245
-0.19407533 0.12777705 1.2427143
-0.1882142 0.12076171 1.2410001
-0.2017047 0.13468738 1.2410001
-0.19837102 0.13479407 1.245
-0.20528182 0.14552394 1.24225
-0.19973534 0.14079705 1.245
-0.32964683 0.15883973 1.2410001
-0.21448262 0.15569268 1.2419231
-0.2086328 0.15238833 1.2434
-0.32497093 0.16287652 1.2421429
-0.31807691 0.1654703 1.2434001
-0.22375031 0.16640812 1.242
-0.21894488 0.16480894 1.245
-0.30293569 0.17271779 1.243
-0.29265675 0.17515887 1.2410001
-0.28286529 0.17733476 1.2410001
-0.25240284 0.1784227 1.2410001
-0.24478726 0.17842272 1.2410001
-0.2346392 0.17834894 1.2415715
-0.225986 0.1747447 1.2416154
-0.2632823 0.18168654 1.2410001
-0.2423019 0.18227215 1.245
-0.23829991 0.18154453 1.245
-0.16038908 -0.017982772 1.256
-0.15722227 -0.01366786 1.2541429
-0.15723233 -0.0068887677 1.2526364
-0.12271054 0.027881507 1.2520001
-0.11506249 0.025752082 1.25
-0.10473779 0.025766069 1.2528638
-0.098990284 0.022281945 1.25
-0.13752708 0.031906284 1.2550001
-0.12271984 0.035911947 1.2566001
-0.11522621 0.03511861 1.25175
-0.10743599 0.034424461 1.2576667
-0.13344933 0.045949232 1.2521429
-0.12402204 0.042995676 1.2575001
-0.1153296 0.044245496 1.2566844
-0.13441344 0.054207221 1.2533334
-0.15475446 0.069147959 1.2520001
-0.14505415 0.068134971 1.2535
-0.1375536 0.063828781 1.25525
-0.17227231 0.078638457 1.2516667
-0.16535059 0.073879473 1.2546667
-0.15439591 0.071685031 1.2580001
-0.17364934 0.084184989 1.2537
-0.17458488 0.09552598 1.2525001
-0.16985416 0.099720836 1.25
-0.17253764 0.10646679 1.2520001
-0.16841047 0.10633826 1.2556
-0.18300328 0.11797565 1.253
-0.17509483 0.11453353 1.2561669
-0.16519059 0.11331559 1.2589999
-0.19081527 0.12782092 1.2533334
-0.18700966 0.12439229 1.2556666
-0.17438829 0.12030584 1.2590001
-0.16666222 0.12913562 1.2590001
-0.19379908 0.13539226 1.2556001
-0.18873669 0.13355052 1.2590001
-0.20180735 0.14682238 1.2545
-0.19630466 0.14337036 1.2579999
-0.34080416 0.15889584 1.25
-0.33642086 0.15889584 1.25
-0.21081115 0.15783243 1.2590001
-0.2058444 0.15341754 1.2590001
-0.33222073 0.16666222 1.2590001
-0.32637802 0.16777851 1.2563335
-0.21637174 0.16365275 1.252875
-0.32559839 0.17107712 1.2590001
-0.30279541 0.17654549 1.256
-0.29312402 0.17962112 1.2570001
-0.22245416 0.17204583 1.25
-0.26378986 0.18432179 1.2590001
-0.15624304 -0.018837813 1.2640001
-0.1266553 0.035031099 1.2657144
-0.10369058 0.036373485 1.2657778
-0.098933585 0.034460012 1.268
-0.13158695 0.046376366 1.2656
-0.12584925 0.047173683 1.2640001
-0.11413499 0.049126059 1.2640001
-0.10569779 0.045449909 1.2645217
-0.098221734 0.0449467 1.266
-0.1319886 0.056426942 1.2675556
-0.12476463 0.054869752 1.2669333
-0.11429544 0.055486154 1.2657999
-0.10653654 0.054930426 1.2640001
-0.14072955 0.069810718 1.2640001
-0.1337216 0.064852834 1.2670767
-0.1249771 0.062726751 1.268
-0.11486685 0.063873723 1.2677646
-0.10748634 0.062053971 1.2640001
-0.16336027 0.077382922 1.2654999
-0.15609366 0.074828759 1.2664
-0.1454334 0.072163694 1.2664001
-0.1338387 0.073191404 1.2677143
-0.12461444 0.073907614 1.2677499
-0.11894263 0.073737018 1.268
-0.17202654 0.084901661 1.266
-0.16563039 0.081147775 1.268
-0.13005877 0.086705841 1.268
-0.12727971 0.085038424 1.268
-0.17415625 0.094288416 1.2653333
-0.13096173 0.09877754 1.266
-0.13207334 0.10210887 1.266
-0.17175654 0.11856741 1.2640001
-0.16529256 0.11653589 1.2640001
-0.18283761 0.12558541 1.2640001
-0.17501278 0.12501101 1.2658823
-0.16565633 0.12374395 1.2648
-0.1848274 0.13431869 1.2662499
-0.17569488 0.13278888 1.2657778
-0.16954032 0.1318647 1.2640001
-0.19432229 0.14685324 1.2652
-0.18752101 0.14218782 1.2657143
-0.20410554 0.15603964 1.2653333
-0.19536604 0.15201314 1.268
-0.33132389 0.16954032 1.2640001
-0.21315834 0.16475581 1.2664
-0.20765078 0.16101445 1.2666668
-0.33459562 0.17007683 1.268
-0.32541397 0.17175655 1.2640001
-0.31458658 0.17674652 1.268
-0.30694553 0.17840517 1.2640001
-0.21787621 0.17007683 1.268
-0.30434448 0.18105009 1.2670001
-0.29680076 0.1834162 1.268
-0.25597262 0.18505381 1.2640001
-0.15735553 -0.0033479899 1.273
-0.1624551 0.00224076 1.2780001
-0.14004751 0.0280095 1.2780001
-0.14004751 0.030250261 1.2780001
-0.13077673 0.034644991 1.275
-0.12884369 0.030250261 1.2780001
-0.10175514 0.035788603 1.2755001
-0.099323705 0.036827888 1.273
-0.1328036 0.041291878 1.273
-0.1015557 0.041291878 1.273
-0.098207712 0.041291878 1.273
-0.12499163 0.059147824 1.273
-0.1305716 0.066959798 1.273
-0.12461962 0.066091806 1.2729999
-0.11383165 0.068075798 1.273
-0.1562618 0.077572905 1.275
-0.14489605 0.07486967 1.2746667
-0.13335432 0.075726822 1.2739999
-0.12443362 0.07700377 1.273
-0.11632163 0.074621372 1.2758571
-0.17147315 0.086576313 1.27425
-0.16547848 0.084928282 1.2761817
-0.13166042 0.08242508 1.2763335
-0.12422162 0.084742986 1.2746665
-0.11933871 0.084412649 1.2770001
-0.17271926 0.094174892 1.2738333
-0.13082802 0.093923435 1.2755001
-0.1256485 0.094921723 1.2771667
-0.11651953 0.094111919 1.2780001
-0.13267018 0.10582489 1.276
-0.12772331 0.10195458 1.2780001
-0.17223549 0.12685162 1.273
-0.18413945 0.13949959 1.273
-0.17297949 0.13168761 1.273
-0.18785784 0.14536667 1.2755001
-0.2019954 0.15958752 1.273
-0.19576909 0.15611394 1.2742499
-0.34484294 0.1640515 1.273
-0.21287221 0.16917738 1.2780001
-0.20453253 0.16481575 1.2749231
-0.19774708 0.16189492 1.2780001
-0.16146797 -0.0011291467 1.2880001
-0.15920968 -0.0011291467 1.2880001
-0.16146797 0.0056457333 1.2880001
-0.15808053 0.00338744 1.2880001
-0.15228686 0.017483145 1.2867501
-0.14828525 0.018393051 1.2846668
-0.14412257 0.024036605 1.2834547
-0.13631883 0.02646004 1.2874446
-0.12934779 0.02699432 1.2830001
-0.13604996 0.034576043 1.2840716
-0.10010394 0.039366715 1.2830001
-0.097482987 0.038014606 1.2880001
-0.15311356 0.078246668 1.28425
-0.14359479 0.076858826 1.2830001
-0.13834588 0.077608667 1.2830001
-0.11262098 0.076583266 1.2846667
-0.10910204 0.077608667 1.2830001
-0.16289327 0.087193437 1.2850001
