# .PCD v0.7 - Point Cloud Data file format
VERSION 0.7
FIELDS x y z
SIZE 4 4 4
TYPE F F F
COUNT 1 1 1
WIDTH 1474
HEIGHT 1
VIEWPOINT 0 0 0 1 0 0 0
POINTS 1474
DATA ascii
-0.20085344 -0.10720091 1.0039999
-0.19944623 -0.10614786 1.0040001
-0.15802179 -0.10858481 1.0070001
-0.40487015 -0.094210424 1.004353
-0.41226915 -0.082983509 1.0070001
-0.40506291 -0.085422203 1.0032941
-0.39869717 -0.088046849 1.001
-0.19358063 -0.081758283 1.0028001
-0.43259203 -0.072942182 1.0055001
-0.42537993 -0.076072417 1.0017501
-0.41513079 -0.078715682 1.0032501
-0.40805766 -0.079417668 1.001
-0.19438107 -0.07532613 1.0036538
-0.18879381 -0.073272668 1.0070001
-0.43169084 -0.067975856 1.0070001
-0.42676535 -0.064837903 1.0034707
-0.19274846 -0.066421196 1.0060769
-0.18703383 -0.065165207 1.00675
-0.42400435 -0.05546286 1.0042309
-0.41858816 -0.050019968 1.001
-0.18596353 -0.058469407 1.0040001
-0.41682851 -0.045052871 1.0033334
-0.41240218 -0.036606751 1.00625
-0.40654802 -0.033656269 1.0031819
-0.39928222 -0.030714016 1.001
-0.17556447 -0.032533977 1.003
-0.42227426 -0.021481549 1.0070001
-0.41502541 -0.02276722 1.0042144
-0.40392053 -0.024280537 1.0044285
-0.39676329 -0.023816679 1.0015627
-0.17591946 -0.024953045 1.0046666
-0.42305249 -0.01499089 1.0058751
-0.41701725 -0.015635174 1.0020001
-0.39401695 -0.017550867 1.001
-0.18160735 -0.013788213 1.0040001
-0.17851819 -0.01569733 1.0060999
-0.42153859 -0.0070624268 1.0070001
-0.41593581 -0.0051659225 1.0030625
-0.40981275 -0.00087754335 1.001
-0.18478063 -0.0054115378 1.0048571
-0.17920907 -0.0088280328 1.0070001
-0.41223636 0.0022926587 1.0052001
-0.40545043 0.0063314624 1.0028001
-0.19443943 0.0047529358 1.0036
-0.18833715 0.0013235476 1.0062501
-0.40186515 0.012053582 1.006
-0.39603099 0.016275316 1.0035001
-0.20408332 0.018154304 1.002
-0.19920869 0.01275002 1.0032501
-0.39310184 0.021791177 1.0057143
-0.38568014 0.024641057 1.0036668
-0.3787989 0.027572218 1.0016
-0.22092351 0.026410459 1.0040001
-0.21542522 0.024983147 1.0047499
-0.20684631 0.022157345 1.0046923
-0.38048825 0.030898117 1.0070001
-0.37505338 0.033544973 1.0040001
-0.36634374 0.038502697 1.0014286
-0.2208135 0.035181951 1.0035001
-0.21956578 0.034681562 1.0070001
-0.36371496 0.041491758 1.0070001
-0.35506424 0.045306601 1.0042309
-0.22409888 0.045171365 1.0031818
-0.35168648 0.053555191 1.0061429
-0.34559286 0.055787776 1.002125
-0.33960927 0.058795404 1.001
-0.24163289 0.057616532 1.0022857
-0.23514374 0.055525113 1.0039999
-0.22755803 0.051820837 1.0056667
-0.34337652 0.06268581 1.0045455
-0.33426917 0.064180911 1.0028335
-0.32500494 0.065982647 1.0034544
-0.31613317 0.068045467 1.0028
-0.30889523 0.069325924 1.001
-0.25406632 0.066461101 1.0031428
-0.24554171 0.063371271 1.0055001
-0.23818035 0.061972797 1.0070001
-0.31458998 0.072530031 1.005875
-0.30557093 0.073533498 1.0045
-0.29556242 0.075960949 1.0036
-0.28871176 0.07985644 1.001
-0.26163328 0.077098444 1.001
-0.25712252 0.074849322 1.00445
-0.29256099 0.081747584 1.0070001
-0.2849361 0.084258504 1.0039999
-0.27476609 0.085242361 1.0042728
-0.26472774 0.084479302 1.004625
-0.25775048 0.082146369 1.0057499
-0.29390341 -0.22422414 1.0190001
-0.33365625 -0.21216428 1.0190001
-0.31310982 -0.21216428 1.0190001
-0.30493626 -0.2139198 1.0188501
-0.29491955 -0.21490569 1.0178751
-0.28541028 -0.21406734 1.0162401
-0.27569106 -0.21160652 1.01525
-0.33481559 -0.20494702 1.0168184
-0.32546613 -0.20493788 1.0184236
-0.31496483 -0.20578247 1.0165219
-0.30487737 -0.20545201 1.0145003
-0.29479483 -0.20526303 1.0145559
-0.28502291 -0.20524622 1.0159093
-0.27438098 -0.20511873 1.0128802
-0.26606598 -0.20407329 1.0102144
-0.25943196 -0.20099336 1.01
-0.34266269 -0.1939099 1.01
-0.33526313 -0.19499633 1.0122224
-0.3254261 -0.19681883 1.0122001
-0.31620428 -0.19833748 1.0109
-0.30458906 -0.19922251 1.0100001
-0.29369238 -0.19550239 1.0109001
-0.28508067 -0.19457746 1.0121431
-0.27628952 -0.19655015 1.0106318
-0.26120284 -0.19922251 1.01
-0.25943196 -0.19922251 1.01
-0.34266269 -0.18859729 1.01
-0.33380836 -0.18859729 1.01
-0.292193 -0.18859729 1.01
-0.28634912 -0.18824312 1.01
-0.38309994 -0.17161313 1.0172857
-0.37533957 -0.17321776 1.0112
-0.18682644 -0.17974296 1.01
-0.3829146 -0.16727699 1.0122499
-0.37804443 -0.16800143 1.0118001
-0.16203432 -0.16616632 1.01
-0.40613204 -0.1507459 1.0115
-0.15702528 -0.15249898 1.013
-0.40681803 -0.14860405 1.011
-0.15990488 -0.14739835 1.0190001
-0.43120602 -0.13015869 1.01
-0.42854974 -0.13015869 1.01
-0.43215629 -0.12433961 1.01675
-0.42620483 -0.12528887 1.0113848
-0.43162271 -0.11437833 1.0181429
-0.42496729 -0.11507447 1.01285
-0.41880995 -0.11067916 1.01
-0.19272356 -0.11268023 1.0107502
-0.18559401 -0.11267802 1.0110002
-0.17580771 -0.11126944 1.0100001
-0.16911776 -0.11067916 1.01
-0.4316473 -0.10768739 1.018
-0.4242214 -0.10507249 1.014778
-0.41588551 -0.1038456 1.0115001
-0.40995562 -0.10005397 1.01
-0.20070188 -0.10347033 1.0175
-0.19542648 -0.10618111 1.0172228
-0.18474968 -0.10534447 1.0161003
-0.17493309 -0.10477462 1.0129066
-0.16494007 -0.10484049 1.0123143
-0.15890095 -0.10375247 1.0145
-0.42292908 -0.095316261 1.0176154
-0.41580209 -0.095064983 1.0134503
-0.40995562 -0.096512236 1.01
-0.20099775 -0.099158891 1.0190001
-0.19833137 -0.093392618 1.0145
-0.1840246 -0.099158891 1.0190001
-0.17412037 -0.095678531 1.0185388
-0.16500531 -0.094540067 1.0174004
-0.15912616 -0.095172562 1.0172857
-0.42330599 -0.083854437 1.0165454
-0.41612747 -0.086112551 1.012625
-0.40995562 -0.089428768 1.01
-0.19445914 -0.084743425 1.0175
-0.1712203 -0.087843455 1.0190001
-0.16414817 -0.087322354 1.0190001
-0.15943411 -0.089960024 1.016
-0.44136748 -0.070157006 1.013
-0.43894041 -0.070938557 1.0115
-0.19036816 -0.078803569 1.01
-0.18859729 -0.075261831 1.01
-0.44391912 -0.065043405 1.0164
-0.43613771 -0.06530071 1.0111668
-0.18363887 -0.065344974 1.01
-0.44249284 -0.058661565 1.0190001
-0.43457374 -0.055737432 1.0149412
-0.42838287 -0.052881703 1.011
-0.18505557 -0.057553165 1.01
-0.43239531 -0.048360266 1.0178
-0.42497441 -0.04474004 1.0139999
-0.42214262 -0.036121737 1.0175
-0.41659862 -0.034367897 1.0132308
-0.40995562 -0.030990167 1.01
-0.43371654 -0.02174107 1.0163
-0.42467654 -0.025335958 1.015
-0.41577801 -0.027684692 1.0121001
-0.40907022 -0.027448433 1.0100001
-0.17190069 -0.022162717 1.0113335
-0.16935945 -0.022241911 1.015
-0.44079623 -0.015148625 1.0166
-0.43526208 -0.015128217 1.0151602
-0.42752126 -0.015065142 1.0108572
-0.17392741 -0.015179445 1.0133915
-0.16883811 -0.018759791 1.0190001
-0.43245456 -0.0086306371 1.0185
-0.4259578 -0.0049316487 1.0143638
-0.41880995 -0.00088543334 1.01
-0.18188913 -0.0028545239 1.0110002
-0.17638868 -0.005791856 1.0139602
-0.42231664 0.0026728313 1.0159999
-0.41595691 0.006778222 1.0135627
-0.40907019 0.0088543333 1.01
-0.19309349 0.0081204455 1.0138
-0.1853971 0.0039706226 1.0158637
-0.17896245 0.0014888722 1.0190001
-0.41260064 0.014716822 1.0172499
-0.40570578 0.015497848 1.0123078
-0.20198984 0.017552035 1.018
-0.19727191 0.013195828 1.0157273
-0.40348589 0.022884214 1.017
-0.39581859 0.026360959 1.0134
-0.3878198 0.0292193 1.01
-0.21177441 0.02879828 1.0107501
-0.20573802 0.025694175 1.0145001
-0.3934401 0.033010885 1.0176667
-0.38528445 0.034511596 1.0147369
-0.37640423 0.037763644 1.0112001
-0.21598919 0.033932138 1.0147144
-0.20814435 0.031266317 1.0190001
-0.38242811 0.04086687 1.0178001
-0.37519869 0.042906463 1.0182
-0.36559832 0.045960996 1.0146669
-0.3586005 0.047813401 1.01
-0.22161925 0.045656469 1.0137501
-0.21886422 0.040199548 1.0190001
-0.36406794 0.053904664 1.0174999
-0.35649529 0.055222765 1.011875
-0.23115262 0.058720358 1.0118001
-0.22432794 0.055563677 1.0153228
-0.21886422 0.051812753 1.0190001
-0.3539739 0.061367102 1.0145
-0.34886074 0.062865764 1.01
-0.3345167 0.068886712 1.01
-0.32849577 0.069949232 1.01
-0.25146306 0.069949232 1.01
-0.24426818 0.067249261 1.0105456
-0.23505507 0.065004393 1.0135771
-0.22824411 0.062085971 1.0190001
-0.3313078 0.071483113 1.015
-0.32410625 0.074138753 1.0147501
-0.31482059 0.076774143 1.0132143
-0.30495256 0.078011766 1.0112002
-0.25258026 0.075370125 1.0139475
-0.24533506 0.072558992 1.0164738
-0.23705494 0.071581677 1.0181
-0.31176984 0.081292421 1.0190001
-0.30521908 0.081430644 1.0170001
-0.29509941 0.084347345 1.0127001
-0.28489047 0.088395178 1.0116667
-0.27573562 0.088955954 1.0113332
-0.26398757 0.089473046 1.0105001
-0.25530383 0.085645631 1.0153481
-0.29033008 0.090225659 1.0190001
-0.28406212 0.094055861 1.0166
-0.27508083 0.093475923 1.0154706
-0.26542497 0.093303084 1.016
-0.25757489 0.091714524 1.0190001
-0.30611622 -0.23071061 1.024
-0.32460564 -0.22154781 1.0256922
-0.31424332 -0.22427359 1.0262998
-0.30479434 -0.22536246 1.0251151
-0.29548541 -0.22392859 1.0220002
-0.28939292 -0.22130047 1.0220001
-0.33204442 -0.21623211 1.0227501
-0.32513186 -0.21464188 1.0234998
-0.31621897 -0.21545489 1.0226002
-0.30526409 -0.21848461 1.0220002
-0.29835245 -0.21950856 1.0220001
-0.38598546 -0.17655893 1.0244001
-0.15301427 -0.15070589 1.024143
-0.16108179 -0.14398241 1.0265
-0.1568725 -0.14732356 1.0261538
-0.43772069 -0.12438598 1.0228573
-0.44189492 -0.11685733 1.028
-0.43715844 -0.11548539 1.0236154
-0.43527588 -0.10405489 1.0250001
-0.1937499 -0.10191469 1.0220002
-0.18904616 -0.10124273 1.0220001
-0.15858375 -0.10124273 1.0220001
-0.43188399 -0.095871717 1.026875
-0.42765141 -0.093679227 1.0232857
-0.19488491 -0.095391229 1.0241561
-0.18513991 -0.094328292 1.0233928
-0.17701478 -0.092283197 1.0220002
-0.15858375 -0.099450819 1.0220001
-0.43258226 -0.087078027 1.0263333
-0.42787156 -0.086652189 1.0232
-0.19342291 -0.086065874 1.028
-0.18389241 -0.087476641 1.0270768
-0.17499621 -0.0841088 1.0240768
-0.16644314 -0.083441757 1.0235001
-0.19075681 -0.076603137 1.028
-0.18835358 -0.072998278 1.028
-0.17213175 -0.078405559 1.028
-0.16672446 -0.078405559 1.028
-0.45087665 -0.061460909 1.0235001
-0.44887263 -0.06271673 1.0220001
-0.45210871 -0.05797806 1.028
-0.44552827 -0.054318734 1.0257058
-0.43901712 -0.052861243 1.0220001
-0.4432894 -0.046550632 1.02775
-0.43567121 -0.0441126 1.0246667
-0.42826569 -0.0403179 1.0220001
-0.18583021 -0.04740382 1.028
-0.4329949 -0.035375502 1.0271428
-0.4269318 -0.033991095 1.0233334
-0.43381664 -0.027458467 1.0250001
-0.42826569 -0.028670507 1.0220001
-0.17112708 -0.0134393 1.0220001
-0.16762547 -0.01412905 1.0256429
-0.44146451 -0.0087020854 1.027
-0.4348695 -0.0048861508 1.0246667
-0.17269002 -0.004748716 1.0252143
-0.1675014 -0.0099061141 1.0272501
-0.43168119 0.00090121332 1.028
-0.42635912 0.0062927133 1.0256001
-0.18334839 0.0082015302 1.0230715
-0.17676264 0.0042576781 1.0256
-0.42143559 0.011681584 1.0250001
-0.41793609 0.016469207 1.0245001
-0.20158949 0.01881502 1.0220001
-0.19475265 0.015902821 1.0246999
-0.18708657 0.012215348 1.0267142
-0.41305333 0.022499433 1.0265
-0.40612888 0.02724972 1.0246667
-0.20252973 0.02484853 1.0245
-0.19858691 0.020667417 1.0250001
-0.41005206 0.033344895 1.028
-0.40430948 0.033431973 1.026
-0.39625269 0.036914207 1.0231539
-0.38973969 0.038525995 1.0220001
-0.21345158 0.036948502 1.0237501
-0.20734096 0.035054259 1.0252306
-0.39471391 0.041259442 1.0262858
-0.38447505 0.04402243 1.0247002
-0.37600821 0.048264667 1.0242501
-0.22130047 0.043901712 1.0220001
-0.2174388 0.043941393 1.0251579
-0.2090815 0.040554598 1.028
-0.37353888 0.053550307 1.0258182
-0.36671382 0.057383753 1.0227501
-0.22130047 0.054653153 1.0220001
-0.21882564 0.055002648 1.0230001
-0.36356023 0.061193086 1.0265
-0.2312686 0.067230254 1.0225002
-0.22523789 0.065092333 1.0247272
-0.21950856 0.060028873 1.0220001
-0.32750297 0.077166393 1.0235001
-0.25123382 0.07985688 1.0235001
-0.24538949 0.078080192 1.0237143
-0.23565149 0.074956402 1.0252
-0.2298094 0.071195856 1.028
-0.32263437 0.080207989 1.028
-0.31523779 0.082634598 1.0268
-0.30361569 0.085823812 1.0256667
-0.29743108 0.088959746 1.0250001
-0.25152785 0.085339904 1.0247
-0.24655111 0.084186502 1.0276666
-0.23882154 0.081109196 1.028
-0.30010405 0.091022544 1.028
-0.29375997 0.093862407 1.0256923
-0.28401721 0.09765891 1.0220001
-0.27468649 0.098440357 1.0231251
-0.2651476 0.097953558 1.0233638
-0.25509816 0.094622843 1.0252726
-0.28568465 0.10003468 1.028
-0.27487007 0.10093588 1.028
-0.26457047 0.10106463 1.028
-0.25774699 0.10003468 1.028
-0.14803743 -0.15076387 1.036
-0.16106646 -0.14286686 1.0380001
-0.15393737 -0.14521419 1.0336876
-0.14634816 -0.14591582 1.036286
-0.44098818 -0.1012553 1.0343333
-0.43809795 -0.10137905 1.0325
-0.44266897 -0.095359601 1.0360001
-0.43723801 -0.094717331 1.03225
-0.19071095 -0.084057435 1.031
-0.18585128 -0.082795195 1.0311766
-0.17896098 -0.080442056 1.031
-0.19071095 -0.078634366 1.031
-0.18487547 -0.075017668 1.035345
-0.17488715 -0.074118778 1.0343127
-0.16740564 -0.073832661 1.0339231
-0.45688358 -0.062423926 1.0320001
-0.17653611 -0.068248503 1.0380001
-0.45672378 -0.057656903 1.033
-0.18701963 -0.052735008 1.0336001
-0.45049152 -0.04265685 1.0353333
-0.44658357 -0.043494266 1.0320001
-0.18601096 -0.04826523 1.031
-0.45227173 -0.037891869 1.0373334
-0.44417435 -0.035553042 1.0364001
-0.43848792 -0.034679767 1.0320001
-0.43809795 -0.029870223 1.0325
-0.44447809 -0.0049413801 1.035889
-0.4380075 -0.0021124745 1.033
-0.17082639 -0.0036153733 1.031
-0.1663886 -0.0051084566 1.0345911
-0.43387693 0.0049403086 1.0346667
-0.42876187 0.009971207 1.034
-0.17365961 0.0055781384 1.0337369
-0.1683463 0.00090997998 1.0380001
-0.4313305 0.01091976 1.0380001
-0.42574912 0.015164831 1.0348572
-0.19206671 0.018528789 1.031
-0.18506517 0.015925024 1.0336192
-0.17742309 0.011343409 1.0352501
-0.4224506 0.024189338 1.0372001
-0.41570702 0.026265727 1.0330911
-0.20185313 0.027318811 1.0338572
-0.19564436 0.02268693 1.0350001
-0.1889094 0.020889213 1.036
-0.4176808 0.03002934 1.0380001
-0.20617077 0.036810357 1.0342
-0.38232574 0.049711384 1.031
-0.21377258 0.045976885 1.0327779
-0.20822841 0.044311989 1.0362222
-0.38310158 0.05368882 1.0380001
-0.37661618 0.056286383 1.0322001
-0.21852641 0.052284107 1.0343333
-0.37218183 0.06187864 1.0380001
-0.36432695 0.064907268 1.0369002
-0.35853213 0.067338526 1.0380001
-0.22340536 0.067582414 1.0334001
-0.3503423 0.071888417 1.0380001
-0.34544241 0.073848367 1.0380001
-0.33682147 0.077503033 1.0370001
-0.23275316 0.076883011 1.0337501
-0.22719274 0.073591858 1.0340002
-0.34670237 0.080988221 1.0380001
-0.33283937 0.081846185 1.0373334
-0.32485944 0.083923057 1.0353638
-0.31559727 0.086863756 1.0342668
-0.30651259 0.088447675 1.032125
-0.24370502 0.086716563 1.0328463
-0.23759569 0.083156377 1.0340911
-0.3130331 0.091452986 1.0380001
-0.30374479 0.094880462 1.0346668
-0.29754299 0.096870504 1.0326667
-0.25131655 0.096244738 1.0324445
-0.24801864 0.093122415 1.0341429
-0.30120337 0.10100778 1.0380001
-0.29327261 0.10047258 1.0325
-0.28338122 0.10413685 1.0345455
-0.27500761 0.10571577 1.0345557
-0.26475057 0.10538225 1.0351251
-0.25564423 0.10282968 1.0343335
-0.16062725 -0.14226985 1.0470001
-0.15503235 -0.14222135 1.0436666
-0.14406896 -0.14132248 1.0429286
-0.13627465 -0.14176802 1.0445455
-0.1440603 -0.13794233 1.0466666
-0.13492689 -0.13859837 1.0470001
-0.44535369 -0.092173606 1.041
-0.18434721 -0.07027097 1.041
-0.18442087 -0.064787649 1.0447828
-0.17497653 -0.064727649 1.0440001
-0.16795073 -0.066114508 1.0446
-0.19073549 -0.057494428 1.041
-0.18615092 -0.058222935 1.0450909
-0.45160979 -0.034702193 1.04175
-0.44891515 -0.034086116 1.0415
-0.44991672 -0.01003871 1.041
-0.45203781 -0.0045731314 1.0445
-0.44723213 -0.0018298225 1.0432501
-0.16295975 -0.0029476457 1.0436667
-0.4437975 0.0036675353 1.0455
-0.438357 0.0063882698 1.041
-0.17111439 0.0068445751 1.041
-0.16607183 0.0044926656 1.0444287
-0.44149548 0.011014439 1.0470001
-0.4350408 0.014183589 1.043625
-0.4280141 0.017339589 1.041
-0.18155625 0.018466808 1.0428001
-0.17557943 0.014261489 1.0444287
-0.16887704 0.011552537 1.0458
-0.42782649 0.02290467 1.0450001
-0.19478381 0.02691392 1.0431428
-0.18580689 0.023904599 1.0446001
-0.20341182 0.031851053 1.0446666
-0.1969749 0.030656856 1.0470001
-0.20806652 0.045264274 1.04325
-0.38526908 0.057206631 1.0452858
-0.37873316 0.059319649 1.041
-0.22120667 0.05599007 1.0470001
-0.21611814 0.051833086 1.0445999
-0.20958996 0.050338201 1.044
-0.38275179 0.062109202 1.0470001
-0.37570864 0.065326564 1.044
-0.36778185 0.067402765 1.041
-0.3559179 0.06844575 1.041
-0.22358945 0.06844575 1.041
-0.37277883 0.071329281 1.0458
-0.36429742 0.074130602 1.0438752
-0.35535699 0.074915245 1.0416002
-0.34557498 0.078028165 1.0410001
-0.23089033 0.079397067 1.041
-0.22602046 0.076464616 1.0445
-0.35383391 0.083288416 1.044
-0.34474778 0.084649064 1.0428752
-0.33575806 0.086072594 1.0420002
-0.32762697 0.087480187 1.041
-0.24001643 0.088523172 1.041
-0.23431242 0.084565796 1.0438236
-0.22793771 0.082302339 1.0470001
-0.33357897 0.09177269 1.0456667
-0.32419351 0.094011046 1.0437392
-0.31502181 0.095957793 1.0424287
-0.30791461 0.098014317 1.041
-0.25096774 0.09947449 1.041
-0.24578452 0.094009347 1.0438
-0.23956406 0.090869129 1.0470001
-0.31482941 0.10151641 1.0470001
-0.3047986 0.10144567 1.0425
-0.29393244 0.10553705 1.0439999
-0.28654751 0.10760231 1.0414286
-0.27104518 0.10860059 1.041
-0.26191908 0.10860059 1.041
-0.25340426 0.10653095 1.0430626
-0.24986053 0.10250688 1.044
-0.29188263 0.11106227 1.0470001
-0.28484693 0.11205593 1.0453635
-0.27548724 0.11257803 1.0440001
-0.26581213 0.11178706 1.0437499
-0.25626764 0.11162114 1.0465001
-0.16200624 -0.14225729 1.0560001
-0.15591429 -0.14114946 1.0523334
-0.15231645 -0.13846862 1.053
-0.14476319 -0.13554105 1.0517778
-0.13513391 -0.13574757 1.0534002
-0.17112242 -0.06113581 1.0513334
-0.16758204 -0.061524641 1.0538
-0.18336403 -0.054657295 1.0528333
-0.17523424 -0.055896927 1.0540358
-0.16748777 -0.055210978 1.0567
-0.18291809 -0.048370432 1.057
-0.45684209 -0.0021501712 1.0513334
-0.45363608 0.0035427555 1.0531667
-0.44821572 0.0055352729 1.052
-0.16241945 0.0064622015 1.0526668
-0.15845487 0.0083397301 1.057
-0.44416556 0.014112455 1.0527143
-0.43683425 0.018608827 1.0508001
-0.17329644 0.017935917 1.0521111
-0.16561888 0.014080239 1.0547777
-0.434645 0.021709114 1.05375
-0.18361431 0.026728397 1.0513334
-0.1764531 0.023259789 1.0546924
-0.20366545 0.035726171 1.0525715
-0.19457714 0.03276578 1.0527501
-0.18737566 0.030998934 1.0555
-0.40193406 0.046690974 1.0534444
-0.39569139 0.04724269 1.0515001
-0.39418134 0.053145923 1.0534545
-0.38875782 0.059218835 1.0500001
-0.22146617 0.058378108 1.057
-0.21580596 0.05570421 1.0539286
-0.39153364 0.063818708 1.0549999
-0.3851144 0.06624005 1.0512501
-0.22282097 0.065566957 1.0564001
-0.38254678 0.072323099 1.0531667
-0.37561017 0.075517587 1.0513334
-0.36912051 0.078242503 1.0500001
-0.2230819 0.074875742 1.05225
-0.21855389 0.07479281 1.057
-0.37052667 0.080388576 1.054
-0.36482775 0.081518888 1.0526668
-0.35630575 0.08654277 1.0524
-0.3488695 0.089288503 1.0500001
-0.23290655 0.088098563 1.052889
-0.22575043 0.083979405 1.0560001
-0.34340176 0.092624515 1.0530001
-0.33530852 0.096009262 1.052091
-0.3286185 0.098493502 1.0500001
-0.24320936 0.096522495 1.0514287
-0.23731399 0.09368027 1.0553751
-0.32432681 0.10134492 1.0522858
-0.31613001 0.10402473 1.0538
-0.30444959 0.10607619 1.0538182
-0.29842609 0.1080667 1.0500001
-0.25055426 0.10680722 1.0533334
-0.24596825 0.10328793 1.0550667
-0.23999889 0.10193003 1.057
-0.30115691 0.11212303 1.057
-0.29450041 0.11462276 1.0544
-0.28554711 0.11646441 1.0531429
-0.27481019 0.11702222 1.0534285
-0.26496622 0.11619668 1.0525385
-0.25465989 0.11549727 1.0539376
-0.24926527 0.11490295 1.057
-0.1616924 -0.14031927 1.0600001
-0.15797533 -0.14031927 1.0600001
-0.1624551 -0.13630939 1.0650001
-0.15563415 -0.13583638 1.0649499
-0.14476229 -0.1330556 1.064091
-0.13426112 -0.13146313 1.0635626
-0.12853441 -0.1326358 1.064
-0.13376267 -0.12815025 1.067
-0.17253385 -0.051109668 1.0600001
-0.16726799 -0.051109668 1.0600001
-0.18289012 -0.043512005 1.0631541
-0.17532416 -0.045631103 1.0624137
-0.16705009 -0.047265872 1.0618891
-0.46115384 0.0084186299 1.067
-0.45723844 0.0074505713 1.0622501
-0.45451885 0.012334214 1.0641112
-0.44849479 0.016769756 1.0625
-0.16253591 0.017159237 1.0605456
-0.15802373 0.014629581 1.0649334
-0.44314814 0.022580303 1.0642
-0.43716234 0.025634829 1.0632501
-0.181207 0.028807266 1.0600001
-0.17347807 0.026381701 1.0620002
-0.16649725 0.023157466 1.0642729
-0.42517078 0.038255688 1.0643334
-0.41817001 0.038099933 1.0600001
-0.20362249 0.038493205 1.0606
-0.1946917 0.035958584 1.0626
-0.18369024 0.033680782 1.0628572
-0.17696613 0.031922329 1.0646999
-0.42377385 0.04137275 1.0664999
-0.41565749 0.04542594 1.0646666
-0.40732858 0.04863162 1.0600001
-0.20551503 0.040880196 1.0646001
-0.41336325 0.054338433 1.0670002
-0.40501621 0.054873634 1.0624999
-0.39791197 0.057056975 1.0600001
-0.21268569 0.058175821 1.0617501
-0.40390715 0.061923694 1.067
-0.39732313 0.064298503 1.0629001
-0.22070083 0.064119399 1.0600001
-0.21606745 0.06440644 1.0619545
-0.21692875 0.076374717 1.0610001
-0.37439716 0.082159445 1.0650001
-0.36790192 0.085453667 1.0633334
-0.22283334 0.085554995 1.06075
-0.21664169 0.084613234 1.0606002
-0.35378939 0.092413999 1.0648
-0.34449857 0.097874448 1.0632857
-0.33825305 0.09943153 1.0600001
-0.23403594 0.095904857 1.0621177
-0.22630951 0.090819158 1.0648571
-0.21981978 0.090734124 1.067
-0.34203273 0.10292716 1.0654
-0.3346763 0.10414479 1.0638
-0.32489011 0.10674813 1.0634168
-0.3148464 0.10798221 1.0641251
-0.30851653 0.10779493 1.0600001
-0.24296686 0.10732547 1.0627
-0.23741591 0.10261789 1.0641251
-0.31211293 0.1119366 1.067
-0.30396163 0.11401949 1.062091
-0.29643607 0.1170876 1.0600001
-0.28590438 0.1198754 1.0600001
-0.27599218 0.11987541 1.0600001
-0.26391172 0.1198754 1.0600001
-0.25647759 0.1198754 1.0600001
-0.24714009 0.11370396 1.0631667
-0.29278123 0.12129063 1.067
-0.28439051 0.12249664 1.0650002
-0.27489397 0.12331815 1.0649092
-0.26515484 0.12324356 1.0650002
-0.25534815 0.1228552 1.0643334
-0.24928455 0.12137625 1.0650001
-0.16134173 -0.13132466 1.0700001
-0.15486071 -0.13139778 1.0705999
-0.14602052 -0.13069932 1.0700001
-0.13976696 -0.13038664 1.0700001
-0.12663449 -0.13038664 1.0700001
-0.16194576 -0.12804857 1.074
-0.15428491 -0.12676625 1.0758235
-0.1447545 -0.12539987 1.0735999
-0.13451874 -0.12485807 1.0723636
-0.1267163 -0.12459554 1.0736874
-0.13407212 -0.11990959 1.077
-0.12809239 -0.11928014 1.077
-0.18573061 -0.042211499 1.0700001
-0.17233214 -0.041172527 1.0708573
-0.1675266 -0.042919468 1.0744287
-0.18191594 -0.036693174 1.0733334
-0.17574944 -0.03729191 1.0738461
-0.46197936 0.014758684 1.0740001
-0.45657307 0.018090114 1.0733334
-0.15522873 0.017306527 1.0712858
-0.45320159 0.02266008 1.077
-0.44472423 0.026330026 1.0725001
-0.43806157 0.029079033 1.0700001
-0.1716601 0.029079033 1.0700001
-0.16426775 0.026422633 1.0721111
-0.15906854 0.023965787 1.0762
-0.44187155 0.03210178 1.077
-0.43928978 0.03104189 1.0730001
-0.20036128 0.038567197 1.0730001
-0.19415712 0.037326712 1.0733334
-0.18666863 0.036583301 1.0700001
-0.17427109 0.03465369 1.072769
-0.16703963 0.031400006 1.0745001
-0.42544079 0.046298232 1.0705
-0.20593719 0.042941764 1.0726668
-0.42330354 0.054004639 1.076
-0.41668186 0.056621417 1.0705
-0.21243826 0.059482709 1.077
-0.41412449 0.063616581 1.0742728
-0.40663889 0.065474041 1.0727692
-0.21316062 0.064686604 1.0738572
-0.40221643 0.070812747 1.077
-0.39337549 0.074644275 1.0738572
-0.3899422 0.078366108 1.077
-0.21698947 0.073269166 1.0715001
-0.38333303 0.082614876 1.077
-0.37541059 0.086564265 1.0732501
-0.36608878 0.089175634 1.0707501
-0.37200299 0.091584489 1.077
-0.36407259 0.093965881 1.0754167
-0.35586467 0.096643448 1.0719999
-0.34988642 0.098493502 1.0700001
-0.23128366 0.097960196 1.0710001
-0.22535211 0.095739819 1.0721427
-0.21841304 0.091817103 1.0723333
-0.35422856 0.10172827 1.0758573
-0.34548542 0.10498686 1.0716251
-0.33550325 0.10881188 1.0700001
-0.32831168 0.1097499 1.0700001
-0.31893134 0.1097499 1.0700001
-0.24107456 0.10787383 1.0700001
-0.23437749 0.104638 1.073263
-0.22694738 0.10153056 1.0756668
-0.33393544 0.11118641 1.0730001
-0.32391876 0.11299717 1.0741
-0.31433102 0.11515136 1.0726364
-0.30601254 0.11780669 1.0707501
-0.24509439 0.11571614 1.0731175
-0.23842907 0.11120576 1.075
-0.3000716 0.12134557 1.0730001
-0.29469427 0.12468691 1.0726
-0.28518504 0.12751622 1.0725384
-0.27476817 0.12762843 1.0713334
-0.26578262 0.12789029 1.0733637
-0.25429788 0.12616684 1.0732728
-0.24746722 0.12138327 1.0733334
-0.28313968 0.13075221 1.0730001
-0.27569765 0.13123962 1.077
-0.16150247 -0.1244478 1.0836667
-0.15524431 -0.12248268 1.0830833
-0.14422919 -0.12055921 1.08
-0.1391796 -0.1211904 1.08
-0.12592441 -0.1202436 1.08
-0.15151693 -0.11911708 1.087
-0.14347517 -0.11697818 1.0864545
-0.13486709 -0.11491679 1.0833749
-0.12619068 -0.11577985 1.0848947
-0.13283937 -0.10920654 1.087
-0.16516027 -0.041765936 1.0827501
-0.18169326 -0.032545373 1.0813333
-0.17409593 -0.033063482 1.0815001
-0.16516477 -0.035060905 1.083269
-0.15818748 -0.031446911 1.087
-0.1808068 -0.028547335 1.0855
-0.17482914 -0.027856668 1.0858001
-0.16533452 -0.028826332 1.087
-0.15818748 -0.029541036 1.087
-0.46393198 0.0198828 1.08
-0.1568006 0.01995644 1.0840001
-0.46317989 0.023971662 1.0849
-0.45517269 0.025204167 1.0824445
-0.44949505 0.029459506 1.0840001
-0.160956 0.0293508 1.08
-0.15738153 0.024626538 1.0851111
-0.45073903 0.032399848 1.087
-0.44533813 0.035104364 1.0821111
-0.19462791 0.038926631 1.0829999
-0.18628347 0.039034456 1.086
-0.17277187 0.037408974 1.0848334
-0.16468272 0.034138545 1.0839231
-0.15914042 0.032399848 1.087
-0.44692728 0.040976275 1.087
-0.43641055 0.045355812 1.0853333
-0.2111364 0.047339998 1.08
-0.20431317 0.045722324 1.0829473
-0.19748524 0.042374268 1.0847778
-0.43211383 0.053244349 1.0845001
-0.4269968 0.056606855 1.0821111
-0.21162003 0.054757476 1.0831333
-0.20850115 0.05236505 1.086
-0.42977443 0.060035009 1.087
-0.41185799 0.069116399 1.08
-0.40996438 0.069116399 1.08
-0.21248886 0.064886704 1.0845
-0.4116067 0.072675079 1.086
-0.40394944 0.074368186 1.0837272
-0.39738175 0.076370291 1.0808001
-0.21671902 0.071818866 1.0826668
-0.39389217 0.082512587 1.0840911
-0.38678756 0.084958456 1.0834445
-0.37966681 0.088052399 1.08
-0.38212761 0.09052898 1.087
-0.37435195 0.095211476 1.08425
-0.36687699 0.098114029 1.0805714
-0.22128206 0.09808585 1.081
-0.21952084 0.096931279 1.0840001
-0.37069237 0.10196422 1.087
-0.36400732 0.10359482 1.0841111
-0.35576129 0.10545215 1.0836251
-0.23162 0.10775403 1.0813333
-0.22438531 0.10580569 1.0837271
-0.21952084 0.10168281 1.0840001
-0.34067923 0.11419591 1.0855
-0.33400849 0.11523081 1.0837144
-0.32421327 0.11756437 1.0827143
-0.3181248 0.11835 1.08
-0.24213988 0.11774904 1.0831667
-0.23552714 0.11414517 1.0838749
-0.22775187 0.11149359 1.087
-0.32164943 0.12085595 1.0855
-0.315135 0.12152166 1.0841429
-0.30479035 0.12470429 1.0830833
-0.2954016 0.1292382 1.08
-0.2622636 0.1297116 1.08
-0.254058 0.12939601 1.08
-0.24681307 0.12489257 1.0831333
-0.30017504 0.13055232 1.087
-0.29282629 0.13300121 1.0852001
-0.28466979 0.13322808 1.0824001
-0.27396676 0.13451678 1.0835999
-0.26525632 0.13355058 1.0834666
-0.2541692 0.13357623 1.0831666
-0.24812832 0.13330147 1.0861
-0.16244633 -0.12135696 1.09
-0.15816864 -0.12078494 1.0935
-0.16038486 -0.11908683 1.0955
-0.15414062 -0.11766638 1.0948
-0.14554127 -0.11339399 1.0934706
-0.12365033 -0.11218353 1.09
-0.11944583 -0.11275686 1.09
-0.14233209 -0.10867248 1.097
-0.13500559 -0.10578182 1.0947778
-0.12495378 -0.10589217 1.0946072
-0.11909866 -0.10536481 1.0926667
-0.12021291 -0.099055439 1.097
-0.11828951 -0.097132027 1.097
-0.17449217 -0.022595394 1.093643
-0.16535842 -0.025205355 1.0939286
-0.15754855 -0.026898034 1.0958334
-0.4636918 0.028273001 1.0905715
-0.45733422 0.02924034 1.09
-0.15582813 0.026597112 1.0941819
-0.46272904 0.034251366 1.0953333
-0.4566164 0.034342032 1.0930834
-0.18272364 0.039429836 1.097
-0.17423165 0.039178234 1.09
-0.16430545 0.037753358 1.0917778
-0.15690842 0.033084523 1.0961429
-0.4445529 0.045172136 1.0926923
-0.4386051 0.048733901 1.09
-0.20103544 0.048823319 1.092
-0.19548294 0.044211954 1.0936667
-0.18560874 0.041353244 1.097
-0.44125819 0.05151673 1.095
-0.4369843 0.054652445 1.0936
-0.21003705 0.058503471 1.0940001
-0.20578204 0.05403379 1.0940557
-0.43158299 0.062339768 1.0940001
-0.42870578 0.062339768 1.0940001
-0.21133715 0.065397672 1.0952222
-0.20868962 0.06347242 1.097
-0.41181681 0.076477192 1.095
-0.40723532 0.078091711 1.0930001
-0.22023006 0.079821378 1.097
-0.21659307 0.074545018 1.0948334
-0.40408871 0.084806718 1.0944616
-0.39599901 0.087801188 1.0925555
-0.38796008 0.088867702 1.09
-0.22023006 0.082706481 1.097
-0.21830666 0.081744783 1.097
-0.3929781 0.091278531 1.0960001
-0.38519442 0.094314978 1.0947274
-0.37872291 0.09778633 1.09
-0.22023006 0.092323519 1.097
-0.2196278 0.096866407 1.0940001
-0.38127416 0.10180248 1.0955
-0.37490419 0.10399219 1.0937272
-0.36591831 0.10728646 1.0926667
-0.35515228 0.10861608 1.09
-0.22169146 0.1089346 1.09
-0.21872632 0.10456977 1.0943
-0.36256215 0.11059588 1.097
-0.35390481 0.11209702 1.0960001
-0.34565562 0.11592845 1.0948889
-0.33570078 0.11902795 1.092
-0.32967049 0.11944583 1.09
-0.23345937 0.11755829 1.0918182
-0.2241471 0.11522858 1.0949131
-0.21863694 0.11196283 1.0962501
-0.3423664 0.12021291 1.097
-0.33469 0.12234556 1.0960001
-0.32549128 0.12414309 1.0946364
-0.31487212 0.12705907 1.0947692
-0.30876374 0.12868005 1.0926667
-0.24331538 0.12654993 1.0930001
-0.23661551 0.12441166 1.0958501
-0.22920597 0.12085405 1.097
-0.30329874 0.13341391 1.0948334
-0.29520896 0.13702609 1.0930001
-0.28524765 0.13810325 1.0931112
-0.2760419 0.13866237 1.0933334
-0.2645148 0.13838622 1.0936667
-0.25454298 0.13809779 1.0924001
-0.24536625 0.13469006 1.0956155
-0.28274077 0.14137039 1.097
-0.27552801 0.14185125 1.097
-0.26831523 0.14137039 1.097
-0.15516387 -0.1136478 1.1012856
-0.14960755 -0.11099915 1.1010001
-0.15310538 -0.10659182 1.1053571
-0.14519505 -0.10459732 1.1048181
-0.13585331 -0.10255355 1.101
-0.12740771 -0.10134705 1.1010001
-0.14136572 -0.098663278 1.107
-0.13417996 -0.096535981 1.1049047
-0.12488596 -0.09459924 1.1031033
-0.1178617 -0.091776475 1.102
-0.12267907 -0.085601501 1.1070999
-0.11620308 -0.084287599 1.1064498
-0.11267621 -0.078679077 1.108
-0.17180738 -0.020269411 1.1010001
-0.16445652 -0.021449754 1.1021999
-0.15717039 -0.022036245 1.1026
-0.17274621 -0.01585846 1.1032999
-0.16690858 -0.017347286 1.1062222
-0.15790081 -0.018405616 1.105
-0.1535209 0.01444463 1.1071177
-0.14715903 0.013598854 1.108
-0.15321605 0.024350589 1.1038332
-0.46721774 0.039825212 1.108
-0.19014637 0.03957361 1.1010001
-0.16237445 0.03906193 1.1046667
-0.15525392 0.03492042 1.1037272
-0.45252043 0.048017222 1.1065
-0.19429448 0.046572667 1.1034285
-0.18526751 0.042626161 1.105
-0.17427577 0.041554291 1.1023334
-0.16318624 0.041767906 1.108
-0.45191613 0.052730042 1.107
-0.44600937 0.056097291 1.1046922
-0.43917054 0.058877811 1.1010001
-0.2025101 0.056895271 1.1033635
-0.19797677 0.053661648 1.1055454
-0.4445484 0.063801937 1.1068749
-0.43671727 0.063603401 1.1026001
-0.20573193 0.06424018 1.1046665
-0.41636276 0.078430548 1.1045001
-0.21283028 0.075497866 1.1032352
-0.20885092 0.072205335 1.1055
-0.41296214 0.08418218 1.1036999
-0.40538821 0.089764528 1.1010001
-0.22103308 0.087834112 1.1010001
-0.21550129 0.084378131 1.1052498
-0.41170457 0.090090647 1.105
-0.40280816 0.092512503 1.1041429
-0.39470023 0.096057646 1.1047271
-0.38801441 0.097486213 1.1010001
-0.21625572 0.094402589 1.1051109
-0.39242405 0.10004871 1.108
-0.3846797 0.10478835 1.1052858
-0.3754667 0.10842525 1.1010001
-0.21632539 0.10560163 1.1051427
-0.37177396 0.1126006 1.10725
-0.36414921 0.11457563 1.105
-0.3553279 0.11663894 1.1032
-0.3484408 0.11872083 1.1010001
-0.21677831 0.11516464 1.1039284
-0.3516275 0.12238968 1.108
-0.34481406 0.12424763 1.1043333
-0.33523917 0.12651147 1.1034445
-0.32527575 0.12837292 1.1010001
-0.23265584 0.12744299 1.1022222
-0.22535539 0.12424644 1.1037499
-0.21922584 0.12125396 1.1065
-0.33122921 0.1311318 1.108
-0.32533213 0.13238463 1.1071
-0.31533796 0.13420689 1.1060998
-0.30735886 0.13674159 1.10425
-0.24266148 0.13674583 1.1019999
-0.23617201 0.13354918 1.1043999
-0.30181614 0.14136572 1.107
-0.29429263 0.14428364 1.105909
-0.28536838 0.14466706 1.1034546
-0.2746501 0.14556266 1.1049091
-0.26481915 0.14390865 1.1059285
-0.25550106 0.14331818 1.1066364
-0.24866475 0.14278796 1.108
-0.15266202 -0.10157971 1.1120001
-0.14915256 -0.10138474 1.1120001
-0.15196368 -0.09695144 1.1126001
-0.145586 -0.094537862 1.1138636
-0.13662958 -0.091771707 1.1123334
-0.14305387 -0.087528743 1.1176666
-0.1349158 -0.085051939 1.1151922
-0.12697954 -0.084380694 1.1127502
-0.11990696 -0.080912828 1.1120001
-0.13308764 -0.078806192 1.1190001
-0.12392211 -0.075998046 1.1167369
-0.11616502 -0.075528555 1.1135001
-0.12131577 -0.068996303 1.1190001
-0.11736923 -0.066400707 1.118
-0.11457069 -0.056793973 1.1170001
-0.17140265 -0.011382933 1.113
-0.16513379 -0.013872433 1.1146001
-0.15793501 -0.014680075 1.1166667
-0.17167325 -0.0088289101 1.1190001
-0.15110226 0.017547362 1.1120001
-0.14692967 0.017087001 1.113625
-0.15153709 0.024443571 1.1152
-0.14884222 0.020563971 1.1170001
-0.15344585 0.036358438 1.1149
-0.14955495 0.034211915 1.115
-0.46094522 0.045998991 1.1163334
-0.45802853 0.047855478 1.114
-0.19107123 0.047767814 1.1120001
-0.18515565 0.046985421 1.1147692
-0.17646897 0.042800095 1.1145999
-0.16491795 0.043024171 1.1153334
-0.15659925 0.041681118 1.1172223
-0.46106529 0.05101148 1.1190001
-0.45549965 0.056880634 1.1160001
-0.1938408 0.056244049 1.1143334
-0.18814301 0.053449135 1.1165999
-0.45233196 0.061415758 1.1120001
-0.44358063 0.068959258 1.11575
-0.4360407 0.067844681 1.1186365
-0.20262237 0.067364819 1.1136365
-0.19644916 0.064327992 1.1155001
-0.44340748 0.071612269 1.1190001
-0.43065462 0.072593257 1.1190001
-0.42869264 0.072593257 1.1190001
-0.20525165 0.075261034 1.1149166
-0.42182571 0.083384156 1.1190001
-0.21154317 0.085787088 1.1120001
-0.20671962 0.084927611 1.1146817
-0.40174565 0.098725818 1.115
-0.21154317 0.09456078 1.1120001
-0.20700659 0.094637126 1.1150951
-0.40318689 0.10104197 1.1190001
-0.39452261 0.10467494 1.1158462
-0.38945302 0.10888989 1.1190001
-0.21247695 0.10412447 1.1135
-0.20694652 0.10434107 1.1171539
-0.38214248 0.11015843 1.1120001
-0.37492281 0.1164907 1.1166251
-0.36427021 0.11860716 1.1120001
-0.35972089 0.11990696 1.1120001
-0.21302122 0.11498721 1.1143529
-0.20846038 0.11232336 1.1190001
-0.36362383 0.12207875 1.117
-0.35537788 0.12399399 1.1136667
-0.3455855 0.12868065 1.1120001
-0.33827409 0.1296555 1.1120001
-0.2232414 0.12770578 1.1120001
-0.21626079 0.12467386 1.1156472
-0.35021344 0.13047168 1.1190001
-0.34352928 0.13133606 1.118
-0.33512774 0.13287899 1.1145
-0.32463405 0.13709402 1.1158572
-0.31585249 0.13696688 1.1120001
-0.23372622 0.13700436 1.1128572
-0.22638486 0.13457848 1.1153684
-0.21934727 0.13121772 1.1170001
-0.32078373 0.14028157 1.1190001
-0.3129369 0.14349258 1.1172501
-0.30562928 0.14492096 1.1144167
-0.29570037 0.14853364 1.1131999
-0.28563204 0.14915256 1.1120001
-0.27447048 0.14923304 1.1126001
-0.26430404 0.14824478 1.1125001
-0.25359023 0.14724579 1.1144286
-0.24429856 0.1453225 1.1166666
-0.23686612 0.14315024 1.1165
-0.22857067 0.14028157 1.1190001
-0.29296884 0.15121828 1.1176667
-0.28449517 0.15153709 1.1152
-0.27614561 0.15228985 1.1183333
-0.26584831 0.15107246 1.1190001
-0.2570194 0.15009147 1.1190001
-0.14370559 -0.084307909 1.1238573
-0.14155865 -0.078423314 1.12525
-0.13502377 -0.07507547 1.1242353
-0.12766032 -0.071921602 1.1238571
-0.12363226 -0.064738385 1.1246002
-0.11871141 -0.061571151 1.1237501
-0.1224037 -0.058240473 1.126
-0.11703558 -0.055558164 1.125
-0.16300829 -0.011234835 1.1242001
-0.15794027 -0.010858393 1.126
-0.17062123 -0.006243912 1.125
-0.16717429 -0.0053281174 1.1257001
-0.14373651 0.018705437 1.123
-0.15072858 0.025615981 1.12375
-0.14621326 0.022692341 1.1254001
-0.13721061 0.022045828 1.126
-0.15122083 0.033989463 1.1237501
-0.18175995 0.047780305 1.12375
-0.17474188 0.044999883 1.1240001
-0.1636408 0.045348652 1.1245
-0.15565634 0.043841004 1.1237501
-0.46238527 0.054147318 1.123
-0.19000785 0.058085304 1.123
-0.18586008 0.053404529 1.1251428
-0.43613201 0.069899261 1.123
-0.19247374 0.065651335 1.1238183
-0.18854119 0.063176103 1.126
-0.44272795 0.074405439 1.124125
-0.43511552 0.075006537 1.123643
-0.4275997 0.077447064 1.123
-0.20110428 0.077879123 1.1245
-0.19627857 0.072199553 1.1251
-0.42664891 0.083356313 1.12525
-0.20189014 0.085961893 1.125077
-0.19841246 0.085880026 1.126
-0.20206439 0.095959678 1.1251429
-0.40301594 0.10412228 1.1240001
-0.39978629 0.10759681 1.126
-0.20273909 0.10562184 1.1246876
-0.19841246 0.10167404 1.126
-0.38496828 0.11407596 1.125
-0.37903121 0.1191241 1.123
-0.21119718 0.11857384 1.1240001
-0.20708847 0.11439261 1.1248749
-0.37374723 0.12228241 1.1248751
-0.36573747 0.12569164 1.1245
-0.35934129 0.12700006 1.123
-0.21257444 0.12583761 1.1243335
-0.35437846 0.13128784 1.126
-0.34055871 0.13523635 1.126
-0.33517793 0.13801429 1.1245
-0.22229855 0.13776751 1.1245
-0.2167415 0.13419004 1.1255001
-0.33266169 0.14214624 1.126
-0.32531521 0.14195821 1.1245
-0.31652999 0.14337568 1.1248
-0.30814746 0.14865899 1.123
-0.23427187 0.14634816 1.1244
-0.22552045 0.14284261 1.1250001
-0.30107364 0.15300463 1.126
-0.29515088 0.15399176 1.126
-0.2846972 0.15549932 1.125
-0.27504143 0.15575954 1.1245
-0.26539353 0.15443367 1.1246365
-0.25489584 0.15357621 1.1246156
-0.24598327 0.15277354 1.1242859
-0.23987179 0.15103038 1.126
-0.1456231 -0.081231937 1.13
-0.14358962 -0.075043254 1.1313334
-0.1363772 -0.0713256 1.13
-0.13417795 -0.06512551 1.1347059
-0.12834355 -0.064170249 1.1305001
-0.13069171 -0.057863504 1.138
-0.1249696 -0.054200601 1.1333333
-0.11854578 -0.052833777 1.13
-0.12202986 -0.046575353 1.1357778
-0.11626015 -0.044707779 1.1334667
-0.11337368 -0.037258685 1.1364
-0.17137957 -0.0049531665 1.13
-0.16344069 -0.0047400394 1.1322222
-0.15850133 -0.0089157 1.13
-0.16444513 0.00099063327 1.13
-0.14433965 0.026648914 1.1313332
-0.13674013 0.026623785 1.1316667
-0.1503799 0.035853915 1.136
-0.14556456 0.032086406 1.1355386
-0.13447191 0.031765532 1.1362222
-0.1746992 0.047848269 1.1344446
-0.16597509 0.047621589 1.1364
-0.18437041 0.055337764 1.1349231
-0.17842007 0.051334094 1.1370001
-0.19119224 0.068353698 1.13
-0.18701981 0.065349296 1.1333847
-0.44584635 0.078444719 1.1326667
-0.43785992 0.078260034 1.13
-0.19427529 0.075900987 1.1302667
-0.18555561 0.074377179 1.1324
-0.17925905 0.073697858 1.136
-0.44409809 0.083745979 1.1355001
-0.43578434 0.084737882 1.1344001
-0.42796817 0.08705359 1.1326667
-0.19593123 0.084178954 1.1334287
-0.18762316 0.081151627 1.1372001
-0.42898804 0.090785846 1.138
-0.19683139 0.094682917 1.1305333
-0.41121012 0.10628092 1.133
-0.40552846 0.10757927 1.131
-0.20109856 0.1099603 1.13
-0.19664405 0.10395668 1.1318823
-0.40449837 0.11320279 1.1360002
-0.39513823 0.11545876 1.1353333
-0.38721561 0.11678007 1.1308
-0.2034101 0.11611407 1.1332501
-0.19864881 0.1113798 1.1364
-0.39007986 0.12071525 1.138
-0.38330588 0.12478561 1.1356668
-0.37431541 0.12685342 1.1317143
-0.36713398 0.12869641 1.138
-0.2110049 0.12680107 1.13
-0.20696153 0.12406918 1.1362224
-0.38110101 0.13069171 1.138
-0.36214575 0.13069171 1.138
-0.3528657 0.1348948 1.1364
-0.34595954 0.13686228 1.1339999
-0.21281502 0.1360486 1.1317501
-0.20913585 0.13046202 1.136
-0.35017398 0.14066818 1.138
-0.34478131 0.14183356 1.1366667
-0.33559567 0.14595702 1.1349232
-0.32523456 0.14657301 1.1322222
-0.3186537 0.14628352 1.13
-0.2318082 0.14958563 1.13
-0.22385874 0.14680803 1.1321819
-0.2160089 0.14372319 1.1348001
-0.33022106 0.15064465 1.138
-0.32722813 0.15064465 1.138
-0.31525633 0.15164229 1.138
-0.30537432 0.15375856 1.1357143
-0.29406521 0.15727577 1.1340001
-0.28431177 0.15850133 1.13
-0.27490076 0.15949197 1.13
-0.26468495 0.15801845 1.1308
-0.25340399 0.15790695 1.13
-0.24381165 0.15704179 1.1318183
-0.23607598 0.15350321 1.1336364
-0.22553301 0.15135416 1.1366668
-0.29131281 0.16161875 1.138
-0.28532082 0.161585 1.136
-0.27450863 0.16237246 1.1362858
-0.26439083 0.16122821 1.1370001
-0.25494871 0.16183442 1.136
-0.24697979 0.16199923 1.136
-0.141929 -0.065425463 1.1482002
-0.13822666 -0.062392544 1.1442001
-0.14294583 -0.056174494 1.146091
-0.13567239 -0.055106163 1.1448184
-0.1290357 -0.05101411 1.141
-0.14001331 -0.048349917 1.149
-0.13553646 -0.047790311 1.149
-0.12645726 -0.044886503 1.1463336
-0.1225182 -0.037619345 1.1474001
-0.1162139 -0.034221232 1.1440002
-0.10903016 -0.031008577 1.141
-0.11386015 -0.026659871 1.1476668
-0.10842601 -0.025989532 1.1467144
-0.15788397 -0.0034121622 1.1442001
-0.14441608 0.037400063 1.1426667
-0.13706665 0.036928356 1.1446
-0.16532794 0.049099468 1.1430001
-0.15310808 0.04331347 1.149
-0.1438746 0.04348135 1.149
-0.13749509 0.042809825 1.149
-0.18105008 0.058016047 1.141
-0.17456356 0.056032859 1.1450003
-0.16779713 0.052682023 1.1461428
-0.15210079 0.058422823 1.149
-0.14379065 0.054393653 1.149
-0.18238378 0.064573415 1.1409999
-0.17637314 0.065306157 1.1460911
-0.16015911 0.069503009 1.149
-0.15277232 0.063011587 1.149
-0.18105008 0.077021301 1.141
-0.17693147 0.073175803 1.1435
-0.19155297 0.086523935 1.141
-0.18613262 0.085900187 1.1450002
-0.17904952 0.081022412 1.141
-0.19209081 0.094655737 1.141889
-0.18658662 0.095614068 1.1457621
-0.19162442 0.10588642 1.1409999
-0.18643966 0.10525103 1.1434002
-0.40081024 0.1182413 1.1430001
-0.1937221 0.11601456 1.1430002
-0.18803303 0.11446447 1.1470002
-0.40050954 0.12145779 1.1450001
-0.39373225 0.12321527 1.1450001
-0.38710707 0.12703514 1.141
-0.20205592 0.12703514 1.1409999
-0.1974782 0.12462465 1.1458001
-0.37377879 0.1338363 1.1455334
-0.36536926 0.13483962 1.147154
-0.35609412 0.13742363 1.1442
-0.20485771 0.13538754 1.1430001
-0.19975288 0.13149561 1.1450001
-0.35561454 0.14423127 1.1475002
-0.34624538 0.14655149 1.1438571
-0.33909377 0.14904122 1.141
-0.21276319 0.14796759 1.143
-0.20725839 0.14486842 1.1452858
-0.33309212 0.15204206 1.141
-0.32479507 0.15387224 1.1446667
-0.31512111 0.15643063 1.1475
-0.30580208 0.15741047 1.1436667
-0.23415329 0.15805912 1.1421429
-0.22475 0.15624289 1.1436667
-0.21478003 0.154884 1.1461431
-0.20979072 0.15157129 1.1450001
-0.30420157 0.16015911 1.149
-0.29511407 0.16311479 1.145
-0.2840752 0.16615401 1.1427144
-0.27445802 0.16688105 1.1426001
-0.26473412 0.16625099 1.1442729
-0.25625816 0.1668244 1.1463333
-0.24336992 0.16562743 1.1450001
-0.23619841 0.16294457 1.1473335
-0.2252972 0.16049488 1.149
-0.21757464 0.16015911 1.149
-0.28204119 0.17023201 1.149
-0.2754938 0.17073566 1.149
-0.1325953 -0.044736125 1.1545999
-0.12837118 -0.04245346 1.153
-0.13287373 -0.039557829 1.1570001
-0.12498007 -0.034407411 1.1543332
-0.12331417 -0.028040575 1.1561112
-0.11558521 -0.023014911 1.1539999
-0.10668385 -0.022876266 1.1545999
-0.1132502 -0.017987227 1.1559999
-0.10751615 -0.019271763 1.1570001
-0.15721701 -0.00608582 1.1570001
-0.13291055 0.037021108 1.1538
-0.16071667 0.049529035 1.153
-0.15420604 0.047494542 1.1561426
-0.14481623 0.047235541 1.153923
-0.1362405 0.046156846 1.1545999
-0.17082463 0.059637003 1.153
-0.16409096 0.056248862 1.1539999
-0.15537173 0.054789424 1.1549999
-0.14472185 0.056092586 1.1534705
-0.13802151 0.054312132 1.1564286
-0.17158273 0.065701783 1.153
-0.16514295 0.065618195 1.1544999
-0.15709375 0.065998621 1.1545999
-0.14688155 0.063312866 1.1554999
-0.17213175 0.071891055 1.155
-0.16736005 0.072015539 1.1570001
-0.1832692 0.087077536 1.155
-0.18243411 0.094881848 1.1545
-0.17912598 0.095547363 1.1570001
-0.18190083 0.10460299 1.1534444
-0.17863008 0.10402244 1.1570001
-0.18361308 0.11494064 1.1544285
-0.17902455 0.11258767 1.1570001
-0.19386835 0.12620895 1.1553999
-0.18682496 0.12263719 1.1561112
-0.37096238 0.13847914 1.153
-0.36793 0.13847914 1.153
-0.20165394 0.13696295 1.153
-0.19831263 0.13435024 1.156111
-0.3641395 0.14277503 1.153
-0.35883281 0.1475763 1.153
-0.20325878 0.14431989 1.1547778
-0.19981776 0.14200246 1.1570001
-0.32450053 0.15854166 1.1543332
-0.31840095 0.15869507 1.153
-0.2088338 0.15406139 1.1570001
-0.31501633 0.1610512 1.1554
-0.30428332 0.16442868 1.1559999
-0.29719087 0.16736005 1.1570001
-0.25573155 0.16880304 1.153
-0.24360199 0.16880304 1.153
-0.23430057 0.16605856 1.155
-0.22526965 0.16469988 1.1553999
-0.21495545 0.1625407 1.1547778
-0.20996079 0.16127422 1.1570001
-0.28554085 0.17213349 1.155
-0.27439868 0.17280911 1.155
-0.2657986 0.17198962 1.1547778
-0.25704327 0.17195487 1.1554999
-0.24517387 0.17121971 1.1556667
-0.23836128 0.17141727 1.1570001
-0.13536872 -0.042748019 1.1610001
-0.13265456 -0.034944806 1.1610001
-0.12926187 -0.03460554 1.161
-0.13197602 -0.028837949 1.161
-0.12586108 -0.024542959 1.1628463
-0.11908377 -0.02137401 1.161
-0.10390516 -0.022410229 1.1620001
-0.16089725 -0.016397173 1.169
-0.15884762 -0.014347527 1.169
-0.12167578 -0.017382255 1.1663333
-0.11541287 -0.013939524 1.1636668
-0.10528854 -0.0146352 1.1650001
-0.099407859 -0.01229788 1.169
-0.1553047 -0.0060272776 1.1663334
-0.11462153 -0.0078534717 1.1685556
-0.10737871 -0.0076292399 1.169
-0.13227761 0.039104883 1.1636667
-0.13305666 0.045486242 1.1645557
-0.15979616 0.053943928 1.161
-0.13424431 0.05402822 1.1662308
-0.1526715 0.068193272 1.161
-0.14420256 0.066493884 1.1640769
-0.13858193 0.062530667 1.1645
-0.17434783 0.076746151 1.1650001
-0.16545263 0.073742561 1.1650001
-0.15511279 0.071299084 1.1660001
-0.18073399 0.084478237 1.1610001
-0.17776082 0.08455538 1.1671818
-0.18150945 0.091263629 1.161
-0.17624098 0.095779777 1.1643333
-0.17452748 0.10487124 1.16425
-0.18083091 0.11840523 1.161
-0.17695585 0.11399695 1.1667777
-0.191009 0.12858333 1.161
-0.18404302 0.12554735 1.1628463
-0.19401658 0.13557719 1.1627779
-0.18823574 0.1338288 1.1678572
-0.20227523 0.14809127 1.1618
-0.19717883 0.14411101 1.1642001
-0.20487355 0.15553319 1.1640589
-0.19892941 0.15116042 1.1676668
-0.3207697 0.16499655 1.169
-0.31362578 0.16705832 1.1639091
-0.30717507 0.16793865 1.161
-0.2961866 0.16898292 1.1626
-0.23511411 0.16929573 1.161
-0.22366375 0.16870201 1.1610001
-0.21391025 0.1670381 1.1624546
-0.20784692 0.16387683 1.1665
-0.30607033 0.17095029 1.1676668
-0.28418684 0.17653963 1.164
-0.27715412 0.17693044 1.1666
-0.26479512 0.17732675 1.1632222
-0.25509077 0.17700635 1.1649998
-0.24326827 0.17488682 1.1643333
-0.23478079 0.1729333 1.1672223
-0.22464876 0.17275591 1.1683334
-0.21578956 0.17079413 1.1666
-0.26235479 0.18139373 1.169
-0.15626597 -0.01389502 1.1740001
-0.12471315 -0.011337345 1.1756667
-0.096663021 -0.01131163 1.1730001
-0.15399659 -0.0066911583 1.1750001
-0.12221031 -0.0063861669 1.1754001
-0.11458404 -0.0027707384 1.1742309
-0.10366845 -0.0037287921 1.1737502
-0.097684778 -0.0060056052 1.1750002
-0.11195429 0.00309551 1.177
-0.10531612 0.0036458233 1.177
-0.13104326 0.038177956 1.177
-0.1305979 0.04421819 1.1730001
-0.12897958 0.043337137 1.177
-0.13167019 0.056053191 1.1747143
-0.12897958 0.052623671 1.177
-0.13601521 0.064298235 1.1754001
-0.16558459 0.07777217 1.1750001
-0.15567146 0.074228242 1.1760001
-0.14576483 0.071339041 1.1736668
-0.17284182 0.085691534 1.1746844
-0.16715753 0.082546934 1.177
-0.17336647 0.09469752 1.174143
-0.16724667 0.097874083 1.1752224
-0.17275944 0.10694632 1.1730001
-0.16772927 0.10524163 1.1750001
-0.17341407 0.11600175 1.1751333
-0.16804473 0.11237551 1.1760001
-0.18180709 0.12773032 1.1750001
-0.17656505 0.12340685 1.1758573
-0.18417525 0.13449787 1.1745001
-0.19353776 0.14494076 1.1753334
-0.18882611 0.14136162 1.177
-0.20162053 0.15796183 1.1746
-0.19859639 0.15570284 1.1762002
-0.32186729 0.16761778 1.1730001
-0.31981063 0.16761778 1.1730001
-0.20502301 0.16472909 1.1752223
-0.311584 0.17378777 1.1730001
-0.30438411 0.17308363 1.1738001
-0.29307404 0.17584443 1.1730001
-0.28741822 0.17944358 1.1730001
-0.2704508 0.17995775 1.1730001
-0.25194085 0.17687276 1.1730001
-0.24665229 0.17878249 1.1730002
