# .PCD v0.7 - Point Cloud Data file format
VERSION 0.7
FIELDS x y z
SIZE 4 4 4
TYPE F F F
COUNT 1 1 1
WIDTH 1461
HEIGHT 1
VIEWPOINT 0 0 0 1 0 0 0
POINTS 1461
DATA ascii
-0.23341425 -0.0027036399 1.028
-0.30010405 0.049566735 1.028
-0.29469675 0.049566735 1.028
-0.28658581 0.049566735 1.028
-0.34390303 0.057136931 1.028
-0.337955 0.055875238 1.028
-0.30433977 0.055604864 1.028
-0.29472154 0.055060621 1.0260713
-0.28491977 0.05482389 1.0252398
-0.27525881 0.054963194 1.025517
-0.265232 0.055751659 1.0265714
-0.25515968 0.055880178 1.02485
-0.24559066 0.05747677 1.0267142
-0.23521666 0.057677656 1.028
-0.2298094 0.058578867 1.028
-0.34336224 0.060381293 1.028
-0.337955 0.061102264 1.028
-0.31335196 0.06479723 1.028
-0.30487522 0.065099403 1.028
-0.29479268 0.064611353 1.0271561
-0.28513044 0.064764969 1.0259998
-0.27504131 0.0646547 1.0242939
-0.26483676 0.064568348 1.0224837
-0.25488493 0.064622097 1.0237499
-0.24493261 0.064596489 1.0233998
-0.23529249 0.064659663 1.0244166
-0.22510158 0.064828694 1.0270832
-0.21538997 0.066689782 1.028
-0.20637786 0.06813173 1.028
-0.19556329 0.069393426 1.028
-0.3109186 0.071195856 1.028
-0.30272576 0.072670572 1.028
-0.29469678 0.074800707 1.028
-0.285234 0.073448889 1.028
-0.27487007 0.072998285 1.028
-0.26433295 0.074258901 1.0271922
-0.25489393 0.074758947 1.0273999
-0.24524845 0.074933715 1.0271428
-0.23513143 0.074450336 1.0258887
-0.22620454 0.072998278 1.028
-0.21538998 0.072342858 1.028
-0.20660317 0.072097063 1.028
-0.19376087 0.071646459 1.028
-0.29244375 0.080658592 1.028
-0.28793764 0.0806586 1.028
-0.26045066 0.080207989 1.028
-0.25504336 0.080207989 1.028
-0.2456518 0.08248473 1.028
-0.23589259 0.081109203 1.028
-0.2298094 0.081109196 1.028
-0.29109192 0.11625652 1.028
-0.28420991 0.11576495 1.028
-0.27450958 0.11601618 1.028
-0.26525125 0.11605108 1.0278928
-0.2550844 0.1162903 1.0265554
-0.24503967 0.1165017 1.0278928
-0.23669139 0.11805893 1.028
-0.2298094 0.11986137 1.028
-0.26276806 0.12243627 1.028
-0.25444481 0.12391283 1.027294
-0.24537583 0.12412167 1.028
-0.23641826 0.12376664 1.028
-0.2298094 0.12406704 1.028
-0.26298422 -0.13376705 1.0380001
-0.25469655 -0.13226025 1.0376002
-0.24485157 -0.13254322 1.0361819
-0.23620482 -0.13142711 1.0380001
-0.272448 -0.12139133 1.0380001
-0.26405361 -0.12457433 1.0350479
-0.25429386 -0.12488747 1.0320002
-0.24499269 -0.12488635 1.0312144
-0.23533325 -0.12438639 1.0330571
-0.227495 -0.12102734 1.0380001
-0.28391373 -0.11374748 1.0380001
-0.27422616 -0.11710294 1.0375001
-0.26445642 -0.11631231 1.0330715
-0.25217229 -0.11840347 1.031
-0.24464291 -0.11638274 1.0321251
-0.23533916 -0.1158609 1.0325001
-0.22853866 -0.11336396 1.0345001
-0.2138453 -0.11010758 1.0380001
-0.29028362 -0.1046477 1.0380001
-0.28525788 -0.10803445 1.0356001
-0.2138453 -0.10828761 1.0380001
-0.34306246 -0.011569746 1.0380001
-0.33505464 -0.01182974 1.0380001
-0.32408288 -0.011959737 1.0380001
-0.31410858 -0.012656993 1.0380001
-0.30476347 -0.013989178 1.0374287
-0.29450554 -0.015017441 1.0367202
-0.28604889 -0.011141557 1.0375001
-0.27026406 -0.01000978 1.0380001
-0.26480418 -0.01000978 1.0380001
-0.25544441 -0.011309751 1.0380001
-0.24478462 -0.011465749 1.0380001
-0.23490486 -0.011309751 1.0380001
-0.20110558 -0.01000978 1.0380001
-0.35175782 -0.0037410287 1.0380001
-0.34480658 -0.0045498996 1.0380001
-0.33450708 -0.0046350611 1.0378096
-0.32501668 -0.0047862185 1.0374784
-0.31522158 -0.0044750078 1.0355716
-0.30436376 -0.0049327849 1.0346252
-0.29435971 -0.0054338132 1.0331336
-0.28514856 -0.00501503 1.0339003
-0.2749019 -0.0045387228 1.0341787
-0.26470068 -0.0044134115 1.0346553
-0.25437984 -0.0051132212 1.033143
-0.24507023 -0.0055241887 1.0327744
-0.23482721 -0.0051302533 1.0320606
-0.22563551 -0.0027258149 1.0361179
-0.21502519 -0.0027283034 1.0366668
-0.20430978 -0.0037523624 1.0353916
-0.19482133 -0.0046112016 1.0357779
-0.18529598 -0.0028291009 1.0366668
-0.17544416 -0.0016379639 1.0380001
-0.35198027 0.0032759283 1.0380001
-0.3448824 0.0045498987 1.0380001
-0.33460501 0.0046569565 1.0380001
-0.32539144 0.0046887058 1.0353335
-0.31583863 0.0046591717 1.0359356
-0.30427578 0.0049264282 1.0337503
-0.29436719 0.00557512 1.0325485
-0.28515106 0.0055801244 1.033226
-0.27466217 0.0052947667 1.0310856
-0.26465398 0.0052548214 1.0316564
-0.25470451 0.0055836458 1.031353
-0.24527366 0.0054284958 1.0324003
-0.23499931 0.0054230602 1.0309998
-0.2249243 0.0054401066 1.0345559
-0.2148342 0.0054388409 1.0340003
-0.20486301 0.0054388396 1.0340003
-0.19489178 0.0054388396 1.0340003
-0.18494017 0.0054397164 1.0341114
-0.17478934 0.004604578 1.0350372
-0.16671088 0.0060995123 1.0364764
-0.3503423 0.01091976 1.0380001
-0.34391174 0.012315063 1.0380001
-0.33522266 0.012949714 1.0380001
-0.32446843 0.012790566 1.0377648
-0.31442842 0.014135021 1.0380001
-0.30379057 0.01503811 1.0354785
-0.29461783 0.015413867 1.0340402
-0.28530842 0.015549706 1.0339233
-0.27499801 0.015264608 1.0324485
-0.26498112 0.01537596 1.0316001
-0.25488389 0.015365333 1.031
-0.24502629 0.015369649 1.0313601
-0.23499933 0.015365334 1.031
-0.22509338 0.015432957 1.0353335
-0.2148342 0.015410045 1.0340003
-0.20486303 0.015410046 1.0340003
-0.19489178 0.015410045 1.0340003
-0.18492056 0.015410046 1.0340003
-0.17501678 0.014704756 1.0378711
-0.16479622 0.01399618 1.0376924
-0.31277314 0.023789478 1.0380001
-0.30302334 0.02183952 1.0380001
-0.29210362 0.022446172 1.0380001
-0.28474984 0.024534108 1.0364002
-0.27481619 0.024574939 1.0353217
-0.26454148 0.024617797 1.0344288
-0.25456619 0.025061853 1.0331336
-0.24496965 0.025443522 1.0328389
-0.23433128 0.025144406 1.0320525
-0.22494094 0.024426358 1.0378463
-0.21481419 0.02461141 1.036815
-0.20452747 0.024514478 1.0355717
-0.19489178 0.025381247 1.0340003
-0.18523505 0.024827855 1.0345002
-0.17631945 0.024482798 1.0380001
-0.28340819 0.032253735 1.0380001
-0.27442396 0.032369293 1.0380001
-0.26418862 0.034114026 1.0376668
-0.25543448 0.034809481 1.0372001
-0.24502237 0.033046242 1.0374668
-0.2335526 0.03465436 1.0360003
-0.22580506 0.033929262 1.0380001
-0.21020538 0.03002934 1.0380001
-0.20385054 0.031431228 1.0375557
-0.19482553 0.033747438 1.0370588
-0.18523535 0.032196928 1.0374668
-0.17663723 0.031242646 1.0380001
-0.3503423 0.048228938 1.0380001
-0.34472659 0.048607577 1.0355456
-0.3355054 0.048185453 1.0345335
-0.32548791 0.048113324 1.0331252
-0.31421638 0.046865646 1.0342176
-0.30508783 0.045620799 1.0340371
-0.29492825 0.045717631 1.0342382
-0.28438157 0.046030644 1.0349567
-0.27500588 0.047277175 1.0343335
-0.26465595 0.046494272 1.035643
-0.25481793 0.04673912 1.0353335
-0.24723528 0.047627296 1.0362858
-0.23204491 0.040949099 1.0380001
-0.362562 0.057588734 1.0380001
-0.3549521 0.05525434 1.0365239
-0.34612715 0.053639866 1.0316924
-0.33404985 0.054709099 1.031
-0.32538357 0.055134434 1.031
-0.31486019 0.054940753 1.031
-0.30685481 0.051970989 1.031
-0.271153 0.05151907 1.031
-0.26422352 0.051820353 1.031
-0.25330624 0.051783562 1.0327001
-0.24437758 0.053564791 1.0335883
-0.23471034 0.054170858 1.0348572
-0.22476339 0.056186914 1.0338184
-0.21536879 0.056884635 1.0352106
-0.20640345 0.059103113 1.0372001
-0.36230204 0.062788621 1.0380001
-0.35569382 0.064613596 1.0366668
-0.34532765 0.065088332 1.0317202
-0.33496276 0.065825015 1.0323002
-0.32522014 0.064932235 1.0313751
-0.31807071 0.064994544 1.031
-0.21481422 0.061683472 1.0312308
-0.20494655 0.063967861 1.0333848
-0.19503154 0.066105083 1.0330359
-0.18615134 0.067848682 1.0338
-0.35170728 0.070523441 1.0380001
-0.34433645 0.072798386 1.0380001
-0.33531207 0.073997676 1.0372502
-0.32449251 0.075203329 1.0359502
-0.31496939 0.075116366 1.0331852
-0.30556172 0.076746225 1.031643
-0.28471065 0.077730529 1.031
-0.27476835 0.077730529 1.031
-0.26663378 0.078634366 1.031
-0.22526962 0.076401353 1.031
-0.21506156 0.076933019 1.031
-0.20488706 0.075875267 1.031
-0.19536924 0.075505689 1.031
-0.18452977 0.074776255 1.0318334
-0.17634377 0.075326443 1.035261
-0.31420308 0.081248216 1.0380001
-0.30411342 0.083376147 1.0351251
-0.29522729 0.084816679 1.0328573
-0.28438938 0.084664792 1.0322002
-0.27452275 0.084505871 1.0321615
-0.26489401 0.085305765 1.0315001
-0.25553188 0.085637748 1.0317202
-0.24430068 0.087414332 1.0312308
-0.23501784 0.086411685 1.0316924
-0.22483492 0.084610514 1.0331382
-0.2147409 0.084383182 1.0326554
-0.20481271 0.085188821 1.0337502
-0.19483544 0.085185081 1.0337002
-0.18512282 0.084633768 1.0338752
-0.17565939 0.083876535 1.0351431
-0.29210356 0.090997994 1.0380001
-0.28414124 0.090770498 1.0380001
-0.27520299 0.091868624 1.0375557
-0.26483348 0.092574246 1.0361819
-0.25451276 0.093328528 1.0376002
-0.24513152 0.093000717 1.0376924
-0.23497725 0.093587086 1.0375557
-0.22440107 0.090452008 1.0380001
-0.21489896 0.093249001 1.0380001
-0.20506638 0.093617268 1.0367501
-0.19509265 0.093132064 1.037143
-0.18420596 0.090867996 1.0380001
-0.17835608 0.090997994 1.0380001
-0.32458425 0.10676126 1.0376365
-0.31481516 0.10762222 1.0360001
-0.30402151 0.10693033 1.0332632
-0.29475647 0.10632733 1.0340743
-0.28480533 0.1070249 1.0346365
-0.27443334 0.10692361 1.0340436
-0.26519388 0.10800806 1.0353531
-0.25583032 0.10814618 1.0366668
-0.24928017 0.10968328 1.034
-0.32334623 0.11223087 1.0380001
-0.3149513 0.11490705 1.0353202
-0.30488127 0.11489517 1.0319601
-0.29527858 0.11471855 1.031
-0.28521279 0.11428595 1.031
-0.27552155 0.1129804 1.031
-0.26482609 0.11117272 1.031
-0.25419399 0.11126555 1.031875
-0.24420953 0.11156961 1.0322858
-0.23428522 0.11396673 1.0334401
-0.22514109 0.11652209 1.0349526
-0.21738403 0.11771154 1.0362858
-0.31242648 0.12224064 1.0380001
-0.30464834 0.12302697 1.0358825
-0.29455593 0.12406315 1.0340772
-0.28447455 0.12472764 1.0323335
-0.27473098 0.12482195 1.0312814
-0.26545727 0.12680158 1.0315001
-0.25598848 0.12844616 1.031
-0.24442507 0.12873311 1.031
-0.23409539 0.12665103 1.031
-0.22514519 0.12477892 1.0314001
-0.21519376 0.12475131 1.0322161
-0.20635894 0.12702277 1.0345792
-0.29210359 0.13012713 1.0380001
-0.28482375 0.13121912 1.0380001
-0.27376932 0.13252254 1.0368001
-0.26432094 0.13464856 1.0360954
-0.2544165 0.13460737 1.0346959
-0.24475074 0.13341308 1.0344446
-0.23450319 0.1338892 1.0344738
-0.22452961 0.1330855 1.0357144
-0.21479328 0.13451406 1.0350478
-0.20517859 0.13371223 1.0343639
-0.19837564 0.13376707 1.0380001
-0.26816532 -0.14003173 1.044
-0.25398362 -0.14195617 1.045909
-0.24498801 -0.14183694 1.0455999
-0.23662221 -0.14087446 1.0444286
-0.28239799 -0.13247924 1.0470001
-0.27413374 -0.13352342 1.0464545
-0.26500991 -0.13524364 1.0419003
-0.25532019 -0.13710211 1.0410001
-0.24457948 -0.13689151 1.0410001
-0.23399684 -0.13552615 1.0428573
-0.22514905 -0.13411787 1.0440001
-0.21514218 -0.13309696 1.0447896
-0.20835648 -0.13309115 1.0470001
-0.29096478 -0.12024097 1.0470001
-0.28268737 -0.12421621 1.0448999
-0.27569711 -0.12614188 1.0434
-0.26921993 -0.1277654 1.041
-0.23111212 -0.12697639 1.0419999
-0.22458538 -0.12548377 1.0426073
-0.21453173 -0.12560458 1.0458003
-0.2075406 -0.1235045 1.0470001
-0.29317138 -0.11400348 1.0445
-0.28521279 -0.11721767 1.0414616
-0.27773765 -0.11468466 1.041
-0.23089033 -0.11772669 1.041
-0.22481756 -0.11600603 1.0419602
-0.21555868 -0.11520158 1.0424119
-0.20549127 -0.11456607 1.0449003
-0.30234638 -0.10041498 1.0470001
-0.29498425 -0.10473432 1.0445626
-0.21142131 -0.10738377 1.041
-0.20453463 -0.1053733 1.0432502
-0.19780098 -0.10188357 1.0470001
-0.30400854 -0.096688256 1.0464
-0.29830775 -0.098212086 1.0470001
-0.20209897 -0.098631762 1.0431429
-0.19627924 -0.094733857 1.0470002
-0.19367057 -0.089033388 1.0470001
-0.33318681 -0.030748645 1.0470001
-0.32538021 -0.030997967 1.0461
-0.31391156 -0.03028971 1.0470001
-0.30381501 -0.03090162 1.0470001
-0.29647198 -0.03028971 1.0470001
-0.3515442 -0.02111101 1.0470001
-0.34396112 -0.02357238 1.0459412
-0.33440581 -0.024440801 1.0448402
-0.32464921 -0.024693906 1.0431601
-0.3148151 -0.024874536 1.0422224
-0.30487981 -0.024629947 1.0430691
-0.29464585 -0.02471053 1.0437858
-0.28552043 -0.02377733 1.0450002
-0.27659765 -0.021920172 1.0466666
-0.25149637 -0.02111101 1.0470001
-0.24408616 -0.021618223 1.0461428
-0.23641005 -0.021784291 1.0462501
-0.2019314 -0.02111101 1.0470001
-0.1955063 -0.02111101 1.0470001
-0.18632761 -0.02111101 1.0470001
-0.36255863 -0.011320396 1.0470001
-0.35445988 -0.013906689 1.044
-0.34598896 -0.015531294 1.0420437
-0.33554634 -0.015447087 1.0415002
-0.3252542 -0.016792024 1.0410001
-0.31558055 -0.018069677 1.0410001
-0.30546358 -0.018904064 1.041
-0.29538146 -0.01916481 1.041
-0.28435028 -0.015657235 1.0417502
-0.27516094 -0.014940155 1.0430002
-0.2652716 -0.015273929 1.0434232
-0.25547481 -0.016263546 1.044143
-0.2449826 -0.016271917 1.0425602
-0.23423462 -0.016146204 1.0438802
-0.22506499 -0.014419654 1.0455457
-0.21501361 -0.013820852 1.0453849
-0.20510879 -0.01478288 1.0448003
-0.1952882 -0.014421274 1.0440003
-0.18506938 -0.014663056 1.0450835
-0.17521441 -0.014512521 1.0456555
-0.16710657 -0.012617095 1.046625
-0.38458753 -0.00091786997 1.0470001
-0.37334365 -0.0025241424 1.0470001
-0.36480784 -0.0042591123 1.0436089
-0.35626015 -0.0050193542 1.0410001
-0.34770441 -0.0045630499 1.041
-0.3365503 -0.0043602479 1.041
-0.22477053 -0.007006539 1.0422502
-0.21517609 -0.0070006214 1.0415
-0.20761877 -0.007757185 1.041
-0.19073549 -0.0082134902 1.041
-0.18439904 -0.0074857688 1.0413001
-0.17483298 -0.0059174998 1.0424212
-0.16484953 -0.0045810211 1.0447003
-0.15879151 -0.0027536098 1.0470001
-0.38825899 0.0064250901 1.0470001
-0.37296119 0.0033655234 1.0470001
-0.36509934 0.0045776726 1.0437602
-0.35634381 0.0054148198 1.0410001
-0.33766571 0.0045630499 1.0410001
-0.1627972 0.002739853 1.0419232
-0.157446 0.0053138272 1.0453999
-0.36530483 0.014390251 1.0459619
-0.35556078 0.014875656 1.0418574
-0.34685266 0.016852865 1.0410001
-0.33568427 0.01551677 1.0411307
-0.32554102 0.017469963 1.0410001
-0.31667566 0.01642698 1.041
-0.30937478 0.016731182 1.041
-0.17613372 0.0182522 1.041
-0.16472611 0.018708505 1.041
-0.15565145 0.014767301 1.0435717
-0.14850257 0.017431639 1.0465714
-0.36372682 0.022446094 1.0470001
-0.35453063 0.024357956 1.0452633
-0.34478182 0.024617271 1.0426074
-0.33529723 0.024695702 1.0432801
-0.32482931 0.024522848 1.0413105
-0.31634381 0.025636042 1.0410001
-0.30487689 0.02483603 1.0410002
-0.29558426 0.025553079 1.0410001
-0.21628857 0.028290911 1.041
-0.1714693 0.024843272 1.041
-0.1651824 0.024640469 1.0410002
-0.15543722 0.024688158 1.0430001
-0.14528179 0.02518313 1.046667
-0.34452039 0.034588628 1.048125
-0.33378842 0.034491085 1.0452002
-0.32478759 0.03476632 1.0436002
-0.31479201 0.034826133 1.0419377
-0.30459538 0.034578007 1.0411767
-0.29480156 0.034682073 1.0411003
-0.28549483 0.035895988 1.0410002
-0.27515191 0.037873317 1.0410001
-0.26848984 0.037782051 1.041
-0.253158 0.038512144 1.041
-0.24497059 0.037938498 1.0410001
-0.2375828 0.038633823 1.041
-0.22298105 0.036200199 1.041
-0.2158245 0.034863956 1.0425429
-0.20618227 0.036376577 1.0425001
-0.19529851 0.038329616 1.0410001
-0.18437153 0.037348937 1.0420588
-0.17440298 0.035644177 1.0424403
-0.16458395 0.034748737 1.043
-0.15477803 0.034805682 1.0447003
-0.14597757 0.033954564 1.0467782
-0.3607229 0.048647109 1.0470001
-0.35397673 0.045922216 1.04425
-0.34490308 0.043597233 1.044158
-0.33517841 0.043430064 1.0452
-0.3247405 0.043285932 1.0427647
-0.31656224 0.042223003 1.0413749
-0.30344284 0.041067451 1.041
-0.29477301 0.041751906 1.041
-0.28427801 0.041523755 1.041
-0.27469561 0.041980058 1.0410001
-0.26609096 0.04158894 1.041
-0.25388807 0.042345099 1.0410001
-0.24403737 0.044321299 1.0419602
-0.2348129 0.04490846 1.0418751
-0.2250393 0.044732317 1.0427588
-0.21526822 0.044912007 1.0438848
-0.20503296 0.044851404 1.0441003
-0.19496892 0.044852339 1.0441202
-0.18507126 0.044896293 1.0451003
-0.17507225 0.044916086 1.0455602
-0.16515242 0.0449595 1.0466005
-0.15619087 0.042986911 1.0470001
-0.14869493 0.041304149 1.0470001
-0.37280118 0.058863342 1.041
-0.36553383 0.055022225 1.0417502
-0.3580015 0.05114232 1.04175
-0.24275425 0.050193548 1.041
-0.23428303 0.051037483 1.0416667
-0.22560954 0.051149555 1.0419
-0.2150404 0.052105714 1.0427648
-0.20484748 0.054153048 1.0436131
-0.19532102 0.055113003 1.0450648
-0.18539463 0.055067446 1.0469171
-0.17556348 0.053737115 1.0470003
-0.16654241 0.051502705 1.0470001
-0.37425429 0.064302452 1.0447999
-0.36620316 0.065504096 1.0413752
-0.19472519 0.061430786 1.0414284
-0.18421011 0.063872308 1.0444288
-0.17779268 0.066326849 1.046
-0.3641355 0.074344508 1.0446522
-0.35530877 0.075407162 1.0423203
-0.3463355 0.07665924 1.0410001
-0.33534905 0.077852659 1.0410001
-0.32945222 0.077571847 1.041
-0.17276186 0.074098028 1.0435386
-0.16707282 0.077512674 1.0455
-0.35435832 0.082401708 1.0456667
-0.34446454 0.084939457 1.0436252
-0.33507636 0.084965952 1.0437779
-0.32482582 0.085090406 1.0419233
-0.31503063 0.086135648 1.0419003
-0.30602857 0.087914765 1.041
-0.17187491 0.086089544 1.041
-0.16458063 0.085034199 1.0430002
-0.15586859 0.086529963 1.045875
-0.14805849 0.088248074 1.0464
-0.34328336 0.090869129 1.0470001
-0.33270484 0.094257556 1.045125
-0.32455099 0.095310032 1.0444547
-0.31508103 0.094928972 1.0452002
-0.3045297 0.094991975 1.0435865
-0.29530099 0.095847271 1.0412502
-0.28501517 0.09638565 1.0410002
-0.2749998 0.097040854 1.0410001
-0.2649253 0.097756624 1.0410001
-0.25461817 0.098561883 1.0410001
-0.24439694 0.09801431 1.0410001
-0.23377162 0.09800718 1.0412728
-0.22581017 0.096082769 1.0421252
-0.21614815 0.098210864 1.0410001
-0.20497222 0.098379359 1.0410001
-0.19484222 0.097877406 1.0410001
-0.18487848 0.096628495 1.0425602
-0.17448698 0.0952674 1.0424485
-0.16494195 0.094632007 1.0441877
-0.15641153 0.093802407 1.0464375
-0.1475476 0.092245936 1.0470001
-0.34377038 0.10661433 1.0447057
-0.33440462 0.10485405 1.0438751
-0.32516152 0.10342322 1.0427142
-0.31464007 0.10304894 1.0433334
-0.30579489 0.1024275 1.0423636
-0.29477304 0.1018212 1.041
-0.28473434 0.10221233 1.0410001
-0.27469563 0.10221232 1.0410001
-0.26433721 0.10325877 1.0413334
-0.25423396 0.10408559 1.0410001
-0.24483818 0.10505894 1.0421003
-0.23467389 0.10501064 1.0416002
-0.22514907 0.10525259 1.0440003
-0.21476367 0.10550471 1.0444447
-0.20510532 0.10532197 1.0453336
-0.19551922 0.10467219 1.0445219
-0.18528634 0.10492264 1.046308
-0.17523703 0.1045934 1.0465502
-0.16552256 0.10348985 1.0470003
-0.15879151 0.10096569 1.0470001
-0.35154423 0.11289801 1.0470001
-0.34472746 0.11488854 1.0442145
-0.3351728 0.11538457 1.043226
-0.32617941 0.11667329 1.0411767
-0.24549207 0.11042581 1.041
-0.23430881 0.11085451 1.0416
-0.22451557 0.11186667 1.0422857
-0.21433589 0.1148438 1.0454065
-0.20488898 0.1137139 1.0470001
-0.19917779 0.11473375 1.0470001
-0.34408998 0.12252196 1.0461
-0.33406818 0.12360244 1.0443749
-0.32491457 0.12529825 1.0445002
-0.31581438 0.12614369 1.0418334
-0.30595249 0.12799355 1.041
-0.29842347 0.12867801 1.041
-0.21019223 0.12024097 1.0470001
-0.20430593 0.12302727 1.0442612
-0.19699472 0.12654288 1.0451666
-0.32217237 0.1312554 1.0470001
-0.31384555 0.13241194 1.0452498
-0.30384737 0.13387406 1.0447896
-0.29480839 0.13493764 1.0431819
-0.28499645 0.13564749 1.0423334
-0.27489769 0.13713266 1.0412309
-0.26447436 0.13962933 1.041
-0.25416189 0.13962933 1.041
-0.24439697 0.13871673 1.0410001
-0.23401929 0.13858636 1.041
-0.22518651 0.13757595 1.041
-0.21628857 0.13962933 1.041
-0.20442465 0.13871673 1.041
-0.19529803 0.13461517 1.0430002
-0.18735564 0.13556783 1.0461177
-0.2938495 0.14095862 1.0470001
-0.28536785 0.14120528 1.0466666
-0.27531037 0.14309928 1.0454999
-0.26536712 0.14411986 1.0432858
-0.255144 0.14388682 1.0445623
-0.24477597 0.14331119 1.0443529
-0.23435573 0.14394817 1.0438501
-0.22528203 0.14361802 1.045174
-0.21497026 0.14396423 1.045125
-0.20489153 0.14413659 1.0451053
-0.19557673 0.14347595 1.0460457
-0.18646379 0.14300041 1.0466844
-0.25375116 -0.14574583 1.0500001
-0.24854261 -0.14593168 1.0513334
-0.29106209 -0.13213295 1.054
-0.28500032 -0.13281739 1.0514547
-0.27768418 -0.13592719 1.0500001
-0.20647569 -0.13119316 1.0524
-0.30330408 -0.12417302 1.0544446
-0.29516804 -0.12493113 1.0548002
-0.28725421 -0.12647477 1.0513334
-0.20362516 -0.12494235 1.0514547
-0.19736397 -0.12081519 1.052
-0.30235052 -0.11427657 1.0555
-0.29754803 -0.11625757 1.0508001
-0.20158949 -0.1187445 1.0500001
-0.19639347 -0.11525481 1.0517601
-0.18841612 -0.11320411 1.057
-0.31183207 -0.10271334 1.0555
-0.30514956 -0.10537983 1.0525501
-0.29916251 -0.1076985 1.0500001
-0.19510931 -0.1057307 1.0523999
-0.18691528 -0.10480785 1.0568126
-0.31425706 -0.094749063 1.0550001
-0.30878657 -0.094154872 1.053
-0.19168177 -0.094921961 1.0512002
-0.18580092 -0.094753727 1.0555
-0.32396671 -0.084678784 1.056077
-0.31599545 -0.087505303 1.0559412
-0.1922252 -0.087757096 1.0505716
-0.18492861 -0.086370528 1.0554348
-0.34458587 -0.044695426 1.0566251
-0.33544245 -0.04169865 1.057
-0.32339621 -0.045405198 1.057
-0.3150565 -0.042439956 1.057
-0.30857 -0.04169865 1.057
-0.36221063 -0.033264238 1.054
-0.35445759 -0.033708513 1.0546819
-0.34464315 -0.035072718 1.0535861
-0.33509552 -0.035786703 1.0532501
-0.32471928 -0.03628201 1.0545601
-0.31499007 -0.03579285 1.0529617
-0.30488202 -0.036224473 1.052348
-0.29465705 -0.035526101 1.0543572
-0.2858955 -0.03280925 1.0550001
-0.27535364 -0.032147162 1.057
-0.26483276 -0.032061625 1.057
-0.25552005 -0.031273991 1.057
-0.24370544 -0.03057901 1.057
-0.23571682 -0.031954501 1.0565001
-0.22795263 -0.03057901 1.057
-0.20330408 -0.030949663 1.057
-0.19480312 -0.033915713 1.0562501
-0.18606865 -0.032988265 1.0569999
-0.17884088 -0.03057901 1.057
-0.36190256 -0.02462434 1.0558
-0.35501435 -0.024992768 1.0520952
-0.34610802 -0.027384873 1.0500001
-0.33966449 -0.0285355 1.0500001
-0.28395209 -0.028040558 1.0511429
-0.27491716 -0.025837287 1.0541904
-0.26529515 -0.024639208 1.0532402
-0.25534305 -0.025085514 1.052826
-0.24527115 -0.026162364 1.0531111
-0.23415843 -0.025884714 1.0525717
-0.22507882 -0.024699101 1.0529584
-0.2153627 -0.024479276 1.0543481
-0.20559651 -0.025237672 1.0524783
-0.19523604 -0.025695249 1.0515653
-0.18449642 -0.02533049 1.0522729
-0.17513983 -0.024652451 1.0542498
-0.16636974 -0.022975439 1.0559092
-0.38084766 -0.010193003 1.057
-0.37397808 -0.011601515 1.0538889
-0.36608946 -0.015055346 1.0532
-0.35899496 -0.016569 1.0500001
-0.266945 -0.0193305 1.0500001
-0.2152655 -0.0190675 1.0500001
-0.171213 -0.0193305 1.0500001
-0.16392323 -0.016254921 1.051421
-0.15601991 -0.0133277 1.0555999
-0.14640859 -0.01389955 1.057
-0.3817063 -0.0038741652 1.0512002
-0.37613919 -0.0061651245 1.0506155
-0.36912051 -0.0082844999 1.0500001
-0.15494658 -0.0048722741 1.0538182
-0.1491885 -0.0018532733 1.057
-0.38398063 0.0048983218 1.0501598
-0.37622145 0.0051284996 1.0500001
-0.15313414 0.0046110158 1.0522858
-0.14645433 0.0059788669 1.0567273
-0.39011404 0.012046277 1.057
-0.38430759 0.013772435 1.0539049
-0.37495795 0.014992878 1.0501426
-0.15065517 0.010739166 1.0500001
-0.14472108 0.014613812 1.0531665
-0.13843289 0.016202992 1.0562501
-0.38223076 0.023408169 1.054
-0.37521639 0.024894739 1.0515999
-0.36596447 0.026694495 1.0500001
-0.35853475 0.02807525 1.0500001
-0.14267749 0.021171501 1.0500001
-0.13609332 0.025430024 1.0538422
-0.37312892 0.032796234 1.0549231
-0.36522281 0.035021666 1.0542966
-0.35518286 0.034892753 1.0518066
-0.33929628 0.036635902 1.0500001
-0.14265257 0.037789986 1.0513334
-0.1353827 0.034856614 1.0541786
-0.36543545 0.044814117 1.053524
-0.35638508 0.042871926 1.0504445
-0.33966449 0.041422501 1.0500001
-0.15390518 0.046657518 1.05125
-0.14511313 0.045353472 1.0537275
-0.13695535 0.045180205 1.0568235
-0.3672795 0.051241171 1.0500001
-0.17380714 0.058158871 1.0500001
-0.16446656 0.05540552 1.0513333
-0.15549502 0.054549143 1.0545601
-0.14548197 0.054671571 1.0569997
-0.13912788 0.053347796 1.057
-0.38222283 0.068406299 1.0516
-0.37685269 0.068301097 1.0500001
-0.17385757 0.064901926 1.0517392
-0.16433604 0.064823799 1.0562997
-0.15546903 0.062908322 1.0569999
-0.14654098 0.061025646 1.057
-0.38415262 0.07494244 1.0553335
-0.37551296 0.074734882 1.0524286
-0.36912051 0.077322006 1.0500001
-0.171213 0.070878498 1.0500001
-0.1640915 0.074141234 1.0545499
-0.15845487 0.077837482 1.057
-0.38517198 0.080617391 1.057
-0.37323612 0.084521845 1.055125
-0.36518887 0.085335605 1.0520399
-0.35616216 0.087337159 1.0516
-0.3488695 0.089288503 1.0500001
-0.1610875 0.080083497 1.0500001
-0.1547827 0.083200231 1.0522001
-0.37158129 0.091737032 1.057
-0.36473984 0.093666889 1.0563573
-0.35543367 0.093327165 1.0556154
-0.34503704 0.095375948 1.0532858
-0.33827034 0.095128097 1.0505716
-0.31389052 0.097572997 1.0500001
-0.15260392 0.096351884 1.0503637
-0.14548737 0.097249031 1.0546365
-0.35463369 0.10657106 1.0534499
-0.3444916 0.10197975 1.0514547
-0.33874398 0.101255 1.0500001
-0.193305 0.1095395 1.0500001
-0.18440683 0.1095395 1.0500001
-0.174895 0.1095395 1.0500001
-0.16388388 0.10860946 1.0508889
-0.15503643 0.10439545 1.0546088
-0.14680573 0.10232716 1.057
-0.3638199 0.11675475 1.0541999
-0.35580036 0.11538739 1.0500001
-0.20515645 0.11563781 1.0500001
-0.19524284 0.11523785 1.0537827
-0.18520129 0.11576796 1.0545187
-0.17524977 0.11504411 1.054
-0.16519405 0.11520334 1.0560954
-0.15783711 0.11088752 1.057
-0.36285862 0.1237022 1.0536155
-0.35480809 0.12454655 1.0523199
-0.34545109 0.12706962 1.0503334
-0.33579841 0.12868589 1.0500001
-0.19411826 0.12422329 1.0525626
-0.18620156 0.12467378 1.0567081
-0.17884088 0.1213894 1.057
-0.35112256 0.13028494 1.054
-0.34391579 0.13313159 1.0545714
-0.33440572 0.13409968 1.0539334
-0.32488537 0.13557841 1.0537059
-0.31564841 0.13818502 1.0543334
-0.30753174 0.13794349 1.0513334
-0.18330641 0.13409601 1.0532354
-0.17775871 0.13854542 1.0550001
-0.31190589 0.14251672 1.057
-0.30370578 0.14394313 1.0541875
-0.29494047 0.14668801 1.0538824
-0.28571934 0.14640346 1.0529333
-0.27746499 0.14796323 1.0526667
-0.26267564 0.14838868 1.0513334
-0.25497848 0.1482005 1.0500001
-0.2455105 0.14793751 1.0500001
-0.23411383 0.1482005 1.0500001
-0.224602 0.1482005 1.0500001
-0.215397 0.1482005 1.0500001
-0.2052715 0.1482005 1.0500001
-0.19330499 0.1482005 1.0500001
-0.18294895 0.14654712 1.0513334
-0.17561287 0.14522812 1.0551428
-0.16909322 0.14876507 1.054
-0.29374382 0.15104178 1.057
-0.27366668 0.15165953 1.057
-0.26542416 0.15225331 1.0564001
-0.25479284 0.15333204 1.054773
-0.24503601 0.15349622 1.05475
-0.23556779 0.15390144 1.0544784
-0.22531395 0.15256301 1.0538751
-0.21499731 0.15240392 1.0545
-0.20543791 0.15215616 1.054
-0.1949129 0.15145317 1.0528182
-0.18519442 0.15171067 1.0552
-0.17513433 0.15196839 1.057
-0.16772126 0.1519684 1.057
-0.30015314 -0.1310266 1.0600001
-0.29620376 -0.1326528 1.0600001
-0.31230682 -0.12090856 1.0650001
-0.3038702 -0.12452173 1.0600001
-0.2982946 -0.12916806 1.0600001
-0.31330362 -0.11470377 1.0648127
-0.30630061 -0.11644426 1.0600002
-0.18333104 -0.11191025 1.0600001
-0.17872895 -0.11120224 1.0600001
-0.32209054 -0.10195896 1.067
-0.31620309 -0.10597955 1.0630715
-0.18238972 -0.10534504 1.0600002
-0.17592908 -0.10370822 1.0633043
-0.32345033 -0.093749352 1.0622501
-0.31873846 -0.097573005 1.0600001
-0.18195042 -0.097944699 1.0600001
-0.17576677 -0.094737269 1.0640311
-0.16930801 -0.096346535 1.067
-0.32175308 -0.081832662 1.06075
-0.31743208 -0.083122201 1.0606
-0.18465808 -0.081263669 1.0606
-0.17527583 -0.084639743 1.0625516
-0.3248204 -0.076000318 1.0661579
-0.18231161 -0.0766965 1.06375
-0.17492428 -0.074865729 1.0639393
-0.33233541 -0.063473798 1.0670002
-0.32442227 -0.064217485 1.0669999
-0.31572327 -0.063558199 1.067
-0.30737355 -0.062484942 1.0670002
-0.17492042 -0.068284445 1.067
-0.34204578 -0.05362979 1.067
-0.33440033 -0.05496664 1.0667036
-0.32429233 -0.055141367 1.0660399
-0.31504154 -0.055156808 1.0663599
-0.30452356 -0.055266377 1.0685
-0.29839367 -0.051447183 1.067
-0.19405831 -0.052221406 1.0664285
-0.18708065 -0.051447183 1.067
-0.34140149 -0.046514951 1.061125
-0.33497572 -0.046235405 1.0610999
-0.32544777 -0.045559883 1.0605555
-0.31467873 -0.047167782 1.0632498
-0.30479255 -0.045948245 1.0646665
-0.29550049 -0.044777863 1.064
-0.28529549 -0.042345148 1.0654445
-0.27530026 -0.042694457 1.0656
-0.26504576 -0.041045293 1.0662729
-0.25536507 -0.041157749 1.0670002
-0.24367256 -0.040222343 1.067
-0.23502009 -0.040923897 1.067
-0.2250303 -0.044902653 1.0681
-0.21540485 -0.045856934 1.0677105
-0.20524389 -0.04380076 1.0647599
-0.1946888 -0.045530271 1.0634166
-0.18519381 -0.04560272 1.064607
-0.17542987 -0.043608379 1.0655599
-0.29086047 -0.039958466 1.0600001
-0.28496101 -0.037492406 1.0603335
-0.27475315 -0.03661311 1.0600002
-0.26508996 -0.036741976 1.061
-0.25522122 -0.035984706 1.0632999
-0.24581432 -0.035157956 1.0636955
-0.23419584 -0.036314283 1.0620668
-0.22450757 -0.03449836 1.0612692
-0.21465924 -0.034621194 1.0606922
-0.20557287 -0.035450026 1.0601429
-0.19647352 -0.037834432 1.0600002
-0.18435222 -0.037814006 1.0600002
-0.17495577 -0.034745377 1.0615665
-0.16893384 -0.033113278 1.067
-0.37509674 -0.021514276 1.067
-0.36569983 -0.024552366 1.0609001
-0.21651913 -0.028807266 1.0600001
-0.17098507 -0.028807266 1.0600001
-0.16507012 -0.026002729 1.0627275
-0.15898056 -0.022090832 1.0646667
-0.14872913 -0.021514276 1.067
-0.38128427 -0.013991075 1.0634
-0.37492004 -0.016745735 1.0611999
-0.36891887 -0.0195146 1.0600001
-0.15368845 -0.017721817 1.0638001
-0.147916 -0.013339944 1.0611669
-0.1449094 -0.0045749517 1.0601153
-0.13762942 -0.0018591909 1.06075
-0.14329441 0.0034439072 1.0601766
-0.13670094 0.0051303627 1.0635002
-0.39360821 0.017115165 1.0647779
-0.3888981 0.016726799 1.0600001
-0.14031927 0.010221933 1.0600001
-0.13488606 0.014528121 1.0625999
-0.39137733 0.024618844 1.0663334
-0.38680187 0.025663288 1.0617144
-0.13164611 0.023541423 1.0600001
-0.12901752 0.025962859 1.0631429
-0.3900632 0.031803712 1.067
-0.38446563 0.034530241 1.0644445
-0.37670919 0.036689766 1.0610001
-0.1310266 0.0390292 1.0600001
-0.12744288 0.035273075 1.062
-0.38164455 0.041157749 1.067
-0.37571797 0.044518195 1.0642142
-0.13237827 0.046378855 1.0600002
-0.12695384 0.044770122 1.0627896
-0.37587523 0.052630097 1.0656667
-0.14031927 0.058543801 1.0600001
-0.13411844 0.055194587 1.0608261
-0.12840724 0.052937519 1.0647143
-0.15410338 0.067991339 1.0600002
-0.1447994 0.065738343 1.0605555
-0.13606766 0.063594639 1.0642632
-0.39295399 0.077287957 1.0621667
-0.38750419 0.078987665 1.0600001
-0.15458354 0.075004339 1.0622691
-0.14554916 0.072411805 1.0665555
-0.13937509 0.070155248 1.067
-0.39221314 0.084420741 1.0648571
-0.38491118 0.085032128 1.0626363
-0.37821153 0.085492536 1.0600001
-0.15249281 0.082304239 1.0628333
-0.38240069 0.09349782 1.0665001
-0.37527877 0.094194159 1.0625296
-0.36551291 0.098586686 1.0609
-0.35559937 0.097882748 1.0600002
-0.37322593 0.10149126 1.067
-0.36546656 0.1045972 1.0631666
-0.3566061 0.10198701 1.0600001
-0.15147047 0.1087242 1.0600001
-0.1442125 0.10607032 1.0613183
-0.1388526 0.10437243 1.0630001
-0.36692619 0.1125057 1.0650001
-0.17098507 0.1198754 1.0600001
-0.16187826 0.11876027 1.0600001
-0.15449315 0.11493535 1.0623999
-0.14622258 0.11232028 1.0636364
-0.37135512 0.12815025 1.067
-0.36623538 0.12891237 1.0630001
-0.18213625 0.12730952 1.0600001
-0.1749565 0.12542491 1.0609258
-0.16630302 0.123992 1.0647501
-0.15757264 0.12113985 1.0656667
-0.37172928 0.1326402 1.067
-0.36520165 0.13386559 1.0660589
-0.3551994 0.13492605 1.0631176
-0.34542987 0.1377202 1.0604286
-0.33658037 0.13808902 1.0600001
-0.32988966 0.13846073 1.0600001
-0.181207 0.1310266 1.0600001
-0.17628008 0.13417457 1.0620555
-0.35171166 0.1412459 1.067
-0.34382188 0.14202596 1.0639092
-0.33455572 0.14371872 1.0644999
-0.32483238 0.14487401 1.062857
-0.31599855 0.14570458 1.0615001
-0.30647212 0.14812511 1.0600001
-0.17127754 0.14338969 1.0603751
-0.16819726 0.1477534 1.0600001
-0.32271415 0.15106764 1.067
-0.31434792 0.15196472 1.0654618
-0.30449444 0.15399523 1.0645789
-0.29476795 0.156065 1.0642668
-0.28538582 0.15575692 1.063846
-0.27551755 0.1564557 1.0619473
-0.26537421 0.15733944 1.0610715
-0.25554833 0.1589046 1.0600001
-0.24625567 0.1589046 1.0600001
-0.23361763 0.15816119 1.0600001
-0.22421247 0.1578954 1.0605
-0.21459885 0.15792632 1.0613637
-0.20451537 0.15784441 1.0617859
-0.19499142 0.15747441 1.0628667
-0.18528333 0.15735449 1.0620668
-0.17541398 0.15703726 1.0615
-0.16726799 0.15518753 1.0600001
-0.2824918 0.16182478 1.067
-0.2745834 0.16301531 1.0670002
-0.26504928 0.16446592 1.0670002
-0.25535557 0.16335118 1.0655
-0.244702 0.16344914 1.0653751
-0.23507288 0.16509214 1.0663462
-0.22503893 0.16283433 1.0644168
-0.21514277 0.16182478 1.067
-0.20672412 0.16182478 1.067
-0.19362849 0.16182478 1.067
-0.18577109 0.16182478 1.067
-0.17679124 0.16182478 1.067
-0.32426006 -0.11167017 1.0730001
-0.31846231 -0.11584712 1.0700001
-0.32563475 -0.10467575 1.0724999
-0.16978404 -0.10036957 1.0700001
-0.32737362 -0.097555466 1.0700001
-0.1716601 -0.094741367 1.0700001
-0.16787449 -0.093432859 1.0722001
-0.31851029 -0.081739306 1.07175
-0.19166651 -0.084031127 1.077
-0.18977816 -0.08025445 1.077
-0.1716601 -0.089113168 1.0700001
-0.16732994 -0.085299201 1.072619
-0.33206379 -0.070352502 1.0700001
-0.32334617 -0.074090227 1.0714375
-0.31586841 -0.073916897 1.0737599
-0.30473197 -0.073191114 1.0749047
-0.29530478 -0.072648033 1.0762
-0.28740534 -0.072323427 1.0769999
-0.2044128 -0.071284831 1.077
-0.1982757 -0.070812747 1.077
-0.18566594 -0.072997466 1.0721333
-0.16859058 -0.075008258 1.0728749
-0.33425251 -0.067851074 1.0700001
-0.32737362 -0.068476431 1.0700001
-0.31353766 -0.06777291 1.0700001
-0.3035377 -0.065775067 1.0702999
-0.29472452 -0.064640805 1.0718927
-0.28547275 -0.06465774 1.0760767
-0.27441013 -0.062572718 1.0769999
-0.26612106 -0.061910577 1.077
-0.25492591 -0.061371055 1.077
-0.22187994 -0.061371051 1.077
-0.2145813 -0.063447237 1.0755713
-0.20492616 -0.064770475 1.0740356
-0.19488224 -0.064966038 1.0739199
-0.18578941 -0.065070622 1.0757599
-0.17497334 -0.064133711 1.0714399
-0.16786782 -0.065277204 1.0743846
-0.33863002 -0.056281999 1.0700001
-0.29499722 -0.055723663 1.070346
-0.28544331 -0.055549022 1.0739
-0.27539802 -0.055279586 1.0734347
-0.26543874 -0.055538259 1.0737
-0.25478312 -0.055775054 1.074185
-0.24556765 -0.054470014 1.0748999
-0.235503 -0.052796371 1.0754
-0.22460152 -0.05512679 1.0739999
-0.21512386 -0.0554276 1.07156
-0.20547622 -0.055357013 1.0702399
-0.19547631 -0.056460083 1.0701362
-0.18481861 -0.055943836 1.0716363
-0.17478393 -0.055443637 1.0718999
-0.16743428 -0.055444058 1.075
-0.29391712 -0.049090404 1.0700001
-0.28573143 -0.048091635 1.0703748
-0.27452856 -0.048149772 1.0704615
-0.26565033 -0.046936259 1.0707499
-0.25481191 -0.046474092 1.0701152
-0.24511006 -0.045787625 1.070923
-0.2353761 -0.046669126 1.0711738
-0.20574199 -0.049403086 1.0700001
-0.1998011 -0.049715765 1.0700001
-0.18104044 -0.049715765 1.0700001
-0.17383017 -0.049029659 1.0703751
-0.16663773 -0.043694969 1.0723478
-0.1643572 -0.035035286 1.0708399
-0.15729636 -0.0337185 1.0733334
-0.16257049 -0.027916681 1.0703751
-0.15520296 -0.025286211 1.0717727
-0.15383747 -0.0196987 1.0700001
-0.40054023 0.0196987 1.0700001
-0.39866418 0.018760666 1.0700001
-0.13121018 0.014265996 1.0706
-0.12807485 0.016602313 1.0758001
-0.40420189 0.02531448 1.076
-0.39706278 0.025955742 1.0716875
-0.12716463 0.025393263 1.0729001
-0.40297174 0.033423617 1.0769999
-0.39574426 0.03515029 1.0739443
-0.38928384 0.038459368 1.0700001
-0.1241506 0.034410138 1.0737778
-0.39348188 0.043489873 1.0757778
-0.38614303 0.045062423 1.0729998
-0.3799035 0.046901666 1.0700001
-0.12391672 0.045618992 1.0728751
-0.38432923 0.052747183 1.0765556
-0.37802744 0.0534679 1.0700001
-0.13038664 0.059096098 1.0700001
-0.12601745 0.055516735 1.0733845
-0.13219233 0.066140592 1.0708181
-0.12803689 0.064964771 1.0739
-0.15102337 0.0787948 1.0700001
-0.14420666 0.077225983 1.0711428
-0.13540494 0.073862664 1.0732499
-0.12872185 0.071442194 1.077
-0.39728272 0.087301098 1.0754001
-0.15102337 0.083484963 1.0700001
-0.14598899 0.084367715 1.0736842
-0.13879299 0.081198618 1.077
-0.39468053 0.092966907 1.0754999
-0.38729754 0.095866293 1.073
-0.3799035 0.098493502 1.0700001
-0.38414502 0.10421541 1.0763333
-0.37600517 0.10537641 1.0724616
-0.1391416 0.10849919 1.0700001
-0.37459743 0.11225057 1.0745
-0.15102337 0.11913023 1.0700001
-0.14458169 0.11638281 1.0723332
-0.13733685 0.11193895 1.0730001
-0.16338532 0.12721166 1.0705454
-0.154587 0.12549204 1.0724285
-0.14827922 0.12228046 1.0746
-0.37471035 0.13707486 1.0720001
-0.365163 0.13869493 1.0700001
-0.35832873 0.13976696 1.0700001
-0.17206763 0.13529322 1.0717142
-0.16552371 0.13415334 1.0746521
-0.1582327 0.13291807 1.0752858
-0.3805005 0.14068133 1.077
-0.37483549 0.141059 1.077
-0.36563274 0.14284526 1.0751818
-0.35673371 0.14309753 1.0728573
-0.34447214 0.14694667 1.0706668
-0.33487788 0.1491473 1.0700001
-0.17081949 0.14313512 1.0731429
-0.16837698 0.14131077 1.077
-0.34241548 0.15328647 1.0760001
-0.3347005 0.15397568 1.0731111
-0.32549858 0.15560858 1.0716314
-0.31546423 0.15711869 1.0702307
-0.30673692 0.15852763 1.0700001
-0.16884601 0.15852763 1.0700001
-0.3238503 0.16145307 1.077
-0.31430769 0.16223563 1.0752223
-0.30466869 0.16284938 1.0737332
-0.29472679 0.16306856 1.0716428
-0.28542709 0.16525047 1.0709999
-0.27528617 0.16673571 1.0705
-0.26546341 0.16903362 1.0700001
-0.25491056 0.16790797 1.0700001
-0.2448267 0.1686115 1.0700001
-0.22441672 0.16692744 1.0702727
-0.21505125 0.16621986 1.0712
-0.20470396 0.16598359 1.0720999
-0.19492476 0.16546388 1.071421
-0.18462485 0.16617857 1.0724374
-0.17453265 0.16463529 1.0731052
-0.16837874 0.1617941 1.0730001
-0.27504513 0.17162621 1.0756668
-0.2648524 0.17158559 1.0734445
-0.25502965 0.17166176 1.0752223
-0.2455067 0.17228554 1.0738889
-0.23542595 0.17115803 1.0735714
-0.22513282 0.17120621 1.0745
-0.2160238 0.17107162 1.0747143
-0.20630965 0.17051394 1.0746
-0.18316898 0.17089477 1.077
-0.33222619 -0.10535583 1.0827501
-0.32853961 -0.1069884 1.08
-0.33355764 -0.098831892 1.0840001
-0.3144691 -0.091005445 1.087
-0.30429792 -0.092396416 1.0865384
-0.29534733 -0.091523118 1.0864545
-0.2887398 -0.09052898 1.087
-0.27921045 -0.092434853 1.087
-0.20297551 -0.090528987 1.087
-0.32025334 -0.085527599 1.0840001
-0.31505805 -0.084692545 1.0844399
-0.30509505 -0.08438798 1.0833845
-0.29514721 -0.084675588 1.083346
-0.28546688 -0.084238186 1.0850369
-0.27550682 -0.084063515 1.0867143
-0.2654458 -0.08385843 1.087
-0.25378647 -0.084003247 1.0863999
-0.24531819 -0.084187239 1.0857999
-0.21226665 -0.082667246 1.087
-0.20437133 -0.084508441 1.0851249
-0.19616483 -0.083067812 1.0833846
-0.16445158 -0.082704149 1.0843334
-0.31376952 -0.078205682 1.08
-0.30486959 -0.078111008 1.08
-0.29445481 -0.077637598 1.08
-0.28402719 -0.076034516 1.0813999
-0.27506557 -0.07482288 1.0832856
-0.26525369 -0.075319566 1.0853845
-0.25556296 -0.074942909 1.0843748
-0.24502613 -0.075029463 1.0833333
-0.23728123 -0.072613776 1.087
-0.2235166 -0.072952598 1.087
-0.21456443 -0.075222783 1.0849582
-0.2047911 -0.075603731 1.0819999
-0.19493634 -0.075196818 1.0811666
-0.16484974 -0.075233139 1.0844667
-0.28214639 -0.068169601 1.08
-0.27578932 -0.067358062 1.08
-0.26493695 -0.066580757 1.0807272
-0.25483105 -0.066314384 1.0806
-0.24515948 -0.065682255 1.0824283
-0.2354202 -0.065439679 1.0852591
-0.22543545 -0.065896891 1.0838259
-0.21633327 -0.068177395 1.0817778
-0.1641659 -0.065324292 1.0841333
-0.24386862 -0.058836855 1.08
-0.23530748 -0.057617255 1.0813333
-0.2281788 -0.059648398 1.08
-0.16491856 -0.055722531 1.084
-0.16599683 -0.04742942 1.082
-0.12544048 0.01995644 1.0840001
-0.4080708 0.0293508 1.08
-0.12310679 0.024808614 1.0843999
-0.11879944 0.024458706 1.087
-0.40428358 0.0369252 1.08
-0.12159401 0.035147671 1.0836
-0.11911708 0.035258658 1.087
-0.40049639 0.042605996 1.08
-0.39712998 0.045972399 1.08
-0.12175565 0.04424819 1.0841111
-0.4000791 0.050366253 1.0840001
-0.39443809 0.054198332 1.0825999
-0.38803175 0.056096144 1.0804446
-0.12352068 0.055472642 1.0847778
-0.39451578 0.060035009 1.087
-0.12569131 0.064869277 1.084125
-0.13158819 0.078043848 1.0829999
-0.12882397 0.075110167 1.0845
-0.40049639 0.088999197 1.08
-0.14358248 0.087557964 1.0805714
-0.13513792 0.08448033 1.0846798
-0.40330264 0.097971 1.085
-0.3963649 0.097520404 1.08
-0.14426506 0.0921183 1.0855
-0.13809848 0.091622539 1.0864
-0.40159559 0.10498272 1.0844287
-0.39480305 0.10509996 1.0809523
-0.38837734 0.10736712 1.08
-0.39238533 0.11260942 1.0855
-0.38484567 0.11476308 1.0827894
-0.37815192 0.11683512 1.08
-0.14187856 0.11786491 1.0813333
-0.13752082 0.11793484 1.0861428
-0.38255322 0.12085595 1.0855
-0.37917235 0.12068895 1.0840001
-0.15148801 0.12876481 1.08
-0.14419617 0.12536828 1.0845237
-0.13969508 0.12163925 1.0840001
-0.16250244 0.13921992 1.0840001
-0.15480955 0.13529007 1.0833888
-0.14732401 0.13093349 1.087
-0.38354182 0.14620675 1.0829285
-0.37528649 0.14611264 1.0818235
-0.36436722 0.14793703 1.0810909
-0.35550937 0.14791472 1.0805714
-0.3493692 0.14864761 1.08
-0.16500808 0.14557576 1.0836922
-0.15723455 0.14198756 1.087
-0.37259826 0.15294632 1.087
-0.3647646 0.15302929 1.086
-0.35486463 0.15353718 1.086
-0.34667259 0.15614468 1.0834
-0.33895439 0.1581156 1.08
-0.16806778 0.15260686 1.0831429
-0.3529042 0.16168158 1.087
-0.34509945 0.16173612 1.0861429
-0.3343586 0.16257389 1.0826428
-0.32448679 0.16573004 1.0833334
-0.31478217 0.16725844 1.0833334
-0.30415073 0.16770773 1.0807999
-0.29729521 0.1675836 1.08
-0.28877398 0.16947719 1.08
-0.1884132 0.16947719 1.08
-0.17247453 0.16868559 1.0810001
-0.16713274 0.16618381 1.0856999
-0.31278992 0.1711497 1.0857999
-0.30498913 0.17140125 1.0856364
-0.29523453 0.17078391 1.0848572
-0.28397939 0.17309488 1.083375
-0.2754105 0.17645574 1.0833
-0.26509115 0.17673264 1.0838333
-0.2546252 0.17631806 1.08275
-0.24432731 0.17735763 1.0829091
-0.23464885 0.17578466 1.0830666
-0.22476615 0.17629789 1.0840832
-0.21482398 0.17564994 1.0839231
-0.20387469 0.17348355 1.0833334
-0.19506316 0.17402969 1.0847499
-0.18499556 0.17548835 1.0849499
-0.17508785 0.17306383 1.0850666
-0.16803449 0.17121096 1.087
-0.2468106 0.18010503 1.087
-0.23728122 0.18010503 1.087
-0.22965774 0.18010503 1.087
-0.2182225 0.18010503 1.087
-0.19154027 0.18010503 1.087
-0.18734734 0.1804862 1.087
-0.30101314 -0.11059588 1.097
-0.29576752 -0.11199472 1.097
-0.2894727 -0.11059588 1.097
-0.24331094 -0.11059588 1.097
-0.34140468 -0.10290226 1.097
-0.33772764 -0.10237304 1.0913334
-0.30329311 -0.10349858 1.0931
-0.2947461 -0.10465335 1.09516
-0.28556839 -0.10418718 1.0957727
-0.27480066 -0.10341211 1.0965716
-0.26417989 -0.10396013 1.097
-0.25449076 -0.10338309 1.097
-0.24595562 -0.10410438 1.097
-0.33753806 -0.096410535 1.0932001
-0.31247029 -0.093645535 1.09
-0.30556083 -0.096659251 1.09
-0.29482165 -0.096602544 1.0910001
-0.28583613 -0.094755702 1.0917392
-0.27519184 -0.094996057 1.092074
-0.26563323 -0.094940789 1.0938801
-0.25534171 -0.09510877 1.094276
-0.24480799 -0.094814911 1.0941154
-0.23783663 -0.094764777 1.097
-0.22023006 -0.091361813 1.097
-0.21302363 -0.093858674 1.0962001
-0.20726065 -0.092861786 1.092
-0.2828477 -0.088867702 1.09
-0.27424762 -0.088867702 1.09
-0.26443282 -0.086291261 1.0903637
-0.25704744 -0.087195456 1.09
-0.24165404 -0.087961398 1.0930001
-0.23626135 -0.084867902 1.0959167
-0.22521254 -0.085592918 1.0960386
-0.21610108 -0.085997328 1.0923333
-0.20926909 -0.088867702 1.09
-0.16249019 -0.085418493 1.0947692
-0.15820019 -0.083187342 1.097
-0.23517978 -0.076376326 1.092375
-0.22560248 -0.076876 1.0910001
-0.16111587 -0.075465865 1.0921818
-0.15730719 -0.075012855 1.097
-0.1611594 -0.064079076 1.0910001
-0.15833233 -0.065472037 1.0946155
-0.16230491 -0.05429985 1.0925386
-0.15868105 -0.057702199 1.097
-0.1648595 -0.046964783 1.0933334
-0.4136622 0.027735103 1.0910001
-0.11649225 0.026321517 1.09
-0.11538467 0.035594858 1.09
-0.12135696 0.048733901 1.09
-0.11715896 0.044239487 1.0928236
-0.40229356 0.057811782 1.09
-0.12128458 0.055229999 1.0942858
-0.1194855 0.05278388 1.09475
-0.40278721 0.062189367 1.0913334
-0.3970421 0.062691428 1.0905715
-0.12287818 0.063199386 1.0941112
-0.12718038 0.074945062 1.0944445
-0.13211016 0.088607036 1.0946666
-0.1290015 0.083134301 1.09
-0.14312254 0.09671881 1.0903637
-0.13506117 0.095090725 1.094389
-0.4042047 0.10797903 1.09
-0.14240266 0.10219523 1.0920001
-0.13887079 0.10235237 1.0962501
-0.40172723 0.11505986 1.0936667
-0.39606431 0.116538 1.0925834
-0.39382073 0.1237615 1.0959091
-0.38657165 0.12432322 1.0917778
-0.14137039 0.12982994 1.097
-0.13771632 0.12522011 1.0966251
-0.15112014 0.13733193 1.0924001
-0.14602402 0.13566709 1.0944
-0.16038486 0.14790112 1.0955
-0.15517052 0.14456517 1.0951053
-0.14906402 0.14233209 1.097
-0.38491392 0.15529241 1.0952106
-0.37588343 0.15542364 1.0910001
-0.36470792 0.15788084 1.09
-0.35536465 0.15809318 1.09
-0.16415851 0.15458098 1.0928236
-0.15868105 0.15098742 1.097
-0.38371962 0.16060446 1.097
-0.37496084 0.16188049 1.0956154
-0.36487457 0.16306272 1.0946153
-0.35480994 0.16538025 1.0926471
-0.34486273 0.16629386 1.0930001
-0.33545899 0.16848555 1.0928571
-0.32489264 0.1691353 1.09
-0.1660575 0.16277352 1.0922143
-0.35679194 0.17022149 1.097
-0.3423664 0.17022149 1.097
-0.33563444 0.17176022 1.097
-0.32368174 0.17432606 1.095143
-0.31522307 0.17659588 1.0937059
-0.30482593 0.17734116 1.0934376
-0.29534075 0.17662191 1.0931765
-0.28625637 0.17748973 1.0904446
-0.25895858 0.17869097 1.09
-0.21247177 0.17897786 1.09175
-0.20562869 0.17815669 1.0932223
-0.19665563 0.17830876 1.09
-0.17438956 0.17822878 1.0936667
-0.16610393 0.17555927 1.0934286
-0.31447703 0.18176194 1.097
-0.30485994 0.18176194 1.097
-0.29454195 0.18398386 1.0966251
-0.28549948 0.18458848 1.0957369
-0.27506456 0.18514889 1.0946667
-0.26500174 0.18518078 1.09444
-0.25498831 0.18507122 1.0942222
-0.24459942 0.18608928 1.0932631
-0.23540774 0.18543757 1.0944091
-0.22517236 0.18432102 1.094762
-0.21661469 0.1827563 1.0957501
-0.20145391 0.18223737 1.0960001
-0.19486998 0.18409157 1.095
-0.18486966 0.18398854 1.0943847
-0.17820144 0.18281655 1.0964
-0.27216205 0.19137897 1.097
-0.26387662 0.19315444 1.097
-0.25502625 0.19260293 1.097
-0.24619606 0.19234066 1.097
-0.29043266 -0.12141833 1.108
-0.28712806 -0.12125396 1.1065
-0.2929844 -0.11658169 1.1056362
-0.28474459 -0.11518352 1.103346
-0.27545375 -0.11437088 1.1051737
-0.26422301 -0.11323891 1.1039999
-0.25500196 -0.11494555 1.1017998
-0.24546905 -0.11512165 1.1022412
-0.23480602 -0.11368795 1.1052499
-0.22732551 -0.11204823 1.105
-0.35259885 -0.10218568 1.1079999
-0.34534636 -0.10479859 1.1034445
-0.33878872 -0.10713831 1.1010001
-0.28377172 -0.10906873 1.1010001
-0.27580875 -0.10834482 1.101
-0.26659101 -0.10868265 1.1010001
-0.25642413 -0.10778178 1.101
-0.24323294 -0.10603522 1.101
-0.23471421 -0.10528405 1.1017998
-0.22541635 -0.10555731 1.1046536
-0.21718526 -0.10244038 1.1038573
-0.17257594 -0.10199139 1.108
-0.36036962 -0.093249276 1.108
-0.35298735 -0.094350144 1.1079999
-0.34545186 -0.094568349 1.1049089
-0.23311913 -0.095917687 1.1012353
-0.22519244 -0.095776558 1.1016666
-0.21725185 -0.097522326 1.1014
-0.17192836 -0.098106012 1.108
-0.16498688 -0.094882935 1.105611
-0.15482138 -0.092066526 1.1069999
-0.14667335 -0.091112316 1.108
-0.36085528 -0.086449854 1.108
-0.35138464 -0.08523567 1.1079999
-0.34632248 -0.084955469 1.1079999
-0.2326156 -0.089281924 1.1010001
-0.16215527 -0.089764528 1.1010001
-0.1544925 -0.084952965 1.1017618
-0.14515643 -0.083921596 1.1038927
-0.13801627 -0.083088338 1.1075714
-0.15317141 -0.074172668 1.101
-0.14574671 -0.074321166 1.101
-0.13584669 -0.074209549 1.1024812
-0.1531013 -0.064371042 1.1025498
-0.14484896 -0.064795606 1.1045831
-0.13485695 -0.0650061 1.103148
-0.12837292 -0.068529911 1.1010001
-0.16152759 -0.051264543 1.1033334
-0.15580085 -0.056420874 1.106294
-0.14440246 -0.057446547 1.1077691
-0.13463169 -0.057648085 1.1077272
-0.12883931 -0.059091717 1.105
-0.1625019 -0.04673177 1.1059999
-0.11397143 0.046944235 1.1027778
-0.11676703 0.055190552 1.1044666
