# .PCD v0.7 - Point Cloud Data file format
VERSION 0.7
FIELDS x y z
SIZE 4 4 4
TYPE F F F
COUNT 1 1 1
WIDTH 1438
HEIGHT 1
VIEWPOINT 0 0 0 1 0 0 0
POINTS 1438
DATA ascii
-0.21448021 -0.24530265 1.2102103
-0.19836336 -0.24928017 1.21
-0.22557861 -0.2346348 1.215875
-0.22552572 -0.22464858 1.2160455
-0.21618423 -0.22509466 1.2100002
-0.22432718 -0.21471056 1.2184999
-0.21445422 -0.21551216 1.2109998
-0.20826386 -0.21356769 1.21
-0.2318985 -0.20411342 1.2190001
-0.2247072 -0.2046665 1.2173333
-0.21459588 -0.20503251 1.2117999
-0.2053986 -0.2039125 1.2101997
-0.19836336 -0.2004849 1.21
-0.2318985 -0.1998388 1.2190001
-0.22494607 -0.19592513 1.2176363
-0.21520393 -0.19495858 1.2152503
-0.20533237 -0.19479498 1.2119131
-0.19793907 -0.19539322 1.21
-0.24771461 -0.18231282 1.2190001
-0.2318985 -0.18060298 1.2190001
-0.2248759 -0.18350363 1.219
-0.21581414 -0.18589939 1.2186874
-0.20465751 -0.18525019 1.2112727
-0.19783299 -0.18457341 1.21
-0.25205031 -0.1757177 1.219
-0.2447224 -0.17509095 1.219
-0.23440884 -0.17474213 1.2153749
-0.22483209 -0.1743592 1.2114116
-0.21480481 -0.1763086 1.2114999
-0.2047556 -0.1750502 1.2101597
-0.19709046 -0.17545079 1.21
-0.25156176 -0.16735163 1.2190001
-0.24558942 -0.16550766 1.2180001
-0.23480563 -0.16468057 1.2119199
-0.22806484 -0.16441883 1.21
-0.20260644 -0.16866189 1.21
-0.19836336 -0.16866189 1.21
-0.24433379 -0.15650962 1.219
-0.23477702 -0.1546447 1.2127727
-0.22636759 -0.15529625 1.21
-0.23253322 -0.14578161 1.2156
-0.22572523 -0.14508897 1.2102499
-0.2318985 -0.13999403 1.2190001
-0.22458971 -0.13574976 1.2148234
-0.21676993 -0.13353457 1.2115455
-0.22121193 -0.12930745 1.2190001
-0.21544819 -0.12478341 1.2166001
-0.20914374 -0.123148 1.2110001
-0.21450883 -0.11556591 1.2145385
-0.20826386 -0.11597716 1.21
-0.21271196 -0.10794817 1.2144001
-0.20707743 -0.10406852 1.2113334
-0.20292063 -0.09730684 1.2144001
-0.19754894 -0.091855377 1.2136668
-0.042978145 -0.092589147 1.2105001
-0.037938628 -0.092854343 1.2105001
-0.19331825 -0.085111871 1.2153333
-0.18818 -0.083376266 1.21
-0.053038336 -0.0827398 1.21
-0.044860881 -0.084299289 1.2121111
-0.037274212 -0.086256891 1.2147777
-0.1844153 -0.076412901 1.2140667
-0.17926957 -0.075314432 1.21
-0.0604637 -0.074253663 1.21
-0.054122776 -0.0754181 1.2145835
-0.04558973 -0.075848766 1.2165
-0.18274029 -0.06839402 1.2190001
-0.17604862 -0.06418623 1.2125385
-0.16866189 -0.0604637 1.21
-0.0604637 -0.067889065 1.21
-0.056813262 -0.067484051 1.2162858
-0.17205372 -0.058776118 1.2190001
-0.16465481 -0.056063849 1.2143333
-0.15679517 -0.051694758 1.2134001
-0.11562357 -0.052331161 1.21
-0.15206616 -0.0468948 1.2158333
-0.14745855 -0.043950219 1.2130001
-0.12354716 -0.04436826 1.2123127
-0.11517686 -0.045945022 1.2140871
-0.10528187 -0.046786677 1.2130555
-0.095067807 -0.042839352 1.2134545
-0.08521492 -0.042077079 1.21
-0.075314432 -0.0413699 1.21
-0.062951244 -0.042766869 1.212
-0.058776118 -0.042746268 1.2190001
-0.14423785 -0.038451973 1.2135715
-0.1345356 -0.035978839 1.2131666
-0.12472394 -0.037308011 1.216
-0.11774627 -0.038773801 1.2173334
-0.092072941 -0.038035791 1.2165002
-0.08472424 -0.036018685 1.2165
-0.074964039 -0.036878355 1.2150625
-0.065508783 -0.035869941 1.2155238
-0.058776122 -0.037402984 1.2190001
-0.23987441 -0.27859852 1.2270001
-0.22158802 -0.2721445 1.2270001
-0.21381928 -0.27429587 1.2270001
-0.20630772 -0.27420795 1.223857
-0.25170678 -0.2689175 1.2270001
-0.24820976 -0.26539943 1.2256669
-0.23526439 -0.2633855 1.2270001
-0.22462805 -0.26556268 1.2253997
-0.21511666 -0.26697621 1.2245386
-0.20631488 -0.26819402 1.2230002
-0.24202575 -0.25063109 1.2270001
-0.23565499 -0.25509053 1.2259562
-0.22622645 -0.25731918 1.223
-0.24202575 -0.24525276 1.2270001
-0.23489913 -0.24534015 1.2249999
-0.24202575 -0.23987441 1.2270001
-0.23578468 -0.23589461 1.2257369
-0.23490386 -0.22454728 1.2255458
-0.23395573 -0.21498148 1.2247777
-0.25134823 -0.20401873 1.2270001
-0.24534857 -0.20386946 1.2267144
-0.23601162 -0.20562208 1.2247999
-0.26310885 -0.19125411 1.2270001
-0.25541183 -0.19350106 1.2270001
-0.24576484 -0.19484843 1.2256086
-0.23601705 -0.19486837 1.2243333
-0.22729862 -0.19191724 1.223
-0.26519421 -0.18465567 1.2257367
-0.25498316 -0.18504182 1.223222
-0.24511489 -0.18555643 1.2234706
-0.23533981 -0.18580587 1.2229998
-0.22622646 -0.18691382 1.223
-0.26394677 -0.17598346 1.2253529
-0.25702679 -0.17456767 1.2229999
-0.2455254 -0.17905128 1.223
-0.26224834 -0.16715913 1.2270001
-0.256098 -0.16436 1.2243333
-0.25298584 -0.15603937 1.2256669
-0.24656765 -0.15361255 1.2234445
-0.24407846 -0.14784369 1.2265002
-0.23803973 -0.14402282 1.2242001
-0.23380862 -0.13429306 1.2255
-0.22729862 -0.1318761 1.223
-0.23270327 -0.12657051 1.2270001
-0.22555836 -0.12534474 1.2242631
-0.2233783 -0.11713781 1.2258574
-0.21860123 -0.11269754 1.2243334
-0.21465796 -0.10499924 1.2263335
-0.20975564 -0.10218865 1.2270001
-0.20458199 -0.094504662 1.2250001
-0.20082241 -0.08805941 1.2250001
-0.19677836 -0.083361357 1.2243334
-0.035423465 -0.081591018 1.2246001
-0.19198911 -0.075891107 1.2262001
-0.18834336 -0.073979266 1.223
-0.041814368 -0.073979266 1.223
-0.03609252 -0.075667016 1.2258234
-0.18493488 -0.06602186 1.2256668
-0.17905128 -0.061113309 1.223
-0.054073948 -0.065466173 1.2242306
-0.044919007 -0.066269562 1.2251174
-0.038235176 -0.066593759 1.2270001
-0.17436463 -0.056449056 1.2252223
-0.16583057 -0.052290827 1.2256669
-0.15975234 -0.050391678 1.223
-0.16027483 -0.047329478 1.2270001
-0.15506892 -0.044632975 1.2247144
-0.11043283 -0.041814368 1.223
-0.10507201 -0.041814368 1.223
-0.15166947 -0.039799791 1.2270001
-0.14434521 -0.03617565 1.2256669
-0.13428341 -0.032012887 1.2254002
-0.12514739 -0.032329224 1.2247778
-0.11551005 -0.0365307 1.2256669
-0.10427056 -0.038267903 1.2262002
-0.096074775 -0.036764111 1.2244999
-0.084923923 -0.031174093 1.2262002
-0.075890698 -0.031858359 1.2250001
-0.062771522 -0.031654239 1.2240001
-0.057793897 -0.034164228 1.2254002
-0.12370205 -0.029043088 1.2270001
-0.082826592 -0.029043088 1.2270001
-0.074651495 -0.028612822 1.2270001
-0.065997325 -0.028044859 1.2252222
-0.059161849 -0.02904309 1.2270001
-0.22212979 -0.28064203 1.2360001
-0.25138593 -0.27414069 1.2360001
-0.24343236 -0.27592427 1.2355001
-0.23546696 -0.27412707 1.2335002
-0.22523108 -0.27602515 1.2328002
-0.21770789 -0.27788231 1.2320002
-0.26200479 -0.26287165 1.2360001
-0.25517568 -0.26382878 1.2344002
-0.24540745 -0.26435667 1.2331766
-0.23467736 -0.26928252 1.2336
-0.26113796 -0.25572014 1.2360001
-0.25463656 -0.25463656 1.2360001
-0.24638467 -0.2553412 1.2334287
-0.25463662 -0.24488457 1.2360001
-0.24735138 -0.24469009 1.2329233
-0.25160262 -0.23599939 1.2360001
-0.2444981 -0.23511711 1.2344002
-0.23869179 -0.23005135 1.2320001
-0.25030234 -0.22574167 1.2360001
-0.24232644 -0.22501579 1.2340001
-0.23869179 -0.22573113 1.2320001
-0.25370938 -0.21419275 1.2350001
-0.24531706 -0.21456474 1.2333336
-0.23869179 -0.21925083 1.2320001
-0.28136441 -0.20118098 1.2360001
-0.27475983 -0.2035545 1.2360001
-0.26449266 -0.2049939 1.2354667
-0.2566554 -0.20562847 1.2332002
-0.24517211 -0.20845029 1.2320001
-0.28324258 -0.19460738 1.2360001
-0.27486542 -0.19561602 1.232182
-0.26521313 -0.19680971 1.2320002
-0.25705269 -0.19764976 1.2320002
-0.28136441 -0.18890063 1.2360001
-0.27534109 -0.18550454 1.2336003
-0.27497935 -0.17441517 1.234889
-0.26839322 -0.17334856 1.2320001
-0.27309781 -0.1678417 1.2352002
-0.26625606 -0.1645959 1.2336001
-0.26208067 -0.15703028 1.2353334
-0.25622338 -0.15243444 1.2332002
-0.25456232 -0.14564589 1.2356365
-0.24710603 -0.14408426 1.2326669
-0.25225276 -0.13631184 1.2360001
-0.2444143 -0.1360914 1.2342223
-0.23869179 -0.1335666 1.2320001
-0.24198017 -0.12721397 1.2350001
-0.23616381 -0.12383378 1.2341819
-0.23042482 -0.11899698 1.2340001
-0.22553076 -0.11423218 1.234286
-0.22212979 -0.108356 1.2360001
-0.21656473 -0.103103 1.2342857
-0.21201658 -0.097881585 1.2360001
-0.20770687 -0.094115429 1.2340001
-0.2032388 -0.085555069 1.2353334
-0.19980986 -0.083164103 1.2320001
-0.02916144 -0.081004001 1.2320001
-0.19443564 -0.073973641 1.233143
-0.032226272 -0.072024129 1.2336
-0.028596366 -0.073730171 1.2342857
-0.19179012 -0.068264283 1.2360001
-0.18704911 -0.06378977 1.2333335
-0.051842563 -0.062643096 1.2320001
-0.046442289 -0.061563041 1.2320001
-0.034477159 -0.064512931 1.2333335
-0.02925612 -0.068264283 1.2360001
-0.18203807 -0.058512241 1.2360001
-0.17498499 -0.053396013 1.2346668
-0.16740827 -0.050762508 1.2320001
-0.054131538 -0.059547581 1.2350001
-0.044556979 -0.05734165 1.234182
-0.03782836 -0.057282567 1.2328891
-0.16452344 -0.047262851 1.2346667
-0.15768778 -0.043202132 1.2320001
-0.15336758 -0.03888192 1.2320001
-0.14436035 -0.033978902 1.2344
-0.138473 -0.031372394 1.2340001
-0.11387374 -0.033275813 1.2324002
-0.10516994 -0.033356417 1.233143
-0.095641322 -0.032290895 1.2337143
-0.057242826 -0.03564176 1.2320001
-0.13371271 -0.027877999 1.2350001
-0.12443507 -0.024729514 1.234286
-0.11598563 -0.025533969 1.2342002
-0.10603409 -0.028636944 1.2360001
-0.092102602 -0.02925612 1.2360001
-0.085428096 -0.027032455 1.2335001
-0.074724384 -0.023591822 1.2331766
-0.064649448 -0.023045812 1.2338462
-0.058747187 -0.027028218 1.2333335
-0.11702448 -0.018420519 1.2360001
-0.072598517 -0.018420519 1.2360001
-0.065555379 -0.017878741 1.2360001
-0.24587518 -0.2741617 1.2410001
-0.23173192 -0.27851349 1.2410001
-0.2632823 -0.26001847 1.2410001
-0.26436436 -0.25419331 1.2426667
-0.26207349 -0.24572456 1.243
-0.25784257 -0.24043548 1.2410001
-0.26158416 -0.23829991 1.245
-0.25651801 -0.23472483 1.2427778
-0.24696313 -0.23173192 1.2410001
-0.25427517 -0.22538507 1.2435
-0.24732578 -0.22520427 1.2410001
-0.27468157 -0.21210511 1.245
-0.26408684 -0.21366692 1.2435
-0.25739428 -0.21818626 1.2423334
-0.29141715 -0.20191824 1.245
-0.28580928 -0.20471342 1.2434
-0.2744337 -0.20834115 1.2410001
-0.26763403 -0.20888512 1.2410001
-0.29141715 -0.19755244 1.245
-0.2880972 -0.19411884 1.2416667
-0.28518865 -0.18523137 1.2434616
-0.27960142 -0.18168654 1.2410001
-0.2825039 -0.17560773 1.2442
-0.27960142 -0.17733476 1.2410001
-0.2815941 -0.1680833 1.245
-0.27515885 -0.16451244 1.2427778
-0.27177104 -0.15826026 1.245
-0.26654235 -0.15509602 1.2425385
-0.26293072 -0.14524099 1.2429999
-0.25784257 -0.14324586 1.2410001
-0.26194799 -0.13861415 1.245
-0.25672832 -0.13408573 1.2435
-0.24696313 -0.13164115 1.2410001
-0.25355193 -0.12731878 1.2436668
-0.24589907 -0.12471678 1.2425001
-0.23902754 -0.12115095 1.245
-0.23380904 -0.11508485 1.2443334
-0.22834975 -0.11217622 1.2423334
-0.22465812 -0.105511 1.2440001
-0.21758866 -0.10117873 1.2410001
-0.2151047 -0.095614433 1.2441111
-0.20922001 -0.091532767 1.243
-0.20682977 -0.085133098 1.245
-0.20191824 -0.079675846 1.245
-0.19973534 -0.077492952 1.245
-0.1877294 -0.061121199 1.245
-0.028975761 -0.062525086 1.2426001
-0.18227215 -0.055118226 1.245
-0.17653261 -0.051215742 1.243
-0.054273088 -0.054269355 1.2431332
-0.045688115 -0.052821949 1.2435454
-0.033749618 -0.054071926 1.241889
-0.02859599 -0.056100529 1.245
-0.1728572 -0.048530076 1.2440001
-0.16553657 -0.044385631 1.245
-0.15826026 -0.040383648 1.245
-0.055072635 -0.046077818 1.244
-0.04474945 -0.048751429 1.245
-0.036454432 -0.048242088 1.245
-0.15389445 -0.0371093 1.245
-0.053481054 -0.033834949 1.245
-0.14057088 -0.02833036 1.243
-0.13460007 -0.023778882 1.2442
-0.12739369 -0.021777276 1.2420001
-0.10526327 -0.023383945 1.2424116
-0.095073156 -0.025070315 1.2435261
-0.084860459 -0.022576045 1.2432858
-0.079675846 -0.020737549 1.245
-0.055154432 -0.02441762 1.2434
-0.12269081 -0.017994022 1.244
-0.11441904 -0.016071711 1.243
-0.10579982 -0.018542727 1.2442
-0.07302846 -0.015414679 1.2432858
-0.065234758 -0.01356036 1.2420911
-0.058025107 -0.016111672 1.2436666
-0.064395547 -0.0098230503 1.245
-0.28277391 -0.25363562 1.2590001
-0.27514061 -0.25477412 1.2553751
-0.26847917 -0.25094584 1.25
-0.28144944 -0.24723402 1.2590001
-0.27525255 -0.24544448 1.2566845
-0.26806003 -0.24473518 1.251875
-0.27306244 -0.23520432 1.2586923
-0.26564252 -0.23551209 1.2528572
-0.25971249 -0.23231667 1.25
-0.27302101 -0.22485857 1.2589999
-0.26524013 -0.22549084 1.255412
-0.25883582 -0.22552249 1.25
-0.29312575 -0.21047626 1.2570001
-0.28460315 -0.21414456 1.255875
-0.27492216 -0.21646969 1.2534001
-0.26710391 -0.21774098 1.25125
-0.30131647 -0.20308509 1.2590001
-0.29654282 -0.2051812 1.2556001
-0.2860125 -0.20930417 1.25
-0.30131647 -0.19535902 1.2590001
-0.2961168 -0.19429488 1.2533334
-0.3024202 -0.18542552 1.2589999
-0.29507279 -0.18501596 1.2553127
-0.28820416 -0.18190834 1.25
-0.2923539 -0.17635641 1.2584286
-0.28712147 -0.17523141 1.25125
-0.29027924 -0.16776595 1.2590001
-0.28442967 -0.1633485 1.2555295
-0.27688494 -0.16203284 1.2516667
-0.28384084 -0.15507312 1.2589999
-0.27512729 -0.15409745 1.2521875
-0.28239551 -0.14616452 1.2589999
-0.27510038 -0.14414513 1.2552001
-0.26825562 -0.14410558 1.251
-0.27179188 -0.13548204 1.2589999
-0.26509804 -0.13474397 1.2524999
-0.25971249 -0.13040416 1.25
-0.27041221 -0.12913562 1.2590001
-0.26388648 -0.12597753 1.2575455
-0.25660813 -0.12335733 1.2526667
-0.24875416 -0.1216375 1.25
-0.25338376 -0.11638802 1.2570769
-0.24555022 -0.1156184 1.2547779
-0.23818868 -0.11347409 1.250625
-0.24318705 -0.10779697 1.2589999
-0.23540094 -0.10469022 1.2571002
-0.22850944 -0.10326388 1.2531667
-0.22352868 -0.096446924 1.255
-0.21680422 -0.092034571 1.2528
-0.21349837 -0.08577586 1.2559091
-0.20811921 -0.082294159 1.2516667
-0.20416009 -0.075569466 1.2554168
-0.19874252 -0.072467461 1.2525001
-0.20198137 -0.068430841 1.2590001
-0.19594133 -0.064942658 1.2556429
-0.18957916 -0.060270835 1.25
-0.025204167 -0.060270835 1.25
-0.19170579 -0.05669421 1.2582
-0.18583813 -0.05380863 1.2526667
-0.031779166 -0.051504165 1.25
-0.026486604 -0.053754691 1.2514286
-0.18437265 -0.047898822 1.2576667
-0.17616603 -0.043954261 1.2554706
-0.16597429 -0.041531455 1.2514286
-0.052873954 -0.044929162 1.25
-0.044999894 -0.043728262 1.2520529
-0.034679063 -0.043922052 1.2546668
-0.028308639 -0.04668922 1.2581111
-0.1727327 -0.038078457 1.2590001
-0.16413963 -0.036208231 1.258
-0.15523078 -0.034267291 1.2543334
-0.14740419 -0.032552093 1.2516667
-0.052024908 -0.035783779 1.2520001
-0.047634207 -0.035945266 1.2578
-0.036864359 -0.037747338 1.2590001
-0.15286568 -0.029248668 1.2590001
-0.14532755 -0.025625376 1.2564667
-0.13682513 -0.022098264 1.2514286
-0.094606943 -0.020820834 1.25
-0.087666661 -0.020820834 1.25
-0.051869441 -0.024473609 1.25
-0.049247041 -0.025730168 1.2576667
-0.1412766 -0.018763296 1.2590001
-0.134321 -0.017613877 1.2558751
-0.12516922 -0.015016424 1.2536666
-0.1149036 -0.012888095 1.25125
-0.10470067 -0.014124228 1.2534287
-0.095328026 -0.015828166 1.2532942
-0.084746569 -0.016905637 1.2554545
-0.077032574 -0.014273262 1.2527143
-0.053587027 -0.015258577 1.2532222
-0.049667548 -0.018763296 1.2590001
-0.12030584 -0.0099335099 1.2590001
-0.11442253 -0.0099019501 1.2550001
-0.10485373 -0.0099335099 1.2590001
-0.07377743 -0.0065195677 1.256
-0.064836547 -0.0043898649 1.2535503
-0.056730535 -0.0064973752 1.2554545
-0.064015955 0.0011037233 1.2590001
-0.29235432 -0.25011301 1.268
-0.28655636 -0.25242668 1.2640001
-0.29087219 -0.24714869 1.268
-0.28532064 -0.24465264 1.2650666
-0.28185007 -0.23519653 1.267
-0.27769151 -0.23425373 1.2640001
-0.28291786 -0.2232009 1.2666667
-0.27758071 -0.22771591 1.2640001
-0.29401857 -0.21502459 1.2656
-0.28810772 -0.21718889 1.2640001
-0.30540651 -0.20479399 1.2657778
-0.31014013 -0.19675556 1.268
-0.30679372 -0.19476904 1.2651999
-0.30562997 -0.18552078 1.2646667
-0.29808068 -0.18062139 1.2640001
-0.30124721 -0.17896974 1.268
-0.29598299 -0.17519096 1.2664001
-0.29328185 -0.1645363 1.266
-0.29272601 -0.15564241 1.2668571
-0.28866178 -0.15347278 1.2640001
-0.2859751 -0.14465176 1.266
-0.2816835 -0.13806447 1.2666668
-0.2768009 -0.13423738 1.2655001
-0.27244487 -0.12678353 1.2664001
-0.26682517 -0.12306354 1.2646667
-0.26229808 -0.11727405 1.266
-0.25657928 -0.11331932 1.2648
-0.25337303 -0.10738816 1.2657778
-0.24597462 -0.10410134 1.2643077
-0.24170752 -0.098088481 1.2666668
-0.23489191 -0.096225366 1.2661538
-0.22736625 -0.092687204 1.265143
-0.22224991 -0.087121382 1.2659999
-0.21704979 -0.082455762 1.2653333
-0.21262193 -0.075775124 1.2665
-0.20869343 -0.074243143 1.2640001
-0.2044778 -0.065261416 1.2653333
-0.19835109 -0.060945865 1.2640001
-0.20194308 -0.058174431 1.268
-0.1960147 -0.054575529 1.2658181
-0.1916218 -0.045959078 1.2664001
-0.1863509 -0.043476827 1.2644445
-0.026594559 -0.043216158 1.2640001
-0.19008587 -0.038906466 1.268
-0.18359505 -0.038124476 1.2666668
-0.17490822 -0.034056745 1.2658463
-0.16708314 -0.032465219 1.2645714
-0.043239538 -0.033997722 1.2646667
-0.034754254 -0.034351308 1.2640001
-0.027576696 -0.035605345 1.2661539
-0.16333584 -0.027004257 1.2659999
-0.15567498 -0.024534391 1.265
-0.14885566 -0.021792764 1.2640001
-0.04478715 -0.026525207 1.2666667
-0.035418607 -0.02815216 1.2661818
-0.028854607 -0.028854607 1.266
-0.15229103 -0.018156352 1.268
-0.14487208 -0.016889663 1.2657778
-0.13477872 -0.012876479 1.2664001
-0.12763214 -0.011650899 1.266
-0.09197285 -0.012189173 1.2640001
-0.08584775 -0.012420963 1.2651999
-0.052081011 -0.012189173 1.2640001
-0.049864799 -0.016621599 1.2640001
-0.12251826 -0.0085118487 1.2666668
-0.11338556 -0.0065003582 1.2662858
-0.10464305 -0.0046312753 1.2658823
-0.095294774 -0.006249065 1.2663157
-0.084381357 -0.0083252648 1.2665
-0.078019828 -0.0062851156 1.2653333
-0.052759074 -0.0039328863 1.2658181
-0.10378427 0.0035369515 1.2679999
-0.098933585 0.0022232267 1.268
-0.071437813 0.0025925955 1.2666668
-0.064748965 0.0046648011 1.2661332
-0.055223636 0.0038864817 1.2662499
-0.10338004 0.010004519 1.268
-0.06187981 0.010745595 1.268
-0.057803892 0.011116133 1.268
-0.29573911 -0.25109926 1.273
-0.29536983 -0.24454083 1.2762142
-0.29167226 -0.23602672 1.278
-0.28693631 -0.23557612 1.2735554
-0.29257584 -0.22507176 1.2772857
-0.28681111 -0.22654732 1.273
-0.30335838 -0.21483295 1.275
-0.29612926 -0.21864825 1.2746667
-0.31268439 -0.20324217 1.2738333
-0.30913109 -0.20869137 1.273
-0.31136307 -0.1997634 1.273
-0.30217409 -0.17483978 1.2772857
-0.2979711 -0.1718635 1.273
-0.302939 -0.16479194 1.277
-0.2979711 -0.16516751 1.273
-0.30273098 -0.15701868 1.2763333
-0.29687226 -0.15383376 1.2746665
-0.29291189 -0.14564531 1.2768888
-0.28904313 -0.14396358 1.273
-0.28383496 -0.13477337 1.2752222
-0.28150052 -0.12703711 1.2767501
-0.27576411 -0.12428387 1.2746665
-0.27270049 -0.11808805 1.2780001
-0.26557723 -0.11445514 1.2749999
-0.26104853 -0.10867686 1.2780001
-0.25494695 -0.10399151 1.2755001
-0.24516948 -0.096946888 1.2770001
-0.2345043 -0.09187869 1.275
-0.23281498 -0.086717412 1.2780001
-0.22681603 -0.08379662 1.2744999
-0.22250745 -0.077754371 1.2780001
-0.21653572 -0.073516294 1.2744999
-0.21312548 -0.065737531 1.2757777
-0.20794737 -0.062123816 1.273
-0.21175182 -0.058259759 1.2780001
-0.20580614 -0.05480469 1.2758571
-0.19901942 -0.050963849 1.273
-0.20189247 -0.046831887 1.2780001
-0.1959088 -0.044054866 1.2754999
-0.19409686 -0.036132216 1.2770909
-0.18593906 -0.033062667 1.2754999
-0.17800146 -0.03068991 1.273
-0.02343593 -0.036827888 1.273
-0.1811281 -0.027262578 1.2780001
-0.17391537 -0.025210846 1.2760768
-0.16637804 -0.02249126 1.2737142
-0.043910809 -0.023211174 1.276125
-0.034133084 -0.023124577 1.2749231
-0.027341917 -0.022877932 1.273
-0.17253852 -0.019046459 1.2780001
-0.16416238 -0.015750075 1.2773334
-0.1553037 -0.014035093 1.2755001
-0.14564168 -0.011837455 1.2739999
-0.1350356 -0.01004397 1.273
-0.050219849 -0.012275964 1.273
-0.045935579 -0.017926078 1.2780001
-0.026851315 -0.015663952 1.276125
-0.15237167 -0.00784266 1.2780001
-0.14403108 -0.0063488204 1.278
-0.13509372 -0.005273025 1.2765714
-0.12569188 -0.0053436733 1.2763333
-0.11564086 -0.0031466752 1.273909
-0.092181318 -0.0020087939 1.273
-0.085779309 -0.003909824 1.2748749
-0.079235762 -0.0033479899 1.273
-0.050219849 -0.0066959802 1.273
-0.048176337 -0.0033611401 1.2780001
-0.1127698 0.003078853 1.27675
-0.10655113 0.0064789178 1.2739999
-0.095400348 0.0038708204 1.2756922
-0.088510022 0.00112038 1.2780001
-0.071143836 0.0063342093 1.2746667
-0.051335849 0.0066959802 1.273
-0.048176341 0.00112038 1.2780001
-0.14116788 0.01456494 1.2780001
-0.10492859 0.010963944 1.276
-0.098593436 0.01176399 1.2780001
-0.064715832 0.013294261 1.2752222
-0.056131296 0.014090051 1.2754999
-0.3003118 -0.24182412 1.2830001
-0.29806229 -0.24182412 1.2830001
-0.30145469 -0.23838319 1.2846667
-0.29569188 -0.2346784 1.2835556
-0.30419213 -0.22199023 1.2880001
-0.29762712 -0.2268815 1.2850001
-0.30256134 -0.21932885 1.2830001
-0.31051534 -0.17050114 1.2880001
-0.30706039 -0.17321354 1.2830001
-0.31129843 -0.16437873 1.28425
-0.30818516 -0.1653402 1.2830001
-0.31155944 -0.15859163 1.2830001
-0.30651489 -0.15367705 1.2842501
-0.30168152 -0.14802183 1.2850001
-0.29646474 -0.14332411 1.2844286
-0.29177028 -0.13606726 1.2870001
-0.28793707 -0.13401778 1.2846668
-0.28455073 -0.12410883 1.2870001
-0.27781653 -0.12034968 1.2830001
-0.27479258 -0.11454672 1.2852223
-0.26821747 -0.11156854 1.2855
-0.26405013 -0.10682315 1.2871667
-0.25677919 -0.10173365 1.2846668
-0.2546984 -0.098045081 1.2855
-0.24625726 -0.094852351 1.2850001
-0.23844981 -0.091105826 1.2830001
-0.2410728 -0.085815139 1.2880001
-0.23670185 -0.084001586 1.2845
-0.23183748 -0.078177795 1.2850001
-0.22576293 -0.074386649 1.2841538
-0.22264116 -0.065613613 1.2872858
-0.21782917 -0.064486437 1.2830001
-0.21411172 -0.054985404 1.2848182
-0.20808122 -0.05061435 1.2830001
-0.2119032 -0.047800541 1.2880001
-0.20584752 -0.044115301 1.2843636
-0.20313528 -0.036906134 1.2855
-0.19721174 -0.03235174 1.2836251
-0.19383912 -0.0261319 1.2867501
-0.18501765 -0.024392152 1.28425
-0.17808753 -0.022120347 1.2830001
-0.18231015 -0.018417889 1.2863334
-0.17527409 -0.014803895 1.2851429
-0.16730855 -0.011528825 1.2830001
-0.044709343 -0.013778351 1.2830002
-0.034929201 -0.014642086 1.2852004
-0.028119083 -0.01012287 1.2830001
-0.17275943 -0.00677488 1.2880001
-0.16402152 -0.0060807345 1.2850001
-0.15553686 -0.0042425273 1.2849231
-0.14599428 -0.0024744794 1.2830001
-0.13309699 -0.0018746055 1.2830001
-0.12522365 -0.0014996844 1.2830001
-0.084357239 -0.0011247633 1.2830001
-0.077608667 -0.0011247633 1.2830001
-0.044525679 -0.005072759 1.2859167
-0.03048696 -0.0079040267 1.2880001
-0.028119083 -0.0078733433 1.2830001
-0.15130565 0.0011291467 1.2880001
-0.14374371 0.0015799288 1.2870001
-0.13540816 0.0031797499 1.2861819
-0.12479767 0.004138256 1.2863336
-0.11618935 0.0059088427 1.283625
-0.092976458 0.0069796694 1.284
-0.085278362 0.0037328464 1.2864616
-0.075652823 0.0045165867 1.2880001
-0.04794161 0.0045132991 1.2867501
-0.12081869 0.01016232 1.2880001
-0.11434788 0.01090851 1.2871667
-0.10910204 0.012372397 1.2830001
-0.093970627 0.013345498 1.2863334
-0.070998162 0.011271741 1.2855
-0.06649363 0.017467802 1.2855
-0.053452011 0.016037192 1.2836251
-0.048553307 0.01016232 1.2880001
-0.063645996 0.023365673 1.2865715
-0.056863405 0.023243764 1.2870001
-0.30384806 -0.23449659 1.29325
-0.3121672 -0.22427838 1.2948571
-0.30570281 -0.2268513 1.2931111
-0.30495805 -0.14409339 1.2942222
-0.30168554 -0.13891776 1.2953334
-0.29562885 -0.13454133 1.2939999
-0.29250532 -0.12665576 1.29575
-0.28957176 -0.1237748 1.2953334
-0.28445324 -0.11529594 1.2943077
-0.27890119 -0.11223897 1.2932501
-0.27372465 -0.10627328 1.2955714
-0.26648432 -0.10318937 1.2934999
-0.27175176 -0.098922193 1.2970001
-0.26399547 -0.095686145 1.2958462
-0.25510406 -0.095104702 1.295077
-0.24729598 -0.092500024 1.2920001
-0.26151842 -0.089825898 1.2970001
-0.25128511 -0.086414784 1.2970001
-0.24601814 -0.084475249 1.2940001
-0.24389437 -0.077887014 1.2970001
-0.2363164 -0.074780859 1.2942727
-0.22992863 -0.071357161 1.2920001
-0.23218289 -0.067994796 1.2970001
-0.22594243 -0.063383095 1.2936666
-0.22337046 -0.05703453 1.296
-0.21845876 -0.052769199 1.2945001
-0.21515998 -0.045417361 1.295125
-0.2111098 -0.037522208 1.2970001
-0.20653263 -0.034176473 1.2934285
-0.20359443 -0.024685578 1.296091
-0.1964021 -0.022426534 1.2920001
-0.18915311 -0.021520413 1.2920001
-0.20352957 -0.019329622 1.2970001
-0.19475815 -0.018030152 1.2970001
-0.18484144 -0.014327144 1.2945001
-0.17782657 -0.01019388 1.2920001
-0.18084697 -0.0071734712 1.2920001
-0.17445716 -0.0037228276 1.2934285
-0.16622989 -0.0018884861 1.2928333
-0.15970412 -0.0011326533 1.2920001
-0.041908175 -0.0011326533 1.2920001
-0.035423376 -0.004534509 1.2942224
-0.028316334 -0.0056632664 1.2920001
-0.17147191 0.0034067268 1.2953334
-0.16515557 0.0037468059 1.2923845
-0.15555106 0.004908165 1.2919999
-0.14534074 0.005871993 1.2924545
-0.13478574 0.0075510219 1.2919999
-0.12798983 0.0079285735 1.2920001
-0.082787424 0.0068046865 1.2936667
-0.077219136 0.0056778775 1.2953334
-0.04494407 0.004058341 1.2955714
-0.039796282 0.0011370367 1.2970001
-0.15064289 0.01019388 1.2920001
-0.14449421 0.011164726 1.2919999
-0.13502567 0.012482857 1.2943332
-0.12521756 0.011502117 1.2934285
-0.11756889 0.013233284 1.2936667
-0.091922447 0.01815971 1.2945001
-0.087104537 0.013465413 1.2952143
-0.074193001 0.012023658 1.294
-0.050969403 0.016989799 1.2920001
-0.048103139 0.014394429 1.2961668
-0.065607235 0.025754964 1.2934285
-0.053942047 0.026082337 1.2934285
-0.062537014 0.030699991 1.2970001
-0.057988871 0.030699991 1.2970001
-0.30932483 -0.2339911 1.302
-0.30877298 -0.14294708 1.3045001
-0.30305707 -0.13494398 1.3045001
-0.29791063 -0.1312633 1.302
-0.29638609 -0.12511523 1.3053335
-0.29181662 -0.11581001 1.3036667
-0.2864964 -0.11071774 1.302
-0.28446144 -0.10674316 1.3057501
-0.27850646 -0.10386922 1.302
-0.28072181 -0.099684887 1.307
-0.27338237 -0.095954567 1.3047779
-0.26766297 -0.091884308 1.302
-0.2573902 -0.090742886 1.302
-0.26349553 -0.085605115 1.3049167
-0.2557767 -0.084496193 1.3025
-0.25298035 -0.077839017 1.30575
-0.24601142 -0.074303642 1.3040001
-0.23855677 -0.071909457 1.302
-0.24295449 -0.068465568 1.306
-0.23594701 -0.064332373 1.3037857
-0.22942542 -0.060495261 1.302
-0.2336549 -0.055663686 1.3065002
-0.2262249 -0.05392231 1.3025556
-0.22318868 -0.046925336 1.3055714
-0.21829028 -0.042283673 1.3036667
-0.21491924 -0.035666656 1.3040001
-0.20887986 -0.030818339 1.302
-0.21219687 -0.025143385 1.3036667
-0.20887986 -0.025111241 1.302
-0.20431417 -0.019404139 1.302
-0.19289997 -0.014381891 1.302
-0.035384018 -0.00114142 1.302
-0.04280325 0.0062778099 1.302
-0.035958674 0.0040868325 1.3052143
-0.027499281 0.0022916067 1.307
-0.13354613 0.0171213 1.302
-0.12559916 0.015844999 1.304143
-0.1198491 0.01483846 1.302
-0.083201803 0.016518233 1.3033637
-0.076215647 0.016440466 1.3035386
-0.043464635 0.014871608 1.3048126
-0.092211477 0.023111913 1.3050001
-0.084857948 0.022728587 1.3055716
-0.074765645 0.022506373 1.3053335
-0.068954803 0.02781108 1.3036667
-0.0513639 0.027394079 1.302
-0.046898406 0.02337018 1.3048573
-0.0649027 0.034453217 1.3045
-0.054685242 0.034554169 1.3050001
-0.049269542 0.032082494 1.307
-0.053852756 0.040103115 1.307
-0.31288847 -0.1420121 1.317
-0.31134903 -0.13739383 1.317
-0.30653045 -0.13328737 1.3145
-0.30134276 -0.12584813 1.317
-0.29789835 -0.12191978 1.312
-0.29559797 -0.11386847 1.312
-0.29404423 -0.10762253 1.3153332
-0.28695798 -0.10303814 1.3132501
-0.28171507 -0.098138452 1.317
-0.27630889 -0.093253881 1.3132501
-0.27267775 -0.085837819 1.3155715
-0.2656931 -0.082238346 1.312
-0.2657119 -0.077802114 1.3158889
-0.25555852 -0.074286178 1.3147274
-0.2495905 -0.070161387 1.312
-0.25227356 -0.067542344 1.317
-0.2450407 -0.064021826 1.3135002
-0.24330817 -0.055347767 1.3153335
-0.23636335 -0.052333493 1.312
-0.24438398 -0.047593936 1.317
-0.23471746 -0.047320232 1.3165456
-0.22682829 -0.043211628 1.3145002
-0.23299222 -0.036253493 1.317
-0.22579807 -0.034849305 1.3163334
-0.2175924 -0.032234814 1.3132501
-0.22358647 -0.02838226 1.3160001
-0.21759239 -0.027631875 1.3132501
-0.033930507 0.0063260267 1.312
-0.026454292 0.0069011198 1.312
-0.12453575 0.018836061 1.3153334
-0.11785293 0.018044429 1.3136667
-0.040256534 0.018402986 1.312
-0.035936587 0.014999632 1.3158463
-0.025169626 0.016856723 1.317
-0.092014939 0.026454292 1.312
-0.085134849 0.02684303 1.3148572
-0.076488115 0.026958203 1.3140001
-0.044420116 0.025476711 1.3142223
-0.035021957 0.021936828 1.317
-0.028094536 0.022706544 1.317
-0.072699711 0.034122873 1.3162857
-0.046998974 0.035472754 1.3147779
-0.063997813 0.043228365 1.3162309
-0.05509185 0.044660125 1.3140589
-0.046921831 0.045387518 1.3161668
-0.31783023 -0.14203402 1.3280001
-0.31371728 -0.13444665 1.3244001
-0.30944052 -0.13096173 1.322
-0.31084496 -0.12922768 1.3280001
-0.30567196 -0.12552267 1.3257501
-0.30180925 -0.11548524 1.3246667
-0.30185327 -0.10733264 1.3260001
-0.29504478 -0.10338092 1.325
-0.29221755 -0.097793922 1.3280001
-0.28588966 -0.094994508 1.325231
-0.27930775 -0.091557309 1.322
-0.28290385 -0.085320212 1.3280001
-0.27740887 -0.084340014 1.324
-0.27345258 -0.076149657 1.3252729
-0.26382315 -0.073043235 1.3225456
-0.2584466 -0.070696153 1.322
-0.27328372 -0.068028897 1.3265001
-0.26636186 -0.067695156 1.3268001
-0.25513628 -0.06515111 1.3237144
-0.24917497 -0.061424527 1.322
-0.25234893 -0.055815175 1.3265001
-0.24917497 -0.05562976 1.322
-0.25149286 -0.049834993 1.322
-0.24453916 -0.045971811 1.322
-0.23732789 -0.042366188 1.322
-0.23835807 -0.037472825 1.322
-0.22715485 -0.031291738 1.322
-0.031291738 0.0081126736 1.322
-0.029017666 0.0058070403 1.324
-0.032285128 0.015066394 1.3219999
-0.026900597 0.014448103 1.3236365
-0.093875222 0.028973833 1.322
-0.085762545 0.028973833 1.322
-0.042301796 0.028394356 1.322
-0.03475228 0.0263584 1.3247693
-0.028973833 0.026655927 1.322
-0.09303318 0.033144575 1.3265001
-0.084988497 0.034480117 1.3255999
-0.077173941 0.035174202 1.3226666
-0.04210864 0.034382276 1.322
-0.035508506 0.032889027 1.3280001
-0.07304626 0.043869514 1.3263637
-0.066060342 0.048510473 1.3219999
-0.057947665 0.049834993 1.322
-0.044468626 0.043439612 1.3233333
-0.071793154 0.050837319 1.3280001
-0.064613841 0.05491206 1.3280001
-0.055109505 0.056019094 1.3250002
-0.046882376 0.053861812 1.326
-0.053844865 0.062576465 1.3280001
-0.047732748 0.062867522 1.3280001
-0.046180461 0.095077418 1.3280001
-0.32313979 -0.14283618 1.3355
-0.32236859 -0.13558774 1.3371668
-0.31855947 -0.13485606 1.3330001
-0.32022354 -0.12785482 1.3380001
-0.31489804 -0.12525295 1.3353078
-0.3090938 -0.12211835 1.3330001
-0.31083971 -0.11612502 1.3379999
-0.30710405 -0.1139046 1.3340001
-0.31083971 -0.10908714 1.3380001
-0.30476198 -0.10439487 1.3350002
-0.29799214 -0.10166791 1.3330001
-0.30252755 -0.096855104 1.3346667
-0.29613152 -0.094135709 1.335143
-0.29271749 -0.085974045 1.3342501
-0.28648594 -0.084588423 1.3330001
-0.28383213 -0.07560835 1.3343638
-0.27742484 -0.073154151 1.3330001
-0.27695742 -0.068947203 1.3330001
-0.26526538 -0.064411253 1.3359169
-0.25748083 -0.062714688 1.3330001
-0.26333401 -0.059235487 1.3380001
-0.25709128 -0.057261232 1.3330001
-0.096489996 0.03542522 1.3348184
-0.087644748 0.038563691 1.3330001
-0.035642199 0.036226496 1.3330001
-0.091492444 0.041054301 1.3380001
-0.083657399 0.043119639 1.3365002
-0.077887274 0.045143776 1.334
-0.03870834 0.042227283 1.3380001
-0.07261993 0.056593467 1.3330001
-0.067194305 0.05901413 1.3330001
-0.04479621 0.055703107 1.3330001
-0.072452992 0.061935622 1.3330001
-0.064392485 0.064396873 1.3355001
-0.055526968 0.06721586 1.3334168
-0.062167939 0.071551777 1.3380001
-0.054584868 0.072564721 1.3374447
-0.051611118 0.083281577 1.3380001
-0.051516876 0.093665257 1.3355
-0.047912464 0.092319138 1.3330001
-0.32848436 -0.1412836 1.3430001
-0.32772869 -0.13415833 1.3463334
-0.32293859 -0.1252569 1.3454001
-0.31906545 -0.12126842 1.3430001
-0.32049093 -0.11944496 1.3490001
-0.31529695 -0.11504468 1.3436668
-0.31519324 -0.10511546 1.3451431
-0.30964655 -0.10125325 1.3430001
-0.30964655 -0.097721159 1.3430001
-0.11517691 0.026877068 1.3475001
-0.10695 0.029042039 1.3466001
-0.11353184 0.03193083 1.3490001
-0.10519285 0.035061531 1.3460003
-0.034241725 0.038968708 1.3470001
-0.1017056 0.041391816 1.3490001
-0.094915643 0.044153322 1.3466002
-0.086199999 0.047238305 1.3470001
-0.041207716 0.045917168 1.3430001
-0.035120584 0.043388423 1.3467501
-0.028382959 0.042574439 1.3490001
-0.077343561 0.053691097 1.3490001
-0.074642383 0.066142224 1.3472002
-0.067894623 0.067894623 1.3430001
-0.072140023 0.072140023 1.3490001
-0.06452167 0.075362526 1.3446003
-0.054158714 0.077705979 1.3430002
-0.06238338 0.083670594 1.3490001
-0.055282306 0.084795296 1.3465003
-0.054540414 0.093261026 1.3466001
-0.33059496 -0.12723984 1.3565001
-0.32800952 -0.12700972 1.3540001
-0.32247016 -0.11553531 1.3540001
-0.12282503 0.024949059 1.3550001
-0.11870067 0.028488159 1.3540001
-0.11328323 0.036178406 1.356143
-0.10841649 0.039315868 1.3590001
-0.11079927 0.04169865 1.3590001
-0.10346135 0.045191728 1.3565
-0.094680287 0.048727181 1.3556668
-0.034024663 0.047825497 1.3570001
-0.028593361 0.047655597 1.3590001
-0.10245954 0.051229771 1.3590001
-0.095481977 0.051668625 1.3580002
-0.085242681 0.05273452 1.3567779
-0.079627343 0.055860907 1.3556668
-0.035741702 0.051229771 1.3590001
-0.078935944 0.064098358 1.3540001
-0.074590415 0.074587129 1.3558751
-0.067659378 0.079529449 1.3540001
-0.064889699 0.086651482 1.3540001
-0.061441913 0.094345264 1.3565001
-0.057774436 0.095341705 1.3560002
-0.060760889 0.10126815 1.3590001
-0.054803941 0.10523945 1.3590001
-0.33226982 -0.12325495 1.3650001
-0.32907873 -0.1220583 1.365
-0.33266869 -0.11846835 1.365
-0.32728377 -0.1148784 1.365
-0.12516959 0.028480271 1.365
-0.12265663 0.035899501 1.3649999
-0.11751103 0.037574809 1.365
-0.14240135 0.045871586 1.3650001
-0.12325495 0.04188275 1.3650001
-0.11428007 0.043976888 1.3649999
-0.1076985 0.046669349 1.3649999
-0.039489448 0.049062651 1.365
-0.02752295 0.049062651 1.365
-0.14240135 0.051455949 1.365
-0.13522145 0.051455949 1.365
-0.10450744 0.05384925 1.3649999
-0.095253341 0.056242548 1.3649999
-0.086671643 0.05761015 1.3649999
-0.034702849 0.052652597 1.365
-0.027522951 0.053051483 1.3650001
-0.092142053 0.063422449 1.3650001
-0.085806839 0.064830273 1.3649999
-0.084962137 0.073992871 1.3649999
-0.075388946 0.077782251 1.3650001
-0.083167173 0.084962144 1.365
-0.074021347 0.084620245 1.3649999
-0.068209052 0.088552102 1.365
-0.084620245 0.092825845 1.3649999
-0.074363254 0.094193451 1.3649999
-0.065815747 0.095732003 1.3649999
-0.062824123 0.10530521 1.3649999
-0.057439204 0.10490632 1.3649999
-0.33508831 -0.1225054 1.3700001
-0.33148521 -0.1152992 1.3700001
-0.143951 0.026136354 1.376
-0.13194579 0.025905062 1.3745
-0.12907338 0.024125867 1.376
-0.16043702 0.039807681 1.376
-0.15361603 0.037618991 1.3754002
-0.1440378 0.035303079 1.3730001
-0.13441454 0.035403796 1.3716669
-0.1269092 0.035363764 1.37
-0.16357337 0.044874109 1.3760002
-0.15341865 0.044308264 1.3752501
-0.14423184 0.045272242 1.3709999
-0.13451575 0.045639273 1.3700002
-0.12518464 0.046470758 1.3700001
-0.11650024 0.047869761 1.37
-0.15078667 0.051870614 1.376
-0.14293566 0.054770626 1.3730001
-0.13463098 0.055572953 1.3720002
-0.12511064 0.05534222 1.3722502
-0.11552374 0.05535635 1.3726251
-0.10689197 0.057049088 1.37
-0.099685766 0.058850631 1.3700001
-0.034446783 0.056541335 1.3721819
-0.027664093 0.05653448 1.3720001
-0.16043702 0.068758719 1.376
-0.15440555 0.068758719 1.376
-0.14596149 0.065139838 1.376
-0.13413981 0.063933544 1.3760002
-0.12545452 0.06513983 1.376
-0.1157736 0.065123066 1.3756251
-0.10535713 0.065332219 1.3743334
-0.09641023 0.064746626 1.37
-0.030157333 0.06152096 1.376
-0.027744746 0.063933544 1.376
-0.16043702 0.073583893 1.376
-0.15488806 0.074066415 1.3760002
-0.14789157 0.075513966 1.376
-0.13208911 0.074790187 1.376
-0.12444928 0.074388087 1.3760003
-0.11577228 0.074770138 1.375625
-0.10494752 0.074790195 1.3759999
-0.094608791 0.074816093 1.3713847
-0.085273363 0.074864417 1.37
-0.15561184 0.080821656 1.376
-0.14676569 0.082430042 1.376
-0.12344402 0.081625849 1.376
-0.11749297 0.082751729 1.376
-0.10346285 0.083790988 1.3760002
-0.093813092 0.084187731 1.3718753
-0.084415495 0.084587075 1.3700001
-0.074944489 0.085033163 1.37
-0.11339157 0.092884585 1.376
-0.10404281 0.094241671 1.376
-0.094005324 0.094484337 1.3712002
-0.084349506 0.095990293 1.3700001
-0.074354894 0.095973492 1.37
-0.0684589 0.098484732 1.3700001
-0.15802443 0.10977269 1.376
-0.10374123 0.10132864 1.376
-0.094210319 0.10455663 1.3745884
-0.084117047 0.10575012 1.3707502
-0.074506156 0.10575078 1.3707501
-0.067429446 0.10620566 1.37
-0.15159087 0.11861885 1.376
-0.14561684 0.11632114 1.3760002
-0.086052537 0.113535 1.3748
-0.074388087 0.11218528 1.376
-0.062885061 0.11495438 1.3706666
-0.058250114 0.11349765 1.3700001
-0.14354891 0.12424821 1.376
-0.16293551 0.015807176 1.3870001
-0.15656951 0.016815593 1.3844286
-0.14770254 0.018160149 1.381
-0.17144707 0.026750606 1.3870001
-0.16498427 0.02453983 1.3858001
-0.15500967 0.024219124 1.3813753
-0.14588855 0.023021791 1.3822
-0.13765052 0.024273496 1.3846
-0.17389296 0.035573132 1.3857144
-0.16495809 0.034876063 1.3819478
-0.15569302 0.032446131 1.3810002
-0.14891323 0.031477593 1.381
-0.13801715 0.030266916 1.381
-0.18186937 0.045337062 1.3870001
-0.17503309 0.045441233 1.3843335
-0.16545914 0.04761995 1.381
-0.15587461 0.047519058 1.381
-0.14891323 0.049637742 1.381
-0.1823905 0.057149023 1.3870001
-0.17481478 0.055841036 1.3847504
-0.16465202 0.05569113 1.3810003
-0.15520875 0.055933263 1.3810003
-0.1471837 0.056901801 1.3809999
-0.042373683 0.059323158 1.381
-0.038741656 0.059323158 1.381
-0.1836064 0.066434368 1.3870001
-0.17486179 0.065572806 1.3851252
-0.16489416 0.065134406 1.3810003
-0.15496661 0.06416586 1.3810002
-0.14510824 0.065376543 1.3810003
-0.13721001 0.067394331 1.381
-0.043445405 0.064411111 1.38625
-0.033990473 0.064334184 1.3846002
-0.027845563 0.061744511 1.381
-0.19211799 0.074172139 1.3870001
-0.18457916 0.075307012 1.3870003
-0.17467308 0.075203635 1.3836253
-0.16489416 0.075142659 1.3810003
-0.1541595 0.076272629 1.381
-0.14396228 0.074789159 1.382091
-0.13675591 0.075142168 1.3825003
-0.12893705 0.076272629 1.381
-0.18482235 0.085115559 1.3870003
-0.17472139 0.084931456 1.3840003
-0.16465203 0.084747359 1.3810003
-0.1548859 0.08498951 1.3810003
-0.14491023 0.08526966 1.3819234
-0.13574702 0.084839411 1.3825002
-0.12637602 0.08539927 1.3810003
-0.11432247 0.085612126 1.3810003
-0.10653955 0.085958049 1.381
-0.19090205 0.098490871 1.3870001
-0.18336323 0.095572621 1.3870001
-0.17472139 0.094637915 1.3840003
-0.16492161 0.094587944 1.3832502
-0.15496661 0.094432771 1.3810003
-0.14543505 0.094535336 1.3825004
-0.13589495 0.094636589 1.3840001
-0.12597875 0.094486043 1.3817503
-0.11605199 0.094432779 1.3810003
-0.10775022 0.095643461 1.381
-0.04012591 0.091195248 1.3870001
-0.19211799 0.10457056 1.3870001
-0.18482235 0.10457054 1.3870003
-0.17495514 0.10448737 1.3858752
-0.16510175 0.10440092 1.3847501
-0.15500966 0.10414547 1.3813753
-0.14543507 0.10423127 1.3825002
-0.13479254 0.10442978 1.3825792
-0.12455464 0.10435425 1.3830005
-0.11455891 0.10392718 1.3820004
-0.10415721 0.10496431 1.3815001
-0.19171268 0.11146086 1.3870001
-0.18482234 0.11308211 1.3870001
-0.17428021 0.11405043 1.3850001
-0.16446087 0.11475943 1.3810003
-0.15526928 0.11456029 1.3810003
-0.14481555 0.11408298 1.3810003
-0.13497266 0.1143972 1.3847147
-0.12402555 0.11429806 1.3870003
-0.11429806 0.11429806 1.3870003
-0.10448802 0.11420766 1.3858752
-0.094190642 0.11469145 1.3810003
-0.084343806 0.11662853 1.381
-0.075061955 0.11622496 1.3810002
-0.067970842 0.11674382 1.3809999
-0.18360643 0.12475511 1.3870001
-0.17526856 0.12454666 1.3870002
-0.1649109 0.12489244 1.3831428
-0.15496661 0.12591037 1.3810003
-0.14584154 0.1259014 1.3819234
-0.13468117 0.12418959 1.3866847
-0.12402555 0.12402556 1.3870003
-0.11429806 0.12402555 1.3870003
-0.10457054 0.12402555 1.3870003
-0.094775543 0.12514769 1.3860003
-0.084996879 0.1250702 1.3851252
-0.075735487 0.12402555 1.3870002
-0.06736289 0.12378235 1.3870001
-0.18279579 0.13334773 1.3870001
-0.17494287 0.13390504 1.3870003
-0.16548572 0.13516407 1.3863688
-0.15505274 0.13567075 1.3817501
-0.14524856 0.13541144 1.3827651
-0.13496898 0.13496898 1.3870006
-0.12402556 0.13496898 1.3870004
-0.11451263 0.13411067 1.3870003
-0.10450505 0.13488141 1.3861004
-0.094696552 0.1353084 1.3817061
-0.084910363 0.13504902 1.3848826
-0.076604009 0.13149488 1.3870001
-0.06809245 0.13010523 1.3870001
-0.16366509 0.14421009 1.3870001
-0.15559813 0.14587393 1.3866253
-0.14598517 0.1455044 1.3854004
-0.13568424 0.14541171 1.3870003
-0.12524149 0.14513864 1.3870001
-0.11794586 0.14348052 1.3870001
-0.10439684 0.14330682 1.3870001
-0.095364176 0.14330682 1.3870001
-0.087547436 0.14226459 1.3870001
-0.15530826 0.15420288 1.3870001
-0.14665791 0.15525733 1.386077
-0.13618492 0.153512 1.3870001
-0.12767334 0.15199208 1.3870001
-0.14550708 0.1625302 1.3870001
-0.1777091 0.0085790595 1.3980001
-0.17482379 0.014418065 1.3975385
-0.167794 0.014643839 1.3920001
-0.1809773 0.027371287 1.3980001
-0.1754494 0.023979288 1.3956001
-0.16962448 0.020745439 1.3920001
-0.19556756 0.035891984 1.398
-0.18578039 0.034509812 1.3960001
-0.17816672 0.03172832 1.3920001
-0.20222069 0.04779762 1.3980001
-0.19604117 0.044108059 1.3976251
-0.18735909 0.043478109 1.3932
-0.20487612 0.054538306 1.3979999
-0.1954052 0.054487467 1.3950002
-0.18689671 0.054163437 1.3920001
-0.20429476 0.064767189 1.398
-0.19575994 0.065294415 1.3936669
-0.18817334 0.064188838 1.3920001
-0.042223074 0.068581983 1.3920001
-0.03490115 0.069070116 1.3920001
-0.20333779 0.075945847 1.3972501
-0.1968013 0.076425172 1.3926002
-0.1891496 0.076880157 1.3920001
-0.044510644 0.074110769 1.395
-0.035023186 0.072737381 1.3968002
-0.21202534 0.087016173 1.3980001
-0.20584254 0.085766599 1.3976252
-0.19525118 0.085422412 1.3920001
-0.040444139 0.089467339 1.3980001
-0.21202534 0.091918498 1.3980001
-0.20559305 0.095323823 1.3976001
-0.19549523 0.094940901 1.3920001
-0.18792927 0.093964636 1.3920001
-0.042895298 0.091918498 1.3980001
-0.2042353 0.10517108 1.3950001
-0.19769183 0.10494752 1.3920001
-0.20349738 0.11391056 1.397143
-0.19610533 0.11548411 1.3933848
-0.18548864 0.11837104 1.3920001
-0.17816672 0.11837104 1.3920001
-0.20222069 0.12133242 1.3980001
-0.19515239 0.12439185 1.3950001
-0.18752252 0.12325232 1.3920001
-0.1769464 0.12081168 1.3920001
-0.071998879 0.12813359 1.3920001
-0.068337917 0.12813359 1.3920001
-0.19346656 0.13428856 1.398
-0.18822007 0.13484311 1.3928572
-0.17450576 0.13789617 1.3920001
-0.074852139 0.13626088 1.3946668
-0.068337917 0.13301487 1.3920001
-0.18261997 0.14316602 1.39575
-0.17536838 0.14420815 1.3940001
-0.16718385 0.14556673 1.3920001
-0.13057424 0.14765872 1.3920001
-0.12162522 0.14684518 1.3920001
-0.11386524 0.14427938 1.3920001
-0.10519157 0.14717057 1.3920001
-0.09453167 0.14729787 1.3932002
-0.085562445 0.14484528 1.39425
-0.079320796 0.1403368 1.3920001
-0.17158119 0.15442307 1.3980001
-0.16559419 0.15355632 1.3932858
-0.15693316 0.15937379 1.3920001
-0.14228931 0.15595689 1.3920001
-0.13376585 0.15648259 1.3920001
-0.12420753 0.15532289 1.3936001
-0.11479218 0.15455079 1.3930001
-0.10534132 0.15374033 1.3940002
-0.097497612 0.15216479 1.396
-0.15372349 0.16432415 1.3953334
-0.14352611 0.16552575 1.3940002
-0.13442807 0.16498339 1.3940001
-0.12464058 0.16450086 1.3958572
-0.11612371 0.16330853 1.398
-0.10907662 0.16055098 1.3980001
-0.184626 0.00492336 1.404
-0.20431945 0.0184626 1.404
-0.19365215 0.017642038 1.4040002
-0.18388748 0.016247088 1.4040002
-0.2030886 0.0246168 1.4040002
-0.19447269 0.024616802 1.4039999
-0.18528874 0.023954041 1.404
-0.22524372 0.0369252 1.404
-0.21258365 0.036397696 1.4040002
-0.20407325 0.034709688 1.4039999
-0.19406246 0.032001842 1.4040002
-0.22114092 0.047182202 1.4039999
-0.21416613 0.044310242 1.4039999
-0.20577407 0.043974552 1.4040002
-0.22155119 0.054156955 1.4040002
-0.21441229 0.053910792 1.4039999
-0.20801196 0.05046444 1.404
-0.22155119 0.064003684 1.4040002
-0.21416613 0.064003684 1.4039999
-0.20801196 0.06277284 1.404
-0.22228971 0.073358059 1.4040002
-0.21416612 0.073850393 1.4039999
-0.20801196 0.073850401 1.404
-0.041848559 0.077542916 1.404
-0.034463521 0.075696655 1.404
-0.22188689 0.085151754 1.4040002
-0.21558636 0.083981164 1.404
-0.20801196 0.080004603 1.404
-0.044105098 0.08451768 1.4040002
-0.037540622 0.084312543 1.404
-0.21494943 0.0963412 1.4040002
-0.045541078 0.092312999 1.404
-0.21293531 0.10506897 1.4040002
-0.21047364 0.11528867 1.4039999
-0.20702729 0.11742213 1.404
-0.20370403 0.12554568 1.4040002
-0.20062692 0.13293073 1.404
-0.19754982 0.1353924 1.404
-0.19324188 0.14154659 1.4039999
-0.18524143 0.14646997 1.404
-0.18093348 0.15139332 1.404
-0.10215972 0.15877835 1.404
-0.094774671 0.153855 1.4039999
-0.22328699 -0.0012404834 1.4150001
-0.21584411 -0.0012404834 1.4150001
-0.20592023 -0.0012404834 1.4150001
-0.19574828 -0.0017366767 1.4150001
-0.23693232 0.0086833835 1.4150001
-0.22401582 0.0052914801 1.4131818
-0.21541315 0.0049485099 1.4121876
-0.20551066 0.0049490584 1.4121877
-0.19543612 0.0049468656 1.4109374
-0.18763998 0.0071693799 1.4100001
-0.24437523 0.016126283 1.4150001
-0.23577452 0.015133896 1.4150003
-0.22542304 0.014863061 1.4128127
-0.21508136 0.014833199 1.41
-0.20519258 0.014303444 1.41
-0.19579823 0.01310266 1.41
-0.1866511 0.012361 1.41
-0.24344486 0.023879303 1.4150001
-0.23548689 0.02478775 1.4137502
-0.22527099 0.024751591 1.4118751
-0.21508136 0.024722002 1.41
-0.2089009 0.024721999 1.4100001
-0.24189425 0.037214503 1.4150001
-0.23538333 0.034686409 1.4131252
-0.22479363 0.034257632 1.41
-0.21631749 0.033100013 1.41
-0.2089009 0.030902499 1.4100001
-0.24437523 0.045897879 1.4150001
-0.23522745 0.044567809 1.4121877
-0.22563578 0.043834005 1.41
-0.24508406 0.054581266 1.4150002
-0.2351228 0.054447845 1.4115626
-0.22744238 0.054388396 1.41
-0.24437523 0.063941278 1.4150001
-0.23533101 0.064407326 1.4128126
-0.22744238 0.064277194 1.41
-0.24331196 0.074960642 1.4150001
-0.23501599 0.074212834 1.4109375
-0.22785443 0.074990064 1.41
-0.033374701 0.077874303 1.4100002
-0.24313474 0.080631413 1.4150001
-0.2350577 0.083968297 1.4126667
-0.22761896 0.083525047 1.41
-0.044911634 0.084466837 1.41
-0.035352461 0.081829824 1.4100001
-0.23327099 0.092990533 1.4142858
-0.22538128 0.094497479 1.4103571
-0.050740004 0.092820011 1.4116669
-0.047673136 0.093494311 1.4125001
-0.23197038 0.10171963 1.4150001
-0.22507158 0.10387952 1.410625
-0.21817166 0.1050685 1.4100001
-0.22515021 0.11369138 1.4126667
-0.21615267 0.11545173 1.41
-0.22353509 0.12181546 1.4150001
-0.21532723 0.12553294 1.4134616
-0.20791201 0.12781274 1.4100001
-0.21410742 0.13223553 1.4150001
-0.20552208 0.13584535 1.4108334
-0.1990121 0.1396793 1.4100001
-0.081582606 0.14585981 1.4100001
-0.076771893 0.14240354 1.4125001
-0.086833835 0.15133896 1.4150001
-0.23310362 -0.02210106 1.427
-0.2289336 -0.021267056 1.427
-0.28397775 -0.012510033 1.427
-0.25311971 -0.012927034 1.427
-0.24519664 -0.013761037 1.427
-0.23493841 -0.014761839 1.427
-0.22488704 -0.014995932 1.4251251
-0.21604328 -0.013199775 1.4263334
-0.28397775 -0.0087570231 1.427
-0.2639617 -0.0012510034 1.427
-0.25495449 -0.0047538122 1.427
-0.24519664 -0.005004013 1.427
-0.23512781 -0.0050036842 1.426625
-0.22466697 -0.005851076 1.4219233
-0.21456943 -0.0062409895 1.4230002
-0.20473322 -0.0049961233 1.424
-0.19807319 -0.0037372301 1.4210001
-0.2624605 0.0032526087 1.427
-0.25493905 0.0049961233 1.4255
-0.24468248 0.0049888911 1.424
-0.23401758 0.0047341753 1.4214001
-0.22797103 0.0012457434 1.4210001
-0.26253197 0.015548184 1.427
-0.25467339 0.014980481 1.424
-0.24541144 0.01121169 1.4210001
-0.23544548 0.01121169 1.4210001
-0.26271069 0.025020069 1.427
-0.25500643 0.025001325 1.4258751
-0.24728005 0.026783481 1.4210001
-0.26312768 0.035167098 1.427
-0.25513861 0.0350179 1.426625
-0.24590972 0.034382515 1.4210002
-0.2639617 0.045036122 1.427
-0.25466973 0.044646006 1.4226
-0.24707241 0.041940022 1.4210001
-0.26253197 0.054865431 1.427
