# .PCD v0.7 - Point Cloud Data file format
VERSION 0.7
FIELDS x y z
SIZE 4 4 4
TYPE F F F
COUNT 1 1 1
WIDTH 1472
HEIGHT 1
VIEWPOINT 0 0 0 1 0 0 0
POINTS 1472
DATA ascii
-0.26491725 0.16015911 1.149
-0.25383705 0.16197224 1.149
-0.24563487 0.1607347 1.149
-0.23671316 0.16015911 1.149
-0.21858193 0.16015911 1.149
-0.25674236 -0.13039277 1.153
-0.29284388 -0.1221511 1.1570002
-0.28586987 -0.12266115 1.1563331
-0.27774444 -0.12253102 1.153
-0.26331252 -0.12685497 1.153
-0.25550696 -0.1254511 1.153
-0.24508329 -0.12411244 1.1537999
-0.23570621 -0.12265078 1.1551175
-0.22754204 -0.1213783 1.1570001
-0.3029781 -0.11160906 1.1558571
-0.29494801 -0.11562425 1.1553156
-0.28547788 -0.11739682 1.153
-0.2446128 -0.11725242 1.153
-0.23364398 -0.11525499 1.1556666
-0.22674289 -0.11516953 1.1569999
-0.31195292 -0.10292405 1.1558572
-0.30673617 -0.10524885 1.1533636
-0.23235293 -0.10454785 1.1537273
-0.22577049 -0.10389201 1.1561664
-0.31332165 -0.094175689 1.1551331
-0.23248324 -0.098047279 1.153
-0.22344878 -0.09523464 1.1556665
-0.21807522 -0.094330199 1.1570001
-0.31452924 -0.08740174 1.1566
-0.30797562 -0.089388728 1.1543332
-0.20539641 -0.02130037 1.1570001
-0.19880345 -0.02130037 1.1570001
-0.35333261 -0.013181121 1.1565001
-0.34594041 -0.012870883 1.1566923
-0.33519509 -0.013571326 1.1551334
-0.32498965 -0.01397354 1.1548666
-0.31541994 -0.01243424 1.1555454
-0.30529901 -0.012672362 1.1563333
-0.29459888 -0.012054653 1.1565557
-0.28501922 -0.012171639 1.1569999
-0.27470404 -0.012810092 1.1562725
-0.26577756 -0.012665935 1.1556667
-0.25584239 -0.012054653 1.1565557
-0.24498187 -0.012615154 1.1551818
-0.23538177 -0.013848119 1.1556666
-0.22442381 -0.01368104 1.1557498
-0.215243 -0.015459314 1.1548666
-0.20584282 -0.016734481 1.1546469
-0.19515806 -0.016546886 1.1554444
-0.18566215 -0.014456647 1.1559471
-0.17621686 -0.012841414 1.1563331
-0.36109197 -0.0040572132 1.1570001
-0.35503674 -0.0058684656 1.1537999
-0.34427044 -0.0070847487 1.1542307
-0.33659527 -0.0085917721 1.153
-0.32042253 -0.0090971701 1.153
-0.31385237 -0.0090971701 1.153
-0.30357593 -0.0087602371 1.153
-0.29426935 -0.0068268226 1.1535
-0.28564814 -0.0074862069 1.1538
-0.27613965 -0.0080926856 1.1537999
-0.26583952 -0.0090971701 1.153
-0.25573152 -0.0090971701 1.153
-0.24562359 -0.0090971701 1.153
-0.23349404 -0.0082885334 1.153
-0.22945084 -0.0090971701 1.153
-0.18194339 -0.0090971701 1.153
-0.17371413 -0.0076852106 1.1533999
-0.16774459 -0.0023637854 1.155
-0.1531598 -0.00304291 1.1570001
-0.37123501 0.0081144264 1.1570001
-0.36487031 0.0037089819 1.1543334
-0.35883281 0.0010107966 1.153
-0.16384754 0.0042518917 1.1551331
-0.15843418 0.0075058443 1.1570001
-0.38239232 0.019271763 1.1570001
-0.375038 0.014601132 1.1544285
-0.36894077 0.011118763 1.153
-0.15408906 0.014901205 1.1552856
-0.14842638 0.018595561 1.1570001
-0.39253536 0.02738619 1.1570001
-0.3842119 0.025635293 1.1543332
-0.37803793 0.025269916 1.153
-0.1506087 0.02122673 1.153
-0.14428516 0.025822073 1.1549999
-0.13895956 0.029414797 1.1570001
-0.39253539 0.031443402 1.1570001
-0.38398311 0.034627926 1.1548666
-0.37662283 0.036321294 1.153
-0.36793 0.03942107 1.153
-0.15128256 0.038747206 1.153
-0.14364611 0.036492281 1.1544117
-0.13664114 0.036659818 1.1569998
-0.38210255 0.044194642 1.1570002
-0.37467706 0.045468237 1.1548181
-0.36548781 0.04581489 1.1539522
-0.35640693 0.047709603 1.153
-0.34333393 0.048181307 1.153
-0.33760607 0.049529035 1.153
-0.16223286 0.049023636 1.153
-0.15486312 0.045550928 1.1545999
-0.14539818 0.045379046 1.1569997
-0.13711536 0.044168297 1.1569999
-0.37224931 0.053960938 1.1569999
-0.36447299 0.055335879 1.1569998
-0.35460588 0.055134356 1.153
-0.34442544 0.054539599 1.1532105
-0.33659527 0.052705824 1.153
-0.1809326 0.059637003 1.153
-0.17277654 0.056806978 1.1536666
-0.16512398 0.055720616 1.1555599
-0.15518841 0.055786692 1.1569997
-0.14581817 0.055593483 1.1569998
-0.36303908 0.065400608 1.1556666
-0.35721555 0.063275866 1.153
-0.18228035 0.064803295 1.153
-0.17573963 0.065489642 1.1557271
-0.16505481 0.065376468 1.1569997
-0.15576802 0.065350115 1.1569998
-0.14829114 0.063495383 1.1570001
-0.37197316 0.076820545 1.153
-0.36819211 0.072015539 1.1570001
-0.17248899 0.072334208 1.154
-0.16394702 0.074984401 1.1548666
-0.15755512 0.075396545 1.1570001
-0.3822833 0.087534994 1.153
-0.37702718 0.084473722 1.153
-0.15554594 0.08407943 1.1555454
-0.39252663 0.09813232 1.154
-0.38450706 0.096430004 1.153
-0.37635332 0.096474931 1.153
-0.14799915 0.095741928 1.1536666
-0.39365223 0.10018459 1.1543332
-0.38273045 0.10244463 1.1570001
-0.37474507 0.10395492 1.1533809
-0.3658165 0.10668499 1.153
-0.35580045 0.10815524 1.153
-0.34468165 0.10714445 1.153
-0.16374907 0.10815524 1.153
-0.15420428 0.10705484 1.1542
-0.1473491 0.10404065 1.1562728
-0.37317121 0.11155788 1.1556666
-0.36371857 0.11333303 1.1560587
-0.35417947 0.11383475 1.1544735
-0.34520915 0.11439577 1.1547599
-0.33516827 0.11529029 1.153
-0.17217235 0.11758935 1.153
-0.16446811 0.11521144 1.1537999
-0.15626113 0.11330062 1.1564999
-0.14910258 0.11055906 1.1570001
-0.35256946 0.1234259 1.154
-0.34398609 0.12149961 1.1535714
-0.33760607 0.1202848 1.153
-0.18133691 0.12473232 1.153
-0.1750581 0.12443909 1.1549046
-0.16626772 0.1227307 1.1569998
-0.36075386 0.13828336 1.1570001
-0.35506392 0.13656041 1.1538889
-0.34316546 0.13797376 1.153
-0.1809326 0.13140357 1.153
-0.1760809 0.13441217 1.1552856
-0.36088333 0.14394985 1.1563333
-0.35451052 0.14353298 1.1544117
-0.34495926 0.1449022 1.1544999
-0.33596376 0.14616342 1.1540666
-0.32648733 0.14858711 1.153
-0.17141727 0.14098816 1.1570001
-0.16822796 0.14593431 1.156
-0.34325796 0.15086995 1.155
-0.33478567 0.15251155 1.1562728
-0.32527837 0.15495911 1.1552607
-0.31518587 0.15591763 1.1544735
-0.30476439 0.15710217 1.1536666
-0.29414186 0.1580212 1.153
-0.2112565 0.15768427 1.153
-0.20569712 0.15717888 1.153
-0.19528398 0.1574444 1.1542
-0.18572295 0.15720864 1.155857
-0.17483264 0.15553506 1.1551175
-0.16938865 0.15417412 1.1570001
-0.31544834 0.16127422 1.1570001
-0.30445555 0.16151939 1.1563333
-0.29422423 0.16273285 1.1551538
-0.28452191 0.1648405 1.1555712
-0.2752333 0.16514327 1.1556665
-0.26522201 0.16500734 1.1547142
-0.25559112 0.16651888 1.1546665
-0.24453796 0.16636671 1.1547776
-0.2351597 0.16438302 1.1553528
-0.22447371 0.16304174 1.1551331
-0.2145301 0.16372316 1.1558571
-0.20593914 0.16295882 1.1555713
-0.19677484 0.16127422 1.1570001
-0.24850431 0.17141727 1.1570001
-0.30407831 -0.12339426 1.1650001
-0.29720244 -0.12405552 1.1618
-0.23511411 -0.12519063 1.161
-0.31281415 -0.11447495 1.1638
-0.3063798 -0.11676452 1.1628463
-0.22307003 -0.11382508 1.1610001
-0.21660826 -0.11255553 1.1636667
-0.33101794 -0.10248233 1.169
-0.32479998 -0.10404415 1.1658001
-0.31711599 -0.10575952 1.1625385
-0.2212719 -0.10646292 1.161
-0.21502148 -0.1049664 1.1624399
-0.20615692 -0.10410095 1.1654447
-0.19984055 -0.10145751 1.169
-0.33411035 -0.094714642 1.168
-0.32433715 -0.094853058 1.1634002
-0.31857452 -0.095674135 1.161
-0.2239182 -0.09058509 1.161
-0.21430205 -0.094701454 1.1615455
-0.20547611 -0.09507376 1.1661203
-0.1990207 -0.097768143 1.169
-0.33390251 -0.085013576 1.1683332
-0.32536563 -0.08438836 1.163435
-0.31776509 -0.083262004 1.163
-0.22179694 -0.087970287 1.1623334
-0.21421014 -0.085457146 1.1626844
-0.20528352 -0.084769554 1.1650004
-0.1983033 -0.085060336 1.1689999
-0.33448735 -0.073907077 1.168059
-0.32781172 -0.076951817 1.1675454
-0.2111136 -0.078911394 1.169
-0.20381023 -0.076449282 1.1653334
-0.19799587 -0.076451823 1.1689999
-0.33716688 -0.068663165 1.169
-0.2111136 -0.042017758 1.169
-0.35233426 -0.033409238 1.169
-0.33429736 -0.032589383 1.169
-0.32623541 -0.032452736 1.169
-0.23878384 -0.031769522 1.169
-0.22084942 -0.033306755 1.169
-0.21401729 -0.035783421 1.1690003
-0.20580316 -0.034191828 1.1689999
-0.19579425 -0.033487115 1.1683846
-0.18959232 -0.032794345 1.169
-0.35408169 -0.024770299 1.1655717
-0.34427887 -0.024770219 1.1674001
-0.33507362 -0.025861099 1.167609
-0.32591516 -0.024720788 1.1678574
-0.3152805 -0.0238143 1.1674
-0.30506793 -0.023547482 1.16775
-0.29374972 -0.024630317 1.1679475
-0.28520697 -0.0236963 1.1678571
-0.27548975 -0.023556206 1.1681999
-0.26571807 -0.022818917 1.1686363
-0.25518101 -0.022432243 1.169
-0.24375299 -0.024197208 1.16825
-0.23479231 -0.025478477 1.1670002
-0.2253706 -0.02548258 1.1663334
-0.21540101 -0.025527271 1.1644784
-0.20534393 -0.026298037 1.1642385
-0.19459575 -0.025666753 1.1631668
-0.18505235 -0.025457596 1.1651667
-0.1784015 -0.023146281 1.1682001
-0.37073794 -0.011234484 1.1650001
-0.36390263 -0.014183453 1.1622308
-0.35637894 -0.016866563 1.1610001
-0.34530684 -0.017817227 1.1613334
-0.33562285 -0.018575031 1.1610001
-0.32460037 -0.018455878 1.1623334
-0.31486446 -0.017324978 1.1623333
-0.30382234 -0.017317047 1.1618572
-0.29441777 -0.017320069 1.1620667
-0.28504741 -0.017489566 1.1628463
-0.27571952 -0.017641567 1.1625386
-0.26463237 -0.017634902 1.1635715
-0.25502589 -0.017077409 1.1639334
-0.24557273 -0.017494613 1.1623335
-0.23419754 -0.018074455 1.1615001
-0.22569937 -0.018575033 1.1610001
-0.21781135 -0.01933839 1.161
-0.1833512 -0.018756786 1.1610001
-0.17423488 -0.017198782 1.1643847
-0.16622593 -0.012434787 1.1656667
-0.38123429 -0.0020496466 1.169
-0.37402889 -0.0046526645 1.1650003
-0.36601034 -0.0058205654 1.1615715
-0.16500789 -0.0061173793 1.1626
-0.15780234 -0.0044651334 1.1613078
-0.38363883 0.0052384953 1.168059
-0.37539643 0.0048244139 1.1634001
-0.36946502 0.0020356199 1.161
-0.1618318 0.00101781 1.161
-0.1549107 0.0044783643 1.1609999
-0.1483967 0.0079389187 1.161
-0.39408273 0.016998742 1.1681999
-0.385562 0.014787612 1.1635002
-0.37964314 0.01119591 1.161
-0.15233223 0.011874449 1.161
-0.14570187 0.015285605 1.162263
-0.13856891 0.018626537 1.1674001
-0.39423177 0.025210084 1.1620002
-0.38982123 0.022391818 1.161
-0.14291389 0.022743361 1.1616668
-0.1358207 0.025080161 1.1657274
-0.12810291 0.023570936 1.169
-0.40137744 0.038810033 1.1650001
-0.39597207 0.036446597 1.1642942
-0.389007 0.038066097 1.161
-0.13243972 0.034898639 1.1639333
-0.40166005 0.04649682 1.1682
-0.39516971 0.044896837 1.1654708
-0.38654807 0.046200894 1.1617274
-0.37964314 0.049872689 1.161
-0.14147559 0.04885488 1.161
-0.13383766 0.046753649 1.1613078
-0.12938635 0.044763826 1.1658
-0.39428088 0.05390257 1.1678237
-0.38521457 0.05477336 1.163353
-0.37738135 0.055527192 1.1610001
-0.36539379 0.058015171 1.161
-0.14147559 0.05597955 1.161
-0.13522829 0.054391429 1.1646366
-0.40429282 0.068150751 1.169
-0.3922511 0.062258016 1.169
-0.38400841 0.063994348 1.167353
-0.3754127 0.064084016 1.164158
-0.36798459 0.063196748 1.1610001
-0.17302769 0.068193272 1.161
-0.1526715 0.068193272 1.161
-0.14430502 0.065281749 1.1612501
-0.13776597 0.06415841 1.16625
-0.4037804 0.071737632 1.169
-0.38020945 0.070712812 1.169
-0.37528905 0.072972506 1.1658
-0.36946502 0.07022889 1.161
-0.17200989 0.07022889 1.161
-0.16753152 0.071043134 1.161
-0.15388107 0.074933082 1.1624738
-0.1449984 0.07391075 1.1655003
-0.13835114 0.070712812 1.169
-0.15216984 0.083580382 1.1637692
-0.14726791 0.082135424 1.1682001
-0.14796379 0.094388515 1.164
-0.40121832 0.10811885 1.169
-0.39495683 0.10616244 1.167316
-0.38663658 0.10592689 1.1636667
-0.14406072 0.10571387 1.1613334
-0.13992038 0.10825957 1.1650001
-0.40137744 0.11132351 1.1650001
-0.39535332 0.11266626 1.1683333
-0.38410243 0.1149608 1.1673332
-0.37536782 0.11685921 1.1637692
-0.36573306 0.11840523 1.1610001
-0.35928693 0.11806596 1.161
-0.15333372 0.1174963 1.1614001
-0.14693336 0.11457455 1.1634001
-0.37400538 0.12345464 1.1681111
-0.36523306 0.12482902 1.1642942
-0.35851899 0.12501159 1.1614445
-0.17302769 0.12926187 1.161
-0.1642767 0.12761196 1.1618572
-0.15535539 0.12442268 1.1659092
-0.36479309 0.13375005 1.1681999
-0.35826913 0.13129748 1.161
-0.17259201 0.13466541 1.1615001
-0.16717827 0.13423246 1.1655
-0.15638804 0.1305625 1.169
-0.36386707 0.14758246 1.161
-0.35623351 0.14961807 1.161
-0.16861135 0.14374645 1.1656667
-0.36368451 0.15240212 1.1667143
-0.35436651 0.15486963 1.1670002
-0.34484255 0.15610403 1.1672223
-0.33602238 0.15731958 1.1615001
-0.32671702 0.15979616 1.161
-0.17302769 0.15979616 1.161
-0.16579951 0.15592584 1.1633158
-0.35356405 0.16089725 1.169
-0.342291 0.16089725 1.169
-0.33478168 0.16418476 1.1671818
-0.32483807 0.16549051 1.1652223
-0.31525689 0.16547862 1.16425
-0.30499342 0.16669026 1.1624286
-0.29414707 0.16793863 1.1610001
-0.28464752 0.16997427 1.161
-0.27582651 0.16997427 1.161
-0.26564839 0.16997427 1.161
-0.25648811 0.16997427 1.161
-0.23429985 0.16875289 1.161
-0.22425747 0.16827792 1.1610001
-0.21501237 0.16921091 1.1610001
-0.20330755 0.16692084 1.1610001
-0.19447295 0.16579558 1.1635885
-0.18444684 0.16508706 1.1623999
-0.17444733 0.16522755 1.162263
-0.16520092 0.1642877 1.1654
-0.32179451 0.1711455 1.169
-0.31328398 0.17313656 1.1686
-0.30453375 0.17399107 1.1674446
-0.29496151 0.17383435 1.16725
-0.285133 0.17345516 1.1666
-0.27439576 0.1751367 1.1672857
-0.26482496 0.17586985 1.1663336
-0.2550137 0.17569236 1.1647897
-0.24480017 0.17580171 1.1647897
-0.23540954 0.17413712 1.1650001
-0.22582287 0.17330101 1.1662501
-0.21484949 0.1743862 1.1674615
-0.20522714 0.17208247 1.1670001
-0.19625366 0.17191412 1.169
-0.18549302 0.1711455 1.169
-0.17611794 0.17099909 1.1680001
-0.26132995 0.18139373 1.169
-0.25261894 0.18190615 1.169
-0.2453427 0.18221359 1.169
-0.33009392 -0.10797465 1.1730001
-0.34140557 -0.091521367 1.1730001
-0.20052435 -0.092549697 1.1730001
-0.19498931 -0.093894333 1.1735336
-0.34231189 -0.08593946 1.1754001
-0.33832055 -0.086379722 1.1730001
-0.19316347 -0.085432239 1.1741112
-0.34239709 -0.074753262 1.1752223
-0.33420724 -0.075068086 1.1730001
-0.32700893 -0.075068086 1.1730001
-0.21219891 -0.077256247 1.1750001
-0.20513186 -0.072199143 1.174143
-0.19348259 -0.074460156 1.1736318
-0.18831021 -0.072744489 1.177
-0.3419393 -0.065364562 1.1752223
-0.33642381 -0.066541977 1.1750001
-0.2016681 -0.068366848 1.1756667
-0.19443327 -0.065036386 1.1745002
-0.18753758 -0.06491594 1.1754001
-0.34256977 -0.05881469 1.177
-0.22184488 -0.051591836 1.177
-0.21582584 -0.052107755 1.177
-0.20705523 -0.051247884 1.177
-0.19403958 -0.054035656 1.177
-0.18848217 -0.055375233 1.177
-0.35207152 -0.041755196 1.1760001
-0.34496087 -0.042219505 1.1746002
-0.33455816 -0.044119123 1.1748335
-0.32480931 -0.04429397 1.1749133
-0.31487826 -0.04370492 1.1759566
-0.30851915 -0.040241629 1.177
-0.26174256 -0.040929522 1.177
-0.25527638 -0.040654365 1.177
-0.24041794 -0.040241629 1.177
-0.23009957 -0.040241629 1.177
-0.2244986 -0.044098035 1.1755265
-0.21534517 -0.045607604 1.1734446
-0.20469801 -0.044443637 1.1743336
-0.194646 -0.044288743 1.1747601
-0.18549301 -0.043210022 1.1751177
-0.17850775 -0.040241629 1.177
-0.35131103 -0.035606168 1.1738001
-0.34470704 -0.035125587 1.1730002
-0.33479485 -0.035844646 1.1730002
-0.32515797 -0.035168886 1.1730002
-0.31545377 -0.035116304 1.1731907
-0.30563489 -0.034648959 1.1751053
-0.2951194 -0.032843731 1.1747779
-0.28500202 -0.033250775 1.1751819
-0.27459434 -0.033489399 1.1753335
-0.26460496 -0.034510601 1.1760589
-0.25537956 -0.035211425 1.177
-0.24464223 -0.035366334 1.1762942
-0.23438306 -0.03485436 1.1753531
-0.2257552 -0.035128661 1.1735716
-0.21903428 -0.038048211 1.1730001
-0.20405006 -0.037166782 1.1730002
-0.1940973 -0.037276961 1.1730002
-0.18509941 -0.03496322 1.1730002
-0.17717975 -0.034530092 1.1746002
-0.35066053 -0.028793238 1.1730001
-0.3479183 -0.029136015 1.1730001
-0.32351261 -0.028998906 1.1730001
-0.31546879 -0.0289075 1.1730002
-0.30541402 -0.028793242 1.1730002
-0.29718736 -0.02879324 1.1730002
-0.28439036 -0.0289075 1.1730002
-0.27456412 -0.028793242 1.1730002
-0.26433995 -0.027771693 1.1732669
-0.25497848 -0.027647063 1.1741431
-0.247419 -0.028034706 1.1735002
-0.23651589 -0.029821569 1.1730001
-0.18201441 -0.027764909 1.1730001
-0.17461486 -0.026187949 1.1735457
-0.16831888 -0.024297817 1.1758573
-0.17173111 -0.01953827 1.1730001
-0.1671847 -0.017509663 1.1747779
-0.38562375 -0.0010283299 1.1730001
-0.13471124 0.01953827 1.1730001
-0.13206695 0.026589679 1.1730002
-0.12780279 0.026799699 1.1756667
-0.1305979 0.031878229 1.1730001
-0.12778337 0.035036422 1.1755
-0.12759036 0.044285204 1.1747779
-0.40455812 0.055636182 1.1752224
-0.3979637 0.058614809 1.1730001
-0.13111207 0.057072315 1.1730001
-0.12791628 0.05508633 1.1756668
-0.41170284 0.062942035 1.177
-0.40410343 0.064139307 1.1737621
-0.39573565 0.066327274 1.1730002
-0.38870874 0.067869782 1.1730001
-0.13266774 0.065160498 1.1744287
-0.12897958 0.062942035 1.177
-0.40245095 0.074578904 1.1740911
-0.39519918 0.072443359 1.1759092
-0.38452017 0.073951952 1.1743335
-0.14156677 0.07849586 1.1730001
-0.13650583 0.074235924 1.1748463
-0.1511645 0.089464709 1.1730001
-0.14495069 0.08547917 1.1747502
-0.13929795 0.082546934 1.177
-0.14769071 0.093141884 1.174
-0.40002036 0.11722962 1.1730001
-0.39475277 0.1174783 1.1743335
-0.38768041 0.1175724 1.1730001
-0.14235908 0.11560379 1.173889
-0.13878204 0.11659754 1.177
-0.40138447 0.12072489 1.177
-0.394824 0.12211321 1.1759092
-0.38500753 0.12389747 1.1754616
-0.37683183 0.12739491 1.1738001
-0.1511645 0.12854125 1.1730001
-0.14524914 0.12465055 1.1750871
-0.37253335 0.13319699 1.1755
-0.36917046 0.13265456 1.1730001
-0.16324739 0.13702497 1.1730002
-0.15507655 0.1358247 1.1746002
-0.14789824 0.13323648 1.1761112
-0.16475119 0.14511637 1.1757369
-0.15855891 0.14273739 1.177
-0.3712469 0.15654348 1.1758573
-0.36485144 0.15754014 1.1730002
-0.3542597 0.15887699 1.1730001
-0.34860387 0.15836282 1.1730001
-0.16307907 0.15380393 1.1755002
-0.15993468 0.15787101 1.177
-0.37352487 0.16199836 1.177
-0.3650122 0.16277225 1.177
-0.35524425 0.1644197 1.1766001
-0.34499043 0.16466448 1.1754
-0.33420724 0.16926312 1.1730001
-0.16196197 0.16813196 1.1730001
-0.15871555 0.16535348 1.1747779
-0.33414832 0.17261304 1.1755
-0.324819 0.17528848 1.1750002
-0.31631431 0.17687277 1.1730002
-0.30541402 0.17961498 1.1730002
-0.29454309 0.17937014 1.1730002
-0.28484744 0.1789294 1.1730002
-0.27620944 0.17913508 1.1730001
-0.23445924 0.17927219 1.1730002
-0.22494717 0.17892942 1.1730002
-0.21462716 0.17907633 1.1730002
-0.20463766 0.17752713 1.1730002
-0.19424793 0.17660488 1.174143
-0.18524186 0.17597462 1.1750001
-0.17480502 0.17480822 1.1748183
-0.16586241 0.17379101 1.175154
-0.15924679 0.17231672 1.177
-0.31392863 0.181964 1.1760001
-0.30394921 0.18313602 1.1764287
-0.29469904 0.18292367 1.1762002
-0.2846598 0.18304737 1.1758573
-0.27452058 0.184046 1.1748463
-0.2647506 0.18444414 1.1744287
-0.25552583 0.18549654 1.1747779
-0.24498311 0.18574065 1.1745386
-0.23550496 0.18358952 1.1759092
-0.22549911 0.18253165 1.1763334
-0.21484149 0.18218768 1.1763334
-0.20507753 0.18186122 1.177
-0.19590156 0.18145585 1.177
-0.18779427 0.18057142 1.177
-0.18831624 -0.091148615 1.1842
-0.34749711 -0.083622158 1.1850001
-0.1880272 -0.084664524 1.1850001
-0.3472034 -0.076810904 1.184
-0.21381968 -0.074275397 1.1858889
-0.18625934 -0.075482883 1.1841429
-0.34599242 -0.064106494 1.182143
-0.33515149 -0.063564949 1.1860667
-0.32260939 -0.06202022 1.189
-0.31412837 -0.063583761 1.189
-0.30541044 -0.064626113 1.1889998
-0.29846147 -0.062193945 1.189
-0.28247866 -0.061499044 1.189
-0.27518216 -0.062193945 1.189
-0.26580095 -0.061499048 1.189
-0.25579435 -0.061915986 1.189
-0.22410668 -0.063583761 1.189
-0.21513832 -0.065061651 1.1888093
-0.20612337 -0.064833581 1.1849999
-0.19982126 -0.061085258 1.1810001
-0.18314394 -0.0650886 1.1847777
-0.35056514 -0.055137597 1.1866
-0.3439298 -0.054442849 1.1816666
-0.33487239 -0.055260688 1.1842591
-0.32498467 -0.055021677 1.1860907
-0.31493768 -0.054747373 1.1853198
-0.30446443 -0.055075053 1.1853198
-0.29482719 -0.055011857 1.1876664
-0.28500143 -0.055504799 1.1884543
-0.27517602 -0.054839589 1.1860434
-0.26522809 -0.055129901 1.1864398
-0.25503257 -0.055174492 1.1873997
-0.24581484 -0.053800922 1.1887499
-0.23398007 -0.053141102 1.1885556
-0.22545037 -0.05534263 1.1839473
-0.21411744 -0.057339326 1.1825385
-0.20491371 -0.055864822 1.1827501
-0.1987859 -0.056943879 1.1810001
-0.18458655 -0.05508728 1.1855998
-0.35187384 -0.048188318 1.1863333
-0.34506214 -0.047666997 1.1820002
-0.32199177 -0.048661135 1.1810001
-0.31439927 -0.04797091 1.1810001
-0.30470571 -0.044737536 1.1829311
-0.29498377 -0.044665113 1.1847999
-0.28560606 -0.044660732 1.1846799
-0.27499956 -0.044625387 1.1837199
-0.26546255 -0.045379184 1.1823334
-0.25516897 -0.045567602 1.1825236
-0.24539289 -0.044699904 1.1832607
-0.23561309 -0.044635177 1.1839564
-0.22881088 -0.048661135 1.1810001
-0.18361323 -0.047009714 1.1850001
-0.1791144 -0.042449076 1.1810001
-0.30197513 -0.037617475 1.1810001
-0.29507285 -0.037272356 1.181
-0.28516379 -0.037416235 1.1818891
-0.27538717 -0.037734609 1.1815716
-0.26711857 -0.038307704 1.1810001
-0.25365913 -0.034684002 1.1810001
-0.24951774 -0.034166329 1.1810001
-0.23812896 -0.038307704 1.1810001
-0.12476632 0.027033769 1.186
-0.12479039 0.033857103 1.1835456
-0.12491995 0.043893166 1.1850001
-0.12604596 0.054366481 1.1850001
-0.12763166 0.06537158 1.1836667
-0.4034341 0.079361305 1.1818001
-0.39508975 0.077775829 1.1828668
-0.38721842 0.078686096 1.1810001
-0.13296679 0.077134997 1.1828462
-0.12903306 0.072842233 1.187
-0.40307027 0.082069151 1.1850001
-0.39646986 0.083247922 1.187
-0.3888762 0.082761712 1.1850001
-0.14184204 0.088004179 1.1810001
-0.13506609 0.084992126 1.1852
-0.14339709 0.094598137 1.1832856
-0.13747448 0.093734071 1.1880001
-0.14488758 0.10319331 1.189
-0.1371282 0.11946775 1.1850001
-0.40219313 0.12660521 1.1818001
-0.39524883 0.12740985 1.1815714
-0.38576889 0.12900378 1.1810001
-0.14104339 0.12963708 1.1830001
-0.1373821 0.12400226 1.181
-0.4020153 0.13636637 1.1874001
-0.3955974 0.13519 1.1866841
-0.3852503 0.13499613 1.1845001
-0.37703359 0.13596369 1.1818889
-0.15012479 0.13977134 1.1810001
-0.14359725 0.13513257 1.1850001
-0.13779955 0.13196234 1.189
-0.39505318 0.14071815 1.189
-0.38323978 0.14071815 1.189
-0.37531152 0.14256382 1.187
-0.16047822 0.14805409 1.1810001
-0.15414186 0.14583974 1.1847646
-0.14802027 0.14326224 1.1878573
-0.38462961 0.15948057 1.189
-0.37624377 0.15716511 1.1810001
-0.16047822 0.15219547 1.1810001
-0.1568339 0.1547571 1.1867499
-0.3826333 0.16432378 1.1810001
-0.37637454 0.16549148 1.181
-0.36495855 0.16720796 1.181
-0.35393953 0.16757771 1.1810001
-0.34787536 0.16772561 1.1810001
-0.15728047 0.16392633 1.1850001
-0.38145038 0.17334506 1.1840001
-0.37486699 0.17360169 1.18575
-0.3646301 0.17445357 1.18625
-0.3546555 0.17443849 1.1853807
-0.34456441 0.17518464 1.1840589
-0.33541146 0.17812693 1.1831819
-0.32931545 0.17972104 1.1850001
-0.18222043 0.1791144 1.1810001
-0.17509016 0.17923573 1.1818001
-0.16396911 0.17878175 1.1827143
-0.15805259 0.17615826 1.1850002
-0.36169776 0.1803277 1.189
-0.35613856 0.1803277 1.189
-0.34432516 0.18206497 1.189
-0.33493388 0.18350239 1.1885556
-0.32442206 0.18448502 1.1864547
-0.31551576 0.18565497 1.1842728
-0.30399227 0.18717512 1.1845001
-0.29445866 0.18687241 1.1832858
-0.28588539 0.18698685 1.182143
-0.27436596 0.1890537 1.1810001
-0.26504788 0.18946783 1.1810001
-0.25676516 0.18946783 1.1810001
-0.24744706 0.18946783 1.1810001
-0.23469901 0.18703814 1.182
-0.22410712 0.18675849 1.1835001
-0.21496797 0.18693236 1.1846001
-0.20471832 0.18705718 1.1854001
-0.19323638 0.1854617 1.1835002
-0.18476517 0.18526272 1.1852353
-0.17596468 0.18466111 1.1868824
-0.16558318 0.1836174 1.1866668
-0.15812244 0.18270662 1.1882
-0.31791878 0.19075127 1.189
-0.30697536 0.19133921 1.1883334
-0.29406041 0.19237274 1.189
-0.28448418 0.19359156 1.1872221
-0.27511984 0.19494431 1.1868824
-0.26522145 0.19553719 1.1863999
-0.25460705 0.19527973 1.1863333
-0.24429178 0.19502293 1.1858
-0.23578107 0.19200209 1.189
-0.22514904 0.19075127 1.189
-0.21576782 0.19075127 1.189
-0.20742898 0.19075127 1.189
-0.18449712 0.19075127 1.189
-0.17824298 0.19075127 1.189
-0.26319504 0.20169601 1.189
-0.25641975 0.20117484 1.189
-0.24662158 0.20242567 1.189
-0.18511781 -0.090990111 1.1930001
-0.35200095 -0.08171235 1.1950001
-0.32530469 -0.083949596 1.197
-0.22228146 -0.081783354 1.1960001
-0.18500976 -0.084260382 1.194
-0.3536377 -0.07450527 1.197
-0.33195069 -0.07310611 1.197
-0.32425532 -0.071007371 1.197
-0.31414226 -0.072130293 1.1955453
-0.30491802 -0.072564773 1.1952502
-0.29487297 -0.070307791 1.197
-0.28437927 -0.070307791 1.197
-0.27808306 -0.070307791 1.197
-0.26444125 -0.070307791 1.197
-0.25469708 -0.070907429 1.1969999
-0.23442927 -0.070727542 1.197
-0.22457202 -0.073533751 1.1948003
-0.21858545 -0.074256286 1.1930001
-0.18247005 -0.075136691 1.1945
-0.17944227 -0.071357161 1.197
-0.3536377 -0.065060943 1.197
-0.33307031 -0.066915087 1.1952858
-0.3259109 -0.065436564 1.1948668
-0.31731492 -0.067144424 1.1930001
-0.30016276 -0.066935256 1.1930001
-0.29490322 -0.065348372 1.1950003
-0.28555411 -0.065464258 1.1941766
-0.2748436 -0.066139095 1.1943334
-0.26513621 -0.066024281 1.1954001
-0.2548897 -0.065959521 1.1942308
-0.24489269 -0.064812474 1.1949135
-0.23461986 -0.064939737 1.1947501
-0.22642942 -0.066412322 1.193
-0.21858543 -0.067981116 1.1930001
-0.18093435 -0.067981116 1.1930001
-0.17820016 -0.064486973 1.1947144
-0.35514206 -0.052382588 1.1950001
-0.32735524 -0.059614211 1.1930001
-0.29179588 -0.059614211 1.1930001
-0.24384746 -0.058189977 1.1938
-0.23643146 -0.057190519 1.1933333
-0.18093435 -0.054384895 1.1930001
-0.17843038 -0.056331314 1.1955001
-0.18093435 -0.047063846 1.1930001
-0.17884263 -0.040788669 1.1930001
-0.1767509 -0.036605217 1.1930001
-0.12236601 0.02823831 1.1930001
-0.12148285 0.034555569 1.1945999
-0.11755136 0.036274713 1.1936666
-0.12184308 0.045495059 1.193
-0.11599877 0.045173205 1.1947502
-0.1232662 0.055077609 1.1966668
-0.12676162 0.06704922 1.1950001
-0.12780747 0.074375525 1.1950001
-0.13073291 0.086806655 1.1930001
-0.1290725 0.082900226 1.197
-0.13450478 0.095253922 1.1939999
-0.14350101 0.10427321 1.1948183
-0.13779394 0.10256036 1.1962001
-0.39219874 0.13909982 1.1930001
-0.14223741 0.13909982 1.1930001
-0.13726859 0.13787024 1.1952858
-0.40167093 0.14296241 1.1938
-0.39469394 0.14483561 1.194895
-0.38522387 0.1454718 1.1950001
-0.37871081 0.14614515 1.1950001
-0.14454667 0.14514633 1.1935714
-0.13886663 0.14306411 1.197
-0.39491287 0.15355781 1.197
-0.38415009 0.15393451 1.1970003
-0.37882257 0.15005991 1.197
-0.15180063 0.15557204 1.1941999
-0.14744112 0.15205696 1.1962001
-0.15515809 0.16353802 1.1947144
-0.38406941 0.1783929 1.197
-0.37638825 0.17866413 1.1946001
-0.36918977 0.17884263 1.1930001
-0.15653087 0.17605364 1.1930001
-0.38197067 0.18154101 1.197
-0.3736611 0.1833692 1.1966002
-0.36498272 0.18483576 1.1956669
-0.35549611 0.1851541 1.1957502
-0.34584224 0.18705875 1.1944546
-0.33535314 0.18846585 1.1937273
-0.32771873 0.18811834 1.1943334
-0.31689659 0.18930127 1.1930001
-0.19662231 0.18930127 1.1930001
-0.17204452 0.18877834 1.1930001
-0.16341615 0.18851687 1.193
-0.156431 0.18547449 1.1952858
-0.34314403 0.19203471 1.197
-0.33551875 0.19187428 1.1960001
-0.32215658 0.19308408 1.197
-0.31434411 0.19415195 1.1956667
-0.30444831 0.19454548 1.1952223
-0.29628995 0.19671436 1.1956668
-0.28604361 0.19871403 1.1930001
-0.2792455 0.1997599 1.1930001
-0.24159443 0.1997599 1.1930001
-0.23528779 0.19577706 1.1934707
-0.22511192 0.19579735 1.1943334
-0.21432203 0.19610761 1.1932354
-0.20484996 0.19470286 1.1945386
-0.19430918 0.19338185 1.1952223
-0.18509924 0.19521861 1.1939999
-0.17534417 0.19459739 1.1950003
-0.16535656 0.19227755 1.1963334
-0.30116919 0.20042966 1.197
-0.29522276 0.20077945 1.197
-0.28418848 0.20348239 1.1970001
-0.27424237 0.2049357 1.1952858
-0.26514146 0.20598866 1.1935333
-0.2548078 0.20603429 1.1947143
-0.24530537 0.20505302 1.1958002
-0.23505887 0.20226607 1.197
-0.22351581 0.20042966 1.197
-0.21482103 0.20162894 1.1969999
-0.20882463 0.20042966 1.197
-0.26499414 0.2111557 1.1963334
-0.258145 0.21092337 1.197
-0.30977717 -0.1004397 1.2060001
-0.2801739 -0.10678326 1.2060001
-0.27500504 -0.10231927 1.2060002
-0.3118917 -0.093038879 1.2060001
-0.30719277 -0.093626246 1.2060002
-0.28228843 -0.09318991 1.2060002
-0.27516374 -0.094246931 1.2056669
-0.26960129 -0.09198162 1.2060001
-0.25268513 -0.09198162 1.2060001
-0.24739884 -0.093038879 1.2060001
-0.23576897 -0.09198162 1.2060001
-0.18365639 -0.091829076 1.204
-0.36158293 -0.081409022 1.2060001
-0.35685486 -0.083780222 1.2036
-0.32327902 -0.084487282 1.2046666
-0.31485516 -0.085583702 1.2052
-0.30518189 -0.085539453 1.2045597
-0.29539087 -0.0838525 1.205
-0.28449225 -0.085646398 1.2046666
-0.27490032 -0.085156269 1.2030432
-0.26532051 -0.084754713 1.2048571
-0.25462347 -0.085461847 1.2059999
-0.24662589 -0.084910721 1.2056669
-0.23536783 -0.085350506 1.2058259
-0.22759689 -0.084544368 1.2037778
-0.18262833 -0.08550895 1.2041819
-0.3631846 -0.076159544 1.2054669
-0.35793561 -0.074961662 1.2044001
-0.3351514 -0.075065456 1.2060001
-0.32566682 -0.075939536 1.2022104
-0.31545544 -0.077690355 1.2019999
-0.30357674 -0.077307172 1.2019999
-0.29505095 -0.075870223 1.2019999
-0.28556716 -0.075870231 1.2019999
-0.27485397 -0.074992098 1.2019998
-0.26458791 -0.07539124 1.2019998
-0.25476834 -0.076537542 1.2025332
-0.24558489 -0.074715808 1.2031666
-0.23593092 -0.076411188 1.203647
-0.22796197 -0.078328997 1.202
-0.18071869 -0.077450871 1.202
-0.17513849 -0.073836185 1.205111
-0.16575487 -0.07271599 1.2060002
-0.15565215 -0.071776204 1.2060002
-0.14801639 -0.070836417 1.2060001
-0.17341962 -0.064611755 1.204476
-0.16528499 -0.064845271 1.206
-0.15717931 -0.066078745 1.2060002
-0.14780495 -0.067030281 1.2060001
-0.35722238 -0.056902681 1.202
-0.17413186 -0.05505291 1.2047501
-0.16739948 -0.057444464 1.2060001
-0.36052567 -0.049691219 1.2060001
-0.18019181 -0.046365146 1.202
-0.17761968 -0.046783756 1.2060002
-0.17601597 -0.035558186 1.2046667
-0.11312682 0.049691219 1.2060001
-0.12138326 0.056995608 1.204
-0.1159942 0.05373117 1.2053847
-0.12417397 0.064844698 1.2037778
-0.12581596 0.073982395 1.2031429
-0.13004299 0.087752581 1.2060001
-0.12750416 0.081139006 1.202
-0.1321575 0.096210659 1.2060001
-0.14014919 0.10748284 1.202
-0.13506931 0.104736 1.2045456
-0.14151621 0.11300409 1.2046667
-0.13797243 0.1125982 1.2060001
-0.14085169 0.14787672 1.202
-0.13467762 0.14607452 1.2033334
-0.39374611 0.15388529 1.2022856
-0.38612533 0.15460066 1.202
-0.14410625 0.15548366 1.2037777
-0.13660921 0.15402839 1.2079999
-0.15299693 0.16587234 1.2036
-0.14766397 0.16317046 1.2060002
-0.15512997 0.17338155 1.2052729
-0.38396871 0.18503867 1.2023636
-0.37639976 0.18767272 1.2026668
-0.36986741 0.18862185 1.202
-0.35932988 0.1875681 1.202
-0.15468502 0.1846495 1.2036002
-0.38308051 0.19277374 1.2060001
-0.37449172 0.19199826 1.2042859
-0.36412144 0.19340378 1.2033334
-0.35467455 0.19458909 1.2038946
-0.34541282 0.19711852 1.204
-0.33478719 0.19715545 1.2052001
-0.32610178 0.19634272 1.2026153
-0.31647727 0.19845688 1.202
-0.3045347 0.19880813 1.202
-0.20335335 0.19912781 1.205
-0.19701837 0.19796051 1.2046667
-0.18546058 0.19915938 1.202
-0.17190294 0.19879819 1.2030001
-0.16554542 0.19702701 1.2041819
-0.15759924 0.19376744 1.2045
-0.33356553 0.2024653 1.2060001
-0.32457882 0.20433314 1.2060001
-0.31471762 0.20453647 1.2038667
-0.30477914 0.20469497 1.2024704
-0.29484022 0.20674641 1.2019999
-0.28619939 0.20843241 1.2019999
-0.27819088 0.20969692 1.202
-0.25395456 0.20969692 1.202
-0.24311595 0.20789048 1.202
-0.23472182 0.20634563 1.2023076
-0.22501442 0.20508526 1.2037777
-0.21492587 0.20646778 1.2060002
-0.20546368 0.20356128 1.2056001
-0.19553542 0.20322138 1.2056365
-0.1837094 0.20296256 1.2051111
-0.17458752 0.20322138 1.2056365
-0.16810434 0.20193666 1.2060001
-0.3034336 0.21092337 1.2060001
-0.29450566 0.21344906 1.2060002
-0.28519192 0.21411115 1.2052728
-0.27505916 0.21421085 1.2036667
-0.26637965 0.21572736 1.2037144
-0.25416568 0.21426997 1.204
-0.24685708 0.21370681 1.2044002
-0.23576899 0.21145199 1.2060002
-0.22942542 0.21039474 1.2060001
-0.3109791 -0.10152239 1.2190001
-0.30414271 -0.10280616 1.2183751
-0.29281193 -0.10152239 1.2190001
-0.28460926 -0.10267027 1.2136251
-0.27392033 -0.10170444 1.2126669
-0.26543713 -0.10233857 1.216
-0.25473523 -0.10173586 1.212
-0.3214123 -0.092286699 1.21
-0.31659061 -0.094986826 1.21
-0.30379295 -0.096262597 1.21325
-0.29525939 -0.094908483 1.215091
-0.28635424 -0.096098132 1.2118182
-0.27330434 -0.097577758 1.2117144
-0.26501101 -0.094874218 1.2123477
-0.25516745 -0.09558896 1.2107058
-0.24391393 -0.094657816 1.21
-0.23867249 -0.094408236 1.21
-0.18139111 -0.091225937 1.21
-0.17558438 -0.091708086 1.2125455
-0.37296116 -0.082286566 1.2190001
-0.36586255 -0.084230423 1.2127779
-0.29330197 -0.087513246 1.21
-0.24352172 -0.086225167 1.21
-0.18139111 -0.08804363 1.21
-0.17528406 -0.084989846 1.2117999
-0.16535534 -0.084340356 1.2119999
-0.15600635 -0.082613565 1.2133335
-0.38516292 -0.074041665 1.2181667
-0.37471128 -0.074462518 1.2144707
-0.3659645 -0.071919978 1.21
-0.17290495 -0.078345194 1.21
-0.16381267 -0.077284418 1.21
-0.15448846 -0.077169463 1.2105714
-0.14871947 -0.075314432 1.21
-0.38479224 -0.064621627 1.2154707
-0.37634888 -0.065240696 1.2167085
-0.36580825 -0.064864747 1.2130001
-0.35959989 -0.064706765 1.21
-0.16229729 -0.061524466 1.21
-0.15430075 -0.063238017 1.21
-0.14774963 -0.061979081 1.21
-0.39005968 -0.057707459 1.2190001
-0.38425842 -0.057860125 1.219
-0.3745718 -0.05494966 1.2184443
-0.36573023 -0.054943938 1.2140626
-0.1718442 -0.051977567 1.21
-0.16379486 -0.05472308 1.21
-0.15425099 -0.054469515 1.2108421
-0.14596736 -0.053986844 1.212579
-0.13999403 -0.050226863 1.2190001
-0.36633402 -0.046387941 1.2165002
-0.17373733 -0.045040913 1.2114705
-0.16528203 -0.045972716 1.2150415
-0.15483209 -0.045456871 1.2158698
-0.14503978 -0.04478769 1.2164999
-0.13786416 -0.043830264 1.212
-0.17359981 -0.03638272 1.2134001
-0.16991641 -0.039540295 1.2190001
-0.15068059 -0.039540295 1.2190001
-0.14417896 -0.036392257 1.2182307
-0.13782896 -0.035055749 1.2119092
-0.17205372 -0.028853729 1.2190001
-0.13892537 -0.028853729 1.2190001
-0.114269 0.057515595 1.2117144
-0.10925896 0.056220632 1.21
-0.12112552 0.065876238 1.2120001
-0.1172263 0.063181758 1.2168889
-0.1231401 0.075920835 1.2124285
-0.11862089 0.073737308 1.2190001
-0.12730618 0.084401816 1.2135001
-0.13138501 0.095167279 1.2151667
-0.13189255 0.10638741 1.2122222
-0.12877707 0.10962015 1.2140001
-0.14108196 0.1177451 1.21
-0.13449214 0.11456886 1.2109231
-0.12877707 0.1117487 1.2140001
-0.13720131 0.121415 1.217
-0.14108196 0.15805423 1.21
-0.12835276 0.15168963 1.21
-0.14482422 0.1660739 1.21175
-0.13666251 0.16139749 1.2160002
-0.15183797 0.1768994 1.2112
-0.14756481 0.17337056 1.2148889
-0.38717982 0.18987723 1.21
-0.15222813 0.18554556 1.2129166
-0.38478449 0.19563326 1.2121818
-0.37506333 0.19713253 1.2107273
-0.36649489 0.19783297 1.21
-0.15385558 0.19640373 1.2131666
-0.14854327 0.19342686 1.2190001
-0.3831203 0.20276715 1.2173333
-0.37488768 0.20255783 1.2167778
-0.36451685 0.20468777 1.2181666
-0.35526967 0.20504431 1.2154285
-0.34501541 0.20511493 1.2132308
-0.335318 0.20636499 1.2123333
-0.32486197 0.20808297 1.2110001
-0.31186539 0.20897104 1.21
-0.21374449 0.20844065 1.21
-0.20409894 0.20834817 1.2110001
-0.19441399 0.2085121 1.2135
-0.18593885 0.2073977 1.2104446
-0.17497975 0.20825762 1.2113334
-0.16422778 0.20363505 1.2122308
-0.15672442 0.20347276 1.2179999
-0.35408154 0.2112378 1.219
-0.3451761 0.21159403 1.219
-0.33466056 0.21318129 1.217889
-0.32427725 0.21446246 1.2170768
-0.31520224 0.21485983 1.2158571
-0.30594742 0.21601114 1.2146922
-0.29464942 0.21816902 1.2116001
-0.28455067 0.21878314 1.21
-0.27579933 0.2195787 1.21
-0.2654117 0.21763688 1.2110001
-0.25564477 0.21873009 1.21
-0.24318443 0.21663602 1.2113334
-0.23435606 0.21604806 1.2121538
-0.22469488 0.21507205 1.2135264
-0.21525244 0.21426731 1.2143333
-0.20536192 0.21404731 1.2155714
-0.19599162 0.21330388 1.219
-0.1847889 0.21380901 1.217
-0.17596453 0.21302804 1.2165
-0.16991641 0.21052536 1.2190001
-0.30242983 0.22228058 1.219
-0.29480013 0.22338411 1.217889
-0.28528416 0.22412947 1.2167779
-0.2747969 0.22468798 1.2182307
-0.2646645 0.22304682 1.2173333
-0.25541279 0.22357288 1.2180909
-0.2457978 0.2219983 1.2182857
-0.23450935 0.22199829 1.2182858
-0.22719641 0.22163939 1.2190001
-0.30140272 -0.10606106 1.2270001
-0.29429141 -0.10512987 1.2236667
-0.28841195 -0.1082885 1.223
-0.39212936 -0.053296946 1.2264287
-0.38424686 -0.052865904 1.2229998
-0.37740147 -0.050391678 1.223
-0.38530731 -0.045627866 1.2267144
-0.37564227 -0.045074474 1.2242498
-0.36882418 -0.045030862 1.223
-0.16189666 -0.041814368 1.223
-0.38739488 -0.035189778 1.2270001
-0.37614572 -0.035941873 1.2258888
-0.36989635 -0.038597882 1.223
-0.17139295 -0.033849727 1.2230002
-0.16513965 -0.035386823 1.2231998
-0.15566386 -0.035207219 1.2231663
-0.14780536 -0.033237062 1.2230002
-0.17108662 -0.024966091 1.2230002
-0.16462122 -0.024538042 1.2259998
-0.15503153 -0.024922751 1.2260475
-0.14510028 -0.024508089 1.2244998
-0.13853526 -0.02147658 1.2250001
-0.17047396 -0.018226776 1.223
-0.16565318 -0.01828639 1.2270001
-0.15453793 -0.01828639 1.2270001
-0.14467762 -0.016672885 1.2270001
-0.13768576 -0.01828639 1.2270001
-0.13230741 -0.0032270101 1.2270001
-0.13230741 0.00107567 1.2270001
-0.11403649 0.065931588 1.2248667
-0.12115446 0.078267924 1.223
-0.11795287 0.074124448 1.2254001
-0.1242985 0.085438736 1.2251819
-0.11939937 0.080675252 1.2270001
-0.13015607 0.095734626 1.2270001
-0.12789866 0.091895267 1.2260002
-0.13015607 0.10218865 1.2270001
-0.14131114 0.16618532 1.223
-0.13686362 0.16608398 1.2254002
-0.14439788 0.1747829 1.2252858
-0.15117502 0.1897729 1.223
-0.14889288 0.18413138 1.2254002
-0.15117502 0.19406156 1.223
-0.14915255 0.19421673 1.2240001
-0.38297093 0.20811366 1.2236668
-0.37503499 0.20771828 1.2234445
-0.3668943 0.20821412 1.223
-0.16511315 0.20907184 1.223
-0.15380211 0.20674109 1.224
-0.14807864 0.20387672 1.224
-0.38186285 0.21190698 1.2270001
-0.37540883 0.21190698 1.2270001
-0.36391556 0.21374367 1.2251819
-0.35513452 0.21621844 1.2246001
-0.34526631 0.21709161 1.2252223
-0.33505645 0.21776779 1.2236668
-0.32615209 0.21936461 1.223
-0.315216 0.21979348 1.223
-0.21443266 0.21979348 1.223
-0.2047832 0.21936461 1.223
-0.19449042 0.21722031 1.223
-0.18521622 0.2187213 1.223
-0.17463484 0.21702215 1.224
-0.16497947 0.21334779 1.226
-0.15812349 0.21190698 1.2270001
-0.35389543 0.22051235 1.2270001
-0.34851706 0.22051235 1.2270001
-0.33381626 0.22122945 1.2270001
-0.32432282 0.22337641 1.2250001
-0.31441471 0.22441784 1.2248183
-0.30609107 0.22599356 1.2236667
-0.29555967 0.2280134 1.223
-0.28519544 0.22837079 1.223
-0.27626073 0.22837079 1.223
-0.26482433 0.22837079 1.223
-0.25496045 0.22794192 1.223
-0.24529532 0.22679196 1.225154
-0.23652796 0.22686622 1.2250001
-0.22506608 0.22545977 1.2251818
-0.21569373 0.22389837 1.2251817
-0.20546642 0.22289981 1.2256668
-0.19469626 0.22158802 1.2270001
-0.18501525 0.2233808 1.2270001
-0.17748554 0.22122945 1.2270001
-0.30333894 0.23126905 1.2270001
-0.29473355 0.23126905 1.2270001
-0.28412837 0.23276392 1.2258002
-0.27516243 0.23273076 1.2242306
-0.26497027 0.23180634 1.2247778
-0.25551006 0.23150195 1.2263335
-0.24202575 0.23126905 1.2270001
-0.23987441 0.23126905 1.2270001
-0.39637956 -0.050762508 1.2320001
-0.40174055 -0.0443944 1.2352002
-0.39589816 -0.0448002 1.2331114
-0.38449898 -0.042122081 1.2320001
-0.41066924 -0.031423241 1.2360001
-0.40451291 -0.034702674 1.2344
-0.39505947 -0.035161737 1.2320002
-0.38511619 -0.035487469 1.2320002
-0.4043107 -0.025903046 1.2346667
-0.39559156 -0.024665393 1.2337145
-0.38601109 -0.025705267 1.2320002
-0.37837872 -0.028441405 1.2320001
-0.39549941 -0.018420519 1.2360001
-0.38899803 -0.018420519 1.2360001
-0.17011891 -0.016253401 1.2360001
-0.16329987 -0.014921568 1.2336001
-0.15498134 -0.014192415 1.2328002
-0.14544718 -0.012600622 1.2320002
-0.13778393 -0.013732107 1.2320002
-0.16361755 -0.0097520398 1.2360001
-0.15424477 -0.0077491947 1.2356924
-0.14482394 -0.0067080203 1.2346668
-0.13663222 -0.0060794642 1.2332503
-0.13365968 0.0032476117 1.2345002
-0.11160668 0.068264283 1.2360001
-0.10836535 0.067323327 1.2320001
-0.11560661 0.075991422 1.2324446
-0.10859913 0.071077794 1.2346667
-0.1217697 0.088895403 1.2336
-0.11827578 0.083299108 1.2340001
-0.1246914 0.095246725 1.2335385
-0.13068645 0.10692528 1.2320001
-0.12801261 0.10313281 1.2340001
-0.13608672 0.16848832 1.2320001
-0.14279848 0.17633624 1.2340001
-0.13890608 0.17282255 1.2346667
-0.14676353 0.18450025 1.2348573
-0.14844772 0.19720793 1.2360001
-0.14844772 0.2004586 1.2360001
-0.38536969 0.21542117 1.2348001
-0.37492609 0.21738617 1.2336668
-0.36704701 0.21867152 1.2336
-0.17172848 0.21925083 1.2320001
-0.16450343 0.21852976 1.2325002
-0.15535235 0.21548617 1.234286
-0.14796731 0.2106104 1.2320001
-0.37382817 0.22212978 1.2360001
-0.36232424 0.22371975 1.2352002
-0.35504752 0.22501823 1.2340002
-0.34503847 0.22505943 1.2342224
-0.33526978 0.2265216 1.2343334
-0.32427987 0.22807623 1.233
-0.3175357 0.22789125 1.2320001
-0.22141093 0.22789125 1.2320001
-0.21277051 0.22789125 1.2320001
-0.20434867 0.22741784 1.2333335
-0.19522119 0.22693783 1.2333335
-0.18449232 0.22717369 1.2325002
-0.17428167 0.22386312 1.2348001
-0.16470112 0.22212979 1.2360001
-0.33156937 0.23079827 1.2360001
-0.32434562 0.23152064 1.2360001
-0.31533697 0.23343761 1.2346667
-0.3049311 0.23617402 1.2344617
-0.29470432 0.23678119 1.234154
-0.2858541 0.23797177 1.2320002
-0.27469358 0.23833175 1.2320002
-0.26562938 0.23787886 1.2349092
-0.25504878 0.23689882 1.2347693
-0.24543746 0.23438676 1.2333335
-0.23519135 0.23206729 1.2337779
-0.22510564 0.23160174 1.2345002
-0.2161147 0.23091048 1.2346667
-0.20804352 0.23079827 1.2360001
-0.19467962 0.23079829 1.2360001
-0.18637232 0.23079827 1.2360001
-0.28497627 0.24163386 1.2360001
-0.27544099 0.24206731 1.2360001
-0.40711084 -0.040383648 1.245
-0.41015464 -0.033726241 1.2410001
-0.39601138 -0.01631915 1.2410001
-0.1680833 -0.0130974 1.245
-0.16127335 -0.004353527 1.243
-0.15601774 -0.0030663407 1.2413636
-0.14542176 -0.0014505909 1.2410001
-0.15403578 0.0044308486 1.2426
-0.14484571 0.0054489742 1.24228
-0.13692021 0.0073506311 1.242
-0.15122412 0.011967377 1.2410001
-0.14547303 0.013586501 1.2442727
-0.13643125 0.012551676 1.245
-0.11069188 0.077974677 1.244
-0.10461088 0.073556282 1.243
-0.11437993 0.085621759 1.2426001
-0.12076171 0.099002846 1.2410001
-0.11714438 0.095099337 1.2436668
-0.12390216 0.1048421 1.2425001
-0.11896805 0.10150485 1.245
-0.14034469 0.17951065 1.2410001
-0.13464957 0.17584459 1.2420001
-0.14187513 0.18599296 1.2425001
-0.13581188 0.18362981 1.2443333
-0.1447566 0.19424741 1.2434
-0.14481306 0.20469552 1.242
-0.38839576 0.21867661 1.2410001
-0.15122412 0.21867661 1.2410001
-0.14714287 0.21690147 1.2432858
-0.38503569 0.22185855 1.2442
-0.37464839 0.2266583 1.2438571
-0.36623785 0.22636637 1.2426001
-0.35684541 0.22955604 1.2410001
-0.17334564 0.22883075 1.2410001
-0.16482024 0.22697803 1.2414446
-0.15546164 0.22447871 1.243
-0.14952865 0.2226558 1.245
-0.38746476 0.23357029 1.245
-0.3623614 0.23138739 1.245
-0.35500577 0.23406114 1.2439091
-0.34463447 0.23403256 1.2425385
-0.33508268 0.23464665 1.2426001
-0.32539201 0.23674926 1.2422
-0.31767946 0.23825958 1.2410001
-0.24478725 0.23825958 1.2410001
-0.2345295 0.23732708 1.2410001
-0.22541995 0.23740201 1.2422001
-0.21497534 0.23676634 1.2426667
-0.20553771 0.23561962 1.2431335
-0.19467376 0.23627681 1.2437693
-0.18455425 0.23641893 1.2435714
-0.17612541 0.23338355 1.244
-0.16480894 0.23073252 1.245
-0.31307888 0.24118204 1.2426001
-0.30464333 0.24417362 1.243909
-0.2948395 0.24603048 1.2428665
-0.28581214 0.24659239 1.2427778
-0.27525476 0.24732687 1.2428182
-0.26479498 0.24545681 1.2429998
-0.25476927 0.2455501 1.2431538
-0.24561451 0.24224733 1.2431818
-0.23426484 0.24259958 1.245
-0.22565728 0.24257477 1.245
-0.21829 0.24121045 1.245
-0.14502925 -0.072624996 1.2590001
-0.14502925 -0.068651587 1.2590001
-0.41258124 -0.041808233 1.2550001
-0.4043625 -0.016437501 1.25
-0.14279059 0.016890736 1.251
-0.13752708 0.016468184 1.2521429
-0.14017287 0.020970743 1.2590001
-0.13796541 0.020970743 1.2590001
-0.10453739 0.077490754 1.2508334
-0.11180819 0.086093053 1.2521429
-0.10719936 0.08433748 1.2582726
-0.11344337 0.095055051 1.2541817
-0.10926861 0.093816482 1.2590001
-0.12236806 0.10775695 1.25
-0.11686259 0.10477686 1.2536668
-0.12526777 0.11098906 1.2535
-0.13287403 0.18656382 1.2526667
-0.12764178 0.18608038 1.253
-0.14171799 0.19665517 1.2531667
-0.13659242 0.1946914 1.2557693
-0.12803191 0.19094414 1.2590001
-0.14303584 0.20422147 1.2575001
-0.14532357 0.21412231 1.2589999
-0.39057693 0.22774485 1.2550001
-0.38565645 0.22748503 1.2513636
-0.3714875 0.22902916 1.25
-0.36929584 0.22902916 1.25
-0.15247315 0.22816236 1.25125
-0.14654389 0.22477119 1.2547778
-0.38502958 0.23438641 1.2543572
-0.37511542 0.2340831 1.2553846
-0.3657411 0.23605353 1.2536666
-0.35285833 0.23779583 1.25
-0.34591806 0.23925693 1.25
-0.33422914 0.23998749 1.25
-0.20163333 0.23998749 1.25
-0.19834583 0.23998749 1.25
-0.18081249 0.23998749 1.25
-0.17348576 0.23754086 1.2525001
-0.16501954 0.23653759 1.2549287
-0.15543801 0.23331599 1.2559091
-0.14789893 0.2317819 1.2590001
-0.36384296 0.24256314 1.2576667
-0.35516149 0.24301919 1.2566
-0.34580579 0.24436523 1.2577692
-0.33538628 0.24491347 1.2562308
-0.32485247 0.24627966 1.255118
-0.31477782 0.24726446 1.2535715
-0.30554551 0.24851482 1.251
-0.25094584 0.24875416 1.25
-0.24518077 0.24811175 1.2516667
-0.23595758 0.24803145 1.251875
-0.22425863 0.24691659 1.2505555
-0.21436766 0.24549498 1.2539999
-0.20517223 0.24531856 1.2556924
-0.19492455 0.2455864 1.2562002
-0.18495874 0.24494243 1.2566667
-0.1753424 0.24371809 1.2579334
-0.16813385 0.24245124 1.2590001
-0.331117 0.2505452 1.2590001
-0.32383242 0.25231117 1.2590001
-0.31487995 0.25352117 1.2573334
-0.30517951 0.25536832 1.2547858
-0.29517806 0.25586638 1.2546251
-0.28497046 0.25416982 1.2550771
-0.27407122 0.25529224 1.2547692
-0.26523226 0.25474101 1.2553846
-0.25569698 0.25405499 1.2554168
-0.24593218 0.25337967 1.258
-0.23460184 0.2529867 1.2583333
-0.22493882 0.25186968 1.2590001
-0.21964094 0.2505452 1.2590001
-0.1495944 -0.073135033 1.2640001
-0.14467531 -0.067217737 1.2662221
-0.13873249 -0.068809569 1.266
-0.10115682 0.078924544 1.268
-0.098933585 0.078924544 1.268
-0.1031071 0.085922688 1.2646667
-0.097716272 0.084727585 1.2645714
-0.11191877 0.098621495 1.2640001
-0.10571782 0.094327696 1.2658666
-0.098933585 0.091152295 1.268
-0.11205904 0.10318436 1.2656
-0.13005877 0.11449617 1.268
-0.12783553 0.11449617 1.268
-0.13200261 0.19634409 1.2653333
-0.12715524 0.19585785 1.2640001
-0.1412836 0.20777 1.2640001
-0.13595696 0.20421658 1.2659999
-0.12672392 0.20120201 1.268
-0.14206034 0.21531284 1.266
-0.13895166 0.21009491 1.268
-0.14402482 0.22419824 1.265143
-0.38672921 0.23824294 1.2640001
-0.37564817 0.23824294 1.2640001
-0.15279178 0.23795047 1.2648001
-0.14630866 0.2347618 1.2657143
-0.38353491 0.24385537 1.266
-0.37489712 0.24323581 1.2669091
-0.36502856 0.24697733 1.2656
-0.35570225 0.24858527 1.2640001
-0.34462115 0.24932399 1.2640001
-0.18505383 0.24932399 1.2640001
-0.17508085 0.24932399 1.2640001
-0.16548415 0.24512339 1.2651999
-0.15657033 0.24096644 1.2666668
-0.36349756 0.25011301 1.268
-0.35377094 0.25289205 1.268
-0.34460011 0.25307733 1.268
-0.33739743 0.25304985 1.266
-0.32594326 0.25750995 1.2672001
-0.31691849 0.25818884 1.2640001
-0.25264832 0.25818884 1.2640001
-0.24394175 0.25755563 1.2640001
-0.23539403 0.25758919 1.2657143
-0.22419623 0.25557086 1.2651428
-0.2149104 0.25419101 1.2661538
-0.20471488 0.25408226 1.2664616
-0.19525297 0.25410888 1.2666665
-0.18505383 0.25154021 1.2640001
-0.17498559 0.25230876 1.2660002
-0.16785361 0.25011301 1.268
-0.31187066 0.26192871 1.266
-0.30140501 0.26262128 1.2640001
-0.29395244 0.26388368 1.2661818
-0.2846899 0.2617594 1.2657777
-0.27539024 0.2624366 1.2666668
-0.26462281 0.2619133 1.2653334
-0.25502935 0.26132497 1.2666668
