# .PCD v0.7 - Point Cloud Data file format
VERSION 0.7
FIELDS x y z
SIZE 4 4 4
TYPE F F F
COUNT 1 1 1
WIDTH 1483
HEIGHT 1
VIEWPOINT 0 0 0 1 0 0 0
POINTS 1483
DATA ascii
-0.40138447 0.056751017 1.177
-0.39460388 0.05488389 1.177
-0.38566953 0.054720949 1.1752224
-0.37945378 0.058614809 1.1730001
-0.12243051 0.054889727 1.1750001
-0.11866121 0.054687344 1.177
-0.39467752 0.062168159 1.177
-0.38513303 0.061910197 1.177
-0.37533662 0.064630263 1.1751335
-0.36917046 0.068898112 1.1730001
-0.1305979 0.067869782 1.1730001
-0.12566701 0.06489104 1.1750001
-0.37430072 0.074857339 1.1762002
-0.36917046 0.071983099 1.1730001
-0.13340993 0.076163493 1.1740001
-0.12786077 0.075275689 1.1762002
-0.37842545 0.083294727 1.1730001
-0.13461481 0.084795065 1.1753531
-0.12897958 0.082546934 1.177
-0.13339493 0.093221664 1.1750001
-0.1305979 0.10488966 1.1730001
-0.38324323 0.11696173 1.1747143
-0.37652963 0.11676586 1.1735002
-0.3671138 0.11825795 1.1730001
-0.13399565 0.11753711 1.1735002
-0.12791628 0.11486505 1.1756668
-0.37306532 0.12146829 1.1762002
-0.36423531 0.12297599 1.1751819
-0.35476246 0.12670165 1.1750001
-0.1511645 0.12854125 1.1730001
-0.14369202 0.12530059 1.1732355
-0.13591643 0.1238746 1.1759475
-0.12794775 0.12072489 1.177
-0.35499951 0.1349081 1.1747143
-0.15356459 0.13477249 1.1735336
-0.14590712 0.13416454 1.1754
-0.13929795 0.13104326 1.177
-0.360111 0.14548896 1.177
-0.35580218 0.14568008 1.1730002
-0.34860387 0.14910784 1.1730001
-0.15284771 0.1442382 1.1744547
-0.14961632 0.14445713 1.177
-0.35487857 0.15440318 1.1752857
-0.34431833 0.15480196 1.1748824
-0.33547801 0.15830895 1.1734446
-0.32803726 0.15939115 1.1730001
-0.1511645 0.1511645 1.1730001
-0.14820664 0.15643679 1.174
-0.34153792 0.16199836 1.177
-0.33429077 0.16263461 1.1760001
-0.32506767 0.16392268 1.1748463
-0.31584635 0.16502799 1.1740668
-0.30541402 0.16761778 1.1730002
-0.29636472 0.16926312 1.1730001
-0.19024105 0.16967446 1.1730001
-0.17378777 0.16967446 1.1730001
-0.16556114 0.16967446 1.1730001
-0.15459228 0.16796057 1.1730002
-0.14698182 0.1655432 1.1761112
-0.31323615 0.17113747 1.177
-0.30413234 0.17320217 1.1760001
-0.29456055 0.17344365 1.1744547
-0.28476074 0.17376934 1.1738573
-0.27447656 0.17444891 1.1741767
-0.26489779 0.17707841 1.1730002
-0.25434029 0.17927219 1.1730002
-0.24508531 0.17824388 1.1730002
-0.23509362 0.17629111 1.1742501
-0.22512889 0.17587088 1.174143
-0.21539773 0.17626803 1.1746668
-0.20510289 0.17624655 1.1756668
-0.19442429 0.17491806 1.1748824
-0.18582572 0.17415963 1.1743335
-0.17492463 0.17396857 1.1751335
-0.16551028 0.17376433 1.1766365
-0.15669177 0.17172709 1.177
-0.26621386 0.18057142 1.177
-0.2538318 0.18211918 1.177
-0.24557713 0.18108734 1.177
-0.23422691 0.18057142 1.177
-0.2280359 0.18057142 1.177
-0.21565387 0.18057142 1.177
-0.32033721 -0.11765655 1.1876668
-0.31790343 -0.1170705 1.187
-0.32475269 -0.1052599 1.1810001
-0.33506006 -0.092967525 1.1862
-0.17609552 -0.091688991 1.1858001
-0.33453125 -0.084825568 1.1858001
-0.31163836 -0.085933499 1.1810001
-0.20325954 -0.080261461 1.189
-0.17609622 -0.084411427 1.1858001
-0.33449373 -0.075366504 1.1842
-0.32253531 -0.072077341 1.1830001
-0.31992108 -0.073509373 1.1810001
-0.20117484 -0.077134393 1.189
-0.19726606 -0.074445456 1.1850001
-0.17395389 -0.075640403 1.1846668
-0.3336629 -0.064123467 1.1850001
-0.32552126 -0.06492389 1.1863332
-0.31166464 -0.061499044 1.189
-0.3047851 -0.06274987 1.189
-0.29550812 -0.063062571 1.189
-0.28664809 -0.06269031 1.189
-0.26232639 -0.062193949 1.189
-0.25472587 -0.063974634 1.1889999
-0.24842834 -0.062193945 1.189
-0.21286958 -0.062854372 1.1883334
-0.20459971 -0.063583754 1.189
-0.1952537 -0.065303214 1.1875453
-0.18843248 -0.064191282 1.1810001
-0.17227271 -0.065378472 1.1838
-0.16990416 -0.065668471 1.189
-0.33391237 -0.054830652 1.1860669
-0.32503676 -0.055377353 1.1869999
-0.31463861 -0.054855585 1.1866361
-0.3045885 -0.055099044 1.1857998
-0.29487115 -0.055430084 1.1870868
-0.28495422 -0.055000287 1.1887033
-0.27534679 -0.055025466 1.1889998
-0.26540542 -0.055027355 1.1879997
-0.25486046 -0.055136766 1.1865997
-0.24676059 -0.054411016 1.1889999
-0.23036082 -0.051075477 1.189
-0.22441782 -0.053144574 1.1886364
-0.21567449 -0.055664875 1.1851904
-0.20491806 -0.05719487 1.1828462
-0.19482058 -0.05639448 1.1846
-0.18535985 -0.054447789 1.1812105
-0.17321053 -0.055318039 1.1841429
-0.34170279 -0.041116539 1.1823335
-0.33498621 -0.046521943 1.183
-0.32520565 -0.04682472 1.1828463
-0.3158806 -0.047200132 1.182091
-0.30433321 -0.045879249 1.182263
-0.29540557 -0.044357006 1.1837825
-0.28536153 -0.044926338 1.1855924
-0.27505481 -0.044420734 1.1855216
-0.26515207 -0.044923414 1.184478
-0.25469097 -0.04439307 1.1836666
-0.24432495 -0.044707295 1.1859598
-0.23470402 -0.04499507 1.1889997
-0.22477117 -0.04466686 1.1847999
-0.21762916 -0.047004588 1.1810001
-0.17252932 -0.048184667 1.182
-0.16883051 -0.046803188 1.1863333
-0.34420562 -0.036359753 1.1850001
-0.29507285 -0.038307704 1.1810001
-0.28475922 -0.036624368 1.1831539
-0.27498549 -0.036321178 1.1836666
-0.2658895 -0.0376391 1.1816667
-0.25428241 -0.03780625 1.1815001
-0.24528481 -0.036440529 1.1827143
-0.23614937 -0.036763653 1.1857275
-0.22745161 -0.03782247 1.182
-0.16102175 -0.03012665 1.1850001
-0.16047822 -0.026918925 1.1810001
-0.15840752 -0.024848239 1.1810001
-0.38333565 -0.0010388499 1.1850001
-0.379971 -0.0010353433 1.1810001
-0.38204169 0.0010353433 1.1810001
-0.11323465 0.019738151 1.1850001
-0.11435975 0.025459681 1.1834615
-0.10840509 0.028143629 1.189
-0.1144115 0.034056887 1.1847893
-0.10944745 0.033355415 1.189
-0.4013564 0.047708198 1.1830001
-0.39705417 0.048143461 1.1810001
-0.11465915 0.044334546 1.1860909
-0.40192026 0.054044921 1.1810001
-0.39860719 0.051767167 1.1810001
-0.11542844 0.054747965 1.1847143
-0.39330626 0.067163922 1.1816667
-0.38546446 0.067233317 1.1824285
-0.37893564 0.068332657 1.1810001
-0.12258466 0.066469043 1.181
-0.11753494 0.065151237 1.1850002
-0.39326242 0.073989213 1.1850001
-0.38543752 0.075293317 1.1853635
-0.376865 0.075062394 1.1810001
-0.12381291 0.07521861 1.1853079
-0.1197702 0.074989185 1.188
-0.38612872 0.081999898 1.184
-0.379971 0.081792124 1.1810001
-0.13148861 0.086968839 1.1810001
-0.12645829 0.084190093 1.1856667
-0.13115218 0.095317997 1.1850001
-0.12886843 0.092229366 1.1874001
-0.13053337 0.10347418 1.1874001
-0.12985624 0.10907925 1.1850001
-0.12695536 0.11549996 1.187
-0.39088374 0.12716752 1.189
-0.3854129 0.12466681 1.1850001
-0.37593895 0.12657782 1.1828823
-0.36609739 0.12776136 1.181
-0.13294329 0.12811051 1.1816667
-0.12782083 0.1247113 1.183
-0.38358724 0.13081574 1.189
-0.37332314 0.13362066 1.1876667
-0.36487466 0.13523221 1.1852858
-0.35885 0.13438757 1.1810001
-0.14299573 0.13833493 1.1820002
-0.13549949 0.13416171 1.1852353
-0.12820987 0.13029458 1.189
-0.36265546 0.14327522 1.1826
-0.15012479 0.14494807 1.1810001
-0.14427112 0.14491104 1.1862172
-0.13779955 0.14238593 1.189
-0.3712844 0.158428 1.1863333
-0.36467254 0.15639724 1.1857274
-0.35464433 0.1572466 1.182
-0.15012479 0.15116012 1.1810001
-0.14681347 0.15426558 1.1863334
-0.37098917 0.16579656 1.1872857
-0.36440822 0.16455328 1.1866471
-0.3553111 0.16500062 1.1857272
-0.34540769 0.16549948 1.1847777
-0.33575857 0.16782349 1.1841111
-0.3250978 0.16876096 1.1810001
-0.14614822 0.1641199 1.1823335
-0.34432516 0.17407356 1.189
-0.33336768 0.17328222 1.1883334
-0.32516697 0.17440179 1.1855334
-0.31558672 0.17635861 1.1828668
-0.30523452 0.17801727 1.1824547
-0.29520336 0.17848694 1.1827145
-0.28491369 0.17923573 1.1818001
-0.27747202 0.1791144 1.1810001
-0.21224537 0.1791144 1.1810001
-0.19567989 0.1791144 1.1810001
-0.18444802 0.1782307 1.1820002
-0.1753286 0.17906424 1.1834
-0.16456896 0.17856537 1.1825001
-0.15396996 0.17548446 1.1844286
-0.14787802 0.17433755 1.1867143
-0.32278311 0.1803277 1.189
-0.31687641 0.18241242 1.189
-0.30475914 0.18311748 1.1885
-0.29541248 0.18395674 1.1882001
-0.28514153 0.18387388 1.1880771
-0.27593988 0.18346053 1.1867778
-0.26512945 0.18507397 1.1860001
-0.25500712 0.18658169 1.1856669
-0.24524635 0.18595685 1.1850002
-0.23495382 0.18561138 1.1850001
-0.22486186 0.18380716 1.1835715
-0.21477817 0.18424815 1.1853077
-0.2049986 0.18377639 1.1852858
-0.19479483 0.18279192 1.1854445
-0.18189125 0.18084888 1.189
-0.17432459 0.18300503 1.1883334
-0.16553068 0.18351589 1.1875455
-0.15739584 0.18151896 1.189
-0.25294521 0.19214107 1.189
-0.24571191 0.19264649 1.189
-0.33990559 -0.090990111 1.1930001
-0.17524479 -0.09129519 1.197
-0.34104526 -0.084998965 1.197
-0.33990559 -0.088898383 1.1930001
-0.32005784 -0.080801487 1.197
-0.31690973 -0.083949596 1.197
-0.21179654 -0.087024949 1.1960001
-0.20703122 -0.082960598 1.1935713
-0.17405674 -0.08483275 1.1946
-0.33781385 -0.07843975 1.1930001
-0.32152152 -0.072779283 1.1962001
-0.31481099 -0.071357161 1.197
-0.30450299 -0.071803525 1.1956667
-0.29488307 -0.072192475 1.1963333
-0.28537518 -0.071849912 1.1957694
-0.27808306 -0.070307791 1.197
-0.26399153 -0.071207248 1.1969999
-0.25460899 -0.071823105 1.1960001
-0.24800111 -0.071706951 1.197
-0.22246644 -0.070307791 1.197
-0.21357092 -0.072989389 1.1967145
-0.20560804 -0.074006438 1.1945558
-0.1711227 -0.074357286 1.1946
-0.16894858 -0.071357161 1.197
-0.32183048 -0.066220768 1.1935714
-0.31519705 -0.065104991 1.1930001
-0.30550829 -0.066819042 1.193
-0.29462701 -0.067117229 1.1935713
-0.28389558 -0.066073962 1.1938
-0.27535111 -0.064039737 1.1948668
-0.26573867 -0.065685533 1.1943334
-0.25728238 -0.067981116 1.1930001
-0.24621911 -0.065220743 1.1944284
-0.22446425 -0.064601026 1.1957504
-0.21550889 -0.066082694 1.1933333
-0.206558 -0.06745819 1.1930001
-0.17047572 -0.061705936 1.1930001
-0.16780713 -0.064516529 1.1952858
-0.33885974 -0.054384895 1.1930001
-0.27192447 -0.059614211 1.1930001
-0.24280232 -0.056730706 1.1946667
-0.23500045 -0.054797806 1.1943336
-0.22680527 -0.058009524 1.1934444
-0.17047572 -0.055430759 1.1930001
-0.16852883 -0.057295602 1.197
-0.16894858 -0.047221649 1.197
-0.11190738 0.038696945 1.1930001
-0.10698214 0.034826051 1.1940666
-0.11122474 0.044840235 1.1956668
-0.10703574 0.040925428 1.197
-0.11231854 0.056161311 1.1936666
-0.11314084 0.063904621 1.1950001
-0.11719426 0.074830219 1.1947778
-0.39115289 0.080531478 1.1930001
-0.12270952 0.085706592 1.1946667
-0.12574469 0.094934173 1.1960772
-0.12881371 0.10576966 1.1946
-0.12613274 0.12822914 1.1956667
-0.3933599 0.13385999 1.1960001
-0.38453254 0.13554662 1.195182
-0.37578052 0.13790908 1.194
-0.13220045 0.13778307 1.1936666
-0.12705424 0.13439353 1.1958001
-0.37322596 0.14376371 1.197
-0.36762094 0.14589792 1.1930001
-0.13465799 0.14498475 1.1947143
-0.1290725 0.14166495 1.197
-0.37252632 0.15495695 1.197
-0.36779532 0.15374191 1.1930001
-0.14276035 0.15452631 1.193
-0.13736384 0.15274446 1.1961112
-0.36814392 0.168384 1.1930001
-0.14574057 0.16356759 1.1960001
-0.37234852 0.17366405 1.1964285
-0.36522341 0.17405194 1.1960001
-0.35522437 0.1744701 1.1956668
-0.34547898 0.1755529 1.1951817
-0.33652648 0.176377 1.194
-0.32944694 0.17884263 1.1930001
-0.14478971 0.17525564 1.1944546
-0.3316009 0.18259038 1.197
-0.32375962 0.18469763 1.1951818
-0.31414053 0.1859736 1.1948181
-0.30537257 0.18848692 1.196273
-0.29474744 0.18906631 1.1952858
-0.28609401 0.18858615 1.1941429
-0.27479982 0.18851264 1.1938889
-0.26587284 0.18945995 1.194
-0.24159443 0.18930127 1.1930001
-0.23531926 0.18930127 1.1930001
-0.22500861 0.1894282 1.1938
-0.21454856 0.1894282 1.1938
-0.20449705 0.18900986 1.1938
-0.19656758 0.18759902 1.1935713
-0.18501543 0.18566337 1.1954615
-0.17533086 0.18789057 1.1939999
-0.16396813 0.1883716 1.193
-0.15500373 0.18537878 1.1946666
-0.14808145 0.18201512 1.1946
-0.30956414 0.19203471 1.197
-0.29329893 0.19255939 1.197
-0.28428423 0.1930199 1.1966002
-0.27563453 0.19273429 1.197
-0.26509231 0.19503054 1.1967781
-0.25561145 0.19632892 1.1933333
-0.24496245 0.19710948 1.1941429
-0.23563059 0.19424531 1.1952502
-0.22723551 0.19262733 1.1963334
-0.21232122 0.19239897 1.1960001
-0.2050284 0.192451 1.1958572
-0.18154101 0.19203471 1.197
-0.17419542 0.19203471 1.197
-0.16580045 0.19203471 1.197
-0.26339188 0.20042966 1.197
-0.2549969 0.20147903 1.197
-0.24450321 0.20042966 1.197
-0.26960129 -0.10255422 1.2060001
-0.34457734 -0.091676541 1.202
-0.30534264 -0.091920599 1.2052
-0.2833457 -0.093038872 1.2060002
-0.27477011 -0.093391299 1.2060002
-0.24634157 -0.09198162 1.2060001
-0.21779555 -0.09198162 1.2060001
-0.34549609 -0.084738255 1.2052
-0.31440508 -0.084344752 1.2045001
-0.30550703 -0.085626125 1.2058399
-0.29503438 -0.085409001 1.2054545
-0.28477708 -0.085598409 1.2040869
-0.27498019 -0.085181572 1.2033913
-0.26533958 -0.084962226 1.2045453
-0.25473872 -0.085183859 1.205238
-0.246802 -0.084599823 1.2050771
-0.23529908 -0.082348809 1.2060002
-0.22440343 -0.082201973 1.2060002
-0.21612415 -0.084662504 1.2041334
-0.17185383 -0.084212609 1.2045001
-0.16669466 -0.082818702 1.2060002
-0.34269777 -0.074869081 1.2028
-0.32139477 -0.075870238 1.202
-0.31507224 -0.076923981 1.2019999
-0.30506158 -0.077450864 1.2019999
-0.29547244 -0.07734549 1.2019999
-0.28475654 -0.077086098 1.2019999
-0.27485397 -0.074992098 1.2019998
-0.26475552 -0.076660544 1.2019999
-0.25500828 -0.07734549 1.2019999
-0.24541216 -0.075312831 1.203818
-0.23576897 -0.075065471 1.2059999
-0.22517978 -0.075542845 1.2043635
-0.21672526 -0.07726264 1.2025715
-0.1717618 -0.079031497 1.202
-0.16582954 -0.074994333 1.204857
-0.15858901 -0.072950937 1.2060002
-0.34322962 -0.066536076 1.2046667
-0.27502963 -0.06849397 1.202
-0.24209984 -0.065069273 1.202
-0.23568898 -0.06506595 1.2035236
-0.22866447 -0.06849397 1.202
-0.16393274 -0.064676084 1.2045
-0.15753174 -0.064492859 1.2060001
-0.14532503 -0.06470675 1.2099997
-0.34360951 -0.056034781 1.2060001
-0.23920201 -0.057956435 1.202
-0.1651548 -0.05491988 1.2047501
-0.15858899 -0.056563415 1.2060001
-0.16791731 -0.047525268 1.2046667
-0.10432158 0.038988873 1.202
-0.1106441 0.0474189 1.202
-0.10653779 0.046078004 1.2050771
-0.1106441 0.054795172 1.202
-0.10836915 0.053391628 1.2060001
-0.11250263 0.064964503 1.205
-0.11428168 0.071382292 1.2033334
-0.12118163 0.089569032 1.202
-0.11852884 0.084741235 1.2045002
-0.12244613 0.095470056 1.202
-0.11947038 0.09198162 1.2060001
-0.12592177 0.10295705 1.2045002
-0.12750416 0.1127516 1.202
-0.12581395 0.12792847 1.2060001
-0.39410377 0.13804169 1.202
-0.38883498 0.13804169 1.202
-0.12539664 0.13593417 1.202
-0.39304999 0.14014919 1.202
-0.38399053 0.14416759 1.2028571
-0.3767921 0.14677279 1.202
-0.13200904 0.14890885 1.2046667
-0.12801051 0.14277288 1.2028
-0.38125005 0.15239272 1.2030001
-0.37649596 0.15360747 1.2023635
-0.1427301 0.15964626 1.2060001
-0.13331208 0.15337634 1.2045001
-0.14472452 0.16479492 1.205
-0.37302867 0.17808431 1.202
-0.36881366 0.17808431 1.202
-0.35932988 0.17808431 1.202
-0.37273026 0.18446961 1.2024
-0.36627576 0.18317144 1.203647
-0.35496858 0.18233027 1.2034545
-0.34492758 0.18451624 1.2038332
-0.33624524 0.1858348 1.2034285
-0.3281388 0.18777886 1.202
-0.31928727 0.18862185 1.202
-0.1917831 0.18862185 1.202
-0.18924955 0.18924955 1.2060001
-0.15138923 0.18791933 1.202
-0.14645199 0.18629958 1.204
-0.34360948 0.19242132 1.2060002
-0.33557433 0.19178696 1.2060001
-0.32398501 0.19350119 1.2046666
-0.31531605 0.195005 1.2038823
-0.30489045 0.19622937 1.2033999
-0.29539141 0.19698672 1.2026666
-0.28556716 0.19810563 1.2019999
-0.27522123 0.19743505 1.2019999
-0.2687071 0.19705187 1.202
-0.23235261 0.19863251 1.202
-0.22425637 0.19706832 1.2045001
-0.21579267 0.19715124 1.2036666
-0.2052092 0.19742706 1.2023076
-0.19493236 0.19528449 1.2029998
-0.18464729 0.19497038 1.2028419
-0.17478587 0.19751936 1.2038462
-0.16562834 0.19643413 1.2046667
-0.15624012 0.19286686 1.2051111
-0.14907366 0.19136406 1.2060001
-0.30484331 0.20193666 1.2060001
-0.29439881 0.20347451 1.2060002
-0.28426865 0.20455967 1.2054288
-0.27481592 0.2043851 1.2031109
-0.26503056 0.20543438 1.2032501
-0.25529665 0.20637068 1.2038183
-0.24534054 0.2049585 1.2038667
-0.23604889 0.20446996 1.2055293
-0.22487105 0.20372589 1.2060002
-0.21481603 0.2032823 1.2060002
-0.20510843 0.20299393 1.2060002
-0.196063 0.20287643 1.2060002
-0.18643017 0.2026415 1.2060001
-0.17391926 0.2024653 1.2060001
-0.27383032 0.21039474 1.2060001
-0.26642954 0.21039474 1.2060001
-0.24634157 0.21039474 1.2060001
-0.30230403 -0.10361806 1.2185
-0.29501042 -0.10392446 1.2182307
-0.28616208 -0.10340068 1.2159091
-0.27551588 -0.10182834 1.2113334
-0.2643052 -0.10380626 1.2165
-0.25541773 -0.10335474 1.2154285
-0.24492562 -0.10237992 1.2165002
-0.23585314 -0.10138357 1.2173334
-0.36013728 -0.090835817 1.2190001
-0.35485482 -0.091539957 1.2170001
-0.34899223 -0.091225937 1.21
-0.30295184 -0.095650405 1.2112308
-0.29490814 -0.095512651 1.2120003
-0.28573194 -0.096722633 1.21
-0.27396709 -0.096915506 1.21
-0.26488838 -0.09509813 1.2125908
-0.25505131 -0.094973318 1.2122273
-0.244536 -0.094955593 1.2130476
-0.23463927 -0.094479978 1.212
-0.22556126 -0.09359929 1.2114999
-0.17337644 -0.093084291 1.2148001
-0.16530684 -0.092186213 1.212923
-0.15525329 -0.090388715 1.2130002
-0.37082386 -0.080149248 1.2190001
-0.36237347 -0.08305534 1.2182307
-0.35522646 -0.08453884 1.2162857
-0.34814361 -0.085073486 1.21
-0.24291556 -0.0859221 1.21
-0.2340437 -0.08669357 1.21
-0.22523612 -0.086629286 1.21
-0.1718442 -0.08804363 1.21
-0.1632065 -0.085619025 1.21
-0.15456925 -0.085260451 1.2122778
-0.14665142 -0.083984964 1.2151667
-0.37189251 -0.074805968 1.219
-0.36621827 -0.075844735 1.2185454
-0.35423505 -0.075327575 1.217889
-0.34801736 -0.075563408 1.2140001
-0.16123652 -0.078496732 1.21
-0.15431035 -0.075688824 1.21
-0.14536233 -0.075335197 1.2103199
-0.13780245 -0.074218169 1.2129
-0.3725726 -0.066353865 1.219
-0.36777052 -0.066714711 1.219
-0.35230049 -0.066969149 1.219
-0.3480235 -0.064121775 1.216143
-0.1527504 -0.064706765 1.21
-0.13515191 -0.064654171 1.2123336
-0.12818165 -0.063133679 1.2124002
-0.37082386 -0.056638803 1.2190001
-0.35158804 -0.053432833 1.2190001
-0.34845167 -0.056120168 1.217
-0.16229731 -0.051977567 1.21
-0.15412968 -0.05424482 1.2106664
-0.14526573 -0.054490324 1.2126087
-0.13516273 -0.054277945 1.2140003
-0.12868752 -0.05509777 1.2165
-0.16374691 -0.045715343 1.2128887
-0.15509714 -0.046272811 1.2157367
-0.1451627 -0.045593075 1.2182307
-0.13588624 -0.045031548 1.2184737
-0.12930745 -0.048089549 1.2190001
-0.16517378 -0.036313135 1.2181667
-0.13785671 -0.039540295 1.2190001
-0.16243581 -0.026716417 1.2190001
-0.10198848 0.046100393 1.2104446
-0.098545 0.0463452 1.2152501
-0.10423479 0.05563809 1.21175
-0.098379754 0.053590413 1.2165
-0.1113805 0.066828303 1.21
-0.10629352 0.064335987 1.2149502
-0.11324963 0.075535111 1.2135454
-0.10962015 0.071306311 1.2140001
-0.1162425 0.083714217 1.2165
-0.12132716 0.097913146 1.2140001
-0.11924376 0.092622027 1.2145001
-0.12316322 0.10585405 1.2126429
-0.11813434 0.10536306 1.2140001
-0.12585543 0.11235038 1.2166667
-0.12506278 0.12648095 1.2158335
-0.1241097 0.1304743 1.21
-0.12623122 0.14638582 1.21
-0.13299619 0.15747242 1.2136668
-0.126734 0.15265031 1.2148334
-0.14234951 0.1652728 1.2127779
-0.13736591 0.163913 1.2146922
-0.14426865 0.17376356 1.2190001
-0.37020758 0.18881646 1.21
-0.36414102 0.18844125 1.2110001
-0.35505375 0.18836185 1.21
-0.14397131 0.18510014 1.2135001
-0.37285444 0.19630003 1.2169167
-0.36459833 0.1950804 1.2175294
-0.35501429 0.19532359 1.2155714
-0.3445724 0.19682848 1.2125001
-0.33514473 0.19676845 1.2142307
-0.32690084 0.19727689 1.2120001
-0.16017577 0.19836336 1.21
-0.15346114 0.19711787 1.2118182
-0.1453785 0.19529001 1.2157058
-0.37244833 0.20169996 1.2173334
-0.35158804 0.20197611 1.2190001
-0.3451761 0.20197611 1.2190001
-0.3339552 0.20277762 1.219
-0.32417974 0.2025328 1.2172
-0.31543288 0.20459189 1.214
-0.30467236 0.20618765 1.2123333
-0.29497004 0.208956 1.2134286
-0.2867606 0.20826386 1.21
-0.24503709 0.20897104 1.21
-0.23273221 0.20854673 1.21
-0.22429633 0.20873259 1.2106668
-0.21498322 0.20834115 1.2125001
-0.20506425 0.20825496 1.2120001
-0.19424009 0.20700878 1.2129999
-0.18551575 0.20466276 1.2129333
-0.17459409 0.20629814 1.2115384
-0.16505504 0.20446414 1.2130526
-0.15492001 0.20330296 1.2173333
-0.14747462 0.20197611 1.2190001
-0.31204775 0.21052536 1.2190001
-0.30456713 0.21244895 1.219
-0.29433039 0.21486042 1.2174615
-0.28512815 0.21560019 1.2161109
-0.27508631 0.21588805 1.2146666
-0.26427531 0.21529843 1.2147499
-0.25504887 0.21512237 1.2147499
-0.24504061 0.21460688 1.2152857
-0.23516969 0.21352275 1.2147499
-0.22502413 0.21329519 1.2165
-0.21466132 0.21402276 1.217
-0.20579317 0.21400015 1.2163078
-0.19841391 0.21195024 1.219
-0.18060298 0.21052536 1.2190001
-0.17632836 0.21159402 1.2190001
-0.1677791 0.21052536 1.2190001
-0.27037013 0.22121193 1.2190001
-0.26823282 0.22121193 1.2190001
-0.25647759 0.22121193 1.2190001
-0.24445324 -0.10292768 1.223
-0.17583477 -0.097566865 1.223
-0.1433125 -0.086130448 1.223
-0.3636778 -0.074408136 1.2229999
-0.13374163 -0.072787009 1.2270001
-0.38272339 -0.063034259 1.2270001
-0.37717485 -0.063576527 1.2240001
-0.3644962 -0.064840026 1.2236665
-0.35703039 -0.064636134 1.2229998
-0.3844471 -0.055919349 1.2266668
-0.37570137 -0.054913346 1.2257369
-0.36549881 -0.057544645 1.2259092
-0.35519239 -0.057437323 1.2230002
-0.37325749 -0.048405148 1.2270001
-0.16189666 -0.041814368 1.223
-0.15439153 -0.041814368 1.223
-0.14617158 -0.041814368 1.223
-0.1318761 -0.041814368 1.223
-0.12887403 -0.043529831 1.223
-0.16308795 -0.035619646 1.223
-0.15548402 -0.035385732 1.2231597
-0.14496046 -0.035211165 1.2233331
-0.13383295 -0.035033621 1.2238693
-0.12597775 -0.035180502 1.2267144
-0.16135605 -0.025396742 1.2243334
-0.15559018 -0.025444996 1.2264284
-0.14521545 -0.024740405 1.2269998
-0.1355125 -0.024735671 1.2267998
-0.12477773 -0.025457524 1.2270001
-0.14413978 -0.01828639 1.2270001
-0.13876143 -0.01828639 1.2270001
-0.095460668 0.056847889 1.2235
-0.10207643 0.066619061 1.2256669
-0.097390473 0.062133748 1.2262002
-0.11061342 0.07732375 1.2250001
-0.10716614 0.07440117 1.2255001
-0.11457692 0.085186966 1.2265557
-0.12115446 0.099711187 1.223
-0.11855251 0.093481593 1.2256669
-0.11901013 0.10399985 1.223
-0.13015607 0.11939937 1.2270001
-0.12399635 0.11618038 1.2238572
-0.11939937 0.1183237 1.2270001
-0.13015607 0.12155071 1.2270001
-0.12398382 0.12290953 1.2234
-0.11939937 0.12262638 1.2270001
-0.12576155 0.15740441 1.2235
-0.13260424 0.1654342 1.2237999
-0.12477771 0.16099195 1.2270001
-0.14185278 0.17644319 1.2235
-0.13549367 0.17484111 1.2251053
-0.14231619 0.18499558 1.2258571
-0.13876143 0.18178824 1.2270001
-0.36453554 0.19835022 1.223
-0.14133401 0.19561151 1.2260002
-0.37325749 0.20545296 1.2270001
-0.36530864 0.20315129 1.225
-0.35533193 0.20363125 1.2238001
-0.34453806 0.20667817 1.2243334
-0.33541453 0.20769154 1.2243333
-0.32561576 0.20742479 1.2233999
-0.16189666 0.20907184 1.223
-0.15532364 0.20843868 1.224
-0.14486445 0.20551828 1.2251176
-0.33201849 0.21167672 1.2256669
-0.32377663 0.21190698 1.2270001
-0.31539321 0.21465497 1.2248183
-0.30566719 0.21750593 1.2234001
-0.29698923 0.21979348 1.223
-0.26839823 0.21907872 1.223
-0.24445324 0.21979348 1.223
-0.23453574 0.21898934 1.223
-0.2256138 0.21856813 1.2230002
-0.21550484 0.21872133 1.223
-0.20442581 0.2190787 1.223
-0.19417016 0.21550271 1.2246
-0.18551579 0.21470293 1.2248821
-0.17535581 0.21583231 1.2248461
-0.16500551 0.21335033 1.2254002
-0.30269355 0.22266369 1.2270001
-0.29425317 0.22337641 1.2250001
-0.28511608 0.22353625 1.2252223
-0.27598527 0.22353098 1.2238889
-0.26402959 0.22491159 1.225
-0.254677 0.22541806 1.2257692
-0.24547513 0.22290127 1.2263335
-0.23562704 0.22390075 1.2262728
-0.22464983 0.2225024 1.2261113
-0.21577939 0.22223341 1.2270001
-0.20454825 0.22235258 1.2252858
-0.19738543 0.22105017 1.2270001
-0.17533422 0.22051235 1.2270001
-0.39333227 -0.050927319 1.2360001
-0.38521901 -0.051122528 1.2320002
-0.37153834 -0.051842559 1.2320001
-0.36553761 -0.053025659 1.2344617
-0.35821772 -0.053642645 1.2320002
-0.39364189 -0.046283491 1.2360001
-0.38471699 -0.044678763 1.2349092
-0.37427026 -0.045425765 1.2320002
-0.36544237 -0.044802848 1.2360001
-0.35811657 -0.047134858 1.2360001
-0.3939417 -0.033567216 1.2352002
-0.38342544 -0.034983512 1.2360001
-0.37418446 -0.035685241 1.2336001
-0.36678505 -0.035215702 1.2360001
-0.39333227 -0.02925612 1.2360001
-0.38249668 -0.02925612 1.2360001
-0.3739346 -0.027560063 1.2355556
-0.36877158 -0.028533747 1.2360001
-0.16227275 -0.022717942 1.2340001
-0.15552768 -0.020521013 1.2320001
-0.13077131 -0.024854552 1.2328001
-0.12744629 -0.023761172 1.2320002
-0.16092795 -0.018360907 1.2320001
-0.15398885 -0.015580738 1.2334119
-0.14479427 -0.014663377 1.2325716
-0.13541344 -0.015200369 1.2334119
-0.12501699 -0.015240512 1.235077
-0.15061484 -0.0097520398 1.2360001
-0.14519705 -0.0090296669 1.2360001
-0.13869569 -0.0086684795 1.2360001
-0.12027516 -0.0075849202 1.2360001
-0.11880587 -0.0086404271 1.2320001
-0.10044496 0.068043359 1.2320001
-0.095468998 0.066803753 1.2340002
-0.1038508 0.074640274 1.2340001
-0.093186162 0.070431396 1.2360001
-0.11268743 0.085869849 1.2336
-0.1093215 0.083346456 1.2346667
-0.11755574 0.095560759 1.2340001
-0.11917476 0.10316894 1.2336
-0.1193459 0.1134056 1.2320001
-0.13068645 0.16848832 1.2320001
-0.12506558 0.16613248 1.2327275
-0.11988592 0.16848832 1.2320001
-0.13089859 0.17525619 1.2340001
-0.12543662 0.17201357 1.2356001
-0.11810804 0.17228603 1.2360001
-0.14148699 0.18792927 1.2320001
-0.1364031 0.18423636 1.2337779
-0.14148699 0.19440961 1.2320001
-0.13977924 0.19179012 1.2360001
-0.37261844 0.20845027 1.2320001
-0.36568281 0.20865427 1.2353334
-0.35389748 0.20845027 1.2320001
-0.14148699 0.20845029 1.2320001
-0.13977924 0.20479286 1.2360001
-0.37213975 0.21203411 1.2340001
-0.36434704 0.21210685 1.2360001
-0.35512042 0.21328975 1.235
-0.34525257 0.21471176 1.2336472
-0.33490121 0.21669421 1.2344615
-0.32518241 0.21702027 1.2338183
-0.31861573 0.21925083 1.2320001
-0.17172848 0.21925083 1.2320001
-0.16428266 0.21836637 1.2337779
-0.15565993 0.21378444 1.2342857
-0.14302993 0.2112942 1.2360001
-0.32181731 0.22212979 1.2360001
-0.31433961 0.22465838 1.2350001
-0.30650228 0.22587912 1.2328002
-0.29485458 0.22789125 1.2320001
-0.28513408 0.22789125 1.2320001
-0.27433357 0.22789125 1.2320001
-0.26893327 0.22789125 1.2320001
-0.24618202 0.22726618 1.2330002
-0.23329152 0.22789125 1.2320001
-0.22460102 0.22738628 1.2342857
-0.21535072 0.22725444 1.2344002
-0.20512697 0.22707869 1.2342857
-0.19439907 0.22421664 1.2342223
-0.18487799 0.22383353 1.2342857
-0.17458801 0.22357488 1.234182
-0.16578467 0.22212978 1.2360001
-0.30448037 0.23079827 1.2360001
-0.29420993 0.23139615 1.2353334
-0.28460598 0.23201649 1.2344
-0.27512404 0.2329068 1.2348573
-0.26501015 0.23306115 1.2338462
-0.2546919 0.23289442 1.2338462
-0.24416219 0.23152064 1.2360001
-0.23497753 0.23064888 1.2352002
-0.22863115 0.23079827 1.2360001
-0.39318272 -0.041124262 1.2410001
-0.38839576 -0.040253904 1.2410001
-0.36228514 -0.040253904 1.2410001
-0.39243671 -0.03621297 1.2410001
-0.38767049 -0.033000946 1.2410001
-0.3666369 -0.033726241 1.2410001
-0.39213738 -0.025439112 1.2436666
-0.38534421 -0.024515109 1.2430001
-0.37880707 -0.023945859 1.2416667
-0.38309896 -0.01855465 1.245
-0.12837732 -0.011967377 1.2410001
-0.15122412 -0.0076156035 1.2410001
-0.14343686 -0.0041345353 1.2414001
-0.13438752 -0.0046239784 1.24125
-0.12556577 -0.0057803029 1.2444003
-0.11768783 -0.0032667525 1.243
-0.1418885 0.00109145 1.245
-0.13526616 0.0032737656 1.2443334
-0.1222424 0.00109145 1.245
-0.1178766 0.00109145 1.245
-0.10117873 0.078331918 1.2410001
-0.095629841 0.074511878 1.2428463
-0.10508914 0.085282214 1.2428182
-0.099321947 0.081858747 1.245
-0.11201472 0.096031725 1.2432222
-0.1076307 0.091997109 1.2443334
-0.11450845 0.10305698 1.244
-0.12570855 0.1775634 1.2426001
-0.13236643 0.1874889 1.2410001
-0.12814105 0.18212575 1.244
-0.1357573 0.19395491 1.2434616
-0.13693738 0.20667796 1.243
-0.371093 0.21829 1.245
-0.36465365 0.21742347 1.2427143
-0.35575747 0.21867661 1.2410001
-0.15384389 0.21806879 1.2416668
-0.14468443 0.21710727 1.2435715
-0.13692869 0.21450843 1.2438571
-0.36126995 0.22156435 1.245
-0.35435745 0.22265582 1.245
-0.34469497 0.22396809 1.2426472
-0.33437994 0.22525838 1.2430001
-0.32557258 0.22573458 1.2428182
-0.31767946 0.22846809 1.2410001
-0.20126952 0.22955604 1.2410001
-0.19474185 0.22955604 1.2410001
-0.18495037 0.22955604 1.2410001
-0.17479622 0.22883075 1.2410001
-0.16482024 0.22697806 1.2414446
-0.15617128 0.22390744 1.2432859
-0.14952865 0.22156435 1.245
-0.32197773 0.23029594 1.245
-0.31485105 0.23319928 1.2436666
-0.30417871 0.23603524 1.2428182
-0.29476988 0.2371503 1.2427778
-0.28550741 0.23732707 1.2410001
-0.27742556 0.2382596 1.2410001
-0.26219437 0.2382596 1.2410001
-0.25240284 0.23825958 1.2410001
-0.24565999 0.23694766 1.2426667
-0.23418786 0.23617359 1.2435454
-0.22492346 0.23481914 1.2431539
-0.21512911 0.23460427 1.2438573
-0.20535748 0.23420657 1.2434616
-0.19536956 0.23357029 1.245
-0.18445505 0.23284267 1.245
-0.17397712 0.23204227 1.245
-0.16562754 0.23166025 1.245
-0.29360005 0.24121045 1.245
-0.28559607 0.24193807 1.245
-0.27569327 0.24118678 1.243
-0.26487726 0.24090047 1.2434001
-0.25545275 0.24149203 1.2442
-0.39230832 -0.020820834 1.25
-0.38902083 -0.020820834 1.25
-0.387925 -0.018629167 1.25
-0.13040416 -0.0010958334 1.25
-0.12711667 -0.0010958334 1.25
-0.1413625 0.0043833335 1.25
-0.13358214 0.0073224311 1.2524167
-0.12544709 0.0059842244 1.2527779
-0.1185867 0.0065925336 1.2525001
-0.13494243 0.014016522 1.2572857
-0.12472073 0.012140957 1.2590001
-0.11772318 0.012102383 1.2550001
-0.096053079 0.078492127 1.25225
-0.1014643 0.087207511 1.25125
-0.097080663 0.084094778 1.2556
-0.11067916 0.099720836 1.25
-0.10375724 0.095120557 1.2529334
-0.11366275 0.105598 1.2546667
-0.10756788 0.10169538 1.2563335
-0.1216375 0.17862083 1.25
-0.11835 0.177525 1.25
-0.13040416 0.18848333 1.25
-0.12431014 0.18482457 1.2549286
-0.11809839 0.18321806 1.2590001
-0.13186519 0.19647026 1.252
-0.12777251 0.19392812 1.2576667
-0.13452707 0.20436142 1.2544167
-0.13380334 0.21485578 1.253625
-0.37182257 0.22441833 1.2548333
-0.3656154 0.22520514 1.253091
-0.35637715 0.2276299 1.2516667
-0.34518749 0.22902916 1.25
-0.15217932 0.22772419 1.2514286
-0.14432226 0.22552589 1.2540001
-0.13747686 0.22264154 1.2545716
-0.36533242 0.23111966 1.2590001
-0.35400918 0.23389444 1.2570001
-0.34491682 0.23545246 1.2550002
-0.3356981 0.23542772 1.2545295
-0.32591864 0.23545158 1.2528126
-0.31450418 0.23823416 1.25
-0.30464166 0.23998749 1.25
-0.2367 0.23998749 1.25
-0.22354999 0.23998749 1.25
-0.21478334 0.23998749 1.25
-0.20546874 0.23943958 1.25
-0.19505833 0.23779583 1.25
-0.18535946 0.23703313 1.2511111
-0.17568398 0.23717558 1.2525001
-0.16432424 0.23679447 1.2524167
-0.15577912 0.23395312 1.2558334
-0.1464273 0.23141401 1.2589999
-0.33222073 0.24171539 1.2590001
-0.32423869 0.24262713 1.258
-0.31519985 0.24424435 1.2575455
-0.30441234 0.24536914 1.2550833
-0.29514244 0.24591728 1.2534001
-0.28521144 0.24650879 1.2525001
-0.27496248 0.24679302 1.2520834
-0.26542026 0.24717215 1.253077
-0.25472656 0.24678639 1.2536924
-0.24487475 0.24502914 1.2556001
-0.23560505 0.245515 1.2558334
-0.22543564 0.24523577 1.2544001
-0.21517386 0.24481617 1.2563637
-0.20501336 0.24451421 1.2579091
-0.1957569 0.24317901 1.258
-0.18513095 0.24243516 1.257
-0.17484897 0.24324299 1.2583333
-0.16710371 0.24259837 1.2590001
-0.3024202 0.25164893 1.2590001
-0.29406342 0.25149125 1.2589999
-0.28476059 0.25109705 1.2590001
-0.27388105 0.253068 1.2589999
-0.26452568 0.25275266 1.2589999
-0.25551194 0.25220078 1.2590001
-0.23067817 0.2505452 1.2590001
-0.22847073 0.2505452 1.2590001
-0.13158695 0.016202202 1.2656
-0.12498435 0.016476074 1.2648572
-0.1174593 0.016621599 1.2640001
-0.09197285 0.078675576 1.2640001
-0.088013329 0.07723283 1.2662858
-0.092866294 0.085736237 1.2654285
-0.085594229 0.084606126 1.268
-0.10083771 0.098621495 1.2640001
-0.094997711 0.093815245 1.2669332
-0.087817453 0.090040676 1.268
-0.11191877 0.10748634 1.2640001
-0.10654481 0.10321698 1.266
-0.11795142 0.11203449 1.2653333
-0.12152237 0.18874748 1.2640001
-0.11856741 0.18727003 1.2640001
-0.12331253 0.19578831 1.2653333
-0.11820155 0.19082695 1.268
-0.1318647 0.20610784 1.2640001
-0.12740947 0.20376995 1.2659999
-0.13124754 0.21397135 1.2675555
-0.13549548 0.22641917 1.2648
-0.37239048 0.23455042 1.268
-0.3647218 0.23575364 1.2655001
-0.35681033 0.23824294 1.2640001
-0.15402682 0.23824294 1.2640001
-0.14456484 0.23634884 1.2657143
-0.13784005 0.23232718 1.268
-0.35386124 0.24071281 1.2653333
-0.34399194 0.24433714 1.2662222
-0.33525452 0.24580407 1.2648889
-0.32578334 0.24710779 1.2640001
-0.31359419 0.24932401 1.2640001
-0.21497267 0.24932399 1.2640001
-0.20389163 0.24932399 1.2640001
-0.19502676 0.2482159 1.2640001
-0.18480758 0.24809276 1.2640001
-0.17581958 0.24858524 1.2640001
-0.16527894 0.24613486 1.2653333
-0.15461995 0.2415292 1.2662858
-0.14784457 0.24122009 1.268
-0.33348399 0.25011301 1.268
-0.32792592 0.25233623 1.268
-0.31335148 0.25431246 1.268
-0.304892 0.25541157 1.2656
-0.29499432 0.25632077 1.2657144
-0.2846899 0.25608796 1.2657778
-0.27629477 0.25727159 1.2657144
-0.26444075 0.25715587 1.265143
-0.25419319 0.25581071 1.2661818
-0.24450555 0.25389695 1.2655385
-0.23488483 0.25405037 1.2654544
-0.22461753 0.25283417 1.2657144
-0.21454139 0.25233623 1.268
-0.20361321 0.25246248 1.2664001
-0.19476028 0.25222251 1.2674285
-0.18452781 0.25178045 1.268
-0.17452328 0.25233623 1.268
-0.166742 0.25011301 1.268
-0.27234527 0.26122913 1.268
-0.26456398 0.26122913 1.268
-0.12548256 -0.07058394 1.2780001
-0.084443748 0.087419741 1.273
-0.093186013 0.098030753 1.2754999
-0.088163733 0.092627719 1.273
-0.11091762 0.10867686 1.2780001
-0.10392358 0.10317957 1.2746667
-0.099713817 0.10195458 1.2780001
-0.11566494 0.1125349 1.276
-0.11696246 0.19671391 1.27675
-0.12377689 0.20620547 1.2748749
-0.11913374 0.20129494 1.2780001
-0.1305716 0.21985134 1.273
-0.12741925 0.21375464 1.2765714
-0.1321177 0.22422309 1.275
-0.12884369 0.22183523 1.2780001
-0.37430531 0.23815367 1.273
-0.36716291 0.23993929 1.273
-0.13638678 0.23560868 1.2737142
-0.37372676 0.24376269 1.278
-0.3645294 0.24376725 1.2754999
-0.35508233 0.24668947 1.2765714
-0.34752938 0.24844909 1.2746667
-0.16181952 0.24775127 1.273
-0.15522967 0.24742848 1.2753075
-0.14435938 0.24395747 1.2765
-0.13780674 0.24200207 1.2780001
-0.34338242 0.25294203 1.2758571
-0.33471105 0.25606802 1.2754999
-0.32501662 0.25453237 1.2750589
-0.31694305 0.25779521 1.273
-0.23435929 0.25779521 1.273
-0.22452778 0.25809827 1.2763333
-0.21526539 0.25700527 1.2752222
-0.20593877 0.25698331 1.2737142
-0.19577555 0.25730988 1.276125
-0.18636425 0.2557191 1.276
-0.17462926 0.25677997 1.2748749
-0.16497609 0.2537466 1.2763333
-0.1568532 0.25208551 1.2780001
-0.31397876 0.26157117 1.2758571
-0.30371866 0.2620886 1.2748749
-0.29445699 0.26314989 1.2754999
-0.28518692 0.26304281 1.2748181
-0.27423406 0.26529181 1.2754999
-0.26436314 0.26418224 1.2750832
-0.2550469 0.26310399 1.2759999
-0.24587378 0.26220852 1.2759999
-0.23736942 0.26108819 1.276
-0.21511297 0.26104853 1.2780001
-0.20502953 0.26104853 1.2780001
-0.19830726 0.26104853 1.2780001
-0.12597349 -0.070860088 1.2830001
-0.13211016 -0.0677488 1.2880001
-0.12528093 -0.067051984 1.2855
-0.087342292 0.094106212 1.2855
-0.10428233 0.10728949 1.2852223
-0.095077299 0.10386711 1.2850001
-0.088449813 0.10199958 1.2880001
-0.1140483 0.11545864 1.284875
-0.10863274 0.11239364 1.2863334
-0.12081869 0.12081869 1.2880001
-0.1185604 0.12081869 1.2880001
-0.12034968 0.20695645 1.2830001
-0.11584816 0.20537749 1.2852727
-0.12305229 0.21497007 1.2838334
-0.11735453 0.21327209 1.2871667
-0.13159731 0.22832696 1.2830001
-0.1254402 0.22342493 1.2871667
-0.1329155 0.2342965 1.284875
-0.37189734 0.24905705 1.2855
-0.36549178 0.24929923 1.2867501
-0.14329486 0.24812278 1.2830001
-0.13673647 0.24492562 1.2855
-0.37148926 0.2517997 1.2880001
-0.36410347 0.25238955 1.2871667
-0.35440934 0.25376394 1.2852223
-0.34492743 0.25832066 1.2830001
-0.32280707 0.25982034 1.2830001
-0.19120976 0.25982034 1.2830001
-0.18446119 0.25982034 1.2830001
-0.17883737 0.25982034 1.2830001
-0.16459037 0.25794572 1.2830001
-0.15478094 0.25594598 1.2850001
-0.14621857 0.2521567 1.2855
-0.34545112 0.26275072 1.2863334
-0.33427417 0.26364097 1.2857778
-0.32514837 0.2638799 1.2863334
-0.31830803 0.26431939 1.2830001
-0.29356322 0.26881844 1.2830001
-0.28456515 0.26881844 1.2830001
-0.27444226 0.26881844 1.2830001
-0.26881844 0.26881844 1.2830001
-0.25494635 0.26806858 1.2830001
-0.24467725 0.26793501 1.2835556
-0.23487809 0.26491368 1.2846668
-0.22442731 0.26458549 1.2852727
-0.21494178 0.26680216 1.2859167
-0.20572563 0.26541552 1.2846667
-0.19450158 0.26389086 1.2857778
-0.18481132 0.26333857 1.2870001
-0.17552269 0.26342738 1.2855
-0.16462959 0.26173621 1.2880001
-0.15920968 0.26083288 1.2880001
-0.2947073 0.27212435 1.2880001
-0.2842721 0.27186024 1.2867501
-0.27479878 0.27217287 1.2846667
-0.26522687 0.27263945 1.2858572
-0.25523186 0.27214858 1.2863334
-0.24615398 0.27212435 1.2880001
-0.1310735 -0.061847955 1.2945001
-0.12452455 -0.06203223 1.296
-0.11756822 -0.064177915 1.29575
-0.13303329 -0.056851834 1.2970001
-0.12166292 -0.057988871 1.2970001
-0.11370367 -0.057988871 1.2970001
-0.086816743 0.095897689 1.2945
-0.1019388 0.10986737 1.2920001
-0.094463296 0.10805513 1.2920001
-0.087947205 0.10383283 1.2945001
-0.11370367 0.11938885 1.2970001
-0.10571964 0.11450867 1.29325
-0.095511079 0.11142959 1.2970001
-0.12166292 0.123937 1.2970001
-0.11711477 0.12166292 1.2970001
-0.12223144 0.17567216 1.2970001
-0.11213268 0.20840821 1.2920001
-0.11438932 0.21630147 1.2945
-0.12369591 0.226969 1.2945001
-0.1165939 0.22265406 1.2948571
-0.13050717 0.23605214 1.2945001
-0.12791662 0.23252401 1.2970001
-0.13391097 0.24512871 1.2945
-0.37247652 0.25549906 1.293
-0.36617741 0.25685468 1.2945
-0.3567858 0.25786737 1.2920001
-0.15177554 0.2593776 1.2920001
-0.14539714 0.25672153 1.29575
-0.13845108 0.25307262 1.2945001
-0.371811 0.2603814 1.2970001
-0.36953691 0.2603814 1.2970001
-0.35452828 0.26362374 1.2961668
-0.34454802 0.26776481 1.2934285
-0.33526537 0.26843885 1.2920001
-0.32586402 0.26840758 1.2936667
-0.31548911 0.26895827 1.2945001
-0.30808169 0.26843885 1.2920001
-0.23378026 0.26895827 1.2945001
-0.22879598 0.26843885 1.2920001
-0.20274495 0.26843885 1.2920001
-0.19519116 0.26895827 1.2945001
-0.18554606 0.26810879 1.2945
-0.1738956 0.26803002 1.2936667
-0.1658041 0.26629266 1.2941428
-0.15660642 0.26328477 1.2945
-0.1489518 0.2603814 1.2970001
-0.34452212 0.27175176 1.2970001
-0.33526528 0.27275783 1.296375
-0.32642299 0.27249593 1.295125
-0.31495914 0.27175176 1.2970001
-0.30398414 0.27365798 1.2942727
-0.29524732 0.27483472 1.2936667
-0.28484389 0.27690434 1.2945
-0.27456447 0.27683601 1.2934285
-0.26459059 0.27783844 1.2953334
-0.25555331 0.27634785 1.2936667
-0.24566771 0.27518976 1.2953334
-0.23518248 0.27267927 1.296
-0.22466616 0.27362868 1.296091
-0.21512815 0.27418005 1.2953334
-0.20494372 0.27229685 1.2947778
-0.1955703 0.27175176 1.2970001
-0.18761104 0.27175176 1.2970001
-0.17737772 0.27175176 1.2970001
-0.27743694 0.28084806 1.2970001
-0.11870767 -0.061636679 1.302
-0.13219227 -0.054094423 1.3036667
-0.12556502 -0.054422859 1.3035625
-0.11585511 -0.054308686 1.3033334
-0.13291317 -0.049269542 1.307
-0.12456518 -0.047141623 1.307
-0.11503866 -0.04743626 1.307
-0.10885131 -0.04812374 1.307
-0.085770875 0.09835279 1.3045001
-0.11071774 0.1198491 1.302
-0.10386922 0.11710969 1.302
-0.096858695 0.11517928 1.3060001
-0.12122065 0.12694089 1.3045001
-0.11675687 0.12362731 1.3057501
-0.10541391 0.12030935 1.307
-0.12603836 0.13787834 1.307
-0.13151534 0.1463801 1.3045001
-0.12522836 0.14468817 1.3057498
-0.13176738 0.15124604 1.307
-0.12585744 0.15492468 1.3069998
-0.12406557 0.16468062 1.3063333
-0.11725387 0.16766922 1.307
-0.12268056 0.17111534 1.3030001
-0.11531016 0.17515989 1.3044997
-0.10885131 0.17874533 1.307
-0.12030935 0.18905754 1.307
-0.11545699 0.18480647 1.3055294
-0.11207175 0.20813951 1.3045001
-0.11071774 0.21458696 1.302
-0.10864311 0.21499899 1.3045001
-0.12213194 0.22942542 1.302
-0.11446169 0.22575277 1.3042223
-0.10864311 0.22186285 1.3045001
-0.12399643 0.2355843 1.3045
-0.11725387 0.23107034 1.307
-0.13143133 0.24572235 1.3036667
-0.12785888 0.24399462 1.3051251
-0.1426775 0.25910234 1.302
-0.13612454 0.25542009 1.3048573
-0.37096149 0.26366803 1.302
-0.36507004 0.26451045 1.3035386
-0.35817817 0.26677907 1.3032501
-0.16094021 0.26823369 1.302
-0.15410122 0.26686186 1.3048573
-0.14483602 0.26244578 1.3050001
-0.13864221 0.26238897 1.307
-0.35337821 0.27217957 1.3045001
-0.34504306 0.27534634 1.3032501
-0.3339324 0.27789763 1.3045001
-0.32419631 0.27657869 1.3036667
-0.31548613 0.27662307 1.3038751
-0.30475914 0.27907717 1.302
-0.29448637 0.27964789 1.302
-0.25453666 0.27964789 1.302
-0.24483459 0.27793577 1.302
-0.23513252 0.27736506 1.302
-0.22562069 0.2792674 1.302
-0.21458696 0.27850646 1.302
-0.2054556 0.27736506 1.302
-0.19483429 0.27600914 1.3024546
-0.18512438 0.27540177 1.3035001
-0.17517379 0.2745541 1.306
-0.16544175 0.27179983 1.3045001
-0.15926667 0.27155539 1.307
-0.31280428 0.28072181 1.307
-0.30461171 0.28368619 1.3055714
-0.29590371 0.28444567 1.307
-0.28543591 0.28429276 1.3055001
-0.27405277 0.28385893 1.3048573
-0.26515692 0.28346679 1.3051251
-0.25475025 0.28301343 1.307
-0.24481998 0.28072181 1.307
-0.23565356 0.28072181 1.307
-0.22388998 0.28347176 1.307
-0.21502911 0.28148568 1.307
-0.2056717 0.28072181 1.307
-0.19593237 0.28072181 1.307
-0.18905754 0.28072181 1.307
-0.13227147 -0.046007466 1.312
-0.12541637 -0.041882135 1.3125002
-0.11468878 -0.042142857 1.3135002
-0.10842912 -0.042127512 1.313
-0.13046642 -0.031173389 1.317
-0.12525377 -0.035739865 1.3151819
-0.11615147 -0.037306987 1.3161666
-0.10852958 -0.038100809 1.317
-0.084283613 0.095829308 1.317
-0.096474826 0.11800051 1.3153334
-0.12191978 0.12997109 1.312
-0.11550908 0.12611708 1.3150001
-0.10490457 0.12242948 1.3150001
-0.12226486 0.13520995 1.3126252
-0.11892071 0.13046642 1.317
-0.1207696 0.14147297 1.312
-0.118188 0.14583455 1.314
-0.1207696 0.1552752 1.312
-0.11645096 0.1558193 1.3152144
-0.12537034 0.1633265 1.312
-0.11428975 0.16448697 1.3133335
-0.10863503 0.16666083 1.3162857
-0.10926773 0.1736782 1.312
-0.11501867 0.1897808 1.312
-0.10747855 0.18594685 1.3120002
-0.12122985 0.19281319 1.317
-0.11449078 0.19572622 1.3150771
-0.10824095 0.19425641 1.317
-0.11384525 0.20423102 1.3161666
-0.10696736 0.21968566 1.312
-0.11156811 0.22888714 1.312
-0.10758717 0.22687621 1.3155714
-0.11523477 0.23508473 1.3145001
-0.10968415 0.23206857 1.317
-0.12315445 0.24495201 1.3129092
-0.11799705 0.24315245 1.317
-0.13252132 0.25640529 1.3145002
-0.12753405 0.25417501 1.3158889
-0.15067445 0.26799348 1.312
-0.1445076 0.26715353 1.3127145
-0.13581912 0.26385692 1.31575
-0.36277199 0.27217373 1.3136667
-0.35540769 0.27642819 1.312
-0.34275562 0.27949536 1.312
-0.33930507 0.27949536 1.312
-0.32550281 0.27949536 1.312
-0.1817295 0.27949536 1.312
-0.17367817 0.27719498 1.312
-0.16441295 0.27699047 1.3141429
-0.15545677 0.27401417 1.3155001
-0.14616856 0.27178577 1.317
-0.34868014 0.28056049 1.317
-0.32323331 0.28314894 1.3140001
-0.31561702 0.28601679 1.3143077
-0.30479944 0.28831348 1.3120002
-0.29387271 0.28812176 1.312
-0.28486291 0.28869686 1.312
-0.27489462 0.28869686 1.312
-0.26410928 0.28829682 1.3136667
-0.25499853 0.28692266 1.3161666
-0.24507681 0.28573707 1.3147274
-0.23499575 0.28568375 1.3140001
-0.22663367 0.28809679 1.3145
-0.21484403 0.28573787 1.3136668
-0.20512363 0.28558859 1.3153335
-0.19543776 0.28450218 1.316
-0.18650448 0.28263929 1.3132501
-0.17780378 0.28056049 1.317
-0.16972178 0.28056049 1.317
-0.31057933 0.29210621 1.317
-0.30365396 0.29250628 1.3153332
-0.29525882 0.29230121 1.3134286
-0.28634596 0.29234627 1.316
-0.27384627 0.29269111 1.3161668
-0.26786023 0.29210621 1.317
-0.12354442 -0.0322189 1.322
-0.11423989 -0.033263974 1.3224616
-0.10587285 -0.033355411 1.3235
-0.12541254 -0.025543984 1.324625
-0.11515192 -0.025586393 1.3268
-0.10594342 -0.025612695 1.3280001
-0.12922768 -0.019791627 1.3280001
-0.11356373 -0.016828172 1.3280001
-0.10555535 -0.016104952 1.3280001
-0.08305832 0.097738393 1.322
-0.077649876 0.096193127 1.322
-0.08344464 0.10082894 1.322
-0.075673871 0.10477919 1.3280001
-0.11215687 0.12795021 1.3244001
-0.10528626 0.12620634 1.3256
-0.097405851 0.12301854 1.3280001
-0.11708392 0.13427851 1.325
-0.11625555 0.14516139 1.3246667
-0.11164226 0.15365005 1.3238001
-0.10514704 0.15749143 1.3268001
-0.098958135 0.15716881 1.3280001
-0.11010057 0.16109452 1.322
-0.10397553 0.16450588 1.3241431
-0.098511033 0.16341242 1.322
-0.10546754 0.17455412 1.3245002
-0.10380623 0.18456651 1.3255
-0.1222424 0.19675206 1.3280001
-0.11937219 0.19702207 1.322
-0.10507151 0.19570582 1.3254286
-0.11216474 0.20559587 1.3228571
-0.10733264 0.20382033 1.3260001
-0.11010057 0.21208847 1.322
-0.10810878 0.21737652 1.3260001
-0.1038892 0.22707911 1.3256
-0.11164584 0.23835807 1.322
-0.10556488 0.23438823 1.3262
-0.11393976 0.24587758 1.3240002
-0.10768973 0.24273849 1.3280001
-0.12392801 0.25598645 1.3242501
-0.11710718 0.25244406 1.327
-0.13376501 0.26714811 1.3230001
-0.12794809 0.26449138 1.3244001
-0.36391133 0.27583089 1.322
-0.15414079 0.2781488 1.322
-0.14464396 0.27600214 1.3246666
-0.13663858 0.27153739 1.3265001
-0.34344292 0.28523228 1.3280001
-0.33412921 0.28523228 1.3280001
-0.32639965 0.2880753 1.325
-0.20049892 0.28857937 1.322
-0.19470416 0.28857937 1.322
-0.18585245 0.28691283 1.325
-0.17512168 0.28401771 1.3254286
-0.16528966 0.28374484 1.3246667
-0.15549642 0.28230277 1.327
-0.14785509 0.28057542 1.3280001
-0.31175846 0.29553309 1.322
-0.30828157 0.29553309 1.322
-0.29166993 0.29630575 1.322
-0.28398153 0.29636824 1.324
-0.2745159 0.29705071 1.3228571
-0.26438805 0.29510021 1.3246667
-0.25454223 0.29361221 1.3247272
-0.24546219 0.29403466 1.3247273
-0.23653716 0.29284501 1.3242501
-0.2239667 0.29332975 1.3260001
-0.21589144 0.29211351 1.324
-0.20598306 0.29194549 1.325
-0.19791627 0.29221755 1.3280001
-0.1239885 -0.017543195 1.3342501
-0.1151717 -0.013114251 1.3330001
-0.10790042 -0.011296433 1.3330001
-0.11330986 -0.0072724759 1.3380001
-0.10547066 -0.0058572297 1.3367501
-0.099703297 -0.0035189399 1.3380001
-0.083281577 0.10439522 1.3379999
-0.091903597 0.11414857 1.3355
-0.10413221 0.12831537 1.3346667
-0.096726716 0.12480957 1.3346667
-0.11297427 0.13663903 1.3346667
-0.10722576 0.13242291 1.33675
-0.11302153 0.14423475 1.3352224
-0.10908714 0.14779547 1.3380001
-0.10571077 0.15315181 1.3361251
-0.099703297 0.15600634 1.3380001
-0.10234755 0.17662576 1.3342501
-0.099517003 0.17562263 1.3355
-0.10185859 0.18264517 1.3355
-0.098921321 0.18806779 1.3379999
-0.10221162 0.19717181 1.334
-0.098539457 0.19724336 1.3358573
-0.10396118 0.20623487 1.3357779
-0.0975352 0.20458068 1.336889
-0.10738728 0.21478041 1.3363334
-0.10413807 0.22581823 1.3346667
-0.10260279 0.23769255 1.3330001
-0.10486056 0.24600723 1.3350002
-0.12036546 0.25825986 1.3330001
-0.11403565 0.25593781 1.3355001
-0.10745522 0.25359759 1.3371668
-0.12416001 0.26472253 1.3361251
-0.11847098 0.26157454 1.3380001
-0.36810794 0.27929461 1.3330001
-0.1414002 0.27929461 1.3330001
-0.13435102 0.27559936 1.3352224
-0.12785482 0.27095836 1.3380001
-0.35423997 0.28620714 1.3380001
-0.34317118 0.28788888 1.3360001
-0.33580947 0.28900424 1.3346667
-0.18113248 0.28864336 1.3330001
-0.17528951 0.28864336 1.3330001
-0.16360353 0.28864336 1.3330001
-0.15407529 0.28731409 1.3355001
-0.14535893 0.28544459 1.3371668
-0.13958462 0.28034222 1.3380001
-0.32837567 0.29098058 1.3330001
-0.31787759 0.29676393 1.3380001
-0.26059705 0.29799214 1.3330001
-0.25825986 0.29799214 1.3330001
-0.23541482 0.29866281 1.3360001
-0.22617145 0.29824615 1.33675
-0.21478041 0.29795825 1.3363334
-0.20528045 0.29703695 1.335
-0.19452065 0.29575264 1.3357779
-0.1851566 0.29414511 1.3367501
