# .PCD v0.7 - Point Cloud Data file format
VERSION 0.7
FIELDS x y z
SIZE 4 4 4
TYPE F F F
COUNT 1 1 1
WIDTH 1427
HEIGHT 1
VIEWPOINT 0 0 0 1 0 0 0
POINTS 1427
DATA ascii
-0.087487295 -0.14423366 1.0929232
-0.020703943 -0.14747579 1.09
-0.12213632 -0.13944699 1.097
-0.11380156 -0.13912641 1.097
-0.10771078 -0.13944699 1.097
-0.083826557 -0.13573174 1.093643
-0.078674994 -0.13154967 1.09
-0.061347377 -0.13205931 1.09
-0.056378435 -0.13091263 1.09
-0.023027165 -0.13251998 1.0903636
-0.081744783 -0.12886825 1.097
-0.075722739 -0.12432314 1.0933214
-0.065259412 -0.12545043 1.0936072
-0.054398205 -0.12613536 1.0938182
-0.04512291 -0.12459814 1.0918967
-0.03542354 -0.12483198 1.0921539
-0.025550729 -0.1267944 1.0942273
-0.018272363 -0.12886825 1.097
-0.07289622 -0.1162143 1.0966471
-0.041296698 -0.11908683 1.0955
-0.039322007 -0.11988416 1.0940001
-0.090335242 -0.29043266 1.108
-0.083859593 -0.29237536 1.1079999
-0.075182237 -0.29120976 1.108
-0.09196084 -0.28402451 1.1064999
-0.084216498 -0.28605899 1.1027777
-0.074482702 -0.28613397 1.1033999
-0.066707812 -0.28305104 1.1027777
-0.10069627 -0.27165329 1.108
-0.094635025 -0.27497733 1.1059998
-0.08879932 -0.27508485 1.101
-0.066599488 -0.27894568 1.1010001
-0.044007543 -0.27219313 1.1015714
-0.037102968 -0.27220568 1.1041112
-0.10231519 -0.26453006 1.1079999
-0.095047787 -0.26476851 1.1033157
-0.089764528 -0.26832837 1.1010001
-0.047617029 -0.26800662 1.101
-0.035089165 -0.26478854 1.1016666
-0.025289202 -0.2625187 1.1057273
-0.11248194 -0.25313294 1.108
-0.10577275 -0.25550282 1.1049521
-0.097415052 -0.25617501 1.1019999
-0.031851929 -0.25771105 1.1010001
-0.025142919 -0.25623024 1.1033181
-0.018430602 -0.25802711 1.1065
-0.11363522 -0.24492316 1.1065999
-0.10664995 -0.24657471 1.1012666
-0.099416628 -0.24998939 1.1010001
-0.11473579 -0.2352768 1.1056817
-0.108747 -0.23390256 1.101
-0.12297249 -0.22127275 1.108
-0.11473781 -0.22526738 1.1059998
-0.10818277 -0.22505525 1.1018
-0.12371958 -0.21461003 1.1071175
-0.11523236 -0.21504828 1.1058273
-0.1084074 -0.21513997 1.1031818
-0.12459254 -0.20447865 1.1074284
-0.11551873 -0.20469964 1.1057497
-0.1082414 -0.2058655 1.101
-0.13358641 -0.19407573 1.1061873
-0.12495548 -0.19470188 1.1049198
-0.11516171 -0.19498944 1.1053075
-0.10767524 -0.19387127 1.101923
-0.14084527 -0.18552721 1.108
-0.13438396 -0.18471183 1.1040832
-0.12477648 -0.1847537 1.1018695
-0.11514346 -0.1848142 1.1037198
-0.10698256 -0.18452662 1.1040586
-0.13488296 -0.17544492 1.1040868
-0.1241611 -0.17593147 1.101
-0.11487612 -0.17472783 1.1011599
-0.1054086 -0.1750339 1.1030798
-0.099416628 -0.17373779 1.1010001
-0.13500524 -0.16554511 1.1050587
-0.12082659 -0.16529496 1.1026
-0.11492507 -0.16514796 1.1016399
-0.10527128 -0.16514739 1.1016399
-0.098692715 -0.16456831 1.101
-0.13265014 -0.15551822 1.1044374
-0.12528425 -0.15539882 1.1010001
-0.11367203 -0.15703225 1.101
-0.10507067 -0.15493216 1.1019229
-0.097633295 -0.15403573 1.1026469
-0.13121264 -0.14748883 1.1054001
-0.12806472 -0.14418723 1.103889
-0.10535319 -0.14519641 1.1025651
-0.096060969 -0.14444859 1.1039997
-0.12301939 -0.13687275 1.104923
-0.11522734 -0.13423771 1.1029582
-0.10515002 -0.13461123 1.101148
-0.095070608 -0.13451645 1.1038963
-0.08748313 -0.13398871 1.101
-0.11399643 -0.1256264 1.1058233
-0.1053452 -0.12467104 1.1024398
-0.094862938 -0.12487237 1.1041999
-0.085207716 -0.12447443 1.1024736
-0.062352568 -0.12142342 1.1010001
-0.055740878 -0.12137516 1.101
-0.03281714 -0.12065125 1.1010001
-0.024152795 -0.12229375 1.1021428
-0.018384796 -0.12384999 1.10375
-0.11170486 -0.11947564 1.108
-0.10332847 -0.11709198 1.1071818
-0.09423282 -0.11605129 1.1062497
-0.08421281 -0.11517926 1.1040798
-0.076058544 -0.11292957 1.101
-0.06476631 -0.1150373 1.1027198
-0.055212051 -0.11525914 1.1048797
-0.045599964 -0.11487701 1.1027498
-0.034999341 -0.11501103 1.1037585
-0.025310686 -0.11638038 1.1062999
-0.018455587 -0.11947564 1.108
-0.0920026 -0.10572746 1.1077999
-0.084600925 -0.10510398 1.106464
-0.074343897 -0.10523763 1.1013199
-0.065560244 -0.10583407 1.1057271
-0.055366762 -0.10976217 1.108
-0.045148328 -0.10825563 1.1075
-0.034983341 -0.10642754 1.1072798
-0.028169053 -0.10976217 1.108
-0.08274103 -0.095528819 1.107294
-0.074560858 -0.09489093 1.1045331
-0.067563616 -0.095782295 1.1070768
-0.081593119 -0.088392548 1.108
-0.074947461 -0.087179065 1.1073999
-0.093453899 -0.3024984 1.1173999
-0.084799491 -0.3027941 1.1177694
-0.079460189 -0.30214494 1.1190001
-0.10104197 -0.29723996 1.1190001
-0.09535595 -0.29508883 1.1158094
-0.085562348 -0.29658988 1.1125456
-0.077624977 -0.29662296 1.1152
-0.10196277 -0.28333834 1.1183333
-0.096662931 -0.28625309 1.1137273
-0.11169272 -0.27425677 1.1190001
-0.10536639 -0.27523714 1.1148999
-0.098460183 -0.27978289 1.1120001
-0.11199671 -0.2656948 1.1167001
-0.10629144 -0.26621529 1.1123334
-0.12066177 -0.25015244 1.1190001
-0.1161259 -0.25543845 1.1148183
-0.123196 -0.24393818 1.1175001
-0.11898514 -0.24479997 1.1125001
-0.12315326 -0.23532449 1.115889
-0.11990696 -0.23445222 1.1120001
-0.13145266 -0.22170374 1.1190001
-0.12502639 -0.22611965 1.1141667
-0.11990696 -0.22714083 1.1120001
-0.14028157 -0.21091285 1.1190001
-0.13415805 -0.21445283 1.1170001
-0.12868063 -0.21414278 1.1120001
-0.14288956 -0.20426673 1.1172223
-0.13570713 -0.20502068 1.1136363
-0.12916806 -0.20764376 1.1120001
-0.15009147 -0.19227403 1.1190001
-0.14454363 -0.19435215 1.1152105
-0.13767095 -0.19637878 1.1120001
-0.14418933 -0.18523346 1.1148001
-0.14284249 -0.17512767 1.1160001
-0.14326096 -0.16569629 1.1171819
-0.13940403 -0.16475022 1.1120001
-0.14175306 -0.15548693 1.1190001
-0.13805416 -0.15540475 1.1133333
-0.13526928 -0.14491743 1.1150626
-0.1312183 -0.13709138 1.117
-0.12600769 -0.13336763 1.1142309
-0.12299646 -0.1269124 1.1172857
-0.11774473 -0.12388615 1.1152858
-0.11255296 -0.1164634 1.1164001
-0.10547752 -0.11402787 1.1153126
-0.097485334 -0.11210814 1.1120001
-0.022444772 -0.11222807 1.1132001
-0.016739659 -0.11498078 1.1146667
-0.1016826 -0.10754574 1.11525
-0.096725263 -0.1041108 1.1128572
-0.062093277 -0.1027297 1.1125001
-0.055498019 -0.10452747 1.1151922
-0.045494251 -0.1033491 1.1152941
-0.034527164 -0.10182886 1.1126001
-0.025426108 -0.10552675 1.1157222
-0.017984817 -0.1082359 1.1190001
-0.092159584 -0.096619822 1.1132858
-0.087279007 -0.093522981 1.1136001
-0.063684098 -0.094363526 1.115
-0.059186399 -0.098425992 1.1190001
-0.04150461 -0.097712971 1.1183333
-0.034074973 -0.096144266 1.1173158
-0.02746772 -0.096137017 1.1190001
-0.084160499 -0.085693166 1.1144286
-0.075059153 -0.083129391 1.1138668
-0.067246817 -0.085902177 1.1160667
-0.081912667 -0.077498212 1.1190001
-0.075988993 -0.07780005 1.1190002
-0.068669304 -0.079460189 1.1190001
-0.094270594 -0.31143847 1.126
-0.08609689 -0.31158167 1.125625
-0.10268535 -0.30270338 1.1247143
-0.096513212 -0.30628136 1.1233751
-0.086056523 -0.30809367 1.124
-0.077255659 -0.30277875 1.125
-0.10334746 -0.29393595 1.1245002
-0.075806245 -0.2983025 1.123
-0.11139672 -0.28194344 1.1245
-0.10607412 -0.28568876 1.1245
-0.11584243 -0.27423701 1.123
-0.1160363 -0.26536596 1.1236
-0.12196683 -0.25346625 1.125
-0.11944233 -0.25961432 1.126
-0.12306208 -0.24907765 1.123
-0.12791005 -0.23412961 1.1245
-0.14115912 -0.22012925 1.126
-0.13471931 -0.22416385 1.1253333
-0.14398468 -0.2145671 1.1249287
-0.13763264 -0.21836135 1.123
-0.15182008 -0.20315067 1.126
-0.14747812 -0.20550664 1.1240001
-0.15278675 -0.19509456 1.1243848
-0.14865899 -0.19985282 1.123
-0.15155433 -0.18771566 1.125
-0.14820124 -0.18270333 1.1245
-0.14787306 -0.17448868 1.1245
-0.14754403 -0.16495959 1.1245
-0.14515147 -0.15481372 1.1248001
-0.14225133 -0.14668682 1.1248751
-0.1382813 -0.14156471 1.1240001
-0.13511764 -0.13511589 1.1250001
-0.12896906 -0.13093805 1.123
-0.1330153 -0.12758613 1.126
-0.12578562 -0.12437507 1.1247145
-0.1191241 -0.12109309 1.123
-0.12339082 -0.11944233 1.126
-0.11586358 -0.11498613 1.1253333
-0.10829464 -0.11124812 1.123
-0.01476745 -0.11124812 1.123
-0.10548448 -0.1077834 1.1245
-0.050209329 -0.10140315 1.123
-0.022106025 -0.10320846 1.1242858
-0.016985612 -0.10508826 1.125
-0.060586654 -0.093096077 1.1237501
-0.05477022 -0.096979253 1.1250001
-0.044865385 -0.096137673 1.1247501
-0.035113718 -0.091886349 1.123
-0.023802754 -0.095501684 1.1247144
-0.018097321 -0.099041708 1.126
-0.06271755 -0.085319236 1.1246156
-0.058240473 -0.088841401 1.126
-0.040472195 -0.088841401 1.126
-0.034549434 -0.08926446 1.126
-0.02665242 -0.089828528 1.126
-0.081822366 -0.072948754 1.1245
-0.07479731 -0.072948761 1.1245
-0.067069121 -0.07732892 1.1251001
-0.10192082 -0.32395113 1.1370001
-0.094991378 -0.32423741 1.136353
-0.084388569 -0.32429644 1.136737
-0.078814089 -0.32323754 1.138
-0.10395204 -0.31430173 1.1343811
-0.094631411 -0.31633309 1.1311429
-0.083863445 -0.31576654 1.1311429
-0.077107742 -0.31421661 1.1364
-0.055868212 -0.31625399 1.138
-0.1120041 -0.3031075 1.1373334
-0.10595536 -0.3052389 1.1314546
-0.0802413 -0.30808696 1.13
-0.074374646 -0.30574194 1.1340001
-0.11448255 -0.29493505 1.1344445
-0.10841933 -0.29399794 1.13
-0.12071525 -0.2803387 1.138
-0.11554968 -0.28631005 1.1334286
-0.10896967 -0.28827429 1.13
-0.12071525 -0.27634811 1.138
-0.11830266 -0.27140021 1.1340001
-0.12100191 -0.26490763 1.136
-0.11788537 -0.26648036 1.13
-0.12587181 -0.25447485 1.135
-0.13219607 -0.24185865 1.1372001
-0.12869641 -0.24641873 1.138
-0.14353576 -0.23407643 1.1370001
-0.13503999 -0.23447639 1.1342666
-0.12977296 -0.23775199 1.13
-0.15188658 -0.22267742 1.1373334
-0.14469588 -0.22558913 1.1325263
-0.13720159 -0.22753683 1.1305715
-0.15449211 -0.21448898 1.136
-0.14879313 -0.21496744 1.13
-0.16130631 -0.20317802 1.1372
-0.15554844 -0.20547052 1.1313334
-0.16090865 -0.19706883 1.1353333
-0.15746662 -0.19402763 1.1317145
-0.15384062 -0.18484166 1.1336
-0.15305285 -0.17469907 1.1355001
-0.16199924 -0.16233294 1.136
-0.15452389 -0.16383564 1.1335
-0.14958563 -0.1634545 1.13
-0.16119152 -0.15456977 1.1326666
-0.15485147 -0.15396988 1.1331111
-0.14879313 -0.15552942 1.13
-0.16019768 -0.14527331 1.135
-0.15426648 -0.14431329 1.1352803
-0.14609225 -0.14396295 1.1314286
-0.15233435 -0.13498138 1.1357144
-0.14494422 -0.13501051 1.1323999
-0.13888679 -0.13333924 1.13
-0.14359315 -0.12547007 1.1332941
-0.13657349 -0.12425438 1.1310525
-0.12779169 -0.12250832 1.13
-0.14066818 -0.11871995 1.138
-0.13333982 -0.11585131 1.1360002
-0.12519661 -0.11476458 1.1326667
-0.11851104 -0.11284629 1.1305715
-0.132687 -0.10874349 1.138
-0.12532862 -0.10819153 1.1364
-0.1142742 -0.10710611 1.1348
-0.10721353 -0.10542478 1.1324
-0.013523459 -0.10382223 1.1344
-0.053265598 -0.092433698 1.13
-0.045839306 -0.091948777 1.13
-0.021199554 -0.092525147 1.13
-0.017554177 -0.094846569 1.1335554
-0.060923953 -0.081727251 1.13
-0.054437641 -0.084220044 1.1325001
-0.044961832 -0.085365273 1.1344212
-0.034453001 -0.084591135 1.1326001
-0.025035344 -0.085240796 1.1338094
-0.018955287 -0.088790551 1.138
-0.0802413 -0.070334964 1.13
-0.072976656 -0.070334964 1.13
-0.063649595 -0.073569588 1.1316842
-0.056791261 -0.076357193 1.1365454
-0.028931754 -0.078814089 1.138
-0.080525339 -0.066607386 1.1340001
-0.074601471 -0.065113865 1.133273
-0.065893479 -0.066889375 1.136
-0.10557181 -0.33432904 1.1482501
-0.095361061 -0.33495268 1.1465001
-0.085322283 -0.33325815 1.1450001
-0.11347464 -0.32280776 1.1480001
-0.1074647 -0.32563275 1.1456156
-0.092025451 -0.32909101 1.141
-0.089024626 -0.32909101 1.141
-0.074525654 -0.32346743 1.1450001
-0.064532563 -0.32322541 1.1475716
-0.058420189 -0.32181293 1.1450001
-0.11499546 -0.31438714 1.1468948
-0.10941238 -0.31819931 1.1450001
-0.072055869 -0.31587815 1.1438571
-0.065301746 -0.31444958 1.1459603
-0.056014251 -0.31363502 1.1441581
-0.049013555 -0.31108603 1.141
-0.12402105 -0.30458885 1.1476668
-0.11710339 -0.30580902 1.1458572
-0.071019642 -0.30908549 1.141
-0.064126417 -0.30662119 1.143
-0.057084735 -0.30744377 1.1423334
-0.12428066 -0.29411641 1.1463336
-0.1255433 -0.2841562 1.1464548
-0.11945022 -0.28507447 1.1450001
-0.12537436 -0.27495033 1.1479475
-0.13245863 -0.26239902 1.149
-0.12647845 -0.26500055 1.1450002
-0.14404246 -0.2522254 1.149
-0.13446541 -0.25505921 1.1463336
-0.12876174 -0.25802359 1.1430001
-0.15210079 -0.24376418 1.149
-0.1449922 -0.24451345 1.1441112
-0.13608159 -0.2462759 1.1426843
-0.16083063 -0.23268397 1.149
-0.15434429 -0.23521678 1.1460001
-0.14748667 -0.23712714 1.1425
-0.13903846 -0.23906612 1.141
-0.16256292 -0.22591348 1.1470001
-0.15640014 -0.22619367 1.1427779
-0.16266404 -0.21438739 1.1445556
-0.15804371 -0.2180603 1.141
-0.16350517 -0.20763656 1.1442001
-0.1611664 -0.19239238 1.149
-0.16284521 -0.18433405 1.149
-0.15770409 -0.18381789 1.1458001
-0.17023201 -0.17728303 1.149
-0.16512528 -0.17486571 1.1466844
-0.15781705 -0.17521594 1.1450001
-0.16298793 -0.16860211 1.1434
-0.15818311 -0.16819464 1.1420001
-0.14246647 -0.11577948 1.1455715
-0.13663778 -0.11343137 1.141
-0.12342706 -0.10435927 1.1446668
-0.11657014 -0.10303663 1.147182
-0.10573184 -0.10205131 1.1450001
-0.00900249 -0.10102794 1.141
-0.12288938 -0.099721707 1.149
-0.11455634 -0.09789028 1.149
-0.10605324 -0.09770713 1.149
-0.012236338 -0.094484843 1.1442001
-0.0077172969 -0.096977741 1.1483334
-0.044012174 -0.081022412 1.141
-0.037010238 -0.081022412 1.141
-0.023006365 -0.081022412 1.141
-0.014554857 -0.084983744 1.1455001
-0.052852772 -0.073103972 1.1423335
-0.046298884 -0.076452397 1.1466472
-0.034153398 -0.076710626 1.1457502
-0.024797201 -0.074829251 1.143435
-0.017081849 -0.075371422 1.1463336
-0.0080583207 -0.078568622 1.149
-0.071019642 -0.061016876 1.141
-0.063904621 -0.062504232 1.1426001
-0.055052772 -0.065095566 1.1453336
-0.048954289 -0.067085519 1.149
-0.023986915 -0.067595825 1.1480001
-0.017715679 -0.066634208 1.1482
-0.072943047 -0.057078309 1.1467779
-0.065201201 -0.055475459 1.1471668
-0.056216899 -0.056216899 1.1483685
-0.11055906 -0.34182021 1.1570001
-0.10374034 -0.34184235 1.1545
-0.094761044 -0.34304896 1.1555454
-0.086393096 -0.34329894 1.1559999
-0.11329744 -0.3341811 1.1548181
-0.085917719 -0.33861688 1.153
-0.067723379 -0.33053049 1.153
-0.1207021 -0.32254845 1.1570001
-0.116596 -0.32601327 1.1539999
-0.072839603 -0.32778302 1.1539999
-0.067804031 -0.32753992 1.1543332
-0.13084513 -0.31139112 1.1570001
-0.12430917 -0.3145152 1.1540666
-0.11826321 -0.31840095 1.153
-0.13163325 -0.30477753 1.155
-0.12837118 -0.30374438 1.153
-0.13298596 -0.29458982 1.1557498
-0.12837118 -0.29414183 1.153
-0.14098816 -0.28603354 1.1570001
-0.13602842 -0.2851294 1.1565788
-0.13358682 -0.27544421 1.1548822
-0.15315981 -0.26067597 1.1570001
-0.14428465 -0.26245096 1.1570001
-0.134966 -0.26641959 1.1548461
-0.15388316 -0.2544423 1.1557498
-0.14445323 -0.25754818 1.1537272
-0.13847914 -0.25977474 1.153
-0.16344993 -0.24294326 1.1566
-0.15604101 -0.24613419 1.1547142
-0.16475935 -0.23534453 1.1549999
-0.15869507 -0.2395588 1.153
-0.16678146 -0.2132781 1.153
-0.16678146 -0.20721331 1.153
-0.16584328 -0.1941824 1.1546665
-0.17195487 -0.18461789 1.1554999
-0.16527681 -0.18507935 1.1536316
-0.1202848 -0.10006887 1.153
-0.1202848 -0.098047279 1.153
-0.11393316 -0.092750192 1.1548461
-0.10437599 -0.092214651 1.1559331
-0.006789282 -0.092604682 1.1535714
-0.11258767 -0.088244386 1.1570001
-0.10447324 -0.087737232 1.1570001
-0.09838742 -0.088244386 1.1570001
-0.012634959 -0.085412316 1.153
-0.0070840935 -0.086046465 1.1547142
-0.043248378 -0.073597699 1.154
-0.036894016 -0.073932432 1.1552857
-0.012137274 -0.075860247 1.1538
-0.0085979085 -0.074359305 1.154
-0.046559066 -0.065794364 1.1545999
-0.032119606 -0.069310732 1.1570001
-0.025711408 -0.064172879 1.1545999
-0.014507567 -0.065582365 1.1547778
-0.0091129504 -0.06885165 1.155
-0.074505858 -0.052928165 1.1536666
-0.069744967 -0.05155063 1.153
-0.052928165 -0.052928168 1.1536666
-0.049048625 -0.056568418 1.1552857
-0.022314673 -0.059843898 1.1570001
-0.017220948 -0.059774935 1.1556667
-0.073598579 -0.047799595 1.154
-0.065792017 -0.047571037 1.1545999
-0.056671798 -0.048194274 1.1562728
-0.11362721 -0.35316154 1.1676668
-0.1049797 -0.35276094 1.1658572
-0.095614657 -0.35194448 1.1655715
-0.12195398 -0.34331581 1.169
-0.11577698 -0.34471741 1.1641111
-0.10589739 -0.34696817 1.1615001
-0.094656333 -0.34788746 1.161
-0.13015257 -0.33101794 1.169
-0.12470221 -0.33462676 1.1672857
-0.11797917 -0.33589771 1.1615715
-0.1311774 -0.32486898 1.169
-0.12556657 -0.32534057 1.163353
-0.13579334 -0.31381962 1.1646364
-0.12926187 -0.31755671 1.161
-0.14245044 -0.30027324 1.169
-0.13755216 -0.30480382 1.162231
-0.15064903 -0.290025 1.169
-0.14316113 -0.29312402 1.1636666
-0.13856755 -0.2956011 1.1610001
-0.15064903 -0.28592572 1.169
-0.14564748 -0.28455985 1.1628667
-0.15167385 -0.27157819 1.169
-0.14500786 -0.27570659 1.1647999
-0.13856755 -0.27524489 1.1610001
-0.16313452 -0.26486239 1.1673999
-0.15533614 -0.26597768 1.1642001
-0.1457781 -0.26684257 1.1613637
-0.13943997 -0.26870185 1.161
-0.1716335 -0.25318542 1.1676668
-0.16533174 -0.25513551 1.1641113
-0.15921457 -0.25634271 1.1610001
-0.17265035 -0.24662122 1.1672858
-0.16671729 -0.24610646 1.1610001
-0.16997427 -0.23714973 1.161
-0.17202391 -0.21502969 1.168
-0.16793865 -0.20356199 1.161
-0.00305343 -0.09058509 1.161
-0.11238408 -0.083861262 1.1618891
-0.10488569 -0.083839282 1.1615713
-0.09631893 -0.082727663 1.1626667
-0.088854551 -0.081705332 1.1650001
-0.00306395 -0.088854551 1.1650001
-0.11132351 -0.078641385 1.1650001
-0.10472175 -0.076512367 1.1658001
-0.094926015 -0.075441644 1.1667145
-0.087374002 -0.074085787 1.1656666
-0.04173021 -0.07022889 1.161
-0.038066097 -0.071043134 1.161
-0.086085156 -0.068663165 1.169
-0.043306019 -0.063683257 1.1623335
-0.035892483 -0.064124949 1.164167
-0.02817636 -0.061442349 1.1616668
-0.011998718 -0.06357345 1.165
-0.0092076296 -0.063425079 1.1670001
-0.045123316 -0.054259218 1.1652354
-0.035167485 -0.058040008 1.1683334
-0.024472976 -0.055251192 1.1659412
-0.01689682 -0.054539543 1.1661767
-0.071071066 -0.043185472 1.1636667
-0.06414552 -0.042762406 1.1614001
-0.05384963 -0.043807413 1.162143
-0.047236219 -0.045980833 1.1656153
-0.063514896 -0.038404133 1.1668181
-0.054082111 -0.037587088 1.1667501
-0.047483478 -0.039284896 1.169
-0.11003131 -0.36094382 1.1730001
-0.1212408 -0.35340405 1.177
-0.11537747 -0.35729814 1.1735716
-0.10488966 -0.35888717 1.1730001
-0.13158269 -0.34183893 1.1756667
-0.12602954 -0.34484425 1.1751335
-0.13385981 -0.33467835 1.1751335
-0.14136162 -0.32709223 1.177
-0.13663872 -0.3255474 1.1754001
-0.14190954 -0.31775397 1.1730001
-0.13676789 -0.31912509 1.1730001
-0.1446386 -0.30198333 1.1756667
-0.15219606 -0.2937403 1.1756667
-0.1476645 -0.295946 1.1746
-0.16354612 -0.28220731 1.177
-0.15535022 -0.28432751 1.1753531
-0.17231673 -0.27240488 1.177
-0.1652264 -0.27503577 1.1750002
-0.15565079 -0.27598804 1.1732224
-0.18057142 -0.26105466 1.177
-0.17479706 -0.26495582 1.1765295
-0.16838902 -0.2658233 1.1730002
-0.17649844 -0.25578502 1.1746001
-0.17378777 -0.21423542 1.1730001
-0.11003131 -0.075068086 1.1730001
-0.10404018 -0.072105832 1.1750001
-0.096663021 -0.07095477 1.1730001
-0.10264126 -0.066707447 1.1758573
-0.095563322 -0.066353098 1.1751179
-0.085732408 -0.064635068 1.176077
-0.079451419 -0.060878363 1.177
-0.0068003028 -0.063267812 1.1754
-0.081515096 -0.057782851 1.177
-0.079451419 -0.057782851 1.177
-0.04079042 -0.052787602 1.1730002
-0.035240654 -0.053373393 1.1754
-0.028071087 -0.052275412 1.1750002
-0.012097342 -0.053797308 1.1745001
-0.008036403 -0.055434965 1.1754
-0.041909318 -0.043810468 1.1748463
-0.036114283 -0.047464486 1.177
-0.022825768 -0.046385556 1.1758573
-0.016791422 -0.045807712 1.1761429
-0.064122252 -0.034506038 1.1750001
-0.054752216 -0.032804381 1.1734446
-0.045343954 -0.035038114 1.1755716
-0.060878363 -0.029923264 1.177
-0.053861875 -0.028478691 1.177
-0.047464486 -0.029923264 1.177
-0.134663 -0.36198589 1.1876668
-0.12584345 -0.36192656 1.1863333
-0.11906448 -0.36133483 1.1810001
-0.13434193 -0.35492992 1.1879092
-0.12655963 -0.35614333 1.1839334
-0.14314613 -0.34492025 1.1881429
-0.13554773 -0.34589148 1.1835456
-0.14179002 -0.33627355 1.1863334
-0.13821834 -0.33596891 1.1810001
-0.14368509 -0.3258906 1.1876667
-0.14488758 -0.31166464 1.189
-0.1932261 -0.30646074 1.1850001
-0.16156529 -0.30124107 1.189
-0.15467605 -0.30275482 1.1876667
-0.14692204 -0.30560073 1.1830001
-0.16491163 -0.29480839 1.18775
-0.15601534 -0.29609311 1.1828183
-0.17389929 -0.28365216 1.1878
-0.16526954 -0.28693134 1.1822308
-0.15840752 -0.2888608 1.1810001
-0.18235958 -0.27510288 1.1867143
-0.1756894 -0.2753683 1.1823334
-0.18118508 -0.26608324 1.1810001
-0.1791144 -0.26504791 1.1810001
-0.10664036 -0.071438693 1.1810001
-0.10267491 -0.062224049 1.1830002
-0.093328811 -0.061676882 1.1810001
-0.08731395 -0.061775487 1.1810001
-0.0041431268 -0.065952502 1.1816667
-0.10169011 -0.0586528 1.1876668
-0.094341658 -0.05622936 1.1866841
-0.085038699 -0.054686662 1.1845555
-0.079721436 -0.053837851 1.1810001
-0.0044864882 -0.053722814 1.1810001
-0.084430888 -0.048990764 1.189
-0.033517782 -0.04354611 1.1812105
-0.025890864 -0.043415293 1.1813077
-0.013847109 -0.042675257 1.1820909
-0.0058529489 -0.045683522 1.185842
-0.066238657 -0.032602359 1.1842
-0.041413732 -0.032872152 1.1810001
-0.03489989 -0.034900557 1.1859522
-0.024324549 -0.036435939 1.1875455
-0.016190071 -0.034904726 1.1861427
-0.0093812095 -0.038567197 1.189
-0.061878931 -0.025576457 1.1830001
-0.055513985 -0.024123818 1.1828667
-0.045251314 -0.025341388 1.1842941
-0.038567197 -0.028143629 1.189
-0.053994078 -0.019387834 1.189
-0.048990764 -0.018762421 1.189
-0.13073291 -0.3650063 1.1930001
-0.12864119 -0.3650063 1.1930001
-0.14188878 -0.3531532 1.1930001
-0.13760574 -0.35693821 1.193
-0.14328328 -0.3482725 1.1930001
-0.145375 -0.33885974 1.1930001
-0.15320802 -0.31218758 1.197
-0.14650327 -0.31463334 1.1936666
-0.19139299 -0.30852968 1.1930001
-0.17345148 -0.30138764 1.1962
-0.16417448 -0.30485994 1.1950001
-0.15548502 -0.30783245 1.193
-0.17435585 -0.29572847 1.1950001
-0.18448339 -0.28231588 1.1956667
-0.1767509 -0.28719407 1.1930001
-0.18647751 -0.27866429 1.1950001
0.016440131 -0.13396959 1.197
-0.0010458634 -0.070072845 1.1930001
-0.0010458634 -0.067981116 1.1930001
0.0010458634 -0.067981116 1.1930001
-0.1031898 -0.054663051 1.1958572
-0.096219428 -0.051944543 1.193
-0.088898383 -0.051247302 1.1930001
-0.10178889 -0.049320389 1.197
-0.095334679 -0.04644201 1.1950002
-0.085651621 -0.046973087 1.1948463
-0.0031434344 -0.041926876 1.1956668
0.00104937 -0.041974798 1.197
-0.067981116 -0.032421764 1.1930001
-0.0313759 -0.0313759 1.1930001
-0.02591417 -0.031956933 1.193
-0.0125714 -0.031426746 1.1950001
-0.0085358527 -0.034894966 1.1958572
-0.041485909 -0.022660375 1.1930001
-0.034835871 -0.025622452 1.1946
-0.025184883 -0.027283622 1.197
-0.017600309 -0.025768567 1.1950001
-0.061912831 -0.019938029 1.197
-0.05584849 -0.014771041 1.1952002
-0.045175605 -0.016160794 1.1955265
-0.037987195 -0.018259037 1.197
-0.14225669 -0.35932988 1.202
-0.15118818 -0.32034978 1.2060001
-0.14801639 -0.32352155 1.2060001
-0.17021886 -0.3118917 1.2060001
-0.16651113 -0.31225172 1.2046667
-0.15520963 -0.31570274 1.2044001
-0.14857922 -0.31717974 1.202
-0.19347858 -0.30554813 1.2060001
-0.18330924 -0.30285192 1.2055557
-0.17465907 -0.3069765 1.2042222
-0.16860053 -0.30769598 1.202
-0.19136406 -0.29180378 1.2060001
-0.18491618 -0.29480478 1.2053043
-0.19136406 -0.28863198 1.2060001
-0.18491527 -0.28739759 1.2037778
0.013417258 -0.13280924 1.2037144
0.020087941 -0.13004299 1.2060001
0.017943613 -0.12877005 1.204
-0.10699365 -0.052545644 1.2036002
-0.10390007 -0.047840398 1.202
-0.092379041 -0.041798878 1.202
-0.084888689 -0.042867251 1.2044001
-0.076802038 -0.043499615 1.2037779
-0.093038879 -0.039118621 1.2060001
-0.0898671 -0.039118621 1.2060001
-0.072422311 -0.035946839 1.2060001
-0.068721898 -0.03066054 1.2060001
-0.0036616817 -0.034453511 1.2038823
-0.066607378 -0.026431499 1.2060001
-0.032696407 -0.021545712 1.203143
-0.025112992 -0.022789827 1.2036
-0.013903454 -0.024064181 1.2030909
-0.0069691492 -0.026403796 1.2048001
-0.063014455 -0.014541795 1.202
-0.042677008 -0.012118164 1.202
-0.035772622 -0.014483011 1.2034546
-0.0158589 -0.017973419 1.2060001
-0.061820194 -0.0080787754 1.202
-0.054886345 -0.0084423004 1.2040001
-0.045022253 -0.0081582582 1.2045455
-0.038246863 -0.0078174118 1.2052
-0.17447087 -0.32146329 1.215
-0.16802983 -0.32220802 1.2156668
-0.15588307 -0.32263035 1.2162001
-0.19180283 -0.3132821 1.2155001
-0.18533984 -0.31543672 1.2164
-0.17560549 -0.31509992 1.2115557
-0.16545564 -0.31733775 1.2124444
-0.15381117 -0.31929076 1.21
-0.19234242 -0.30483279 1.2105
-0.18698424 -0.30598295 1.21
-0.19270594 -0.29736826 1.21
0.012748487 -0.13068995 1.2120001
0.01582073 -0.12518111 1.2156923
0.021697851 -0.12315868 1.2132001
0.018167162 -0.11648357 1.2190001
0.02338828 -0.11431976 1.2160587
0.024918519 -0.10750286 1.2181667
-0.081679031 -0.0413699 1.21
-0.079557501 -0.0413699 1.21
-0.091491133 -0.034740109 1.21
-0.084902525 -0.035020906 1.2105997
-0.076413691 -0.034487419 1.2114736
-0.083788887 -0.027061725 1.2133334
-0.075160608 -0.026520452 1.2166667
-0.067188293 -0.024067771 1.2129999
-0.02335703 -0.020171223 1.2110001
-0.0127292 -0.020154567 1.21
-0.0041792458 -0.023046516 1.2134666
0.0010686567 -0.02244179 1.2190001
-0.065650932 -0.017388098 1.2143334
-0.03154261 -0.014172047 1.2128335
-0.025289524 -0.01637478 1.2159091
-0.015447817 -0.015268974 1.2154166
-0.0078940326 -0.01728243 1.2170001
-0.061626684 -0.0027679871 1.2162001
-0.054928698 -0.0030263884 1.2138461
-0.045625106 -0.0031825698 1.2103078
-0.035240423 -0.0048934948 1.2134
-0.017098505 -0.0096179098 1.2190001
-0.061982084 0.0010686567 1.2190001
-0.053929128 0.0020166254 1.2167778
-0.044523671 0.0035293924 1.2159231
-0.037915912 0.0043674735 1.2168181
-0.15425107 -0.33152151 1.2270001
-0.1897729 -0.32057685 1.223
-0.16426992 -0.32470918 1.2247144
-0.15679359 -0.32754457 1.2250001
-0.19191724 -0.31843251 1.223
0.012666957 -0.12431922 1.2246001
0.016090048 -0.11585734 1.2236668
0.020371104 -0.11043283 1.223
0.01828639 -0.10864267 1.2270001
0.023616087 -0.1035887 1.2245002
-0.075133257 -0.021465475 1.2243334
-0.069690615 -0.020371104 1.223
-0.073683396 -0.017748555 1.2270001
-0.069051825 -0.016814759 1.2243334
-0.02374257 -0.013241271 1.2247778
-0.012521431 -0.01252143 1.2243334
-0.0071571073 -0.014308368 1.2243334
-0.031654242 -0.0048273648 1.2240001
-0.02453017 -0.0077195284 1.2262729
-0.015501596 -0.0055242525 1.2255716
-0.0089533962 -0.0089533962 1.2256668
-0.062321063 0.0053748433 1.2256669
-0.054764256 0.0070896042 1.2248666
-0.045490354 0.0087304721 1.2230002
-0.035427678 0.0066586337 1.2246001
-0.01613505 0.00107567 1.2270001
-0.052169994 0.012370205 1.2270001
-0.045078602 0.014836065 1.2262001
-0.03886281 0.013528896 1.2246001
-0.16578469 -0.33048579 1.2360001
-0.15928333 -0.33265293 1.2360001
-0.16308805 -0.32833621 1.2320001
0.0090138875 -0.12548782 1.2340002
0.011899874 -0.1211606 1.2340001
0.0162271 -0.11466976 1.2340001
0.018420519 -0.10510532 1.2360001
0.021972189 -0.10265943 1.2326669
-0.0039672088 -0.014793457 1.2346667
0.0018059332 -0.017698146 1.2360001
-0.031321548 -0.0010800533 1.2320001
-0.025000779 -0.003548997 1.2322859
-0.012420614 -0.0027001332 1.2320001
-0.0070343739 -0.0052301935 1.2346667
-0.061563041 0.0097204801 1.2320001
-0.059402931 0.0097204801 1.2320001
-0.032680031 0.0045453412 1.2344
-0.024903957 0.0025275273 1.2351112
-0.015727939 0.0044127353 1.234154
-0.062254731 0.014618417 1.2350001
-0.05580553 0.015809368 1.2330002
-0.046442293 0.018360907 1.2320001
-0.03726184 0.015120747 1.2320001
-0.053379752 0.022709174 1.2334548
-0.045561459 0.023662766 1.2337502
-0.039961971 0.020521013 1.2320001
-0.16249542 -0.33589745 1.2440001
0.0098230503 -0.12115095 1.245
0.01200595 -0.11896805 1.245
0.01855465 -0.10150485 1.245
0.024375716 -0.097866684 1.245
0.033834949 -0.092773251 1.245
-0.0010879433 -0.014143263 1.2410001
0.0040894309 -0.013630851 1.2440001
-0.0015231207 -0.0036990072 1.2410001
0.00109145 -0.0087315999 1.245
-0.031550355 0.0097914897 1.2410001
-0.024880528 0.0070856586 1.243
-0.014175992 0.0090872347 1.2436666
-0.0060411096 0.003468333 1.2428182
-0.062012769 0.018495036 1.2410001
-0.033806019 0.016356848 1.244
-0.015915532 0.012863681 1.2434
-0.060029749 0.02292045 1.245
-0.055095866 0.027549028 1.2444999
-0.042020563 0.028523048 1.2418001
-0.037303045 0.025087219 1.2442
-0.052935325 0.032197773 1.245
-0.045741674 0.033239607 1.245
-0.038200751 0.031652048 1.245
-0.163158 -0.34326425 1.2558
-0.16886967 -0.33884305 1.2590001
0.0076708333 -0.1216375 1.25
0.009079746 -0.11637761 1.255375
0.014065436 -0.11436974 1.2557778
0.015396312 -0.10669237 1.2546667
0.018629167 -0.099720836 1.25
0.025649825 -0.095179185 1.2530589
0.032217503 -0.09446083 1.25
0.028298117 -0.086364418 1.2576667
0.008766667 -0.012054167 1.25
0.012102383 -0.012102383 1.2550001
0.0055058757 -0.0068195895 1.255
0.012128099 -0.0077155437 1.2576667
-0.024108334 0.0098625002 1.25
-0.0058099208 0.0077000139 1.2552859
-0.031779166 0.016437501 1.25
-0.025284251 0.015396329 1.25405
-0.01508281 0.016486594 1.2534546
-0.0088099157 0.014319181 1.2563335
-0.060709167 0.024765834 1.25
-0.058079164 0.0295875 1.25
-0.033719093 0.02578027 1.2533076
-0.029359043 0.02361968 1.2590001
-0.014348404 0.022074467 1.2590001
-0.061535425 0.034073845 1.2535
-0.055425856 0.036038667 1.2519166
-0.043729596 0.037153617 1.2505555
-0.036893267 0.034697838 1.2535715
-0.054423641 0.041200005 1.2566
-0.04525489 0.042061582 1.2535455
-0.17007683 -0.34571174 1.268
-0.16745648 -0.34544963 1.265
0.012189173 -0.11191877 1.2640001
0.0099729598 -0.10970256 1.2640001
0.01220846 -0.10876453 1.266
0.018867619 -0.097665928 1.266
0.021641394 -0.092116632 1.266
0.024497032 -0.084594287 1.2658461
0.02667872 -0.078924544 1.268
0.030013559 -0.078924544 1.268
0.0055405335 -0.0033243198 1.2640001
-0.0022179666 0.0066574067 1.266
0.0011116134 0.0011116134 1.268
-0.0058254497 0.015260137 1.2659999
-0.065016411 0.026848441 1.2656001
-0.024839066 0.024329795 1.2658461
-0.014283588 0.024056435 1.2663999
-0.0077812932 0.02334388 1.268
-0.064473569 0.030013559 1.268
-0.032202888 0.032943964 1.2666668
-0.027790334 0.030013559 1.268
-0.060945865 0.040999945 1.2640001
-0.053545397 0.045104146 1.2672
-0.044910755 0.045468319 1.265
-0.0388451 0.042176433 1.266
-0.17074749 -0.34930694 1.273
0.017264197 -0.094776332 1.2752222
0.017898137 -0.085023403 1.276125
0.021203937 -0.082583755 1.273
0.0182747 -0.078696318 1.2763335
0.023024598 -0.078017548 1.275
-0.068343177 -0.00112038 1.2780001
0.0055799833 -0.0011159966 1.273
0.011858495 -0.0020114239 1.276
-0.0011159966 0.0078119766 1.273
0.004289676 0.0041051377 1.2763332
0.013818019 0.0070957397 1.2780001
-0.0022349155 0.014529874 1.2746667
0.00112038 0.01008342 1.2780001
-0.06593293 0.024213532 1.2746667
-0.023494372 0.027972972 1.2763335
-0.015276793 0.027936444 1.2746667
-0.0055826129 0.02434626 1.2739999
-0.065822326 0.036132254 1.278
-0.033332966 0.036466528 1.276
-0.024852272 0.031122897 1.2770001
-0.013801948 0.031455677 1.2763333
-0.06274128 0.042574439 1.2780001
-0.057014141 0.04679196 1.2751428
-0.044680409 0.048034973 1.27425
-0.036972541 0.041454058 1.2780001
-0.052657858 0.050417099 1.2780001
-0.04369482 0.050417099 1.2780001
-0.17433831 -0.35205093 1.2830001
0.0079040267 -0.10049405 1.2880001
0.01380246 -0.10283518 1.2855
0.013148051 -0.095061049 1.2857778
0.014678908 -0.084685996 1.2880001
0.018066347 -0.076781973 1.2880001
0.023205191 -0.074123397 1.2850001
-0.072347797 -0.0043527754 1.2865715
-0.068610564 -0.00337429 1.2830001
-0.071136236 0.00338744 1.2880001
-0.068811096 0.0045154905 1.2867501
0.0063736588 0.0071235015 1.2830001
0.011872502 0.0036242376 1.2830001
-0.067845516 0.014421653 1.2874446
-0.0011247633 0.017996214 1.2830001
0.0045078201 0.01409132 1.2855002
0.012404541 0.012407463 1.2863334
-0.068036057 0.022175869 1.2863334
-0.0015781752 0.025496799 1.2870001
-0.071136236 0.039520133 1.2880001
-0.06636104 0.039366715 1.2830001
-0.032055754 0.038804334 1.2830001
-0.024463508 0.036538966 1.285143
-0.015606358 0.036367327 1.284786
-0.0059148697 0.032401599 1.2855
-0.071889006 0.044789482 1.2880001
-0.065944076 0.045663949 1.2849233
-0.034109019 0.04369361 1.2861251
-0.028228667 0.041778427 1.2880001
-0.019195493 0.041778427 1.2880001
-0.071136236 0.0508116 1.2880001
-0.064645804 0.054411717 1.2876668
-0.055462275 0.05567985 1.2860955
-0.045412082 0.054112632 1.2858572
-0.039520133 0.051940747 1.2880001
0.01019388 -0.10307145 1.2920001
0.0069683725 -0.095784232 1.2941428
0.01019388 -0.094010226 1.2920001
0.011636544 -0.086003959 1.295125
0.017398765 -0.074143939 1.2945
0.02378572 -0.071357161 1.2920001
0.019255107 -0.069091856 1.2920001
0.023831746 -0.068088502 1.2945
-0.082925878 -0.012496444 1.29575
-0.075887769 -0.012459187 1.2920001
-0.082548864 -0.0050029615 1.2970001
-0.077311859 -0.0040508262 1.2941428
-0.080729604 0.0034111098 1.2970001
-0.075722009 0.0048048077 1.295077
-0.074478246 0.014093553 1.2952354
0.0056632664 0.019255107 1.2920001
0.012483295 0.01815971 1.2945
-0.072666794 0.024980286 1.295125
0.0038606648 0.023616172 1.295
0.01023333 0.021603696 1.2970001
-0.075044423 0.039796282 1.2970001
-0.011326533 0.039642867 1.2920001
-0.0038562813 0.034713544 1.294
0.045102451 0.038280234 1.2970001
-0.075070076 0.045744147 1.2956363
-0.035228956 0.047448814 1.296375
-0.024942484 0.043650988 1.29325
-0.015899884 0.042596139 1.29575
-0.075303257 0.054492649 1.2949166
-0.068336755 0.057010219 1.2920001
-0.041908175 0.05776532 1.2920001
-0.03747838 0.054027844 1.2955714
-0.072391331 0.06102097 1.2970001
-0.065199316 0.063458115 1.2943077
-0.054474022 0.064121298 1.2945
-0.045930903 0.062567987 1.2936666
-0.039796282 0.061399981 1.2970001
0.0064826584 -0.091166906 1.3053334
0.0074323807 -0.086341582 1.3045001
0.010292505 -0.082337841 1.3045001
0.013149341 -0.075478368 1.3045001
0.017631343 -0.06594567 1.3060001
0.024464961 -0.062642738 1.3040001
0.024061872 -0.05729017 1.307
-0.095444649 -0.024816487 1.3064443
-0.085855246 -0.022322346 1.30575
-0.094961405 -0.014872652 1.3049998
-0.086621091 -0.016106704 1.302
-0.094189994 -0.0047784518 1.3055295
-0.087128393 -0.0038047333 1.302
-0.093955874 0.0045832135 1.3069999
-0.08528126 0.0048314454 1.3023846
-0.092810065 0.013367704 1.307
-0.084598325 0.014863446 1.3039999
-0.077997029 0.018643193 1.302
0.0171213 0.019404139 1.302
0.046691485 0.018046403 1.307
0.052543271 0.016532304 1.307
-0.083996192 0.024943259 1.307
-0.077654369 0.025123844 1.3026251
0.0057122144 0.027412342 1.3028334
0.015135212 0.025183566 1.3056111
0.024627833 0.025391703 1.3065834
0.034361385 0.026801717 1.3065002
0.044883486 0.02536252 1.3056841
0.053623598 0.025665993 1.307
0.061873384 0.028645083 1.307
0.076768823 0.02406187 1.307
-0.082497835 0.034374099 1.307
-0.076960124 0.03345662 1.305889
-0.0034253558 0.037703022 1.3032501
0.0040084855 0.033388946 1.3057501
0.01031223 0.03093669 1.307
0.028645083 0.03093669 1.307
0.034846373 0.034029819 1.3062857
0.044262327 0.033753574 1.3064116
0.054616626 0.032082494 1.307
0.063019186 0.03093669 1.307
-0.08433786 0.044518597 1.3058887
-0.078757979 0.044515379 1.302
-0.030818339 0.049081061 1.302
-0.024622062 0.048102699 1.302
-0.01576869 0.046396445 1.3035001
-0.0057290164 0.040866982 1.307
0.037022069 0.041603822 1.3061668
0.041248918 0.040103115 1.307
-0.084391959 0.05465718 1.3043333
-0.074953243 0.055929583 1.302
-0.033410352 0.055010442 1.3042223
-0.02567118 0.052486908 1.3055714
-0.01718705 0.051561151 1.307
-0.083435491 0.064949609 1.3062857
-0.075838782 0.065763824 1.3025883
-0.065060943 0.068358377 1.302
-0.055473011 0.069170058 1.302
-0.045951709 0.067902043 1.3040001
-0.03781151 0.060727578 1.307
-0.081810348 0.074935541 1.307
-0.075552881 0.075552881 1.30575
-0.06518849 0.075481437 1.3044999
-0.055171613 0.075320214 1.3056666
-0.048505675 0.072949477 1.307
-0.075623021 0.081352033 1.307
-0.065883696 0.081352033 1.307
-0.058435969 0.081352033 1.307
0.0080513069 -0.081663251 1.312
0.0080819903 -0.076201618 1.317
0.010811755 -0.072921835 1.312
0.013095009 -0.064229064 1.3147274
0.018277496 -0.056479376 1.3148572
0.022648098 -0.053357732 1.3136667
-0.10598953 -0.042719088 1.317
-0.10426804 -0.034262445 1.3152144
-0.097765863 -0.031055041 1.312
-0.10483611 -0.025345385 1.3140836
-0.10535263 -0.014567621 1.3137648
-0.10508168 -0.0044246749 1.3141054
-0.10330752 0.0042833933 1.3155717
0.053879932 0.0065425634 1.317
-0.10262961 0.014990415 1.3153332
-0.096040584 0.017252801 1.3120002
0.056587018 0.014077448 1.313154
0.063381441 0.015799975 1.3145
-0.1012173 0.024630824 1.317
-0.094498321 0.025354512 1.3145002
-0.088564374 0.026454292 1.312
0.014952427 0.028754666 1.312
0.026454292 0.027604479 1.312
0.057509333 0.024537316 1.3120002
0.064776018 0.024823694 1.3127145
0.072132722 0.024468936 1.3153335
-0.10317657 0.035791669 1.3170002
-0.0945438 0.03458669 1.3151252
-0.086494043 0.034505602 1.3120002
0.0063260272 0.037381068 1.312
0.015222946 0.034753423 1.3143685
0.02509803 0.034773629 1.3133334
0.031055041 0.036805972 1.312
0.056359146 0.032205228 1.312
-0.10319313 0.043939229 1.3166667
-0.094480775 0.044934206 1.3142501
-0.088564374 0.046007469 1.312
-0.01128761 0.047691368 1.3139999
-0.0040316805 0.043772291 1.3138752
0.0038456442 0.041128527 1.3153334
0.028076271 0.043078378 1.3161666
0.032844219 0.044090491 1.3120002
-0.10044759 0.05311022 1.317
-0.094004907 0.054985225 1.3145001
-0.088564374 0.05865952 1.312
-0.032205228 0.05865952 1.312
-0.024939217 0.057174642 1.3131112
-0.016910315 0.054580972 1.3153334
-0.092322312 0.064626887 1.316375
-0.088564374 0.064410456 1.312
-0.042719088 0.06811963 1.317
-0.034868013 0.062115867 1.317
-0.091211028 0.074277334 1.317
-0.086747721 0.075402565 1.3139231
-0.051758401 0.079362877 1.312
-0.047651913 0.075735755 1.313
-0.084452257 0.083589613 1.3151251
-0.075072557 0.084675692 1.3140835
-0.064976029 0.084386177 1.3134286
-0.055349227 0.083025306 1.3153332
-0.0011589533 -0.073014058 1.322
0.0043487051 -0.072225064 1.3235002
-0.0011642133 -0.066360161 1.3280001
0.0046499493 -0.065139733 1.3268751
0.01043058 -0.061424527 1.322
0.0081494935 -0.05937488 1.3280001
0.013942005 -0.054609068 1.3254286
-0.11129313 -0.044980306 1.327
-0.10827184 -0.043075893 1.3280001
0.018985678 -0.048433498 1.3260001
0.022020113 -0.049834993 1.322
-0.1127924 -0.034143936 1.3263637
-0.1228245 -0.023866374 1.3280001
-0.11497702 -0.025549835 1.3247001
-0.12263048 -0.015910916 1.3280001
-0.11546332 -0.015410811 1.3256522
-0.1222424 -0.0046568532 1.3280001
-0.11622801 -0.0046509355 1.3257501
0.056788713 -0.0011589533 1.322
0.067524374 -0.0023284266 1.3280001
0.071017012 -0.0034926399 1.3280001
0.086151786 -0.0011642133 1.3280001
-0.12301854 0.003880711 1.3280001
-0.11492439 0.0046434393 1.3241003
-0.10778266 0.00695372 1.322
0.057721049 0.0037679134 1.3235002
0.064287938 0.0063985707 1.3272501
0.07450965 0.0081494935 1.3280001
0.084277473 0.0046463329 1.3260001
-0.1222424 0.01397056 1.3280001
-0.11497181 0.015096903 1.3246402
-0.10778266 0.015066393 1.322
0.067862473 0.013184775 1.327
0.074493609 0.015130301 1.3276999
0.081275269 0.013464849 1.327143
-0.1222424 0.02522462 1.3280001
-0.11497702 0.025548259 1.3247001
-0.10592834 0.025960553 1.3220001
-0.1222424 0.034538329 1.3280001
-0.11495097 0.034831718 1.3244002
-0.10592834 0.0322189 1.322
-0.11476911 0.044412851 1.3248572
-0.10639192 0.048444249 1.322
-0.0048013781 0.048179347 1.3219999
0.005110967 0.045747973 1.3244002
0.015102836 0.042816021 1.325
0.024127232 0.044260174 1.3246667
-0.11419451 0.054316804 1.3276666
-0.10490656 0.056017619 1.3232859
-0.098511033 0.057947665 1.322
-0.013691956 0.056867085 1.3238001
-0.0041579045 0.054718025 1.3279999
0.0026194798 0.052680649 1.3280001
0.027941119 0.050061174 1.3280001
-0.11176448 0.065195948 1.3280001
-0.10463554 0.065104887 1.3261251
-0.09735208 0.064901389 1.322
-0.040563367 0.067219295 1.322
-0.034460716 0.066825844 1.3280001
-0.0255762 0.065108173 1.3261249
-0.01767027 0.064412735 1.3262
-0.11241128 0.073604152 1.3280001
-0.10443915 0.074751504 1.3262354
-0.095700324 0.075507924 1.3227061
-0.044318501 0.074530944 1.3254286
-0.029105334 0.071017012 1.3280001
-0.11060026 0.084987573 1.3280001
-0.10454683 0.085101955 1.3276471
-0.095224522 0.085935801 1.3246253
-0.086682394 0.087551609 1.3227501
-0.075331971 0.089239404 1.322
-0.064325124 0.08873678 1.3260001
-0.054650962 0.085471056 1.3265001
-0.10390604 0.093428113 1.3280001
-0.096233457 0.093324229 1.3265001
-0.084987573 0.09197285 1.3280001
-0.07450965 0.09197285 1.3280001
-0.12081694 -0.051611118 1.3380001
-0.11768899 -0.051220123 1.3379999
0.0051161721 -0.055106007 1.3339375
0.011296433 -0.051028717 1.3330001
-0.12081694 -0.048092179 1.3380001
-0.11624297 -0.044127211 1.3363335
0.0070378799 -0.048092179 1.3380001
0.014051339 -0.044499982 1.3358572
-0.12222674 -0.03429487 1.3373752
-0.11718192 -0.036722865 1.3340001
0.018376688 -0.035971384 1.3380002
0.022203336 -0.033889305 1.3330001
-0.13020077 -0.025805559 1.3380001
-0.12603574 -0.026611876 1.3342501
0.01935417 -0.026978539 1.3380001
0.022203337 -0.029214917 1.3330001
-0.13020077 -0.01524874 1.3380001
-0.12633829 -0.01467238 1.3330001
-0.13020077 -0.0046919202 1.3380001
-0.12550727 -0.0046743872 1.3330001
0.065051876 -0.0011685967 1.3330001
0.075699098 -0.0029864139 1.3330001
0.081801772 -0.0035057899 1.3330001
-0.13020077 0.0046919202 1.3380001
-0.12659797 0.0054534511 1.3330001
0.066317856 0.0029214919 1.3330001
0.074790187 0.0041735596 1.3330001
0.080633171 0.0035057899 1.3330001
-0.13059177 0.015248739 1.3380002
-0.12610689 0.0156426 1.3352729
-0.13020077 0.026196554 1.3379999
-0.12581891 0.025838971 1.3330001
-0.13020077 0.035189398 1.3380001
-0.12603126 0.03524619 1.3352224
-0.13098276 0.045355227 1.3380002
-0.12519909 0.044462193 1.3346667
0.015191756 0.047522932 1.3330001
0.022203337 0.047912464 1.3330001
-0.13020077 0.0527841 1.3379999
-0.12423086 0.055247344 1.3348421
-0.11802826 0.058429834 1.3330001
-0.01051737 0.059598431 1.3330001
-0.0058429837 0.059598431 1.3330001
0.0055867042 0.055466309 1.3335557
0.01405019 0.051125884 1.3355001
0.023371935 0.050249655 1.3330001
-0.13020077 0.064513899 1.3380001
-0.12395021 0.065370761 1.3363335
-0.11685967 0.065441415 1.3330001
-0.012865521 0.065503873 1.3342501
-0.0046802312 0.064356096 1.3346667
0.0011685967 0.061935622 1.3330001
-0.12159893 0.073897742 1.3379999
-0.11675597 0.075998232 1.3337144
-0.04189888 0.076543696 1.335
-0.035101734 0.073716559 1.3346667
-0.025450589 0.074012987 1.336182
-0.017853975 0.073469713 1.3355001
-0.12081694 0.08093562 1.3380001
-0.11463259 0.084511101 1.3342501
-0.10867949 0.086476155 1.3330001
-0.054436177 0.087806933 1.3355
-0.045746218 0.08093562 1.3380001
-0.11412245 0.093264446 1.3365002
-0.10619972 0.098009698 1.3348751
-0.093326129 0.095672093 1.3363333
-0.085128427 0.094894491 1.3363334
-0.076103434 0.093665257 1.3355
-0.066859856 0.092665419 1.3380001
-0.12417545 -0.060313791 1.3490001
-0.13127118 -0.050852802 1.3490001
-0.12542994 -0.053620089 1.3472002
-0.13205959 -0.044151273 1.3490001
-0.12518886 -0.044557635 1.3446002
-0.1189137 -0.043562442 1.3430001
0.0061851023 -0.04331544 1.3445001
0.01059627 -0.041207716 1.3430001
-0.14073217 -0.03193083 1.3490001
-0.13467245 -0.035441224 1.3475003
-0.1268609 -0.036203921 1.3430002
0.00590698 -0.035450649 1.348
0.013502488 -0.034708787 1.3439233
-0.14073217 -0.024835089 1.3490001
-0.13564225 -0.024770217 1.3454002
0.0068000839 -0.026904682 1.3490001
0.014167521 -0.024926165 1.3470004
0.020059887 -0.02123725 1.3460001
-0.14167826 -0.013954955 1.3490001
-0.13560192 -0.0141494 1.3450003
0.01773935 -0.01773935 1.3490001
-0.142309 -0.0039420775 1.3490001
-0.13560192 -0.0047164666 1.3450001
-0.14382517 0.0053672907 1.3490002
-0.13560192 0.0047164666 1.3450001
-0.14372697 0.013850207 1.3485717
-0.13561083 0.014021328 1.3430003
-0.1429003 0.024046676 1.3490001
-0.13517937 0.024738437 1.3437504
-0.14363606 0.03578015 1.3477144
-0.13539678 0.0353209 1.3430003
-0.1439618 0.04483974 1.3460003
-0.13586774 0.044268861 1.3430002
-0.14343946 0.053987619 1.3485001
-0.13508186 0.054449435 1.3434619
0.015305723 0.050626624 1.3430001
-0.14250611 0.060905103 1.3490001
-0.13445701 0.064606436 1.3453337
-0.1283326 0.069464438 1.3430001
-0.011773633 0.069464438 1.3430001
-0.0059131165 0.069774777 1.3490001
-0.13386479 0.075883523 1.3476156
-0.12543449 0.075622953 1.3430003
-0.0353209 0.078883342 1.3430001
-0.024724629 0.078883342 1.3430001
-0.013753439 0.075069256 1.3450001
-0.0082783634 0.072140023 1.3490001
-0.12507421 0.085031919 1.3434002
-0.050626624 0.088302247 1.3430001
-0.04507469 0.08449015 1.3460001
-0.035624355 0.082562841 1.3481429
-0.025229298 0.081995219 1.3490001
-0.01773935 0.081601009 1.3490001
-0.12736148 -0.061896391 1.3577502
-0.13319021 -0.053516116 1.3565001
-0.12875165 -0.057443578 1.3556668
-0.14415818 -0.042890042 1.3590001
-0.13650578 -0.045106255 1.3540001
-0.14451954 -0.035779875 1.3562728
-0.14618446 -0.024957826 1.3556668
0.0071220398 -0.021366119 1.3540001
0.01068306 -0.020179113 1.3540001
-0.15130652 -0.01429668 1.3590001
-0.14615124 -0.014366735 1.3553637
0.0083090467 -0.017805099 1.3540001
0.013552916 -0.016878288 1.3560002
-0.15130652 -0.0047655599 1.3590001
-0.14605661 -0.0052258978 1.3545001
-0.15200962 0.005266137 1.356143
-0.14679316 0.0019783445 1.3540001
-0.15345663 0.014274396 1.3569168
-0.14837584 0.016618093 1.3540001
-0.15249792 0.025019189 1.3590001
-0.14696057 0.02612675 1.3546251
-0.15242833 0.035724714 1.3583751
-0.14892375 0.03335892 1.3590001
-0.15184806 0.044621963 1.3547144
-0.15074985 0.052228294 1.3540001
-0.14732581 0.055843011 1.3552501
0.017870849 0.053612549 1.3590001
0.021366119 0.053415298 1.3540001
-0.14472024 0.065079026 1.3558751
-0.13887978 0.073594414 1.3540001
-0.012265735 0.077155434 1.3540001
-0.0071220398 0.073594414 1.3540001
-0.14373095 -0.06422022 1.3649999
-0.13498212 -0.063901111 1.3649999
-0.14319913 -0.05444758 1.3649999
-0.13624714 -0.056242552 1.3649999
-0.15197454 -0.04188275 1.365
-0.14479466 -0.045814604 1.3649999
-0.15197454 -0.035899498 1.365
-0.14958125 -0.037096146 1.3650001
-0.1531712 -0.025129652 1.3649999
-0.15357009 -0.014359801 1.3649999
-0.15484652 -0.0040686103 1.365
-0.15755892 0.0043877163 1.3649999
-0.15915444 0.0143598 1.365
-0.15795779 0.02512965 1.3649999
-0.15778685 0.035728548 1.3649999
-0.15676115 0.04475471 1.365
-0.1531712 0.055045895 1.365
-0.14958125 0.063422449 1.365
-0.14654465 -0.072432652 1.3724
-0.15153885 -0.064503379 1.3734286
-0.14395244 -0.065370537 1.37
-0.13571677 -0.063654765 1.3700001
-0.15292443 -0.055389997 1.3735002
-0.14532503 -0.057049084 1.3700001
-0.15447453 -0.046139549 1.3730001
-0.16043702 -0.034982506 1.376
-0.15657404 -0.035433896 1.3726667
-0.16043702 -0.024125867 1.376
-0.15733537 -0.024020666 1.3700001
-0.16147098 -0.013958539 1.3760002
-0.15733537 -0.014412399 1.3700001
-0.16284959 -0.0048251729 1.376
-0.15853642 -0.0048041334 1.37
-0.16370086 0.0048146537 1.3730001
-0.17008735 0.015681813 1.376
-0.1649054 0.014442208 1.3730001
-0.16414241 0.023677014 1.3733335
-0.16265996 0.034051195 1.3710002
-0.15973744 0.037232034 1.3700001
-0.1618914 0.045744464 1.373
-0.15893675 0.046840299 1.3700002
-0.15361333 -0.082278378 1.3870001
-0.15339416 -0.074875802 1.3850001
-0.16171958 -0.063228711 1.3870001
-0.15728948 -0.06590984 1.3836668
-0.16302989 -0.055420235 1.3843334
-0.15859865 -0.055691127 1.381
-0.16449423 -0.045411956 1.3839999
-0.15859865 -0.049637742 1.381
-0.1659501 -0.034816694 1.3831431
-0.17144707 -0.024318732 1.3870001
-0.1661064 -0.0242486 1.383
-0.17193344 -0.014348052 1.3870001
-0.16683228 -0.014948044 1.3823334
-0.17144707 -0.0048637465 1.3870001
-0.16724633 -0.0053615682 1.3809999
-0.17144707 0.0048637465 1.3870001
-0.16828406 0.0048427065 1.381
-0.17070541 0.010896089 1.381
-0.17107624 0.021842148 1.3840001
-0.16828406 0.024213534 1.381
-0.16586271 0.036320303 1.381
-0.16300213 -0.094369657 1.3980001
-0.16335246 -0.085472897 1.3968002
-0.15886779 -0.084324807 1.3940001
