# .PCD v0.7 - Point Cloud Data file format
VERSION 0.7
FIELDS x y z
SIZE 4 4 4
TYPE F F F
COUNT 1 1 1
WIDTH 1448
HEIGHT 1
VIEWPOINT 0 0 0 1 0 0 0
POINTS 1448
DATA ascii
-0.10908539 -0.062643096 1.2320001
-0.11160668 -0.058512241 1.2360001
-0.10746121 -0.05426918 1.2340001
-0.13198042 -0.045437634 1.2340001
-0.10354559 -0.044661157 1.2340001
-0.097564816 -0.042842116 1.2320001
0.0072903601 -0.043472148 1.2320002
0.011880587 -0.043202132 1.2320001
-0.10077108 -0.036841039 1.2360001
-0.095271282 -0.036025874 1.2338462
-0.088924386 -0.032041583 1.2320001
-0.013184366 -0.03263795 1.2328001
-0.0059411693 -0.033130113 1.2323335
0.0053097312 -0.035877671 1.2334548
0.013455081 -0.036650177 1.2348573
-0.11269024 -0.02058764 1.2360001
-0.10943956 -0.02058764 1.2360001
-0.084246673 -0.026121663 1.234286
-0.075870231 -0.022046413 1.2328002
-0.066963308 -0.020521013 1.2320001
-0.020521013 -0.022681119 1.2320001
-0.015912753 -0.026110142 1.2337145
-0.0054178 -0.028172558 1.2360001
0.0010835599 -0.02817256 1.2360001
-0.10715438 -0.018400649 1.2346667
-0.072787881 -0.016721733 1.2351112
-0.065530039 -0.014833837 1.2327275
-0.059402931 -0.011880587 1.2320001
-0.02271677 -0.015144709 1.2340001
-0.062418669 -0.0090191467 1.2346667
-0.054630946 -0.0048660845 1.2340002
-0.046202287 -0.0027601363 1.2320002
-0.036181785 -0.0010800533 1.2320001
-0.026308179 -0.0055855359 1.2333335
-0.044096835 0.0020118246 1.2354287
-0.03492615 0.0034027195 1.2340002
-0.02925612 0.0032506799 1.2360001
-0.083314009 -0.20264588 1.245
-0.074655183 -0.203228 1.245
-0.067618176 -0.2039372 1.244
-0.09059035 -0.19100375 1.245
-0.084151641 -0.19470565 1.2444668
-0.077996328 -0.19608578 1.2426001
-0.094091065 -0.18393746 1.2447779
-0.086904623 -0.18606701 1.243
-0.096038438 -0.17611156 1.2435454
-0.088123411 -0.17951065 1.2410001
-0.10205057 -0.16208032 1.245
-0.099321947 -0.1680833 1.245
-0.10462328 -0.15482998 1.245
-0.11023645 -0.14079705 1.245
-0.10768974 -0.14589047 1.245
-0.11078218 -0.1353398 1.245
-0.10770639 -0.13708085 1.2410001
-0.13206545 -0.12115095 1.245
-0.12158753 -0.12377043 1.245
-0.11603029 -0.12475019 1.2431334
-0.13551213 -0.11483201 1.2450002
-0.12516984 -0.11469299 1.2448003
-0.13454349 -0.10532068 1.2436668
-0.12634793 -0.10549061 1.2437502
-0.13359655 -0.095423847 1.244
-0.12817816 -0.095449276 1.2443334
-0.13206545 -0.087315999 1.245
-0.12710351 -0.085098475 1.2445
-0.13206545 -0.079675846 1.245
-0.12342548 -0.075640313 1.243909
-0.12151477 -0.065123178 1.245
-0.11797892 -0.062806778 1.2444285
-0.13206545 -0.051298149 1.245
-0.12450926 -0.054152709 1.245
-0.11573939 -0.054664657 1.2440002
-0.13164115 -0.048957448 1.2410001
-0.12474972 -0.044631135 1.2446194
-0.11549224 -0.044671424 1.2428
-0.10867345 -0.043396853 1.2410001
-0.12278812 -0.037655026 1.245
-0.11441815 -0.034868542 1.2429998
-0.10535423 -0.034776952 1.2423335
-0.09737093 -0.032094326 1.2410001
0.0097914897 -0.031550355 1.2410001
0.015231206 -0.032094326 1.2410001
-0.1140058 -0.027439427 1.2428182
-0.10509623 -0.025237083 1.2417272
-0.095021605 -0.024890319 1.2435
-0.086767495 -0.022144891 1.2423334
-0.012692672 -0.021396218 1.2410001
-0.0054476648 -0.022873927 1.2426
0.0057919524 -0.024821525 1.2424734
0.013461216 -0.028013883 1.245
-0.10195839 -0.015237634 1.2416668
-0.095284507 -0.015637886 1.2445557
-0.085196823 -0.016031334 1.2446923
-0.076571397 -0.01417903 1.2442
-0.068540432 -0.011967377 1.2410001
-0.01534241 -0.015513022 1.2434615
-0.00109145 -0.01855465 1.245
0.0032743502 -0.01855465 1.245
-0.096047603 -0.0098230503 1.245
-0.07094425 -0.0098230503 1.245
-0.064677835 -0.0073247999 1.2444285
-0.056755401 -0.0021829 1.245
-0.021119425 -0.0036997087 1.2418001
-0.018539747 -0.0065408102 1.244
-0.051970843 0.0018179143 1.2436666
-0.043332975 0.0059972769 1.2435
-0.035599682 0.0090808058 1.243
-0.024203988 0.0059312345 1.2425555
-0.033834945 0.015280302 1.245
-0.027484696 0.014982632 1.245
-0.09271276 -0.22184838 1.2590001
-0.087746009 -0.22240025 1.2590001
-0.10043883 -0.21191487 1.2590001
-0.094231509 -0.21459846 1.2575884
-0.085088484 -0.21529645 1.2551112
-0.075730629 -0.21397439 1.2565
-0.068213433 -0.21234182 1.2550001
-0.10228533 -0.20378177 1.2584286
-0.094520122 -0.20441806 1.2536252
-0.086132511 -0.20579748 1.25
-0.076269992 -0.20798919 1.25
-0.06739375 -0.20766041 1.25
-0.10483328 -0.19533256 1.2574002
-0.094813973 -0.19510791 1.2503126
-0.088762499 -0.19615416 1.25
-0.11147606 -0.18542552 1.2590001
-0.10529859 -0.18492572 1.2534119
-0.098625004 -0.18738748 1.25
-0.1057786 -0.17526661 1.253889
-0.11147606 -0.1611436 1.2590001
-0.10587917 -0.16594873 1.2524287
-0.11344074 -0.15348798 1.2562727
-0.10769763 -0.15726963 1.251
-0.14238031 -0.14017287 1.2590001
-0.13575797 -0.1423803 1.2589999
-0.12104166 -0.14090867 1.2590001
-0.11464298 -0.14544217 1.2549335
-0.14316869 -0.13418122 1.2589999
-0.13461147 -0.13417336 1.2565334
-0.12483139 -0.13379817 1.2553571
-0.11630298 -0.13533482 1.2523335
-0.14515676 -0.12504119 1.2582941
-0.13487735 -0.12512201 1.2519444
-0.12622006 -0.12522386 1.25
-0.14428021 -0.11537616 1.255
-0.13040416 -0.11725417 1.25
-0.14343487 -0.10499398 1.2559091
-0.13917083 -0.10300833 1.25
-0.14342749 -0.094881192 1.2585
-0.13855772 -0.09465535 1.251875
-0.14219636 -0.08443483 1.2589999
-0.1348246 -0.084930018 1.2516668
-0.14365061 -0.076014541 1.2566
-0.13463095 -0.075022638 1.2523811
-0.12727322 -0.074047022 1.25
-0.14017287 -0.06953457 1.2590001
-0.13337168 -0.066058718 1.2528572
-0.12617736 -0.064341076 1.25
-0.13040416 -0.058079164 1.25
-0.12748195 -0.055156942 1.25
-0.1282125 -0.049312498 1.25
-0.12382916 -0.035066664 1.25
-0.11944583 -0.031779166 1.25
0.008766667 -0.020820834 1.25
0.016140373 -0.023971511 1.2510713
0.020862475 -0.026350409 1.2525001
-0.092050001 -0.012054167 1.25
-0.085109718 -0.012054167 1.25
-0.079995833 -0.012054167 1.25
-0.01315 -0.012054167 1.25
-0.0057193278 -0.01518733 1.2518423
0.0058710887 -0.014772864 1.2511767
0.015183455 -0.015324892 1.2548668
-0.1019125 -0.0098625002 1.25
-0.094794527 -0.0058288188 1.252
-0.085019782 -0.005201187 1.2538699
-0.075419933 -0.0055916728 1.2537619
-0.065632194 -0.0031218098 1.2525386
-0.058079164 -0.0010958334 1.25
-0.01454905 -0.0052125505 1.2527502
-0.0051115244 -0.0085172961 1.2575454
0.0051957523 -0.0078707123 1.2572858
0.015452126 -0.0099335099 1.2590001
-0.084986694 0.0011037233 1.2590001
-0.071742013 0.0011037233 1.2590001
-0.064351715 0.0014710467 1.2583333
-0.055031072 0.0049561621 1.2554168
-0.047034822 0.0081875799 1.2541111
-0.020820834 0.0098625002 1.25
-0.016507318 0.0047189086 1.255643
-0.042492032 0.014972063 1.2556001
-0.038354166 0.015341667 1.25
-0.022281945 0.015706945 1.25
-0.017783182 0.014951048 1.2567145
-0.034799188 0.024912821 1.2534447
-0.025934223 0.024684928 1.2551429
-0.018763296 0.020970743 1.2590001
-0.034215424 0.032007977 1.2590001
-0.10249076 -0.23143789 1.268
-0.094487131 -0.23177139 1.2679999
-0.087076373 -0.23084503 1.268
-0.11004972 -0.22232267 1.268
-0.10443182 -0.22441369 1.2672499
-0.096002333 -0.22494568 1.2640001
-0.084303774 -0.22481476 1.2653333
-0.075762942 -0.22262773 1.2671999
-0.067808412 -0.22121105 1.268
-0.12190693 -0.21083599 1.268
-0.11356009 -0.2136053 1.2679999
-0.10473361 -0.21548519 1.2651428
-0.098621495 -0.21718889 1.2640001
-0.073003188 -0.21813008 1.2656001
-0.068404548 -0.21704979 1.2653333
-0.12318697 -0.20423366 1.2679999
-0.11542808 -0.20421599 1.2659999
-0.10663397 -0.20619307 1.2640001
-0.12338909 -0.19453233 1.2679999
-0.11524311 -0.19502679 1.2640001
-0.10970256 -0.19835109 1.2640001
-0.12227747 -0.18563943 1.268
-0.116191 -0.18495803 1.26525
-0.12227747 -0.17007683 1.268
-0.11569585 -0.17477112 1.2662221
-0.12357435 -0.16414823 1.2679999
-0.11545197 -0.16506736 1.26475
-0.15006781 -0.15117942 1.268
-0.14339812 -0.15266158 1.268
-0.13398211 -0.15412195 1.2679999
-0.12468401 -0.15492709 1.2673331
-0.11768093 -0.15668628 1.2640001
-0.15311821 -0.14398998 1.2666667
-0.14478832 -0.1446775 1.2646
-0.1346076 -0.14680591 1.2648
-0.12544933 -0.14504533 1.2640001
-0.15546353 -0.13456547 1.2661176
-0.1484863 -0.13629711 1.2640001
-0.1318647 -0.13851333 1.2640001
-0.12743227 -0.13851333 1.2640001
-0.1540098 -0.12501165 1.2651428
-0.1495944 -0.12854037 1.2640001
-0.15295203 -0.11628634 1.2673334
-0.1495944 -0.11413499 1.2640001
-0.15051246 -0.10382469 1.268
-0.14782144 -0.10527013 1.2640001
-0.15312473 -0.094209231 1.268
-0.1484863 -0.095297173 1.2640001
-0.15247138 -0.085202478 1.2668571
-0.14778115 -0.085525699 1.2640001
-0.0058593899 -0.0031667708 1.2648572
0.005542988 -0.0026598065 1.2644
0.015124474 -0.0044370294 1.2662499
0.022591701 -0.0059245136 1.2673334
-0.091761053 0.0028894935 1.2672
-0.084145963 0.0055457936 1.265
-0.075286165 0.0048556374 1.26525
-0.065410666 0.00554431 1.2646154
-0.05651344 0.0088648535 1.2640001
-0.011923982 0.0055444781 1.2654999
-0.0051875287 0.0018526888 1.268
0.0048155296 0.0035198163 1.2676666
0.010004519 0.0022232267 1.268
-0.083815649 0.013561683 1.2679999
-0.075589702 0.011783101 1.2679999
-0.064473569 0.011116133 1.268
-0.054763108 0.012539838 1.2674285
-0.047396611 0.015694337 1.2657144
-0.013688858 0.014923204 1.2662222
-0.04246968 0.023595044 1.2665
-0.038783733 0.027702667 1.2640001
-0.022162134 0.028810773 1.2640001
-0.016662279 0.024440061 1.2671999
-0.03470394 0.035399579 1.2667499
-0.025256328 0.034976371 1.2664999
-0.018897427 0.032236785 1.268
-0.030013559 0.041129693 1.268
-0.027790334 0.041129693 1.268
-0.11231811 -0.2349997 1.278
-0.10590951 -0.23504154 1.2746665
-0.095483027 -0.23721226 1.2763333
-0.08487054 -0.23339599 1.2738333
-0.0784266 -0.23191866 1.2780001
-0.12212142 -0.22183523 1.2780001
-0.11482605 -0.22549069 1.2751428
-0.081467755 -0.22877932 1.273
-0.07487113 -0.22721885 1.2746667
-0.068075798 -0.22431533 1.273
-0.13108446 -0.21175182 1.2780001
-0.12519062 -0.214608 1.2749999
-0.11792364 -0.21836334 1.2729999
-0.14004751 -0.20166841 1.2780001
-0.13430253 -0.20432563 1.2773334
-0.12789321 -0.20601299 1.273
-0.14100783 -0.19510616 1.278
-0.13418756 -0.19518538 1.2774117
-0.12833962 -0.19529942 1.273
-0.14116788 -0.1848627 1.278
-0.13436778 -0.18475333 1.2772499
-0.12633082 -0.18458584 1.2729999
-0.14049566 -0.17410704 1.2780001
-0.13444561 -0.1747793 1.278
-0.12523961 -0.17570747 1.2730001
-0.16021433 -0.1624551 1.2780001
-0.15517263 -0.16301528 1.278
-0.14428005 -0.16506931 1.278
-0.1343815 -0.16573623 1.277375
-0.12778161 -0.16628349 1.273
-0.1624551 -0.15349206 1.278
-0.15443559 -0.15488081 1.2746665
-0.14578976 -0.1565439 1.2729999
-0.135482 -0.15914111 1.273
-0.16433035 -0.14544959 1.2776428
-0.15799324 -0.14555785 1.2729999
-0.1631685 -0.13483036 1.2757777
-0.15958752 -0.13949959 1.273
-0.1624551 -0.12548256 1.2780001
-0.15958752 -0.12499163 1.273
-0.16077453 -0.11651953 1.2780001
-0.15658633 -0.11436571 1.2739999
-0.15479513 -0.10589685 1.2748749
-0.15512353 -0.095975712 1.273
-0.097091712 -0.0011159966 1.273
0.01673995 -0.0011159966 1.273
0.022691933 -0.0018599943 1.273
-0.092718668 0.0061456524 1.27425
-0.01004397 0.0078119766 1.273
-0.0040175878 0.0060263816 1.2729999
0.0033479899 0.0072539784 1.273
0.015022705 0.0047195354 1.2743889
0.022183523 0.002912988 1.2780001
-0.090750776 0.01008342 1.2780001
-0.084975734 0.014545215 1.2755001
-0.073876493 0.015913857 1.2753075
-0.064812548 0.016764788 1.2746665
-0.055284217 0.01711132 1.2749231
-0.010498259 0.014521105 1.2739999
-0.0055935709 0.012311468 1.2765
0.0041964939 0.011469101 1.276125
0.01008342 0.01008342 1.2780001
-0.063861661 0.02128722 1.2780001
-0.050417099 0.02128722 1.2780001
-0.04631009 0.024389217 1.276
-0.012870125 0.024620965 1.2767501
-0.041454058 0.032491017 1.2780001
-0.039136592 0.038020596 1.2755001
-0.02343593 0.037943885 1.273
-0.016349675 0.034835864 1.2743635
-0.033058599 0.042959422 1.2751428
-0.024385711 0.043629073 1.2759999
-0.0182747 0.042146921 1.2763335
-0.10689255 -0.25255248 1.2880001
-0.12464041 -0.24259283 1.2880001
-0.11474507 -0.24476701 1.2866365
-0.10522702 -0.24541014 1.2860558
-0.097231686 -0.24289103 1.2846667
-0.13361569 -0.23410976 1.2880001
-0.12504861 -0.23431544 1.2850002
-0.11685041 -0.23582537 1.2830001
-0.10685252 -0.23957458 1.2830001
-0.097854413 -0.23957458 1.2830001
-0.073486194 -0.23373111 1.2852224
-0.066990264 -0.2313657 1.2842501
-0.13549758 -0.22357105 1.2880001
-0.12624894 -0.22582939 1.2850001
-0.11810015 -0.22832696 1.2830001
-0.071984857 -0.22832696 1.2830001
-0.06636104 -0.22832696 1.2830001
-0.14157093 -0.21263921 1.2867501
-0.13556738 -0.21456963 1.2845385
-0.12859794 -0.21857901 1.2830001
-0.14407387 -0.20469026 1.2848183
-0.13609636 -0.20808122 1.2830001
-0.15017651 -0.19082579 1.2880001
-0.14612128 -0.19486141 1.2848182
-0.15017651 -0.18518005 1.2880001
-0.14636278 -0.1846398 1.28425
-0.17163028 -0.17275943 1.2880001
-0.16427752 -0.17443193 1.2870001
-0.15477511 -0.17491454 1.2872308
-0.14621924 -0.17546308 1.2830001
-0.17163028 -0.16410266 1.2880001
-0.16505849 -0.16558625 1.2838826
-0.15446751 -0.16871451 1.2830001
-0.14809383 -0.16908942 1.2830001
-0.17393953 -0.15512919 1.2874446
-0.16758975 -0.15634212 1.2830001
-0.17346506 -0.14490481 1.2857778
-0.16946435 -0.14434463 1.2830001
-0.1732111 -0.13572344 1.2880001
-0.16871449 -0.13497159 1.2830001
-0.17050114 -0.12646443 1.2880001
-0.16659559 -0.12494429 1.284
-0.16447406 -0.1149047 1.2850001
-0.16279717 -0.10619817 1.286
-0.15859163 -0.10347823 1.2830001
-0.16146797 -0.098235756 1.2880001
-0.15859163 -0.096729651 1.2830001
-0.097181655 0.0047371564 1.286
0.024110261 0.0051774182 1.2850001
-0.093355358 0.01012287 1.2830001
-0.076483905 0.019120976 1.2830001
-0.01012287 0.019120976 1.2830001
-0.0033782353 0.016893806 1.2845
0.0046949149 0.01671431 1.2850834
0.01466652 0.014669947 1.2869133
0.022338696 0.011961064 1.2870001
-0.081138566 0.022541292 1.2855
-0.074720159 0.024600709 1.2856472
-0.065361813 0.024991661 1.2840002
-0.055709243 0.02479155 1.2852225
-0.047737714 0.027442297 1.2863334
-0.010704977 0.02479301 1.2855
-0.0071512624 0.02220655 1.2880001
0.0047424161 0.021905443 1.2880001
0.01354976 0.021453787 1.2880001
-0.072942868 0.03139028 1.2880001
-0.065974429 0.031454798 1.2880001
-0.058715627 0.03048696 1.2880001
-0.043951247 0.032683887 1.2855
-0.012763389 0.035667185 1.2846667
-0.035931222 0.046164311 1.2843637
-0.024519842 0.047914915 1.2830001
-0.016146936 0.045444354 1.2852223
-0.033196911 0.051263262 1.2880001
-0.024350993 0.052539337 1.286
-0.018417889 0.051498611 1.2863334
-0.11256663 -0.2603814 1.2970001
-0.13758144 -0.25242215 1.2970001
-0.12507403 -0.25128511 1.2970001
-0.11507214 -0.25399211 1.2953333
-0.1042041 -0.25258169 1.2920001
-0.14212959 -0.24446289 1.2970001
-0.13530011 -0.24533352 1.2946316
-0.12459187 -0.24805108 1.2920001
-0.11553064 -0.24805108 1.2920001
-0.14389056 -0.23499566 1.296091
-0.13705105 -0.23604496 1.2919999
-0.14401799 -0.22523507 1.295077
-0.13591839 -0.22804087 1.2919999
-0.14606182 -0.21542402 1.2951818
-0.15178958 -0.20364849 1.2953334
-0.14724493 -0.20840821 1.2920001
-0.1541035 -0.19513488 1.2946923
-0.17442141 -0.18124363 1.2970001
-0.16375951 -0.18372571 1.2959287
-0.15574843 -0.18476716 1.293
-0.18154685 -0.17434561 1.2970001
-0.17592543 -0.1752432 1.293
-0.16801025 -0.17556126 1.2920001
-0.15857147 -0.17782657 1.2920001
-0.18164161 -0.16572309 1.2970001
-0.17654575 -0.16595776 1.2936666
-0.18154685 -0.15501599 1.2970001
-0.17782657 -0.15517351 1.2920001
-0.18154685 -0.1455407 1.2970001
-0.17782657 -0.14497963 1.2920001
-0.18078883 -0.13871847 1.2970001
-0.17667384 -0.13426 1.2934999
-0.17436856 -0.12495349 1.29575
-0.17196123 -0.11552202 1.2961668
-0.16876535 -0.11439798 1.2920001
-0.16702594 -0.10463685 1.293875
-0.16373327 -0.09778516 1.2970001
-0.15970412 -0.094010226 1.2920001
-0.13075921 -0.030699991 1.2970001
-0.12723473 -0.031336743 1.2920001
-0.12575625 -0.027516287 1.2970001
-0.10347033 -0.0011370367 1.2970001
-0.10202787 0.0029554185 1.2960001
-0.098540843 0.0079285735 1.2920001
-0.097598866 0.010213604 1.2945001
0.019255107 0.019255107 1.2920001
0.022879597 0.017442862 1.2920001
-0.080418386 0.026051026 1.2920001
-0.05116665 0.028425917 1.2970001
-0.01019388 0.028316334 1.2920001
-0.0039240951 0.025561307 1.2935385
0.0044316296 0.026296014 1.2938181
0.014603616 0.025144033 1.2931764
0.022151394 0.023288431 1.29575
-0.073281616 0.03562317 1.294
-0.064099021 0.035738852 1.2940832
-0.054541964 0.033522125 1.2961667
-0.047187019 0.032974064 1.2970001
-0.01020966 0.035171866 1.294
-0.0079592569 0.032974064 1.2970001
0.00682222 0.030699991 1.2970001
0.011370366 0.030699991 1.2970001
-0.013025513 0.046438783 1.2920001
-0.033289518 0.054852303 1.2945
-0.025673473 0.057010215 1.2919999
-0.015885638 0.054472994 1.2945
-0.02387777 0.061399981 1.2970001
-0.018571598 0.06102097 1.2970001
-0.14495391 -0.26129052 1.3053334
-0.13427915 -0.26169059 1.306375
-0.12603837 -0.26238897 1.307
-0.11756626 -0.26195589 1.302
-0.15173709 -0.25453201 1.307
-0.1435736 -0.25532916 1.3027143
-0.13451613 -0.25542822 1.3033637
-0.12555619 -0.25681949 1.302
-0.11813697 -0.25853163 1.302
-0.15124604 -0.2452019 1.307
-0.14620551 -0.24665047 1.302
-0.15285017 -0.23351471 1.307
-0.14876507 -0.23589344 1.302
-0.15331903 -0.22425362 1.3051251
-0.14952601 -0.22485974 1.302
-0.15317219 -0.21489763 1.3038751
-0.14952601 -0.21801122 1.302
-0.16384988 -0.20166138 1.307
-0.1561957 -0.20533668 1.3036667
-0.17129759 -0.19306786 1.307
-0.16448474 -0.19475374 1.3029376
-0.15865737 -0.19860709 1.302
-0.18373547 -0.18282059 1.3050001
-0.17494369 -0.18637781 1.3042728
-0.16664732 -0.18719287 1.302
-0.19134915 -0.17301631 1.307
-0.18674271 -0.17532194 1.3028334
-0.19134915 -0.16499567 1.307
-0.18650803 -0.16390792 1.302
-0.19134915 -0.15468344 1.307
-0.18673982 -0.15455897 1.3024546
-0.19134915 -0.14551701 1.307
-0.18637861 -0.14500347 1.3042728
-0.18342008 -0.13507292 1.304143
-0.18283045 -0.12633775 1.3061668
-0.17893718 -0.12411102 1.3028334
-0.17681544 -0.11527553 1.3042728
-0.17268756 -0.10521228 1.3045001
-0.17039813 -0.098348409 1.3045001
-0.16634381 -0.096784174 1.3050001
-0.13711448 -0.040866982 1.307
-0.13386886 -0.034325335 1.3051251
-0.13227922 -0.025921134 1.3045001
-0.12560573 -0.023521578 1.3025
-0.1198491 -0.02396982 1.302
-0.12348233 -0.017010771 1.307
-0.11475752 -0.014084318 1.3067057
-0.1084349 -0.0114142 1.302
-0.11348378 -0.0051502706 1.3053335
-0.10641935 -0.0041095512 1.3025
-0.11114293 0.0022916067 1.307
-0.10604694 0.0050296998 1.3035001
-0.10337275 0.011826817 1.3053334
-0.095328927 0.013836527 1.3031112
-0.084261917 0.025993604 1.3032501
0.019404139 0.0285355 1.302
-0.082992941 0.031480003 1.30575
-0.076475136 0.034813307 1.302
-0.065060936 0.0399497 1.302
-0.054298978 0.038971338 1.302
-0.046512865 0.037952214 1.302
-0.0037788379 0.03454984 1.3035386
0.0042458219 0.03479252 1.304143
0.014726012 0.034255926 1.3053334
0.021770263 0.03093669 1.307
-0.072185613 0.042394724 1.307
-0.064677618 0.044072881 1.30575
-0.054998562 0.043540522 1.307
-0.044668309 0.043904439 1.3064445
-0.01027278 0.0456568 1.302
-0.0059373449 0.043019708 1.307
-0.0342426 0.057071 1.302
-0.011588531 0.055992194 1.3034286
-0.0080206236 0.051561151 1.307
-0.03093669 0.060727578 1.307
-0.025546748 0.065201692 1.3047777
-0.01628105 0.065217391 1.3050771
-0.16279437 -0.25323567 1.317
-0.15729226 -0.25281623 1.3128334
-0.16147485 -0.24427404 1.317
-0.15656449 -0.24489157 1.3142222
-0.16163979 -0.23553228 1.317
-0.15621291 -0.23561412 1.3126252
-0.16228122 -0.22488457 1.317
-0.15834236 -0.22620337 1.3120002
-0.16048522 -0.21475002 1.317
-0.15757558 -0.21508491 1.312
-0.17203093 -0.20204975 1.317
-0.16594246 -0.20570169 1.3145001
-0.15987594 -0.2070336 1.312
-0.19050404 -0.19165862 1.317
-0.1847312 -0.1928132 1.317
-0.17586593 -0.19618692 1.3142728
-0.19367681 -0.18419245 1.3158889
-0.18584445 -0.18699464 1.3126252
-0.17827894 -0.1897808 1.312
-0.19548148 -0.17550787 1.3142223
-0.19607595 -0.16533613 1.3147779
-0.19573706 -0.15502506 1.3142225
-0.19475341 -0.14519894 1.3145
-0.1897808 -0.14147297 1.312
-0.19128129 -0.1363641 1.3160001
-0.18771859 -0.13473986 1.3136667
-0.18624434 -0.12432636 1.3148572
-0.18327919 -0.11576208 1.3148572
-0.18126749 -0.10968415 1.317
-0.17709488 -0.10395064 1.3138751
-0.17374763 -0.09621837 1.316
-0.1662908 -0.092552222 1.3142223
-0.16462749 -0.086352937 1.3165456
-0.15815066 -0.082813442 1.312
-0.16048522 -0.079665333 1.317
-0.15471238 -0.073315188 1.317
-0.15330124 -0.064784206 1.317
-0.14692393 -0.06307777 1.3161666
-0.15182595 -0.057151213 1.317
-0.14727639 -0.055242371 1.315889
-0.14481264 -0.045193378 1.3166155
-0.13917258 -0.042556908 1.312
-0.14247394 -0.035329841 1.317
-0.13840578 -0.034505602 1.3120002
-0.13709828 -0.025840253 1.3141431
-0.13221291 -0.01684182 1.316
-0.12593561 -0.012656437 1.3125558
-0.12337082 -0.0053442405 1.315182
-0.11789413 -0.0028754666 1.312
-0.12122985 0.00115457 1.317
-0.11515559 0.0042966232 1.3147273
-0.10926773 0.0080513069 1.312
-0.112763 0.011160843 1.317
-0.10492999 0.01550648 1.3153335
-0.094499402 0.018438052 1.3145001
-0.088564374 0.018402986 1.312
-0.09267351 0.024996202 1.3158889
-0.088564374 0.025304105 1.312
-0.091211028 0.032327957 1.317
-0.085678875 0.034708887 1.3147779
-0.0787948 0.037285801 1.3153334
0.018019591 0.037189368 1.312
0.021853546 0.035655785 1.312
-0.070161387 0.047157653 1.312
-0.063260265 0.048691232 1.312
-0.055233613 0.048331399 1.3126252
-0.046219371 0.047211505 1.3134286
-0.0029393658 0.046902053 1.3120002
0.0043490459 0.044386998 1.3131111
0.014165305 0.04265083 1.3148572
0.02193683 0.041564517 1.317
-0.070161387 0.055208959 1.312
-0.063983843 0.054473981 1.3151251
-0.056573927 0.051955651 1.317
-0.041128527 0.053429324 1.3153334
-0.036946237 0.057728499 1.317
-0.0057569607 0.054423578 1.3138752
-0.031903651 0.063420989 1.3153334
-0.028754666 0.067861013 1.312
-0.01127972 0.064690456 1.3130001
-0.0080819903 0.062346779 1.317
-0.024430787 0.072874919 1.3156365
-0.016141333 0.073800437 1.3153335
-0.16457137 -0.25149286 1.322
-0.17302319 -0.2448252 1.327143
-0.16650298 -0.24608442 1.322
-0.17211026 -0.23490807 1.3265001
-0.16701807 -0.23578262 1.322
-0.17113936 -0.22702162 1.3280001
-0.16718756 -0.22441517 1.3233334
-0.16572763 -0.21551466 1.3236365
-0.19209521 -0.20140891 1.3280001
-0.18399404 -0.20260945 1.327143
-0.17529981 -0.20490572 1.32425
-0.16804823 -0.20977055 1.322
-0.21072261 -0.19325942 1.3280001
-0.20340471 -0.19375837 1.3280001
-0.19504547 -0.19466002 1.323
-0.18620516 -0.19740838 1.322
-0.21072261 -0.18976678 1.3280001
-0.20417847 -0.18574904 1.3248
-0.19760154 -0.18717097 1.322
-0.20371346 -0.17614312 1.3248001
-0.20049892 -0.16457137 1.322
-0.2011466 -0.15427649 1.3232
-0.20110558 -0.1476289 1.3260001
-0.19789733 -0.14314213 1.3232
-0.19422609 -0.1342539 1.324
-0.1924374 -0.1262245 1.325
-0.1889094 -0.1216901 1.322
-0.19209521 -0.11991397 1.3280001
-0.18704359 -0.11447813 1.3228571
-0.18314473 -0.10531601 1.325
-0.17963776 -0.10082894 1.322
-0.18045306 -0.096629709 1.3280001
-0.17655492 -0.093993947 1.3237144
-0.17269072 -0.087621786 1.3256
-0.16726799 -0.082469791 1.325
-0.16319518 -0.075213544 1.3236365
-0.15761767 -0.075331971 1.322
-0.16182566 -0.068688586 1.3280001
-0.15824419 -0.064223431 1.324
-0.15548542 -0.0550946 1.3246666
-0.15244064 -0.044875983 1.324
-0.14904138 -0.043344855 1.322
-0.15076561 -0.036672719 1.3280001
-0.14638455 -0.034313984 1.3237144
-0.14259133 -0.025397535 1.3254286
-0.13791545 -0.022020113 1.322
-0.1412082 -0.016979631 1.3268001
-0.13514939 -0.014164479 1.3244001
-0.13280173 -0.0058158068 1.327143
-0.12783343 -0.0030143308 1.3232
-0.13155611 0.0023284266 1.3280001
-0.12520823 0.0045592058 1.3252308
-0.11859956 0.0073400377 1.322
-0.12301854 0.011254062 1.3280001
-0.11502995 0.015399197 1.3253752
-0.10662371 0.018543255 1.322
-0.1113764 0.022896195 1.3280001
-0.10429388 0.025323745 1.3248
-0.097517647 0.025993666 1.3219999
-0.10186867 0.03318008 1.3280001
-0.095719472 0.035171114 1.3245716
-0.086921491 0.038245458 1.322
-0.093137063 0.040747467 1.3280001
-0.084867805 0.044093911 1.326154
-0.078808837 0.042881276 1.322
-0.04867604 0.049834993 1.322
0.00695372 0.049834993 1.322
0.016106509 0.047798596 1.3226668
0.022020113 0.046358131 1.322
-0.080330722 0.051225387 1.3280001
-0.077649876 0.052152898 1.322
-0.06316296 0.058527142 1.322
-0.055072699 0.056737363 1.3245715
-0.045660082 0.055808149 1.3227503
-0.038245458 0.059106618 1.322
-0.0028153523 0.057158165 1.3228571
0.0044226074 0.055617832 1.3272001
0.015134772 0.052622437 1.3280001
-0.061703306 0.062867522 1.3280001
-0.054718025 0.062867515 1.3280001
-0.044369463 0.063255593 1.3280001
-0.03528174 0.064999968 1.3266667
-0.01043058 0.068378247 1.322
-0.0043780734 0.065174237 1.3256924
0.0023284266 0.061703306 1.3280001
-0.031433761 0.072181225 1.3280001
-0.026362371 0.077417932 1.3237144
-0.013453327 0.077254675 1.3232
-0.0066896244 0.073596388 1.32725
-0.025203936 0.085067406 1.3268
-0.015626485 0.085508704 1.3259997
-0.022120053 0.093137063 1.3280001
-0.018045306 0.092554957 1.3280001
-0.18298489 -0.2404609 1.3380001
-0.17698358 -0.24282527 1.3344287
-0.1846792 -0.23602965 1.3380002
-0.17749371 -0.23439007 1.3355001
-0.1749184 -0.2243226 1.3355001
-0.17488644 -0.21524845 1.336077
-0.20326068 -0.20259039 1.3380002
-0.19489281 -0.2054356 1.3360002
-0.18556885 -0.20752496 1.3355001
-0.1776267 -0.20917881 1.3330001
-0.2077765 -0.19609052 1.3330001
-0.19866143 -0.19983003 1.3330001
-0.21251766 -0.18413745 1.3330001
-0.20917881 -0.18463826 1.3330001
-0.21151599 -0.1776267 1.3330001
-0.20762207 -0.1725291 1.3342501
-0.21230938 -0.15366037 1.3380001
-0.20728622 -0.15341304 1.3358573
-0.20519319 -0.14507762 1.3357779
-0.20175257 -0.13606568 1.3380001
-0.19857588 -0.13448593 1.3340001
-0.19515564 -0.12270266 1.3330001
-0.19357871 -0.11633384 1.335
-0.18814406 -0.11101668 1.3330001
-0.18750256 -0.10547067 1.33675
-0.18276045 -0.094469607 1.335143
-0.17552444 -0.084962055 1.3357779
-0.16944651 -0.080633171 1.3330001
-0.17148969 -0.07483612 1.3380001
-0.16827792 -0.074790187 1.3330001
-0.16437051 -0.066049322 1.335143
-0.16092725 -0.055045895 1.3360001
-0.15776055 -0.051418252 1.3330001
-0.15709703 -0.044668797 1.3358573
-0.15454626 -0.03512365 1.3355001
-0.1525742 -0.026962886 1.3372859
-0.14756918 -0.025233347 1.3344287
-0.14609636 -0.015232555 1.3364615
-0.139063 -0.012854564 1.3330001
-0.14413109 -0.0047909836 1.3366365
-0.13741904 -0.0037698618 1.3346667
-0.13606495 0.0049535036 1.3353078
-0.12971424 0.0070115803 1.3330001
-0.13371971 0.01114331 1.3380001
-0.12457056 0.015223755 1.3355001
-0.11802826 0.018697545 1.3330001
-0.11356646 0.025759535 1.3355001
-0.10867949 0.029214917 1.3330001
-0.11122489 0.03277988 1.3355
-0.10624725 0.035678357 1.3342501
-0.10257409 0.04173401 1.3346667
-0.095736735 0.044005863 1.3350002
-0.08881335 0.045575269 1.3330001
-0.090319462 0.05043814 1.3380001
-0.085362345 0.051449668 1.3338333
0.0081801768 0.059598431 1.3330001
0.014994824 0.057747141 1.3343638
-0.054404669 0.067648754 1.3330001
-0.044261646 0.067982487 1.3337144
-0.037784625 0.068168133 1.3330001
-0.0011685967 0.068947203 1.3330001
0.0050154733 0.066033974 1.3347857
0.014343414 0.064856946 1.3376155
-0.053854067 0.072200075 1.3355001
-0.04457324 0.071551777 1.3380001
-0.034670237 0.074724779 1.3360002
-0.0028392731 0.075371161 1.3344287
0.0023459599 0.071551777 1.3380001
0.017594701 0.071551777 1.3380001
-0.031670459 0.082108602 1.3380001
-0.0293245 0.086800516 1.3380001
-0.01051737 0.087644748 1.3330001
-0.0063152434 0.08376576 1.3345001
-0.025194963 0.094924808 1.3367501
-0.015205918 0.096205197 1.3345386
-0.0082108602 0.091492444 1.3380001
-0.016812714 0.10283124 1.3379999
-0.19040236 -0.23297679 1.3490001
-0.1857686 -0.23250397 1.344
-0.18193246 -0.22545387 1.3451819
-0.20222859 -0.21168958 1.3490001
-0.19496138 -0.21197434 1.3478
-0.18430583 -0.21494357 1.3442001
-0.2058337 -0.206508 1.3438572
-0.21310276 -0.15187986 1.3430001
-0.21275383 -0.14438435 1.3445002
-0.20760839 -0.14089115 1.3430001
-0.21358177 -0.13742083 1.3490001
-0.20576625 -0.13468397 1.3463334
-0.20222859 -0.12772331 1.3490001
-0.19941887 -0.12507403 1.3460001
-0.19308758 -0.11302688 1.3430001
-0.19169338 -0.10666724 1.3470001
-0.18837813 -0.10243061 1.3430001
-0.18682118 -0.094292954 1.3445001
-0.18251435 -0.085599363 1.348143
-0.17778187 -0.082415432 1.3430001
-0.18094137 -0.079235762 1.3490001
-0.17665213 -0.075144067 1.3463334
-0.17371207 -0.066842251 1.3462728
-0.16757151 -0.063397899 1.3442
-0.16492935 -0.05510493 1.3470001
-0.16262129 -0.045332305 1.3455715
-0.16183925 -0.035435308 1.3475001
-0.15835539 -0.033554856 1.3430001
-0.1620837 -0.028649174 1.3430001
-0.15656886 -0.023767604 1.3445002
-0.15510651 -0.014482786 1.3447144
-0.14834777 -0.01059627 1.3430001
-0.15305723 -0.0082415435 1.3430001
-0.14834777 -0.0082415435 1.3430001
-0.14010623 0.0058868164 1.3430001
-0.14052352 0.013781493 1.3470001
-0.13454051 0.015519791 1.3430003
-0.1275477 0.016875541 1.3430001
-0.13385034 0.022435416 1.3468183
-0.12573898 0.024798928 1.3467503
-0.11771993 0.027115425 1.3447143
-0.11574235 0.033866949 1.3437501
0.012950997 0.069464438 1.3430001
-0.052271832 0.077036791 1.3450001
-0.044771362 0.076587357 1.3440002
-0.038264308 0.077117302 1.3430001
-0.0011773633 0.078883342 1.3430001
0.0050563626 0.076005384 1.3455716
0.013929008 0.075793274 1.3466003
-0.047304932 0.081601009 1.3490001
-0.034770839 0.084631361 1.3470001
-0.0019684089 0.085873298 1.348
0.0023652466 0.081601009 1.3490001
0.01773935 0.081601009 1.3490001
-0.03193083 0.094609864 1.3490001
-0.028878277 0.096064255 1.3445001
-0.01059627 0.097721159 1.3430001
-0.0049580755 0.094012141 1.3472002
-0.03193083 0.10052298 1.3490001
-0.024870157 0.1051517 1.3449095
-0.013960187 0.10560983 1.3460002
-0.022864053 0.11510868 1.3490001
-0.016793251 0.11424142 1.3490001
-0.19110808 -0.23146629 1.3540001
-0.18873405 -0.23146629 1.3540001
-0.20372769 -0.22040714 1.3590001
-0.18695356 -0.22553127 1.3540001
-0.203228 -0.21432133 1.3556668
-0.19570297 -0.21630259 1.3556668
-0.18754706 -0.21959624 1.3540001
-0.21722221 -0.15193686 1.3540001
-0.21801357 -0.14600182 1.3540001
-0.21115012 -0.1335026 1.3556668
-0.20772617 -0.13175774 1.3540001
-0.20535216 -0.12938373 1.3540001
-0.20060413 -0.11988767 1.3540001
-0.19664745 -0.11276563 1.3540001
-0.19366071 -0.10455193 1.3552501
-0.19110808 -0.097334549 1.3540001
-0.18576655 -0.083683968 1.3540001
-0.18256162 -0.076205827 1.3540001
-0.17923801 -0.070033394 1.3540001
-0.17528133 -0.062911354 1.3540001
-0.16974196 -0.060537338 1.3540001
-0.17156017 -0.05599533 1.3590001
-0.16855496 -0.05460231 1.3540001
-0.16677444 -0.045106255 1.3540001
-0.1654001 -0.036090612 1.3573335
-0.16182858 -0.020970451 1.3540001
-0.12344869 0.029675167 1.3540001
-0.12344869 0.032049179 1.3540001
-0.044002533 0.083246075 1.3565001
-0.037984215 0.085464478 1.3540001
0.0052062538 0.085763693 1.3543848
0.014006679 0.085701875 1.3540001
-0.034423195 0.091399513 1.3540001
-0.0023740134 0.097334549 1.3540001
0.0049977014 0.092485882 1.3560002
0.014777218 0.09256535 1.3561429
0.02025363 0.09411981 1.3590001
-0.032049179 0.10445659 1.3540001
-0.01068306 0.10564359 1.3540001
-0.0059450525 0.10349 1.3568573
-0.027894659 0.11632665 1.3540001
-0.014014569 0.11665084 1.3550001
-0.0083397301 0.11079927 1.3590001
-0.023449879 0.12458884 1.3558183
-0.016067328 0.12438738 1.3577502
-0.19266064 -0.23095345 1.365
-0.20223385 -0.2225769 1.365
-0.19396609 -0.2242087 1.3649999
-0.2034305 -0.21898694 1.365
-0.19505395 -0.21898694 1.365
-0.22138025 -0.1531712 1.365
-0.22138025 -0.1483846 1.365
-0.21180704 -0.13043486 1.365
-0.20941375 -0.13043486 1.365
-0.20522547 -0.12445159 1.365
-0.20223385 -0.1148784 1.365
-0.19984055 -0.1124851 1.365
-0.2034305 -0.1076985 1.365
-0.19813105 -0.10479236 1.3649999
-0.19409662 -0.096449986 1.365
-0.19026737 -0.087355457 1.3650001
-0.18787405 -0.080175549 1.365
-0.18428409 -0.072995648 1.365
-0.1771042 -0.0622258 1.365
-0.17351425 -0.054327905 1.365
-0.1715996 -0.04619069 1.365
-0.16872765 -0.04188275 1.365
-0.17112094 -0.03709615 1.365
-0.16792989 -0.03709615 1.3650001
-0.044674937 0.086956561 1.3649999
-0.038691681 0.088950984 1.3650001
-0.035301171 0.095731996 1.365
0.0053849248 0.097526968 1.365
0.0119665 0.095732003 1.365
-0.03422419 0.10602319 1.365
-0.0035899498 0.10650185 1.3650001
-0.03333525 0.11436556 1.3649999
-0.0083765499 0.11368175 1.365
-0.029916249 0.1220583 1.365
-0.013163149 0.12445159 1.365
-0.022257689 0.13139217 1.365
-0.017949751 0.13282815 1.365
-0.19765912 -0.23133363 1.3720001
-0.20057257 -0.2269953 1.3700001
-0.19672926 -0.22651489 1.3700001
-0.22575288 -0.15218444 1.3712
-0.21064109 -0.12518361 1.3730001
-0.20838542 -0.12406411 1.3740001
-0.20542054 -0.11500164 1.3725713
-0.20519021 -0.10454711 1.3707501
-0.20259373 -0.097386278 1.3715
-0.19668563 -0.092924148 1.3726667
-0.19466208 -0.085540123 1.3742857
-0.19180064 -0.078409068 1.376
-0.18809478 -0.074416377 1.3736
-0.18335658 -0.066346131 1.376
-0.17895396 -0.061252698 1.3700001
-0.17715241 -0.055247534 1.3700001
-0.17573749 -0.045741837 1.373
-0.17174776 -0.039634101 1.3700001
-0.051870614 0.086853117 1.376
-0.049242366 0.08767543 1.3700001
-0.044547524 0.092974983 1.3733335
-0.038461998 0.096153677 1.3710002
0.0072061997 0.099685766 1.3700001
0.01369178 0.098244525 1.3700001
-0.042220265 0.10253493 1.376
-0.038519859 0.10501765 1.3730001
-0.002005229 0.10880894 1.3740001
0.0048218863 0.10357225 1.3737501
0.014716779 0.10156991 1.376
-0.037717417 0.11474837 1.3730001
-0.0064230445 0.1152355 1.3740001
-0.032744475 0.12522502 1.3720001
-0.027623767 0.12851056 1.3700001
-0.011625768 0.1262926 1.3720001
-0.030157333 0.13269226 1.376
-0.025269041 0.13571432 1.3724
-0.015652509 0.13433914 1.3734287
-0.022919573 0.14113632 1.376
-0.20944707 -0.11743563 1.381
-0.20944706 -0.10290752 1.381
-0.20515783 -0.092480727 1.382
-0.20413096 -0.085052453 1.386
-0.19702749 -0.083122894 1.3822
-0.20062955 -0.079035886 1.3870001
-0.19423625 -0.075265117 1.3847501
-0.19090205 -0.069308393 1.3870001
-0.18638822 -0.064669564 1.3844287
-0.18329188 -0.055836301 1.3846
-0.18290927 -0.047624256 1.3840001
-0.054109178 0.085723534 1.3870001
-0.053167552 0.092980847 1.3846
-0.048129585 0.096661843 1.3840002
-0.045669366 0.10467429 1.3829999
-0.03995233 0.10775022 1.381
0.0048519112 0.10786726 1.3825001
0.014552447 0.1067151 1.38325
-0.044701628 0.11378663 1.3848183
-0.038741656 0.11864631 1.381
-0.003633345 0.11634725 1.3825001
0.0046900413 0.11169247 1.3870001
0.013367036 0.11266632 1.3861428
-0.040936533 0.12321491 1.3870001
-0.037007168 0.12618388 1.3840001
-0.010896089 0.1295424 1.381
-0.0070377053 0.12356774 1.3846
-0.04012591 0.13010523 1.3870001
-0.033999767 0.13558412 1.3850001
-0.020581502 0.13922782 1.381
-0.013343744 0.13710102 1.3840001
-0.032343917 0.14542602 1.3870001
-0.025075004 0.14519675 1.3840002
-0.017402126 0.14287007 1.3850001
-0.031614356 0.15199208 1.3870001
-0.027966544 0.15320802 1.3870001
-0.20423089 -0.077042334 1.3950001
-0.19851634 -0.073906943 1.3935001
-0.19449902 -0.065646559 1.3953334
-0.1891496 -0.064676963 1.3920001
-0.19159023 -0.058575362 1.3920001
-0.1889876 -0.055495102 1.3944001
-0.059795681 0.079320796 1.3920001
-0.063618749 0.086124852 1.3979999
-0.058209792 0.086294681 1.3930001
-0.063321628 0.09518671 1.398
-0.056866448 0.095686406 1.3933334
-0.060053419 0.10172314 1.3980001
-0.053577658 0.10494472 1.3952001
0.020745439 0.10860848 1.3920001
-0.051557016 0.11376779 1.3954287
-0.04759248 0.11837104 1.3920001
-0.00122032 0.11715072 1.3920001
0.0050168708 0.11674394 1.3920001
0.014818172 0.11558174 1.3920001
0.020745439 0.11104912 1.3920001
-0.050248779 0.12500916 1.3980001
-0.045701511 0.12512331 1.3938
-0.0036697267 0.12483033 1.396
0.0050774026 0.12238292 1.398
0.013473488 0.12247121 1.3970002
-0.051474355 0.1348138 1.398
-0.044269212 0.13475034 1.3948001
-0.037829921 0.13667583 1.3920001
-0.01100655 0.13697302 1.3950001
-0.0085606501 0.13208124 1.3950001
-0.052658819 0.14439417 1.396909
-0.044019297 0.14426832 1.3946252
-0.037341792 0.14472994 1.3920001
-0.020745439 0.14765872 1.3920001
-0.01540128 0.14595869 1.3944001
-0.051474359 0.15074635 1.3980001
-0.044120882 0.15197194 1.398
-0.034700744 0.1542069 1.3938
-0.023389466 0.15437047 1.3920001
-0.0183574 0.15298183 1.396
-0.030639499 0.16055098 1.3980001
-0.02818834 0.16055098 1.3980001
-0.20226805 -0.07097844 1.4039999
-0.20062692 -0.06523452 1.404
-0.19734468 -0.064413957 1.4039999
-0.061542001 0.077542916 1.404
-0.070157878 0.087389641 1.4039999
-0.066055082 0.08164572 1.4040002
-0.070157878 0.096005514 1.404
-0.066219196 0.097728692 1.404
-0.070157878 0.1046214 1.404
-0.064098358 0.10556821 1.404
-0.057849478 0.10954476 1.404
-0.060311157 0.11446812 1.4039999
-0.055934832 0.11665627 1.4040002
-0.053821277 0.12588137 1.4040002
-0.00123084 0.12677652 1.404
0.0046771923 0.12628418 1.404
0.01353924 0.12677652 1.4039999
-0.060311161 0.13908492 1.404
-0.056618635 0.1353924 1.4040002
-0.0073850402 0.13416156 1.404
-0.0622258 0.14619642 1.4040002
-0.056864809 0.1454853 1.404
-0.01189812 0.14482884 1.4039999
-0.06277284 0.15237799 1.404
-0.054684464 0.15385498 1.4040002
-0.043782741 0.15772335 1.4040002
-0.0369252 0.15877835 1.404
-0.016000919 0.15262416 1.404
-0.052926119 0.16124004 1.404
-0.044310238 0.16124004 1.404
-0.034639351 0.16493258 1.404
-0.027488759 0.16370171 1.4039999
-0.091795757 0.065745622 1.4150001
-0.088074319 0.068226583 1.4150001
-0.092209257 0.07484249 1.4150001
-0.084487498 0.074921191 1.4142858
-0.074471243 0.075819716 1.4136363
-0.065900907 0.075439043 1.4107143
-0.092810705 0.084465645 1.4150001
-0.084224932 0.084223822 1.4128127
-0.074695759 0.083701625 1.41
-0.093243003 0.094690233 1.4150001
-0.08426328 0.094172888 1.4134377
-0.075402096 0.093943596 1.41
-0.093745098 0.10384618 1.4150002
-0.084352866 0.1042006 1.4150003
-0.074695751 0.10400898 1.41
-0.092918299 0.11364269 1.4131818
-0.084279448 0.11402584 1.4137502
-0.073964112 0.11410925 1.4102941
-0.065183669 0.11561654 1.41
-0.091175519 0.12280785 1.4150001
-0.08414612 0.12322135 1.4150001
-0.074677102 0.12429645 1.4150003
-0.064061537 0.12589519 1.4106667
-0.058096696 0.1248461 1.4100002
-0.0024722 0.1297905 1.4100001
0.0049443999 0.1297905 1.4100001
0.014833201 0.1297905 1.4100001
-0.082616188 0.13422029 1.4150001
-0.07417915 0.1348477 1.4139477
-0.064785391 0.13544035 1.4109374
-0.0045362627 0.13604599 1.4122223
0.0041349442 0.13355871 1.4150001
0.01116435 0.13025075 1.4150001
-0.091051474 0.14364797 1.4150001
-0.083780527 0.1438228 1.4142858
-0.074400365 0.14552538 1.4102941
-0.066572823 0.14462371 1.41
-0.0111249 0.1470959 1.4100001
-0.0068149874 0.14252955 1.4137502
-0.09055528 0.15381993 1.4150001
-0.083494067 0.1541062 1.4150002
-0.074067056 0.15537599 1.4114286
-0.064839058 0.15698469 1.41
-0.054564986 0.1580442 1.41
-0.048207901 0.1569847 1.4100001
-0.012802255 0.15239973 1.4133334
-0.084042743 0.16389886 1.4150003
-0.074295186 0.16514003 1.4138237
-0.064307332 0.16571191 1.410625
-0.054470811 0.1658846 1.41
-0.044499602 0.1668735 1.41
-0.0358469 0.16934569 1.4100001
-0.02559063 0.1663453 1.4125
-0.083112381 0.17242718 1.4150001
-0.073188514 0.17626141 1.4150001
-0.06433747 0.17568183 1.41125
-0.054388404 0.1755262 1.41
-0.04450864 0.17556593 1.4103124
-0.034914423 0.17557268 1.4123334
-0.028531117 0.17242718 1.4150001
-0.073761046 0.18654963 1.4150002
-0.064449795 0.18591087 1.4137502
-0.054471958 0.18570621 1.4121876
-0.045431256 0.18477345 1.4145455
-0.037214503 0.18235105 1.4150001
-0.070707552 0.19227491 1.4150001
-0.054581266 0.19227491 1.4150001
-0.094980255 0.058735348 1.4255
-0.087202035 0.058549937 1.4210001
-0.10133127 0.066303179 1.427
-0.095610879 0.064430468 1.4225003
-0.084848963 0.066301227 1.4210002
-0.077651329 0.067685388 1.4210001
-0.10258228 0.075060196 1.427
-0.097345941 0.074210711 1.4210002
-0.083464801 0.071007371 1.4210001
-0.07449545 0.071505666 1.4210001
-0.067270137 0.071007371 1.4210001
-0.10320506 0.085459754 1.4252001
-0.097915426 0.084461398 1.4210001
-0.1130073 0.097161256 1.427
-0.10492253 0.094924368 1.42475
-0.097790852 0.09343075 1.4210001
-0.1121733 0.10425028 1.427
-0.10486861 0.10486335 1.424
-0.098413721 0.10713392 1.4210001
0.018765049 0.10633528 1.427
0.025722276 0.10565393 1.4246
0.035164725 0.10727984 1.4252857
0.042117108 0.10716929 1.427
-0.1040871 0.1146547 1.4251539
-0.097417131 0.11535583 1.4210001
0.038781103 0.11133929 1.427
0.067044251 0.11701075 1.4250001
-0.10276099 0.12384933 1.427
-0.095919758 0.12525521 1.4240001
-0.085333422 0.12706581 1.4210001
-0.1043869 0.13605355 1.426
-0.094779067 0.13467969 1.4225
-0.087617278 0.13412504 1.4210001
-0.0012457434 0.13827752 1.4210001
0.0043666768 0.1378006 1.4225
-0.11133929 0.14511639 1.427
-0.10475683 0.14465876 1.4225
-0.096148729 0.14461946 1.4210004
-0.088447779 0.14450622 1.4210001
-0.0044520893 0.14521444 1.4227144
0.0025020067 0.14136338 1.427
-0.11217329 0.15470742 1.427
-0.1048387 0.15476047 1.4236251
-0.095210388 0.15447216 1.4210002
-0.088447779 0.15322644 1.4210001
-0.013737367 0.15605193 1.424
-0.00748761 0.15105318 1.424
-0.10276099 0.16388144 1.427
-0.094829693 0.16469982 1.4232501
-0.088447779 0.16817535 1.4210001
-0.023769064 0.16888545 1.427
-0.10133127 0.17514047 1.427
-0.094888352 0.17502816 1.4254
-0.084888518 0.17475998 1.4210002
-0.077485234 0.17465322 1.4210001
-0.026700985 0.17494568 1.4234
-0.1047431 0.18412495 1.427
-0.094690643 0.18455787 1.4265715
-0.084757224 0.18446866 1.4217501
-0.077858955 0.18374714 1.4210001
-0.042355273 0.18810724 1.4210001
-0.034970891 0.18548141 1.4247501
-0.09194874 0.19328001 1.427
-0.084803909 0.1945411 1.4225001
-0.075140767 0.19596027 1.4220911
-0.06489218 0.1959293 1.4235002
-0.055304516 0.19613613 1.4230002
-0.04617035 0.19292015 1.4234
-0.084481739 0.20236285 1.4261428
-0.075810805 0.20191193 1.427
-0.11475962 0.055486422 1.4385
-0.10569312 0.055357769 1.4352503
-0.098407291 0.055694342 1.4330001
-0.12236776 0.069383785 1.439
-0.11588264 0.065494671 1.4367499
-0.10639584 0.065035783 1.4330003
-0.072863273 0.067838222 1.4330001
-0.13245995 0.078214444 1.439
-0.12586531 0.075921617 1.4385999
-0.11560746 0.075394541 1.4333752
-0.10803864 0.075375803 1.4330001
-0.13245995 0.085783586 1.439
-0.12579499 0.085538663 1.4348751
-0.11557623 0.085425913 1.4330003
-0.10845739 0.084588386 1.4330001
-0.13330096 0.09587577 1.439
-0.12589459 0.095675901 1.4360001
-0.11605941 0.094992831 1.4330003
-0.13245995 0.10596796 1.439
-0.12602413 0.10585946 1.4375
-0.11733498 0.10602863 1.4330002
0.024371509 0.1082899 1.4330001
0.033919111 0.10929491 1.4330001
0.043969218 0.10929491 1.4330001
0.055927534 0.10807049 1.439
0.067980245 0.1082622 1.436
0.071756914 0.1082622 1.4360001
-0.13330096 0.11395761 1.439
-0.1246385 0.11606015 1.439
-0.11557623 0.11557624 1.4330003
-0.10929491 0.11683249 1.4330001
0.01892285 0.11984471 1.439
0.02604516 0.11590107 1.4357692
0.034991801 0.11605856 1.4358002
0.045381635 0.11597173 1.4378748
0.054966372 0.11606015 1.4389999
0.065235399 0.11485946 1.4366001
0.071756914 0.11330303 1.4360001
-0.13372147 0.12741387 1.439
-0.12612045 0.12611848 1.4386249
-0.11560746 0.12565821 1.4333754
-0.10734072 0.12660342 1.4330001
0.034902144 0.12236776 1.439
0.042891793 0.12236776 1.439
0.05516297 0.12603766 1.439
0.062566243 0.12303871 1.4370002
-0.13466762 0.13529837 1.439
-0.12549734 0.13537924 1.4355717
-0.11557623 0.13567644 1.4330003
-0.10741051 0.13253577 1.4330001
0.0088306628 0.13750604 1.439
0.013337431 0.13565451 1.4354
0.054245502 0.13245995 1.439
-0.134983 0.14381367 1.439
-0.12589461 0.1447701 1.4360001
-0.11683249 0.14572655 1.4330002
-0.0020937722 0.14865783 1.4330001
0.0054642633 0.14438008 1.4376668
0.01135371 0.14129061 1.439
-0.13447839 0.15340123 1.439
-0.12586139 0.15480016 1.4356251
-0.117335 0.15602791 1.4330002
-0.012143877 0.15870793 1.4330001
-0.005581486 0.15507494 1.4381429
0.0012615233 0.15012127 1.439
-0.13245995 0.16399802 1.439
-0.12589461 0.16491242 1.4360001
-0.11557623 0.16582677 1.4330003
-0.10734072 0.16680385 1.4330001
-0.021401186 0.16617128 1.4360001
-0.0160955 0.16447036 1.437
-0.13330096 0.1732492 1.439
-0.12606567 0.17477092 1.437
-0.11557624 0.17587683 1.4330003
-0.10606452 0.17587686 1.4330003
-0.096732274 0.1746206 1.4330001
-0.022253597 0.17258497 1.4369999
-0.13245995 0.18039784 1.439
-0.12615234 0.18418239 1.4389999
-0.11535829 0.18572794 1.4334003
-0.10627987 0.18818824 1.4330001
-0.097988538 0.18969576 1.4330001
-0.031538084 0.18796697 1.439
-0.028133692 0.18266666 1.4370002
-0.12299853 0.19238231 1.439
-0.11605752 0.19464704 1.4353079
-0.10527487 0.19572581 1.4330003
-0.096522905 0.19660522 1.4330002
-0.051506795 0.19974586 1.4330001
-0.044866338 0.1962506 1.4350001
-0.038944162 0.19220829 1.4330001
-0.095579028 0.20498703 1.4345003
-0.075452067 0.2068723 1.4345002
-0.065792158 0.20493507 1.4357276
-0.056409314 0.20478532 1.437
-0.046676364 0.20058221 1.439
-0.11375713 0.048897836 1.4450001
-0.10767658 0.04940455 1.4450001
-0.12085112 0.055991828 1.4450001
-0.12490483 0.067646228 1.4450001
-0.13174546 0.073473431 1.4450001
-0.14061294 0.088674828 1.4450001
-0.13605253 0.086901329 1.4450001
-0.14162639 0.095008746 1.4450001
-0.13706596 0.095515452 1.4450001
0.054471683 0.097542316 1.4450001
-0.15074721 0.10514302 1.4450001
-0.14206071 0.10333333 1.4449999
-0.13699357 0.10441913 1.4449999
0.048897836 0.1046363 1.4450001
0.055527329 0.10345396 1.4449998
0.064605951 0.1064098 1.4450001
-0.15074721 0.11021015 1.4450001
-0.14314651 0.11021015 1.4450001
-0.13453239 0.11426385 1.4449999
-0.12794511 0.11654407 1.4450001
0.048137769 0.11021015 1.4450001
0.057005245 0.11443276 1.4450001
0.06270577 0.11337711 1.4450001
-0.15074721 0.12541154 1.4450001
-0.14342803 0.12513004 1.4449999
-0.13617921 0.12287799 1.4449999
-0.12794511 0.12034442 1.4450001
0.01900175 0.12414477 1.4450001
0.024913408 0.12372252 1.4449999
0.035610691 0.12625606 1.4449999
0.046110917 0.12591825 1.4449999
0.057005245 0.12456703 1.4450001
-0.15159173 0.13512355 1.4450001
-0.14314651 0.13427904 1.4449998
-0.13807938 0.13174546 1.4450001
0.016468184 0.13807938 1.4450001
0.04655429 0.13206217 1.4449999
0.051938117 0.13301225 1.4450001
-0.15125391 0.14365323 1.4450001
-0.1426398 0.14441329 1.4449999
0.0063339164 0.14821365 1.4450001
0.013934617 0.14187974 1.4450001
-0.15074721 0.15074721 1.4450001
-0.14251313 0.15328076 1.4449999
-0.13807938 0.15708113 1.4450001
-0.0021113055 0.15750338 1.4450001
0.0029558279 0.15370303 1.4450001
-0.13681261 0.16468185 1.4449999
-0.012245572 0.16763766 1.4450001
-0.0050671333 0.16214828 1.4449999
0.0012667833 0.16214827 1.4450001
-0.13706596 0.17506947 1.4450001
-0.0228021 0.17734966 1.4450001
-0.016974898 0.17202917 1.4450001
-0.13351896 0.184697 1.4450001
-0.026602451 0.18368359 1.4450001
-0.041803848 0.19888498 1.4450001
-0.039270282 0.19635141 1.4450001
-0.13250466 0.038771462 1.4580001
-0.15210342 0.048570842 1.4580001
-0.13420889 0.047292661 1.4580001
-0.12548257 0.046505161 1.4562856
-0.11723094 0.045871146 1.4535
-0.15312597 0.055473011 1.4580001
-0.13420889 0.054961741 1.4580001
-0.12633468 0.055635024 1.4556
-0.15261468 0.063653365 1.4580001
-0.14251706 0.065826267 1.4580001
-0.13545322 0.063891575 1.457625
-0.12726195 0.063536294 1.4537143
-0.15440413 0.07490135 1.4580001
-0.14478271 0.074404716 1.4575386
-0.13651325 0.073183812 1.4552727
-0.16232885 0.084359884 1.4580001
-0.15578015 0.084271118 1.4565001
-0.14561154 0.083894901 1.4543998
-0.13835379 0.083315238 1.4532001
-0.16232885 0.094585314 1.4580001
-0.15558191 0.094365381 1.4546249
-0.14689496 0.093941495 1.4519999
0.056772232 0.094959833 1.452
0.062566385 0.097040422 1.4565001
-0.16431713 0.10580491 1.4580001
-0.15563847 0.10435067 1.4527999
-0.14695154 0.10480373 1.4519999
0.059827238 0.10056068 1.452
0.064204432 0.10289174 1.455
0.072759829 0.10594341 1.456
-0.16527851 0.11533117 1.4580001
-0.15555081 0.11481737 1.4519998
-0.14519773 0.11481737 1.4519998
-0.13874827 0.11838156 1.452
-0.16522712 0.12492742 1.4575385
-0.15598264 0.12467516 1.4532856
-0.14638579 0.12347323 1.4519999
0.0190938 0.12856492 1.452
0.025458399 0.12856492 1.452
-0.16482957 0.13543929 1.4575
-0.15707831 0.13442037 1.4519999
