# .PCD v0.7 - Point Cloud Data file format
VERSION 0.7
FIELDS x y z
SIZE 4 4 4
TYPE F F F
COUNT 1 1 1
WIDTH 1473
HEIGHT 1
VIEWPOINT 0 0 0 1 0 0 0
POINTS 1473
DATA ascii
-0.1604037 -0.038459368 1.0700001
-0.15749526 -0.037070375 1.0732
-0.14956547 -0.03104189 1.0730001
-0.35104245 -0.027758598 1.077
-0.34463304 -0.025052086 1.0725294
-0.33487788 -0.022325194 1.0700001
-0.32924971 -0.022512801 1.0700001
-0.15206724 -0.02816138 1.07075
-0.14878283 -0.024878265 1.0707501
-0.34304669 -0.017693983 1.0765001
-0.33478341 -0.014866645 1.0728147
-0.32605097 -0.014668744 1.0701362
-0.15169577 -0.014907522 1.0703334
-0.14828026 -0.015591517 1.0734285
-0.33417884 -0.00811355 1.0762
-0.32530618 -0.0046970486 1.0724499
-0.31822783 -0.0025795917 1.0700001
-0.15168983 -0.0057446994 1.0717778
-0.14857818 -0.0045264051 1.0754
-0.34273371 0.0084975297 1.077
-0.33801287 0.0084975297 1.077
-0.32233068 0.0028320088 1.0764287
-0.31457058 0.0046988889 1.0717499
-0.3079876 0.0078169443 1.0700001
-0.15205362 0.0053266268 1.072
-0.14861493 0.0041783182 1.0758573
-0.35273075 0.015828732 1.0769999
-0.34472334 0.014783272 1.0724999
-0.33451885 0.012224298 1.0728666
-0.32444033 0.014780653 1.0738235
-0.31410307 0.015091816 1.0709999
-0.16165443 0.01844799 1.0700001
-0.15549499 0.014570828 1.0734398
-0.35154596 0.022974804 1.077
-0.34467852 0.025527967 1.0737058
-0.33863002 0.028140999 1.0700001
-0.30298477 0.022512801 1.0700001
-0.1716601 0.029079033 1.0700001
-0.16460367 0.025773605 1.0729499
-0.15956473 0.021715909 1.077
-0.34328273 0.03350357 1.0765001
-0.335208 0.034851003 1.0716189
-0.32831168 0.038459368 1.0700001
-0.19153677 0.036618367 1.0710001
-0.18488134 0.036763143 1.0712856
-0.17422822 0.036253445 1.071842
-0.16792034 0.032947149 1.0737001
-0.33380118 0.041324489 1.0762
-0.32496604 0.044464488 1.0737059
-0.31738323 0.046853926 1.0708181
-0.19182208 0.044721466 1.0713845
-0.18588613 0.04396404 1.0749129
-0.1763383 0.041807357 1.0756665
-0.32233965 0.052307021 1.0769999
-0.31433287 0.055610783 1.0729411
-0.3079876 0.058470745 1.0700001
-0.19319052 0.056186698 1.0712941
-0.18935525 0.0555861 1.0746
-0.31191045 0.062836133 1.0762001
-0.30466715 0.06499818 1.0723999
-0.29735658 0.067851074 1.0700001
-0.2110575 0.068476431 1.0700001
-0.19571215 0.064799368 1.0723703
-0.18977816 0.063259393 1.077
-0.30119023 0.070812747 1.077
-0.29436502 0.073281221 1.0739167
-0.28558728 0.076459594 1.0719091
-0.27765787 0.079732835 1.0700001
-0.23169424 0.075980701 1.0700001
-0.22525603 0.075852714 1.0711111
-0.214791 0.074456401 1.0719999
-0.20518373 0.073524766 1.0740416
-0.19771551 0.071983978 1.0756668
-0.28183475 0.082142793 1.077
-0.27470407 0.084923141 1.0743333
-0.26638559 0.0880135 1.070875
-0.2313863 0.087768577 1.0707501
-0.2268281 0.084483922 1.0740453
-0.21621493 0.08025445 1.077
-0.26199007 0.092358589 1.075
-0.25550726 0.095583409 1.0723888
-0.2448267 0.098493502 1.0700001
-0.23339041 0.095842957 1.0723683
-0.22909245 0.09522371 1.0754001
-0.25266147 0.10170648 1.0762001
-0.24524908 0.10284071 1.0747856
-0.23579724 0.1027868 1.075647
-0.22943331 0.10102619 1.077
-0.29463524 -0.19439645 1.0837998
-0.28681874 -0.19441885 1.0812631
-0.30017504 -0.1896344 1.087
-0.29397655 -0.18755698 1.086
-0.28658509 -0.18622579 1.0814285
-0.16040428 -0.14332214 1.0826668
-0.15675907 -0.14225112 1.085375
-0.21287949 -0.13271983 1.0856667
-0.20537494 -0.13443407 1.0831429
-0.16000921 -0.1353924 1.08
-0.15511228 -0.13442063 1.0840369
-0.14531387 -0.13330683 1.0864782
-0.26586932 -0.12149943 1.087
-0.24109298 -0.12102295 1.087
-0.23442243 -0.12102295 1.087
-0.22430174 -0.12262112 1.0856667
-0.21550347 -0.12543206 1.0822666
-0.2054556 -0.1292382 1.08
-0.16000921 -0.12781799 1.08
-0.15476029 -0.1243816 1.0830398
-0.1452377 -0.12469038 1.0844613
-0.13563459 -0.12389924 1.0857499
-0.12590775 -0.12229027 1.0864
-0.34210426 -0.11244652 1.087
-0.33380821 -0.11399184 1.0861428
-0.32514104 -0.11440896 1.0852499
-0.31515014 -0.11386234 1.0853332
-0.3047035 -0.1133134 1.0861666
-0.29479891 -0.11318935 1.0865
-0.28533143 -0.11274203 1.0863076
-0.27484784 -0.11433922 1.0859499
-0.26501155 -0.11518911 1.0852221
-0.25513905 -0.11388958 1.0852352
-0.24523667 -0.11513828 1.0836666
-0.23503801 -0.11586092 1.0832498
-0.22628477 -0.11712818 1.0827
-0.16432774 -0.11341897 1.0811428
-0.15508023 -0.11512022 1.0852799
-0.14544825 -0.1155533 1.0862173
-0.13494354 -0.11498711 1.0839998
-0.1259833 -0.11524215 1.0816
-0.34481451 -0.10398019 1.0860525
-0.33544666 -0.10548114 1.0839598
-0.32545739 -0.10561618 1.080909
-0.31514564 -0.10718235 1.08075
-0.30545071 -0.10627705 1.0819046
-0.29500139 -0.10695202 1.0819999
-0.28469792 -0.10692103 1.0823157
-0.27523109 -0.10629986 1.0825999
-0.26543444 -0.10664045 1.0817777
-0.25523022 -0.10723887 1.0811428
-0.2490084 -0.108882 1.08
-0.17131245 -0.10475275 1.0818181
-0.16539995 -0.10608721 1.0851303
-0.15786983 -0.10831714 1.087
-0.14212368 -0.10591209 1.087
-0.13438088 -0.10484219 1.0856451
-0.12687378 -0.10554021 1.0846428
-0.34574434 -0.095016241 1.084818
-0.33545241 -0.095689915 1.0814813
-0.32683536 -0.097141683 1.08
-0.17121124 -0.095819384 1.084
-0.16866979 -0.097199537 1.087
-0.13474524 -0.097008944 1.087
-0.12864645 -0.098152474 1.087
-0.34514138 -0.084749416 1.0848888
-0.3354238 -0.085153662 1.0803638
-0.32853961 -0.080477998 1.08
-0.17086443 -0.087802723 1.0816
-0.16872679 -0.084683083 1.0853333
-0.34394923 -0.075974032 1.086
-0.33523646 -0.075021282 1.0832798
-0.32759279 -0.073613703 1.08
-0.34168071 -0.06405852 1.087
-0.33330333 -0.0664685 1.08575
-0.32550886 -0.06493926 1.0818421
-0.16359125 -0.064382404 1.0843636
-0.36399901 -0.052173469 1.0856363
-0.35473683 -0.053140592 1.0834705
-0.34561202 -0.05630419 1.0828462
-0.33505699 -0.053992517 1.0831429
-0.32451245 -0.054386679 1.0827036
-0.31680155 -0.054981027 1.0802354
-0.16110504 -0.055915549 1.081
-0.1580597 -0.0534782 1.0845001
-0.37140703 -0.044073321 1.087
-0.36478978 -0.044798978 1.0814999
-0.32135913 -0.048346411 1.0813333
-0.31579578 -0.046422426 1.0806667
-0.16000921 -0.048286799 1.08
-0.15747011 -0.045265719 1.0847
-0.37069237 -0.039070401 1.087
-0.36510634 -0.035175327 1.0845499
-0.35736439 -0.033348396 1.08
-0.15425907 -0.035354432 1.0850834
-0.36348233 -0.025607042 1.0863333
-0.35546225 -0.025117157 1.08125
-0.35409063 -0.015961275 1.0854443
-0.34622002 -0.013860756 1.08125
-0.14462726 -0.012885432 1.0833571
-0.34468681 -0.004751862 1.0846249
-0.33617985 -0.0041047484 1.0808889
-0.14447911 -0.0044366638 1.0842776
-0.13826962 -0.0042763799 1.084
-0.36465707 0.0082587851 1.087
-0.35469326 0.0072246967 1.0847
-0.34550557 0.0043240609 1.0840554
-0.33513042 0.0046704756 1.0819999
-0.32604524 0.0059229792 1.08075
-0.14354329 0.0047532865 1.0843998
-0.13637762 0.0042389226 1.085091
-0.37069237 0.013341114 1.087
-0.36429927 0.01497926 1.0825216
-0.35725918 0.0138864 1.08
-0.33138001 0.0104148 1.08
-0.32569921 0.011361601 1.08
-0.15213868 0.016531985 1.080889
-0.14512959 0.013893345 1.0842307
-0.13436407 0.010482303 1.087
-0.36322522 0.024146028 1.085909
-0.35540161 0.026349092 1.0810666
-0.3493692 0.0293508 1.08
-0.16083793 0.027176665 1.0813333
-0.15566854 0.02464713 1.0853999
-0.14818165 0.020488137 1.087
-0.35376519 0.033277098 1.0844445
-0.34676448 0.036099777 1.081
-0.16469003 0.03515273 1.0837058
-0.15850513 0.032082204 1.087
-0.34406433 0.043763783 1.0851666
-0.33564872 0.04521301 1.0818888
-0.32853961 0.048286799 1.08
-0.1833636 0.047655597 1.08
-0.17417462 0.046027385 1.0837221
-0.16827878 0.041358501 1.0845
-0.3401984 0.050505642 1.087
-0.33330646 0.05257808 1.0855
-0.32614523 0.055557553 1.0819285
-0.31907159 0.059648398 1.08
-0.18487191 0.054723959 1.0836999
-0.17734469 0.051925454 1.0856668
-0.32324943 0.061525516 1.0863999
-0.31534255 0.06636703 1.084
-0.30865681 0.068169594 1.08
-0.1912536 0.068169601 1.08
-0.18699646 0.063962288 1.0843571
-0.31161028 0.071470253 1.087
-0.3048327 0.074975677 1.0838999
-0.29558095 0.078126535 1.0811428
-0.20370999 0.078642614 1.0808001
-0.19442447 0.07548777 1.0827825
-0.1896344 0.07242319 1.087
-0.30176327 0.082905486 1.087
-0.29501876 0.083824769 1.0851666
-0.28598094 0.085433975 1.0816
-0.27714187 0.088863954 1.08
-0.2228187 0.086217456 1.0807273
-0.21477336 0.08542338 1.083625
-0.20510319 0.084093094 1.0845599
-0.19652176 0.082456715 1.0861
-0.29128098 0.091164269 1.087
-0.28383926 0.09294045 1.0848182
-0.27485621 0.094918072 1.0821052
-0.26606655 0.096150346 1.0816
-0.22435479 0.094804749 1.0828998
-0.21565084 0.093510017 1.0866842
-0.20869313 0.09052898 1.087
-0.27301636 0.10053482 1.087
-0.26428574 0.10276407 1.0853751
-0.2551901 0.10589815 1.0821249
-0.24511425 0.10786681 1.0812
-0.23372436 0.10725891 1.08
-0.22423144 0.10522347 1.0849686
-0.24393852 0.11209291 1.085875
-0.23482633 0.11313786 1.0844667
-0.22679892 0.11149359 1.087
-0.3044295 -0.19050668 1.092
-0.3039563 -0.18538083 1.0956666
-0.29711771 -0.18528467 1.0913334
-0.17022149 -0.15291083 1.097
-0.16382822 -0.15210016 1.0967
-0.15627679 -0.15146828 1.097
-0.24138753 -0.14137039 1.097
-0.21276103 -0.14194709 1.0965
-0.20651145 -0.14170159 1.0936
-0.16112432 -0.14865637 1.0940001
-0.15359525 -0.14562468 1.0939474
-0.14526053 -0.14434922 1.0959524
-0.13666874 -0.14286637 1.097
-0.12982994 -0.14137039 1.097
-0.32313234 -0.13175336 1.097
-0.26139098 -0.13329208 1.097
-0.25466818 -0.13486746 1.097
-0.24515116 -0.13539483 1.0966251
-0.23616111 -0.13514341 1.0964
-0.22380893 -0.13442349 1.0963572
-0.21640463 -0.13613282 1.09225
-0.20831352 -0.13855717 1.09
-0.14361979 -0.13815641 1.0911429
-0.1352663 -0.13527219 1.0943199
-0.1259938 -0.13376981 1.093389
-0.11886767 -0.13228856 1.0935
-0.37294853 -0.12752186 1.097
-0.3623873 -0.12301061 1.097
-0.35502049 -0.12454831 1.0968422
-0.3456265 -0.12378291 1.0958462
-0.33511844 -0.1241656 1.0953077
-0.32493141 -0.12536903 1.0940741
-0.31527209 -0.12522267 1.0949091
-0.30517557 -0.12472013 1.0954348
-0.29491544 -0.12536433 1.0947618
-0.28541315 -0.12490475 1.0951818
-0.27498865 -0.12453835 1.0949475
-0.26349145 -0.12586515 1.0950527
-0.25472683 -0.12566474 1.0955
-0.24503344 -0.12600915 1.0932381
-0.23532705 -0.12601581 1.0921739
-0.22606827 -0.12797548 1.093091
-0.13244155 -0.12823704 1.09
-0.12547211 -0.12707101 1.0925833
-0.36287689 -0.11487272 1.0965
-0.35499749 -0.11541765 1.09384
-0.34482878 -0.11647534 1.0908
-0.33714584 -0.11740538 1.0910001
-0.32298151 -0.11944583 1.09
-0.3139036 -0.11872914 1.09
-0.30493692 -0.11853409 1.0904001
-0.29511085 -0.11801247 1.09
-0.28564698 -0.11786243 1.0903078
-0.27730542 -0.1190636 1.09
-0.26086971 -0.11944583 1.09
-0.25594983 -0.11875201 1.0911429
-0.2465362 -0.11944583 1.09
-0.15002397 -0.1118013 1.09
-0.14811283 -0.1118013 1.09
-0.36322638 -0.10473808 1.0961001
-0.35519317 -0.10521551 1.0918462
-0.34801736 -0.10836126 1.09
-0.16332047 -0.10147807 1.090889
-0.15408784 -0.10466741 1.0912415
-0.14623792 -0.10379909 1.0902667
-0.12565702 -0.10176785 1.09
-0.3628369 -0.09603294 1.097
-0.35600939 -0.094985366 1.0921054
-0.16488336 -0.094937146 1.0947038
-0.15447764 -0.095672585 1.0963182
-0.14477022 -0.094908789 1.0936
-0.13461474 -0.092907161 1.0910667
-0.12590329 -0.094596505 1.0931429
-0.36063874 -0.087515004 1.097
-0.35436335 -0.085200287 1.092
-0.16656148 -0.085922323 1.0950834
-0.1439499 -0.086369507 1.0968237
-0.13537385 -0.085444525 1.09516
-0.12705219 -0.086341031 1.0964707
-0.35434932 -0.075102717 1.0932273
-0.34801736 -0.073196404 1.09
-0.16761705 -0.075091638 1.0961429
-0.14201152 -0.079180241 1.097
-0.1350756 -0.076236844 1.097
-0.12776914 -0.075150251 1.097
-0.36448556 -0.060971994 1.097
-0.35487676 -0.06376753 1.0942106
-0.34596068 -0.065297067 1.09
-0.33647895 -0.063186847 1.09
-0.16274616 -0.066058591 1.092
-0.12694484 -0.068280935 1.097
-0.38227707 -0.05241283 1.097
-0.37538791 -0.054409817 1.0948421
-0.36577904 -0.056497578 1.09225
-0.3572329 -0.057865262 1.0910001
-0.33420944 -0.057333995 1.09
-0.15575737 -0.050645035 1.09
-0.38186494 -0.045603655 1.095125
-0.37659261 -0.045458082 1.0916668
-0.15530126 -0.04392175 1.0925715
-0.38179621 -0.035583027 1.097
-0.37524259 -0.035201851 1.0914737
-0.15320919 -0.036630053 1.09
-0.37527412 -0.0257979 1.0942105
-0.3682754 -0.023315828 1.09
-0.37153804 -0.016990092 1.097
-0.36445227 -0.014611094 1.0941764
-0.3579196 -0.01306584 1.0906668
-0.14365353 -0.014970544 1.09
-0.37025577 -0.00096170331 1.097
-0.36321986 -0.0036242753 1.0963078
-0.35506722 -0.0046074674 1.0928094
-0.34878182 -0.0038222666 1.09
-0.14237943 -0.0086000999 1.09
-0.38201603 0.0072068577 1.0962501
-0.37481618 0.0049814391 1.09375
-0.36506569 0.0036737875 1.0914737
-0.35535982 0.0025748375 1.0912309
-0.13664603 0.0086000999 1.09
-0.38219661 0.014695438 1.0965716
-0.37607622 0.014602417 1.09225
-0.14107496 0.016739074 1.0910001
-0.13678816 0.014251093 1.0932001
-0.37444544 0.024234828 1.095353
-0.36734122 0.026404848 1.0912001
-0.15215674 0.027753513 1.0916001
-0.14553085 0.024695659 1.0947728
-0.13848528 0.020195769 1.097
-0.363051 0.034053788 1.094125
-0.35672516 0.037110943 1.092375
-0.16231231 0.038217656 1.0937144
-0.15526903 0.034638509 1.0940557
-0.14752528 0.032505572 1.097
-0.35392749 0.044143159 1.0945834
-0.34697649 0.04688121 1.0913334
-0.17063397 0.048890386 1.0935
-0.16717464 0.044530015 1.0947001
-0.35102171 0.050970275 1.097
-0.34405139 0.05271022 1.0931818
-0.3370454 0.055474587 1.0935715
-0.17454796 0.054989483 1.0936471
-0.33133397 0.061466165 1.0955
-0.32599181 0.065730244 1.0939231
-0.31820369 0.069756366 1.09
-0.18440738 0.064549051 1.0930001
-0.17827302 0.061026737 1.0962501
-0.32280684 0.074243248 1.0964707
-0.3151204 0.076032482 1.0929412
-0.30864802 0.079312034 1.09
-0.19015777 0.0774009 1.09
-0.1870808 0.075072363 1.094375
-0.3202472 0.081744783 1.097
-0.31406265 0.08434429 1.0950714
-0.30599383 0.08582861 1.0913531
-0.29718122 0.088867702 1.09
-0.20258014 0.088867702 1.09
-0.19426557 0.086407423 1.0927
-0.18585105 0.084515929 1.0948422
-0.30315658 0.091696531 1.0964
-0.29605374 0.093429193 1.0936667
-0.28889966 0.093964063 1.09
-0.2128273 0.097420461 1.0916001
-0.2047821 0.094691671 1.0935385
-0.19623384 0.092402615 1.0966668
-0.27141774 0.10453899 1.0940001
-0.26573095 0.10664851 1.0931429
-0.21593788 0.10450269 1.0936539
-0.20724706 0.1014597 1.097
-0.26230571 0.1111362 1.0960001
-0.25456586 0.11445807 1.0946667
-0.24543661 0.11640882 1.0924546
-0.23362252 0.11761066 1.0926667
-0.22451276 0.1156146 1.092889
-0.21839908 0.11420599 1.0947143
-0.24234924 0.12021291 1.097
-0.23561732 0.12098227 1.097
-0.22503857 0.12021291 1.097
-0.31444544 -0.181925 1.105
-0.3057785 -0.18145949 1.101
-0.2982499 -0.18242469 1.1010001
-0.32108048 -0.17848451 1.1065
-0.31542239 -0.17573434 1.1064998
-0.30771726 -0.17803422 1.1062858
-0.31763035 -0.16998567 1.108
-0.23749426 -0.16075787 1.108
-0.16698132 -0.16119006 1.1010001
-0.30467907 -0.1512063 1.108
-0.29376298 -0.15111378 1.1079999
-0.28432706 -0.15236266 1.1079999
-0.2768338 -0.15055872 1.108
-0.25407651 -0.1513913 1.1079999
-0.244859 -0.15375932 1.1067367
-0.23641355 -0.15381643 1.1064209
-0.22114325 -0.15250142 1.108
-0.21593696 -0.15332596 1.1053077
-0.20945057 -0.15153797 1.1010001
-0.17084217 -0.15732923 1.1010001
-0.16543698 -0.15720056 1.101
-0.15590933 -0.15462239 1.1023332
-0.14687459 -0.15240513 1.1032858
-0.13658905 -0.15015109 1.105
-0.32345843 -0.14084527 1.108
-0.31495914 -0.14157377 1.1079999
-0.3049145 -0.14384764 1.1079999
-0.29439899 -0.14481162 1.1079999
-0.28457373 -0.14471543 1.1078799
-0.27502218 -0.14455286 1.1078749
-0.26465559 -0.14419183 1.1071665
-0.25551248 -0.14551219 1.1052351
-0.24507074 -0.145061 1.1015216
-0.23454836 -0.14533514 1.1043198
-0.2254166 -0.14496872 1.1056665
-0.21556257 -0.14649074 1.1014705
-0.20945056 -0.14767712 1.1010001
-0.16505091 -0.14960755 1.1010001
-0.1447815 -0.14960755 1.1010001
-0.13716705 -0.14660467 1.101
-0.35117206 -0.13187303 1.102
-0.34546873 -0.13334414 1.1056188
-0.334488 -0.13358109 1.1051248
-0.32518455 -0.13565727 1.1048419
-0.31524745 -0.13492028 1.1043911
-0.3050659 -0.13446218 1.1039641
-0.29474378 -0.13501549 1.1059581
-0.28490156 -0.13475095 1.1050452
-0.27483621 -0.13446569 1.1045516
-0.26558256 -0.13580178 1.1022307
-0.25674587 -0.13995545 1.1010001
-0.24612854 -0.13995545 1.1010001
-0.23237431 -0.13705982 1.101
-0.22682434 -0.13778374 1.101
-0.12161646 -0.13030335 1.1010001
-0.11775562 -0.13030335 1.1010001
-0.38173923 -0.12141833 1.108
-0.37424523 -0.12340675 1.1047142
-0.36789346 -0.12520738 1.1014445
-0.35551903 -0.12837292 1.1010001
-0.34456515 -0.12766963 1.1023333
-0.3368583 -0.12837292 1.1010001
-0.2808761 -0.12837292 1.1010001
-0.27411965 -0.12837292 1.1010001
-0.26929358 -0.12837292 1.1010001
-0.12159876 -0.12701093 1.1026
-0.11796661 -0.12733875 1.1060001
-0.38173923 -0.11947564 1.108
-0.37526628 -0.11591756 1.1067646
-0.36846891 -0.11413608 1.101
-0.37479222 -0.10505218 1.1064346
-0.36774501 -0.10520788 1.1010001
-0.3738988 -0.094952688 1.1063498
-0.36718062 -0.094111398 1.1021999
-0.16119006 -0.091694951 1.1010001
-0.15732923 -0.091694951 1.1010001
-0.37234557 -0.085343987 1.1076665
-0.36556885 -0.084779449 1.1031666
-0.16310751 -0.084070489 1.1036841
-0.15544055 -0.085382976 1.1032498
-0.14820361 -0.083095811 1.101
-0.12512724 -0.081808649 1.1015713
-0.37040687 -0.075117476 1.1079999
-0.3645986 -0.074215971 1.1045294
-0.16466236 -0.075835936 1.1061999
-0.15300471 -0.076388761 1.1073076
-0.14515163 -0.074225701 1.1026316
-0.13673808 -0.071747273 1.101
-0.12553297 -0.074839279 1.1015
-0.39371917 -0.061842401 1.1079999
-0.38562462 -0.061194845 1.108
-0.37437671 -0.06399297 1.1059284
-0.36538482 -0.065841123 1.1034706
-0.16290307 -0.065043934 1.1073999
-0.14410895 -0.065300912 1.1051998
-0.13497931 -0.064809836 1.1011379
-0.12761222 -0.064149082 1.1015713
-0.40116617 -0.054395411 1.108
-0.39482659 -0.055296279 1.1065598
-0.38586208 -0.056231588 1.1026665
-0.37739709 -0.058877811 1.1010001
-0.1602722 -0.0582808 1.108
-0.15782937 -0.054226652 1.1045001
-0.14220695 -0.058726363 1.10725
-0.1352672 -0.056895055 1.1070623
-0.1291891 -0.059252147 1.108
-0.39357156 -0.046995278 1.1069285
-0.38710028 -0.044880949 1.1027143
-0.15506393 -0.045549847 1.1055
-0.3914527 -0.037882522 1.108
-0.38730413 -0.035300497 1.1047273
-0.15346839 -0.03957361 1.1010001
-0.38345209 -0.025578003 1.1041428
-0.37836233 -0.02123462 1.1010001
-0.37501243 -0.014131806 1.1041999
-0.36774501 -0.01061731 1.1010001
-0.39359617 -0.0017429886 1.1042001
-0.38608891 -0.0009695933 1.1059999
-0.37504211 -0.00504079 1.1051499
-0.36738428 -0.0062084277 1.1015714
-0.39417395 0.0047108307 1.1062857
-0.38669485 0.003695769 1.1032351
-0.37932754 0.00096520997 1.1010001
-0.39192364 0.012946467 1.1075
-0.38733512 0.014279475 1.1038752
-0.13428429 0.017873041 1.102
-0.38440529 0.022930482 1.105111
-0.37739715 0.027991092 1.1010001
-0.14229235 0.027364561 1.1016666
-0.13701785 0.023986427 1.1048234
-0.3738195 0.03469152 1.1062306
-0.36631474 0.037453171 1.1025001
-0.15289962 0.038576256 1.103111
-0.14450368 0.034893043 1.1039472
-0.13797507 0.031632237 1.1068001
-0.37008306 0.041767906 1.108
-0.36392325 0.044814322 1.1063999
-0.35723963 0.047997206 1.1023334
-0.16370946 0.046070069 1.1042352
-0.15673976 0.042872678 1.1063999
-0.14667335 0.041767906 1.108
-0.36134097 0.051481374 1.108
-0.35416847 0.054851521 1.1046363
-0.34598088 0.057825815 1.103
-0.33878872 0.058877811 1.1010001
-0.17169254 0.056695785 1.1023333
-0.16870815 0.054057676 1.1059999
-0.35114181 0.062651858 1.108
-0.34478688 0.064014159 1.1072104
-0.33612606 0.065593518 1.1049284
-0.18234821 0.06690304 1.102
-0.1751536 0.065049343 1.104409
-0.33421335 0.074263602 1.1058666
-0.32775775 0.075700045 1.101
-0.18399629 0.074358597 1.1060001
-0.17775644 0.070908308 1.108
-0.33157781 0.081196576 1.107
-0.32468185 0.083122902 1.1013637
-0.3194845 0.085903689 1.1010001
-0.18628554 0.086547166 1.1010001
-0.2017289 0.099416628 1.1010001
-0.19488406 0.096531421 1.1023332
-0.18814209 0.093103528 1.10625
-0.28438872 0.10285483 1.1079999
-0.27557096 0.10780253 1.1061667
-0.2123462 0.10713831 1.101
-0.20456238 0.10605487 1.1025598
-0.19694316 0.10332525 1.1066666
-0.27197707 0.11170486 1.108
-0.26472437 0.11549293 1.1053637
-0.25771105 0.11807736 1.1010001
-0.21531865 0.11432314 1.1051248
-0.20592549 0.11170486 1.108
-0.26129225 0.12141833 1.108
-0.25472599 0.12391081 1.1063749
-0.24544448 0.12501262 1.1053808
-0.23518662 0.12593281 1.1034704
-0.22550394 0.12508261 1.1039999
-0.21910267 0.12065125 1.1010001
-0.23700859 0.1311318 1.108
-0.32267645 -0.17352389 1.1120001
-0.31221154 -0.17193262 1.1134286
-0.30896872 -0.17529564 1.1146001
-0.28392291 -0.17242643 1.1184286
-0.27552775 -0.17355293 1.1184669
-0.26556799 -0.17349508 1.1190002
-0.25516123 -0.17438841 1.1184285
-0.24482816 -0.17407419 1.117353
-0.23531835 -0.17343676 1.116125
-0.22669812 -0.1727635 1.1168183
-0.32397038 -0.16523959 1.1176472
-0.31510881 -0.16569826 1.1169257
-0.30517349 -0.16333228 1.1174001
-0.29463527 -0.16508752 1.1177368
-0.28505397 -0.16498244 1.1135453
-0.27494332 -0.16473997 1.1128274
-0.26516348 -0.165364 1.1161199
-0.25523412 -0.16526718 1.1154799
-0.24518317 -0.16513689 1.1134998
-0.2348423 -0.16537727 1.1132272
-0.22548313 -0.16496667 1.1134399
-0.21856213 -0.16241056 1.1120001
-0.3312476 -0.15074547 1.1190001
-0.32483679 -0.15506788 1.1177502
-0.31528729 -0.15520471 1.1134398
-0.30518964 -0.15552275 1.1125455
-0.29572999 -0.15637292 1.1125
-0.28598651 -0.15766038 1.1120002
-0.2748329 -0.15515092 1.1121035
-0.26429951 -0.15507026 1.1124799
-0.25476724 -0.15676127 1.1123751
-0.24761274 -0.1589011 1.1120001
-0.23240504 -0.15617152 1.1120002
-0.22584102 -0.1554659 1.1120001
-0.21836714 -0.1589011 1.1120001
-0.3442429 -0.14342949 1.1153076
-0.33426714 -0.14420576 1.1161251
-0.32465559 -0.14566359 1.1141875
-0.31512135 -0.14695913 1.1120002
-0.30356935 -0.14798275 1.1120001
-0.29343086 -0.14330344 1.1120001
-0.27068427 -0.14850266 1.1120001
-0.26743475 -0.14850266 1.1120001
-0.34459671 -0.13873696 1.1129
-0.3355445 -0.13901408 1.1120001
-0.29343086 -0.13940403 1.1120001
-0.12240633 -0.12338206 1.1170001
-0.1148264 -0.12301753 1.1159376
-0.10888989 -0.12262375 1.1190001
-0.3924329 -0.11330288 1.1168183
-0.3844218 -0.11415247 1.1129501
-0.37726822 -0.11795725 1.1120001
-0.391415 -0.10692792 1.1190001
-0.38559404 -0.1050421 1.1163335
-0.38418671 -0.095137559 1.1155001
-0.37921795 -0.091636211 1.1120001
-0.38341442 -0.084998973 1.1181431
-0.3767404 -0.083802417 1.113
-0.38199753 -0.07671342 1.1190001
-0.37647372 -0.075125448 1.115
-0.16231307 -0.073114 1.1120001
-0.15646397 -0.073276475 1.1120002
-0.39556271 -0.066419944 1.1173999
-0.38371378 -0.06571269 1.1150001
-0.37728435 -0.067729518 1.1132001
-0.16140784 -0.066150762 1.1120001
-0.15505145 -0.065335274 1.1123599
-0.14850266 -0.063690417 1.1120001
-0.15473247 -0.055928376 1.1139089
-0.14585073 -0.054965455 1.1129999
-0.13397299 -0.052756526 1.1125456
-0.1284105 -0.05590716 1.1132858
-0.40236151 -0.044540964 1.1157274
-0.39719674 -0.043326743 1.1124287
-0.1530747 -0.046710484 1.1154616
-0.14470515 -0.046490509 1.1170951
-0.13449548 -0.045437112 1.1162814
-0.12741035 -0.044602171 1.1171819
-0.40122494 -0.036296628 1.1190001
-0.39594674 -0.034227945 1.1155715
-0.13047168 -0.038258608 1.1190001
-0.12720169 -0.037604615 1.1190001
-0.39337695 -0.026241483 1.1190001
-0.38792014 -0.022011787 1.1160001
-0.3843374 -0.014678294 1.1161001
-0.38481042 -0.005061714 1.1138183
-0.40199393 0.0060610981 1.1146001
-0.39871502 0.0077988263 1.1120001
-0.40220588 0.01177188 1.1190001
-0.39674377 0.01409655 1.1142857
-0.39290825 0.022535885 1.1176667
-0.38833499 0.026457509 1.1176667
-0.13212202 0.02561323 1.1138462
-0.12801918 0.026977224 1.1190001
-0.38337114 0.034520283 1.117
-0.37687832 0.037629336 1.1120001
-0.14291349 0.038409222 1.1120001
-0.13402425 0.034671254 1.1146399
-0.12850969 0.033353657 1.1190001
-0.38160512 0.040220588 1.1190001
-0.37460652 0.044360206 1.1161668
-0.36771801 0.047404699 1.1126001
-0.16182566 0.049717519 1.1120001
-0.15439411 0.047141563 1.1134119
-0.14503874 0.044965152 1.1160952
-0.1364603 0.041989576 1.1175716
-0.37277621 0.050030489 1.1190001
-0.36543036 0.056288082 1.1171765
-0.35777116 0.057516348 1.1120001
-0.1651275 0.054766186 1.1155001
-0.15516068 0.052493762 1.1182729
-0.14812949 0.050030489 1.1190001
-0.36280981 0.062180653 1.117
-0.35566276 0.065422788 1.1138461
-0.34542301 0.068564691 1.1120001
-0.17135896 0.066137634 1.1148334
-0.16971126 0.061802369 1.1190001
-0.35141927 0.072237775 1.1135001
-0.34429783 0.07384219 1.11375
-0.33827409 0.077988267 1.1120001
-0.18139274 0.0765469 1.1132857
-0.17597951 0.074048452 1.11625
-0.33632439 0.081887677 1.1120001
-0.18384621 0.081167504 1.1155001
-0.30008739 0.098725818 1.115
-0.2944057 0.098460183 1.1120001
-0.19074629 0.097810291 1.1120001
-0.18715379 0.097978905 1.1154001
-0.30111617 0.1028216 1.1170001
-0.29451281 0.10441953 1.1153159
-0.28617662 0.1061219 1.1126001
-0.19300035 0.1054768 1.1140001
-0.187123 0.10358223 1.1175456
-0.29200801 0.11150587 1.1190001
-0.28498623 0.11436832 1.1159499
-0.27541414 0.11548053 1.1131668
-0.26743475 0.11925706 1.1120001
-0.21339117 0.11779309 1.1127501
-0.20530942 0.11526652 1.1148669
-0.19696605 0.11199601 1.1167001
-0.28154412 0.12066177 1.1190001
-0.27399272 0.12210126 1.1178
-0.26512969 0.12517029 1.1148667
-0.2550866 0.12933053 1.1120001
-0.24858759 0.1296555 1.1120001
-0.2320151 0.1296555 1.1120001
-0.2225915 0.1283557 1.1120001
-0.21532606 0.12451798 1.11628
-0.26192433 0.13047168 1.1190001
-0.25360891 0.13428478 1.1157144
-0.24481559 0.13462669 1.1145556
-0.23525773 0.13522859 1.1150556
-0.22556326 0.13506392 1.1152381
-0.21692485 0.13326909 1.1164736
-0.24132353 0.14028157 1.1190001
-0.2344566 0.14028157 1.1190001
-0.2241562 0.14028157 1.1190001
-0.24372824 -0.19157109 1.1255715
-0.23965876 -0.19232051 1.125
-0.3053543 -0.18163657 1.1240001
-0.28345844 -0.18181792 1.125625
-0.27530241 -0.18271481 1.1250626
-0.26507425 -0.18303472 1.1244999
-0.25521746 -0.18422653 1.1247499
-0.2453247 -0.18424048 1.1238397
-0.23678051 -0.1836351 1.1251177
-0.31011644 -0.17228691 1.123
-0.30450118 -0.174426 1.1240798
-0.29500678 -0.17445441 1.124263
-0.28546074 -0.17710772 1.1236001
-0.27401823 -0.17786574 1.123
-0.2658141 -0.1781939 1.123
-0.25596914 -0.1781939 1.123
-0.24415517 -0.1781939 1.123
-0.23431019 -0.1781939 1.123
-0.22741874 -0.17753756 1.123
-0.33177537 -0.16047296 1.123
-0.32915005 -0.16572361 1.123
-0.31011644 -0.16834892 1.123
-0.30499706 -0.16795513 1.123
-0.2983025 -0.16736442 1.123
-0.34253296 -0.1520175 1.126
-0.33571333 -0.1543472 1.1229999
-0.3288219 -0.15653497 1.123
-0.34306115 -0.14885756 1.1245
-0.33817461 -0.14816675 1.123
-0.12196683 -0.12196508 1.125
-0.1191241 -0.12109309 1.123
-0.10829464 -0.12109309 1.123
-0.11491951 -0.11842345 1.1246667
-0.10843928 -0.11829609 1.1245
-0.39493459 -0.10481765 1.1234287
-0.39427456 -0.095610723 1.1243498
-0.38887617 -0.091558188 1.123
-0.39334077 -0.086469576 1.1245002
-0.38887617 -0.085651211 1.123
-0.40170327 -0.073246665 1.1240001
-0.39361674 -0.076749094 1.126
-0.38705257 -0.075333081 1.1238002
-0.39520398 -0.067215264 1.1242001
-0.38690719 -0.068914764 1.123
-0.40758163 -0.04134886 1.123
-0.15207566 -0.04171297 1.1240001
-0.14575514 -0.041362338 1.1233751
-0.13881403 -0.040364362 1.123
-0.40524438 -0.034495737 1.1242501
-0.15300465 -0.034549434 1.1260002
-0.14510761 -0.037510805 1.1260002
-0.13499397 -0.035675488 1.1249412
-0.12856294 -0.034479082 1.1237501
-0.40251908 -0.025108417 1.1256667
-0.39694539 -0.023011463 1.1235455
-0.1520175 -0.028626673 1.126
-0.39440244 -0.016480707 1.1247145
-0.38887617 -0.012798456 1.123
-0.39349476 -0.0049251127 1.1240001
-0.38939559 -0.0078878086 1.1245
-0.40659711 0.0088604698 1.123
-0.40424678 0.014503824 1.1242858
-0.39872116 0.018705437 1.123
-0.39481956 0.025136223 1.1245
-0.12525199 0.027944917 1.125
-0.39188927 0.031588051 1.126
-0.38856614 0.034817111 1.1240001
-0.12634555 0.033900879 1.1242001
-0.3838464 0.043361574 1.124125
-0.3783749 0.047584008 1.123
-0.14472102 0.048240338 1.123
-0.13425611 0.045865711 1.124154
-0.12836905 0.042978961 1.1251428
-0.38004377 0.050343461 1.126
-0.37439606 0.053647492 1.1242858
-0.16382606 0.057783004 1.1235001
-0.15424578 0.056673203 1.1242501
-0.14517216 0.053514086 1.1248947
-0.1378687 0.051659629 1.126
-0.17043167 0.066989824 1.1237501
-0.16602784 0.061181802 1.125625
-0.15497889 0.060214728 1.126
-0.35141706 0.076008752 1.126
-0.34555832 0.079744227 1.123
-0.18016289 0.079744227 1.123
-0.17398573 0.077126645 1.1255001
-0.32616031 0.089668967 1.1240001
-0.18360637 0.085660376 1.1254548
-0.1776828 0.081931517 1.126
-0.32403752 0.095339835 1.125
-0.31507626 0.096560441 1.1233157
-0.3066707 0.098941907 1.123
-0.18557885 0.095863499 1.1255386
-0.32180327 0.10167404 1.126
-0.31406814 0.10414835 1.1251177
-0.30552086 0.10590605 1.12375
-0.2983025 0.10829464 1.123
-0.19000785 0.10927913 1.123
-0.18447717 0.1063149 1.1253078
-0.30236927 0.11319508 1.1255714
-0.29561707 0.11589409 1.1242353
-0.28845751 0.1191241 1.123
-0.20259841 0.1187312 1.1255
-0.19389606 0.11552392 1.1250001
-0.18684898 0.1129555 1.126
-0.29218948 0.12141658 1.126
-0.2846452 0.12345171 1.1249092
-0.27602595 0.1267775 1.1245
-0.2687676 0.12896906 1.123
-0.21157415 0.12865551 1.126
-0.20596214 0.12404899 1.1251428
-0.19775438 0.12207466 1.126
-0.26446548 0.13391031 1.1248001
-0.25709197 0.13810059 1.1236
-0.21279432 0.13533951 1.1255001
-0.20828372 0.13227497 1.126
-0.25467199 0.14175844 1.1248749
-0.24553208 0.14278498 1.1248001
-0.23512323 0.14332099 1.125077
-0.22557805 0.14299104 1.1248751
-0.21673688 0.14140353 1.1248
-0.25739282 -0.20052698 1.138
-0.24841402 -0.20052698 1.138
-0.30228695 -0.19055051 1.138
-0.29408407 -0.1921024 1.138
-0.28452522 -0.19422433 1.1361333
-0.27493367 -0.19425051 1.1362857
-0.26458269 -0.19484429 1.1348423
-0.25471252 -0.19476902 1.1337897
-0.24741514 -0.19574991 1.1334286
-0.23775199 -0.19119224 1.13
-0.30249488 -0.18511446 1.1328
-0.29525855 -0.1849139 1.1340001
-0.28538081 -0.18746841 1.1314286
-0.27439532 -0.18862808 1.1317778
-0.26449907 -0.18888074 1.13
-0.23568921 -0.1860716 1.132
-0.29619935 -0.17930464 1.13
-0.12683299 -0.12125598 1.1356
-0.12156878 -0.11718754 1.1348
-0.11459853 -0.11384898 1.1342502
-0.1062094 -0.1134546 1.1335295
-0.1047529 -0.10874349 1.138
-0.40331256 -0.083245642 1.1326667
-0.39837614 -0.083920792 1.13
-0.40166718 -0.076662309 1.1320001
-0.39602473 -0.072773449 1.13
-0.41057983 -0.030818339 1.1340001
-0.14562312 -0.032690901 1.13
-0.13656589 -0.031275712 1.13
-0.12977296 -0.030709634 1.13
-0.4117384 -0.024920829 1.1372001
-0.4070603 -0.024117686 1.1306667
-0.15160461 -0.023854101 1.1340001
-0.14482023 -0.024825452 1.1330402
-0.13538715 -0.025804643 1.1343812
-0.41202807 -0.016959993 1.138
-0.40512484 -0.014303343 1.1332
-0.39714813 -0.012884662 1.1306667
-0.15064465 -0.018955287 1.138
-0.14465876 -0.018955287 1.138
-0.40360728 -0.007144833 1.1347272
-0.39729518 -0.0073454147 1.1324002
-0.41154531 0.016942458 1.1366667
-0.40687853 0.017864713 1.132
-0.41003278 0.021948226 1.138
-0.40478361 0.024575597 1.1363333
-0.39792147 0.026371187 1.1308
-0.4000563 0.032922339 1.138
-0.39561185 0.034209289 1.1334286
-0.12348551 0.035632994 1.1318182
-0.39069703 0.042748019 1.1340001
-0.38604194 0.046638668 1.132
-0.13175423 0.048541032 1.13
-0.1256679 0.044637863 1.1351429
-0.38309631 0.053374093 1.138
-0.37611455 0.057560179 1.132
-0.14339402 0.058151636 1.1306667
-0.13445595 0.054761339 1.1336001
-0.12847024 0.051788207 1.136
-0.16486186 0.065772399 1.1328888
-0.1553525 0.063899271 1.1340001
-0.14570801 0.062207762 1.1340001
-0.13767524 0.060856447 1.138
-0.35574257 0.078056648 1.1366667
-0.34969357 0.078260034 1.13
-0.1711189 0.077119201 1.1326667
-0.16876768 0.071950957 1.1346667
-0.35416457 0.081474476 1.138
-0.34519732 0.084170878 1.1348
-0.33720458 0.088790551 1.138
-0.18194632 0.087505937 1.13
-0.1756251 0.085218698 1.1325881
-0.3401975 0.091783494 1.138
-0.33502138 0.094775483 1.1358181
-0.32889026 0.097082064 1.13
-0.18233655 0.093885198 1.1327693
-0.17925905 0.090626292 1.136
-0.3324922 0.10130935 1.1366667
-0.32559842 0.10473187 1.1323334
-0.31601202 0.10837529 1.13
-0.18191594 0.10390369 1.136
-0.32124221 0.11073878 1.138
-0.31328663 0.11385269 1.1352001
-0.30533248 0.11658124 1.1308
-0.19267818 0.11937131 1.13
-0.18493499 0.11639719 1.1318462
-0.30424213 0.12246507 1.1357143
-0.29501921 0.12539205 1.1330769
-0.28580269 0.12753688 1.1306667
-0.27836797 0.12977296 1.13
-0.20332749 0.12853467 1.13
-0.19468972 0.12553377 1.1324446
-0.1868962 0.12227921 1.1339999
-0.29231048 0.13069171 1.138
-0.28347269 0.13198568 1.1368572
-0.27410734 0.13484171 1.1347274
-0.26744539 0.13719659 1.1324002
-0.21166533 0.13901888 1.13
-0.20494395 0.134863 1.1325883
-0.19839668 0.13171332 1.1353334
-0.27036226 0.14066818 1.138
-0.26432726 0.14361408 1.1354545
-0.25505134 0.14680523 1.1340001
-0.24578603 0.14718758 1.1311429
-0.23558138 0.14736123 1.1306667
-0.22400349 0.14708187 1.1329091
-0.21403144 0.14423738 1.1346667
-0.20850815 0.14066818 1.138
-0.2524046 0.15064465 1.138
-0.24410124 0.15119432 1.1364999
-0.23368903 0.15091215 1.1357143
-0.2244705 0.15139289 1.138
-0.27297559 -0.21052361 1.149
-0.2917608 -0.20219469 1.1436667
-0.28400165 -0.2032702 1.143
-0.27414501 -0.20478262 1.1441581
-0.26547897 -0.20387298 1.1427499
-0.29408136 -0.19705451 1.1409999
-0.28507885 -0.19905506 1.141
-0.27507609 -0.19905506 1.141
-0.12500383 -0.11568835 1.1457274
-0.11878103 -0.11208913 1.1450001
-0.09802711 -0.11103071 1.141
-0.12188209 -0.10979461 1.149
-0.11507053 -0.10803003 1.1463336
-0.10512235 -0.10598224 1.1467143
-0.095932916 -0.10482858 1.1461431
-0.088471279 -0.10291453 1.1442001
-0.093677968 -0.099721707 1.149
-0.088977285 -0.099050187 1.149
-0.13303679 -0.021005809 1.141
-0.12761059 -0.021835487 1.1426001
-0.14349879 -0.014530604 1.1433333
-0.1351262 -0.014861546 1.143167
-0.12664083 -0.014538226 1.1460528
-0.14122204 -0.0066481144 1.149
-0.13593 -0.0079428917 1.1485556
-0.12658277 -0.0080583198 1.149
-0.11986751 -0.0080583207 1.149
-0.42003992 0.018131219 1.149
-0.41802534 0.018131219 1.149
-0.42003992 0.02316767 1.149
-0.41511816 0.0247625 1.1482002
-0.40682593 0.02905887 1.1430001
-0.40566728 0.03282883 1.1463333
-0.39989412 0.039284311 1.149
-0.39787954 0.041298889 1.149
-0.12224591 0.048097439 1.1430001
-0.11892013 0.047904283 1.1463333
-0.13103624 0.059016325 1.141
-0.12457801 0.055773538 1.1442002
-0.11986751 0.05439366 1.149
-0.36967543 0.069503009 1.149
-0.16104454 0.069019087 1.141
-0.1540653 0.068513542 1.1436667
-0.14376096 0.067702733 1.1450001
-0.13529433 0.064579763 1.1442503
-0.12824492 0.063047238 1.1467143
-0.36530164 0.075473107 1.1479092
-0.16484779 0.074975431 1.1450001
-0.15795869 0.071434595 1.1476668
-0.36242294 0.083202153 1.149
-0.35514393 0.086779356 1.1452858
-0.34634206 0.087281033 1.1414444
-0.17063966 0.08732564 1.145
-0.16963939 0.084652394 1.1450001
-0.35255149 0.09166339 1.149
-0.34449682 0.094724365 1.1470001
-0.33827499 0.099374548 1.1450001
-0.17485182 0.095063105 1.1441112
-0.34147131 0.10274358 1.149
-0.33522651 0.10600857 1.1467779
-0.17826 0.10437907 1.1432858
-0.3313984 0.11180919 1.149
-0.32382518 0.11409349 1.1483334
-0.31655434 0.11808155 1.1434001
-0.18105008 0.11303127 1.141
-0.17892228 0.11618125 1.1438572
-0.3128759 0.12293994 1.1463333
-0.30355582 0.12797245 1.1458001
-0.18376385 0.12679695 1.1416153
-0.17874928 0.12452392 1.1455002
-0.30117971 0.13195498 1.149
-0.29438698 0.13500817 1.1453637
-0.28552994 0.13580132 1.1428183
-0.27756232 0.13828188 1.1430001
-0.20105562 0.13903846 1.141
-0.19435231 0.1358801 1.1431179
-0.18675031 0.13332522 1.1463336
-0.29110682 0.14001331 1.149
-0.28506306 0.14001331 1.149
-0.27419358 0.14295657 1.1456667
-0.26497629 0.14906634 1.1463333
-0.21305895 0.14854108 1.141
-0.20451739 0.14527339 1.1436002
-0.19690165 0.14294568 1.1475457
-0.26391 0.1510935 1.149
-0.25447282 0.15473184 1.1446002
-0.24539874 0.15619759 1.1433333
-0.23584685 0.1558051 1.1439091
-0.2259575 0.15631901 1.143
-0.21504819 0.15500097 1.1434765
-0.20797357 0.1539492 1.1477695
-0.2518225 0.16015911 1.149
-0.24577877 0.16015911 1.149
-0.2316767 0.16015911 1.149
-0.22361839 0.16015911 1.149
-0.21522431 0.1611664 1.149
-0.12661257 -0.11243057 1.1554
-0.12150425 -0.10732855 1.155
-0.1136759 -0.10456821 1.1543332
-0.10500823 -0.1019697 1.1545
-0.098047279 -0.10006887 1.153
-0.085201479 -0.10041603 1.1570001
-0.10203891 -0.097575977 1.1570001
-0.094560184 -0.096246026 1.1556665
-0.087752581 -0.096529178 1.155
-0.14074445 -0.0020233467 1.155
-0.13438453 -0.0031697343 1.1548666
-0.12566595 -0.0056142528 1.1551818
-0.13540949 0.0017750309 1.1570001
-0.12881652 0.0010143033 1.1570001
-0.4215022 0.02729151 1.153
-0.41644824 0.028302306 1.153
-0.41389155 0.032722168 1.1543332
-0.40629902 0.037045654 1.1546
-0.40153816 0.043567121 1.1556667
-0.39657855 0.047170453 1.1545999
-0.11826321 0.049529035 1.153
-0.3914068 0.05504619 1.1556667
-0.1202848 0.059637003 1.153
-0.11836578 0.054632988 1.1539999
-0.38284823 0.066907197 1.1563333
-0.3765218 0.067554913 1.153
-0.1475763 0.069744967 1.153
-0.1336998 0.06923651 1.1541427
-0.12459756 0.063820019 1.1554999
-0.38036376 0.073029846 1.1570001
-0.37414044 0.075206026 1.1540666
-0.36793 0.078842141 1.153
-0.16335516 0.077628247 1.155
-0.15497099 0.072725989 1.1554
-0.14453822 0.072015539 1.1570001
-0.13693096 0.072015539 1.1570001
-0.37224934 0.081820466 1.1570001
-0.36526033 0.086292677 1.154143
-0.16686776 0.084095463 1.1557691
-0.36249465 0.091127746 1.155
-0.35462806 0.095154278 1.1546665
-0.34845424 0.097486794 1.1543334
-0.17199025 0.096632682 1.1554
-0.16938865 0.094330214 1.1570001
-0.34545097 0.10378608 1.1549999
-0.33861688 0.10815524 1.153
-0.17615068 0.10379704 1.1570001
-0.34182021 0.11157337 1.1570001
-0.33620408 0.11274482 1.156
-0.32713658 0.11647206 1.1552857
-0.17953169 0.11360197 1.1570001
-0.32352915 0.12191424 1.1556667
-0.31574407 0.12699519 1.1547778
-0.30829298 0.12837118 1.153
-0.30438697 0.13424581 1.1552222
-0.29818502 0.13847914 1.153
-0.18552546 0.13729039 1.1543332
-0.17953169 0.13185942 1.1570001
-0.29400155 0.14215663 1.1547143
-0.28553909 0.14378385 1.155
-0.27618331 0.14618897 1.154
-0.19394086 0.14578934 1.1554614
-0.18815327 0.14149532 1.1570001
-0.26341495 0.15534885 1.1556667
-0.25876394 0.15768427 1.153
-0.20375946 0.15517214 1.1547142
-0.19913791 0.15252203 1.156
-0.25421295 0.16335168 1.1552857
-0.24503447 0.16441436 1.1549999
-0.23522362 0.16323255 1.1551818
-0.22530442 0.16389079 1.1547778
-0.21501869 0.16533783 1.1544545
-0.20806246 0.16365281 1.1566
-0.12824406 -0.11094129 1.161
-0.13015257 -0.10760645 1.169
-0.12559877 -0.10602432 1.1661427
-0.11623109 -0.10249739 1.1639092
-0.10788786 -0.10076319 1.161
-0.1147949 -0.098427534 1.1665
-0.10530452 -0.094303638 1.1636667
-0.095057368 -0.091908865 1.1613637
-0.085422255 -0.093234815 1.1623334
-0.10261786 -0.087868825 1.1682001
-0.094721384 -0.085816987 1.1668003
-0.085274838 -0.084649518 1.1670872
-0.078140512 -0.081551917 1.1676668
-0.083420619 -0.078501463 1.169
-0.076465182 -0.075346559 1.1686362
-0.07276246 -0.067638338 1.169
-0.12533323 -0.0020367887 1.1623335
-0.13384552 0.0062984116 1.1639999
-0.12705384 0.0039191386 1.1656666
-0.42333794 0.037901934 1.1684287
-0.41569498 0.037543979 1.1626667
-0.40814182 0.039694589 1.161
-0.42256883 0.043384183 1.169
-0.41450775 0.044641681 1.1674615
-0.40660292 0.045270365 1.1630001
-0.39999932 0.04885488 1.161
-0.11636961 0.049194146 1.161
-0.41197896 0.051241167 1.169
-0.40501371 0.053874556 1.16775
-0.39653593 0.05538673 1.1627778
-0.38947144 0.05811511 1.1630001
-0.11510239 0.055430174 1.1636667
-0.40070593 0.060464576 1.169
-0.39441857 0.063886084 1.1672857
-0.38784933 0.063340038 1.1632223
-0.12346162 0.066950373 1.1615001
-0.11693593 0.063577838 1.1650001
-0.39045769 0.071737632 1.169
-0.3853544 0.075441226 1.1642728
-0.37964314 0.078371368 1.161
-0.15499356 0.07671833 1.1647334
-0.14492089 0.075428568 1.1658001
-0.13477753 0.074860245 1.1639091
-0.12609994 0.072296612 1.1665384
-0.11887951 0.070712812 1.169
-0.38334841 0.083223343 1.1678572
-0.37570819 0.085308135 1.1630001
-0.36946502 0.088549472 1.161
-0.16288392 0.085591927 1.164
-0.15736364 0.083162136 1.1675
-0.37201086 0.091209278 1.169
-0.36424401 0.095629439 1.1645557
-0.35725132 0.098727569 1.161
-0.16658428 0.094367273 1.1658001
-0.35431993 0.1046771 1.1653638
-0.3470732 0.10788786 1.161
-0.17403293 0.10633551 1.1635
-0.16953506 0.10111035 1.165
-0.34479782 0.115371 1.1664544
-0.33543897 0.11801577 1.1630001
-0.17658959 0.11354563 1.1668181
-0.33460993 0.12358963 1.1672223
-0.3263841 0.12699251 1.1631539
-0.3330676 0.13015257 1.169
-0.32468373 0.13246842 1.1683334
-0.31479722 0.13447906 1.1658572
-0.30706215 0.13772228 1.1636667
-0.18173565 0.13649961 1.1610001
-0.17815065 0.13727461 1.1656667
-0.30351135 0.14391361 1.1670002
-0.29465261 0.14647961 1.1630001
-0.2845574 0.14788754 1.1634001
-0.27881944 0.14809091 1.1650001
-0.19083938 0.14809136 1.161
-0.18441491 0.14535767 1.1628947
-0.1774596 0.14450797 1.1674
-0.29309946 0.15064903 1.169
-0.28491402 0.15081881 1.1676668
-0.27484763 0.15400955 1.1667143
-0.2670778 0.15830234 1.1650001
-0.20118709 0.15911762 1.161
-0.19446126 0.15546462 1.1619524
-0.18542837 0.15320562 1.1670001
-0.17831926 0.15064903 1.169
-0.26444682 0.16310149 1.1676667
-0.25676182 0.1677016 1.1650001
-0.2447833 0.16895646 1.161
-0.23558722 0.16769581 1.1616668
-0.22493601 0.16793865 1.161
-0.21272229 0.16997427 1.161
-0.20400064 0.16593741 1.1631333
-0.196555 0.1643108 1.16775
-0.18959232 0.16089725 1.169
-0.25415617 0.1711455 1.169
-0.243692 0.17143829 1.1663333
-0.23487081 0.17208898 1.1676667
-0.22558519 0.17162129 1.1670001
-0.2155377 0.17279252 1.168
-0.20683634 0.17202391 1.1680001
-0.12442794 -0.10180467 1.1730001
-0.12351475 -0.095982976 1.1758237
-0.11490393 -0.093883917 1.1751335
-0.12072489 -0.089769788 1.177
-0.11315809 -0.088394009 1.177
-0.10530009 -0.085199721 1.1756668
-0.097280018 -0.0816494 1.1730001
-0.10173909 -0.077800483 1.177
-0.094753996 -0.076321721 1.1755884
-0.085866347 -0.074228324 1.1744002
-0.077638917 -0.071468934 1.1730001
-0.091833465 -0.069133058 1.177
-0.084660925 -0.066640981 1.1767334
-0.07657031 -0.06454818 1.1750001
-0.081515096 -0.05881469 1.177
-0.075324073 -0.056751013 1.177
-0.12624297 0.0084435279 1.1746
-0.13168918 0.012985712 1.1754
-0.1269159 0.011350203 1.177
-0.42127252 0.047645956 1.1730001
-0.41924393 0.047385588 1.1750001
-0.42202118 0.051591836 1.177
-0.41592216 0.054775681 1.1754616
-0.40619034 0.058614809 1.1730001
-0.11096701 0.055998836 1.1756668
-0.10834285 0.057782851 1.177
-0.4034501 0.06343998 1.1752857
-0.39864224 0.067987248 1.1750001
-0.11236888 0.065745115 1.1744287
-0.10834285 0.063973874 1.177
-0.39555374 0.072449192 1.1750002
-0.1511645 0.07918141 1.1730001
-0.14518809 0.079289414 1.1746
-0.13425185 0.078973636 1.1750001
-0.12423111 0.076034829 1.1760001
-0.11536758 0.072106414 1.1750001
-0.38151044 0.089464709 1.1730001
-0.15449128 0.085997783 1.1743335
-0.14892842 0.082202993 1.177
-0.37340435 0.093739331 1.1750001
-0.36814213 0.098719679 1.1730001
-0.16350445 0.096320242 1.1730002
-0.15686531 0.094616704 1.1756668
-0.37042937 0.10008816 1.177
-0.36439419 0.10378134 1.1750001
-0.35785884 0.10694632 1.1730001
-0.16604412 0.10421064 1.1755884
-0.1592468 0.10077605 1.177
-0.36217466 0.11040653 1.177
-0.35517791 0.11244467 1.1743335
-0.34979263 0.11866122 1.177
-0.17281386 0.11597633 1.1739233
-0.16757701 0.11395482 1.1763334
-0.34352201 0.12314073 1.1747143
-0.33758062 0.1276225 1.174
-0.17505082 0.12459838 1.1746001
-0.16608173 0.12561278 1.1766924
-0.33243197 0.13276941 1.174
-0.32437557 0.13683553 1.1735716
-0.31775397 0.13882455 1.1730001
-0.17488658 0.13424383 1.1743915
-0.16664162 0.13155918 1.177
-0.32193303 0.14136162 1.177
-0.31547552 0.14227335 1.1760001
-0.30520782 0.14612088 1.1754001
-0.17395973 0.14596735 1.1753334
-0.29368386 0.15332708 1.1738001
-0.28452331 0.15599266 1.1736156
-0.27713495 0.15887699 1.1730001
-0.18509938 0.15836282 1.1730002
-0.17640674 0.15569869 1.1754001
-0.2816914 0.16303019 1.177
-0.27471825 0.16333391 1.1744547
-0.26601031 0.16660486 1.174143
-0.1923698 0.16699573 1.1734446
-0.18567152 0.16450176 1.1762002
-0.17850775 0.16199836 1.177
-0.26105466 0.17231672 1.177
-0.25369453 0.17455468 1.1754001
-0.24433263 0.17593999 1.1750001
-0.23433018 0.17732406 1.1752223
-0.225087 0.17611249 1.1747779
-0.21493675 0.17718925 1.1743335
-0.20436554 0.1753992 1.1746002
-0.19570602 0.17282629 1.1766365
-0.18717517 0.17107852 1.177
-0.21462202 0.18057142 1.177
-0.20610937 0.1813453 1.177
-0.19914448 0.18057142 1.177
-0.11475056 -0.084725589 1.181
-0.10802082 -0.082482353 1.1810001
-0.11246041 -0.076180145 1.1823334
-0.1055951 -0.074811928 1.1826842
-0.096804604 -0.071956366 1.1810001
-0.11078174 -0.069368005 1.1810001
-0.1047651 -0.067841664 1.1850001
-0.094419636 -0.065362103 1.1835262
-0.086229309 -0.062564321 1.1810001
-0.091129944 -0.057800829 1.1880001
-0.085156865 -0.055033728 1.1845555
-0.077650748 -0.052802514 1.181
-0.081605099 -0.045488775 1.1883334
-0.076280989 -0.045005228 1.1842941
-0.12745108 0.01580737 1.1841111
-0.42138472 0.054873195 1.1810001
-0.41724336 0.05901457 1.1810001
-0.10514564 0.056729686 1.1836666
-0.098357618 0.05901457 1.1810001
-0.4129054 0.064601399 1.1846001
-0.40706044 0.067155078 1.1830001
-0.10621902 0.064561307 1.1834617
-0.40549204 0.074251197 1.1868182
-0.39692122 0.077725887 1.182143
-0.12527654 0.079307295 1.1810001
-0.11442126 0.075938955 1.1840771
-0.10873735 0.074229293 1.1858001
-0.39343047 0.081792124 1.1810001
-0.3885299 0.087263398 1.1850001
-0.15098451 0.087413311 1.1823335
-0.14515029 0.084535822 1.1859231
-0.13396694 0.082601286 1.1876667
-0.12543024 0.08165127 1.189
-0.1177863 0.080261461 1.189
-0.38046017 0.094854459 1.189
-0.37556371 0.097778432 1.1823335
-0.15195349 0.094913751 1.1850001
-0.149057 0.094854459 1.189
-0.37363014 0.10590237 1.1853637
-0.36655205 0.10754228 1.1818001
-0.16240838 0.10733618 1.182143
-0.15471967 0.10517487 1.1858331
-0.37212133 0.11153216 1.189
-0.36509791 0.11363944 1.1865001
-0.35632321 0.11808494 1.1850001
-0.16280349 0.11510335 1.1828668
-0.1564616 0.11544226 1.1885787
-0.35226774 0.12390368 1.1876668
-0.34671515 0.12677774 1.1834
-0.1627966 0.1241517 1.1828183
-0.15721817 0.12494137 1.1876668
-0.34425092 0.13138749 1.1863333
-0.3347269 0.13663617 1.1830001
-0.32820383 0.13977134 1.1810001
-0.17083164 0.13770066 1.1810001
-0.16493617 0.13561191 1.1842499
-0.15760431 0.13404706 1.189
-0.33353749 0.14229123 1.1882
-0.32482123 0.14604433 1.1856667
-0.31540164 0.14694795 1.1825002
-0.3085323 0.14805409 1.1810001
-0.17170867 0.14513373 1.1842
-0.1657446 0.14463994 1.1877271
-0.15895939 0.14228168 1.189
-0.32208821 0.15114172 1.189
-0.31386447 0.15270665 1.1885556
-0.30477121 0.15485835 1.1855
-0.29565519 0.15737757 1.182143
-0.2888608 0.15840752 1.1810001
-0.17175536 0.15479098 1.1850001
-0.16781943 0.15531112 1.1889999
-0.29421854 0.16299295 1.1880001
-0.28621948 0.16500658 1.1864547
-0.27549016 0.16854472 1.1843334
-0.18201336 0.16710441 1.1810001
-0.17500848 0.16557589 1.1844544
-0.16717269 0.16545708 1.1887646
-0.27383238 0.17283833 1.1876668
-0.26544386 0.17578459 1.1855335
-0.25657228 0.17778885 1.1825
-0.2477264 0.17931662 1.1823335
-0.22570485 0.1791144 1.1810001
-0.20189194 0.1791144 1.1810001
-0.19484849 0.17769466 1.1828182
-0.18431716 0.17467771 1.1850001
-0.17618683 0.17327456 1.1878002
-0.16990414 0.17198884 1.189
-0.26496705 0.18157853 1.189
-0.25419739 0.18376121 1.1879091
-0.24443965 0.18307123 1.1865001
-0.23449723 0.18358599 1.1853335
-0.22518747 0.1837759 1.1852858
-0.21480949 0.1857322 1.1846668
-0.20422496 0.18632478 1.1853077
-0.19484629 0.18234421 1.1885556
-0.18866655 0.1803277 1.189
-0.20638661 0.19075127 1.189
-0.10419358 -0.063352317 1.1945
-0.098659776 -0.062403176 1.1930001
-0.10178889 -0.059814088 1.197
-0.095568649 -0.055522911 1.1950002
-0.088898383 -0.051247302 1.1930001
-0.092134684 -0.047641397 1.197
-0.086329646 -0.044424985 1.1948824
-0.072164573 -0.040788669 1.1930001
