# .PCD v0.7 - Point Cloud Data file format
VERSION 0.7
FIELDS x y z
SIZE 4 4 4
TYPE F F F
COUNT 1 1 1
WIDTH 1427
HEIGHT 1
VIEWPOINT 0 0 0 1 0 0 0
POINTS 1427
DATA ascii
-0.2801818 -0.25709563 1.197
-0.27492461 -0.25484845 1.1946667
-0.27211332 -0.24558775 1.1943333
-0.27331531 -0.23613629 1.1945
-0.2830143 -0.2225696 1.1956667
-0.27712786 -0.22549531 1.1938888
-0.2950961 -0.21413994 1.1962
-0.28834778 -0.21600077 1.1935713
-0.30116919 -0.2025284 1.197
-0.29552868 -0.20496278 1.1946473
-0.29477513 -0.19629477 1.1950002
-0.28900689 -0.19209023 1.1930001
-0.29137507 -0.18923639 1.197
-0.28643224 -0.18479012 1.1938889
-0.28279251 -0.1752146 1.1952223
-0.27854827 -0.17256744 1.1930001
-0.2801818 -0.16894858 1.197
-0.27560872 -0.16413519 1.1947144
-0.27301475 -0.15588993 1.1952223
-0.26769045 -0.15112008 1.1943334
-0.26350233 -0.14623316 1.1943334
-0.25750884 -0.14220439 1.1956667
-0.25485489 -0.13808931 1.1963334
-0.24433839 -0.13401902 1.1962001
-0.23820698 -0.13327 1.197
-0.21440198 -0.097265288 1.1930001
-0.2081268 -0.090990111 1.1930001
-0.064843528 -0.090990111 1.1930001
-0.054268684 -0.092617005 1.193
-0.047721669 -0.095343158 1.1951817
-0.20230047 -0.086998351 1.1956667
-0.19858633 -0.083410449 1.1943334
-0.071002506 -0.0842501 1.193
-0.065144874 -0.085112289 1.1955265
-0.056398951 -0.087848485 1.1958001
-0.19413345 -0.077303588 1.197
-0.18601727 -0.074334614 1.1943334
-0.072100081 -0.074043393 1.1944286
-0.067789301 -0.076184258 1.197
-0.17256744 -0.065889388 1.1930001
-0.16552693 -0.062334068 1.1950001
-0.11713669 -0.061705936 1.1930001
-0.072995454 -0.065314099 1.1952223
-0.1605536 -0.059814088 1.197
-0.1547834 -0.056758732 1.1946001
-0.14746673 -0.051944543 1.1930001
-0.12401352 -0.05611961 1.1946472
-0.11606423 -0.059081197 1.1963334
-0.10542073 -0.058055144 1.1954
-0.097460963 -0.054704178 1.1954
-0.074791439 -0.054899503 1.1944286
-0.14271432 -0.049320389 1.197
-0.13256317 -0.047325321 1.193
-0.12708615 -0.045667883 1.196273
-0.09199477 -0.048620809 1.197
-0.083936304 -0.047114115 1.1943334
-0.076546341 -0.04718503 1.1961112
-0.29321346 -0.28087875 1.2060002
-0.28697217 -0.28345966 1.202
-0.30343363 -0.27383032 1.2060001
-0.29543188 -0.27473438 1.2043999
-0.28861135 -0.27456129 1.202
-0.29364553 -0.26617146 1.2052728
-0.28687629 -0.2635105 1.2023332
-0.29074651 -0.25797144 1.2060001
-0.28498897 -0.25477096 1.204
-0.27854213 -0.25254956 1.202
-0.28107512 -0.24620306 1.2053334
-0.27773929 -0.24642774 1.202
-0.28265429 -0.23474389 1.2055557
-0.27819088 -0.23604074 1.202
-0.30325192 -0.22333241 1.2052728
-0.29489467 -0.22488467 1.203647
-0.28639019 -0.22670916 1.2028
-0.31231457 -0.21377797 1.2060001
-0.3060962 -0.21528554 1.2044444
-0.2961047 -0.21707319 1.202
-0.3118917 -0.20616572 1.2060001
-0.3062405 -0.20578371 1.2029999
-0.30434987 -0.19547583 1.2031111
-0.2975097 -0.19143184 1.202
-0.30237636 -0.18819228 1.2060001
-0.29468909 -0.18480395 1.2037499
-0.28978217 -0.18229933 1.202
-0.29145133 -0.17620999 1.2060002
-0.2874828 -0.17381321 1.2037144
-0.28416747 -0.16567372 1.2037143
-0.2824848 -0.15709107 1.2053334
-0.27700543 -0.15378661 1.2024444
-0.27280426 -0.14770606 1.2052001
-0.26681188 -0.14342922 1.2038182
-0.26346579 -0.13771966 1.2053334
-0.25434056 -0.1337688 1.2046667
-0.24563918 -0.13147017 1.2036
-0.23999801 -0.13110024 1.2060001
-0.24543536 -0.12672018 1.2060002
-0.22565223 -0.11441144 1.2046667
-0.22096734 -0.10255422 1.2060001
-0.21568105 -0.096210659 1.2060001
-0.046365146 -0.093784049 1.202
-0.21039474 -0.0898671 1.2060001
-0.20426658 -0.085171677 1.2037144
-0.060833067 -0.081931509 1.2033334
-0.055288911 -0.08420103 1.2036002
-0.048202638 -0.088308387 1.2040001
-0.065544866 -0.075162083 1.2037778
-0.17482837 -0.065493137 1.205
-0.16466078 -0.060163878 1.204
-0.070601471 -0.063225202 1.202
-0.068253405 -0.066138886 1.2052001
-0.15510651 -0.054233056 1.2036002
-0.12188414 -0.052336413 1.202
-0.11598475 -0.056275867 1.2055001
-0.10374825 -0.0549087 1.2045001
-0.071022972 -0.05416292 1.202
-0.14376143 -0.047496397 1.2040001
-0.13552812 -0.044120181 1.2040001
-0.1233917 -0.044819292 1.2029999
-0.11947038 -0.048633959 1.2060001
-0.085451044 -0.043251812 1.2033334
-0.07426054 -0.044719849 1.2035384
-0.13004299 -0.039118621 1.2060001
-0.12581395 -0.039118621 1.2060001
-0.08239878 -0.038028922 1.2050002
-0.078589655 -0.038413782 1.2060001
-0.30292854 -0.27194539 1.2124287
-0.30248594 -0.2662349 1.2160001
-0.29714465 -0.26316506 1.2111429
-0.30029252 -0.25754628 1.2190001
-0.29467165 -0.25488675 1.214
-0.28958929 -0.25246245 1.21
-0.29333347 -0.24504772 1.2184999
-0.28645682 -0.24521264 1.2133076
-0.30231848 -0.23018636 1.21
-0.29444465 -0.23445383 1.2134
-0.28785172 -0.23611921 1.2105
-0.32304874 -0.22480024 1.2181666
-0.31502691 -0.22563121 1.214
-0.3081308 -0.22631852 1.2120001
-0.32421532 -0.21473791 1.2172353
-0.31630021 -0.2157848 1.2103636
-0.32237807 -0.20767562 1.2190001
-0.31645539 -0.20519346 1.2139091
-0.31411174 -0.1970735 1.2173334
-0.30902323 -0.19220799 1.2113334
-0.3109791 -0.18701492 1.2190001
-0.30479026 -0.18456934 1.2134999
-0.29807544 -0.18139111 1.21
-0.30307627 -0.17677006 1.218375
-0.29616916 -0.17475945 1.2115384
-0.30029252 -0.16991641 1.2190001
-0.29423535 -0.16487674 1.2134
-0.28874069 -0.16357021 1.21
-0.29211777 -0.15725873 1.217
-0.28554666 -0.15319778 1.212923
-0.28335664 -0.14701684 1.2181667
-0.27612844 -0.14472809 1.2132308
-0.273092 -0.13649334 1.2172726
-0.26517582 -0.13352451 1.2125385
-0.25836104 -0.13225779 1.2108001
-0.26413396 -0.12850662 1.2181667
-0.25464392 -0.12506761 1.2147777
-0.24422815 -0.12330579 1.2112501
-0.23692021 -0.12312819 1.2107999
-0.25113431 -0.11862089 1.2190001
-0.24418804 -0.11781939 1.219
-0.23359811 -0.11558569 1.2143683
-0.22827998 -0.11338754 1.2134001
-0.2318985 -0.10793433 1.2190001
-0.22579145 -0.10569648 1.2158333
-0.22192436 -0.098672628 1.2190001
-0.21596222 -0.092931263 1.215
-0.21191028 -0.087004565 1.2177501
-0.20730957 -0.083301216 1.2152001
-0.052684743 -0.082386211 1.21
-0.046320144 -0.083977364 1.21
-0.2019124 -0.079129979 1.2143334
-0.19477539 -0.074527986 1.2174166
-0.18703122 -0.072815582 1.2108001
-0.06216443 -0.0745342 1.2130909
-0.05451471 -0.075823553 1.2154168
-0.046321511 -0.077593766 1.2162223
-0.18504424 -0.067076027 1.21775
-0.17635885 -0.062828772 1.2148001
-0.16866189 -0.0604637 1.21
-0.067524374 -0.06380643 1.2130002
-0.17312238 -0.058776118 1.2190001
-0.16473991 -0.056509715 1.2162499
-0.15702888 -0.051772069 1.2152001
-0.11415633 -0.052917648 1.2113334
-0.10666346 -0.052089196 1.2126667
-0.098012865 -0.051136624 1.2152501
-0.06823986 -0.053955704 1.2135715
-0.15217355 -0.046454821 1.2162858
-0.1455214 -0.043396931 1.2134001
-0.13919012 -0.042499047 1.2120001
-0.12198816 -0.0413699 1.21
-0.11526802 -0.044802614 1.2131305
-0.10621732 -0.046270706 1.2171818
-0.094723172 -0.045138177 1.2162499
-0.08804363 -0.0413699 1.21
-0.071778543 -0.042077079 1.21
-0.068161115 -0.045241162 1.2127779
-0.14319998 -0.039540295 1.2190001
-0.1342853 -0.038169563 1.2142859
-0.12457474 -0.036886092 1.212923
-0.11560217 -0.037824001 1.2154167
-0.091277003 -0.037896764 1.2177501
-0.085619159 -0.034294818 1.2131876
-0.07503175 -0.034610879 1.2132726
-0.068655275 -0.036994163 1.2173333
-0.081217907 -0.028853729 1.2190001
-0.076943278 -0.028853729 1.2190001
-0.31301996 -0.2721445 1.2270001
-0.30985519 -0.27232948 1.223
-0.31172916 -0.26569048 1.2270001
-0.30721757 -0.26451194 1.2233635
-0.30401903 -0.25503021 1.2254002
-0.29913357 -0.25195837 1.223
-0.30064976 -0.24525276 1.2270001
-0.29734662 -0.24552538 1.223
-0.32270098 -0.23342039 1.2270001
-0.31199953 -0.23051512 1.223
-0.30230665 -0.23680125 1.2250001
-0.29913357 -0.23802026 1.223
-0.33184025 -0.22337291 1.2250001
-0.32843935 -0.22408213 1.223
-0.3321026 -0.21470073 1.223
-0.32915413 -0.21228835 1.223
-0.33130372 -0.20558475 1.2256669
-0.32536218 -0.2045743 1.2243332
-0.32162532 -0.19899894 1.2270001
-0.31703886 -0.19433156 1.2247144
-0.31381097 -0.18521626 1.2252858
-0.30985519 -0.18226776 1.223
-0.31140646 -0.17640987 1.2270001
-0.30662555 -0.17358823 1.2238001
-0.30292851 -0.16641726 1.2247144
-0.29913357 -0.16189666 1.223
-0.30011192 -0.15812349 1.2270001
-0.29525289 -0.15492068 1.2237999
-0.29190689 -0.14863855 1.2256668
-0.28547636 -0.1438098 1.2242
-0.27983463 -0.1404534 1.223
-0.28182554 -0.13768576 1.2270001
-0.27620259 -0.13380563 1.2243334
-0.27170092 -0.12886825 1.2250001
-0.26548514 -0.12397673 1.2240665
-0.25731921 -0.12115446 1.223
-0.26246345 -0.11939937 1.2270001
-0.25465673 -0.11688002 1.2256668
-0.24539956 -0.11390118 1.2248464
-0.23802026 -0.11150499 1.223
-0.24202575 -0.10864267 1.2270001
-0.2349235 -0.10434526 1.2255883
-0.22729862 -0.10185552 1.223
-0.23234472 -0.096810296 1.2270001
-0.22576289 -0.095443234 1.2251334
-0.21979348 -0.091133885 1.223
-0.22051235 -0.088204943 1.2270001
-0.21510889 -0.084850103 1.2251821
-0.20907184 -0.080412246 1.223
-0.20476404 -0.075081177 1.2248464
-0.19727805 -0.071834944 1.223
-0.050391678 -0.071834944 1.223
-0.044243321 -0.073581845 1.2243334
-0.20158055 -0.067336939 1.2270001
-0.1950243 -0.0655054 1.2249999
-0.18596078 -0.062542863 1.223
-0.063741677 -0.065456197 1.2240666
-0.054695394 -0.066120662 1.2255452
-0.047040835 -0.067469798 1.2265002
-0.19254492 -0.059161853 1.2270001
-0.18450256 -0.057135951 1.2255456
-0.17528541 -0.054203339 1.2243998
-0.16600823 -0.052077796 1.2234445
-0.15975234 -0.050391678 1.223
-0.066902824 -0.058318496 1.2243334
-0.17174864 -0.047688037 1.2270001
-0.16472496 -0.046435036 1.2266365
-0.15642382 -0.044844482 1.2237999
-0.10404743 -0.043365568 1.2235715
-0.097995728 -0.042672101 1.223
-0.065473266 -0.044008955 1.2243334
-0.15238659 -0.039082676 1.2270001
-0.14500505 -0.037592337 1.2252223
-0.13488482 -0.03428093 1.2255455
-0.1246265 -0.032229334 1.2255001
-0.1142915 -0.033632234 1.2254617
-0.10534026 -0.037313811 1.2261429
-0.0949862 -0.037286513 1.2252858
-0.066876739 -0.034649596 1.2255001
-0.12155071 -0.026891747 1.2270001
-0.11939937 -0.027967419 1.2270001
-0.083362579 -0.025994744 1.2254
-0.074902654 -0.025322767 1.2255715
-0.069058016 -0.027322019 1.2270001
-0.31645563 -0.2710934 1.2320001
-0.31632459 -0.26535806 1.2345456
-0.3099753 -0.26029286 1.2320001
-0.31279543 -0.25502503 1.2355556
-0.30834177 -0.25358751 1.2326669
-0.3063336 -0.24574953 1.2340001
-0.32181731 -0.23513252 1.2360001
-0.31533816 -0.23560125 1.2346667
-0.30806506 -0.23780549 1.233
-0.33157638 -0.20196997 1.2320001
-0.32941628 -0.20196997 1.2320001
-0.33130023 -0.1981293 1.2350001
-0.3250187 -0.19590148 1.2337501
-0.32217848 -0.18601112 1.2360001
-0.31799856 -0.18407193 1.2320002
-0.32181731 -0.17770383 1.2360001
-0.31635317 -0.17447846 1.2340001
-0.31300408 -0.16725397 1.2354287
-0.30729854 -0.16428265 1.233778
-0.30331931 -0.15522997 1.2348001
-0.29845473 -0.15228753 1.2320001
-0.30014613 -0.14844772 1.2360001
-0.2943489 -0.14500909 1.2344
-0.28837425 -0.14148699 1.2320001
-0.29147765 -0.13977924 1.2360001
-0.2854431 -0.13690333 1.2345002
-0.27865374 -0.13284656 1.2320001
-0.27446878 -0.1249102 1.2342224
-0.26464403 -0.11707649 1.2346668
-0.25611904 -0.11277703 1.2340002
-0.24841227 -0.11124549 1.2320001
-0.25084412 -0.10781422 1.2360001
-0.24423105 -0.10554046 1.2341819
-0.23869179 -0.10152501 1.2320001
-0.24163388 -0.098603956 1.2360001
-0.2351027 -0.095120966 1.2330002
-0.22789125 -0.091804534 1.2320001
-0.23188183 -0.089935482 1.2360001
-0.22465576 -0.086362183 1.2340002
-0.21763074 -0.081544027 1.2320001
-0.22212979 -0.079099879 1.2360001
-0.21429473 -0.075805254 1.2341335
-0.20773025 -0.0709235 1.2320001
-0.042122081 -0.070203468 1.2320001
-0.2112942 -0.068264283 1.2360001
-0.20576175 -0.065340772 1.2340001
-0.19980986 -0.061563041 1.2320001
-0.061563041 -0.061563041 1.2320001
-0.055802751 -0.061563041 1.2320001
-0.043393999 -0.064554729 1.233143
-0.20118098 -0.058873426 1.2360001
-0.19441748 -0.055545304 1.2343335
-0.18579443 -0.052124493 1.2336001
-0.064044006 -0.05674839 1.2330002
-0.055172138 -0.058415808 1.2340002
-0.045713179 -0.056869779 1.2347693
-0.18427633 -0.04811848 1.2354287
-0.1748189 -0.045433424 1.2340001
-0.16540632 -0.041782983 1.2348001
-0.15902558 -0.041106902 1.2340001
-0.063930042 -0.04225884 1.2360001
-0.15387605 -0.036650177 1.2348573
-0.14495315 -0.033265021 1.2328891
-0.13673984 -0.031886995 1.233
-0.11124549 -0.031321548 1.2320001
-0.10345049 -0.033303771 1.2327275
-0.096680202 -0.034389179 1.2336
-0.064083166 -0.034921724 1.2320002
-0.14368007 -0.028389271 1.2360001
-0.13474528 -0.027380863 1.2341539
-0.12584506 -0.024733394 1.2335002
-0.11523715 -0.024569079 1.232522
-0.10743123 -0.027668601 1.234286
-0.084515572 -0.022695849 1.2328001
-0.073803641 -0.020881033 1.2320002
-0.065989509 -0.025312174 1.2340001
-0.11614501 -0.017951328 1.2336
-0.075040653 -0.017792825 1.2354287
-0.32146052 -0.26370308 1.243
-0.3187674 -0.2611064 1.2410001
-0.32197773 -0.25867364 1.245
-0.31817544 -0.25437555 1.244
-0.31475577 -0.24505027 1.2423333
-0.32488826 -0.23902754 1.245
-0.3187674 -0.23825958 1.2410001
-0.32747093 -0.19147801 1.2410001
-0.3267788 -0.18408379 1.2425001
-0.32473791 -0.17443752 1.2423334
-0.32270536 -0.16844712 1.245
-0.31595933 -0.16377383 1.2431818
-0.31056356 -0.15909396 1.243
-0.30729449 -0.15364549 1.243
-0.30233166 -0.14661811 1.245
-0.29724786 -0.14208969 1.2420001
-0.29360005 -0.13788651 1.245
-0.28550112 -0.13330506 1.243
-0.28050265 -0.12769964 1.245
-0.27831975 -0.12333385 1.245
-0.27286249 -0.1178766 1.245
-0.26602861 -0.11338807 1.2436666
-0.26043749 -0.10896792 1.243
-0.25539684 -0.10692753 1.2432222
-0.24803512 -0.10231139 1.2442
-0.24503052 -0.097684771 1.245
-0.23804392 -0.093399189 1.2436666
-0.23138739 -0.087315999 1.245
-0.22738542 -0.082586378 1.245
-0.22273174 -0.076569997 1.2442
-0.21721783 -0.071679249 1.2426001
-0.21402523 -0.065705508 1.244
-0.2081303 -0.061565228 1.243
-0.20374718 -0.055095866 1.2444999
-0.19748126 -0.052036654 1.2418001
-0.062110957 -0.051759712 1.243
-0.055262685 -0.053548548 1.243
-0.044116497 -0.052283086 1.2425001
-0.03815984 -0.053423773 1.2436666
-0.19393638 -0.046901487 1.2442
-0.18560337 -0.043128114 1.2432858
-0.1763677 -0.041462731 1.2410001
-0.061197273 -0.045928661 1.2441112
-0.044154108 -0.047527682 1.245
-0.036920317 -0.045019213 1.2438571
-0.18172643 -0.037655026 1.245
-0.1737446 -0.036821097 1.2445
-0.16485505 -0.035490219 1.243
-0.1563805 -0.033757456 1.2422001
-0.14904824 -0.031550355 1.2410001
-0.094651073 -0.031550355 1.2410001
-0.060029749 -0.038200751 1.245
-0.059040867 -0.033333145 1.2426001
-0.15416731 -0.028104836 1.245
-0.14558785 -0.02373682 1.2434446
-0.13546322 -0.022151906 1.2427778
-0.12988254 -0.020737549 1.245
-0.10429791 -0.023868682 1.2428182
-0.095759928 -0.028804885 1.2432858
-0.061654739 -0.023315651 1.2426001
-0.058841866 -0.02942181 1.243
-0.14952865 -0.01855465 1.245
-0.12422717 -0.018524844 1.243
-0.11023645 -0.0152803 1.245
-0.10796501 -0.017994022 1.244
-0.081595749 -0.018495036 1.2410001
-0.073993683 -0.013925266 1.2432222
-0.065196939 -0.015044009 1.2436669
-0.0720357 -0.0098230503 1.245
-0.068761349 -0.0098230503 1.245
-0.33001328 -0.26378986 1.2590001
-0.32712376 -0.26384774 1.253
-0.33177924 -0.25363562 1.2589999
-0.32505801 -0.25499326 1.2522727
-0.33265182 -0.24556376 1.2575001
-0.32482567 -0.24585366 1.2535715
-0.32765415 -0.23998749 1.25
-0.33058923 -0.17300579 1.2570001
-0.32984585 -0.17204583 1.25
-0.33001328 -0.16886967 1.2590001
-0.32433763 -0.16408801 1.254125
-0.3188875 -0.1610875 1.25
-0.32084337 -0.15766294 1.2576667
-0.31521058 -0.15436856 1.2544374
-0.30792916 -0.15012917 1.25
-0.31476551 -0.14785472 1.2572858
-0.30596355 -0.14427917 1.2531667
-0.30193803 -0.13884646 1.2570001
-0.29488492 -0.1347007 1.2543334
-0.2860125 -0.13040416 1.25
-0.29083112 -0.12582447 1.2590001
-0.28535333 -0.12466932 1.2553571
-0.27834165 -0.1216375 1.25
-0.28177774 -0.11800283 1.2580001
-0.27553049 -0.11464769 1.2555001
-0.26810658 -0.1115573 1.2516667
-0.27041221 -0.10926861 1.2590001
-0.26426205 -0.10570075 1.256
-0.25728539 -0.10250162 1.2534286
-0.25317004 -0.095874183 1.2570909
-0.24586897 -0.094348259 1.2539166
-0.23779583 -0.09095417 1.25
-0.24245124 -0.088665776 1.2590001
-0.23562329 -0.084776476 1.2559286
-0.23141401 -0.076156907 1.2590001
-0.22670627 -0.074906342 1.2529
-0.22324623 -0.065904438 1.2565
-0.21629241 -0.062030192 1.252375
-0.21444163 -0.05549131 1.2563846
-0.20755084 -0.054134168 1.25
-0.204877 -0.045155447 1.2564446
-0.19661257 -0.042835075 1.2529
-0.05479167 -0.044929158 1.25
-0.045439191 -0.042772256 1.2510713
-0.038354166 -0.041641667 1.25
-0.20418881 -0.032007977 1.2590001
-0.1943837 -0.036025338 1.257077
-0.18556236 -0.034571212 1.2536155
-0.17641984 -0.033196628 1.251875
-0.16656667 -0.031779166 1.25
-0.054444127 -0.035458036 1.2528572
-0.045185428 -0.035318967 1.2570528
-0.037378144 -0.036274131 1.2540001
-0.18358596 -0.029064715 1.2590001
-0.17416881 -0.026832951 1.2579334
-0.16521896 -0.025326287 1.2564002
-0.15636593 -0.023225093 1.2516667
-0.1013149 -0.021579152 1.2516667
-0.094885871 -0.023960643 1.2525884
-0.088478751 -0.021659805 1.2563335
-0.060270835 -0.021916667 1.25
-0.055260573 -0.025705077 1.2545002
-0.049667548 -0.029800531 1.2590001
-0.17438829 -0.018763296 1.2590001
-0.16508546 -0.017817248 1.2589999
-0.15697977 -0.017319098 1.2543751
-0.14280076 -0.016496938 1.255
-0.13558103 -0.016506171 1.2556666
-0.12867406 -0.017592508 1.2545
-0.11067916 -0.012054167 1.25
-0.10373055 -0.014929377 1.253353
-0.095330492 -0.016991377 1.2586
-0.084734999 -0.016260706 1.2552222
-0.078899994 -0.01315 1.25
-0.060270835 -0.015341667 1.25
-0.057278331 -0.015420128 1.2565001
-0.10522931 -0.0089647928 1.2560002
-0.080443807 -0.008814007 1.2570001
-0.074592985 -0.0053516668 1.2535625
-0.065083377 -0.0055934121 1.2545002
-0.058497336 -0.0088297864 1.2590001
-0.071742013 0.0011037233 1.2590001
-0.067327119 0.0011037233 1.2590001
-0.33904207 -0.25011301 1.268
-0.32689145 -0.16289169 1.2640001
-0.32354024 -0.15493272 1.2653333
-0.31273067 -0.14361115 1.265
-0.30369538 -0.13590838 1.2662858
-0.29855233 -0.13096173 1.266
-0.29455256 -0.12508675 1.2654999
-0.28921583 -0.12078363 1.2640001
-0.29124272 -0.11783101 1.268
-0.28409803 -0.11450008 1.2653334
-0.27467602 -0.10767297 1.2662222
-0.26650387 -0.10229508 1.2656
-0.26257393 -0.097399414 1.2673334
-0.25661317 -0.092807442 1.2653333
-0.25330448 -0.086982481 1.2666667
-0.24519524 -0.084933564 1.2648
-0.23824294 -0.080891788 1.2640001
-0.24196117 -0.078183472 1.268
-0.23584615 -0.074728236 1.2659999
-0.23203404 -0.066832162 1.2664001
-0.22790061 -0.064639553 1.2640001
-0.22380038 -0.054968402 1.2658666
-0.21704979 -0.051394869 1.2653333
-0.22232267 -0.047799371 1.268
-0.21427661 -0.046772499 1.2653333
-0.20943215 -0.040999945 1.2640001
-0.20379089 -0.035761628 1.2640001
-0.19724298 -0.033243202 1.2640001
-0.045432374 -0.034351308 1.2640001
-0.038085908 -0.031427916 1.2653333
-0.20056731 -0.029918879 1.2640001
-0.19502676 -0.029918879 1.2640001
-0.18506628 -0.026752748 1.2657778
-0.1769028 -0.023280758 1.2645714
-0.051733851 -0.021981891 1.2664001
-0.045684852 -0.028136855 1.2654545
-0.17175654 -0.018837813 1.2640001
-0.13334218 -0.014405387 1.2640001
-0.093418293 -0.011980876 1.2656
-0.087302975 -0.013148996 1.2651428
-0.053314485 -0.015826464 1.267
-0.10292267 -0.0061827539 1.2662858
-0.095385477 -0.0073668687 1.2665454
-0.084518462 -0.0070312563 1.2666667
-0.07880006 -0.0022179666 1.266
-0.060945865 -0.0022162134 1.2640001
-0.056823082 -0.0051046545 1.266
-0.073605575 0.0045459149 1.266909
-0.064821541 0.0043579773 1.2664615
-0.057803895 0.0022232267 1.268
-0.33098155 -0.16325331 1.2755001
-0.32698703 -0.15735553 1.273
-0.31567678 -0.14161567 1.276
-0.31180492 -0.13575827 1.2763333
-0.30649173 -0.1331467 1.2736249
-0.31034526 -0.12548256 1.2780001
-0.3039673 -0.12547664 1.2756666
-0.2979711 -0.12275963 1.273
-0.3025026 -0.11988066 1.2780001
-0.29494837 -0.11539364 1.2757272
-0.28659004 -0.11190965 1.2739999
-0.28278619 -0.10679921 1.2770001
-0.27536494 -0.1036095 1.2742499
-0.2730605 -0.097737439 1.2772857
-0.26538488 -0.093944386 1.2743635
-0.26231542 -0.085446358 1.2768888
-0.2548506 -0.082902759 1.2736249
-0.24886726 -0.081467755 1.273
-0.26232898 -0.076345898 1.278
-0.25606787 -0.076397188 1.2772307
-0.24581876 -0.074956812 1.2762144
-0.23882329 -0.071423784 1.273
-0.2408817 -0.067222804 1.2780001
-0.23574209 -0.063997641 1.2757777
-0.2336695 -0.055945218 1.2763332
-0.22788796 -0.051385157 1.27425
-0.22766331 -0.047987856 1.273
-0.21873534 -0.045755863 1.273
-0.036827888 -0.03013191 1.273
-0.19348297 -0.026184378 1.274111
-0.18710347 -0.02352798 1.2780001
-0.045588542 -0.02383494 1.2772857
-0.038016215 -0.027954709 1.2755001
-0.051260952 -0.01293434 1.2751428
-0.048176341 -0.019046459 1.2780001
-0.10501011 -0.0024622059 1.2770001
-0.094985865 -0.0028534522 1.2746665
-0.084725797 -0.0033532497 1.275
-0.052270569 -0.0043443702 1.2746665
-0.081787743 0.00224076 1.2780001
-0.077958807 0.0051379679 1.2739999
-0.062495813 0.0078119766 1.273
-0.055770319 0.0045957793 1.2752222
-0.073384762 0.011032475 1.2765714
-0.065350845 0.011863315 1.2765
-0.058633219 0.01083034 1.2780001
-0.33422741 -0.16146797 1.2880001
-0.33083996 -0.15695138 1.2880001
-0.32097396 -0.14303051 1.2846667
-0.32180679 -0.13888504 1.2880001
-0.31641167 -0.13463859 1.2844287
-0.31371576 -0.12550789 1.2846667
-0.30818516 -0.12147444 1.2830001
-0.30419084 -0.1153605 1.2859167
-0.29581276 -0.11135157 1.2830001
-0.29373947 -0.10823677 1.2880001
-0.28443491 -0.10373615 1.2846667
-0.28228667 -0.098235756 1.2880001
-0.27542996 -0.093761347 1.2855
-0.26881844 -0.091105826 1.2830001
-0.27212435 -0.086944282 1.2880001
-0.268004 -0.085048191 1.2837143
-0.26544416 -0.079858199 1.2830001
-0.25429165 -0.072671093 1.2841113
-0.24744794 -0.070860088 1.2830001
-0.25493622 -0.068811104 1.2867501
-0.24558327 -0.066013701 1.2850001
-0.23957458 -0.061861984 1.2830001
-0.23957458 -0.059612457 1.2830001
-0.19587941 -0.022696648 1.2851429
-0.18558596 -0.021370506 1.2830001
-0.042741008 -0.022495268 1.2830001
-0.035634343 -0.023493856 1.2856923
-0.19374049 -0.018277405 1.2830001
-0.18783547 -0.019120976 1.2830001
-0.044830013 -0.014389747 1.2835267
-0.035101514 -0.01482619 1.2846669
-0.10685252 -0.0011247633 1.2830001
-0.093355358 -0.0011247633 1.2830001
-0.086606771 -0.0011247633 1.2830001
-0.05061435 -0.0011247633 1.2830001
-0.046735004 -0.0053855581 1.2863334
-0.036132693 -0.0079040267 1.2880001
-0.10316733 0.0025389362 1.2861251
-0.09471079 0.0022566495 1.2861251
-0.085775144 0.0033847005 1.2873751
-0.079858199 0.0078733433 1.2830001
-0.052181248 0.0052576624 1.2846668
-0.048553307 0.0022582933 1.2880001
-0.08016941 0.012420613 1.2880001
-0.074330814 0.016333178 1.2846667
-0.064786367 0.017321356 1.2830001
-0.057078227 0.015585892 1.2850834
-0.072265387 0.021453787 1.2880001
-0.065231942 0.024604291 1.2873334
-0.057171378 0.024638427 1.2871667
-0.063232213 0.031616107 1.2880001
-0.058339246 0.034250781 1.2880001
-0.33931863 -0.16114581 1.2945001
-0.34224802 -0.15804809 1.2970001
-0.33537379 -0.15613872 1.2953333
-0.32846946 -0.15064289 1.2920001
-0.33201468 -0.1489518 1.2970001
-0.3264043 -0.14562535 1.2934285
-0.32348692 -0.13587588 1.2970001
-0.31827557 -0.13025513 1.2920001
-0.32178137 -0.1273481 1.2970001
-0.31682852 -0.1222646 1.2953334
-0.31327245 -0.11705266 1.2927142
-0.30694905 -0.11326534 1.2920001
-0.30241844 -0.10684697 1.2919999
-0.29518774 -0.10362422 1.2923845
-0.28807148 -0.10156125 1.2920001
-0.30129543 -0.097909935 1.2936667
-0.29496714 -0.096426837 1.2965833
-0.28614894 -0.094785519 1.2937857
-0.27976537 -0.091744922 1.2920001
-0.28482768 -0.089257382 1.2970001
-0.27750006 -0.088346951 1.2919999
-0.25031638 -0.06456124 1.2920001
-0.24641991 -0.06169863 1.2953334
-0.20277154 -0.02236172 1.2970001
-0.043273393 -0.0034010911 1.2941428
-0.039251171 -0.0047606505 1.294
-0.11086107 0.0028425916 1.2970001
-0.10459635 0.0063267783 1.2948571
-0.095326982 0.0068112621 1.2945
-0.087383062 0.0068112626 1.2945
-0.0509694 0.0079285735 1.2920001
-0.046573576 0.0028414959 1.29575
-0.10233329 0.01023333 1.2970001
-0.095511086 0.01023333 1.2970001
-0.084631234 0.013709988 1.295077
-0.078153081 0.019255107 1.2920001
-0.052890029 0.013975966 1.2928333
-0.080729604 0.021603696 1.2970001
-0.074979141 0.025225611 1.2943077
-0.069091856 0.028316334 1.2920001
-0.05436736 0.0254847 1.2920001
-0.073269829 0.032943383 1.29575
-0.065719493 0.035775367 1.294
-0.055544723 0.033783752 1.293
-0.34144938 -0.15124604 1.307
-0.33789065 -0.15238027 1.3030001
-0.33409029 -0.14586225 1.3060001
-0.32987037 -0.1426775 1.302
-0.33113715 -0.13864221 1.307
-0.32690141 -0.13541286 1.3053335
-0.32655394 -0.12947577 1.307
-0.25322253 -0.063019186 1.307
-0.24768814 -0.060495261 1.302
-0.036525439 -0.00228284 1.302
-0.11359949 0.004957112 1.3045
-0.1084349 0.0079899402 1.302
-0.043864015 0.0055322056 1.3053335
-0.037780825 0.0025198907 1.306
-0.11114293 0.01031223 1.307
-0.10534716 0.012251415 1.304143
-0.094347596 0.014869872 1.3045001
-0.086860426 0.017144678 1.3036667
-0.051429648 0.014860377 1.3036667
-0.04864952 0.012021072 1.3057501
-0.09051846 0.021770263 1.307
-0.083679825 0.025467567 1.3042728
-0.078757979 0.0285355 1.302
-0.083279386 0.032911159 1.30575
-0.076574981 0.035938561 1.3036667
-0.0684852 0.0399497 1.302
-0.055929579 0.0399497 1.302
-0.081352033 0.040103115 1.307
-0.074477218 0.042012785 1.307
-0.064586021 0.044914436 1.3046666
-0.057697594 0.043989599 1.3032501
-0.34390581 -0.15067445 1.312
-0.34225634 -0.14577477 1.3145001
-0.33700469 -0.14377333 1.3120002
-0.34175271 -0.1385484 1.317
-0.33453998 -0.13538331 1.3138185
-0.32780319 -0.13227147 1.312
-0.33010358 -0.12997109 1.312
-0.25304106 -0.060959894 1.312
-0.1207696 0.0011501866 1.312
-0.11723372 0.0057655443 1.3153334
-0.040256534 0.0080513069 1.312
-0.03633498 0.0063468474 1.3157501
-0.11408765 0.011523783 1.3145001
-0.10498609 0.015921671 1.316
-0.096072845 0.018662831 1.3139999
-0.051955651 0.01962769 1.317
-0.045482442 0.013453912 1.3153334
-0.092279024 0.024222957 1.31575
-0.088817514 0.025379719 1.3157501
-0.091211028 0.032327957 1.317
-0.086453103 0.035733432 1.3148572
-0.083129041 0.041564517 1.317
-0.075334996 0.046001721 1.3147274
-0.065560639 0.048691232 1.312
-0.05865952 0.049458027 1.312
-0.064161107 0.053605039 1.317
-0.058883071 0.055419363 1.317
-0.34189123 -0.13559754 1.322
-0.33841437 -0.13327964 1.322
-0.13155611 0.0011642133 1.3280001
-0.12479048 0.0043345587 1.3258182
-0.11937219 0.00695372 1.322
-0.12410514 0.01140929 1.3280001
-0.11544377 0.01531728 1.3252728
-0.10515997 0.018944474 1.3230001
-0.043540966 0.017226648 1.3245001
-0.036921691 0.014540832 1.3265002
-0.11060026 0.022120053 1.3280001
-0.10421487 0.023103673 1.327143
-0.096138075 0.026008945 1.3244002
-0.051534552 0.022862881 1.3260001
-0.047732748 0.022120053 1.3280001
-0.094584353 0.034450077 1.3246667
-0.089239404 0.038245458 1.322
-0.092748992 0.041523609 1.3280001
-0.086612113 0.044521276 1.3269092
-0.077649869 0.049062356 1.322
-0.09263812 0.05505066 1.3280001
-0.085142799 0.055183712 1.3279998
-0.074386708 0.055790845 1.3257499
-0.065287709 0.057046253 1.322
-0.058333982 0.055243444 1.322
-0.09197285 0.061703306 1.3280001
-0.08343529 0.063255593 1.3280001
-0.074192137 0.064031735 1.3280001
-0.064816825 0.064280309 1.3256924
-0.058855541 0.064437456 1.3268001
-0.34473601 -0.13438861 1.3330001
-0.16069826 -0.01524874 1.3380001
-0.15483335 -0.014662249 1.3380002
-0.14779547 -0.01055682 1.3380001
-0.14604034 -0.0040599783 1.3376155
-0.13841164 -0.0011729799 1.3380001
-0.15459876 0.0063340915 1.3380002
-0.14531691 0.0046875365 1.33675
-0.13616762 0.0049218405 1.3366667
-0.12912993 0.006427282 1.3330001
-0.16069826 0.01055682 1.3380001
-0.15483336 0.01524874 1.3379998
-0.14523605 0.015227261 1.336
-0.13569161 0.015462563 1.3370475
-0.12585706 0.016520398 1.3339375
-0.11638604 0.019300472 1.3342501
-0.037005562 0.017528949 1.3330001
-0.15459876 0.025727361 1.3379999
-0.14544952 0.025805559 1.3379999
-0.13489269 0.02228662 1.3380001
-0.12492237 0.023752846 1.3380002
-0.11441932 0.025385344 1.3363334
-0.10574149 0.027704518 1.3352224
-0.099330716 0.029214917 1.3330001
-0.050249655 0.024540531 1.3330001
-0.044532694 0.022852289 1.33675
-0.037535362 0.02228662 1.3380001
-0.16069826 0.03870834 1.3380001
-0.15459876 0.035423994 1.3379999
-0.14561708 0.034854263 1.3380001
-0.11399233 0.034869492 1.3380002
-0.10549669 0.035165563 1.3370625
-0.098470353 0.036722865 1.3340001
-0.15600635 0.041640788 1.3380001
-0.11436555 0.04281377 1.3380001
-0.10601934 0.045024391 1.3380001
-0.095416293 0.045428574 1.3363335
-0.087809123 0.046833724 1.3355
-0.1045628 0.054124653 1.3380001
-0.097402714 0.05523679 1.3359169
-0.085106716 0.054241735 1.3335001
-0.057476021 0.057476021 1.3380001
-0.095176712 0.065168597 1.3370001
-0.085582525 0.065785117 1.3330001
-0.075491346 0.06801232 1.3330001
-0.066610008 0.068947203 1.3330001
-0.091883428 0.073115751 1.3380002
-0.084657155 0.073636398 1.3375002
-0.075774513 0.07202097 1.3380001
-0.065686882 0.071551777 1.3380001
-0.17226881 -0.011432026 1.3490001
-0.16530918 -0.01354295 1.3476156
-0.15706028 -0.01153816 1.3430001
-0.17195344 -0.0040209191 1.3490001
-0.16511163 -0.004718658 1.3452502
-0.15541197 -0.0047094529 1.3430003
-0.17365497 0.0047239182 1.3475002
-0.16487788 0.0047097816 1.3433753
-0.15580441 0.0019622722 1.3430001
-0.17261405 0.012993827 1.3472859
-0.16511647 0.014369096 1.3434002
-0.03193083 0.013008856 1.3490001
-0.17148039 0.025426403 1.3490001
-0.16501892 0.024752244 1.3445003
-0.15894406 0.027079357 1.3430001
-0.14010623 0.027079357 1.3430001
-0.13421942 0.027079353 1.3430003
-0.12421183 0.027962379 1.3430002
-0.11812878 0.028649174 1.3430001
-0.051486924 0.0279081 1.3450001
-0.044491388 0.027341241 1.3451819
-0.037945814 0.026634712 1.3442
-0.17417628 0.036253527 1.3485001
-0.16511649 0.035094894 1.3434004
-0.15894406 0.031788811 1.3430001
-0.14178036 0.036134738 1.344
-0.13421942 0.0353209 1.3430003
-0.1248005 0.0353209 1.3430003
-0.11750086 0.03602732 1.3430001
-0.047304932 0.03193083 1.3490001
-0.18094137 0.041391816 1.3490001
-0.17502826 0.044939686 1.3490003
-0.16487788 0.044753283 1.3433752
-0.15501952 0.045720939 1.3430003
-0.14494088 0.044779781 1.3442004
-0.13421941 0.044739798 1.3430003
-0.12480051 0.044739805 1.3430003
-0.11557784 0.045328487 1.3430003
-0.10175783 0.043898832 1.3430002
-0.17226881 0.051641215 1.3490001
-0.16533946 0.054328673 1.3471252
-0.1551407 0.054560617 1.3463339
-0.14446804 0.053964589 1.344667
-0.13463265 0.054329339 1.3471253
-0.12504607 0.054268848 1.3456253
-0.11544538 0.054190274 1.3437502
-0.10714006 0.054158714 1.3430001
-0.16530447 0.064518675 1.3490005
-0.15492365 0.065044291 1.3490005
-0.1444957 0.064573221 1.3473337
-0.13455625 0.064518675 1.3490005
-0.12535807 0.065044284 1.3490005
-0.11538161 0.064754978 1.3430003
-0.10532051 0.065290138 1.3430003
-0.097721159 0.068287075 1.3430001
-0.16477884 0.074899472 1.3490001
-0.15467468 0.075501159 1.3490005
-0.1449005 0.075854793 1.347154
-0.13383354 0.076279201 1.3490001
-0.12527922 0.075451367 1.3490003
-0.1153816 0.075351261 1.3430003
-0.10480821 0.075368866 1.3433003
-0.095366426 0.076528616 1.3430002
-0.084377706 0.077705979 1.3430001
-0.075060278 0.076774724 1.3435457
-0.06681551 0.076736905 1.3466002
-0.1620194 0.085148878 1.3490001
-0.15369733 0.085126191 1.3486253
-0.14419982 0.085102193 1.3482503
-0.134859 0.085360497 1.3486003
-0.12535806 0.085148871 1.3490003
-0.11570247 0.08501146 1.3467503
-0.10501993 0.084964238 1.3460003
-0.094269618 0.084843464 1.3441253
-0.084908232 0.08491414 1.3452502
-0.0756879 0.085148878 1.3490003
-0.068423204 0.083966255 1.3490001
-0.15374103 0.094609879 1.3490003
-0.14420047 0.094555959 1.3482503
-0.13481905 0.094609857 1.3490003
-0.12599486 0.09397307 1.3490002
-0.11562419 0.093791135 1.3490002
-0.10518482 0.094547004 1.3481004
-0.094372176 0.094374813 1.3456252
-0.085051566 0.094507292 1.3475003
-0.076440476 0.093427248 1.3490001
-0.15271612 0.10478042 1.3490003
-0.14490613 0.10483607 1.3490003
-0.13502775 0.10525347 1.3490003
-0.12772331 0.10052298 1.3490001
-0.11234922 0.10052298 1.3490001
-0.10466216 0.10229692 1.3490001
-0.094583243 0.1040429 1.3486253
-0.086627156 0.10259257 1.3490001
-0.15019317 0.11353184 1.3490001
-0.14575832 0.11441881 1.3490001
-0.18228267 -0.011913899 1.3590001
-0.17724349 -0.013360947 1.3546251
-0.18330386 -0.0042549642 1.3590001
-0.17720017 -0.0050765378 1.3549092
-0.19459371 0.0075454698 1.3590001
-0.18510608 0.0050987564 1.3572143
-0.17923801 0.0047480264 1.3540001
-0.19538796 0.014296678 1.3589998
-0.18551877 0.014270927 1.3565
-0.17716075 0.014837583 1.3540001
-0.028953962 0.014677738 1.3573335
-0.19519983 0.024768373 1.3589997
-0.18572226 0.024999024 1.3579998
-0.17615324 0.024220951 1.3555386
-0.1939583 0.035026863 1.3590001
-0.18538971 0.035649374 1.3555624
-0.17805101 0.033236187 1.3540001
-0.051041286 0.032049179 1.3540001
-0.045083463 0.035832681 1.3573334
-0.038124479 0.032167532 1.3590001
-0.1939583 0.045987651 1.3590001
-0.18550335 0.045365866 1.3546668
-0.19372001 0.05432738 1.3590001
-0.18564506 0.054743949 1.3574376
-0.17646821 0.055290349 1.3551539
-0.19276689 0.062667117 1.3590001
-0.18585683 0.064335056 1.3589998
-0.17588273 0.064170957 1.3555626
-0.1412538 0.067659378 1.3540001
-0.18559812 0.074902631 1.3584735
-0.17574273 0.074808165 1.3545001
-0.16645487 0.075694509 1.3540001
-0.1412538 0.073594414 1.3540001
-0.13808845 0.07280308 1.3540001
-0.12700972 0.079529449 1.3540001
-0.18347406 0.084588684 1.3590001
-0.17584136 0.08554557 1.35525
-0.16525772 0.085464485 1.3540001
-0.13413176 0.081903458 1.3540001
-0.066234969 0.087126292 1.3540001
-0.17553031 0.095501378 1.3574375
-0.16415605 0.094751075 1.3540001
-0.12305302 0.097730219 1.3540001
-0.11751366 0.098521553 1.3540001
-0.072783493 0.096199512 1.3547144
-0.06528537 0.091399513 1.3540001
-0.17328106 0.10365094 1.3590001
-0.16415127 0.10467328 1.3568124
-0.15727839 0.1062371 1.3540001
-0.1412538 0.1068306 1.3540001
-0.13413176 0.10564359 1.3540001
-0.1253456 0.10499378 1.3543571
-0.11554985 0.10475997 1.3566924
-0.10524792 0.10722627 1.3540001
-0.084277473 0.10564359 1.3540001
-0.077996537 0.10451119 1.3568572
-0.17036878 0.11318205 1.3590001
-0.16363308 0.11363718 1.3578461
-0.15481225 0.11572088 1.3543848
-0.14333107 0.1166234 1.3540001
-0.13542667 0.11492383 1.3540001
-0.12476834 0.1139724 1.3574617
-0.11635909 0.11159352 1.3590001
-0.10490356 0.11459612 1.3575714
-0.095645525 0.11399753 1.3564999
-0.086841725 0.11254244 1.3570001
-0.079823129 0.11079927 1.3590001
-0.16163191 0.12112465 1.3590001
-0.15445569 0.12478425 1.3573334
-0.14553945 0.12594141 1.35525
-0.13615885 0.12339395 1.359
-0.1298615 0.12271317 1.3590001
-0.10523945 0.12112465 1.3590001
-0.15368931 0.13224429 1.3590001
-0.14534958 0.13224429 1.3590001
-0.19106512 -0.011567616 1.3650001
-0.18577991 -0.014060637 1.3649999
-0.19321296 -0.0041422499 1.3649999
-0.18739538 -0.00550459 1.365
-0.20382936 0.0067810169 1.3649999
-0.19565226 0.0029916251 1.3649999
-0.20582379 0.0143598 1.3649999
-0.02512965 0.01316315 1.365
-0.21366851 0.027257029 1.3649999
-0.20582381 0.02512965 1.3649999
-0.19984055 0.029916249 1.365
-0.21420033 0.035899501 1.3649999
-0.20582378 0.035899498 1.3649999
-0.19864388 0.03709615 1.3649999
-0.052652597 0.037096146 1.3649999
-0.047866002 0.039489448 1.365
-0.038292799 0.034702849 1.365
-0.21330285 0.044575214 1.3649999
-0.20582379 0.045472708 1.3649999
-0.19864388 0.044276047 1.3649999
-0.05384925 0.045985553 1.3649999
-0.047148012 0.042840071 1.365
-0.20502602 0.054248124 1.3649999
-0.19904278 0.055843666 1.3649999
-0.20223385 0.061029151 1.365
-0.19744726 0.065380603 1.3649999
-0.19537306 0.074112527 1.3649999
-0.19355813 0.084662989 1.3649999
-0.18667741 0.087355442 1.3649999
-0.19286011 0.095133685 1.3649999
-0.18511257 0.095639959 1.3649999
-0.065815747 0.095333122 1.3650001
-0.19086567 0.10351022 1.365
-0.18428409 0.1053052 1.3649999
-0.17620672 0.10620269 1.3649999
-0.11128845 0.10889515 1.365
-0.0741923 0.10410855 1.365
-0.18278828 0.11338259 1.3649999
-0.17530923 0.11487841 1.3649999
-0.16792989 0.11767059 1.3650001
-0.12086165 0.1172717 1.365
-0.11441815 0.11552276 1.3649999
-0.092142053 0.11846835 1.365
-0.084620252 0.11436556 1.3649999
-0.077782251 0.11128845 1.365
-0.17231759 0.12086165 1.365
-0.16561636 0.12421227 1.3649999
-0.15915444 0.12804155 1.365
-0.13282815 0.12804155 1.3650001
-0.12445159 0.1244516 1.3649999
-0.1148784 0.12445159 1.3649999
-0.10550464 0.12485047 1.3649999
-0.097526968 0.12145998 1.365
-0.15532517 0.13234949 1.365
-0.14479466 0.13546078 1.3649999
-0.1340248 0.13234949 1.3649999
-0.12421227 0.13234951 1.3649999
-0.11559639 0.13091353 1.365
-0.10889515 0.13043486 1.365
-0.19541952 -0.020506987 1.376
-0.20506988 -0.013269227 1.3760003
-0.19547874 -0.015082581 1.3718463
-0.1873612 -0.0180155 1.3700001
-0.21420322 -0.002240259 1.3760002
-0.20441444 -0.0045779538 1.3732002
-0.19736981 -0.0076065441 1.3700002
-0.21437237 0.0048139966 1.3737501
-0.2061774 0.0028024111 1.37
-0.22135481 0.013872374 1.376
-0.21530233 0.014433441 1.3720001
-0.022819633 0.013211367 1.3700001
-0.23040202 0.026538454 1.376
-0.22474852 0.023764681 1.3751431
-0.21690555 0.023131071 1.3707501
-0.23040202 0.034982506 1.376
-0.22525248 0.03493166 1.3740001
-0.2197891 0.034829967 1.3700001
-0.042036165 0.039634101 1.3700001
-0.039634101 0.038433068 1.3700001
-0.22394735 0.045514561 1.3752501
-0.21807335 0.046153996 1.37
-0.052445125 0.046039611 1.3700002
-0.046237405 0.046583563 1.3725713
-0.22195795 0.053076908 1.376
-0.2143524 0.055415992 1.3718463
-0.20777877 0.057649598 1.3700001
-0.054121893 0.051719826 1.3720001
-0.049458027 0.051870614 1.376
-0.21293935 0.064630494 1.3754002
-0.20584325 0.065262258 1.3716364
-0.21213531 0.074273206 1.3760002
-0.20507887 0.07494849 1.3725716
-0.21110134 0.082027949 1.376
-0.20445202 0.084206536 1.3736924
-0.1981705 0.085273363 1.3700002
-0.06152096 0.08805941 1.376
-0.20309545 0.094319843 1.3735002
-0.19769008 0.096322872 1.3700001
-0.067257866 0.098484732 1.3700001
-0.20317426 0.10322424 1.3760002
-0.19578435 0.10641024 1.3715001
-0.18856223 0.10929403 1.3700001
-0.072862692 0.10609128 1.37
-0.19387868 0.11295255 1.3736
-0.18629779 0.11618493 1.3710002
-0.17895396 0.1189023 1.3700001
-0.090077497 0.1189023 1.3700001
-0.086474396 0.1189023 1.3700001
-0.18215029 0.12183563 1.376
-0.17493327 0.12505029 1.3727273
-0.16574261 0.12851056 1.3700001
-0.095418744 0.12388702 1.3720001
-0.08805941 0.12183563 1.376
-0.25656262 -0.058364958 1.3870001
-0.22981203 -0.04012591 1.3870001
-0.23328613 -0.033525113 1.3870001
-0.22644487 -0.03301736 1.3870002
-0.21765266 -0.030398417 1.3870001
-0.24278201 -0.021481546 1.3870001
-0.23564857 -0.024075547 1.3870003
-0.22580197 -0.024278626 1.3847501
-0.21832536 -0.024213532 1.381
-0.25169888 -0.013375304 1.3870001
-0.24537605 -0.014348053 1.3870003
-0.23570272 -0.014581048 1.3858752
-0.2253716 -0.014542256 1.3821253
-0.21550043 -0.01452812 1.3810003
-0.013346374 -0.012135697 1.3840001
-0.25230685 -0.0030398415 1.3870001
-0.24548839 -0.004862431 1.3862503
-0.2350008 -0.004846652 1.3817503
-0.22518586 -0.004842707 1.3810003
-0.215904 -0.0068605011 1.381
-0.20944706 -0.0084747365 1.381
-0.012402554 -0.0041341847 1.3870001
-0.2525095 0.0048637465 1.3870001
-0.24522538 0.0048545417 1.3847504
-0.23487127 0.0048427065 1.3810003
-0.22518587 0.004842707 1.3810003
-0.020670922 0.0085115563 1.3870001
-0.014070123 0.0064270934 1.3870001
-0.2525095 0.015401863 1.3870001
-0.24509321 0.014559679 1.3840003
-0.23487127 0.014528118 1.3810003
-0.22619478 0.014729899 1.3810002
-0.022821482 0.015261499 1.3863333
-0.015807176 0.013375304 1.3870001
-0.25413075 0.023710765 1.3870001
-0.24535753 0.024292432 1.3855002
-0.23539011 0.023867626 1.3810003
-0.024318732 0.020670922 1.3870001
-0.25461712 0.031371165 1.3870001
-0.24537605 0.033803042 1.3870003
-0.23615104 0.035120498 1.3814003
-0.24470729 0.044989649 1.3870003
-0.23532268 0.046094142 1.3836253
-0.22784933 0.047216393 1.381
-0.04367641 0.047313698 1.3840001
-0.24477743 0.056026619 1.3870002
-0.23538679 0.055812102 1.3840003
-0.22599299 0.056498244 1.3810002
-0.21913247 0.059323158 1.381
-0.05385476 0.056629539 1.3827144
-0.047374774 0.055476345 1.3856667
-0.24301362 0.065139465 1.3870001
-0.23557383 0.065575443 1.3851254
-0.22531013 0.065413356 1.3817502
-0.21832533 0.066183656 1.381
-0.055486575 0.06480173 1.386
-0.23589174 0.074866958 1.3870002
-0.22580197 0.075267084 1.3847504
-0.21751824 0.075465508 1.381
-0.062012769 0.076604009 1.3870001
-0.058770269 0.074982762 1.3870001
-0.22373232 0.085115559 1.3870002
-0.21534143 0.084926277 1.382091
-0.20944706 0.087168723 1.381
-0.061744511 0.085958041 1.381
-0.22130047 0.091195248 1.3870001
-0.21427312 0.094153121 1.3840001
-0.2089628 0.094674915 1.381
-0.21157299 0.10457056 1.3870001
-0.20702572 0.10484459 1.381
-0.069008566 0.10290752 1.381
-0.20385119 0.11259794 1.3852857
-0.27536449 -0.072205774 1.396
-0.27624571 -0.067897126 1.3980001
-0.26227412 -0.060053419 1.3980001
-0.26166132 -0.053925518 1.3980001
-0.25616831 -0.052651547 1.3968
-0.24598564 -0.050176892 1.396
-0.28147486 -0.041261192 1.3980001
-0.27820665 -0.042895298 1.3980001
-0.26104853 -0.046572041 1.3980001
-0.25410357 -0.046980571 1.3980001
-0.24498513 -0.044095892 1.3972502
-0.23513623 -0.042730663 1.3926002
-0.28188339 -0.035541818 1.3980001
-0.27820665 -0.034316238 1.3980001
-0.25173411 -0.034071125 1.3980001
-0.24459521 -0.034242596 1.3950002
-0.23747428 -0.03490115 1.3920001
-0.28127062 -0.02512439 1.3980001
-0.27820665 -0.024511602 1.3980001
-0.2638061 -0.022366833 1.398
-0.25431398 -0.024234572 1.3960001
-0.24539109 -0.025638819 1.3926002
-0.28261873 -0.014216729 1.398
-0.27428478 -0.01470696 1.398
-0.26497042 -0.014952076 1.3980001
-0.25532001 -0.014743782 1.3924617
-0.011812207 -0.013442807 1.3940001
-0.28188342 -0.00735348 1.3980001
-0.27575549 -0.0040852665 1.3980001
-0.26531199 -0.0051831231 1.3966155
-0.25704378 -0.0052140942 1.3920001
-0.01098288 -0.0073219198 1.3920001
-0.005719373 -0.0020426332 1.3980001
-0.27232391 0.0056376681 1.3980001
-0.26595086 0.0049023204 1.3979999
-0.25797564 0.0048812795 1.3920001
-0.012935393 0.0041490877 1.3920001
-0.0052479771 0.0052472255 1.397143
0.00122558 0.0085790595 1.3980001
-0.27575549 0.012664326 1.3980001
-0.26525056 0.014531879 1.398
-0.25748754 0.01433876 1.3920001
-0.01342352 0.015864162 1.3920001
-0.0051256944 0.014402932 1.3924001
0.0012229499 0.01222687 1.3950001
-0.26562521 0.02416922 1.3974545
-0.25748754 0.025016559 1.3920001
-0.020805053 0.023256212 1.396
-0.015024063 0.023930743 1.3945715
-0.007749733 0.021618599 1.396
-0.26335832 0.034299802 1.3972501
-0.25540191 0.035405584 1.3926002
-0.26104853 0.041669719 1.3980001
-0.25436658 0.043900661 1.3936001
-0.040880717 0.045761999 1.3920001
-0.035443634 0.047660857 1.3940001
-0.25377622 0.053967603 1.3945715
-0.042503957 0.054958589 1.3932002
-0.037911452 0.05258159 1.3950001
-0.25340101 0.063765548 1.3963637
-0.2474504 0.066689432 1.3932002
-0.052223906 0.066275999 1.3935
-0.046246972 0.063377745 1.3956001
-0.2437526 0.074567862 1.3944001
-0.23308112 0.079320796 1.3920001
-0.055831984 0.075397998 1.3946667
-0.24143925 0.082113862 1.3980001
-0.23414175 0.085206375 1.394143
-0.22819984 0.089083359 1.3920001
-0.061211936 0.083251335 1.3965001
-0.05760226 0.082113862 1.3980001
-0.23163462 0.091918498 1.3980001
-0.22464742 0.095261954 1.3947272
-0.21843728 0.097625598 1.3920001
-0.062504582 0.091918498 1.3980001
-0.067117602 0.10128656 1.3920001
-0.29663244 -0.08985132 1.404
-0.28309321 -0.071388721 1.404
-0.276939 -0.070157878 1.404
-0.29417077 -0.060311157 1.4039999
-0.28530872 -0.063757524 1.4039999
-0.27582005 -0.062772848 1.4040002
-0.26758462 -0.061788172 1.404
-0.29389727 -0.054567236 1.4040002
-0.28555489 -0.054156959 1.4039999
-0.27553231 -0.053805292 1.404
-0.26731604 -0.053821277 1.4040002
-0.29417071 -0.045541078 1.4040002
-0.28621766 -0.044972997 1.404
-0.27485603 -0.04459428 1.404
-0.26638892 -0.043958567 1.404
-0.25650704 -0.04258706 1.4040002
-0.29170907 -0.034463521 1.404
-0.28703189 -0.033725016 1.4040002
-0.2744773 -0.034463521 1.4040002
-0.26586142 -0.034463517 1.4039999
-0.25746936 -0.03457541 1.4040002
-0.29170907 -0.0246168 1.404
-0.28658059 -0.024411662 1.4040002
-0.2744773 -0.0246168 1.4040002
-0.26678455 -0.026770771 1.4040002
-0.25970724 -0.028309319 1.404
-0.29170907 -0.014770079 1.404
-0.28842685 -0.015590639 1.4040002
-0.27611846 -0.014770079 1.4040002
-0.00123084 -0.0123084 1.404
0.00246168 -0.0123084 1.404
-0.29170907 -0.0061542001 1.4039999
-0.28637543 -0.0041028005 1.4040002
-0.27496964 -0.0054156962 1.4040002
-0.0044310242 -0.0066465363 1.4040002
0.00246168 -0.0045130802 1.4040002
-0.28473434 0.0041028 1.4040002
-0.27671519 0.0045876768 1.4040002
-0.00246168 0.00246168 1.404
0.00246168 0.0036925199 1.4040002
-0.28309321 0.014770079 1.4040002
-0.27542409 0.01524348 1.404
-0.28186235 0.023385962 1.4039999
-0.27553231 0.024265135 1.404
-0.26955396 0.028309319 1.404
-0.0225654 0.025847638 1.4039999
-0.27537248 0.034127835 1.4040002
-0.26873338 0.035284076 1.4040002
-0.26517761 0.043899961 1.4040002
-0.03815604 0.044310238 1.404
-0.26339975 0.054156959 1.4040002
-0.25970724 0.054156959 1.404
-0.0369252 0.052926119 1.404
-0.26216891 0.06277284 1.4039999
-0.25872257 0.065726861 1.404
-0.25513554 0.07226789 1.4040002
-0.24838352 0.076065913 1.404
-0.05046444 0.070157878 1.404
-0.048002761 0.070157878 1.404
-0.24493717 0.084359884 1.404
-0.056208357 0.082466282 1.4039999
-0.30416951 -0.091480173 1.4128572
-0.31136131 -0.080631413 1.4150001
-0.30455649 -0.084186025 1.4121876
-0.29552233 -0.083294891 1.4104545
-0.31195307 -0.073786534 1.4128572
-0.30408061 -0.074166 1.41
-0.29445097 -0.074233383 1.41125
-0.2877211 -0.07446669 1.411
-0.31136131 -0.065745622 1.4150001
-0.30428526 -0.064319119 1.4109375
-0.29493347 -0.065760516 1.41
-0.30368689 -0.055244349 1.4118181
-0.29728204 -0.0531523 1.4100001
-0.27812248 -0.0568606 1.4100001
-0.30271125 -0.044375114 1.414
-0.29684061 -0.04396984 1.41
-0.30226442 -0.033906545 1.4150001
-0.29679605 -0.034627788 1.410625
-0.30226442 -0.024396172 1.4150001
-0.296664 -0.024722001 1.41
-0.01116435 -0.021088216 1.4150001
-0.0024809667 -0.021088216 1.4150001
0.0012404834 -0.021088216 1.4150001
-0.30193362 -0.015630089 1.4150001
-0.29679605 -0.014838131 1.410625
-0.011962116 -0.01773935 1.4116668
-0.0052424665 -0.014962001 1.413077
0.0012361 -0.0173054 1.4100001
-0.30143744 -0.0086833835 1.4150001
-0.29695427 -0.0045421072 1.4133334
0.0024722 -0.0061805001 1.4100001
-0.29385525 0.0045348019 1.4116666
-0.28801131 0.0074166004 1.4100001
-0.29352471 0.015654078 1.4127272
-0.28801131 0.0148332 1.4100001
-0.030902499 0.0185415 1.4100001
-0.29374647 0.024065377 1.4150001
-0.28636318 0.025134034 1.41
-0.27812248 0.0271942 1.4100001
-0.031839073 0.027704129 1.4150001
-0.026909284 0.02567428 1.41125
-0.29151359 0.034733534 1.4150001
-0.28562424 0.034622122 1.4104166
-0.27762803 0.035352461 1.4100001
-0.033688474 0.035342451 1.4145833
-0.02479515 0.03471189 1.4140627
-0.0185415 0.032138601 1.4100001
-0.29151359 0.040935948 1.4150001
-0.28415179 0.043779999 1.4133334
-0.27485809 0.044780426 1.4109999
-0.26823369 0.046971798 1.4100001
-0.033913847 0.043076772 1.4119999
-0.027042538 0.04242453 1.4150001
-0.28158972 0.050859816 1.4150001
-0.27357221 0.054172818 1.4131818
-0.26823369 0.054388396 1.4100001
-0.0358469 0.050680101 1.4100001
-0.27204612 0.062590718 1.4137502
-0.26669127 0.064716019 1.4105555
-0.26262084 0.073385037 1.4108334
-0.25686157 0.076390974 1.4100001
-0.051916201 0.075402096 1.4100001
-0.261742 0.080631413 1.4150001
-0.25500044 0.083431482 1.4119999
-0.060568899 0.087763101 1.4100001
-0.3155553 -0.094065934 1.4237275
-0.31588733 -0.085180365 1.423182
-0.31823927 -0.075744525 1.4258001
-0.31610233 -0.065074593 1.4235716
-0.31272012 -0.054928426 1.4240001
-0.30769861 -0.051075477 1.4210001
-0.31316781 -0.044619117 1.427
-0.30720031 -0.044099312 1.4210001
-0.31350142 -0.035528492 1.427
-0.30686811 -0.035711307 1.4210001
-0.31257209 -0.02555621 1.427
