# .PCD v0.7 - Point Cloud Data file format
VERSION 0.7
FIELDS x y z
SIZE 4 4 4
TYPE F F F
COUNT 1 1 1
WIDTH 1441
HEIGHT 1
VIEWPOINT 0 0 0 1 0 0 0
POINTS 1441
DATA ascii
-0.23457316 0.045145299 0.99575025
-0.22528788 0.045506041 0.99551445
-0.21925327 0.047070336 0.99800003
-0.19184078 0.043196 0.99739999
-0.18584941 0.045766015 0.99571431
-0.17827894 0.04957024 0.99200004
-0.14303289 0.045352932 0.99487513
-0.1363115 0.043104064 0.99800009
-0.12462323 0.04257302 0.99730772
-0.1173119 0.041853193 0.99757153
-0.2316778 0.052456006 0.99725008
-0.22435713 0.054654282 0.99612498
-0.21548966 0.055417679 0.99755526
-0.20793773 0.057452645 0.99800009
-0.18257302 0.053688116 0.9974001
-0.17533892 0.055898078 0.99449992
-0.16494425 0.058266774 0.99200004
-0.14341435 0.054692164 0.99549991
-0.22269948 0.061505329 0.99750012
-0.2143361 0.064240485 0.9961251
-0.20503806 0.064944848 0.99635482
-0.19860533 0.06911815 0.99800003
-0.17260532 0.060682692 0.9974001
-0.16422676 0.063599683 0.99599987
-0.15484197 0.064409219 0.99467891
-0.14597544 0.063649423 0.99590003
-0.21191503 0.071999028 0.9975
-0.20407084 0.07458733 0.99712896
-0.19802205 0.076117463 0.99800003
-0.20035516 0.081366941 0.99800003
-0.19773042 0.081366941 0.99800003
-0.1915836 -0.19384089 1.0044286
-0.18843389 -0.19264716 1.0016
-0.19226088 -0.18784951 1.006
-0.18779427 -0.18779427 1.001
-0.12153259 -0.12153259 1.0070001
-0.11688531 -0.12283963 1.0062501
-0.073989131 -0.1219954 1.00475
-0.14124852 -0.11035042 1.0070001
-0.13476303 -0.11167499 1.0059091
-0.12503992 -0.11547486 1.0041304
-0.11650217 -0.11568417 1.0021999
-0.072103396 -0.11445146 1.0016667
-0.066816956 -0.11277025 1.0058333
-0.22688045 -0.10240519 1.0070001
-0.16155301 -0.10152239 1.0070001
-0.15537339 -0.10152239 1.0070001
-0.14442995 -0.10472746 1.0064
-0.13594396 -0.10571168 1.0017895
-0.081611529 -0.10091748 1.001
-0.074757263 -0.10481972 1.0024481
-0.065219969 -0.10488684 1.0053999
-0.057823621 -0.10328799 1.0070001
-0.23164761 -0.09375371 1.0070001
-0.2251929 -0.095071152 1.0067858
-0.21564011 -0.095232673 1.0048274
-0.20536174 -0.094436824 1.0042901
-0.19518524 -0.093230031 1.0049546
-0.18509941 -0.094623111 1.0040001
-0.17492698 -0.09371651 1.00352
-0.16524391 -0.094795071 1.0034999
-0.15491477 -0.097130328 1.00175
-0.14570849 -0.09782321 1.0022501
-0.13952939 -0.099162392 1.001
-0.090386964 -0.090386964 1.001
-0.083794564 -0.093173064 1.003143
-0.075961769 -0.096118294 1.0045556
-0.065053575 -0.096487083 1.0063334
-0.054916542 -0.09504158 1.0065589
-0.047797494 -0.093198799 1.0070001
-0.23316307 -0.085526407 1.0068421
-0.2251347 -0.08484111 1.0041034
-0.21588585 -0.084985778 1.0014501
-0.20271249 -0.088631876 1.001
-0.1965697 -0.088631876 1.001
-0.092395477 -0.085231721 1.0037858
-0.086640842 -0.088406444 1.0070001
-0.054388363 -0.0863996 1.0070001
-0.048235804 -0.086176187 1.0065
-0.23306009 -0.075038292 1.0070001
-0.22458562 -0.075313494 1.0015805
-0.21675318 -0.075995244 1.0010002
-0.093375988 -0.075294353 1.0040001
-0.23142059 -0.065201335 1.0070001
-0.22483632 -0.065207921 1.0035312
-0.21803242 -0.062628336 1.0015
-0.091844521 -0.064870164 1.0051539
-0.23041166 -0.056499414 1.0070001
-0.22508326 -0.054863166 1.0065862
-0.21653908 -0.053971782 1.0033182
-0.092730284 -0.054372616 1.0036
-0.25442392 -0.042551115 1.0070001
-0.24586073 -0.043036658 1.0070001
-0.2370327 -0.04193316 1.0070001
-0.22546797 -0.045729209 1.0070001
-0.21587475 -0.044757593 1.004375
-0.20973286 -0.041244537 1.001
-0.091645852 -0.044941962 1.0052001
-0.089163139 -0.048554182 1.0070001
-0.26042697 -0.03707774 1.0070001
-0.25500488 -0.035295732 1.0065
-0.24501318 -0.035427414 1.0042647
-0.23487568 -0.036007196 1.0034442
-0.22507268 -0.035440039 1.0045714
-0.21542008 -0.035064727 1.0058528
-0.20719673 -0.034258567 1.0020715
-0.091412291 -0.037348252 1.0039999
-0.088703766 -0.034390409 1.0058
-0.25343227 -0.026184049 1.0068001
-0.24605988 -0.024033524 1.0029999
-0.21386325 -0.028316069 1.0031
-0.20452927 -0.025859116 1.0020435
-0.19920233 -0.025448756 1.001
-0.086910874 -0.023360342 1.0036666
-0.24526653 -0.015191644 1.0040001
-0.087100334 -0.014958737 1.0036
-0.24368446 -0.0060705761 1.0055
-0.23657686 -0.0038051426 1.0022
-0.08590541 -0.0052045141 1.0033749
-0.2410053 0.0017656067 1.0070001
-0.23480007 0.0049937847 1.0047777
-0.2290388 0.0087754335 1.001
-0.085541032 0.0055271653 1.0030357
-0.23276581 0.01324205 1.0070001
-0.2256095 0.015682692 1.0025791
-0.090386964 0.016673325 1.001
-0.085394204 0.014967752 1.0042608
-0.25483817 0.025513742 1.0064
-0.24595651 0.02671909 1.00595
-0.23659129 0.02913251 1.0070001
-0.22420926 0.02363993 1.0060999
-0.21664718 0.026004253 1.0024118
-0.20973286 0.02895893 1.001
-0.09194123 0.025500417 1.0029286
-0.088200644 0.023463896 1.0060999
-0.25322616 0.034483869 1.0056666
-0.24593769 0.034105882 1.0024285
-0.23425503 0.033395056 1.0037391
-0.22499318 0.035083249 1.0042144
-0.21514502 0.035374597 1.0052
-0.20597453 0.036206994 1.00235
-0.19920233 0.039489448 1.001
-0.10328996 0.037069917 1.00275
-0.096154779 0.033727862 1.00445
-0.25159895 0.041491758 1.0070001
-0.24508558 0.044628736 1.0042307
-0.23956932 0.048264883 1.001
-0.2208484 0.041829567 1.001
-0.21464899 0.044835392 1.0042068
-0.2053033 0.045119338 1.0060769
-0.19636811 0.045182656 1.0026499
-0.18867181 0.048264883 1.001
-0.13380072 0.046361521 1.0028002
-0.12527566 0.047072481 1.0022858
-0.11488236 0.045194209 1.0032856
-0.10755403 0.041721266 1.0040001
-0.24222979 0.05064876 1.00475
-0.23485467 0.05588197 1.0038126
-0.2290388 0.057917859 1.001
-0.21384491 0.050849982 1.0020001
-0.20459975 0.054358114 1.0045453
-0.19528295 0.054099165 1.0065385
-0.18690342 0.055930514 1.0026876
-0.17989638 0.058795404 1.001
-0.14128448 0.057917859 1.001
-0.13673469 0.053733967 1.0048076
-0.1248229 0.051067829 1.0059091
-0.11829565 0.050319791 1.0070001
-0.23217727 0.061796233 1.0070001
-0.22476904 0.065695189 1.0033684
-0.21850829 0.069325924 1.001
-0.20142889 0.063043907 1.0016
-0.19704126 0.065346926 1.0043912
-0.18553856 0.063867383 1.0063478
-0.17560892 0.065960914 1.005111
-0.16598192 0.068499669 1.00175
-0.15532516 0.069325924 1.001
-0.14312555 0.067046776 1.0025001
-0.1383591 0.064605355 1.0060625
-0.22158363 0.071507066 1.0070001
-0.21555121 0.074834675 1.0042499
-0.2083288 0.079154417 1.001
-0.19429459 0.075124055 1.00325
-0.18980272 0.075921088 1.0070001
-0.17170525 0.071948469 1.0070001
-0.16425779 0.073483251 1.0053126
-0.15500726 0.073985316 1.004625
-0.14500187 0.072944485 1.0055001
-0.21155719 0.081979729 1.0055001
-0.20403478 0.084284984 1.0044286
-0.19449607 0.085028276 1.0035714
-0.1890257 0.08554513 1.006
-0.19245112 0.091811545 1.0070001
-0.18921418 0.091517277 1.0070001
-0.20435442 -0.19266862 1.017909
-0.19670227 -0.19457057 1.0116001
-0.2030593 -0.1860268 1.0183077
-0.19768912 -0.18656816 1.01425
-0.071465865 -0.14293173 1.0190001
-0.068785898 -0.14025176 1.0190001
-0.12488511 -0.13112521 1.0175
-0.074333899 -0.13348131 1.0190002
-0.065745391 -0.13398421 1.0185264
-0.059406001 -0.13265851 1.0190001
-0.24280529 -0.12184931 1.0190001
-0.23494403 -0.1223853 1.0190001
-0.22869076 -0.12238529 1.0190001
-0.15097164 -0.12059865 1.0190001
-0.14305936 -0.12110913 1.0190001
-0.13449606 -0.12356796 1.0176874
-0.12552689 -0.1255284 1.0134287
-0.11962227 -0.12582687 1.0107501
-0.073716901 -0.12695676 1.0158334
-0.065149687 -0.12531376 1.0148463
-0.055420633 -0.12501618 1.0168278
-0.048360266 -0.1218849 1.0178
-0.25102386 -0.1152387 1.0190001
-0.24518222 -0.11524666 1.0178463
-0.23520444 -0.11488406 1.0169312
-0.22495125 -0.11480869 1.0181113
-0.21640758 -0.11255874 1.0190001
-0.20514278 -0.1145955 1.0190004
-0.19504225 -0.11396252 1.0190003
-0.18558793 -0.11233541 1.0190001
-0.17866467 -0.11166541 1.0190001
-0.15403904 -0.11472445 1.0171741
-0.14492987 -0.11483055 1.0126089
-0.13513124 -0.11717588 1.0121179
-0.12838784 -0.1195335 1.01
-0.063988872 -0.1170539 1.0106668
-0.055205226 -0.11506074 1.0118531
-0.044747822 -0.11455218 1.0151432
-0.038299814 -0.11222736 1.016
-0.25340608 -0.10494419 1.0190003
-0.2449917 -0.10512304 1.0162003
-0.23518728 -0.10505033 1.0126003
-0.22400433 -0.10573203 1.0115002
-0.21492511 -0.10555682 1.0135175
-0.20536733 -0.10513286 1.0149096
-0.19512814 -0.10459977 1.0130885
-0.18510741 -0.10507862 1.0144573
-0.17487426 -0.10510761 1.0152289
-0.16531633 -0.10537735 1.0144447
-0.15562239 -0.10671423 1.0143502
-0.14904796 -0.10684229 1.0100001
-0.053568725 -0.10551413 1.0100001
-0.045187164 -0.10455588 1.0107002
-0.037337698 -0.10490422 1.0152175
-0.25452629 -0.095136851 1.0184447
-0.24469949 -0.09530174 1.0143751
-0.23622306 -0.095312789 1.0105295
-0.22401462 -0.098283097 1.01
-0.20276423 -0.098283097 1.01
-0.19479533 -0.098283105 1.0100001
-0.18771186 -0.098283097 1.01
-0.17708667 -0.098283097 1.01
-0.16911776 -0.098283097 1.01
-0.072900675 -0.092380218 1.0100001
-0.066210739 -0.091986686 1.0100001
-0.044095799 -0.095278703 1.0105002
-0.03929859 -0.096537158 1.0155715
-0.25241831 -0.085781626 1.0174118
-0.24495588 -0.085201591 1.0123752
-0.23868752 -0.084495656 1.0100001
-0.091199636 -0.081459865 1.01
-0.08468055 -0.084250033 1.0116554
-0.074773476 -0.085177831 1.0136859
-0.064897247 -0.08525572 1.011355
-0.055509858 -0.082072861 1.0100001
-0.045298435 -0.084593862 1.0110002
-0.25137815 -0.075903229 1.018625
-0.24501635 -0.074646361 1.0157934
-0.23798862 -0.074868076 1.0120771
-0.091199636 -0.075261839 1.01
-0.085953832 -0.07516551 1.0154377
-0.073922507 -0.078835785 1.0190001
-0.064723194 -0.07501363 1.0152503
-0.054965772 -0.074464872 1.01125
-0.045940556 -0.074319452 1.0116802
-0.24463169 -0.066040479 1.0180001
-0.23662336 -0.064827174 1.013
-0.088193849 -0.065670535 1.0162144
-0.062872224 -0.06595251 1.0179092
-0.055137597 -0.064915054 1.0144002
-0.045516387 -0.065084897 1.0147501
-0.27246362 -0.05270607 1.0190001
-0.26462787 -0.054031197 1.0179093
-0.25560498 -0.053555094 1.0165454
-0.24490118 -0.05440668 1.0173203
-0.23604894 -0.054824505 1.0136926
-0.22401462 -0.0504697 1.01
-0.091199636 -0.055782299 1.01
-0.088600174 -0.05472362 1.013
-0.061639309 -0.058066018 1.0190001
-0.055336565 -0.05823461 1.0180625
-0.047132134 -0.057847917 1.0186667
-0.2731508 -0.045009755 1.0190001
-0.26521602 -0.045209169 1.0139645
-0.25504193 -0.046958584 1.010643
-0.24453728 -0.047516208 1.0117142
-0.2351086 -0.045517221 1.0113752
-0.22525422 -0.044094577 1.0100001
-0.086505182 -0.044451736 1.0121002
-0.27327672 -0.034829348 1.0187
-0.2658042 -0.035038117 1.0124002
-0.2310981 -0.039844498 1.01
-0.22436881 -0.039136149 1.01
-0.086057618 -0.036358364 1.0142634
-0.27220839 -0.027437789 1.0190001
-0.26477313 -0.024991106 1.0156788
-0.25706488 -0.02344167 1.0108184
-0.085632503 -0.024887688 1.0140001
-0.26318261 -0.015428207 1.0181428
-0.25539815 -0.014854756 1.0131365
-0.083891988 -0.014341515 1.0134286
-0.26174372 -0.0098265568 1.0190001
-0.25393349 -0.0064327847 1.0163333
-0.24735112 -0.0031656434 1.0112858
-0.081553906 -0.0054069608 1.0121819
-0.079193681 -0.0038517814 1.015
-0.28229016 0.0089332331 1.0190001
-0.27488086 0.0081450082 1.0190001
-0.26643366 0.0089332331 1.0190001
-0.25266162 0.006551038 1.0190001
-0.2454941 0.005843936 1.0144349
-0.23995243 0.0070834663 1.01
-0.081076987 0.0044284812 1.0107501
-0.078680061 0.0053379135 1.014125
-0.28139684 0.01339985 1.0190001
-0.27555221 0.015019198 1.0177503
-0.26532373 0.015134245 1.0156003
-0.25463399 0.015131618 1.0156003
-0.24508679 0.015149254 1.0166003
-0.23618683 0.016078394 1.0118752
-0.08086957 0.015642656 1.0100001
-0.077442117 0.015132493 1.0153999
-0.27380359 0.023673071 1.0190001
-0.26550934 0.024864107 1.0129002
-0.25498465 0.02087957 1.0104285
-0.2443191 0.022408376 1.0130001
-0.23472145 0.024777142 1.0117815
-0.22629145 0.026689494 1.0100001
-0.083789505 0.025318267 1.0118464
-0.077920698 0.024068067 1.0166428
-0.2715703 0.032159641 1.0190001
-0.26510036 0.034800086 1.0154785
-0.25807315 0.035667617 1.0107501
-0.22401462 0.031875599 1.01
-0.1009394 0.039844498 1.01
-0.093778275 0.037217349 1.0107502
-0.086303487 0.034007732 1.0149567
-0.079505779 0.031266317 1.0190001
-0.2633763 0.040890537 1.0184
-0.25479198 0.045075953 1.0170001
-0.24829085 0.046995029 1.0115
-0.11172898 0.047884408 1.0115
-0.10512715 0.04500562 1.0148948
-0.095292263 0.04193728 1.0178001
-0.25272837 0.052887347 1.0186667
-0.24548359 0.055810958 1.0155263
-0.23936214 0.056962878 1.01
-0.20099336 0.051355131 1.01
-0.1939099 0.058881313 1.01
-0.13250522 0.056772701 1.0108001
-0.12458322 0.05698552 1.013522
-0.1159391 0.054360125 1.0149567
-0.10898545 0.050919428 1.0190001
-0.24147834 0.063910507 1.0185715
-0.23551008 0.065605298 1.0146874
-0.2284418 0.069063798 1.01
-0.19277146 0.065269075 1.0100001
-0.18487847 0.068709619 1.0100001
-0.1335599 0.065564252 1.0124784
-0.12649457 0.063425958 1.0190001
-0.23296276 0.071533374 1.0181429
-0.22507635 0.07490284 1.0153573
-0.21811174 0.0770327 1.01
-0.1912536 0.071720101 1.01
-0.18469854 0.075540893 1.0111789
-0.17561726 0.075719945 1.0119566
-0.16598043 0.077941537 1.0103
-0.15495083 0.078803569 1.01
-0.14473535 0.077555366 1.0102144
-0.13478234 0.07516963 1.0131876
-0.12953188 0.076825805 1.0190001
-0.21484572 0.083687924 1.0155001
-0.20650108 0.087956212 1.0134286
-0.18402795 0.084880784 1.0114547
-0.17508391 0.085168004 1.0162004
-0.16472456 0.084193408 1.0132225
-0.15471946 0.084481128 1.0143002
-0.14496203 0.084343955 1.0169601
-0.13623556 0.08205989 1.0186667
-0.20314136 0.093455642 1.0172
-0.19537522 0.095691361 1.0134503
-0.18435249 0.095040537 1.0118623
-0.17602368 0.094114088 1.0183753
-0.16526482 0.090225659 1.0190001
-0.15633158 0.090225659 1.0190001
-0.19316137 0.1020871 1.0185
-0.18553543 0.10235927 1.0174999
-0.17955799 0.10094553 1.0190001
-0.21054903 -0.19083805 1.0220001
-0.20875713 -0.19083805 1.0220001
-0.2119035 -0.18552575 1.0256667
-0.20766035 -0.18405308 1.0233848
-0.085057005 -0.1512306 1.0256001
-0.14365339 -0.14185098 1.028
-0.13590297 -0.14221145 1.028
-0.12827271 -0.14209129 1.028
-0.083389722 -0.14483829 1.0243571
-0.076424822 -0.14326294 1.0220001
-0.067196503 -0.14066467 1.0220001
-0.25233972 -0.13067593 1.028
-0.2450711 -0.13184576 1.02775
-0.23507948 -0.13244978 1.0269411
-0.22606348 -0.13239662 1.0273571
-0.21674182 -0.13112652 1.028
-0.20187178 -0.13067593 1.028
-0.19916815 -0.13067593 1.028
-0.17393418 -0.13097632 1.028
-0.16528253 -0.13193762 1.028
-0.15469742 -0.13369681 1.0277692
-0.14495403 -0.1350538 1.027
-0.13505107 -0.13592249 1.0258274
-0.12660947 -0.13558196 1.023154
-0.082355276 -0.13621306 1.0238751
-0.076481834 -0.13773246 1.0220002
-0.064807288 -0.13767816 1.0220001
-0.26189256 -0.12238477 1.028
-0.25476816 -0.12513839 1.0262271
-0.24615672 -0.12574583 1.0232353
-0.23479609 -0.12725674 1.0222503
-0.22409686 -0.12513156 1.02332
-0.21499647 -0.12461387 1.024222
-0.20499209 -0.12489431 1.0248846
-0.19512172 -0.12467681 1.0246783
-0.18544294 -0.12301072 1.0272
-0.17531389 -0.12525389 1.0267307
-0.165135 -0.12474587 1.0246896
-0.15495151 -0.12506832 1.0235
-0.14539416 -0.1254124 1.0228571
-0.13610345 -0.12861003 1.0220002
-0.12991323 -0.12991323 1.0220001
-0.045693621 -0.1209537 1.0220001
-0.26441026 -0.11486404 1.027625
-0.25645608 -0.115086 1.0232
-0.22548158 -0.11856449 1.0220001
-0.21512835 -0.11697169 1.0220001
-0.20696524 -0.11871381 1.0220001
-0.19462098 -0.11856449 1.0220002
-0.18446405 -0.11704038 1.0235715
-0.17483981 -0.11591481 1.0236249
-0.16487199 -0.11558964 1.0220999
-0.15768778 -0.11916179 1.0220001
-0.042109806 -0.11916179 1.0220001
-0.27186599 -0.10574237 1.028
-0.26548854 -0.10481428 1.0257776
-0.25816256 -0.10585048 1.0220002
-0.032828711 -0.10207941 1.0232002
-0.029246038 -0.10123659 1.0265
-0.26440251 -0.095421739 1.0252498
-0.2589305 -0.090491287 1.0220001
-0.040436249 -0.092554085 1.0250001
-0.035248671 -0.096260391 1.0251665
-0.029740039 -0.098232254 1.028
-0.26325274 -0.084859967 1.0270624
-0.25823489 -0.084521621 1.0235002
-0.26112655 -0.075476617 1.028
-0.25622916 -0.075001784 1.0246251
-0.081979737 -0.072124243 1.0220001
-0.075619422 -0.074209437 1.0225356
-0.068988405 -0.071676269 1.0220001
-0.29199314 -0.062183723 1.028
-0.28504089 -0.06166875 1.028
-0.27448884 -0.061480228 1.0271817
-0.264312 -0.062888302 1.0261999
-0.25517237 -0.064323008 1.0261785
-0.24788041 -0.06271673 1.0220002
-0.084066205 -0.064724863 1.0246471
-0.074821927 -0.065516271 1.0257239
-0.06676729 -0.063556299 1.0226316
-0.043901712 -0.060028873 1.0220001
-0.2918644 -0.056261461 1.028
-0.28502229 -0.054847151 1.0256
-0.27642083 -0.05573523 1.0233126
-0.26908466 -0.057639662 1.0220001
-0.25437358 -0.057874463 1.0235001
-0.24817908 -0.057639662 1.0220001
-0.087417692 -0.057677653 1.028
-0.071796663 -0.05797806 1.028
-0.064745441 -0.054631159 1.0241109
-0.054438539 -0.053094611 1.0221877
-0.047229536 -0.054909136 1.0220002
-0.28430298 -0.045135289 1.0256
-0.27774552 -0.04479767 1.0220002
-0.08561527 -0.049566735 1.028
-0.062660784 -0.046450082 1.0271176
-0.055110425 -0.045215487 1.0257498
-0.049422082 -0.048523501 1.0250001
-0.28279099 -0.035888188 1.0258181
-0.27782729 -0.034951385 1.0223002
-0.082831852 -0.033673204 1.02425
-0.056776438 -0.038752172 1.028
-0.28117856 -0.028838826 1.028
-0.27514142 -0.024784986 1.0238463
-0.26968196 -0.020606926 1.0220001
-0.083477885 -0.025588088 1.0254
-0.27154464 -0.015970893 1.0265
-0.26772246 -0.014639604 1.0225002
-0.082021028 -0.015290381 1.0259001
-0.078405559 -0.011715773 1.028
-0.29169273 -0.0015020221 1.028
-0.28586486 -0.0018024265 1.028
-0.27847493 -0.00090121332 1.028
-0.26460645 -0.0053967605 1.0266362
-0.25764698 -0.0031387955 1.0231252
-0.078775801 -0.0026975032 1.0250001
-0.29169273 0.0045060664 1.028
-0.28489816 0.0043429369 1.0243998
-0.27535835 0.0030555339 1.0258
-0.26422414 0.0045660445 1.0257499
-0.25698525 0.0052714511 1.0240625
-0.075671606 0.0070550367 1.024143
-0.28501153 0.015124322 1.0240769
-0.073639899 0.014850246 1.0230002
-0.28146109 0.022484966 1.02575
-0.27730164 0.026027355 1.0236667
-0.075233541 0.026545705 1.0250001
-0.27386996 0.034346394 1.0256001
-0.083101861 0.03726222 1.0224286
-0.07747256 0.034696605 1.0246249
-0.27126521 0.041455813 1.028
-0.26428965 0.044758148 1.0239288
-0.2584146 0.048452489 1.0235001
-0.10321971 0.048695218 1.023875
-0.094507992 0.046424173 1.0248572
-0.085630998 0.043089088 1.02605
-0.079189733 0.040495425 1.0265
-0.25584903 0.054460581 1.0240002
-0.11170438 0.056302361 1.0230002
-0.10603363 0.053060174 1.0258181
-0.098232254 0.05136916 1.028
-0.25143853 0.061282508 1.028
-0.24606004 0.064987369 1.0240771
-0.12484255 0.066370629 1.0230501
-0.1161143 0.063202113 1.0249999
-0.24134831 0.07294634 1.0272499
-0.23523201 0.075619154 1.0244001
-0.22600028 0.079162471 1.0238001
-0.1277038 0.073519416 1.0239091
-0.23251304 0.080207989 1.028
-0.22463796 0.08242283 1.0267142
-0.21664508 0.086780645 1.0240002
-0.14290455 0.088251397 1.0220001
-0.13575509 0.086229444 1.0245715
-0.12991323 0.081531756 1.0220001
-0.21201059 0.092250936 1.0256001
-0.2064198 0.096825533 1.0233847
-0.1726611 0.097179212 1.0226002
-0.16563204 0.095083669 1.0258181
-0.15438357 0.093268566 1.0252309
-0.14526887 0.092316911 1.025
-0.13968806 0.091022544 1.028
-0.20349941 0.10345858 1.0262001
-0.19531287 0.10561193 1.0244706
-0.18372178 0.10692792 1.0237143
-0.17525132 0.10445041 1.0256249
-0.18441498 0.111318 1.0275714
-0.17934145 0.11084924 1.028
-0.21423455 -0.17923978 1.0348572
-0.19018582 -0.16106646 1.0380001
-0.18472593 -0.16236642 1.0380001
-0.17926607 -0.16197644 1.0380001
-0.14282803 -0.16401206 1.0377144
-0.13774116 -0.16336472 1.0364001
-0.22173178 -0.15075335 1.0380001
-0.21394642 -0.15237111 1.0380001
-0.2050955 -0.15434663 1.0380001
-0.19519071 -0.1546966 1.0380001
-0.18533258 -0.15166333 1.0380001
-0.17527948 -0.15335332 1.0380001
-0.16397983 -0.15398146 1.0370002
-0.15452199 -0.15520769 1.0368335
-0.14464329 -0.15492402 1.034778
-0.13555613 -0.15444928 1.033143
-0.086768955 -0.15455721 1.031
-0.25414443 -0.14182687 1.0380001
-0.24468569 -0.14345472 1.0356501
-0.23453924 -0.14381315 1.0341924
-0.22439446 -0.14380258 1.0352802
-0.21615787 -0.14399543 1.037158
-0.20406418 -0.14482725 1.0368334
-0.19496834 -0.14487606 1.0344141
-0.18499012 -0.14418766 1.0343931
-0.17504624 -0.14416933 1.0337781
-0.16520104 -0.14512061 1.0328184
-0.15528205 -0.14458863 1.0325454
-0.14514467 -0.14648078 1.0311306
-0.13435365 -0.14690113 1.031
-0.12875113 -0.14649907 1.0328
-0.27260402 -0.13090712 1.0380001
-0.26369709 -0.13497683 1.0365883
-0.25499785 -0.13527763 1.0324546
-0.24530271 -0.13666694 1.0314286
-0.23630482 -0.13748461 1.031
-0.22491978 -0.13642134 1.031353
-0.21473971 -0.13540949 1.0328848
-0.20502979 -0.13532551 1.0332001
-0.19486114 -0.13483226 1.0327309
-0.18537587 -0.13473578 1.0314801
-0.17557161 -0.13550118 1.031
-0.16516232 -0.13623932 1.031
-0.15726873 -0.13828804 1.031
-0.28118381 -0.12193732 1.0380001
-0.27472913 -0.12421958 1.0342402
-0.26560092 -0.12601714 1.0319002
-0.25940302 -0.1292496 1.031
-0.20878781 -0.12834576 1.031
-0.19071095 -0.12834576 1.031
-0.18513726 -0.12789382 1.031
-0.28118381 -0.11556747 1.0380001
-0.27438936 -0.11511122 1.0317827
-0.26844147 -0.11659578 1.031
-0.28118381 -0.10828762 1.0380001
-0.2758117 -0.10485851 1.032706
-0.27455562 -0.094864659 1.0332729
-0.26844147 -0.091288179 1.031
-0.032599024 -0.092729412 1.0330001
-0.026942752 -0.095133603 1.034706
-0.2729744 -0.085829392 1.0344707
-0.26792568 -0.084083445 1.0313334
-0.034445986 -0.089740857 1.034
-0.30120337 -0.070068456 1.0380001
-0.2957435 -0.070796438 1.0380001
-0.28300378 -0.071888417 1.0380001
-0.27329731 -0.074315026 1.0380001
-0.26626414 -0.074734636 1.0317501
-0.30211672 -0.064475603 1.0358462
-0.29444453 -0.065672942 1.0321054
-0.28440058 -0.067376494 1.0319475
-0.27500117 -0.067061745 1.0317144
-0.2653431 -0.067955762 1.0312501
-0.082249738 -0.061461348 1.031
-0.077730522 -0.061461348 1.031
-0.30193135 -0.057692729 1.0380001
-0.29635027 -0.054195654 1.0328572
-0.083601378 -0.054751888 1.0337919
-0.075820938 -0.054274861 1.0340002
-0.069595933 -0.05151907 1.031
-0.047301132 -0.052724194 1.031
-0.29310697 -0.045439065 1.0334212
-0.082664885 -0.045631647 1.0362309
-0.074275404 -0.045998178 1.0370002
-0.066832572 -0.044249747 1.0326471
-0.048043087 -0.049856033 1.034
-0.29176053 -0.03619143 1.0358572
-0.28752291 -0.034088302 1.0324445
-0.063992888 -0.034994982 1.0359232
-0.056712802 -0.034573566 1.0337368
-0.2834253 -0.025178904 1.0359092
-0.27838373 -0.022596084 1.031
-0.081408732 -0.023296833 1.0356668
-0.06187864 -0.028209379 1.0380001
-0.057328742 -0.028209379 1.0380001
-0.29392353 -0.01182974 1.0380001
-0.28227791 -0.014542147 1.0370001
-0.27699363 -0.014566962 1.0338463
-0.080884188 -0.017269749 1.0366668
-0.079015717 -0.01453338 1.036
-0.30120337 -0.0036399201 1.0380001
-0.29472545 -0.0056858212 1.0335456
-0.28426546 -0.0063433093 1.033143
-0.27460033 -0.0050095073 1.0324003
-0.26753762 -0.00090384332 1.031
-0.080442056 -0.0081345895 1.031
-0.078115888 -0.0053044595 1.0344287
-0.30081645 0.0027264331 1.0366668
-0.29632217 0.0053636483 1.0326924
-0.27205685 0.00090384326 1.031
-0.26753762 0.00090384332 1.031
-0.075330839 0.0027200463 1.0352857
-0.29417086 0.013614395 1.0353637
-0.28832603 0.018076867 1.031
-0.072517864 0.019035939 1.034
-0.29028362 0.02183952 1.0380001
-0.28514427 0.025594417 1.0340772
-0.07233265 0.025315903 1.0349091
-0.069073267 0.028463263 1.034
-0.28227791 0.032726843 1.0370001
-0.27715626 0.035931498 1.0331668
-0.07274171 0.036284648 1.0329335
-0.069345206 0.033086278 1.034
-0.27407974 0.042580575 1.0335001
-0.26699531 0.048265237 1.031
-0.091288179 0.049711384 1.031
-0.083912134 0.048081018 1.0322001
-0.075826228 0.04422836 1.0359001
-0.2631405 0.05208474 1.03325
-0.25575215 0.058949258 1.0345001
-0.10414055 0.056323528 1.0341251
-0.094689637 0.053793032 1.0352668
-0.086002469 0.052846055 1.0363334
-0.078258276 0.050958879 1.0380001
-0.2544983 0.064255185 1.0355556
-0.24795435 0.068993367 1.031
-0.12021116 0.069595933 1.031
-0.11362604 0.066196628 1.0343847
-0.10818154 0.061364915 1.0370001
-0.25115448 0.071888417 1.0380001
-0.24521935 0.074494489 1.0337001
-0.23951848 0.078634366 1.031
-0.12427909 0.073481709 1.034778
-0.11756907 0.072141603 1.0364001
-0.23409601 0.083727807 1.0343335
-0.22558509 0.086219944 1.0334169
-0.21782625 0.089480489 1.031
-0.13212155 0.086828947 1.0332857
-0.22294509 0.090694666 1.0380001
-0.21574327 0.095179871 1.0340002
-0.16449949 0.098518923 1.031
-0.15549766 0.097638965 1.0312501
-0.14425603 0.097243086 1.0340668
-0.13566767 0.092716999 1.0351669
-0.21131042 0.10157718 1.0345001
-0.20520197 0.10682826 1.0326668
-0.19914682 0.10876248 1.031
-0.17200136 0.10764753 1.0318573
-0.16581255 0.10410929 1.0340002
-0.15612331 0.10181687 1.0354167
-0.14832674 0.10100778 1.0380001
-0.20162806 0.11171187 1.036
-0.19480473 0.1132607 1.0335335
-0.18445052 0.11554603 1.0342859
-0.17491066 0.11485624 1.0345927
-0.1683463 0.11010758 1.0380001
-0.21142043 -0.18030228 1.044
-0.17255956 -0.18082039 1.0470001
-0.16448231 -0.18173826 1.0470001
-0.15487854 -0.18316555 1.0468236
-0.14887853 -0.18228897 1.0470001
-0.23038536 -0.17164169 1.0470001
-0.22396168 -0.17372435 1.0452353
-0.21493259 -0.17518839 1.0451382
-0.204685 -0.17164169 1.0470001
-0.19367057 -0.17164169 1.0470001
-0.18455915 -0.17355968 1.0457369
-0.17492974 -0.17493325 1.0456252
-0.16493255 -0.17501491 1.0452003
-0.15480065 -0.17495337 1.0448402
-0.14590164 -0.17435084 1.0437274
-0.13962933 -0.17065807 1.041
-0.23302929 -0.16489126 1.0461001
-0.2247062 -0.16471371 1.0440001
-0.21471845 -0.16590059 1.0442225
-0.20524372 -0.16570093 1.0442401
-0.19535895 -0.16531146 1.0422225
-0.1851394 -0.16639276 1.0419475
-0.17495519 -0.16548194 1.0424447
-0.16481911 -0.16570424 1.0434829
-0.15473312 -0.16535568 1.0429618
-0.14746697 -0.16605629 1.0412729
-0.26358384 -0.1526978 1.0465715
-0.25535193 -0.15192983 1.0439999
-0.24478409 -0.1533929 1.0446001
-0.23500782 -0.15449035 1.0437502
-0.22618598 -0.15489098 1.0426364
-0.21618718 -0.15747592 1.0410001
-0.20351203 -0.15970674 1.041
-0.1931691 -0.1566647 1.041
-0.18510775 -0.15590422 1.0410002
-0.17472973 -0.15802191 1.0410001
-0.16619644 -0.15869272 1.041
-0.15742522 -0.15879413 1.041
-0.27483663 -0.14211763 1.0458751
-0.26479334 -0.14522323 1.0434002
-0.25510648 -0.14626776 1.0413336
-0.24549207 -0.14875543 1.041
-0.23514916 -0.14875543 1.041
-0.2281525 -0.14875543 1.041
-0.21263812 -0.14610057 1.0410001
-0.20898768 -0.14419238 1.041
-0.28330126 -0.13398194 1.0438236
-0.27503803 -0.135784 1.0416002
-0.2679162 -0.13754335 1.041
-0.28510723 -0.12536214 1.0437857
-0.29096478 -0.11381587 1.0470001
-0.28607735 -0.11477496 1.0436667
-0.28438076 -0.10498999 1.0439999
-0.28301528 -0.094249614 1.0437857
-0.03011613 -0.090348393 1.041
-0.024407903 -0.090981476 1.0422857
-0.28273407 -0.085627548 1.0461818
-0.27800503 -0.083430618 1.0419999
-0.03120758 -0.089033388 1.0470001
-0.024049707 -0.088185541 1.045125
-0.018663356 -0.087809563 1.0470001
-0.30476838 -0.074090615 1.0445715
-0.29499602 -0.073776752 1.0446668
-0.28434753 -0.075752385 1.0441874
-0.27684632 -0.076359823 1.0416923
-0.31183937 -0.065233327 1.0453637
-0.30715469 -0.064823493 1.0414286
-0.31086075 -0.057768825 1.046
-0.30565053 -0.054371692 1.0429412
-0.303155 -0.0459815 1.0442307
-0.29863846 -0.043834865 1.04175
-0.081222288 -0.041067451 1.041
-0.076582685 -0.042094611 1.0413334
-0.30106133 -0.0367148 1.0470001
-0.29627362 -0.034060966 1.0430624
-0.081761442 -0.035694357 1.044
-0.075087957 -0.034793153 1.0445002
-0.067989446 -0.031485043 1.041
-0.29270869 -0.024878385 1.0451537
-0.28724399 -0.023956012 1.041
-0.081456363 -0.026541958 1.044
-0.07641267 -0.026274031 1.0470001
-0.065046288 -0.024732145 1.0450002
-0.056400791 -0.024022274 1.0451666
-0.31115794 -0.012544223 1.0470001
-0.30449626 -0.013255769 1.0441306
-0.2937139 -0.014477433 1.0437274
-0.28613365 -0.014615075 1.0419376
-0.079740286 -0.018332414 1.0455
-0.063333027 -0.01927527 1.0470001
-0.05599007 -0.01927527 1.0470001
-0.31194469 -0.0051138471 1.0470001
-0.30610389 -0.0047995858 1.0430626
-0.30569318 0.0045761997 1.044
-0.074347466 0.00091786997 1.0470001
-0.30346304 0.013965609 1.0454118
-0.29696533 0.016839514 1.0422857
-0.2942169 0.024571888 1.0439999
-0.28929737 0.028290911 1.041
-0.071284831 0.022848126 1.0425
-0.29209885 0.031722534 1.0458001
-0.28530616 0.034899347 1.0435716
-0.067901343 0.03867152 1.0419999
-0.28178608 0.041304149 1.0470001
-0.27995035 0.04313989 1.0470001
-0.071421169 0.045823075 1.0430001
-0.067118071 0.043774676 1.0461818
-0.27077165 0.054154329 1.0470001
-0.2651296 0.056452468 1.0431818
-0.10221232 0.059319649 1.041
-0.094999991 0.058463573 1.0420001
-0.084612183 0.057530191 1.0438
-0.076160938 0.053956922 1.0452354
-0.26256803 0.064745545 1.0446923
-0.25768739 0.067025021 1.0416
-0.11103421 0.067837343 1.041
-0.10481671 0.064628936 1.0444738
-0.094964527 0.062283657 1.0461818
-0.087197646 0.06149729 1.0470001
-0.26254448 0.07210198 1.0464
-0.25547415 0.074114561 1.0436668
-0.24810998 0.078073129 1.0428001
-0.12479147 0.0780062 1.0449229
-0.11490272 0.073934883 1.0443751
-0.10922653 0.070675991 1.0470001
-0.24345471 0.08267843 1.044
-0.23597452 0.08736296 1.0427142
-0.13050322 0.086697944 1.041
-0.12827234 0.083755642 1.0470001
-0.23297133 0.091262966 1.04625
-0.22519432 0.094292827 1.0442144
-0.21893172 0.097744823 1.0419999
-0.13451296 0.096793786 1.0438334
-0.21447177 0.10348366 1.0446
-0.20898768 0.10677537 1.041
-0.16254136 0.10842333 1.0428001
-0.15437107 0.10650858 1.0433334
-0.14481764 0.10519913 1.044778
-0.13501368 0.10244638 1.0465
-0.20409852 0.11348976 1.044
-0.19483724 0.11799811 1.0434
-0.18682888 0.11925577 1.0416
-0.1718179 0.11789896 1.0425
-0.16563918 0.11392694 1.0449548
-0.15590678 0.11158676 1.0470001
-0.14410558 0.11106227 1.0470001
-0.19183482 0.12115884 1.0470001
-0.18489021 0.12319081 1.0444615
-0.17524594 0.12351187 1.0445625
-0.16919403 0.12330053 1.0470001
-0.19494399 -0.1931663 1.0599999
-0.18131191 -0.19397594 1.057
-0.17470603 -0.19515868 1.0563476
-0.16532899 -0.193755 1.0535556
-0.15789503 -0.19142509 1.0508001
-0.21118052 -0.18405354 1.0549999
-0.20468384 -0.1843203 1.0560454
-0.19568677 -0.18349586 1.0568421
-0.18505871 -0.18506135 1.0554641
-0.17502286 -0.18584481 1.0522729
-0.16564409 -0.18669896 1.0521176
-0.1574055 -0.187782 1.0500001
-0.21079449 -0.17489499 1.0500001
-0.20489454 -0.17566408 1.0510908
-0.19518586 -0.17563851 1.0518668
-0.18502051 -0.17839292 1.0500001
-0.1794975 -0.1794975 1.0500001
-0.24239853 -0.16258834 1.0504445
-0.2384095 -0.163849 1.0500001
-0.27195129 -0.1519507 1.0530001
-0.26921862 -0.15331848 1.0535001
-0.24301198 -0.1592465 1.0500001
-0.27312198 -0.14777502 1.0513334
-0.2955696 -0.13226922 1.0550909
-0.28995749 -0.1334725 1.0500001
-0.29497272 -0.12496603 1.0539376
-0.28995749 -0.1261085 1.0500001
-0.2944417 -0.1154075 1.0518463
-0.29306376 -0.10560893 1.0536667
-0.28848469 -0.1040165 1.0500001
-0.29240295 -0.095308125 1.0555
-0.28811648 -0.094811499 1.0500001
-0.31042328 -0.080617391 1.057
-0.30764335 -0.080617391 1.057
-0.29219455 -0.085071079 1.0547501
-0.28757903 -0.084356532 1.0510911
-0.0303765 -0.087447502 1.0500001
-0.024099955 -0.08542864 1.052889
-0.016204707 -0.083891988 1.0537273
-0.31443235 -0.07441368 1.0525293
-0.30172351 -0.077976577 1.0546666
-0.29545736 -0.077498972 1.0523751
-0.28934383 -0.077628836 1.0500001
-0.32154292 -0.069497749 1.057
-0.31721082 -0.066024773 1.0522858
-0.31255564 -0.055265654 1.0506667
-0.31079936 -0.04795542 1.052
-0.30741838 -0.043344736 1.0520002
-0.30317515 -0.035412576 1.0511429
-0.081924498 -0.0340585 1.0500001
-0.31320319 -0.021312643 1.057
-0.30249631 -0.023864094 1.0552
-0.29732153 -0.024239831 1.0500001
-0.074166 -0.023143997 1.0500001
-0.068117 -0.021171499 1.0500001
-0.051548 -0.021171499 1.0500001
-0.32154292 -0.012046277 1.057
-0.31488997 -0.015106303 1.0523684
-0.30427521 -0.018454183 1.0524
-0.29778177 -0.017949749 1.0500001
-0.074556693 -0.015694166 1.0533915
-0.065167353 -0.015327303 1.0526922
-0.055716872 -0.016559402 1.0528421
-0.32191357 -0.0042625288 1.057
-0.31650072 -0.0043264846 1.0520771
-0.075206898 -0.004838421 1.0562223
-0.3137123 0.0036931331 1.0531
-0.31227654 0.010193003 1.057
-0.306624 0.016412953 1.0516001
-0.30176795 0.02307328 1.0526667
-0.29854885 0.025467167 1.0500001
-0.29316947 0.036341775 1.0538334
-0.28839087 0.038238443 1.051
-0.29096392 0.042625286 1.057
-0.28574413 0.042895429 1.0538571
-0.27869701 0.047170803 1.0549999
-0.065390073 0.046971049 1.0505716
-0.27390194 0.054837838 1.0543333
-0.2684792 0.058605164 1.0500001
-0.07380306 0.05640259 1.050889
-0.067912735 0.053740155 1.0547779
-0.27188894 0.062370453 1.054
-0.26725185 0.065355502 1.0500001
-0.10286631 0.068360209 1.0517143
-0.094968617 0.06727384 1.0532144
-0.08462131 0.064950921 1.0538
-0.075147592 0.062194675 1.0557001
-0.25724074 0.078652337 1.0555
-0.11256532 0.077200286 1.0525001
-0.10596255 0.072084352 1.0541668
-0.097296849 0.071351022 1.057
-0.25225383 0.081620581 1.054
-0.24393952 0.087342992 1.0532
-0.12442954 0.08520665 1.0522107
-0.11687153 0.082597062 1.0542728
-0.23404045 0.09487173 1.0527
-0.22765224 0.098004907 1.0513334
-0.13028494 0.091476656 1.054
-0.12857281 0.095608398 1.0530001
-0.22491555 0.10136545 1.0543333
-0.21720117 0.10476693 1.0513334
-0.141757 0.1095395 1.0500001
-0.13499437 0.10771487 1.0513334
-0.12831122 0.10578965 1.0530001
-0.21219979 0.11026976 1.057
-0.20733464 0.11465485 1.0530001
-0.16262092 0.11778291 1.0531429
-0.15449102 0.11602415 1.0537647
-0.14553289 0.11336114 1.0547001
-0.13478361 0.11282636 1.0561429
-0.12792003 0.11241882 1.0528001
-0.20108016 0.1213894 1.057
-0.19543698 0.12405878 1.0542308
-0.18532597 0.12768787 1.052889
-0.1745075 0.12686664 1.0532
-0.16720773 0.12452633 1.0547501
-0.18321499 0.13047035 1.0555
-0.17513433 0.13065577 1.057
-0.17748994 -0.20165086 1.0600001
-0.20165086 -0.19142893 1.0600001
-0.18579867 -0.19520067 1.0600002
-0.17934847 -0.19886306 1.0600001
-0.19474773 -0.18784462 1.0600001
-0.30201167 -0.1310266 1.0600001
-0.30297118 -0.1249124 1.0633572
-0.30285636 -0.11476789 1.0643573
-0.30269313 -0.10463309 1.0656667
-0.29800481 -0.10429327 1.0608572
-0.30244708 -0.094787538 1.067
-0.29771706 -0.094897181 1.0612501
-0.30398688 -0.08306241 1.0645455
-0.29761857 -0.084636644 1.0609
-0.025583569 -0.083577603 1.0632224
-0.014868266 -0.080846198 1.0600001
-0.0074459687 -0.080960602 1.0615001
-0.013998238 -0.077849753 1.0644286
-0.004482572 -0.075716034 1.0649999
0.00093306554 -0.071843706 1.0643334
-0.32360646 -0.06384661 1.0658333
-0.31964055 -0.060573284 1.0630001
-0.32084334 -0.055188801 1.067
-0.31751683 -0.053746533 1.0631667
-0.31526133 -0.045745343 1.0650001
-0.31172368 -0.036435142 1.0656667
-0.30845624 -0.034472506 1.063
-0.313768 -0.023931246 1.0633334
-0.30688193 -0.02598216 1.0625557
-0.33019736 -0.018708067 1.067
-0.3244758 -0.015655646 1.0629499
-0.072482802 -0.010221933 1.0600001
-0.065048665 -0.010221933 1.0600001
-0.05395586 -0.011536057 1.0612
-0.32535675 -0.0065306402 1.0634
-0.072250485 -0.0051109665 1.0600001
-0.065196797 -0.0046523232 1.0624332
-0.055316664 -0.0051710983 1.0645909
-0.049514424 -0.0065373033 1.0656667
-0.32059699 0.0027878 1.0600001
-0.3168624 0.0046542231 1.0615001
-0.071789801 0.0018677383 1.0635
-0.069088347 0.00093365001 1.0650001
-0.31119737 0.024300324 1.0660001
-0.30681199 0.025993107 1.0642143
-0.30185214 0.033511959 1.066
-0.29597145 0.038564567 1.0600001
-0.30026448 0.040222343 1.067
-0.29478282 0.045477439 1.0643334
-0.28595838 0.047272932 1.0625
-0.062260866 0.049251132 1.0600001
-0.28176022 0.052802071 1.066
-0.27810892 0.055563282 1.0621668
-0.063232064 0.055681825 1.0625
-0.05885677 0.055122171 1.0656667
-0.27692145 0.060402334 1.0600001
-0.084752619 0.069852799 1.0624001
-0.074745104 0.067167945 1.062
-0.066071846 0.063535184 1.0643182
-0.10482902 0.075342722 1.0633638
-0.093995899 0.074159093 1.0628235
-0.086097553 0.07408648 1.0658572
-0.076515988 0.071277738 1.067
-0.25395218 0.085275114 1.0650001
-0.24804084 0.087855153 1.0623335
-0.11446863 0.085776061 1.0615835
-0.24334532 0.0947439 1.0653334
-0.23636775 0.098177023 1.0615001
-0.12445213 0.092968389 1.0626
-0.11741898 0.090393975 1.0630001
-0.23284779 0.10258944 1.0638334
-0.22443223 0.10670509 1.0630001
-0.21796417 0.10820726 1.061
-0.2216906 0.11131299 1.067
-0.21584001 0.11333765 1.0649002
-0.2062972 0.11894614 1.0600001
-0.15147047 0.11894614 1.0600001
-0.14503708 0.11787389 1.0600002
-0.13555071 0.11634103 1.0602502
-0.12916806 0.11615833 1.0600001
-0.20464699 0.12464816 1.0610715
-0.1970979 0.12829971 1.0605
-0.16316773 0.12509447 1.0622221
-0.15482524 0.12311796 1.0639168
-0.14425156 0.12090856 1.0650001
-0.13546164 0.12051625 1.0656667
-0.20204711 0.13095647 1.067
-0.19422889 0.13220714 1.063875
-0.18598609 0.13378319 1.0634168
-0.17493731 0.13442445 1.0633335
-0.16783783 0.13236824 1.0648
-0.30827603 -0.12174475 1.0710001
-0.31251952 -0.11304504 1.0732857
-0.30832416 -0.11627681 1.0708573
-0.31230852 -0.10558126 1.0727273
-0.30774707 -0.10508318 1.0702499
-0.31063193 -0.096305341 1.077
-0.30662119 -0.095522776 1.0717778
-0.040599309 -0.095361166 1.077
-0.037294712 -0.092056572 1.077
-0.31346443 -0.08591947 1.077
-0.30637133 -0.086773925 1.072
-0.033789363 -0.087058268 1.0754999
-0.027921395 -0.081559084 1.0735
-0.023770599 -0.078597769 1.07375
-0.015467281 -0.073376276 1.0737618
-0.0058679683 -0.071339846 1.0707501
-0.33205417 -0.061143115 1.0730001
-0.32764164 -0.062312212 1.0700001
-0.013919933 -0.068184279 1.0765001
-0.0042772563 -0.067189835 1.074846
0.00094007887 -0.066741511 1.0723333
-0.33339137 -0.05403582 1.0745454
-0.32639948 -0.055119753 1.0709047
-0.32367134 -0.046036743 1.0747333
-0.31785795 -0.04342711 1.071125
-0.32007363 -0.03871097 1.077
-0.31563768 -0.03394796 1.0730001
-0.32268345 -0.027202966 1.0700001
-0.317467 -0.027212026 1.0703334
-0.33229721 -0.015019053 1.0707501
-0.32924971 -0.010318367 1.0700001
-0.3311176 -0.0072038621 1.072
-0.0534679 -0.00093803339 1.0700001
-0.048777733 -0.0018760667 1.0700001
-0.3218537 0.0056496784 1.0735
-0.071591377 0.0056561069 1.0745
-0.064958237 0.0041474653 1.0738499
-0.055573896 0.0033529087 1.0745
-0.31324089 0.029160563 1.0730001
-0.31167832 0.033753596 1.0754001
-0.3062911 0.035396554 1.0737
-0.3049669 0.040599309 1.077
-0.29172838 0.049715765 1.0700001
-0.28891426 0.049715765 1.0700001
-0.2925463 0.051736485 1.0730001
-0.28636643 0.054780267 1.0722727
-0.05460456 0.057567943 1.074
-0.04815267 0.05759437 1.077
-0.063003115 0.066767514 1.0726668
-0.056704041 0.063147835 1.0750834
-0.10593464 0.078465872 1.0732
-0.083798617 0.077747084 1.0713334
-0.074464113 0.074916467 1.072619
-0.066910192 0.072566077 1.075
-0.2618995 0.08311969 1.0733334
-0.25703692 0.08745452 1.0726668
-0.11197195 0.085623451 1.0733334
-0.081765123 0.08138746 1.077
-0.078366108 0.082142793 1.077
-0.25308067 0.094357245 1.0745
-0.2474934 0.096417449 1.0703751
-0.12333209 0.09667027 1.0724546
-0.11744189 0.093674354 1.0738751
-0.25114921 0.10102619 1.077
-0.24357185 0.10266993 1.0744001
-0.23629302 0.1054484 1.0728889
-0.22888014 0.10881187 1.0700001
-0.12635396 0.10225405 1.074
-0.23229301 0.11159003 1.0756668
-0.22415581 0.11520524 1.0724705
-0.21641004 0.11846934 1.0712858
-0.13169286 0.11946424 1.0730001
-0.21403079 0.12364689 1.0739166
-0.20918143 0.12475844 1.0700001
-0.16192317 0.12813163 1.0707501
-0.15454979 0.12789799 1.072
-0.14507249 0.12559576 1.0733528
-0.13834342 0.12295232 1.0706002
-0.21054991 0.13123962 1.077
-0.20559572 0.13257261 1.0725001
-0.19572513 0.13644604 1.0733751
-0.18524756 0.13822597 1.0726
-0.1746082 0.13896294 1.0700001
-0.16479398 0.13545845 1.0727199
-0.15669379 0.13296491 1.0756667
-0.18384102 0.14084999 1.0754001
-0.17447174 0.14281845 1.0746
-0.16657171 0.1425427 1.075
-0.32025334 -0.10168281 1.0840001
-0.31679928 -0.10357992 1.08
-0.31376654 -0.094523951 1.0826
-0.3096036 -0.091839597 1.08
-0.041848559 -0.093354478 1.08
-0.31445888 -0.088351339 1.0836667
-0.3096036 -0.088999197 1.08
-0.04169267 -0.085881449 1.0830909
-0.036114901 -0.083555453 1.0824118
-0.040976275 -0.079093739 1.087
-0.033691414 -0.076994769 1.0867273
-0.026033143 -0.074191064 1.0835998
-0.0198828 -0.071010001 1.08
-0.33516717 -0.063435599 1.08
-0.024484986 -0.067599453 1.0860714
-0.014953208 -0.064556494 1.083842
-0.0055056419 -0.062437542 1.0824666
0.00094679999 -0.062488802 1.08
-0.33579838 -0.055230003 1.08
-0.002337592 -0.056684233 1.085909
0.0024695112 -0.054559637 1.0842667
-0.33275971 -0.045102529 1.08025
-0.32745758 -0.042606 1.08
0.00530471 -0.04692784 1.0861428
-0.33151531 -0.03593358 1.085875
-0.32483354 -0.035101075 1.0821499
-0.32660654 -0.02943233 1.0830001
-0.33611399 -0.0104148 1.08
-0.32405457 0.0085527599 1.0840001
-0.071010001 0.0085212002 1.08
-0.064382397 0.0085212002 1.08
-0.055249289 0.0078251269 1.082
-0.072201096 0.012354278 1.0836667
-0.065515585 0.012895521 1.0848333
-0.056342579 0.011612765 1.0856999
-0.048599768 0.010482303 1.087
-0.31226635 0.037018713 1.0826668
-0.30865681 0.036925197 1.08
-0.31075028 0.040863186 1.0840001
-0.30770999 0.040712401 1.08
-0.29436991 0.055710554 1.0831667
-0.28593361 0.059648398 1.08
-0.050180398 0.059648398 1.08
-0.048286799 0.059648398 1.08
-0.29064569 0.060035009 1.087
-0.28778687 0.061940882 1.087
-0.061542001 0.069116399 1.08
-0.05454037 0.066484965 1.0833571
-0.1013076 0.078584403 1.08
-0.098831892 0.078875452 1.0840001
-0.075744003 0.078584403 1.08
-0.063855991 0.075781234 1.0849999
-0.058709193 0.07203979 1.0860001
-0.26433778 0.087617576 1.0824444
-0.11145414 0.086793505 1.082
-0.10629854 0.082856618 1.08425
-0.083002798 0.083633997 1.08
-0.074616775 0.083278351 1.0825624
-0.26246545 0.094147421 1.0847501
-0.25753191 0.096378408 1.0813334
-0.1202436 0.099413998 1.08
-0.11594673 0.095512733 1.084125
-0.25370276 0.10471734 1.0847778
-0.24636663 0.1070551 1.08225
-0.23859361 0.108882 1.08
-0.12393907 0.1042501 1.0837272
-0.11808196 0.10189387 1.0862499
-0.24385403 0.11252959 1.0855
-0.23547818 0.11550271 1.0837142
-0.2281788 0.11835 1.08
-0.2245456 0.12306005 1.0853333
-0.21737103 0.12671976 1.08275
-0.1448604 0.1297116 1.08
-0.13446471 0.12546462 1.0847332
-0.21283342 0.13427268 1.0862501
-0.2045099 0.13823718 1.08375
-0.19730085 0.13943735 1.082
-0.16000921 0.1391796 1.08
-0.15398453 0.13656209 1.0817499
-0.14558785 0.13406719 1.0854443
-0.13626994 0.13055232 1.087
-0.20457928 0.14267156 1.0863999
-0.19501196 0.14269233 1.0850999
-0.18485583 0.14564939 1.0847691
-0.17553155 0.14763793 1.0822999
-0.16391313 0.14602219 1.0825713
-0.15580924 0.14300849 1.0855454
-0.14961106 0.14008169 1.087
-0.17234626 0.15248652 1.0861429
-0.16560873 0.1534992 1.0865715
-0.32383937 -0.10122958 1.0945001
-0.32371601 -0.095645837 1.0957143
-0.31820369 -0.094601102 1.09
-0.32011482 -0.088867702 1.09
-0.043000501 -0.081223167 1.09
-0.041915536 -0.076748662 1.0916001
-0.036406614 -0.074355237 1.0906155
-0.032170743 -0.069119327 1.09
-0.024569824 -0.063654989 1.0919167
-0.014346826 -0.060244881 1.0908
-0.013352112 -0.05697887 1.0949092
-0.006104833 -0.053604387 1.0919375
-0.0028814783 -0.04580095 1.095
0.0034164952 -0.043601893 1.0914286
-0.33349276 -0.032489266 1.09
-0.00096170331 -0.039429836 1.097
0.004937449 -0.037316255 1.0955
-0.34093785 -0.0057610152 1.0955
-0.33851957 -0.0038468132 1.097
-0.33133397 0.0076844217 1.0955
-0.32879731 0.0066994862 1.0913334
-0.32636386 0.011307422 1.0930001
-0.072623067 0.0172002 1.09
-0.064405188 0.017391313 1.09
-0.054184355 0.015910842 1.0915
-0.048823319 0.016277947 1.092
-0.070971429 0.02014054 1.0940001
-0.064076878 0.021575643 1.0936667
-0.055499572 0.020903241 1.0962501
-0.04904687 0.020195769 1.097
-0.31640041 0.041353244 1.097
-0.30313182 0.054753594 1.0957143
-0.29717991 0.058476735 1.0935
-0.29396704 0.063728482 1.095
-0.28645521 0.066951908 1.0910001
-0.05116928 0.068383507 1.0910001
-0.04904687 0.068280935 1.097
-0.29139611 0.07020434 1.097
-0.28539571 0.075491391 1.094
-0.27717221 0.079603083 1.0940001
-0.097132035 0.079821378 1.097
-0.062111832 0.078834251 1.09
-0.05461967 0.075709596 1.0931429
-0.049002159 0.072063752 1.0960001
-0.28235549 0.081633009 1.0955
-0.27459815 0.085173652 1.09405
-0.26851425 0.082178734 1.09
-0.10430999 0.086266696 1.091643
-0.095145419 0.08265432 1.0963
-0.089438409 0.083668187 1.097
-0.070839927 0.085204989 1.092
-0.065517202 0.083818048 1.0926501
-0.057969291 0.082311399 1.0960001
-0.27216205 0.091361813 1.097
-0.26701748 0.094864391 1.0930001
-0.11259115 0.095527582 1.0926365
-0.10762072 0.092269786 1.0947143
-0.26212618 0.10226031 1.09525
-0.25758716 0.10783496 1.095
-0.1223639 0.10781474 1.0922
-0.11603536 0.10405149 1.0939168
-0.2540496 0.11195103 1.0952001
-0.24628557 0.11619613 1.0931251
-0.23921019 0.11880878 1.09
-0.12694484 0.11059588 1.097
-0.24331094 0.12021291 1.097
-0.23422758 0.12335555 1.095
-0.22644609 0.12670796 1.0940001
-0.13163063 0.12780309 1.0920001
-0.12982994 0.12790655 1.097
-0.22023006 0.13175336 1.097
-0.21638326 0.13495903 1.097
-0.14233471 0.13707471 1.0915
-0.13535655 0.1350151 1.0936364
-0.12982994 0.13271506 1.097
-0.21118023 0.14142387 1.09
-0.2046679 0.14578924 1.0922501
-0.19478613 0.1477648 1.0945001
-0.18824664 0.14811283 1.09
-0.1539205 0.14679833 1.0944287
-0.14623244 0.14349349 1.0953572
-0.13848528 0.14137039 1.097
-0.20388111 0.15098742 1.097
-0.19281301 0.1516742 1.0964
-0.18486653 0.15209609 1.0936364
-0.17578404 0.15584669 1.0933001
-0.16215116 0.15621909 1.0919001
-0.15843792 0.15268143 1.0953335
-0.16600858 0.16025309 1.0946001
-0.32720619 -0.093625367 1.1010001
-0.02416181 -0.060881872 1.1023334
-0.030111747 -0.051481374 1.108
-0.023445884 -0.056067571 1.1061175
-0.015334591 -0.05331555 1.1029284
-0.013796445 -0.046667546 1.1064998
-0.0072909179 -0.044529166 1.1020908
-0.010684813 -0.038853865 1.108
-0.0044622337 -0.035241153 1.1056799
0.0028973832 -0.032657407 1.1021999
-0.001748424 -0.026614899 1.108
0.0045930855 -0.024652665 1.1058694
0.0070152814 -0.016512893 1.1079999
0.010677582 -0.013587677 1.10725
-0.35065615 -0.0029140399 1.108
-0.34503427 -0.0020448738 1.1058888
-0.3380821 -0.00096871669 1.105
-0.34208396 0.0022660373 1.1075
-0.33707392 0.0044157701 1.1052222
-0.33256805 0.014161323 1.1059999
-0.3272329 0.016478118 1.1054444
-0.32669625 0.022988537 1.108
-0.070948809 0.02455561 1.1026
-0.065193534 0.027044509 1.1017499
-0.055480786 0.025321955 1.1047857
-0.049471617 0.023282073 1.1065
-0.062689804 0.031967651 1.105
-0.058373727 0.03258545 1.1071428
-0.31471631 0.044681948 1.108
-0.31180227 0.056338105 1.108
-0.30642304 0.057874728 1.1040001
-0.30366793 0.064924009 1.1052666
-0.29752365 0.067471243 1.1026001
-0.048513688 0.065142296 1.1024001
-0.30144125 0.071555875 1.108
-0.29484484 0.073522337 1.1051111
-0.05115613 0.078182012 1.1010001
-0.04618321 0.075642124 1.1052666
-0.28318822 0.085753076 1.1040001
-0.27894568 0.087834112 1.1010001
-0.10199052 0.089121051 1.1010001
-0.095527507 0.087316953 1.1025833
-0.087973714 0.086525902 1.1027501
-0.061525345 0.087297 1.1023334
-0.054446258 0.084438026 1.1034286
-0.046409417 0.082710929 1.1062142
-0.28217623 0.092277929 1.108
-0.27433044 0.09495683 1.104
-0.26929358 0.097486213 1.1010001
-0.11099915 0.098451421 1.1010001
-0.10444879 0.095802084 1.1038234
-0.096603774 0.091339014 1.1067144
-0.061194841 0.090335242 1.108
-0.059091717 0.090090647 1.105
-0.048567332 0.096163318 1.108
-0.27165329 0.10199139 1.108
-0.26559943 0.10533075 1.1051428
-0.11335924 0.10584017 1.103111
-0.1072595 0.10143669 1.10725
-0.28227922 0.11446242 1.1065
-0.27532279 0.11861222 1.1079999
-0.26170397 0.11225161 1.107
-0.25615674 0.11581966 1.104
-0.12500493 0.1145302 1.1043528
-0.11847039 0.11201637 1.1046667
-0.24473728 0.12349836 1.1063334
-0.23678467 0.12703174 1.1037143
-0.12813032 0.12667328 1.10725
-0.23202613 0.1330035 1.1073999
-0.22513624 0.13397416 1.103375
-0.21808867 0.13796659 1.1056668
-0.13146159 0.13879719 1.1010001
-0.12808232 0.13534988 1.10475
-0.2017289 0.14960755 1.1010001
-0.19979846 0.14960755 1.1010001
-0.1437801 0.14729634 1.1020908
-0.13536596 0.14415127 1.1035384
-0.12802348 0.14239943 1.108
-0.20324978 0.15434054 1.1032857
