# .PCD v0.7 - Point Cloud Data file format
VERSION 0.7
FIELDS x y z
SIZE 4 4 4
TYPE F F F
COUNT 1 1 1
WIDTH 1452
HEIGHT 1
VIEWPOINT 0 0 0 1 0 0 0
POINTS 1452
DATA ascii
-0.017523034 -0.027333371 1.066
-0.052850287 -0.019175768 1.067
-0.047705568 -0.019175768 1.067
-0.045241259 -0.20073473 1.075
-0.063389614 -0.19359645 1.0762727
-0.055288184 -0.19464962 1.0734583
-0.045164585 -0.19451039 1.0733213
-0.038459368 -0.19042076 1.0700001
-0.070812747 -0.18033648 1.077
-0.064404152 -0.18506362 1.0745454
-0.058392577 -0.18549611 1.0700001
-0.041675482 -0.18666863 1.0700001
-0.038459368 -0.18854471 1.0700001
-0.021675583 -0.18283059 1.075
-0.016635919 -0.18114418 1.0743333
-0.073312998 -0.17337023 1.0767332
-0.065424845 -0.17548282 1.072619
-0.022240451 -0.17824678 1.072
-0.015094483 -0.17526615 1.0736086
-0.0066091898 -0.1722436 1.077
-0.082648262 -0.1643538 1.0761999
-0.075336248 -0.16470337 1.07256
-0.067289725 -0.16712599 1.0710001
-0.012575433 -0.16800213 1.0706
-0.0057340371 -0.16671234 1.0743636
0.00094416999 -0.16711809 1.077
-0.084963225 -0.15524277 1.0750952
-0.0787948 -0.15540086 1.0700001
-0.091584489 -0.14162549 1.077
-0.085420802 -0.14468691 1.075074
-0.079732835 -0.14539516 1.0700001
-0.092124023 -0.13420703 1.077
-0.085786879 -0.13480026 1.0752798
-0.079732835 -0.13507679 1.0700001
-0.093944907 -0.12486648 1.0769999
-0.085796028 -0.12538809 1.0753999
-0.079732835 -0.12475844 1.0700001
-0.10220639 -0.11259228 1.077
-0.095268123 -0.11507794 1.0759332
-0.085709065 -0.11490586 1.0743333
-0.079181999 -0.11423171 1.071
-0.11141206 -0.10102619 1.077
-0.10339308 -0.10377073 1.0767332
-0.094984166 -0.10438889 1.0727199
-0.085580371 -0.10439088 1.07276
-0.078811146 -0.10476604 1.0713636
-0.11237224 -0.094765522 1.0759332
-0.10440341 -0.094999954 1.0728799
-0.09504541 -0.095126741 1.070652
-0.084923841 -0.095083624 1.0709544
-0.077801846 -0.094030716 1.0710714
-0.11246426 -0.085339509 1.0749999
-0.10587671 -0.086244509 1.0702307
-0.096992657 -0.088362738 1.0700001
-0.082144916 -0.086165063 1.0700001
-0.076940827 -0.085386015 1.0702999
-0.1111704 -0.076170936 1.0756668
-0.10656047 -0.074608192 1.0718666
-0.076397605 -0.077856772 1.0700001
-0.10456188 -0.064747967 1.0734999
-0.072228566 -0.067538396 1.0700001
-0.1031505 -0.055547982 1.0739444
-0.068476431 -0.051591832 1.0700001
-0.10167367 -0.047534496 1.0752858
-0.096029915 -0.043987967 1.0727222
-0.089113168 -0.040335432 1.0700001
-0.070352502 -0.044087566 1.0700001
0.008448218 -0.043177802 1.0707501
0.010366583 -0.04523775 1.075
-0.092884712 -0.03707185 1.0764287
-0.086035423 -0.034282193 1.0722106
-0.07356862 -0.032295145 1.0700001
-0.035645269 -0.0309551 1.0700001
-0.029079033 -0.0309551 1.0700001
-0.0112564 -0.031893134 1.0700001
-0.0037566812 -0.033478856 1.0720625
0.0043094163 -0.034920491 1.0736842
0.011002459 -0.03740415 1.0756668
-0.082879581 -0.026506212 1.0756667
-0.075035892 -0.025505679 1.0722069
-0.064835496 -0.025367821 1.0717999
-0.058470745 -0.023763513 1.0700001
-0.040960789 -0.022200122 1.0700001
-0.034446597 -0.025126562 1.0720868
-0.02584401 -0.024764121 1.0729047
-0.0140968 -0.02460628 1.0721818
-0.0053737033 -0.026122298 1.0757998
0.00283251 -0.028797185 1.077
-0.08025445 -0.019827571 1.077
-0.073093124 -0.015919128 1.0743999
-0.06490007 -0.01504877 1.0729001
-0.055759069 -0.01437116 1.0710384
-0.044773888 -0.014512228 1.0725
-0.037210308 -0.017504014 1.0761112
-0.02360425 -0.019198125 1.077
-0.016198965 -0.01859976 1.0755454
-0.0084975297 -0.019827571 1.077
-0.070549749 -0.0084659699 1.0730001
-0.063952699 -0.005198956 1.0736316
-0.055103015 -0.0044949292 1.0734445
-0.046613637 -0.0056550838 1.0754445
-0.063574113 0.0015736166 1.077
-0.054357212 0.0024278653 1.0769999
-0.04815267 0.00094416999 1.077
-0.060987946 -0.21059901 1.087
-0.057176199 -0.21059901 1.087
-0.071470253 -0.20202258 1.087
-0.065503739 -0.20516324 1.0857272
-0.055266824 -0.20491759 1.0842856
-0.046458509 -0.20432164 1.0815001
-0.072802536 -0.19434009 1.0861818
-0.06667953 -0.19653678 1.0806153
-0.055861197 -0.1997748 1.08
-0.081761964 -0.18162973 1.087
-0.074785218 -0.18498205 1.0836666
-0.069116399 -0.1855728 1.08
-0.011835 -0.1817856 1.08
-0.0056831376 -0.18169324 1.0813334
-0.083739631 -0.17400683 1.0838749
-0.076777413 -0.17724973 1.0812
-0.011046 -0.17831402 1.08
-0.0038390623 -0.17599536 1.0814736
0.001710552 -0.17412686 1.0842001
-0.091781735 -0.16412076 1.0857142
-0.086817175 -0.16542612 1.0803334
-0.0028404 -0.16947719 1.08
-0.094120935 -0.1542832 1.0844285
-0.089946002 -0.15432839 1.08
-0.1008207 -0.14503697 1.087
-0.095692769 -0.14524503 1.0828499
-0.089946002 -0.14864761 1.08
-0.10223497 -0.13366874 1.0865
-0.097011156 -0.13587633 1.0813333
-0.1143524 -0.12221412 1.087
-0.10497679 -0.12378679 1.0833808
-0.098151594 -0.12718681 1.08
-0.12197588 -0.11411417 1.087
-0.11504126 -0.11495635 1.0860434
-0.10646156 -0.11549433 1.0814117
-0.12292203 -0.10531079 1.0858749
-0.11516313 -0.10575016 1.0833042
-0.10717776 -0.10660968 1.08
-0.12250172 -0.095144242 1.0853124
-0.11721383 -0.096384242 1.08
-0.12102295 -0.085764296 1.087
-0.11756897 -0.084836468 1.0807273
-0.12102295 -0.073376127 1.087
-0.11631986 -0.074505225 1.0838823
-0.1143419 -0.065918975 1.0850499
-0.108882 -0.062488802 1.08
-0.11217851 -0.056699041 1.0857142
-0.10830534 -0.054241825 1.0818
-0.10534935 -0.045370847 1.0843636
-0.099413998 -0.040712401 1.08
0.0123084 -0.046393201 1.08
-0.10101128 -0.038117465 1.087
-0.095437378 -0.034976367 1.0837272
0.0080477996 -0.032664597 1.08
0.011046 -0.0344004 1.08
-0.09052898 -0.029541036 1.087
-0.086122409 -0.024711739 1.0843
-0.0020829602 -0.02291256 1.08
0.0041835047 -0.024471942 1.0811176
-0.081764944 -0.018062841 1.0845
-0.078050219 -0.01674667 1.0813333
-0.034125667 -0.014143765 1.0828094
-0.025663193 -0.014589579 1.0842499
-0.014657027 -0.013908658 1.0832173
-0.0048346575 -0.01631365 1.0834545
0.0025822842 -0.018609004 1.0847143
-0.042098936 -0.0036013466 1.0816
-0.037112728 -0.0061407313 1.0855454
-0.020011669 -0.0085764304 1.087
-0.017152861 -0.0076234937 1.087
-0.062804401 0.0053652003 1.08
-0.055345714 0.0067577842 1.0814999
-0.044846479 0.0046696444 1.084318
-0.039070401 0.00095293665 1.087
-0.060035009 0.012388176 1.087
-0.05462167 0.011909296 1.0867499
-0.04796448 0.011117593 1.087
-0.071166046 -0.22119176 1.097
-0.064434126 -0.22138409 1.097
-0.058663905 -0.22215347 1.097
-0.0722076 -0.21469413 1.0957501
-0.064868867 -0.21504682 1.091091
-0.055034399 -0.21525526 1.092889
-0.048912741 -0.2119552 1.0940001
-0.075129673 -0.20536323 1.0933751
-0.069756366 -0.20926909 1.09
-0.051600598 -0.20926909 1.09
-0.048733901 -0.20926909 1.09
-0.08321593 -0.19345792 1.0966668
-0.07755582 -0.1955936 1.0921429
-0.085927181 -0.18541583 1.0934738
-0.079312034 -0.18824664 1.09
-0.09211465 -0.17415401 1.0945001
-0.088339366 -0.17667873 1.0913334
-0.095705502 -0.1646865 1.092889
-0.10109019 -0.15331234 1.0930001
-0.097731151 -0.15701976 1.0908
-0.10399108 -0.14447774 1.09325
-0.12021291 -0.13175336 1.097
-0.113481 -0.13175336 1.097
-0.10635611 -0.13514307 1.0945834
-0.12451375 -0.12483433 1.0953335
-0.11572902 -0.12665826 1.0920589
-0.10797903 -0.12836446 1.09
-0.13213804 -0.11328866 1.097
-0.12683949 -0.11590435 1.0926471
-0.1175347 -0.11849026 1.09
-0.13175336 -0.10482566 1.097
-0.12817423 -0.10485172 1.0918183
-0.13175336 -0.099055439 1.097
-0.12760791 -0.095044799 1.092375
-0.12442004 -0.085005753 1.094
-0.12399928 -0.075187914 1.0943125
-0.13360365 -0.061708219 1.0964
-0.12473579 -0.064213909 1.0948572
-0.11784368 -0.062797971 1.090889
-0.13342243 -0.056722675 1.0966668
-0.12518866 -0.054656658 1.0952308
-0.11654598 -0.054296043 1.0933529
-0.12305626 -0.045485616 1.0915334
-0.11556704 -0.044748127 1.0950384
-0.1075452 -0.04304358 1.0911429
-0.12163015 -0.036222439 1.0946251
-0.1148079 -0.038040947 1.0965716
-0.10484941 -0.035427414 1.0952001
-0.096990019 -0.032011483 1.09
-0.10189453 -0.027875809 1.0965
-0.094741955 -0.02615731 1.0937144
-0.088297516 -0.021641392 1.0924
-0.091361813 -0.018272363 1.097
-0.085653082 -0.016854793 1.0942858
-0.078356467 -0.0143335 1.09
-0.010511233 -0.010511233 1.09
-0.0039587761 -0.011057272 1.09
0.0041927677 -0.013526529 1.092625
-0.033879656 -0.0036870094 1.0908573
-0.025172379 -0.0049293013 1.0935186
-0.013826285 -0.0042381403 1.0930476
-0.0047952621 -0.0047929473 1.09436
0.0032338642 -0.0065527647 1.0964546
-0.041089367 0.0076445332 1.09
-0.036559358 0.0041974252 1.0939375
-0.029812803 0.00096170331 1.097
-0.0067319232 0.00096170331 1.097
-0.054187577 0.01654378 1.0903077
-0.044751577 0.014646931 1.0928571
-0.038922027 0.012014059 1.0962501
-0.054695584 0.02111171 1.0946
-0.04757078 0.020662813 1.0962501
-0.081593119 -0.2311805 1.108
-0.07442116 -0.23438042 1.1054735
-0.065834634 -0.23310614 1.1058182
-0.0582808 -0.2311805 1.108
-0.08213111 -0.2247231 1.1065
-0.074836411 -0.22555739 1.1020907
-0.06439545 -0.22661376 1.1021764
-0.05560879 -0.22459963 1.1039231
-0.049538679 -0.22049569 1.108
-0.083611995 -0.21493135 1.1066362
-0.076778069 -0.2161193 1.101
-0.051249057 -0.21853547 1.103
-0.049538679 -0.21855299 1.108
-0.090723783 -0.20339999 1.108
-0.084304392 -0.20500444 1.1041738
-0.092443481 -0.19540395 1.1063844
-0.086605668 -0.19576214 1.101
-0.093751036 -0.18475135 1.1043333
-0.095906012 -0.17582032 1.105
-0.10102005 -0.16415758 1.108
-0.097840384 -0.16855669 1.105
-0.12141833 -0.15055872 1.108
-0.10621226 -0.15332316 1.1046667
-0.12438092 -0.14410535 1.1064999
-0.11554482 -0.14431016 1.1059997
-0.10809661 -0.14606264 1.1033751
-0.13260189 -0.13405804 1.1067499
-0.12491778 -0.13519326 1.1022271
-0.11510129 -0.13585331 1.101
-0.10906873 -0.13899024 1.1010001
-0.13379386 -0.12501895 1.1044705
-0.12772946 -0.12772946 1.1010001
-0.13520829 -0.1156709 1.1032
-0.13503067 -0.10526192 1.104125
-0.13228926 -0.094072387 1.1063
-0.1336904 -0.083466604 1.1070623
-0.12837292 -0.084938489 1.101
-0.14046392 -0.075559899 1.105
-0.13484824 -0.074249543 1.103074
-0.12837292 -0.074321166 1.1010001
-0.14188586 -0.066599488 1.1010001
-0.13523994 -0.065821104 1.1011817
-0.12837292 -0.068529911 1.1010001
-0.11558024 -0.033238564 1.1012856
-0.10810351 -0.031851929 1.1010001
-0.12065125 -0.0289563 1.1010001
-0.11454061 -0.025805594 1.1041249
-0.10609105 -0.024403697 1.1026665
-0.09652099 -0.02123462 1.101
-0.10517111 -0.015919238 1.1065881
-0.095395684 -0.015835449 1.103375
-0.085977599 -0.01374587 1.1044999
-0.078679077 -0.012627507 1.108
0.0086868899 -0.012547729 1.1010001
0.011604144 -0.012569353 1.103
-0.1070746 -0.0054999143 1.107
-0.024130251 -0.00096520997 1.1010001
0.0060803094 -0.0034519378 1.1029999
0.01061731 -0.0086868899 1.1010001
-0.032721974 0.0067599765 1.1014444
-0.024822382 0.0048444606 1.1042855
-0.014520687 0.0048451619 1.1041598
-0.0047550406 0.0050032102 1.1035831
0.0032341694 0.0032335848 1.1058332
-0.041504029 0.018338989 1.1010001
-0.034330443 0.014749847 1.1038798
-0.02555337 0.011322734 1.107
-0.012622684 0.011975121 1.1075
-0.0056661889 0.012303725 1.1079999
-0.054117218 0.026094565 1.1023334
-0.045013491 0.024838805 1.1037141
-0.038035642 0.022307076 1.1062223
-0.053351741 0.031042328 1.1065
-0.046624642 0.030111747 1.108
-0.083580352 -0.2428931 1.1190002
-0.075938486 -0.24348672 1.1176668
-0.066299669 -0.24266982 1.1176667
-0.059840389 -0.24034254 1.1190001
-0.085498571 -0.23516424 1.1166667
-0.07917615 -0.23948342 1.115
-0.064626113 -0.23778093 1.1127501
-0.056719456 -0.23461325 1.1176667
-0.10202296 -0.22170374 1.1190001
-0.094199792 -0.22422242 1.1183847
-0.087224267 -0.22564593 1.1133637
-0.052956451 -0.22845285 1.1146001
-0.046012431 -0.22388577 1.1168334
-0.10268172 -0.21417503 1.117
-0.09487626 -0.2153863 1.1148075
-0.088711649 -0.21641745 1.1120001
-0.045338094 -0.21799232 1.115077
-0.10261877 -0.20530891 1.118077
-0.095451608 -0.20553087 1.1127895
-0.10202296 -0.19521698 1.1190002
-0.097541116 -0.19481255 1.1136365
-0.10270853 -0.1848433 1.1172858
-0.098179512 -0.18498178 1.1125001
-0.10346036 -0.17493275 1.1168333
-0.098460183 -0.1774233 1.1120001
-0.13047168 -0.16186334 1.1190001
-0.12497303 -0.16267103 1.1185555
-0.11316662 -0.16357127 1.1186001
-0.10567775 -0.16579711 1.1155789
-0.13313498 -0.154218 1.1171176
-0.12433553 -0.15569092 1.1144781
-0.11484277 -0.15554212 1.11584
-0.10665486 -0.15656094 1.1142728
-0.14145876 -0.14342074 1.1190001
-0.13483799 -0.14491338 1.1141051
-0.12868063 -0.14720286 1.1120001
-0.11210813 -0.14915256 1.1120001
-0.14224355 -0.13439563 1.1190001
-0.1378403 -0.13588759 1.1128573
-0.13920444 -0.12488993 1.113
-0.14224355 -0.11379484 1.1190001
-0.13947925 -0.11412148 1.1126001
-0.14314577 -0.10284815 1.1172857
-0.13874644 -0.10424901 1.1136667
-0.14424266 -0.095222555 1.1157058
-0.1377544 -0.094391204 1.1132859
-0.1426328 -0.086863764 1.1132857
-0.13767096 -0.086545311 1.1120001
-0.10430931 -0.011280446 1.1120001
-0.095357671 -0.011461759 1.1127501
-0.084858 -0.010729173 1.1126001
-0.07917615 -0.010752317 1.115
-0.10318498 -0.005858215 1.1143751
-0.094993591 -0.0048923255 1.11708
-0.085150592 -0.0048898007 1.1164399
-0.077165522 -0.0048981556 1.11775
-0.10202296 0.00098099001 1.1190001
-0.096300513 0.0032699667 1.1190002
-0.086327121 0.00196198 1.1190001
0.0063849655 0.006385236 1.1135386
0.01079089 0.0088289101 1.1190001
-0.030220453 0.018522214 1.1120001
-0.024442695 0.014768851 1.1152999
-0.01502804 0.014908811 1.1148751
-0.0041296394 0.016745143 1.1133846
0.0038673 0.014171547 1.1166316
0.01079089 0.01079089 1.1190001
-0.033822387 0.025266284 1.1145715
-0.02844871 0.02452475 1.1190001
-0.01079089 0.02060079 1.1190001
-0.0049024955 0.021574419 1.1186001
0.00196198 0.02060079 1.1190001
-0.053257126 0.035926674 1.1161429
-0.044668421 0.034822717 1.1151921
-0.035092436 0.033723257 1.1181999
-0.051992472 0.040220588 1.1190001
-0.044798542 0.040547583 1.1190001
-0.038258608 0.040220588 1.1190001
-0.07304737 -0.2517173 1.126
-0.092379332 -0.24393368 1.125
-0.087022386 -0.24612556 1.1237501
-0.074602 -0.24879037 1.1246667
-0.064349085 -0.24598515 1.1242858
-0.058085304 -0.24120168 1.123
-0.095211096 -0.23489805 1.1251428
-0.089589193 -0.23923269 1.123
-0.053343285 -0.2354743 1.1238573
-0.044984769 -0.2314107 1.126
-0.036523685 -0.23000051 1.126
-0.1049469 -0.22449091 1.1251001
-0.097183883 -0.22770002 1.123
-0.043473899 -0.22750552 1.1234287
-0.037181769 -0.22671008 1.126
-0.11154531 -0.21223223 1.126
-0.10809621 -0.21454459 1.1243335
-0.11154531 -0.20433521 1.126
-0.1079209 -0.20438562 1.1246156
-0.10636645 -0.19471835 1.1243638
-0.11154531 -0.18064418 1.126
-0.10828254 -0.18382727 1.1240001
-0.13128784 -0.17077291 1.126
-0.12635221 -0.17077291 1.126
-0.11261046 -0.17374817 1.1248001
-0.10888533 -0.17583111 1.123
-0.13483146 -0.16452786 1.1252105
-0.12519808 -0.16719496 1.1245
-0.11656891 -0.16647929 1.1236668
-0.14277138 -0.15446138 1.1255386
-0.13821952 -0.15627737 1.1235
-0.1438815 -0.14609857 1.1241251
-0.14510761 -0.13523635 1.126
-0.14379896 -0.12496015 1.1243334
-0.14508015 -0.11517632 1.1245002
-0.14633496 -0.10669348 1.1248001
-0.093454681 0.0059156585 1.1245
-0.08532127 0.0063244286 1.1247648
-0.076881625 0.0043834317 1.1243333
-0.092664979 0.010843929 1.1245
-0.022643423 0.018705437 1.123
-0.016736444 0.018705437 1.123
0.0082041388 0.01640828 1.123
0.010829464 0.015751947 1.123
-0.024043154 0.02444011 1.1240499
-0.014179409 0.022976287 1.1243848
-0.0049252887 0.026591578 1.1234001
0.0034525322 0.024158522 1.1247501
-0.031306993 0.036820177 1.123
-0.027918616 0.032847237 1.1240001
-0.0029613802 0.030600926 1.126
-0.050276395 0.043377027 1.1245
-0.043920394 0.044376798 1.1248462
-0.03598278 0.042145088 1.1245
-0.091783494 -0.26038578 1.138
-0.08479996 -0.26078483 1.138
-0.075322323 -0.26088461 1.138
-0.092968345 -0.25410426 1.1346154
-0.084611014 -0.2551266 1.1323528
-0.074671909 -0.2556639 1.1333846
-0.067571267 -0.25439331 1.1335
-0.10279828 -0.24157462 1.1340001
-0.096639752 -0.24534154 1.1321819
-0.052625131 -0.24129198 1.1326667
-0.048712861 -0.24157602 1.1340001
-0.11073878 -0.23245168 1.138
-0.10409365 -0.23486543 1.1319999
-0.051557645 -0.23796326 1.131
-0.044205174 -0.23629873 1.1321537
-0.038293146 -0.23392518 1.1316
-0.11295888 -0.22491506 1.1357778
-0.10863945 -0.2255342 1.13
-0.12071525 -0.21349639 1.138
-0.11512233 -0.21511103 1.1325884
-0.1099603 -0.21892996 1.13
-0.12157037 -0.20451756 1.138
-0.11537722 -0.20505147 1.1315998
-0.11528728 -0.19534954 1.1346
-0.1099603 -0.19515477 1.13
-0.13354214 -0.18142916 1.138
-0.124666 -0.18305518 1.1376363
-0.11517018 -0.18551679 1.1330588
-0.1099603 -0.18921097 1.13
-0.14395918 -0.17386824 1.1372
-0.13529329 -0.17504072 1.1332941
-0.12463965 -0.17555524 1.1319131
-0.11706066 -0.17581709 1.1307273
-0.1518866 -0.1618572 1.1373334
-0.14474809 -0.16553764 1.1321055
-0.13918398 -0.16791233 1.13
-0.1218479 -0.16939829 1.13
-0.11986663 -0.16939829 1.13
-0.15207304 -0.15455897 1.135
-0.1473567 -0.15627241 1.13
-0.15098779 -0.14529297 1.1362857
-0.14769144 -0.14471488 1.1306667
-0.15064465 -0.13368465 1.138
-0.14812686 -0.1342089 1.1340001
-0.15173961 -0.12437972 1.135
-0.14769144 -0.12489519 1.1306667
-0.15156689 -0.11293221 1.13
-0.14925541 -0.11656452 1.13
-0.15156689 -0.1099603 1.13
-0.14958563 -0.10896967 1.13
0.025896732 -0.065728955 1.136
0.032846365 -0.065689214 1.1353334
-0.073637076 0.0079250671 1.13
-0.090147629 0.011887601 1.13
-0.084200472 0.014727565 1.1321665
-0.074505948 0.01490495 1.1331999
-0.067020625 0.015399527 1.1358463
-0.081807025 0.02095058 1.138
-0.074823499 0.02095058 1.138
-0.06883762 0.02095058 1.138
-0.020803301 0.028728366 1.13
-0.015949117 0.027125822 1.1307273
0.0060993461 0.026233124 1.1322857
-0.024138551 0.035016023 1.1335293
-0.015101999 0.032581922 1.1367692
-0.004872689 0.035111383 1.1344001
0.0038269728 0.034642085 1.1356844
-0.052299175 0.045783289 1.1317142
-0.044908714 0.048210818 1.13
-0.03373085 0.046014037 1.13175
-0.028232759 0.043182265 1.1366667
-0.0039905864 0.04190116 1.138
0.0029929399 0.040903512 1.138
-0.050611719 0.051602356 1.132
-0.044532247 0.053905237 1.1336191
-0.035521615 0.054307323 1.1360955
-0.095065251 -0.26395723 1.1467779
-0.084983341 -0.2656284 1.1426667
-0.075915702 -0.26434869 1.1415714
-0.069019087 -0.26107222 1.141
-0.10317528 -0.25340539 1.149
-0.098179772 -0.2566984 1.1444286
-0.11248072 -0.24275689 1.149
-0.10605606 -0.24662006 1.1466669
-0.11279356 -0.23664476 1.1472857
-0.10922126 -0.23848489 1.1430001
-0.12519194 -0.21216647 1.1470001
-0.13195498 -0.2004507 1.149
-0.12624991 -0.20515789 1.1450001
-0.14341433 -0.19247676 1.1480001
-0.13489611 -0.19474261 1.1472502
-0.12531708 -0.19549072 1.1435603
-0.11903292 -0.19305339 1.141
-0.15008621 -0.18030491 1.149
-0.14437178 -0.18499385 1.1450001
-0.13569272 -0.18656713 1.142778
-0.12528466 -0.18830207 1.1409999
-0.15233968 -0.17345595 1.1470001
-0.14644024 -0.17761451 1.1432223
-0.15383331 -0.16712816 1.1450001
-0.15672959 -0.15371473 1.146
-0.1547052 -0.14585085 1.1474001
-0.15347736 -0.13472371 1.1458889
-0.1548544 -0.12971422 1.1470001
0.029008023 -0.06201715 1.141
0.034009404 -0.06201715 1.1409999
0.035012357 -0.056026056 1.1445792
0.03726973 -0.049357209 1.149
-0.085329346 0.025700402 1.1463335
-0.075283751 0.026103619 1.1450002
-0.065361887 0.025777796 1.1453812
0.013199295 0.026002275 1.1443846
-0.086196505 0.031189755 1.1476668
-0.06345927 0.031225989 1.149
-0.058584303 0.035229199 1.1482002
-0.014837584 0.037786167 1.1424545
-0.0090182703 0.038078893 1.1430001
0.00900249 0.039010789 1.141
0.013493499 0.035415739 1.1426471
-0.023027902 0.045774527 1.1421429
-0.016086053 0.044356897 1.1470002
-0.005208117 0.044667039 1.146091
0.0044833319 0.044094171 1.1447334
0.015688475 0.043453209 1.1474001
-0.044012174 0.059016325 1.141
-0.031008577 0.059016325 1.141
-0.024913032 0.05531719 1.1453639
-0.019138509 0.05137179 1.149
-0.042783573 0.063563496 1.1467779
-0.034965113 0.065084167 1.1450002
-0.02801764 0.063366599 1.1472858
-0.1035111 -0.26358283 1.1556665
-0.097036481 -0.26786113 1.153
-0.11198495 -0.25234324 1.156
-0.10648257 -0.25625345 1.1543334
-0.11509609 -0.24571037 1.1549999
-0.11676186 -0.23539992 1.1552857
-0.1207021 -0.22416103 1.1570001
-0.13084513 -0.21198939 1.1570001
-0.12780222 -0.21503231 1.1570001
-0.14403108 -0.20184636 1.1570001
-0.13437606 -0.20495301 1.1551538
-0.15163615 -0.19479646 1.1564286
-0.14580895 -0.19715996 1.1549999
-0.13847914 -0.19912694 1.153
-0.1529583 -0.18537067 1.1554615
-0.15633948 -0.17517114 1.155
-0.15924563 -0.16938865 1.1570001
-0.16219561 -0.15307039 1.1563333
-0.15869507 -0.15161949 1.153
-0.16161233 -0.14572157 1.1570001
-0.15775669 -0.1439832 1.155
-0.16127422 -0.13895956 1.1570001
-0.15795779 -0.13770856 1.155
0.032044798 -0.052284107 1.1543332
0.034783501 -0.04896738 1.1556667
-0.091982499 0.028302306 1.153
-0.089960903 0.025269916 1.153
0.017601186 0.02407309 1.1537999
-0.074822776 0.033043239 1.1548181
-0.065596215 0.035546113 1.1548946
-0.05974045 0.038478654 1.155
-0.012574782 0.047845334 1.1541427
-0.0063253692 0.048560321 1.1539999
0.0063253692 0.048560321 1.1539999
0.013664165 0.0474094 1.1546665
-0.02122673 0.059637003 1.153
-0.01737568 0.055506881 1.1546665
-0.0034479301 0.052099425 1.1562001
0.0030383514 0.053667255 1.155
0.016228853 0.05172947 1.1570001
-0.042790394 0.069071107 1.153
-0.03942107 0.069744967 1.153
-0.02459651 0.065834537 1.1552856
-0.019271763 0.062886804 1.1570001
-0.041586436 0.073029846 1.1570001
-0.03603486 0.073082618 1.1545999
-0.11263501 -0.2723707 1.168
-0.10572964 -0.27197418 1.1644286
-0.11407719 -0.26471728 1.1652666
-0.10687005 -0.26717511 1.1610001
-0.12174533 -0.25167698 1.1670001
-0.11566348 -0.25613365 1.1634002
-0.12358841 -0.24391662 1.1668181
-0.11908377 -0.24732785 1.161
-0.1227006 -0.23483007 1.1663333
-0.11928891 -0.23449606 1.1630001
-0.13015257 -0.22033702 1.169
-0.12440397 -0.22551462 1.1663333
-0.11908377 -0.22798944 1.161
-0.15417752 -0.21220486 1.1681112
-0.14473425 -0.21295451 1.1672221
-0.13564943 -0.21401611 1.165
-0.12737237 -0.21840192 1.1623334
-0.16183032 -0.20382471 1.1683334
-0.15472476 -0.20505205 1.1636667
-0.14564711 -0.20635208 1.1618001
-0.13781147 -0.20783679 1.161
-0.16307005 -0.19506755 1.1664119
-0.15627912 -0.19496761 1.1613334
-0.16435485 -0.18531375 1.1662501
-0.15866525 -0.18377127 1.1610001
-0.16365054 -0.17568524 1.1638
-0.15979616 -0.17709894 1.161
-0.16658157 -0.15233223 1.161
-0.16561094 -0.1462592 1.1618001
0.029719876 -0.050216343 1.169
0.031660818 -0.050044518 1.1650001
0.034661565 -0.044699878 1.1660908
0.038260072 -0.037235245 1.169
0.01526715 0.01933839 1.161
0.016284959 0.02137401 1.161
-0.073282316 0.03867678 1.1610001
-0.068193272 0.039694589 1.161
-0.073661037 0.045018587 1.1670002
-0.064260915 0.044798087 1.1654212
-0.057654422 0.04439133 1.164
-0.074812099 0.050216343 1.169
-0.012581043 0.055429593 1.1636667
-0.0056449729 0.055975225 1.1636665
0.0071309819 0.056018822 1.1618001
0.012834108 0.054855857 1.1658889
-0.02137401 0.068193272 1.161
-0.014883447 0.064449713 1.1650002
-0.0045801215 0.063383788 1.1671054
0.0046442603 0.063841417 1.1642731
-0.04173021 0.077353559 1.161
-0.035023533 0.077176996 1.1614001
-0.025253832 0.074882247 1.1644787
-0.018296715 0.073536657 1.1667778
-0.0010248233 0.070712812 1.169
0.0020496466 0.070712812 1.169
-0.041873984 0.080684014 1.1650001
-0.035023488 0.081556514 1.1665001
-0.029719876 0.080961041 1.169
-0.1212408 -0.27343673 1.177
-0.11736404 -0.27384672 1.1743335
-0.13104326 -0.26449415 1.177
-0.12287184 -0.26429468 1.1758001
-0.11825795 -0.26736581 1.1730001
-0.13104326 -0.258991 1.177
-0.12587984 -0.25484613 1.1753334
-0.13104326 -0.24557713 1.177
-0.12674166 -0.24602793 1.1730002
-0.12693493 -0.23533116 1.1744287
-0.13415368 -0.22328162 1.1761112
-0.1278557 -0.22726093 1.1730001
-0.16309895 -0.21348749 1.1764287
-0.1563143 -0.21748002 1.1748463
-0.14524174 -0.21837941 1.1750002
-0.13676789 -0.21903427 1.1730001
-0.17025305 -0.20223999 1.177
-0.16593756 -0.20567179 1.1742002
-0.17025305 -0.19708081 1.177
-0.16864613 -0.19384021 1.1730001
-0.17025305 -0.18607454 1.177
-0.16967446 -0.18407106 1.1730001
-0.16556112 -0.17378777 1.1730001
0.029381922 -0.046907362 1.1760001
0.03244675 -0.041717499 1.1750001
0.036395695 -0.035365026 1.1750002
0.04010487 -0.031878229 1.1730001
0.040241629 -0.029923264 1.177
-0.066841446 0.04833151 1.1730001
-0.05758648 0.04833151 1.1730001
-0.073525593 0.054115862 1.1730002
-0.064927578 0.054624081 1.1755601
-0.056545731 0.055173457 1.1763334
0.01439662 0.058614809 1.1730001
-0.071196727 0.060878363 1.177
-0.065521628 0.060878363 1.177
-0.050559998 0.061910197 1.177
-0.048496325 0.061910197 1.177
-0.01233996 0.068898112 1.1730001
-0.0065162629 0.067605317 1.1743335
0.0082546938 0.06810122 1.177
0.011350203 0.061910197 1.177
-0.015438979 0.075141229 1.174143
-0.0010283299 0.073011428 1.1730001
0.0030931721 0.073521353 1.1756668
-0.041039746 0.085172907 1.1762002
-0.035247196 0.087208457 1.1745386
-0.025582889 0.08568453 1.1751667
-0.01880691 0.08476381 1.1755
-0.12527654 -0.27170366 1.1810001
-0.1330175 -0.26431295 1.1823335
-0.12690261 -0.26571518 1.1816667
-0.13304697 -0.25529584 1.1838001
-0.12872769 -0.25918096 1.1810001
-0.13366653 -0.24378695 1.1850001
-0.14071815 -0.23036082 1.189
-0.13367884 -0.23456468 1.1853638
-0.16408262 -0.22321232 1.1833334
-0.15492509 -0.22433157 1.1831819
-0.14491899 -0.22526139 1.1850002
-0.1355169 -0.22781557 1.1830002
-0.17252809 -0.21482688 1.1863334
-0.16742578 -0.21570578 1.1818
-0.17152189 -0.20741379 1.1810001
-0.17083165 -0.18118508 1.1810001
-0.17169955 -0.17689732 1.187
-0.16845179 -0.17536812 1.1836667
0.026964512 -0.0456305 1.1830001
0.03012665 -0.041554 1.1850001
0.033932261 -0.033762041 1.1850001
0.036822982 -0.027252937 1.1866
0.041070521 -0.024947302 1.1860001
0.046158548 -0.017005289 1.1876668
-0.055908538 0.055908538 1.1810001
-0.062607147 0.064340904 1.1836668
-0.05506264 0.065236568 1.1829046
-0.047832865 0.067711458 1.1810001
-0.0072474033 0.069368005 1.1810001
0.00931809 0.069368005 1.1810001
0.013326737 0.065577999 1.1874001
-0.051987208 0.072781742 1.186
-0.047625795 0.072474033 1.1810001
-0.012693476 0.076423198 1.182
-0.0054853866 0.07564193 1.1834761
0.0060942578 0.076600179 1.18275
0.012498637 0.074988313 1.1880001
-0.042449076 0.088004179 1.1810001
-0.014260259 0.084738046 1.1853637
-0.0040528299 0.082747109 1.1881112
0.0041589066 0.084188931 1.1855716
0.012855732 0.08095637 1.189
-0.041034576 0.092461154 1.1850001
-0.034263462 0.095513895 1.1841998
-0.024890322 0.095416397 1.183
-0.018254081 0.093055286 1.1850002
-0.031020146 0.10264031 1.1874001
-0.026556425 0.10154474 1.1880001
-0.1370081 -0.25414479 1.1930001
-0.13746747 -0.24030572 1.197
-0.16172001 -0.23185423 1.194
-0.1540484 -0.23202053 1.1954
-0.14512524 -0.23287861 1.1947778
-0.1382854 -0.23571551 1.1950001
-0.16420054 -0.22904406 1.1930001
-0.15491489 -0.22923607 1.194
-0.14432913 -0.22904406 1.1930001
-0.17465918 -0.18302608 1.1930001
-0.17596717 -0.17764334 1.1962001
0.027214363 -0.041868724 1.194
0.028285649 -0.037712447 1.1950001
0.030905567 -0.033520229 1.1950001
0.035987459 -0.024807036 1.1956667
0.040788669 -0.021963131 1.1930001
0.038826689 -0.019938029 1.197
0.044433679 -0.015718106 1.1954
0.047221649 -0.0094443299 1.197
0.016733814 0.066935256 1.1930001
-0.061705936 0.070072845 1.1930001
-0.056722961 0.072634116 1.1938
0.017477293 0.07481885 1.1942308
-0.011504496 0.086806655 1.1930001
-0.0062017418 0.086897291 1.1942309
0.0079231886 0.087148048 1.1935713
0.014954737 0.083537482 1.195182
-0.042922474 0.097958103 1.1941429
-0.015502974 0.095333114 1.1950002
-0.0028477889 0.093050525 1.1964285
0.0024461923 0.092592657 1.1956667
-0.041974798 0.10388763 1.197
-0.035375778 0.10633089 1.1938002
-0.025468921 0.10606936 1.1939999
-0.019938029 0.10178889 1.197
-0.040925428 0.1122826 1.197
-0.034584325 0.11318187 1.1954
-0.026758933 0.11228259 1.197
-0.13850106 -0.25162786 1.2060001
-0.14014919 -0.24130951 1.202
-0.13850106 -0.24634159 1.2060001
-0.16149253 -0.23854625 1.204
-0.15553957 -0.23642081 1.2033334
-0.14465526 -0.23841231 1.2044001
-0.17808431 -0.18440683 1.202
0.027442589 -0.034830552 1.2040001
0.030558847 -0.030558847 1.202
0.033746406 -0.023730488 1.2029999
0.036993291 -0.014796673 1.2056669
0.042501386 -0.012996291 1.202
0.045071941 -0.0085920841 1.2037144
0.013698793 0.088866532 1.202
-0.012127806 0.096499965 1.2030001
-0.0065681217 0.095592417 1.2023076
0.0052738315 0.095296979 1.2033334
-0.044307902 0.10654831 1.2033335
-0.020905696 0.1070659 1.2044001
-0.0158589 0.1004397 1.2060001
-0.0034343416 0.10167798 1.2050002
0.0021139355 0.10249869 1.2053334
-0.044224061 0.11530203 1.2032309
-0.034809276 0.11813924 1.2032001
-0.026079081 0.11559375 1.2060002
-0.042290401 0.1215849 1.2060001
-0.035946839 0.1215849 1.2060001
-0.14264943 -0.25221291 1.2173334
-0.15416491 -0.24171264 1.2128334
-0.14462505 -0.24466676 1.2140001
-0.13896044 -0.24715863 1.21
0.02449582 -0.031952456 1.2150002
0.02782754 -0.024987532 1.2157778
0.031610847 -0.021851793 1.21
0.028853729 -0.01602985 1.2190001
0.031932801 -0.014900703 1.21425
0.03582482 -0.0070555774 1.2154374
0.043416303 -0.0036137074 1.2139
0.043814924 0.0010686567 1.2190001
0.0087568481 0.097595446 1.2180001
0.0127292 0.092286699 1.21
-0.050020847 0.10642733 1.2140001
-0.047839701 0.10737121 1.2126669
-0.015140303 0.10469585 1.2138462
-0.0062731346 0.10499866 1.2152222
0.004963906 0.10564017 1.2130834
-0.050123855 0.11091017 1.2165
-0.048088089 0.11562357 1.21
-0.022311779 0.11603798 1.2121001
-0.017614204 0.11316254 1.2177501
-0.0010686567 0.11007164 1.2190001
0.0032026826 0.11209389 1.2177501
-0.0440077 0.12543145 1.2125
-0.034782629 0.12612471 1.2115002
-0.026109546 0.12399054 1.21575
-0.042746268 0.13144477 1.2190001
-0.035674393 0.13215508 1.2167778
-0.15166947 -0.25063109 1.2270001
-0.14712834 -0.25236866 1.2250001
-0.15249616 -0.24700259 1.2250001
-0.14760116 -0.24838452 1.223
0.024353424 -0.025578752 1.2230002
0.026804084 -0.018226776 1.223
0.028995749 -0.0085895797 1.2250001
0.035427678 -0.0027904301 1.2246001
0.039799791 0.00215134 1.2270001
0.042454775 0.0032261335 1.2260002
0.013426589 0.098262496 1.2250001
-0.012865961 0.1082885 1.223
-0.0075051426 0.1082885 1.223
0.0096494695 0.10507201 1.223
0.012247208 0.10463419 1.2254002
-0.015390468 0.11419079 1.2250001
-0.0053755445 0.1110784 1.2254002
0.0057431464 0.11541878 1.2237058
0.011813084 0.11276476 1.2250001
-0.022972349 0.12560582 1.2246001
-0.01828639 0.12155071 1.2270001
0.0053783501 0.12370205 1.2270001
-0.044056881 0.13287841 1.2256669
-0.035046507 0.13609216 1.2262002
-0.028294414 0.13288076 1.2256669
-0.15444763 -0.25165242 1.2320001
0.022681121 -0.024841227 1.2320001
0.026433254 -0.014682914 1.2342857
0.028533747 -0.0061401729 1.2360001
0.032967053 -0.0016209566 1.233
0.036633141 0.0047931122 1.234286
0.041490879 0.0090214843 1.2346667
-0.052922614 0.091804534 1.2320001
0.015613683 0.10372119 1.234286
0.02058764 0.10510532 1.2360001
-0.054177999 0.1137738 1.2360001
-0.013441054 0.11634569 1.2337143
-0.0052176011 0.1154111 1.2345456
-0.021263257 0.12794541 1.2333335
-0.01666438 0.12358265 1.2344
-0.0010835599 0.12027516 1.2360001
0.0029740916 0.1244573 1.2345001
-0.045609813 0.13747256 1.2328002
-0.03529869 0.13904226 1.2326669
-0.025072347 0.13500953 1.2338183
-0.0433424 0.14194636 1.2360001
-0.036167763 0.14272133 1.2352002
0.02728625 -0.0076401499 1.245
0.033107314 0.0061848834 1.245
0.038200751 0.01200595 1.245
0.041573413 0.014795003 1.2432858
-0.057846848 0.088407449 1.245
-0.05671069 0.092698738 1.244
-0.052389599 0.1069621 1.245
-0.049115248 0.10587065 1.245
0.01855465 0.10805355 1.245
0.020737549 0.10805355 1.245
-0.053814538 0.11525168 1.2426001
-0.0065276604 0.11858582 1.2410001
-0.053581223 0.12483037 1.2439334
-0.049115248 0.12879109 1.245
-0.013744554 0.12718382 1.2442
-0.0049088951 0.12330142 1.2446666
0.00109145 0.12988254 1.245
-0.051298149 0.1353398 1.245
-0.049115252 0.13424835 1.245
-0.020670922 0.1381688 1.2410001
-0.018094225 0.13451381 1.2434001
-0.051298153 0.14297995 1.245
-0.044712041 0.1467848 1.2439332
-0.034612771 0.14771482 1.2435001
-0.026836345 0.1424529 1.2442
-0.042566549 0.15171155 1.245
-0.0371093 0.15171155 1.245
0.018763296 -0.020970743 1.2590001
0.020904116 -0.020904116 1.2550001
0.017659573 -0.018763296 1.2590001
0.022360845 -0.015028013 1.2544446
0.024609786 -0.0054972484 1.2547503
0.02936556 0.0047768103 1.2561668
0.031842723 0.0087863915 1.2525001
0.034958426 0.015615187 1.2541335
0.040545832 0.018629167 1.25
0.036803696 0.023802903 1.2570001
0.041276392 0.023743056 1.25
-0.072731778 0.068322137 1.2570001
-0.069313653 0.068213433 1.2550001
-0.072508976 0.074396811 1.2558572
-0.069161765 0.074656717 1.25225
-0.072477832 0.08130762 1.2590001
-0.065744273 0.085719183 1.2568002
-0.064078137 0.095216788 1.2574377
-0.054760356 0.096810296 1.2528572
-0.048776269 0.097185813 1.2550001
-0.06357795 0.10370835 1.2585001
-0.055424254 0.10379346 1.2540591
-0.049444001 0.10218135 1.2533334
0.0230125 0.1084875 1.25
-0.06162158 0.1152769 1.2576667
-0.057257287 0.11451457 1.25
0.017309017 0.11402726 1.253625
0.022621896 0.11360022 1.2553334
-0.064401031 0.12515868 1.2556502
-0.058156606 0.12619178 1.2516667
-0.012054167 0.1282125 1.25
-0.0070546619 0.12741975 1.2514286
-0.064200282 0.13537923 1.2527275
-0.056044053 0.1351006 1.25
-0.013826787 0.13324456 1.2520001
-0.0055006449 0.13197385 1.2545002
0.0011002166 0.13312621 1.2550001
-0.071742013 0.14017287 1.2590001
-0.064940833 0.14527543 1.2554003
-0.055550318 0.14490291 1.25
-0.026212584 0.14646094 1.2534286
-0.063315146 0.15155551 1.2582
-0.054795343 0.15381368 1.2550002
-0.045608819 0.15609707 1.2519444
-0.035061948 0.15555263 1.2529231
-0.029001595 0.15162329 1.2563335
-0.053530578 0.16059175 1.2590001
-0.044225041 0.16375904 1.2582726
-0.038589407 0.16428295 1.2576667
0.017920068 -0.0061817528 1.2662858
0.021814972 -0.0018480135 1.2653333
0.025513869 0.0045382637 1.2654544
0.027958017 0.015039455 1.2665454
0.028499849 0.02183952 1.2666668
0.032424979 0.025522299 1.2657778
0.036292825 0.03296091 1.2673331
-0.081147775 0.0666968 1.268
-0.077838883 0.068079129 1.2648001
-0.081518315 0.07484863 1.268
-0.07722576 0.075748287 1.2644445
-0.082100585 0.084959023 1.268
-0.075639263 0.085543022 1.2650666
-0.068702608 0.089756638 1.2640001
-0.082562558 0.094891362 1.2679999
-0.075732693 0.094845198 1.2662221
-0.069256663 0.093635008 1.2640001
-0.084112078 0.1018979 1.268
-0.075471781 0.10432947 1.2659999
-0.068086997 0.10724011 1.2640001
-0.07447809 0.11423462 1.2679999
-0.067393035 0.11534383 1.2640001
0.016621599 0.11856741 1.2640001
0.025506618 0.11755311 1.265
0.032236785 0.1167194 1.268
0.042241305 0.11783101 1.268
-0.081147775 0.12672392 1.268
-0.07489235 0.12511344 1.2674664
-0.069256663 0.12244579 1.2640001
0.0099729598 0.12521605 1.2640001
0.014688647 0.12281009 1.2671111
0.023343882 0.12116585 1.268
0.03371894 0.12116585 1.268
0.041129693 0.12116585 1.268
0.056692276 0.12783553 1.268
0.064473569 0.12783553 1.268
-0.075353324 0.13442953 1.2672939
-0.069810718 0.1340809 1.2640001
-0.012581919 0.13806446 1.2666668
-0.0051875287 0.13746952 1.268
0.0044394401 0.13318495 1.266
0.055979613 0.1334133 1.2673846
0.063542359 0.13164729 1.2666667
-0.081147775 0.14784457 1.268
-0.075181395 0.14536208 1.2657499
-0.021814972 0.14679492 1.2653333
-0.015914423 0.14250743 1.2666668
-0.0077812932 0.1411749 1.268
-0.081147775 0.15451425 1.268
-0.075720422 0.15476345 1.2659999
-0.065969281 0.15609528 1.2640001
-0.058729652 0.15845925 1.2640001
-0.026848441 0.15377715 1.2656
-0.081147775 0.16229555 1.268
-0.075502478 0.16432634 1.2664999
-0.065562986 0.16492321 1.2640001
-0.055820871 0.16607746 1.2640001
-0.046663605 0.16830908 1.2640001
-0.035488341 0.1644083 1.265
-0.074136063 0.17281315 1.2679999
-0.064586535 0.17393042 1.2671427
-0.054873277 0.17371486 1.2679999
-0.044558439 0.17366144 1.2671111
-0.038906466 0.17341168 1.268
0.017855946 -0.0011159966 1.273
0.0182747 0.0037316775 1.2763333
0.02211339 0.006032519 1.2739999
0.019016653 0.014536887 1.276
0.022898754 0.014706011 1.2742499
0.025183126 0.024192102 1.2735554
0.03013191 0.027899917 1.273
0.02637765 0.032135844 1.2765714
0.032401163 0.03597936 1.2744999
0.0354787 0.042200979 1.2780001
-0.090750776 0.05938014 1.2780001
-0.092351317 0.066102423 1.278
-0.085831583 0.064975537 1.2742499
-0.09139099 0.076025791 1.278
-0.086190104 0.074695639 1.2744285
-0.093439683 0.085821107 1.278
-0.086867146 0.084628329 1.2757777
-0.093950376 0.095063761 1.27575
-0.087171733 0.094363719 1.2729999
-0.093308963 0.1050265 1.2776153
-0.084928229 0.10553733 1.2733846
0.056579188 0.10811666 1.2780001
0.062517203 0.10688426 1.2780001
-0.092244618 0.1139053 1.2780001
-0.085052446 0.11526281 1.2765
-0.079235762 0.11606365 1.273
0.027899917 0.11941164 1.273
0.035552464 0.11877393 1.2729999
0.045903146 0.11844416 1.2770001
0.055181406 0.11547361 1.2756088
0.064551599 0.1151826 1.2730001
0.072234705 0.11723752 1.2763333
-0.091871157 0.12548254 1.278
-0.08544118 0.12488193 1.2751428
-0.079235762 0.12275963 1.273
0.015902951 0.12722363 1.2729999
0.024847567 0.12595743 1.2749231
0.034789067 0.12581758 1.275353
0.044991355 0.12557572 1.2766666
0.05436112 0.12457252 1.2747648
0.064727806 0.12387562 1.2729999
0.071471266 0.12395526 1.2738333
-0.09187115 0.13444561 1.278
-0.084918752 0.13519341 1.2745001
-0.079235762 0.13726759 1.273
-0.0022319932 0.13949959 1.273
0.0047506569 0.13712229 1.2742499
0.014284845 0.13192473 1.278
0.022407599 0.13108446 1.2780001
0.038092919 0.13108446 1.2780001
0.046084259 0.13356297 1.2759999
0.050963849 0.1331756 1.2729999
-0.092991546 0.14452903 1.278
-0.085176297 0.14508313 1.275
-0.079235762 0.14173158 1.273
-0.013912381 0.14594714 1.2743635
-0.0044700135 0.1436187 1.2748749
0.0033596791 0.14135577 1.2763335
-0.090750776 0.15237167 1.2780001
-0.085702568 0.15463267 1.2750832
-0.03013191 0.15958752 1.273
-0.023474503 0.15402804 1.275
-0.01792608 0.15237167 1.2780001
-0.084725365 0.16486736 1.2761817
-0.03242746 0.16549188 1.2755001
-0.0280095 0.16021433 1.2780001
-0.08342389 0.17368142 1.2763333
-0.075816013 0.1776426 1.2744285
-0.064727806 0.17967546 1.273
-0.053846836 0.17855948 1.2729999
-0.045011863 0.17855948 1.2729999
-0.036827888 0.17074749 1.273
-0.073945083 0.18150157 1.2780001
-0.064982042 0.18374233 1.278
-0.055272084 0.18224849 1.278
-0.045935579 0.18262194 1.2780001
0.01687145 0.0067485799 1.2830001
0.024031112 0.036803272 1.2850834
0.030368609 0.039366715 1.2830001
0.02648673 0.04226191 1.2855
0.032149997 0.044843033 1.2867501
-0.10218777 0.057021905 1.2880001
-0.095730051 0.057436474 1.2846667
-0.11178552 0.0677488 1.2880001
-0.10456345 0.065533601 1.2853686
-0.095854841 0.064361461 1.2830001
-0.11178552 0.076781973 1.2880001
-0.10446738 0.074864991 1.2850457
-0.095950969 0.074840024 1.2830001
-0.11178552 0.08129856 1.2880001
-0.10467877 0.085066698 1.2852503
-0.095604889 0.084357254 1.2830001
-0.1047713 0.094627395 1.2850002
-0.10361443 0.10467722 1.2853688
-0.097854413 0.10685251 1.2830001
0.058862612 0.10610268 1.2830001
0.067684144 0.10829178 1.2867501
0.072265387 0.10839808 1.2880001
0.084685996 0.10952722 1.2880001
-0.10462781 0.11518675 1.286158
-0.094801486 0.1152079 1.2830001
0.068610564 0.11135157 1.2830001
0.07530693 0.11339439 1.2863334
0.08129856 0.11291467 1.2880001
-0.1121619 0.12533528 1.2880001
-0.10485284 0.12514065 1.2860004
-0.096218392 0.12443972 1.2830001
-0.11178552 0.1354976 1.2880001
-0.10479169 0.13520762 1.2852503
-0.096729651 0.13497159 1.2830001
0.014825821 0.13679354 1.2842501
0.025121259 0.1357592 1.2858572
0.034559712 0.13561413 1.2855002
0.042796534 0.13627607 1.2846668
-0.11223718 0.14520827 1.2880001
-0.10445594 0.1448984 1.2847395
-0.097854413 0.14509447 1.2830001
-0.011247633 0.14959352 1.2830001
-0.0047240057 0.14824381 1.2830001
0.0043477658 0.14469282 1.2851429
0.0169372 0.14114334 1.2880001
0.042907573 0.14114334 1.2880001
-0.11388252 0.1543705 1.2880001
-0.10515621 0.15506293 1.2859548
-0.094962157 0.15553871 1.2830001
-0.088856302 0.1563421 1.2830001
-0.022495268 0.15746686 1.2830001
-0.014646761 0.15551907 1.2855
-0.0045165867 0.15243481 1.2880001
0.0018819111 0.15092927 1.2880001
-0.11291467 0.16146797 1.2880001
-0.10501063 0.16485544 1.2880001
-0.094382793 0.16523814 1.2840528
-0.088406399 0.16668993 1.2830001
-0.031197349 0.16802223 1.2863334
-0.024429776 0.16238672 1.2863334
-0.018442729 0.16222073 1.2880001
-0.10331691 0.17417088 1.2880001
-0.094834603 0.17541254 1.2850591
-0.087570861 0.17658785 1.2830001
-0.036060371 0.17354888 1.2855
-0.10124681 0.18254538 1.2880001
-0.09478841 0.1839333 1.2871667
-0.08517804 0.18456787 1.2863336
-0.07564304 0.18564248 1.2846668
-0.065303117 0.18801847 1.2842501
-0.056065463 0.18679444 1.2855
-0.046200771 0.18369366 1.2855
-0.06661965 0.19082579 1.2880001
-0.10554278 0.048229814 1.2945001
0.026078582 0.046490133 1.2934285
0.03058164 0.048704091 1.2920001
-0.11126716 0.055065058 1.2970001
-0.10560493 0.054160547 1.2924999
0.027667889 0.054198746 1.2970001
0.030699991 0.05116665 1.2970001
-0.11393367 0.065064117 1.296375
-0.10873472 0.06116328 1.2920001
-0.12166292 0.07845553 1.2970001
-0.11579474 0.074924238 1.2949166
-0.115575 0.085143909 1.2950001
-0.10835717 0.084193893 1.2920001
-0.11474428 0.095050246 1.2958889
-0.12166292 0.10347033 1.2970001
-0.11572139 0.10435396 1.2966669
-0.10911227 0.10571431 1.2919999
0.066871114 0.1042706 1.2928333
0.075481288 0.10673018 1.2936666
0.083493039 0.10731206 1.2939999
-0.12267363 0.11534606 1.2970001
-0.11563695 0.11491467 1.295158
-0.10986737 0.11213268 1.2920001
0.080418386 0.11213268 1.2920001
-0.12279996 0.12507403 1.2970001
-0.11703659 0.12466423 1.2938181
-0.1225157 0.13587588 1.2970001
-0.11687692 0.13503033 1.2943333
-0.12279996 0.14554068 1.2970001
-0.11691108 0.14472054 1.2924545
0.0067959195 0.14724493 1.2920001
0.013807644 0.14450504 1.2945
0.025574192 0.14492653 1.2965833
0.034815256 0.14396752 1.2930714
-0.12262151 0.1552 1.2964444
-0.11855105 0.15592861 1.2919999
-0.011326533 0.15857147 1.2920001
-0.0037762418 0.15678526 1.2928333
0.0046662041 0.15392826 1.2942222
0.018192586 0.15122588 1.2970001
-0.12263753 0.16454545 1.2970001
-0.11588713 0.16589947 1.2923572
-0.02485681 0.16768859 1.2953334
-0.015033957 0.16455252 1.2945
-0.0062537016 0.1608907 1.2970001
-0.12166292 0.1739666 1.2970001
-0.11581282 0.17485325 1.2951251
-0.10873472 0.17556126 1.2919999
-0.034040965 0.17476174 1.2945001
-0.11370367 0.18230487 1.2970001
-0.10562309 0.18471313 1.2936667
-0.095142879 0.18915311 1.2920001
-0.084948994 0.18915312 1.2920001
-0.053234708 0.18915311 1.2920001
-0.047571439 0.1868878 1.2920001
-0.09542013 0.19197398 1.29575
-0.085277751 0.19215919 1.2970001
-0.0749005 0.19254683 1.2945
-0.065758549 0.19217212 1.2932501
-0.05776532 0.19141841 1.2920001
-0.11207613 0.038880605 1.3045001
-0.12030935 0.049269542 1.307
-0.11410623 0.045611374 1.3048124
-0.1084349 0.0456568 1.302
0.02396982 0.049081061 1.302
-0.12239263 0.055311047 1.307
-0.11609454 0.054429602 1.3025556
0.025134251 0.055981081 1.3032501
-0.12408795 0.065117978 1.3060623
-0.11756626 0.064299993 1.302
0.024661509 0.061576944 1.304143
-0.12598144 0.075219989 1.3040001
-0.1198491 0.073050879 1.302
-0.13176738 0.085935257 1.307
-0.12577125 0.084607825 1.3041874
-0.1198491 0.086747915 1.302
-0.14093381 0.099684887 1.307
-0.13455005 0.09542904 1.307
-0.12560572 0.094772927 1.3025
-0.11813696 0.095593929 1.302
0.069626622 0.099303536 1.302
0.073667325 0.098093592 1.3061668
-0.14207962 0.10541391 1.307
-0.13504562 0.10528706 1.3054374
-0.12578449 0.10508672 1.302
-0.1198491 0.1084349 1.302
0.069626622 0.10158638 1.302
0.075908057 0.1026762 1.3034286
0.084666163 0.10297272 1.305125
0.09051846 0.1019765 1.307
-0.14191593 0.11441665 1.307
-0.1346952 0.11499504 1.3045
-0.12752774 0.11486836 1.302
-0.1198491 0.11071774 1.302
-0.1418924 0.12534775 1.3064445
-0.13511556 0.12508036 1.3036666
-0.12783903 0.1255562 1.302
-0.14207962 0.13520479 1.307
-0.13485003 0.13484837 1.3035625
-0.1271542 0.13445929 1.302
-0.14160782 0.14427845 1.3061668
-0.13476428 0.14486471 1.3033158
-0.12783904 0.14496034 1.302
0.015599407 0.14762364 1.302
0.021728622 0.14638448 1.3045001
-0.14093381 0.15010023 1.307
-0.13515358 0.15535198 1.3058234
-0.12783903 0.15523311 1.302
0.0062909601 0.15839131 1.3045001
0.013596516 0.15333913 1.3042223
-0.13389096 0.16478528 1.3053334
-0.12745856 0.16474496 1.302
-0.011436116 0.16696949 1.3045001
-0.0047027324 0.16509901 1.3047779
0.0019096723 0.16232215 1.307
-0.13322566 0.17489123 1.307
-0.12650514 0.17505001 1.3029375
-0.032720879 0.17778783 1.3050001
-0.025037505 0.17424984 1.3047779
-0.017154174 0.17154394 1.3045
-0.12122985 0.036946237 1.317
-0.11754478 0.036876105 1.3145001
-0.13046642 0.049646508 1.317
-0.1239289 0.046038687 1.3154616
-0.11770242 0.041023325 1.312
-0.13251898 0.055804212 1.317
-0.12730795 0.054558296 1.313
-0.14278181 0.067349918 1.317
-0.13542753 0.064634375 1.3165835
-0.12939599 0.064410456 1.312
-0.14316668 0.075047053 1.3170002
-0.13572788 0.075208843 1.3148125
-0.12997109 0.070161387 1.312
-0.14316668 0.085438177 1.317
-0.13670762 0.085248597 1.3140835
-0.14381565 0.094791979 1.3142729
-0.13733229 0.093625195 1.312
0.077179983 0.094455577 1.3140001
0.085224122 0.095586039 1.3136668
0.092134684 0.09629114 1.317
-0.15124866 0.10737501 1.317
-0.14704567 0.10486643 1.3145001
-0.13687222 0.10006624 1.312
0.079362877 0.10006624 1.312
0.085113816 0.10006624 1.312
0.090864748 0.10006624 1.312
-0.15124866 0.11892071 1.317
-0.14727737 0.11548592 1.3158889
-0.15124866 0.12815727 1.317
-0.14698999 0.12463955 1.3140001
-0.14772768 0.13542396 1.3153334
-0.14614396 0.14482321 1.3155714
-0.14204261 0.15539004 1.3130001
0.01380224 0.15757558 1.312
0.022678783 0.15259668 1.3153334
-0.13917258 0.16562687 1.312
-0.0019169777 0.16831064 1.312
0.003917648 0.16518924 1.314
0.0115457 0.16048522 1.317
-0.025687501 0.17827894 1.312
-0.014972152 0.17549226 1.3135002
-0.0063369852 0.17228165 1.3145001
-0.12457082 0.029105334 1.3280001
-0.14086981 0.038419038 1.3280001
-0.13310839 0.036866754 1.3280001
-0.12591088 0.034501344 1.3245716
-0.11937219 0.033609647 1.322
-0.14188078 0.046204191 1.3244001
-0.13494551 0.045057625 1.3251579
-0.12709855 0.04210864 1.322
-0.15018351 0.058210667 1.3280001
-0.14431183 0.055110767 1.3235003
-0.13675649 0.05562976 1.322
-0.15284458 0.06536226 1.3280001
-0.14641444 0.064515077 1.3220001
-0.13745186 0.064206019 1.322
-0.15297763 0.073811129 1.3280001
-0.14834604 0.075331971 1.3220001
-0.13791545 0.074173011 1.322
-0.15223631 0.08483398 1.3256
-0.14834602 0.085762553 1.322
-0.13791545 0.082285687 1.322
-0.15321453 0.09577734 1.3254286
-0.14904138 0.094338797 1.322
-0.15334727 0.10394137 1.3237144
-0.14950497 0.10082894 1.322
-0.15326607 0.11433467 1.3233335
-0.15365008 0.12436678 1.3227501
-0.15324417 0.13466936 1.3242501
-0.152702 0.14340723 1.3256
-0.14950497 0.14602812 1.322
-0.15018351 0.15018351 1.3280001
-0.14544864 0.15529974 1.322
0.0046437033 0.16727063 1.325
-0.14193058 0.017594701 1.3380001
-0.14360628 0.027313678 1.3380002
-0.13402815 0.027742265 1.3371668
-0.12854564 0.028046319 1.3330001
-0.15131442 0.03870834 1.3380001
-0.1452961 0.035149951 1.3365716
-0.13688141 0.033925686 1.3345001
-0.15313464 0.045024462 1.3375002
-0.14716195 0.044110164 1.3357779
-0.15516105 0.054716669 1.3374443
-0.16116746 0.066390671 1.3380001
-0.1572759 0.064779967 1.3355001
-0.16187124 0.075070716 1.3380002
-0.15675889 0.075291015 1.3330001
-0.16229524 0.085353702 1.3370911
-0.15665111 0.085337803 1.3335001
-0.16321179 0.095346518 1.3380001
-0.15729311 0.095123768 1.3330001
-0.16245617 0.10539258 1.3374447
-0.15776055 0.1051737 1.3330001
-0.16069826 0.11495204 1.3380001
-0.15776055 0.11452247 1.3330001
-0.16069826 0.12433588 1.3380001
-0.15776055 0.12562415 1.3330001
-0.16069826 0.13020077 1.3380001
-0.15776055 0.13322002 1.3330001
-0.15019317 0.016556727 1.3490001
-0.14599305 0.01766045 1.3430001
-0.15385655 0.025715264 1.3476156
-0.14452134 0.023988778 1.3430003
-0.1369666 0.023547268 1.3430001
-0.1620194 0.037843946 1.3490001
-0.15583611 0.035125401 1.3446002
-0.14952514 0.031788811 1.3430001
-0.16354917 0.045309119 1.3460001
-0.15815915 0.043954898 1.3430001
