# .PCD v0.7 - Point Cloud Data file format
VERSION 0.7
FIELDS x y z
SIZE 4 4 4
TYPE F F F
COUNT 1 1 1
WIDTH 1462
HEIGHT 1
VIEWPOINT 0 0 0 1 0 0 0
POINTS 1462
DATA ascii
-0.22801825 -0.17371151 1.0374286
-0.21748523 -0.17016625 1.0380001
-0.26076218 -0.16890621 1.034
-0.25591257 -0.16819595 1.0315
-0.24519978 -0.16850223 1.031
-0.2338559 -0.16694988 1.031353
-0.22462679 -0.16523661 1.0343931
-0.21514858 -0.16442476 1.0375385
-0.20717432 -0.16287503 1.0365
-0.24566463 -0.15853412 1.031
-0.22196633 -0.15514977 1.032154
-0.21473785 -0.15507556 1.0344335
-0.20742518 -0.1533363 1.0370002
-0.22273281 -0.14706823 1.031
-0.21483609 -0.14533682 1.0317743
-0.20688514 -0.14462169 1.035261
-0.21227407 -0.13454352 1.031
-0.20467943 -0.13494867 1.0331002
-0.19824564 -0.13350706 1.0380001
-0.21172529 -0.12721594 1.031
-0.20457952 -0.12492041 1.0325835
-0.19665579 -0.1249118 1.0352634
-0.20279969 -0.11578301 1.0351766
-0.1946156 -0.11435904 1.0360607
-0.19447833 -0.1078812 1.0376002
-0.2325649 -0.070848435 1.0380001
-0.22588056 -0.072464287 1.0375557
-0.21398529 -0.071608424 1.0380001
-0.20494774 -0.070877329 1.0380001
-0.19928561 -0.070978433 1.0380001
-0.27481395 -0.061271992 1.0380001
-0.26453665 -0.062246088 1.0354288
-0.2548497 -0.061875928 1.0365456
-0.24441513 -0.062727317 1.0347859
-0.23479566 -0.064526007 1.0326365
-0.22468732 -0.065905206 1.0324763
-0.21517988 -0.065338723 1.0325001
-0.20433404 -0.065094955 1.0336252
-0.19564669 -0.063287653 1.0361906
-0.28457409 -0.052867603 1.0375001
-0.274367 -0.055238124 1.0328802
-0.26525655 -0.055736989 1.031
-0.25544611 -0.056466084 1.0317144
-0.24662873 -0.057362836 1.0313334
-0.19359687 -0.056316674 1.0319376
-0.18731835 -0.054347858 1.0353751
-0.29028362 -0.041859079 1.0380001
-0.28408208 -0.045042731 1.0355387
-0.27449641 -0.04546994 1.0314287
-0.26783893 -0.049108822 1.031
-0.19071095 -0.049711384 1.031
-0.18424952 -0.046543822 1.0334376
-0.17956544 -0.040811025 1.0345001
-0.29252359 -0.034789238 1.0380001
-0.2850458 -0.0350946 1.033348
-0.277758 -0.035388943 1.031
-0.18167251 -0.038865265 1.031
-0.17668037 -0.034878414 1.0341054
-0.29230583 -0.024973894 1.0380001
-0.28511313 -0.02547276 1.0340347
-0.27559367 -0.024167983 1.031
-0.26753762 -0.021692241 1.031
-0.17475015 -0.024995523 1.0337502
-0.33214271 -0.01046477 1.0380001
-0.31212312 -0.01000978 1.0380001
-0.29028362 -0.019109581 1.0380001
-0.28350174 -0.015123934 1.0370911
-0.27444655 -0.015178978 1.032654
-0.26693505 -0.014762775 1.031
-0.17171392 -0.016649127 1.0320001
-0.16796906 -0.014879192 1.0356925
-0.33352932 -0.005156552 1.0380001
-0.32195091 -0.0023659482 1.0380001
-0.31434137 -0.0043049669 1.0353914
-0.30451533 -0.0037876391 1.0324092
-0.29439101 -0.0041208728 1.0340002
-0.28462523 -0.0044742469 1.0345927
-0.27435109 -0.0051315976 1.0326002
-0.26508442 -0.0051648198 1.031
-0.25940302 -0.0018076866 1.031
-0.17082639 -0.0063269031 1.031
-0.16562465 -0.0049102409 1.0347588
-0.33201271 0.0042899055 1.0380001
-0.3236315 0.0053761238 1.0358462
-0.31495631 0.0054287822 1.0323614
-0.3072063 0.0055234865 1.031
-0.28199911 0.00090384332 1.031
-0.27296066 0.0013557649 1.031
-0.26400441 0.0022185245 1.031
-0.25940302 0.0027115301 1.031
-0.16353688 0.0049467259 1.0337309
-0.1592465 0.0072798398 1.0380001
-0.33100522 0.012967216 1.0380001
-0.32359153 0.013811006 1.0376365
-0.31464908 0.015195587 1.0330001
-0.306532 0.015623577 1.031
-0.16252518 0.015714973 1.0330001
-0.1592465 0.014559682 1.0380001
-0.31374568 0.02440089 1.0344763
-0.30525419 0.025595728 1.0313462
-0.29826829 0.029826829 1.031
-0.17082639 0.028922986 1.031
-0.16488013 0.025255714 1.0338002
-0.1592465 0.02183952 1.0380001
-0.31212315 0.032304291 1.0380001
-0.30394521 0.034417581 1.0349334
-0.29652381 0.036240656 1.0314616
-0.19251864 0.038865265 1.031
-0.18468533 0.038563985 1.031
-0.17441215 0.036227331 1.0318573
-0.16751312 0.034326646 1.0358669
-0.30120337 0.040949099 1.0380001
-0.29378644 0.044516116 1.0339446
-0.2866382 0.048699081 1.0314286
-0.2031896 0.045255125 1.0314287
-0.19498646 0.045005001 1.0326453
-0.18498027 0.045489535 1.032853
-0.17484915 0.04456779 1.0347813
-0.16892841 0.040870197 1.036
-0.33412823 0.054637518 1.0373335
-0.32561448 0.056236252 1.0361819
-0.31494957 0.056408234 1.0339048
-0.30448857 0.055638269 1.0334585
-0.2949937 0.054932196 1.0341002
-0.28467694 0.055408731 1.0323335
-0.27537581 0.056008697 1.0313158
-0.26844147 0.057845972 1.031
-0.20134734 0.054900017 1.03225
-0.19555467 0.054812994 1.0363334
-0.18472594 0.051868863 1.0380001
-0.17471617 0.051140875 1.0380001
-0.33321381 0.062964737 1.0375557
-0.32519546 0.063457064 1.0347897
-0.31742615 0.064571485 1.0319376
-0.29392987 0.061280571 1.031
-0.28390062 0.061924983 1.0322859
-0.27412692 0.062624514 1.0315626
-0.26446456 0.065980569 1.031
-0.25618935 0.068792515 1.031
-0.20106646 0.064427279 1.0322001
-0.19711456 0.065098628 1.0357001
-0.32213292 0.070978433 1.0380001
-0.31407005 0.074692182 1.0343159
-0.30639967 0.077504642 1.0320001
-0.26121071 0.074115157 1.031
-0.25478345 0.0748851 1.031
-0.24711077 0.077911295 1.031
-0.2145724 0.078634366 1.031
-0.20336099 0.076547131 1.0315294
-0.1976607 0.074118249 1.0362355
-0.31030318 0.080988221 1.0380001
-0.30364451 0.083794914 1.0346876
-0.29547051 0.086833186 1.0317501
-0.28832603 0.089480489 1.031
-0.25172037 0.080893978 1.031
-0.244339 0.084132761 1.031
-0.23564528 0.085425384 1.0322728
-0.22481062 0.085623369 1.0330771
-0.21500373 0.084234372 1.033893
-0.20502317 0.083983384 1.0350002
-0.19867897 0.081594877 1.0380001
-0.29339415 0.094242327 1.0361252
-0.28539026 0.095298342 1.0320001
-0.27747989 0.09851893 1.031
-0.24150041 0.091806509 1.03175
-0.23472062 0.09533041 1.0345001
-0.22585705 0.092635967 1.0380001
-0.21410528 0.090348005 1.0380001
-0.20777877 0.090694666 1.0380001
-0.28227904 0.10074829 1.0353334
-0.27416611 0.10363792 1.0353531
-0.26565066 0.1054533 1.0328002
-0.25587094 0.10839614 1.0313334
-0.24162745 0.10635223 1.031
-0.23479155 0.10483359 1.0330999
-0.2641975 0.11041091 1.0380001
-0.25364986 0.1138795 1.0364169
-0.2441984 0.11520992 1.0322694
-0.23499876 0.11399825 1.0350002
-0.22840498 0.11192754 1.0380001
-0.24522647 0.12079415 1.036
-0.29086328 -0.18176666 1.044
-0.28553542 -0.18150471 1.0446
-0.27360311 -0.18124276 1.0452001
-0.26550519 -0.18346496 1.044
-0.25403273 -0.1831753 1.0416
-0.24834959 -0.18352358 1.0415
-0.29139346 -0.17588088 1.0457143
-0.28477284 -0.17489059 1.0444802
-0.27529806 -0.17469238 1.0432801
-0.26761907 -0.17487116 1.0423125
-0.24822992 -0.17978416 1.041
-0.22429541 -0.17406203 1.0418571
-0.21933061 -0.17309169 1.041
-0.28356659 -0.16867317 1.0448571
-0.27500635 -0.16773351 1.0437692
-0.26756975 -0.16769813 1.0442727
-0.21355075 -0.16518241 1.041
-0.20415623 -0.15562685 1.0410001
-0.19849268 -0.15240587 1.041
-0.20249803 -0.1455106 1.041
-0.19578263 -0.14497067 1.0427588
-0.18945467 -0.14094695 1.044
-0.19443662 -0.13569191 1.0420387
-0.18597645 -0.13395731 1.0450437
-0.17898464 -0.13217327 1.0470001
-0.19244902 -0.12513922 1.0419232
-0.18487799 -0.1252013 1.0453128
-0.20578237 -0.11340889 1.04325
-0.19073549 -0.11863931 1.041
-0.18528153 -0.11521097 1.044273
-0.20155193 -0.10463643 1.0457143
-0.19504507 -0.10360111 1.0419475
-0.18607616 -0.10482363 1.0456074
-0.22340956 -0.091603421 1.0470001
-0.21753518 -0.090869129 1.0470001
-0.20162545 -0.091481037 1.0470001
-0.19499627 -0.095111594 1.0449313
-0.18719538 -0.094712317 1.0460001
-0.23386598 -0.082672544 1.0461428
-0.22488551 -0.084718324 1.0456253
-0.21499904 -0.085516818 1.0464647
-0.20476654 -0.085025564 1.0453336
-0.19483323 -0.085070297 1.0434002
-0.18731035 -0.085559458 1.0456667
-0.30197921 -0.070675991 1.0470001
-0.29463628 -0.070675991 1.0470001
-0.28270394 -0.070675991 1.0470001
-0.27352524 -0.070675991 1.0470001
-0.26526442 -0.070675991 1.0470001
-0.25516787 -0.070675991 1.0470001
-0.24321172 -0.072874859 1.0446428
-0.23541142 -0.076139763 1.0430871
-0.2243856 -0.076625176 1.0422858
-0.21565382 -0.076761149 1.0423502
-0.20544885 -0.076517478 1.0420002
-0.19509478 -0.075073808 1.0413532
-0.18765633 -0.075381622 1.0452632
-0.32033664 -0.06149729 1.0470001
-0.3117139 -0.062930636 1.0464001
-0.30464011 -0.064738832 1.0451741
-0.2948876 -0.065025814 1.0446432
-0.28497306 -0.064980254 1.0438803
-0.2754727 -0.065994859 1.0432105
-0.26493147 -0.067102872 1.0428001
-0.25500882 -0.066724673 1.0426
-0.2459815 -0.067539357 1.0423638
-0.19340071 -0.067024499 1.0416
-0.18689345 -0.06504871 1.0450501
-0.32033664 -0.050482851 1.0470001
-0.312718 -0.05397138 1.0456874
-0.30503908 -0.054961991 1.0449003
-0.29494503 -0.05478815 1.0416002
-0.28625533 -0.057798628 1.0410001
-0.18368137 -0.055377595 1.0436471
-0.31353244 -0.044977628 1.0450001
-0.30470511 -0.044837072 1.0437602
-0.29520264 -0.044973239 1.0413915
-0.18104307 -0.046633407 1.0430001
-0.17814042 -0.04350809 1.04475
-0.31257287 -0.035531141 1.0455883
-0.30445641 -0.034741689 1.0429002
-0.29730028 -0.035030182 1.0410001
-0.17307337 -0.035165541 1.0437858
-0.16980594 -0.03120758 1.0470001
-0.31146389 -0.025088446 1.0470001
-0.30446362 -0.024686122 1.0429201
-0.29673865 -0.02393846 1.0410001
-0.17134844 -0.026175076 1.0415
-0.16840826 -0.023711495 1.0446666
-0.35246205 -0.01009657 1.0470001
-0.34373432 -0.012890505 1.0452
-0.33520734 -0.014216586 1.0429093
-0.32522371 -0.013307695 1.0436541
-0.31452182 -0.0136521 1.0438699
-0.30475459 -0.01448884 1.0433228
-0.29504678 -0.014451033 1.0415175
-0.2886129 -0.013004693 1.041
-0.16355456 -0.014382085 1.0422633
-0.1584015 -0.012145716 1.0427142
-0.35271239 -0.0042555793 1.0470001
-0.34495437 -0.0044968617 1.0432502
-0.33784825 -0.0023727859 1.041
-0.32596767 -0.0053097308 1.0410002
-0.31850088 -0.0082134902 1.041
-0.30481175 -0.0082134902 1.041
-0.29751086 -0.0082134902 1.041
-0.16214037 -0.0076050833 1.041
-0.15684007 -0.0045774574 1.0441307
-0.35315049 0.0025241424 1.0470001
-0.34481406 0.0044249753 1.0437502
-0.33750552 0.0048970599 1.0412728
-0.32876778 0.0038785925 1.041
-0.15672961 0.0040275822 1.0443002
-0.34285441 0.012736796 1.046
-0.33586502 0.015099706 1.0422858
-0.32736626 0.015775118 1.0410001
-0.15621535 0.014874171 1.0433685
-0.33351353 0.022902846 1.0449229
-0.32461742 0.024531562 1.0433183
-0.31850088 0.028290911 1.041
-0.16153197 0.028290911 1.041
-0.15713769 0.025020212 1.0441667
-0.32227376 0.033543602 1.0466666
-0.31527951 0.035508633 1.0435716
-0.3075408 0.037453827 1.0419999
-0.16327703 0.035759103 1.043286
-0.1578743 0.031851929 1.0455
-0.35371372 0.046811368 1.0470001
-0.34483004 0.045017049 1.0445002
-0.33507302 0.045239549 1.0434233
-0.32533219 0.047403835 1.0453635
-0.31405044 0.045273434 1.0458573
-0.30475128 0.045124281 1.0430871
-0.29842347 0.047455721 1.041
-0.16756696 0.044411052 1.0445
-0.35341245 0.053575926 1.0459286
-0.34464976 0.054677859 1.0422583
-0.33766571 0.050193548 1.041
-0.32475322 0.051091593 1.0421538
-0.31484616 0.051434431 1.0426364
-0.30526805 0.050878003 1.041
-0.19175403 0.057045452 1.0422857
-0.18507585 0.056847334 1.0427728
-0.1759229 0.055947021 1.0443158
-0.16907613 0.051178485 1.0425
-0.34423375 0.063636795 1.0454999
-0.33600962 0.066445127 1.0426154
-0.32762697 0.067837343 1.041
-0.19291617 0.065151162 1.0444615
-0.18567941 0.062954135 1.0468
-0.17806678 0.06241516 1.0470001
-0.33384097 0.072270736 1.045909
-0.32518321 0.075375013 1.0434002
-0.31713197 0.078940764 1.041
-0.19350609 0.07542669 1.0441501
-0.18999909 0.07985469 1.0470001
-0.32217062 0.08344727 1.046
-0.31513509 0.08519347 1.0438638
-0.30809188 0.087114021 1.0416
-0.20442463 0.088523172 1.041
-0.19539373 0.085446835 1.0438892
-0.18999909 0.084138088 1.0470001
-0.31176984 0.091481037 1.0470001
-0.30419856 0.093887389 1.0440001
-0.29760456 0.097527958 1.042125
-0.22473219 0.096125573 1.0427308
-0.21542907 0.095937029 1.0429617
-0.20490266 0.094859473 1.0440001
-0.19628303 0.093366124 1.0455717
-0.30106133 0.10096569 1.0470001
-0.2940498 0.10239816 1.046
-0.28497618 0.10566802 1.0435503
-0.2768859 0.1078705 1.041
-0.22545095 0.10501327 1.0442146
-0.21502486 0.10375271 1.0464002
-0.20597002 0.10151643 1.0470001
-0.28239799 0.11167418 1.0470001
-0.27507356 0.11296933 1.0436469
-0.26503956 0.11548917 1.0425003
-0.25648639 0.11763815 1.0420001
-0.23248738 0.11795484 1.041
-0.22698714 0.1149985 1.0438572
-0.26159295 0.12024097 1.0470001
-0.25421226 0.12297939 1.046
-0.24403553 0.12497976 1.0425655
-0.23483711 0.12518905 1.0423201
-0.22755665 0.12408028 1.0445625
-0.24197182 0.13106737 1.0455
-0.23508471 0.13208577 1.0456363
-0.2289415 0.13174196 1.046
-0.27258196 -0.18572535 1.054
-0.26970649 -0.185941 1.0500001
-0.30030218 -0.17094123 1.054
-0.29537705 -0.1720248 1.0516001
-0.28995749 -0.1702925 1.0500001
-0.300872 -0.16756082 1.0560001
-0.29476672 -0.16716383 1.0556875
-0.28822017 -0.16720247 1.05375
-0.17884088 -0.13065577 1.057
-0.18018129 -0.1247409 1.054
-0.17782237 -0.12372255 1.0532
-0.2088255 -0.11365282 1.054
-0.1813385 -0.1113805 1.0500001
-0.1765023 -0.11474887 1.0530499
-0.22289513 -0.10143004 1.0549999
-0.21416889 -0.10274084 1.057
-0.20641321 -0.10477576 1.0539334
-0.18108507 -0.10399196 1.0514545
-0.17608076 -0.10558864 1.0551054
-0.23192567 -0.091476656 1.054
-0.22484925 -0.095295474 1.0526
-0.21512146 -0.095224477 1.05208
-0.20595963 -0.095232315 1.0517142
-0.18191208 -0.0953077 1.0525714
-0.17643163 -0.095443569 1.057
-0.32339621 -0.080617391 1.057
-0.26409146 -0.080617391 1.057
-0.25441325 -0.08144106 1.057
-0.24440092 -0.083316937 1.0533333
-0.23547395 -0.086820953 1.0526923
-0.22674982 -0.088061161 1.0500001
-0.18276744 -0.084719069 1.0537144
-0.17837755 -0.0861772 1.057
-0.34007564 -0.072277658 1.057
-0.33391377 -0.073954776 1.0563573
-0.32516944 -0.075039946 1.056739
-0.31501311 -0.073459558 1.0559412
-0.30506748 -0.074409157 1.0539411
-0.29488784 -0.074675292 1.0541499
-0.28555092 -0.073379688 1.0541334
-0.27476823 -0.075006634 1.0533333
-0.26516506 -0.075766556 1.0539091
-0.25541666 -0.075748995 1.0537001
-0.24743426 -0.076092921 1.0508001
-0.18319729 -0.074820876 1.0536667
-0.17884088 -0.078764118 1.057
-0.34119359 -0.064702868 1.0560001
-0.33533582 -0.064014427 1.0542611
-0.32535037 -0.064521953 1.0538391
-0.31553251 -0.0663573 1.0512501
-0.30744702 -0.069037497 1.0500001
-0.18228573 -0.064772516 1.0555
-0.34312379 -0.054469321 1.0558462
-0.33526161 -0.054492403 1.0535202
-0.32521743 -0.054971479 1.0522221
-0.31723779 -0.05598313 1.0500001
-0.18115193 -0.055214219 1.0532
-0.17720449 -0.053462643 1.0550001
-0.34245753 -0.045881223 1.0552
-0.33515954 -0.045241684 1.0532001
-0.32553485 -0.04518614 1.0519201
-0.31941348 -0.044644248 1.0500001
-0.17447908 -0.045374997 1.0519501
-0.16895676 -0.044787437 1.057
-0.33455241 -0.035776034 1.0555
-0.32503971 -0.03523422 1.0542502
-0.31734237 -0.0340585 1.0500001
-0.17123054 -0.037505552 1.052
-0.16784848 -0.034524761 1.0561429
-0.34934202 -0.021312643 1.057
-0.33292732 -0.024224928 1.057
-0.32466123 -0.024974378 1.0550801
-0.31603581 -0.02473603 1.0505716
-0.16636807 -0.0253531 1.0536667
-0.37158129 -0.01389955 1.057
-0.36512977 -0.014089417 1.0550385
-0.35523793 -0.015135079 1.0533463
-0.34704804 -0.016978841 1.0523001
-0.33502817 -0.01908854 1.0511429
-0.32494235 -0.018788137 1.054
-0.31603834 -0.018716834 1.0500001
-0.16323884 -0.01844682 1.052
-0.36417487 -0.0050111641 1.0544739
-0.35725629 -0.0050116107 1.0500001
-0.15249617 -0.0015341666 1.0500001
-0.36282921 0.0030072955 1.055125
-0.35598186 0.0061659343 1.0509232
-0.15196899 0.0047655604 1.0516667
-0.14771776 0.006172318 1.0553334
-0.35296273 0.014129457 1.0531499
-0.34609896 0.016084135 1.0506154
-0.15259653 0.014000074 1.0528334
-0.14826187 0.015011514 1.057
-0.35119531 0.021312643 1.057
-0.34430292 0.024616336 1.0535883
-0.33616355 0.026891513 1.0510911
-0.3286185 0.0285355 1.0500001
-0.15286697 0.024927489 1.0530001
-0.14826187 0.025019187 1.057
-0.36285058 0.039081451 1.0564001
-0.35474497 0.038193975 1.0558001
-0.34441277 0.036471624 1.0548332
-0.33530441 0.035229277 1.0530969
-0.32643795 0.036110878 1.0502223
-0.31941348 0.0395815 1.0500001
-0.1610875 0.0395815 1.0500001
-0.15483423 0.035791915 1.0541818
-0.14849353 0.033590581 1.057
-0.36529651 0.045243368 1.0533001
-0.35695392 0.043680541 1.0505716
-0.34702849 0.041422501 1.0500001
-0.33252728 0.043066543 1.0526668
-0.32451418 0.043743912 1.0505
-0.31803274 0.043263499 1.0500001
-0.1636508 0.045622993 1.0539376
-0.15716881 0.043744694 1.0566667
-0.36372405 0.053640686 1.0532727
-0.3573381 0.0559664 1.0500001
-0.17296575 0.058065135 1.0513334
-0.16794991 0.05310306 1.0565001
-0.35453013 0.064199902 1.0528333
-0.34632835 0.06785401 1.0506668
-0.1905435 0.068117 1.0500001
-0.18489428 0.067739792 1.0522858
-0.17496662 0.0656868 1.0537999
-0.16957451 0.060231384 1.057
-0.34379876 0.072989024 1.0538888
-0.33558157 0.076297753 1.0506668
-0.1905435 0.074560501 1.0500001
-0.18532476 0.074612617 1.0559499
-0.17760535 0.072586529 1.057
-0.33418658 0.081203878 1.0542858
-0.32570741 0.085381784 1.0510001
-0.1905435 0.087447502 1.0500001
-0.18744095 0.084864266 1.0555
-0.32201064 0.092533484 1.0555
-0.31477091 0.094797008 1.0525334
-0.30836749 0.097572997 1.0500001
-0.19324093 0.096159235 1.0513334
-0.18799941 0.09520565 1.0564001
-0.31227654 0.10100339 1.057
-0.30482945 0.10404 1.0536876
-0.29578722 0.10720919 1.0524
-0.28995749 0.1095395 1.0500001
-0.22276101 0.1095395 1.0500001
-0.21467796 0.10872436 1.0518183
-0.20430127 0.10550724 1.0526
-0.19606993 0.10391279 1.0545
-0.30115691 0.1111964 1.057
-0.2946218 0.11430419 1.0566001
-0.28563485 0.11552467 1.0530667
-0.27661762 0.118477 1.0522858
-0.22258127 0.11505636 1.0513334
-0.21603741 0.11453027 1.0560588
-0.20525002 0.11096473 1.057
-0.19922689 0.11026976 1.057
-0.2807709 0.1213894 1.057
-0.27361193 0.12301079 1.0549999
-0.26484725 0.12489271 1.0522858
-0.2562795 0.12675829 1.0508001
-0.24853501 0.1297905 1.0500001
-0.2243882 0.1255624 1.0516
-0.21961288 0.12509595 1.057
-0.26409146 0.13065577 1.057
-0.25531617 0.13135937 1.0552
-0.24486247 0.13512063 1.054
-0.23466539 0.13726597 1.0538572
-0.22522442 0.13395861 1.0556251
-0.21961288 0.13158241 1.057
-0.30364069 -0.16348062 1.0644
-0.2956247 -0.16350885 1.06125
-0.17772663 -0.13095647 1.067
-0.17435935 -0.12456854 1.0636002
-0.1683726 -0.12066703 1.067
-0.21359105 -0.11233547 1.062889
-0.17159754 -0.1152757 1.0611819
-0.16455185 -0.11518462 1.0675626
-0.15714777 -0.11131299 1.067
-0.23198003 -0.10008816 1.067
-0.22418065 -0.10474051 1.064375
-0.21580362 -0.10752125 1.0614547
-0.17098507 -0.10500713 1.0600002
-0.16488361 -0.10498393 1.0639628
-0.15590055 -0.10407922 1.0669998
-0.14702839 -0.10314947 1.0670002
-0.3414222 -0.09166953 1.067
-0.3358098 -0.091201827 1.067
-0.32739115 -0.090734124 1.067
-0.27126697 -0.090734124 1.067
-0.26440734 -0.09135773 1.067
-0.25582564 -0.091301031 1.0663334
-0.24528132 -0.09221568 1.0655715
-0.23553623 -0.094779626 1.0643572
-0.22831468 -0.097849153 1.0630001
-0.17240688 -0.094478324 1.06075
-0.1644772 -0.094752923 1.0676999
-0.15474771 -0.096122012 1.0685
-0.14482655 -0.095074318 1.0667336
-0.13843969 -0.090734124 1.067
-0.35408613 -0.082963072 1.0670002
-0.34452441 -0.084849656 1.0654999
-0.33479691 -0.085239582 1.0635415
-0.32511458 -0.084913611 1.0623749
-0.31527597 -0.08444199 1.0647306
-0.30515406 -0.085129336 1.0652306
-0.29501817 -0.084592737 1.063923
-0.28627434 -0.082551017 1.066
-0.2735633 -0.084165365 1.0645883
-0.26481673 -0.085414119 1.0615555
-0.25579259 -0.086434647 1.0614706
-0.24737079 -0.087165214 1.0600001
-0.17448078 -0.084911823 1.0633181
-0.16930801 -0.087927908 1.067
-0.1433987 -0.087034002 1.0684999
-0.13695467 -0.085202605 1.0685
-0.36013028 -0.072026059 1.067
-0.35482278 -0.075695395 1.0659565
-0.34546632 -0.075651519 1.0629544
-0.33569759 -0.07736145 1.0600001
-0.32369456 -0.078368157 1.0600001
-0.3154344 -0.078161649 1.0600001
-0.30479947 -0.078987665 1.0600001
-0.29364827 -0.078987665 1.0600001
-0.28496101 -0.078186482 1.0603334
-0.27785072 -0.078987665 1.0600001
-0.17643712 -0.07533931 1.0633636
-0.13432857 -0.07484366 1.0684999
-0.36066481 -0.06507735 1.067
-0.35402974 -0.0650362 1.0630869
-0.34684139 -0.065628335 1.061
-0.17770408 -0.065346137 1.0624737
-0.36013028 -0.055188797 1.067
-0.3541415 -0.054984838 1.0630499
-0.34794399 -0.055092242 1.0600001
-0.17481114 -0.05537368 1.0625557
-0.36013028 -0.048640974 1.067
-0.35423431 -0.044960309 1.0636955
-0.34771919 -0.044179175 1.061
-0.17005579 -0.049251132 1.0600001
-0.16750337 -0.042804129 1.0615001
-0.36013028 -0.03086831 1.067
-0.35311475 -0.034025297 1.0670002
-0.34449324 -0.034954417 1.0620453
-0.33670428 -0.031595066 1.0600001
-0.16503301 -0.034032125 1.0635834
-0.38320357 -0.023592949 1.067
-0.37501174 -0.023030274 1.0662727
-0.36484009 -0.024077112 1.0652777
-0.35489041 -0.025183303 1.06364
-0.34466463 -0.025152883 1.0625768
-0.33546528 -0.025090197 1.0600002
-0.16286889 -0.025669387 1.0646669
-0.38257998 -0.015434155 1.067
-0.37602642 -0.015024188 1.0615714
-0.36613107 -0.0195146 1.0600001
-0.35590914 -0.0195146 1.0600001
-0.16076313 -0.018585334 1.0600001
-0.1589046 -0.018585334 1.0600001
-0.38177821 -0.0044097588 1.067
-0.37488371 -0.0048322696 1.062095
-0.36891887 -0.0018585334 1.0600001
-0.38070914 0.00093540334 1.067
-0.37422323 0.0039198105 1.0638001
-0.36747578 0.0057359566 1.0607501
-0.14589487 0.0083633997 1.0600001
-0.37197873 0.012472044 1.067
-0.36513659 0.015039811 1.0639198
-0.35824618 0.017045761 1.0605
-0.14413415 0.01550408 1.0600001
-0.36228892 0.025687614 1.0670002
-0.35481539 0.025348632 1.0625789
-0.34847501 0.027877999 1.0600001
-0.14318702 0.025105977 1.0606
-0.13828276 0.025424959 1.0627143
-0.37462154 0.036431573 1.065643
-0.3652159 0.034558836 1.063
-0.35496205 0.033039428 1.0616874
-0.34684882 0.032756649 1.0600001
-0.15147047 0.039958466 1.0600001
-0.14472844 0.034817655 1.0625238
-0.13937509 0.03086831 1.067
-0.38070914 0.043963958 1.067
-0.37558115 0.044356659 1.0639445
-0.16076313 0.049251132 1.0600001
-0.15374273 0.046560984 1.0621667
-0.14770685 0.043084223 1.0637
-0.37255508 0.054326378 1.06375
-0.36784863 0.057122201 1.0612
-0.17005579 0.058543801 1.0600001
-0.16456971 0.055358082 1.063
-0.15779974 0.053224973 1.0651001
-0.36495095 0.063923165 1.0638463
-0.35624492 0.069141239 1.061
-0.17036556 0.065977931 1.0600001
-0.16757505 0.064375319 1.0642308
-0.36013028 0.071090654 1.067
-0.35341325 0.074494742 1.0648
-0.34692717 0.077071816 1.0623751
-0.18213627 0.078058399 1.0600001
-0.1746389 0.075685434 1.0620476
-0.16847283 0.071936049 1.0656667
-0.35077626 0.081380092 1.067
-0.3442111 0.082915127 1.0653334
-0.33579159 0.085757725 1.0632501
-0.32988966 0.088280335 1.0600001
-0.18317674 0.084530562 1.0631541
-0.17764442 0.081632227 1.0654
-0.33066505 0.093540341 1.067
-0.32501647 0.095865935 1.0632308
-0.31841967 0.098905824 1.061
-0.18439513 0.095290922 1.0626472
-0.32308832 0.10158479 1.067
-0.31414074 0.10533751 1.0633078
-0.30696777 0.10810468 1.0600001
-0.19149633 0.10620651 1.060375
-0.18831244 0.10443477 1.0655001
-0.31166509 0.11261177 1.0660001
-0.304993 0.11505552 1.0620477
-0.29519704 0.11801687 1.0600001
-0.28807268 0.1198754 1.0600001
-0.21396784 0.11788458 1.0606667
-0.20492129 0.11611845 1.063
-0.19497013 0.11439363 1.0637082
-0.29308912 0.12160857 1.0654
-0.28524274 0.12475346 1.0635334
-0.27595928 0.12718369 1.0606667
-0.21573749 0.12446652 1.0634999
-0.20690443 0.12090344 1.0663334
-0.2746174 0.13141882 1.0662
-0.26390713 0.13405833 1.06375
-0.25497931 0.1371306 1.0640835
-0.24904346 0.13753146 1.0600001
-0.2228696 0.13758045 1.0603751
-0.21788867 0.13455829 1.0653079
-0.25162348 0.1412459 1.067
-0.24502346 0.14414009 1.0655501
-0.23475534 0.14506246 1.0637727
-0.22583446 0.14375244 1.06405
-0.21888438 0.1412459 1.067
-0.23166823 0.15122354 1.067
-0.31230021 -0.16085343 1.0730001
-0.30556437 -0.16110721 1.0700001
-0.29923263 -0.1604037 1.0700001
-0.31381586 -0.15614383 1.0754615
-0.30628234 -0.15620069 1.074
-0.1750803 -0.13261965 1.0742728
-0.16775163 -0.13137931 1.0730001
-0.21715909 -0.12179793 1.077
-0.17208129 -0.12658502 1.0713334
-0.16497296 -0.12496667 1.0723999
-0.15437534 -0.12331719 1.0737777
-0.14681843 -0.12227002 1.077
-0.23320998 -0.11046789 1.077
-0.22428621 -0.11250927 1.0744444
-0.21768957 -0.11736503 1.0728889
-0.15466084 -0.11580465 1.070913
-0.14502481 -0.11508406 1.074
-0.13776292 -0.11228669 1.0763334
-0.32007363 -0.10102619 1.077
-0.27286512 -0.1010262 1.077
-0.26396295 -0.10183547 1.077
-0.25544098 -0.10202208 1.0766363
-0.24454793 -0.10246181 1.0761999
-0.23513326 -0.10463268 1.0742857
-0.22659175 -0.10734841 1.0710001
-0.15258676 -0.10849919 1.0700001
-0.14338247 -0.10556005 1.071
-0.1377627 -0.10526772 1.0745001
-0.35417908 -0.093404099 1.0762
-0.3451215 -0.09511248 1.073
-0.33483407 -0.095234141 1.0728749
-0.32469681 -0.094794333 1.0738946
-0.31511599 -0.094562449 1.0719998
-0.30509979 -0.094231576 1.0734347
-0.2951299 -0.094145983 1.0738499
-0.284841 -0.093992934 1.0757141
-0.27450567 -0.095138967 1.0733156
-0.26547456 -0.096266106 1.0729998
-0.25565699 -0.09565156 1.0717499
-0.24498633 -0.096969798 1.0706922
-0.23826048 -0.098493502 1.0700001
-0.14511514 -0.094764382 1.0702499
-0.13780513 -0.094407111 1.072
-0.37186813 -0.082682319 1.077
-0.36477917 -0.085618123 1.0743499
-0.3558583 -0.08774557 1.0716
-0.34988642 -0.089113168 1.0700001
-0.32174543 -0.089113168 1.0700001
-0.3151792 -0.089113168 1.0700001
-0.29266641 -0.089113168 1.0700001
-0.2847262 -0.087152399 1.0714999
-0.27747539 -0.087904096 1.0705001
-0.1716601 -0.082546934 1.0700001
-0.16490623 -0.085234508 1.0709641
-0.15491669 -0.085436136 1.0709599
-0.37377593 -0.074567512 1.0766666
-0.36533365 -0.075139634 1.0708399
-0.17191738 -0.074392527 1.0723999
-0.16513883 -0.076794431 1.0748749
-0.15527907 -0.075282656 1.0734667
-0.14551851 -0.075103074 1.0708998
-0.37341926 -0.064675637 1.0769999
-0.36621961 -0.064909607 1.071125
-0.1740867 -0.065211885 1.0723636
-0.15438828 -0.065673001 1.0765294
-0.14484891 -0.06489937 1.0729001
-0.13569854 -0.065494403 1.0741111
-0.37222093 -0.055124998 1.0769999
-0.36553377 -0.055439461 1.0718666
-0.17352878 -0.056048933 1.0732857
-0.15201136 -0.057594366 1.077
-0.14440563 -0.055041164 1.0748063
-0.13798609 -0.0543621 1.0766
-0.37105882 -0.047208499 1.077
-0.36539295 -0.044826839 1.0734544
-0.35926676 -0.040335432 1.0700001
-0.14256968 -0.04815267 1.077
-0.13879299 -0.04815267 1.077
-0.12935129 -0.042487651 1.077
-0.37105882 -0.03210178 1.077
-0.36460054 -0.034809511 1.0731111
-0.3578597 -0.035645265 1.0700001
-0.16344661 -0.034757201 1.0715001
-0.39336458 -0.023246424 1.0751668
-0.38612521 -0.0255275 1.0711818
-0.37517565 -0.027258836 1.0720909
-0.36652955 -0.0282983 1.0708573
-0.16121322 -0.025457526 1.0754001
-0.39326406 -0.016032262 1.0757499
-0.38665378 -0.01509644 1.0702727
-0.39253867 -0.0054289773 1.077
-0.38670719 -0.0043540844 1.0713636
-0.38448629 0.0045544296 1.0745
-0.37865281 0.0065662335 1.0700001
-0.38097256 0.014634635 1.077
-0.37568197 0.01585025 1.0718668
-0.38112998 0.028639823 1.077
-0.37491038 0.025433064 1.0744998
-0.36791575 0.025341626 1.0706
-0.13695288 0.029079033 1.0700001
-0.3937189 0.03871097 1.077
-0.38486704 0.034974121 1.0746874
-0.37587583 0.032234743 1.071
-0.3686471 0.0309551 1.0700001
-0.14174101 0.03801731 1.0707501
-0.1373425 0.034810517 1.0730625
-0.38509327 0.044630285 1.0739999
-0.3799035 0.049715765 1.0700001
-0.15102337 0.049715765 1.0700001
-0.14374524 0.045459967 1.0722799
-0.13832091 0.042015564 1.077
-0.38314122 0.054681905 1.0754
-0.37758821 0.05561924 1.0707501
-0.16134173 0.059096098 1.0700001
-0.15389936 0.056342222 1.0711
-0.14625816 0.054437675 1.0742999
-0.37435034 0.064199395 1.07425
-0.36822325 0.067634396 1.0715001
-0.16313976 0.065133899 1.0715555
-0.15570544 0.063562319 1.0749999
-0.37105882 0.070812747 1.077
-0.36423722 0.073678657 1.0747
-0.35646865 0.077911995 1.07075
-0.17157157 0.079115488 1.0718001
-0.16771007 0.073859386 1.0732501
-0.36224654 0.08308696 1.077
-0.35475302 0.086149447 1.0741904
-0.34605321 0.087144323 1.0726666
-0.33926827 0.089529581 1.075
-0.18150944 0.087706111 1.0700001
-0.17611378 0.085589513 1.0728749
-0.35217538 0.091584481 1.077
-0.34474692 0.094872072 1.0767999
-0.33649957 0.095676437 1.0734999
-0.18188679 0.094776928 1.0734286
-0.17872603 0.09124434 1.0730001
-0.34344184 0.10267848 1.077
-0.33411279 0.10273357 1.0750834
-0.32581753 0.10518706 1.072
-0.31861869 0.10849919 1.0700001
-0.18571295 0.10619184 1.072
-0.32412311 0.11105911 1.0754001
-0.31588268 0.11526262 1.072091
-0.19286993 0.11636849 1.0717143
-0.1869673 0.11570811 1.0730625
-0.30223435 0.12240107 1.074
-0.29525813 0.12507063 1.072625
-0.28797624 0.12851056 1.0700001
-0.21300754 0.12691404 1.0703751
-0.20464115 0.12590799 1.0714347
-0.19688354 0.12341026 1.0745714
-0.188834 0.12274209 1.077
-0.28478506 0.13203751 1.0738751
-0.27561182 0.13596898 1.0749999
-0.26654306 0.13761388 1.0715001
-0.25983524 0.13976696 1.0700001
-0.21375546 0.13520291 1.0721579
-0.20636643 0.13336542 1.0748947
-0.19921987 0.13123962 1.077
-0.27192095 0.14068133 1.077
-0.2644442 0.14230561 1.075
-0.25527951 0.14536233 1.0721765
-0.24482669 0.14758392 1.0700001
-0.22237568 0.14731304 1.0703
-0.21561918 0.14451762 1.0736363
-0.25209337 0.1510672 1.077
-0.24395122 0.15324485 1.0753334
-0.23536561 0.15409403 1.0730667
-0.22529046 0.15314691 1.0734667
-0.21744703 0.1519307 1.0764287
-0.31907159 -0.16000921 1.08
-0.33066902 -0.15246987 1.087
-0.32393089 -0.15364231 1.0843749
-0.31659666 -0.15297949 1.080889
-0.30707881 -0.1549596 1.08
-0.32495138 -0.14865811 1.087
-0.3154504 -0.14883813 1.086
-0.23728122 -0.13055232 1.087
-0.18083879 -0.13728599 1.08
-0.17440054 -0.1353924 1.08
-0.30335149 -0.12102296 1.087
-0.26484409 -0.12194251 1.0867
-0.25455523 -0.12347134 1.0861666
-0.24456698 -0.12418947 1.0854999
-0.235035 -0.1246564 1.0854398
-0.22580864 -0.12463363 1.0852172
-0.21952084 -0.12449017 1.0840001
-0.16000921 -0.127818 1.08
-0.1410732 -0.1202436 1.08
-0.31351614 -0.11244652 1.087
-0.30466741 -0.11503307 1.087
-0.29480398 -0.11270642 1.087
-0.28378302 -0.11251821 1.0866666
-0.27471173 -0.11437064 1.0849999
-0.26486218 -0.11487167 1.0828799
-0.25551841 -0.11493789 1.0835198
-0.24525024 -0.11507548 1.083586
-0.23475014 -0.11496825 1.0822915
-0.22644883 -0.11707045 1.0817778
-0.1410732 -0.11835 1.08
-0.13473454 -0.11331934 1.0808001
-0.36306891 -0.10005835 1.087
-0.35368779 -0.10347631 1.0810909
-0.3455542 -0.1038364 1.0819048
-0.33442059 -0.10333964 1.0847501
-0.32501185 -0.1046424 1.0835263
-0.31479952 -0.10522161 1.0834073
-0.3047612 -0.10574562 1.0844812
-0.29514381 -0.1052164 1.083739
-0.28529981 -0.10564209 1.0834998
-0.27540851 -0.10574792 1.0817999
-0.26548272 -0.10623096 1.08
-0.25445077 -0.10668375 1.0805
-0.24579954 -0.10734177 1.0806153
-0.2395404 -0.10793521 1.08
-0.13410255 -0.10516856 1.0848947
-0.12651213 -0.10590317 1.0850834
-0.37362218 -0.092635617 1.081
-0.36487111 -0.094899133 1.0824499
-0.35512501 -0.097972058 1.0808001
-0.3493692 -0.099413998 1.08
-0.33516717 -0.099413998 1.08
-0.32711941 -0.098940596 1.08
-0.31149721 -0.099413998 1.08
-0.30486959 -0.099413998 1.08
-0.2938236 -0.099098392 1.08
-0.28606886 -0.098602451 1.08
-0.27835917 -0.099413998 1.08
-0.13779446 -0.098831892 1.0840001
-0.38385937 -0.084205784 1.084846
-0.37594962 -0.085890725 1.0802
-0.36830521 -0.089946002 1.08
-0.38468856 -0.075036593 1.0834666
-0.37882522 -0.075217992 1.08
-0.16568999 -0.071551025 1.08
-0.38436064 -0.065429427 1.0843333
-0.37871999 -0.065329202 1.08
-0.17171413 -0.064188264 1.0810909
-0.16451214 -0.065654024 1.0819257
-0.1574844 -0.062173199 1.08
-0.13223399 -0.062200814 1.08325
-0.1276935 -0.060035009 1.087
-0.38330847 -0.055067319 1.0857142
-0.37725863 -0.054929886 1.0803334
-0.17122307 -0.055579603 1.0824999
-0.1645852 -0.055175126 1.0851998
-0.15533195 -0.054250319 1.0825833
-0.14864761 -0.050180398 1.08
-0.13349308 -0.055203881 1.0825416
-0.12882398 -0.054675069 1.0845001
-0.38117468 -0.047646832 1.087
-0.37507445 -0.044427462 1.0815713
-0.17081544 -0.047105927 1.0855
-0.16649191 -0.044937298 1.0863637
-0.15459862 -0.045435224 1.08655
-0.14531477 -0.044452291 1.0827916
-0.1354038 -0.044394102 1.0813333
-0.1297116 -0.047339998 1.08
-0.38212761 -0.032082204 1.087
-0.37496394 -0.035597648 1.0828124
-0.16268986 -0.035161696 1.084
-0.15151693 -0.038117465 1.087
-0.14445564 -0.035626896 1.0866399
-0.13494861 -0.035627246 1.0856955
-0.40158564 -0.021887299 1.0855
-0.39165697 -0.029541036 1.087
-0.3857401 -0.029452713 1.08375
-0.37966681 -0.0293508 1.08
-0.16071294 -0.026625024 1.0847501
-0.13436407 -0.029541036 1.087
-0.40294746 -0.014700165 1.0821249
-0.39765596 -0.0132552 1.08
-0.40259644 -0.0045797066 1.0847272
-0.39689857 -0.0047340007 1.08
-0.40118635 0.00095293665 1.087
-0.39426035 0.0046347179 1.0839999
-0.38850358 0.0053652003 1.08
-0.39229226 0.012705822 1.087
-0.38604903 0.015188688 1.0826249
-0.39260989 0.029541036 1.087
-0.38560778 0.024846988 1.0841428
-0.40210843 0.037524138 1.0863999
-0.39405757 0.03496781 1.0815881
-0.38724118 0.031244399 1.08
-0.13444561 0.038818799 1.08
-0.40182161 0.041611567 1.087
-0.39450812 0.044393159 1.0821579
-0.1352995 0.044848204 1.0838499
-0.39253205 0.052703798 1.0852001
-0.38737944 0.055652801 1.0811428
-0.14255086 0.056488179 1.0820909
-0.13718036 0.053677216 1.0853529
-0.38399154 0.063706614 1.0845715
-0.37729558 0.068031438 1.0807999
-0.16000921 0.069116399 1.08
-0.15310395 0.067464121 1.0810909
-0.14517899 0.064548358 1.0846798
-0.38022172 0.071470253 1.087
-0.37369621 0.074801587 1.0842307
-0.36733454 0.077184536 1.0816
-0.16404438 0.075545035 1.0844998
-0.15566137 0.072833896 1.086
-0.14897577 0.072105549 1.087
-0.37183589 0.083286665 1.087
-0.36548653 0.086451456 1.0808823
-0.17205341 0.08642181 1.0813333
-0.16799784 0.083288819 1.08575
-0.36298296 0.093164243 1.0822001
-0.35461363 0.095323212 1.0811428
-0.3493692 0.098467201 1.08
-0.18147963 0.097612448 1.0810001
-0.17478235 0.094445966 1.0845414
-0.16866979 0.09052898 1.087
-0.3520886 0.10405858 1.0840001
-0.34561101 0.10620064 1.0815834
-0.33683825 0.10693581 1.0809231
-0.18212256 0.10463247 1.0836428
-0.17705564 0.10120187 1.087
-0.33363956 0.11239142 1.0851429
-0.32529876 0.11554047 1.0832223
-0.18475258 0.11359285 1.0852001
-0.32113966 0.12102295 1.087
-0.31645212 0.12195602 1.0840001
-0.30483842 0.12623465 1.0826364
-0.29634839 0.1290804 1.08
-0.19418198 0.12678511 1.0814545
-0.18776307 0.12663451 1.0828
-0.30295387 0.13237813 1.0863333
-0.29523861 0.13428219 1.0842667
-0.28551555 0.13727072 1.0819999
-0.27930599 0.1382328 1.08
-0.20403987 0.1376102 1.0825455
-0.19562808 0.1335358 1.0851817
-0.1896344 0.13309348 1.087
-0.29128098 0.14071698 1.087
-0.28411481 0.14372088 1.0845
-0.2753697 0.14528885 1.0831499
-0.26640275 0.1468541 1.0807273
-0.21152528 0.14664775 1.082
-0.2062117 0.14410013 1.0845555
-0.19916376 0.14008169 1.087
-0.26366276 0.15249264 1.0848889
-0.25515822 0.15495162 1.0834999
-0.24647737 0.15719372 1.080889
-0.23523422 0.1584084 1.082
-0.22447626 0.15782554 1.0817143
-0.21442418 0.15522105 1.0843332
-0.20805784 0.15215223 1.087
-0.25157529 0.1610463 1.087
-0.24379893 0.16298756 1.0845
-0.23533395 0.16301419 1.0840526
-0.22473679 0.16188812 1.0862499
-0.21726957 0.1610463 1.087
-0.33158162 -0.15002397 1.09
-0.24331094 -0.15098742 1.097
-0.33316308 -0.14440204 1.0942308
-0.32581612 -0.14479959 1.0946317
-0.31739074 -0.148287 1.0960001
-0.28370246 -0.14137039 1.097
-0.26062161 -0.14137039 1.097
-0.25378284 -0.14243895 1.097
-0.24458523 -0.14465609 1.0960455
-0.236347 -0.14342974 1.0959287
-0.33409575 -0.1348308 1.097
-0.32794085 -0.13505061 1.097
-0.31255355 -0.13175336 1.097
-0.30354077 -0.13302767 1.0964
-0.29462552 -0.13449304 1.0962106
-0.28559422 -0.13558576 1.0968801
-0.27500865 -0.13490775 1.097
-0.26457638 -0.13541341 1.0962501
-0.25510591 -0.13522802 1.0939616
-0.24518514 -0.13504802 1.0925
-0.23474428 -0.13519984 1.0918801
-0.22792183 -0.13403298 1.092889
-0.33473232 -0.1253511 1.0960455
-0.32512814 -0.12602112 1.0954444
-0.31502482 -0.12558277 1.0941666
-0.30486354 -0.12602058 1.0922174
-0.29465458 -0.12533328 1.091926
-0.28508469 -0.12550125 1.0940769
-0.27522799 -0.12597315 1.0942
-0.26490512 -0.12718906 1.0920001
-0.2558181 -0.12852308 1.0905715
-0.24844733 -0.1290015 1.09
-0.22264703 -0.1290015 1.09
-0.34436327 -0.11261304 1.0954
-0.33540517 -0.11557503 1.0940499
-0.3251788 -0.11565585 1.0915173
-0.3154178 -0.11657448 1.0904706
-0.30864802 -0.11944583 1.09
-0.29499707 -0.11767118 1.09
-0.28631166 -0.11717635 1.09
-0.27711433 -0.11944583 1.09
-0.36789316 -0.1003345 1.09
-0.34331194 -0.10760282 1.0917144
-0.33511674 -0.1082354 1.0904446
-0.32584825 -0.10989016 1.09
-0.13330206 -0.10079037 1.0908
-0.12461837 -0.10192066 1.0928462
-0.11862016 -0.10327148 1.0941668
-0.13526215 -0.097713523 1.0942857
-0.12790655 -0.099055439 1.097
-0.39286083 -0.083867721 1.0946001
-0.3881512 -0.08733879 1.09
-0.40295368 -0.075974561 1.097
-0.39546794 -0.075162388 1.09416
-0.39555934 -0.064148732 1.0955789
-0.38891563 -0.064022966 1.09
-0.40167141 -0.056099359 1.097
-0.39550215 -0.054940097 1.0954211
-0.38836956 -0.053648241 1.09
-0.39272949 -0.046267908 1.09575
-0.38511479 -0.044415332 1.0916471
-0.16394792 -0.044775125 1.09
-0.15843296 -0.042236049 1.09
-0.39136869 -0.035547256 1.0958
-0.38563037 -0.036002431 1.0924706
-0.16212781 -0.038541187 1.09
-0.15567197 -0.034911465 1.0904801
-0.14715727 -0.031533699 1.09
-0.16081399 -0.021658927 1.0932001
-0.15528151 -0.02554168 1.0949357
-0.14477506 -0.025109822 1.0946552
-0.13618553 -0.024712088 1.0936522
-0.41358837 -0.011706481 1.0946001
-0.4099381 -0.014333501 1.09
-0.1609654 -0.015476799 1.0938572
-0.15645586 -0.014770628 1.0957501
-0.14367847 -0.017887682 1.097
-0.13720301 -0.017631227 1.097
-0.41307527 -0.0046238583 1.095091
-0.40870667 -0.0041501401 1.0926667
-0.15771934 -0.0086553302 1.097
-0.41064733 0.0019234066 1.097
-0.40454605 0.004795304 1.0935
-0.3984713 0.0076445332 1.09
-0.40244946 0.013779593 1.0965
-0.39697108 0.014678323 1.0920001
-0.40199199 0.028851099 1.097
-0.39478448 0.024456166 1.0920455
-0.40417063 0.034792416 1.0925001
-0.3984713 0.031533699 1.09
-0.41064733 0.045200057 1.097
-0.40489095 0.046020012 1.0918462
-0.1318682 0.047778334 1.09
-0.12851991 0.04815647 1.0913334
-0.40381071 0.051969051 1.0948572
-0.3966912 0.054999631 1.0921111
-0.13254732 0.055031877 1.0916668
-0.12821031 0.054262161 1.0955
-0.39352059 0.061749041 1.0948334
-0.38603783 0.068008877 1.0926667
-0.14206092 0.067845233 1.09
-0.13526002 0.064278364 1.09428
-0.1290606 0.06212604 1.097
-0.38311997 0.075857349 1.0952857
-0.3777951 0.077951446 1.0910001
-0.15468329 0.077824488 1.0925626
-0.14496614 0.075279541 1.0944546
-0.13730986 0.071700327 1.097
-0.37677491 0.085804999 1.0935835
-0.1646958 0.084448971 1.0917693
-0.1556036 0.082129464 1.097
-0.36505717 0.095884673 1.0921429
-0.35833749 0.098423369 1.09
-0.17136028 0.097648397 1.092
-0.16929048 0.095646963 1.0910001
-0.36256215 0.10097885 1.097
-0.35803944 0.10147417 1.092
-0.18188906 0.10817716 1.092
-0.17504595 0.10446696 1.0932354
-0.34328058 0.11340664 1.0944
-0.33585021 0.11667915 1.0927
-0.32775936 0.11880878 1.09
-0.18259184 0.11421943 1.0933334
-0.1787153 0.11334053 1.0966668
-0.33467278 0.12165547 1.097
-0.32506499 0.12588684 1.0953333
-0.31537101 0.12702993 1.0938666
-0.18505427 0.1251059 1.0953572
-0.32217062 0.13175336 1.097
-0.31389368 0.13410258 1.0961819
-0.30629176 0.13646683 1.092077
-0.29813677 0.13855717 1.09
-0.19293971 0.13777108 1.0913334
-0.18674527 0.13513672 1.0950589
-0.30321008 0.14248024 1.0956666
-0.29501376 0.14529122 1.0948125
-0.28698209 0.14804095 1.0930002
-0.20254268 0.14627105 1.093091
-0.19625445 0.14356413 1.0953751
-0.18849385 0.14137039 1.097
-0.29139611 0.15098742 1.097
-0.28463507 0.15230487 1.0954001
-0.27520746 0.15439095 1.0938236
-0.26597619 0.15643767 1.0917779
-0.25895858 0.15862407 1.09
-0.21181726 0.1589426 1.09
-0.20468976 0.15480186 1.0945001
-0.19907258 0.15194912 1.097
-0.27120036 0.16060446 1.097
-0.26419851 0.16164123 1.095875
-0.25472218 0.16482298 1.0945385
-0.24512725 0.16848555 1.0928572
-0.2337167 0.16817273 1.0915
-0.2256175 0.16705856 1.0934545
-0.21431999 0.16503119 1.0941739
-0.20742142 0.16167066 1.0964
-0.25100458 0.17022149 1.097
-0.24475351 0.17166404 1.097
-0.23475878 0.17166741 1.0960001
-0.22503859 0.17054206 1.097
-0.2152292 0.17176023 1.097
-0.31409487 -0.15196566 1.1041249
-0.29211149 -0.15107042 1.107
-0.2846835 -0.15337342 1.1067998
-0.27545172 -0.15305169 1.1072856
-0.26517764 -0.15250142 1.1079999
-0.25551984 -0.15363628 1.1068332
-0.24576251 -0.15457417 1.1049286
-0.32267547 -0.14287241 1.1036667
-0.3156516 -0.14446083 1.1065198
-0.30498144 -0.14262864 1.1067499
-0.29463187 -0.14489737 1.1034999
-0.28463537 -0.14574669 1.101
-0.2746622 -0.14508726 1.1023476
-0.26520261 -0.14526495 1.1033527
-0.25604126 -0.14649747 1.1013637
-0.24709377 -0.14912494 1.1010001
-0.23711991 -0.14767712 1.1010001
-0.33734089 -0.13802503 1.1010001
-0.32352957 -0.13626993 1.1024116
-0.31510812 -0.13598205 1.1029998
-0.3054224 -0.13716012 1.1018
-0.29631945 -0.13947284 1.1010001
-0.27624312 -0.13956937 1.1010001
-0.26832837 -0.13995545 1.1010001
-0.34322536 -0.1231043 1.1028334
-0.3458629 -0.11767935 1.1015713
-0.11679041 -0.10134705 1.1010001
-0.13279386 -0.096018277 1.1038889
-0.12465953 -0.096817903 1.1044374
-0.11731861 -0.097441062 1.1059999
-0.41087964 -0.070908308 1.108
-0.40471959 -0.072126873 1.1035556
-0.41087964 -0.063137531 1.108
-0.40590563 -0.065408677 1.1044443
-0.40454301 -0.054335885 1.1028999
-0.41143316 -0.043299444 1.1073999
-0.40355301 -0.0457885 1.1057646
-0.39698955 -0.043850694 1.1018
-0.41159815 -0.036676928 1.1068001
-0.40336788 -0.034256153 1.1079999
-0.39736235 -0.036278903 1.1052222
-0.15250318 -0.020269411 1.1010001
-0.14960755 -0.020269411 1.1010001
-0.13223377 -0.020269411 1.1010001
-0.41986635 -0.01061731 1.1010001
-0.15281583 -0.013428699 1.1013637
-0.14580764 -0.013621382 1.1021998
-0.13553423 -0.013636354 1.1025554
-0.41876322 -0.0059291474 1.101
-0.15375972 -0.0053253113 1.1051998
-0.14485791 -0.0061411965 1.1064999
-0.1361475 -0.0074370555 1.1066668
-0.42124069 0.006151862 1.108
-0.41542688 0.0051600598 1.1034443
-0.40828383 0.0086868899 1.1010001
-0.15444411 0.00097134669 1.108
-0.42059311 0.012627507 1.108
-0.41450381 0.013586642 1.1069286
-0.40747976 0.01508568 1.103
-0.41087964 0.027197707 1.108
-0.40585956 0.024327438 1.1041999
-0.41214466 0.047295287 1.1010001
-0.41276273 0.054144334 1.1068001
-0.40585473 0.056899335 1.1034545
-0.12659563 0.057014018 1.1023334
-0.4034189 0.063019186 1.1058888
-0.39618427 0.066807613 1.1044
-0.13030335 0.067564696 1.1010001
-0.12670018 0.065330319 1.1032726
-0.39474845 0.073125474 1.1072499
-0.38836595 0.074392177 1.102
-0.14188586 0.078182012 1.1010001
-0.13417454 0.075445972 1.1026189
-0.12787777 0.072162464 1.1034
-0.38676006 0.082087561 1.1068001
-0.16302218 0.087078318 1.1036249
-0.15511619 0.085485652 1.1032307
-0.14544004 0.083372921 1.1041874
-0.13849339 0.080870964 1.10475
-0.16826017 0.094068743 1.1062499
-0.36439255 0.10465024 1.1064444
-0.35745645 0.10946498 1.105
-0.17220387 0.1069952 1.102
-0.16975555 0.10525173 1.1065
-0.35374394 0.11463528 1.1049999
-0.34685543 0.1174103 1.1027778
-0.17529605 0.11505253 1.1039999
-0.35065615 0.12238968 1.108
-0.34408203 0.1245158 1.1063749
-0.33579034 0.12689134 1.1032
-0.18172178 0.12469443 1.1025999
-0.1778295 0.12410229 1.103111
-0.33415315 0.13274623 1.1075714
-0.32565871 0.13544269 1.1046427
-0.31723234 0.13705982 1.101
-0.1821834 0.13525006 1.101
-0.17810397 0.13340549 1.1015714
-0.32151574 0.14084527 1.108
-0.31523845 0.14387818 1.1064166
-0.30528423 0.14684604 1.1019999
-0.2982499 0.14960755 1.1010001
-0.19346635 0.1474214 1.1013076
-0.18580535 0.14499629 1.1047143
-0.31180227 0.15055872 1.108
-0.3039788 0.15276662 1.1070999
-0.29478043 0.15473174 1.1046922
-0.28529117 0.15788934 1.1024544
-0.27701527 0.15925965 1.1010001
-0.2017289 0.15925965 1.1010001
-0.19546045 0.15509953 1.1028749
-0.18771273 0.15225857 1.1079999
-0.29108024 0.16091977 1.108
-0.28377908 0.16337417 1.1076249
-0.27537924 0.16389179 1.105
-0.2656478 0.16690393 1.1042999
-0.25819367 0.16842915 1.1010001
-0.20503344 0.16587928 1.1041816
-0.19718337 0.16124354 1.108
-0.26129225 0.17192836 1.108
-0.25459066 0.17403696 1.1049166
-0.24536376 0.17661439 1.1046249
-0.2347344 0.17741895 1.1058749
-0.22500089 0.17602399 1.1052221
-0.214636 0.17533752 1.1043499
-0.20734063 0.17330979 1.1057777
-0.24186532 0.18164183 1.108
-0.23992263 0.18164183 1.108
-0.27173424 -0.17363523 1.1190001
-0.29135403 -0.16186334 1.1190001
-0.28388414 -0.16300529 1.1174002
-0.2748524 -0.16335045 1.1157334
-0.26527715 -0.16347627 1.1165999
-0.2558538 -0.1631711 1.1167501
-0.24858759 -0.16085079 1.1120001
-0.3128944 -0.15437333 1.1145
-0.3053976 -0.15354003 1.1175716
-0.29522192 -0.15573189 1.1153334
-0.28608629 -0.15832263 1.1125001
-0.2739338 -0.15841368 1.1120001
-0.26461852 -0.15803456 1.1120001
-0.25443673 -0.1589011 1.1120001
-0.31167537 -0.14779088 1.1127501
-0.3062413 -0.14784433 1.1128182
-0.13426258 -0.092514724 1.1161112
-0.1250142 -0.092294373 1.1140834
-0.11539769 -0.092617668 1.1136669
-0.10888989 -0.091232069 1.1190001
-0.12223135 -0.088485301 1.1190001
-0.11521183 -0.088398099 1.1190001
-0.10732031 -0.088485293 1.1190001
-0.41041327 -0.043868404 1.1120001
-0.40846354 -0.042893544 1.1120001
-0.41193429 -0.036686871 1.1138572
-0.40753955 -0.035912476 1.1132001
-0.15207711 -0.00097485335 1.1120001
-0.14441755 -0.0015319124 1.1120001
-0.13616247 -0.0027663943 1.1147501
-0.42406121 0.0068239733 1.1120001
-0.15196891 0.0034926399 1.1142857
-0.14499043 0.0043858117 1.1158695
-0.13761574 0.0018198348 1.1178572
-0.42231613 0.015443886 1.1145999
-0.41674978 0.018034786 1.1120001
-0.14309567 0.010781247 1.118
-0.42182571 0.02060079 1.1190001
-0.41533926 0.023178827 1.1142728
-0.4208447 0.059840389 1.1190001
-0.41514972 0.058192994 1.1125001
-0.12393323 0.056677368 1.1131539
-0.41413987 0.064916208 1.1172727
-0.40706953 0.067177311 1.1141113
-0.12257765 0.065456219 1.1144118
-0.1180786 0.065133199 1.1184286
-0.41103479 0.072593257 1.1190001
-0.4049843 0.074614719 1.1164618
-0.39714941 0.077423058 1.1138572
-0.12484834 0.075410955 1.1158181
-0.11869979 0.071612269 1.1190001
-0.39431968 0.083388239 1.1161112
-0.38920975 0.086060174 1.1155001
-0.15305197 0.088711649 1.1120001
-0.14417824 0.087825894 1.1131251
-0.1347343 0.085148573 1.1153198
-0.12778951 0.082746372 1.1170001
-0.38670626 0.092409268 1.1190001
-0.37853912 0.098307937 1.1176667
-0.16502038 0.094934478 1.1138333
-0.15548298 0.092450105 1.1154616
-0.14522091 0.091704108 1.1167779
-0.37427306 0.10503782 1.1160588
-0.36720029 0.10765613 1.113
-0.17059933 0.10820872 1.1120001
-0.16831322 0.10348547 1.11625
-0.37506518 0.11215986 1.1190001
-0.36544159 0.11427004 1.1164376
-0.35939273 0.11546373 1.113
-0.17262194 0.11652303 1.1142857
-0.36198533 0.12164277 1.1190001
-0.35485578 0.12466531 1.1157777
-0.34802261 0.12770578 1.1120001
-0.17653111 0.1248992 1.1142857
-0.35021344 0.13047168 1.1190001
-0.34257722 0.13442558 1.1165
-0.33564451 0.1365348 1.1133335
-0.32852557 0.13940403 1.1120001
-0.17887945 0.13587019 1.115
-0.3354986 0.14126256 1.1190001
-0.32459036 0.1447897 1.1146667
-0.31738925 0.14845315 1.1126001
-0.18283273 0.14651492 1.1152858
-0.32078373 0.15205345 1.1190001
-0.31461179 0.15494004 1.1158463
-0.30638951 0.15714577 1.1133637
-0.29830509 0.1589011 1.1120001
-0.19107124 0.15792623 1.1120001
-0.18496989 0.156177 1.1148
-0.30394578 0.16287173 1.1175001
-0.2948696 0.16453432 1.1142859
-0.28619176 0.16733482 1.1133335
-0.27620846 0.16832466 1.1120001
-0.20179464 0.16767478 1.1120001
-0.19526598 0.16528346 1.1144348
-0.18717672 0.16281916 1.1178571
-0.28349453 0.17182019 1.1174001
-0.27475417 0.17198195 1.1153334
-0.26481989 0.17562364 1.1153078
-0.25791854 0.1779087 1.113
-0.20361097 0.17561597 1.1141335
-0.19783168 0.17237298 1.1171666
-0.25398865 0.18325965 1.116143
-0.24469395 0.18586589 1.1141176
-0.23519191 0.18541524 1.1145238
-0.2253069 0.18494675 1.1139524
-0.21502864 0.18540616 1.11472
-0.20834181 0.18291563 1.1157501
-0.24328552 0.19129305 1.1190001
-0.23288703 0.19168544 1.1190001
