# .PCD v0.7 - Point Cloud Data file format
VERSION 0.7
FIELDS x y z
SIZE 4 4 4
TYPE F F F
COUNT 1 1 1
WIDTH 1436
HEIGHT 1
VIEWPOINT 0 0 0 1 0 0 0
POINTS 1436
DATA ascii
-0.1466686 -0.042280056 1.1538
-0.13243978 -0.043943264 1.155
-0.12472036 -0.044849511 1.1552857
-0.11483895 -0.046166956 1.1545384
-0.10673285 -0.044007353 1.1539999
-0.095012598 -0.041933246 1.1554
-0.087534994 -0.041846983 1.153
-0.066190667 -0.044916015 1.1556667
-0.14410961 -0.038302947 1.1541427
-0.13396671 -0.03748057 1.1554999
-0.12814032 -0.038205426 1.1570001
-0.090272993 -0.039557829 1.1570001
-0.083766699 -0.037136156 1.1562725
-0.076714717 -0.033083022 1.1535714
-0.067829534 -0.035432398 1.1548181
-0.074044146 -0.029414797 1.1570001
-0.21008877 -0.27157819 1.169
-0.20424765 -0.27365938 1.1675454
-0.19643731 -0.27175528 1.161
-0.23775901 -0.26952854 1.169
-0.22403128 -0.26330507 1.1686666
-0.21452646 -0.2647354 1.1671333
-0.20467645 -0.26511705 1.1641111
-0.1957588 -0.2655353 1.1609999
-0.23058525 -0.25313136 1.169
-0.22493741 -0.25455245 1.1671054
-0.21493828 -0.25486532 1.1619599
-0.2069547 -0.25750592 1.1610001
-0.19847295 -0.25954154 1.161
-0.23673418 -0.24288313 1.169
-0.22521996 -0.24487567 1.1665558
-0.21616526 -0.2452133 1.1612667
-0.23140511 -0.23468454 1.169
-0.2244481 -0.23486251 1.1625556
-0.21832025 -0.23765863 1.161
-0.23186627 -0.22443631 1.169
-0.22466551 -0.22549576 1.1624545
-0.21882915 -0.22188258 1.161
-0.23286264 -0.21396032 1.169
-0.22533204 -0.215032 1.1643335
-0.21720067 -0.21333298 1.1610001
-0.23512377 -0.20496467 1.1689999
-0.22515653 -0.20562936 1.1664547
-0.21492058 -0.2047312 1.1618695
-0.20690623 -0.20196259 1.1610001
-0.2361193 -0.19697104 1.1689999
-0.22218171 -0.19635615 1.1689999
-0.21426664 -0.1948514 1.1625239
-0.20735565 -0.19477183 1.1610001
-0.25108171 -0.18139373 1.169
-0.24454534 -0.18393624 1.1682941
-0.23553477 -0.18389547 1.1681427
-0.2225443 -0.18454704 1.1689999
-0.21414845 -0.18457028 1.1632001
-0.20865105 -0.18422361 1.161
-0.25199267 -0.17478932 1.169
-0.2449059 -0.17535628 1.1666366
-0.23454086 -0.17540349 1.1632222
-0.22532985 -0.17538302 1.164158
-0.215205 -0.17542626 1.1633999
-0.20763324 -0.17506333 1.1610001
-0.25210655 -0.16602139 1.169
-0.24509257 -0.16475262 1.1666365
-0.2351141 -0.16590306 1.1609999
-0.22615738 -0.1677351 1.1610001
-0.21543646 -0.169635 1.1610001
-0.20865105 -0.16997427 1.161
-0.24234405 -0.15528956 1.1671538
-0.23514606 -0.15537573 1.1619232
-0.24083348 -0.14757456 1.169
-0.23458377 -0.14571536 1.1642941
-0.2283287 -0.14215413 1.161
-0.23165584 -0.1362054 1.1682
-0.22640033 -0.13506725 1.1635882
-0.23058525 -0.12810291 1.169
-0.22424772 -0.12611058 1.166
-0.21766594 -0.12315501 1.1610001
-0.22272155 -0.11698503 1.1661428
-0.21540074 -0.11458397 1.1609999
-0.21392596 -0.10798167 1.1620001
-0.036767401 -0.10111035 1.1650001
-0.03444241 -0.09564697 1.1634617
-0.034876022 -0.083938755 1.162231
-0.19033048 -0.072264507 1.161
-0.18894358 -0.071488664 1.165
-0.043184221 -0.071973696 1.1610001
-0.036384102 -0.074128777 1.1636668
-0.18497053 -0.064712025 1.1625
-0.061924923 -0.062534913 1.1618001
-0.055007093 -0.063590311 1.1631051
-0.045688655 -0.064371303 1.1624999
-0.037310492 -0.066270009 1.166
-0.18139373 -0.058414929 1.169
-0.17390262 -0.056041498 1.1623334
-0.062520608 -0.054485463 1.1664286
-0.054315638 -0.058414929 1.169
-0.045378897 -0.058348302 1.1676668
-0.15572493 -0.042748019 1.161
-0.1221372 -0.042748019 1.161
-0.11594355 -0.042332351 1.1615715
-0.10570627 -0.041873984 1.1650001
-0.063977204 -0.044763826 1.1658
-0.15293625 -0.03976297 1.1630001
-0.14554682 -0.036437593 1.161
-0.13379249 -0.033699941 1.1650001
-0.12505618 -0.035344251 1.164091
-0.11612611 -0.037223212 1.1661767
-0.10538322 -0.039899729 1.1670001
-0.093736537 -0.03655028 1.1647333
-0.086067706 -0.03344284 1.1624546
-0.06498868 -0.034903731 1.1661431
-0.12498899 -0.028506069 1.1672858
-0.11990433 -0.029719876 1.169
-0.082822494 -0.028628429 1.1663333
-0.074522182 -0.024958141 1.1644545
-0.06761793 -0.027014986 1.1661431
-0.076861747 -0.019471643 1.169
-0.24289365 -0.27170968 1.174
-0.23365359 -0.27304524 1.1762002
-0.22513634 -0.27270851 1.1753335
-0.21526667 -0.27415869 1.1748825
-0.20772266 -0.27662078 1.1730001
-0.24304949 -0.26572797 1.1760001
-0.23571183 -0.26453403 1.1741202
-0.22674675 -0.26659453 1.1730002
-0.21903428 -0.26839414 1.1730001
-0.2434254 -0.25373274 1.1758573
-0.23574628 -0.2551263 1.1732107
-0.24392547 -0.24509974 1.1747144
-0.23543738 -0.24563904 1.1731602
-0.24303217 -0.23718624 1.1763334
-0.23698655 -0.23565617 1.1732355
-0.24041794 -0.22494039 1.177
-0.23679636 -0.2255782 1.1730002
-0.24083069 -0.21565387 1.177
-0.23685867 -0.215378 1.1730002
-0.24326184 -0.20388041 1.1752224
-0.23548757 -0.20326656 1.1730002
-0.22931759 -0.20155267 1.1730001
-0.26105466 -0.19088978 1.177
-0.25453883 -0.19167835 1.1755002
-0.24488261 -0.19412324 1.1736668
-0.2346407 -0.19374946 1.1730002
-0.22700384 -0.1943544 1.1730002
-0.26193911 -0.18440394 1.177
-0.25534883 -0.18539017 1.1735336
-0.24628504 -0.1881844 1.1730001
-0.23372471 -0.18671535 1.1730002
-0.22726093 -0.18612772 1.1730002
-0.26179141 -0.17493813 1.1766001
-0.25680202 -0.17621836 1.1730002
-0.26208651 -0.16509387 1.177
-0.25639692 -0.16487558 1.1730002
-0.26270562 -0.15910922 1.177
-0.25447905 -0.15591241 1.1752224
-0.24791205 -0.15491804 1.1734002
-0.24394819 -0.14572626 1.1752224
-0.23805839 -0.14139538 1.1730001
-0.24144976 -0.13517061 1.177
-0.23577535 -0.13413776 1.1744287
-0.24110584 -0.12829168 1.177
-0.23392078 -0.12563826 1.1754616
-0.22794648 -0.12237126 1.1730001
-0.2280359 -0.11866122 1.177
-0.18882611 -0.065005712 1.177
-0.04010487 -0.060671471 1.1730001
-0.034875456 -0.062545583 1.173889
-0.17717257 -0.055622749 1.1750001
-0.060671471 -0.050388169 1.1730001
-0.055343717 -0.055046897 1.1752859
-0.044313505 -0.056304395 1.1755456
-0.035082448 -0.05881469 1.177
-0.10540383 -0.040619034 1.1730001
-0.061677497 -0.044283643 1.1747779
-0.12031461 -0.031878229 1.1730001
-0.1128207 -0.033799887 1.1748183
-0.10389782 -0.036067102 1.1755456
-0.097459614 -0.034315072 1.1743335
-0.062888555 -0.035050012 1.1760001
-0.12175475 -0.025223454 1.1745001
-0.11552154 -0.027829915 1.1757693
-0.093897142 -0.029923266 1.177
-0.085162029 -0.025949733 1.1755456
-0.065327272 -0.025350217 1.1754001
-0.08306285 -0.018573061 1.177
-0.075565532 -0.016348207 1.1761429
-0.068260595 -0.017940633 1.1762002
-0.22512607 -0.28114823 1.1834
-0.21845745 -0.28057805 1.1810001
-0.26144388 -0.27252498 1.1850001
-0.25438839 -0.27386683 1.1850001
-0.24796474 -0.27177763 1.1810001
-0.2319169 -0.27850735 1.1810001
-0.22479631 -0.27831945 1.1816667
-0.21638675 -0.27850735 1.1810001
-0.25382125 -0.26608118 1.1876665
-0.24721463 -0.26409698 1.1827143
-0.25416929 -0.25514579 1.1873529
-0.24685541 -0.25602561 1.1810001
-0.2551339 -0.24546193 1.1878573
-0.24917261 -0.24468614 1.1810001
-0.25194672 -0.23620409 1.1881112
-0.24681379 -0.23397045 1.1842729
-0.25120795 -0.22514904 1.189
-0.24618079 -0.22524083 1.1855716
-0.25228977 -0.21479087 1.1882001
-0.24633747 -0.21535446 1.184077
-0.27311561 -0.20316288 1.1884286
-0.26517603 -0.2042135 1.1881577
-0.25566655 -0.20553106 1.1862631
-0.24803866 -0.20544171 1.1810001
-0.28247866 -0.19700541 1.189
-0.27476892 -0.1946263 1.1871998
-0.26561579 -0.19534793 1.1845555
-0.2550562 -0.19705848 1.1813636
-0.24951774 -0.19878592 1.1810001
-0.27500549 -0.18468298 1.1872221
-0.26662484 -0.18562947 1.1817274
-0.27362636 -0.17624782 1.1874617
-0.26724902 -0.17524239 1.1828183
-0.27205509 -0.16781943 1.189
-0.2678391 -0.16544989 1.1836667
-0.26384202 -0.15469731 1.1856668
-0.25587532 -0.15124486 1.1816667
-0.24951774 -0.15012479 1.1810001
-0.26163152 -0.149057 1.189
-0.25455037 -0.14487998 1.1865237
-0.2477264 -0.14372659 1.1823335
-0.25190285 -0.13793853 1.189
-0.2467615 -0.13542192 1.1832223
-0.24540757 -0.12582007 1.1861429
-0.23723719 -0.12263536 1.1830002
-0.24286909 -0.11987101 1.189
-0.23335487 -0.11836644 1.187
-0.22688629 -0.11326943 1.189
-0.19596305 -0.071922608 1.189
-0.18137005 -0.054202549 1.189
-0.17535149 -0.052410264 1.1855716
-0.16990414 -0.051075477 1.189
-0.053394139 -0.051619258 1.1810001
-0.044143274 -0.052049529 1.181
-0.035009582 -0.054080077 1.1850001
-0.17303121 -0.048990764 1.189
-0.15948057 -0.04065191 1.189
-0.055764645 -0.045177598 1.1853808
-0.044018395 -0.045471035 1.1869999
-0.036315046 -0.045245521 1.1884286
-0.14513604 -0.033423666 1.1861428
-0.10504754 -0.032095637 1.181
-0.098357618 -0.030024957 1.1810001
-0.061085261 -0.034166329 1.1810001
-0.058272034 -0.034339912 1.187
-0.11371522 -0.023640336 1.181
-0.10572161 -0.02545511 1.18525
-0.094111428 -0.026672775 1.1854446
-0.086525686 -0.023315389 1.182
-0.062002249 -0.024415042 1.1815716
-0.058406662 -0.025415193 1.1867143
-0.12206487 -0.017656943 1.1850001
-0.11548605 -0.01781011 1.1852859
-0.10763381 -0.018944243 1.1874001
-0.082827464 -0.017600836 1.1810001
-0.07428588 -0.012424121 1.1810001
-0.064545996 -0.014942962 1.1838
-0.059414331 -0.017720064 1.189
-0.075475529 -0.0055858279 1.1855713
-0.067347579 -0.0069417381 1.1880001
-0.26355755 -0.27087861 1.1930001
-0.26294687 -0.26503953 1.1943333
-0.25832823 -0.26355755 1.1930001
-0.26317528 -0.2547932 1.1945386
-0.26273209 -0.24547617 1.1954615
-0.25832823 -0.24264029 1.1930001
-0.26129314 -0.23820698 1.197
-0.25687385 -0.23470952 1.1943334
-0.25562018 -0.22523758 1.1949999
-0.27393147 -0.21138801 1.1956667
-0.26477236 -0.21307646 1.1953335
-0.25767925 -0.21610448 1.1941429
-0.28334701 -0.20503902 1.1963334
-0.27715379 -0.20543742 1.193
-0.26878688 -0.20708093 1.1930001
-0.28348899 -0.19524343 1.1939231
-0.28310093 -0.18578024 1.1948181
-0.28128421 -0.17599609 1.1950001
-0.27765727 -0.17335995 1.1936666
-0.27456087 -0.16503513 1.1947144
-0.27133274 -0.15714075 1.1950001
-0.26783028 -0.15247531 1.1962001
-0.26274988 -0.14500038 1.1956667
-0.25832823 -0.14119154 1.1930001
-0.25527158 -0.13531744 1.1950001
-0.25289816 -0.12539971 1.197
-0.24856685 -0.12236601 1.1930001
-0.2435534 -0.1172097 1.1952857
-0.23479563 -0.11477614 1.1951818
-0.22640909 -0.10691301 1.1956667
-0.20042966 -0.07450527 1.197
-0.19833092 -0.075554639 1.197
-0.19413345 -0.066110313 1.197
-0.18930127 -0.061705936 1.1930001
-0.18499732 -0.056381315 1.1941427
-0.17884263 -0.051247302 1.1930001
-0.030431731 -0.052468501 1.197
-0.18154101 -0.049320389 1.197
-0.17506967 -0.047887698 1.194
-0.16370171 -0.043024167 1.197
-0.051770233 -0.042357463 1.1930001
-0.047900539 -0.042043705 1.1930001
-0.032444362 -0.044543143 1.1938888
-0.16028535 -0.037712447 1.1950001
-0.15491752 -0.036634147 1.194
-0.14654449 -0.030878391 1.194
-0.053935315 -0.035084639 1.1946667
-0.044672783 -0.037432157 1.195182
-0.03727499 -0.036972165 1.1952858
-0.14481306 -0.02833299 1.197
-0.10249461 -0.023008995 1.1930001
-0.096172608 -0.023255687 1.1950001
-0.088898383 -0.021963131 1.1930001
-0.055997781 -0.024540529 1.1962
-0.12110595 -0.012911838 1.1943334
-0.11460856 -0.012778819 1.1949999
-0.10524327 -0.015473424 1.1955885
-0.095792487 -0.019038571 1.1969999
-0.089196451 -0.01888866 1.197
-0.056568544 -0.015116112 1.1950003
-0.11123322 -0.0094443299 1.197
-0.10808511 -0.0094443299 1.197
-0.071118712 -0.0010458634 1.1930001
-0.063832141 -0.0038360015 1.1936666
-0.058625918 -0.0064093098 1.1965556
-0.073070817 0.0023593295 1.1949999
-0.065644979 0.0014684167 1.1962001
-0.27186835 -0.27186835 1.202
-0.2687071 -0.27186835 1.202
-0.28335392 -0.26319057 1.2056925
-0.27391168 -0.26405561 1.2038667
-0.26800457 -0.26343831 1.202
-0.28433505 -0.25655121 1.2057145
-0.27427527 -0.2550222 1.2041177
-0.2687071 -0.25465706 1.202
-0.27262408 -0.2458019 1.2044001
-0.26765335 -0.24420734 1.202
-0.26545805 -0.23552577 1.2041177
-0.26369214 -0.22424978 1.2037499
-0.2925967 -0.21224496 1.2060002
-0.28449562 -0.21280931 1.2025715
-0.27370691 -0.21630839 1.2036002
-0.26735002 -0.21778153 1.2030001
-0.29316309 -0.20616569 1.2060002
-0.28837717 -0.20583314 1.202
-0.29305154 -0.19583623 1.2053334
-0.28978217 -0.19494435 1.202
-0.2915923 -0.18628922 1.2060001
-0.28781143 -0.1844925 1.2025715
-0.28550506 -0.17463794 1.2043999
-0.28070253 -0.16493255 1.2060001
-0.27736768 -0.16346589 1.2030001
-0.2801739 -0.15964626 1.2060001
-0.27536196 -0.15469135 1.2041539
-0.2687071 -0.15068673 1.202
-0.2719585 -0.14643736 1.2052
-0.26707271 -0.14329205 1.2033333
-0.2639339 -0.13447145 1.20425
-0.25816956 -0.13277292 1.202
-0.26121965 -0.12691152 1.2044001
-0.25728512 -0.12436256 1.2033334
-0.25360271 -0.11799466 1.2053336
-0.24568816 -0.11413616 1.2036667
-0.23819382 -0.11223438 1.2040001
-0.24422705 -0.10889778 1.2060001
-0.23370211 -0.10549019 1.2053335
-0.2268071 -0.10320326 1.2033333
-0.22466774 -0.096739285 1.2060002
-0.21779554 -0.094096132 1.2060002
-0.21297915 -0.086107962 1.2060002
-0.20722297 -0.082994908 1.2060001
-0.20395514 -0.075781353 1.2044616
-0.19810563 -0.070601471 1.202
-0.20193666 -0.068721898 1.2060001
-0.1960678 -0.065162629 1.2041819
-0.19104671 -0.056995608 1.204
-0.1874249 -0.054151118 1.2033334
-0.18375985 -0.047522932 1.2046667
-0.17369713 -0.04374041 1.2052001
-0.1678102 -0.045047954 1.202
-0.17021886 -0.038061358 1.2060001
-0.16477019 -0.036544375 1.2048001
-0.15583569 -0.03271389 1.2037778
-0.051633913 -0.032666355 1.202
-0.045698632 -0.032575428 1.2042857
-0.034628917 -0.034799866 1.2029999
-0.15189302 -0.027841181 1.2060001
-0.14504714 -0.025891036 1.2055002
-0.09589155 -0.020021314 1.202
-0.053239465 -0.025187636 1.2042857
-0.049691219 -0.02854602 1.2060001
-0.13638654 -0.017973419 1.2060001
-0.10137107 -0.012855791 1.202
-0.095320255 -0.014771543 1.2036668
-0.05309619 -0.015121331 1.2033334
-0.11409046 -0.0071683279 1.2028
-0.10455185 -0.0075670942 1.2046669
-0.098325178 -0.0095153395 1.2060001
-0.055481076 -0.004641775 1.2032
-0.073060237 0.0059712692 1.202
-0.064199112 0.0047907811 1.2035384
-0.057572454 0.0026422732 1.205
-0.27686009 -0.26625243 1.21
-0.29174328 -0.25113431 1.2190001
-0.28475419 -0.2523019 1.2135
-0.27959648 -0.25195339 1.2126667
-0.28404894 -0.24728715 1.2190001
-0.27743423 -0.24362783 1.2125
-0.27421099 -0.23496602 1.2143573
-0.26837397 -0.23124713 1.21
-0.27434757 -0.22495918 1.2150909
-0.26796249 -0.22760896 1.2113334
-0.30311042 -0.21142687 1.2160001
-0.29807544 -0.21109256 1.21
-0.28392166 -0.21658196 1.2130001
-0.27732122 -0.21887738 1.2120001
-0.30429938 -0.20477933 1.2162
-0.29764935 -0.20418356 1.2115
-0.30474058 -0.19533208 1.2168334
-0.29767919 -0.19400224 1.2122223
-0.30342725 -0.18516259 1.219
-0.29610971 -0.1843524 1.2129999
-0.29426128 -0.17598271 1.2154167
-0.28770536 -0.17198534 1.2110001
-0.2924557 -0.16742288 1.219
-0.28649497 -0.16468404 1.2142143
-0.29174328 -0.15922984 1.2190001
-0.2850402 -0.15507904 1.2150589
-0.27898163 -0.15168963 1.21
-0.28276652 -0.1459785 1.2190001
-0.27688149 -0.14542626 1.2122308
-0.27411613 -0.1365203 1.2152857
-0.26837397 -0.13153507 1.21
-0.26542521 -0.12441496 1.2130001
-0.26074696 -0.11813434 1.2140001
-0.25568956 -0.11444219 1.2144167
-0.24609786 -0.1113805 1.21
-0.25061926 -0.10877724 1.2165
-0.24402551 -0.10565993 1.2128751
-0.23746018 -0.10289437 1.21
-0.24044774 -0.097247757 1.2190001
-0.23438145 -0.09552142 1.2134
-0.22538224 -0.091892198 1.2104001
-0.2195787 -0.090165168 1.21
-0.2237411 -0.08544232 1.2161428
-0.2166616 -0.084330954 1.21
-0.21464126 -0.076217972 1.2145294
-0.20837899 -0.073585644 1.2106668
-0.21159402 -0.067325369 1.2190001
-0.20465177 -0.06518589 1.2137334
-0.1976562 -0.061170876 1.21
-0.20197611 -0.058776118 1.2190001
-0.19600032 -0.054546785 1.2137334
-0.18987723 -0.051977567 1.21
-0.19241868 -0.046634503 1.2160001
-0.18601902 -0.044108462 1.2125
-0.17767841 -0.041900285 1.21
-0.18343939 -0.036637459 1.2173333
-0.17546684 -0.035086453 1.2130476
-0.16572058 -0.03196346 1.2108889
-0.15805423 -0.030762233 1.21
-0.032211658 -0.032210488 1.2113334
-0.028735381 -0.030863926 1.2140001
-0.17461851 -0.028426265 1.2190001
-0.16446599 -0.025431821 1.2169474
-0.15531881 -0.023591606 1.2147895
-0.14556077 -0.021804651 1.21
-0.051033545 -0.022326803 1.2128335
-0.045191966 -0.025310826 1.2145556
-0.03614369 -0.027229905 1.216
-0.15281789 -0.016945841 1.219
-0.14490873 -0.014912648 1.2153749
-0.13599946 -0.013802374 1.2112308
-0.12451998 -0.011707007 1.2140001
-0.091756321 -0.012198816 1.21
-0.087195016 -0.013789965 1.21
-0.051102217 -0.014194841 1.2145001
-0.14319998 -0.0096179098 1.2190001
-0.13517861 -0.0076176072 1.2168571
-0.12487391 -0.0063176104 1.2146667
-0.11556932 -0.002712504 1.2118889
-0.10469007 -0.002652209 1.2103333
-0.094507582 -0.0051389462 1.2135835
-0.085780896 -0.0054560229 1.2140002
-0.051365331 -0.0049341987 1.2138182
-0.11229204 0.0041534519 1.2173333
-0.10570136 0.004389761 1.2165557
-0.09778209 0.001602985 1.2190001
-0.072132133 0.0095469002 1.21
-0.063797541 0.008940747 1.21
-0.053919107 0.0055438094 1.2136316
-0.071188837 0.012751993 1.2120001
-0.064580768 0.014554079 1.2142777
-0.056708381 0.014641927 1.2163637
-0.061982084 0.020304477 1.2190001
-0.058776118 0.020304477 1.2190001
-0.29179412 -0.24842122 1.2246001
-0.28576007 -0.24474846 1.2238889
-0.28228647 -0.23541534 1.2262002
-0.27929854 -0.2337316 1.223
-0.28339142 -0.22409442 1.2254002
-0.27876246 -0.22729862 1.223
-0.28626761 -0.21979348 1.223
-0.31242841 -0.20392546 1.223
-0.30985519 -0.20692752 1.223
-0.31199953 -0.1962059 1.223
-0.30985519 -0.19513373 1.223
-0.30985519 -0.1897729 1.223
-0.29698923 -0.17154613 1.223
-0.29622963 -0.16403963 1.2247778
-0.29409474 -0.15527461 1.2243333
-0.28841195 -0.15117502 1.223
-0.29190692 -0.14863855 1.2256669
-0.28613374 -0.14408948 1.2240909
-0.28443784 -0.13781042 1.2262001
-0.27762333 -0.13290496 1.2246001
-0.27226782 -0.1277242 1.2243334
-0.269113 -0.12222662 1.223
-0.26257175 -0.11598124 1.2250001
-0.25731921 -0.11043283 1.223
-0.25465676 -0.10780749 1.2256669
-0.248073 -0.1014825 1.2250001
-0.243044 -0.097108804 1.2240001
-0.23720641 -0.09194801 1.2243334
-0.23158729 -0.087917387 1.223
-0.22641143 -0.082086243 1.2240001
-0.22283858 -0.076784164 1.2250001
-0.2190787 -0.072549723 1.223
-0.22051235 -0.069918551 1.2270001
-0.21486351 -0.065971993 1.2247779
-0.20835708 -0.061828088 1.223
-0.21190698 -0.059161849 1.2270001
-0.20462365 -0.054750934 1.2246
-0.20197861 -0.045616593 1.2264287
-0.19651622 -0.043973893 1.2234445
-0.19395471 -0.036037602 1.2259334
-0.18690462 -0.034221001 1.2233635
-0.18386549 -0.027417751 1.2265002
-0.17494345 -0.023610607 1.22425
-0.16761488 -0.021085879 1.223
-0.04400428 -0.020393312 1.2243334
-0.034678675 -0.022556005 1.2252858
-0.027608864 -0.026533194 1.2270001
-0.1721072 -0.01721072 1.2270001
-0.16454007 -0.015346426 1.2255715
-0.15640011 -0.01412003 1.2233334
-0.050391678 -0.018226776 1.223
-0.045119837 -0.015040094 1.2255001
-0.035723567 -0.015002765 1.2269999
-0.026445353 -0.014620697 1.2262001
-0.16027483 -0.0096810302 1.2270001
-0.15451257 -0.0077195284 1.2262729
-0.14495362 -0.0051276232 1.2247777
-0.13520481 -0.0021452033 1.224
-0.1263621 -0.0016848283 1.2230002
-0.088989556 -0.0010721633 1.223
-0.045801118 -0.006045165 1.2257501
-0.038724121 -0.0086053601 1.2270001
-0.026871584 -0.009135305 1.2260001
-0.13316795 0.001505938 1.2270001
-0.12370205 0.00107567 1.2270001
-0.115983 0.0053713368 1.2250001
-0.10192075 0.0083691869 1.2238001
-0.095462315 0.0052384124 1.22525
-0.0865146 0.0019976727 1.2270001
-0.050474085 0.0085930862 1.2250001
-0.04832625 0.0042991731 1.2250001
-0.13302453 0.013266596 1.2270001
-0.11150499 0.011793797 1.223
-0.10386454 0.01217807 1.2256669
-0.097885966 0.011832369 1.2270001
-0.068618454 0.018226776 1.223
-0.052350398 0.014891687 1.2258574
-0.064112678 0.023282416 1.2256669
-0.056379747 0.022285087 1.2250001
-0.29239923 -0.24434943 1.2344
-0.28765422 -0.24157192 1.2320001
-0.28707519 -0.23535889 1.2346668
-0.29156885 -0.22237293 1.2333335
-0.28668052 -0.22717939 1.2340001
-0.30274454 -0.16542934 1.2333335
-0.30122969 -0.1571162 1.2360001
-0.29701465 -0.15228751 1.2320001
-0.29316962 -0.14496033 1.2340001
-0.28537253 -0.13378763 1.2334547
-0.27973381 -0.13068645 1.2320001
-0.28064203 -0.12894364 1.2360001
-0.27571285 -0.12614298 1.2333335
-0.27153349 -0.11899698 1.2340001
-0.2664381 -0.11525088 1.2337779
-0.26157865 -0.10859913 1.2346667
-0.25522429 -0.10381837 1.2336001
-0.25102472 -0.096436836 1.2360001
-0.2457986 -0.09550757 1.2333335
-0.23377092 -0.085750528 1.2337143
-0.23079827 -0.079099879 1.2360001
-0.22614995 -0.074659936 1.2342857
-0.22177036 -0.067070261 1.2340001
-0.21766512 -0.063332506 1.2328001
-0.21323259 -0.056163549 1.2346668
-0.20845029 -0.051842563 1.2320001
-0.20626505 -0.045074105 1.2340001
-0.20175606 -0.036777917 1.2340001
-0.19808178 -0.033913676 1.2320001
-0.19338799 -0.027418626 1.2346667
-0.18620402 -0.022867782 1.2332308
-0.1782088 -0.020521013 1.2320001
-0.025823092 -0.024055732 1.2320002
-0.1840504 -0.017491754 1.2360001
-0.17492229 -0.015025286 1.2342224
-0.16848832 -0.012960641 1.2320001
-0.031321548 -0.016200799 1.2320001
-0.02916144 -0.017280854 1.2320001
-0.16396727 -0.0067844437 1.234182
-0.15507084 -0.0024568983 1.2338183
-0.14796731 -0.0010800533 1.2320001
-0.042662106 -0.0027001332 1.2320001
-0.035330404 -0.0051749176 1.2330528
-0.02826173 -0.0038583353 1.233143
-0.15169841 0.0010835599 1.2360001
-0.14459941 0.0040231491 1.2348573
-0.13550705 0.0063810819 1.2336001
-0.12516528 0.0064410088 1.234737
-0.11772581 0.0081003997 1.2320001
-0.092884585 0.0086404271 1.2320001
-0.085518077 0.0061757416 1.2325716
-0.078843892 0.0054002665 1.2320001
-0.044373114 0.0046400717 1.2345716
-0.038943283 0.0010818066 1.2340001
-0.13474996 0.012328038 1.2336
-0.12435982 0.013536901 1.2353334
-0.11738566 0.012641533 1.2360001
-0.10044496 0.015120747 1.2320001
-0.094888166 0.0142597 1.2338183
-0.088851921 0.01300272 1.2360001
-0.050762508 0.017280854 1.2320001
-0.048602398 0.015120747 1.2320001
-0.070431396 0.02058764 1.2360001
-0.065716885 0.027270567 1.2333335
-0.05463656 0.025864093 1.2332308
-0.048760198 0.0216712 1.2360001
-0.063930042 0.031423241 1.2360001
-0.059595801 0.031423241 1.2360001
-0.29613513 -0.24285707 1.2438571
-0.2922903 -0.23466174 1.245
-0.28830498 -0.23173192 1.2410001
-0.30669746 -0.16480894 1.245
-0.28830498 -0.13164115 1.2410001
-0.28431511 -0.12832244 1.2426001
-0.27729404 -0.12319943 1.2436666
-0.27177104 -0.11678515 1.245
-0.2626169 -0.10460913 1.243
-0.25784257 -0.10117873 1.2410001
-0.25469708 -0.09580151 1.2438571
-0.24690802 -0.091440722 1.2438571
-0.24375717 -0.087315999 1.245
-0.23737787 -0.084211498 1.2435
-0.23357029 -0.077492952 1.245
-0.22811306 -0.07094425 1.245
-0.22320153 -0.063849822 1.245
-0.21709988 -0.054080188 1.2444286
-0.2126618 -0.047438625 1.2440001
-0.20922001 -0.044674054 1.243
-0.2051926 -0.03601785 1.245
-0.19370739 -0.022168271 1.2436666
-0.19039008 -0.018495036 1.2410001
-0.18366289 -0.013288339 1.2426
-0.17787874 -0.012511348 1.2410001
-0.1811807 -0.0098230503 1.245
-0.17414506 -0.0083607696 1.2441111
-0.16617785 -0.0038130616 1.243
-0.031550355 -0.0010879433 1.2410001
-0.16044314 0.00327435 1.245
-0.15530391 0.0027198584 1.2410001
-0.14904824 0.0054397169 1.2410001
-0.081595749 0.0087035466 1.2410001
-0.078862891 0.0090872347 1.2436666
-0.041341849 0.0087035466 1.2410001
-0.035086129 0.0052301935 1.243
-0.028377701 0.00109145 1.245
-0.093200482 0.018495036 1.2410001
-0.084585011 0.015478251 1.2434
-0.077492952 0.013097399 1.245
-0.042688482 0.014957767 1.2428182
-0.038200751 0.01200595 1.245
-0.092278466 0.021597385 1.2442
-0.087244987 0.021812344 1.244
-0.07094425 0.02292045 1.245
-0.051133335 0.029374469 1.2410001
-0.046120163 0.025299527 1.2427778
-0.062778227 0.035363104 1.2438571
-0.054664984 0.033964258 1.243
-0.048387617 0.032379683 1.245
-0.30422235 -0.24271539 1.2527778
-0.31014624 -0.23509307 1.2590001
-0.30482653 -0.23516554 1.2567779
-0.29698923 -0.23579001 1.251
-0.30375421 -0.22766167 1.2558891
-0.29697084 -0.22738542 1.25
-0.3123537 -0.16003989 1.2590001
-0.30792916 -0.1610875 1.25
-0.31088206 -0.15709662 1.2590001
-0.30671585 -0.15720388 1.2540001
-0.29248667 -0.12692818 1.2590001
-0.28570768 -0.12481128 1.2539091
-0.27943751 -0.1216375 1.25
-0.28197333 -0.11838698 1.2574002
-0.27563795 -0.11417614 1.2540714
-0.26847917 -0.11067916 1.25
-0.27350453 -0.10677732 1.2585555
-0.26717004 -0.10350289 1.2541429
-0.26179743 -0.09679386 1.25475
-0.25780645 -0.093742989 1.2531667
-0.25355285 -0.085467979 1.2564
-0.24657273 -0.0841996 1.2528334
-0.24300718 -0.077082813 1.2561668
-0.23616378 -0.074632086 1.252
-0.23300689 -0.066886745 1.2576667
-0.22766577 -0.064327367 1.2532222
-0.23840424 -0.054082442 1.2590001
-0.22458003 -0.054896191 1.2543076
-0.22355242 -0.046957597 1.2574
-0.21631907 -0.043823626 1.2543572
-0.20930417 -0.040545832 1.25
-0.2128177 -0.036388151 1.2578
-0.20658755 -0.033217952 1.2548001
-0.20414883 -0.026544927 1.2576923
-0.19854045 -0.02352272 1.2540001
-0.18178415 -0.0069475831 1.2516667
-0.17559649 -0.0030957491 1.2540001
-0.16909365 -0.0021938584 1.2525001
-0.18321806 0.0011037233 1.2590001
-0.17273402 0.0011002166 1.2550001
-0.032896187 0.0076774084 1.2508334
-0.026764985 0.0065305824 1.2549335
-0.083283335 0.018629167 1.25
-0.076708332 0.017533332 1.25
-0.040545832 0.018629167 1.25
-0.035476271 0.015328988 1.2556924
-0.026489362 0.012876772 1.2589999
-0.091903009 0.026000472 1.253
-0.08435794 0.025140608 1.2543572
-0.075396724 0.024113126 1.2537334
-0.042226087 0.026255928 1.2526364
-0.03816428 0.024930822 1.2582
-0.066734202 0.036294583 1.2546667
-0.054791667 0.038354166 1.25
-0.044383414 0.035602827 1.253
-0.038630318 0.034215424 1.2590001
-0.062413532 0.042293023 1.2552859
-0.054996222 0.042902309 1.2546667
-0.046461407 0.043825451 1.2559334
-0.31318626 -0.15492803 1.2653333
-0.30916175 -0.15402682 1.2640001
-0.2931307 -0.12359737 1.2656001
-0.28921583 -0.12299984 1.2640001
-0.29013109 -0.11894263 1.268
-0.28472328 -0.11455278 1.2651428
-0.28135037 -0.10765466 1.266
-0.27606118 -0.10270404 1.2657777
-0.27234527 -0.097821973 1.268
-0.26594862 -0.095307194 1.2662858
-0.26095447 -0.087722778 1.2666668
-0.25661436 -0.082455762 1.2653333
-0.25344783 -0.078368738 1.268
-0.2447954 -0.073674068 1.2651428
-0.24158566 -0.067753188 1.2670001
-0.2362508 -0.064107135 1.2651999
-0.24156725 -0.05651344 1.2640001
-0.23450395 -0.054637805 1.2654999
-0.22937807 -0.052081011 1.2640001
-0.23343879 -0.047799371 1.268
-0.22716187 -0.045063004 1.2640001
-0.22162133 -0.037675627 1.2640001
-0.21693467 -0.033629518 1.2646667
-0.2123871 -0.029180141 1.2640001
-0.20721593 -0.025486454 1.2640001
-0.18062139 0.0011081067 1.2640001
-0.02327024 0.0044324268 1.2640001
-0.032135092 0.017729707 1.2640001
-0.026090873 0.01722602 1.2640001
-0.09418907 0.027702667 1.2640001
-0.085324213 0.029918879 1.2640001
-0.077013418 0.028810773 1.2640001
-0.034057286 0.024329795 1.2658461
-0.025150103 0.02293331 1.2656666
-0.018867619 0.022198953 1.266
-0.09270855 0.032681428 1.268
-0.085537419 0.032216448 1.2672001
-0.074171692 0.033613589 1.2675
-0.069810718 0.03656752 1.2640001
-0.037181184 0.033851605 1.266
-0.070031643 0.042241305 1.268
-0.065204717 0.045506012 1.266
-0.055247035 0.04859839 1.2640001
-0.043437783 0.047426965 1.2640001
-0.038783733 0.045432374 1.2640001
-0.06187981 0.050763678 1.268
-0.054785706 0.055453032 1.2675998
-0.044982642 0.055122171 1.267
-0.052690469 0.062028028 1.268
-0.045576148 0.061138734 1.268
-0.29092535 -0.11539914 1.2780001
-0.28681114 -0.11159967 1.273
-0.28545067 -0.10417157 1.2746665
-0.28407109 -0.097672462 1.2752726
-0.27471969 -0.093806684 1.2758124
-0.2674672 -0.092627726 1.273
-0.27150542 -0.087016188 1.278
-0.26535577 -0.08449997 1.2749999
-0.26218873 -0.078140274 1.2770001
-0.2551946 -0.075550035 1.27675
-0.248798 -0.072122052 1.2755001
-0.24556454 -0.064887255 1.276125
-0.23993929 -0.061379816 1.273
-0.24312246 -0.05938014 1.2780001
-0.23882329 -0.054683834 1.273
-0.23770729 -0.047987856 1.273
-0.031247906 0.027899917 1.273
-0.023898985 0.027475435 1.2739999
-0.019009201 0.026838712 1.2755001
-0.093743719 0.033479899 1.273
-0.084982313 0.035784218 1.2754999
-0.076709472 0.037126042 1.2754999
-0.032404814 0.031290282 1.2746667
-0.025377018 0.030977458 1.2771667
-0.019046459 0.030250261 1.2780001
-0.072824702 0.04313463 1.2780001
-0.068075798 0.047987856 1.273
-0.039059885 0.042407874 1.273
-0.06482143 0.054760549 1.2747858
-0.06274128 0.06274128 1.2780001
-0.054749925 0.065410316 1.2745383
-0.046239961 0.063663527 1.2739999
-0.052657861 0.07058394 1.2780001
-0.30148217 -0.12533528 1.2880001
-0.29751611 -0.12170894 1.2855
-0.29301047 -0.11382684 1.2855
-0.29131371 -0.10685251 1.2830001
-0.26315868 -0.073576592 1.2846667
-0.25644603 -0.071984857 1.2830001
-0.26196203 -0.068877943 1.2880001
-0.25494167 -0.067118466 1.2867501
-0.24905705 -0.063107289 1.2855
-0.25082222 -0.059612457 1.2830001
-0.24744794 -0.059612457 1.2830001
-0.094926871 0.036754075 1.286
-0.085568585 0.03940507 1.2842501
-0.032953802 0.036965623 1.2863334
-0.024485737 0.036566831 1.2862145
-0.018039498 0.036078449 1.2861251
-0.081976049 0.043585062 1.2880001
-0.075875737 0.045774039 1.2848182
-0.03048696 0.041778427 1.2880001
-0.024464846 0.041778427 1.2880001
-0.019195493 0.041778427 1.2880001
-0.071081005 0.05528874 1.2870001
-0.067949854 0.058940053 1.2846667
-0.071136236 0.065490499 1.2880001
-0.065440804 0.065440819 1.2853076
-0.059612457 0.067485802 1.2830001
-0.046925042 0.067949854 1.2846668
-0.064361356 0.072265387 1.2880001
-0.055097282 0.074381709 1.2855
-0.04711831 0.074206874 1.2873751
-0.053521555 0.080621071 1.2880001
-0.048553307 0.08016941 1.2880001
-0.30300361 -0.12256107 1.2945001
-0.30131471 -0.11825182 1.2970001
-0.29789934 -0.11432485 1.2948571
-0.30207273 -0.10726046 1.2970001
-0.29698977 -0.10731383 1.294
-0.26101217 -0.065818816 1.2945001
-0.25589532 -0.063348457 1.295
-0.10119626 0.028425917 1.2970001
-0.10228454 0.034094118 1.296375
-0.097484991 0.03794634 1.296
-0.036317229 0.039719574 1.2945001
-0.092857994 0.042828381 1.2970001
-0.085779995 0.045727804 1.2951818
-0.032942288 0.043166846 1.29575
-0.026806129 0.043418378 1.2920001
-0.08129812 0.053440724 1.2970001
-0.07598713 0.054438949 1.2936666
-0.074784413 0.063804016 1.29575
-0.069091856 0.069091856 1.2920001
-0.073907383 0.071633309 1.2970001
-0.063807636 0.07543157 1.293875
-0.045306131 0.078153081 1.2920001
-0.060146786 0.081711031 1.2945001
-0.055628885 0.08378531 1.2950001
-0.048011821 0.082793273 1.2936667
-0.32197073 -0.14666283 1.307
-0.31967914 -0.14666283 1.307
-0.31051269 -0.12603837 1.307
-0.30751365 -0.12460589 1.3040001
-0.30524412 -0.11444291 1.3032501
-0.10615206 0.019404139 1.302
-0.11259756 0.025982898 1.3048573
-0.10660863 0.026709229 1.302
-0.11223558 0.034359306 1.3063751
-0.10653254 0.036144968 1.302
-0.11228873 0.040103115 1.307
-0.10470624 0.045177057 1.3058463
-0.095750928 0.04654352 1.3033334
-0.087889336 0.049081061 1.302
-0.040103115 0.049269542 1.307
-0.034779821 0.046679527 1.3050001
-0.024754144 0.047601055 1.3031112
-0.1019765 0.051561151 1.307
-0.094653539 0.053001519 1.3065455
-0.0855821 0.055277485 1.3045001
-0.040103115 0.052706953 1.307
-0.032082494 0.051561151 1.307
-0.025207674 0.051561151 1.307
-0.083955519 0.064503707 1.305125
-0.077844843 0.06780035 1.302
-0.082497835 0.074477218 1.307
-0.075337224 0.075502157 1.3048571
-0.068034217 0.075866103 1.3027143
-0.081352033 0.084789447 1.307
-0.073713347 0.084407508 1.307
-0.06574066 0.084934965 1.3053334
-0.054407686 0.087128393 1.302
-0.04812374 0.087081052 1.307
-0.081924938 0.092237175 1.307
-0.074731842 0.092300825 1.307
-0.065298736 0.093938574 1.3067498
-0.055901326 0.093584232 1.3054616
-0.049269542 0.09166427 1.307
-0.32532763 -0.14424731 1.3128335
-0.31658888 -0.14348577 1.3120002
-0.3094002 -0.14147297 1.312
-0.32334018 -0.13656512 1.3135002
-0.31556842 -0.13547269 1.3128824
-0.30863342 -0.13572203 1.3120002
-0.31570327 -0.1258385 1.3147274
-0.31209657 -0.11631349 1.3136667
-0.12122985 0.01962769 1.317
-0.11731903 0.017252801 1.312
-0.12238441 0.025400542 1.317
-0.11761234 0.025498474 1.3134286
-0.1433976 0.036715321 1.317
-0.13662411 0.037331093 1.317
-0.12332907 0.034742054 1.3170002
-0.11754478 0.03457135 1.3145
-0.14287804 0.045316871 1.317
-0.13623926 0.044450946 1.317
-0.12353898 0.042389214 1.317
-0.11517762 0.045121316 1.3154376
-0.10850095 0.048691232 1.312
-0.03795616 0.049458027 1.312
-0.11314785 0.051955651 1.317
-0.10475972 0.055676285 1.3152144
-0.094808243 0.057673644 1.3120002
-0.040333241 0.057621107 1.3145001
-0.034569886 0.055317815 1.3145002
-0.026854929 0.056185193 1.3155715
-0.10368039 0.062577687 1.317
-0.09345641 0.063878961 1.3160911
-0.088733137 0.066840135 1.3145001
-0.042556908 0.062110081 1.312
-0.091211028 0.072737902 1.317
-0.086788028 0.075647645 1.3140835
-0.079362877 0.079362877 1.312
-0.09275046 0.085823037 1.317
-0.086376511 0.085221939 1.3136669
-0.077062503 0.085343853 1.3120002
-0.047157653 0.088564374 1.312
-0.092134684 0.09444382 1.317
-0.08621221 0.095041253 1.3140836
-0.077062503 0.096451364 1.3120002
-0.0529579 0.096708827 1.3132501
-0.049646508 0.095829308 1.317
-0.084365331 0.10202783 1.3142223
-0.074592054 0.10304967 1.3137648
-0.064732194 0.10281324 1.313154
-0.056419261 0.10247933 1.3134286
-0.32538596 -0.1319325 1.324
-0.32373244 -0.12640131 1.3262857
-0.32132286 -0.11758555 1.3280001
-0.3163943 -0.1151227 1.322
-0.15227911 0.016531829 1.3280001
-0.1446798 0.018230576 1.3273335
-0.13582489 0.019015485 1.3280001
-0.12586233 0.018775046 1.322
-0.15361874 0.025601737 1.3275
-0.14449902 0.025776723 1.3233334
-0.13493665 0.025589352 1.3268752
-0.12748486 0.025496975 1.322
-0.15510814 0.03516661 1.3245714
-0.14593898 0.033609644 1.3220003
-0.13471213 0.034546275 1.3224002
-0.12818024 0.034536809 1.322
-0.16182566 0.044240106 1.3280001
-0.15524179 0.044740487 1.3236667
-0.14776656 0.045006022 1.3220001
-0.13505216 0.045471869 1.3220003
-0.12579104 0.046625581 1.3220003
-0.11937219 0.04867604 1.322
-0.16182566 0.054718025 1.3280001
-0.1558698 0.054918628 1.3262354
-0.14486915 0.055629741 1.3220003
-0.13485907 0.055807605 1.3261251
-0.12520348 0.055646516 1.3223753
-0.11514539 0.056243308 1.3220003
-0.037086505 0.059106618 1.322
-0.16182566 0.065195948 1.3280001
-0.1549927 0.065213382 1.3269413
-0.14442772 0.064678334 1.322667
-0.13504873 0.065195948 1.3279998
-0.12559566 0.065124936 1.3265002
-0.11498033 0.064840391 1.3220003
-0.10488528 0.065867193 1.3220001
-0.097583875 0.066523924 1.322
-0.041940488 0.066147506 1.3237144
-0.034847502 0.06505394 1.3250002
-0.027878001 0.065053925 1.325
-0.16182566 0.071017012 1.3280001
-0.15251194 0.073345438 1.3280001
-0.14377891 0.074652813 1.3244708
-0.13504876 0.074509658 1.3279998
-0.12569855 0.074487619 1.327625
-0.11452778 0.074988753 1.3230437
-0.10430578 0.075331964 1.3220003
-0.095420472 0.075589508 1.3220003
-0.043312982 0.073568501 1.3273335
-0.036672719 0.071599118 1.3280001
-0.15018351 0.083823361 1.3280001
-0.14362149 0.084961981 1.3276001
-0.13504875 0.084987566 1.3279997
-0.12570585 0.084967837 1.3276999
-0.11543691 0.085517868 1.3263634
-0.10430577 0.085762538 1.3220003
-0.095479921 0.085673399 1.3220003
-0.14373556 0.096092381 1.3279999
-0.13454981 0.095465489 1.3279999
-0.12573506 0.095465489 1.3279998
-0.11523213 0.095444717 1.3276997
-0.10445669 0.095171914 1.3238752
-0.096193127 0.095139533 1.3220001
-0.050061174 0.098958135 1.3280001
-0.047732748 0.094301276 1.3280001
-0.15134773 0.10827184 1.3280001
-0.14436246 0.10477921 1.3279998
-0.13454978 0.10511183 1.3279999
-0.12573504 0.1047792 1.3279998
-0.11525712 0.10459539 1.3279997
-0.1046934 0.10469143 1.326875
-0.09503416 0.10430578 1.3220003
-0.086921506 0.10645813 1.3219999
-0.076877236 0.10778266 1.322
-0.063742436 0.10778266 1.322
-0.053517185 0.10484818 1.3240001
-0.047732748 0.10128656 1.3280001
-0.14378035 0.11438397 1.3279998
-0.13446663 0.11312274 1.3280001
-0.12668757 0.11356371 1.3280001
-0.11475819 0.11525712 1.3279999
-0.1047792 0.11525713 1.3279997
-0.095403157 0.11518057 1.3270999
-0.08517272 0.11527152 1.3246088
-0.074807152 0.11459074 1.3239095
-0.064990804 0.11489785 1.3238002
-0.057633661 0.11453126 1.3269092
-0.1129287 0.1222424 1.3280001
-0.10433144 0.12510815 1.3279999
-0.095465489 0.12573504 1.3279998
-0.084987566 0.12573503 1.3279997
-0.074842282 0.12523611 1.3279999
-0.065778054 0.12476486 1.3280001
-0.058598738 0.12301854 1.3280001
-0.094766967 0.1336517 1.3280001
-0.085524902 0.13352633 1.3279999
-0.078002296 0.13272032 1.3280001
-0.32554415 -0.12276714 1.3337144
-0.16219115 0.015675277 1.3380002
-0.15703204 0.014326267 1.3342501
-0.17008209 0.0293245 1.3380001
-0.16336884 0.026085595 1.3351429
-0.15776055 0.023371935 1.3330001
-0.17190674 0.036101721 1.3380002
-0.16432762 0.034770038 1.3347858
-0.17394602 0.044366252 1.3379999
-0.16601908 0.044425853 1.3336251
-0.17226049 0.054794926 1.3380001
-0.16552351 0.055388033 1.3339092
-0.1731499 0.066318482 1.3380001
-0.16529152 0.065830946 1.3330001
-0.17394602 0.074863732 1.3379999
-0.16368145 0.075023904 1.3330001
-0.15620242 0.076737843 1.3330001
-0.04097759 0.077274218 1.3355
-0.034864064 0.075344853 1.3345001
-0.028301958 0.073211133 1.334
-0.17309833 0.084119424 1.3380001
-0.1637194 0.084198952 1.3339375
-0.15452793 0.084550403 1.3333335
-0.14841178 0.086476155 1.3330001
-0.045746222 0.083281577 1.3380001
-0.17138541 0.093708068 1.3380002
-0.16421719 0.095011398 1.3379998
-0.15477864 0.095106997 1.3358947
-0.14763272 0.093098201 1.3330001
-0.139063 0.095824927 1.3330001
-0.047912464 0.096214451 1.3330001
-0.17008209 0.1055682 1.3380001
-0.16358559 0.10583889 1.3380001
-0.1547571 0.10478371 1.3344287
-0.139063 0.1028365 1.3330001
-0.11569107 0.10867949 1.3330001
-0.051157296 0.10817219 1.3363334
-0.047912464 0.10400511 1.3330001
-0.16340515 0.11468135 1.3380001
-0.15447338 0.11468466 1.3348751
-0.14724317 0.11802826 1.3330001
-0.1373101 0.11744396 1.3330001
-0.12303655 0.11569107 1.3330001
-0.114912 0.11335387 1.3330001
-0.053365916 0.11335388 1.3330001
-0.16280963 0.12363209 1.3380002
-0.15445851 0.12454551 1.3365295
-0.14516567 0.12555923 1.3330001
-0.13574734 0.12404822 1.334875
-0.12478549 0.12446678 1.3336819
-0.1145912 0.12572725 1.3330001
-0.10712136 0.12893517 1.3330001
-0.072452992 0.12971424 1.3330001
-0.063688517 0.12912995 1.3330001
-0.057845533 0.12445554 1.3330001
-0.16069826 0.13020077 1.3380001
-0.15366039 0.13382635 1.3380002
-0.14521527 0.13584241 1.3358126
-0.13489272 0.13489272 1.3379998
-0.12454589 0.13535897 1.3374443
-0.11471068 0.13578376 1.3351874
-0.10527232 0.13568763 1.3342501
-0.096993528 0.13789441 1.3330001
-0.084305897 0.13839523 1.3330001
-0.075044714 0.13487527 1.3352224
-0.066384122 0.13316362 1.3363334
-0.15131442 0.14896846 1.3380001
-0.14544952 0.14544952 1.3379999
-0.13382636 0.14363673 1.3380002
-0.12457049 0.14404196 1.3380002
-0.11495205 0.14486302 1.3380002
-0.10478622 0.14505854 1.3380002
-0.095333517 0.14541066 1.3352222
-0.087415211 0.14244592 1.3355001
-0.14544952 0.15131442 1.3380001
-0.12550886 0.1524874 1.3380001
-0.116907 0.15209641 1.3379999
-0.10439522 0.15131442 1.3380001
-0.095011376 0.15131442 1.3380001
-0.3308391 -0.12126842 1.3430001
-0.32848436 -0.12126842 1.3430001
-0.17228167 0.0070799598 1.3460001
-0.16561578 0.0074566342 1.3430001
-0.17214169 0.014183589 1.348
-0.1671856 0.014128359 1.3430002
-0.18238409 0.027966835 1.348
-0.17385615 0.025436107 1.3451431
-0.16836296 0.022369904 1.3430001
-0.19040236 0.03902657 1.3490001
-0.18398374 0.03550389 1.3470002
-0.17643631 0.034143537 1.3430002
-0.01419148 0.03902657 1.3490001
-0.0059131165 0.034296077 1.3490001
-0.19158499 0.044939686 1.3490001
-0.18407141 0.045014199 1.3442003
-0.19242971 0.053893834 1.3490001
-0.18432277 0.054420356 1.3430003
-0.17778187 0.054158714 1.3430001
-0.1933057 0.065929368 1.3478
-0.18484603 0.064345464 1.3430003
-0.17699695 0.06318517 1.3430001
-0.19439581 0.075496025 1.3485717
-0.184569 0.075697541 1.3430003
-0.034296077 0.079235762 1.3490001
-0.19141604 0.084642038 1.3490001
-0.18387645 0.084867455 1.3445003
-0.17778187 0.087124884 1.3430001
-0.044290822 0.085385956 1.3447144
-0.037843946 0.081601009 1.3490001
-0.19040236 0.093427241 1.3490001
-0.18408421 0.094399467 1.3460004
-0.17631015 0.095072083 1.3430002
-0.04601974 0.09440209 1.3460001
-0.18420653 0.10508804 1.3469003
-0.17487308 0.10492384 1.3430003
-0.16757806 0.10478535 1.3430001
-0.046122309 0.10052298 1.3490001
-0.18403262 0.11560614 1.3456253
-0.17424977 0.11538161 1.3430003
-0.16836296 0.11655897 1.3430001
-0.052981351 0.11184952 1.3430001
-0.18314566 0.12406603 1.3478
-0.17439672 0.12490801 1.3441253
-0.1671856 0.12597789 1.3430001
-0.18094137 0.13127118 1.3490001
-0.17447893 0.13310501 1.3484
-0.16521607 0.13457727 1.3442003
-0.15800217 0.13586773 1.3430001
-0.072996527 0.1377515 1.3430001
-0.065870449 0.13717677 1.3466001
-0.16468365 0.14298265 1.3479091
-0.15560353 0.14426744 1.3433752
-0.14010623 0.14717041 1.3430001
-0.13500433 0.14874023 1.3430001
-0.12440804 0.14834778 1.3430001
-0.11538161 0.14775908 1.3430001
-0.10831743 0.14717041 1.3430001
-0.084910206 0.1462383 1.3452501
-0.075514317 0.14100789 1.3460001
-0.069774777 0.14073217 1.3490001
-0.15407734 0.15407839 1.3478
-0.1439891 0.15628687 1.3447145
-0.13429569 0.15550071 1.3437502
-0.12463231 0.15574835 1.3430003
-0.11496722 0.15610054 1.3434618
-0.10539426 0.15549409 1.3454709
-0.095068008 0.15309739 1.3454001
-0.087514125 0.1513758 1.3490001
-0.19419657 0.0077440348 1.3590001
-0.18463117 0.0064767161 1.3567779
-0.17821537 0.0047491225 1.3552501
-0.19538796 0.014296677 1.3589998
-0.18556124 0.014271748 1.3568125
-0.17733879 0.014244081 1.3540001
-0.20134491 0.02978475 1.3590001
-0.19531739 0.025008669 1.3584998
-0.18612048 0.023581835 1.3547144
-0.17828842 0.022078324 1.3540001
-0.21087603 0.038124479 1.3590001
-0.2044085 0.036082096 1.359
-0.19524638 0.035433289 1.3563333
-0.18873405 0.034423195 1.3540001
-0.01068306 0.039171219 1.3540001
-0.0040362608 0.036574267 1.3545001
0.0050904849 0.03628324 1.3590001
-0.21087603 0.044081431 1.3590001
-0.20482594 0.045250356 1.3583748
-0.19713461 0.045126531 1.3546251
-0.012598051 0.044464182 1.3560002
-0.0047655599 0.042890042 1.3590001
0.0049357587 0.042719841 1.3590001
0.013403137 0.043783583 1.3590001
-0.21087603 0.05242116 1.3590001
-0.20453265 0.054526214 1.3579999
-0.19731726 0.054463416 1.3547144
-0.20317705 0.064787515 1.3585001
-0.19775531 0.063386157 1.3540001
-0.20348077 0.074965514 1.3573334
-0.19823012 0.070033394 1.3540001
-0.02978475 0.079823129 1.3590001
-0.20285113 0.085348368 1.3584446
-0.19664745 0.085860148 1.3540001
-0.041545235 0.085464478 1.3540001
-0.035813682 0.086303644 1.3567779
-0.02978475 0.084588692 1.3590001
-0.20236611 0.095481403 1.3590001
-0.19528238 0.095180824 1.3547144
-0.04169865 0.095311195 1.3590001
-0.034550309 0.091737032 1.3590001
-0.20134491 0.10484232 1.3590001
-0.1948058 0.10452807 1.3549376
-0.048667274 0.10801761 1.3540001
-0.19449629 0.11425991 1.355875
-0.051229771 0.11556483 1.3590001
-0.04884699 0.11556483 1.3590001
-0.19300517 0.12152178 1.3590001
-0.18682176 0.12731947 1.3573335
-0.18313873 0.13318802 1.3565001
-0.17567699 0.13769278 1.3540001
-0.060760889 0.13939263 1.3590001
-0.17183806 0.14449088 1.3565001
-0.16657661 0.1475845 1.3540001
-0.081903458 0.14837584 1.3540001
-0.076061942 0.14539166 1.3556668
-0.066472374 0.1412538 1.3540001
-0.20223385 -0.00119665 1.365
-0.19984055 -0.00119665 1.365
-0.21180704 0.00358995 1.365
-0.20548189 0.0052994499 1.3649999
-0.19553261 0.0050259298 1.3649999
-0.18787405 0.00358995 1.365
-0.21180704 0.0119665 1.365
-0.20582379 0.014359799 1.3649999
-0.22138025 0.029916249 1.365
-0.21454224 0.02649725 1.3649999
-0.20601273 0.024877723 1.3649999
0.0053849248 0.029317925 1.365
-0.22138025 0.035899498 1.365
-0.21590984 0.035557594 1.3649999
-0.20941375 0.0335062 1.365
0.0083765499 0.034702852 1.365
0.01364181 0.036617488 1.3649999
0.021779031 0.03566017 1.365
-0.22138025 0.044276047 1.3650001
-0.21622545 0.045748852 1.3649999
-0.0042737499 0.047695048 1.3649999
0.0041882754 0.047267675 1.3649999
0.01412047 0.04619069 1.365
-0.22138025 0.051455949 1.365
-0.21590985 0.055387802 1.3649999
-0.20941375 0.05863585 1.365
-0.01076985 0.052652597 1.365
0.0059832497 0.056242548 1.365
-0.21539699 0.064619094 1.3649999
-0.20861597 0.063821338 1.3649999
-0.21340257 0.073793426 1.3649999
-0.20941375 0.0741923 1.365
-0.02512965 0.077782251 1.365
-0.21180704 0.083765499 1.365
-0.20851626 0.085859641 1.3649999
-0.032309551 0.089748748 1.365
-0.026725182 0.083898455 1.3649999
-0.21180704 0.092142053 1.365
-0.20761877 0.09543284 1.3649999
-0.037893914 0.09559904 1.3649999
-0.20565283 0.10479234 1.3649999
-0.042680517 0.10331079 1.3650001
-0.039489448 0.10171525 1.365
-0.20283218 0.11308342 1.365
-0.19984055 0.11846835 1.365
-0.051455949 0.11846835 1.365
-0.19457528 0.12421227 1.365
-0.19026735 0.13043486 1.365
-0.18627852 0.13362591 1.3650001
-0.20517565 -0.011645055 1.3740001
-0.21427701 -0.0028117623 1.3740001
-0.20466772 -0.0044813608 1.3710909
-0.1981705 -0.0024020667 1.3700001
-0.22256111 0.0054283203 1.3760002
-0.21510215 0.0046109748 1.3720001
-0.20777877 0.0012010334 1.3700001
-0.22402593 0.014647849 1.3760002
-0.2155606 0.01489755 1.3706
0.0060314666 0.0180944 1.376
-0.23040204 0.02533216 1.376
-0.22517051 0.024080718 1.3735002
-0.21818773 0.022018947 1.37
0.0068286485 0.023964951 1.3746668
0.014471576 0.025322074 1.3755002
0.022591701 0.025603488 1.3745
-0.23109134 0.036016472 1.3760002
-0.22609253 0.034872577 1.3718001
0.015139858 0.032921467 1.3706
0.022339219 0.030986661 1.3700001
-0.23143598 0.046011474 1.3760002
-0.22572531 0.046107993 1.3720002
-0.0084072333 0.049242366 1.3700001
0.0084072333 0.049242366 1.3700001
-0.23088452 0.056213267 1.376
-0.22466317 0.055641815 1.3722502
-0.0108093 0.056448568 1.3700001
-0.0045723426 0.055073258 1.3716
0.0040034447 0.05444685 1.37
-0.2336188 0.06413459 1.3760003
-0.22518761 0.065508738 1.3736002
-0.0026527934 0.063397378 1.3748
0.0012010334 0.061252698 1.3700001
-0.22350894 0.074617863 1.3760002
-0.21858807 0.074464075 1.37
-0.22155587 0.085244723 1.376
-0.21618602 0.084072337 1.37
-0.22123417 0.093849622 1.376
-0.21484506 0.094972186 1.3712858
-0.03194749 0.095602259 1.37
-0.027623767 0.093680598 1.3700001
-0.22075167 0.10012235 1.376
-0.21382898 0.10473631 1.3732307
-0.20777877 0.10929403 1.3700001
-0.043237198 0.108093 1.3700001
-0.03549229 0.10428024 1.3724999
-0.21110134 0.11218528 1.376
-0.20645151 0.11603259 1.3725716
-0.044591822 0.11305247 1.3748
-0.039807681 0.11218528 1.376
-0.20196237 0.12246273 1.3740001
-0.19619974 0.1275883 1.3730001
-0.19365215 0.13190444 1.3720001
-0.24197139 -0.020670922 1.3870001
-0.23523702 -0.023663996 1.3870002
-0.22665063 -0.02261642 1.3870001
-0.21643673 -0.020670922 1.3870001
-0.24484544 -0.013375303 1.3870001
-0.23563927 -0.014578089 1.3855002
-0.22534621 -0.014781063 1.3841766
-0.21550657 -0.014306321 1.3826002
-0.20906657 -0.014547844 1.3825001
-0.25169888 -0.0036478098 1.3870001
-0.24548839 -0.0048624314 1.3862503
-0.23500079 -0.0048466516 1.3817503
-0.22518587 -0.004842707 1.3810003
-0.2156734 -0.007437014 1.3809999
-0.20823638 -0.0084747365 1.381
-0.25169888 0.0024318732 1.3870001
-0.24548839 0.0048598018 1.3862503
-0.2350008 0.0048453365 1.3817503
-0.22700189 0.0042373682 1.381
-0.25343591 0.015112355 1.3870001
-0.24529146 0.014571843 1.3851254
-0.23487128 0.01452812 1.3810003
-0.22760722 0.013317443 1.381
0.014591239 0.018239049 1.3870001
0.020670922 0.018239049 1.3870001
-0.25352278 0.023102794 1.3870001
-0.24535754 0.02429243 1.3855004
-0.23570943 0.023934146 1.3810003
0.01452812 0.020581502 1.381
0.020581502 0.020581502 1.381
-0.25291482 0.034046229 1.3870001
-0.24476059 0.034907073 1.3832108
-0.23645449 0.034550849 1.3810003
-0.25277972 0.044449236 1.3870001
-0.24515031 0.045719557 1.3831179
-0.23688906 0.045871191 1.381
-0.25169888 0.054717153 1.3870001
-0.24548839 0.055904157 1.3862503
-0.23630208 0.055360939 1.3810002
-0.22801077 0.056094687 1.381
-0.010896089 0.059323158 1.381
-0.0085115563 0.059580896 1.3870001
-0.25169888 0.064444646 1.3870001
-0.24561924 0.065660581 1.3870003
-0.23608196 0.068403229 1.381
-0.22639653 0.062955186 1.381
-0.013722713 0.063749827 1.3870001
