# .PCD v0.7 - Point Cloud Data file format
VERSION 0.7
FIELDS x y z
SIZE 4 4 4
TYPE F F F
COUNT 1 1 1
WIDTH 1439
HEIGHT 1
VIEWPOINT 0 0 0 1 0 0 0
POINTS 1439
DATA ascii
-0.04010487 -0.071983099 1.1730001
-0.034981254 -0.073780522 1.1735716
-0.029821569 -0.075068086 1.1730001
-0.15939115 -0.060671471 1.1730001
-0.063756458 -0.060671471 1.1730001
-0.04183732 -0.063742034 1.1744547
-0.035372727 -0.06546364 1.1765295
-0.029872416 -0.063861661 1.1750001
-0.15508519 -0.055038016 1.1735002
-0.14484298 -0.052641325 1.1741431
-0.1348017 -0.052479189 1.1738002
-0.12465809 -0.051791951 1.175182
-0.11825795 -0.050388169 1.1730001
-0.064663999 -0.054594025 1.1750002
-0.053938285 -0.056685168 1.1756668
-0.045373932 -0.056202363 1.1763334
-0.14321892 -0.045813549 1.177
-0.13574789 -0.045321215 1.1763685
-0.12615612 -0.047780961 1.1763334
-0.11365253 -0.046352576 1.1750001
-0.10731101 -0.044368975 1.177
-0.07095477 -0.041133199 1.1730001
-0.068163663 -0.044791721 1.1761112
-0.14088121 -0.035991549 1.1730001
-0.13762102 -0.035766874 1.1752857
-0.073648922 -0.035021666 1.1750002
-0.093741089 -0.027815757 1.1750001
-0.085056193 -0.026105462 1.1740911
-0.076894715 -0.027418453 1.1758001
-0.17490745 -0.28122783 1.189
-0.16573471 -0.28247866 1.189
-0.15948057 -0.28247866 1.189
-0.18122114 -0.27473542 1.189
-0.17483896 -0.27515441 1.1843846
-0.16491647 -0.27693838 1.1831336
-0.15654865 -0.27681261 1.1826001
-0.14024475 -0.27113986 1.1850001
-0.13759108 -0.27205509 1.189
-0.18452868 -0.26461169 1.1874001
-0.17793536 -0.26569498 1.1823335
-0.1411635 -0.26779625 1.184
-0.13531391 -0.26461044 1.1855334
-0.12716752 -0.26267385 1.189
-0.19189292 -0.25334197 1.188
-0.18480243 -0.25539818 1.18425
-0.17876928 -0.25642005 1.1810001
-0.12881739 -0.25867364 1.1850001
-0.19379252 -0.24509934 1.1863334
-0.18760422 -0.24620464 1.181
-0.19421761 -0.23508933 1.1855334
-0.18946783 -0.23450527 1.1810001
-0.19392352 -0.2248634 1.1871334
-0.1879148 -0.22466952 1.1810001
-0.19226742 -0.21671543 1.189
-0.18501531 -0.214047 1.1828823
-0.1791144 -0.21017469 1.1810001
-0.19109873 -0.20464937 1.189
-0.18501328 -0.20495969 1.1841111
-0.1791144 -0.20810401 1.1810001
-0.2115984 -0.19075127 1.189
-0.20480579 -0.19160652 1.1885556
-0.19370174 -0.19370379 1.1882941
-0.18463103 -0.19480297 1.1834761
-0.21264076 -0.18449712 1.189
-0.20607981 -0.18492605 1.1875262
-0.19546309 -0.18509975 1.1826469
-0.18468934 -0.18580429 1.181
-0.21312383 -0.17458256 1.1882001
-0.20590274 -0.17530955 1.1842
-0.19982126 -0.17807905 1.1810001
-0.21340765 -0.16518931 1.186
-0.20741796 -0.16626096 1.182143
-0.21227837 -0.15572213 1.1858
-0.20810401 -0.15426615 1.1810001
-0.043538772 -0.15296967 1.1824287
-0.036029946 -0.15219547 1.181
-0.20719536 -0.14418346 1.1846668
-0.042107616 -0.14815974 1.186
-0.034446135 -0.14660686 1.1846668
-0.028048949 -0.14440015 1.1850001
-0.2058982 -0.1347976 1.1852103
-0.20382237 -0.12632415 1.1850002
-0.19809313 -0.12325713 1.1815001
-0.20257574 -0.11739005 1.1850001
-0.19760434 -0.11839612 1.1826001
-0.033476099 -0.062465712 1.1810001
-0.061775487 -0.051422048 1.1810001
-0.05538018 -0.052510377 1.1816154
-0.043139305 -0.05297507 1.181
-0.034218229 -0.054958485 1.18292
-0.028080508 -0.054423761 1.1863333
-0.13363351 -0.041436523 1.1816669
-0.12521581 -0.04355672 1.1845789
-0.11591502 -0.042745396 1.1855333
-0.10785981 -0.041485619 1.1830001
-0.063697025 -0.044606492 1.1834
-0.055539466 -0.047589216 1.1871819
-0.044459902 -0.046984822 1.1872858
-0.034943376 -0.047444642 1.1882728
-0.1332441 -0.035084669 1.1853077
-0.12855701 -0.035219084 1.1867143
-0.11523832 -0.037640654 1.189
-0.10817593 -0.036746539 1.1842
-0.071438693 -0.031060301 1.1810001
-0.067398198 -0.034841482 1.1852667
-0.13237929 -0.028143629 1.189
-0.12820987 -0.028143629 1.189
-0.090074867 -0.023812896 1.1810001
-0.085686572 -0.022456987 1.1823335
-0.074418545 -0.024008324 1.1828463
-0.069103837 -0.025695682 1.1883334
-0.090685032 -0.018762421 1.189
-0.084167644 -0.016769256 1.1852858
-0.076297641 -0.017532459 1.1858001
-0.17314605 -0.29207465 1.197
-0.16894858 -0.29277423 1.197
-0.19203471 -0.2801818 1.197
-0.18506753 -0.2826657 1.1956668
-0.1745197 -0.28678176 1.1942308
-0.1652464 -0.28761241 1.193
-0.19300386 -0.27482143 1.1965001
-0.18691072 -0.27536085 1.193
-0.13282464 -0.27192447 1.193
-0.1935685 -0.26462296 1.1944286
-0.18860401 -0.26808965 1.1930001
-0.13240629 -0.26795018 1.1930001
-0.12794395 -0.2673924 1.1930001
-0.20042966 -0.25289816 1.197
-0.19652653 -0.25619069 1.194
-0.2021786 -0.24520278 1.197
-0.19856463 -0.24518023 1.193
-0.20323938 -0.23466614 1.1949999
-0.19941127 -0.23497061 1.193
-0.20413782 -0.22493824 1.1950003
-0.19941127 -0.22416337 1.193
-0.2026706 -0.21588707 1.1966002
-0.19680473 -0.21418916 1.1936152
-0.21302211 -0.20095435 1.197
-0.20331542 -0.20147903 1.197
-0.19584084 -0.20526414 1.1946
-0.22141707 -0.19413345 1.197
-0.21495381 -0.19506092 1.1941113
-0.20498921 -0.19662231 1.193
-0.19766816 -0.19766818 1.193
-0.22231846 -0.18561365 1.1962001
-0.21753958 -0.18511781 1.193
-0.22211161 -0.17438632 1.1965001
-0.21798781 -0.17555562 1.193
-0.22174668 -0.16622126 1.1950001
-0.21876866 -0.16433467 1.194
-0.21580729 -0.15504201 1.1950001
-0.21259499 -0.14557138 1.1946001
-0.042952284 -0.14596617 1.1950001
-0.034946401 -0.14311877 1.1948183
-0.028285649 -0.14247411 1.1950001
-0.21231025 -0.13596223 1.1930001
-0.061705936 -0.040788669 1.1930001
-0.055170264 -0.042760294 1.1938572
-0.045352437 -0.042119771 1.193
-0.034081291 -0.042899933 1.1935714
-0.028257245 -0.044999477 1.1938
-0.13282464 -0.030330038 1.1930001
-0.12362057 -0.034304012 1.1934212
-0.11484798 -0.032478139 1.195154
-0.10535271 -0.032463845 1.1946
-0.063065119 -0.033731855 1.1949999
-0.057248965 -0.03719433 1.197
-0.043956943 -0.037660725 1.197
-0.035468705 -0.037567448 1.1970001
-0.02833299 -0.038826689 1.197
-0.13117126 -0.026234251 1.197
-0.12377436 -0.027271787 1.1965001
-0.11648007 -0.027808305 1.197
-0.10388763 -0.02833299 1.197
-0.065600798 -0.02473147 1.1954
-0.085251093 -0.013197514 1.1946001
-0.072808176 -0.013918027 1.193
-0.066641256 -0.016683044 1.1962727
-0.082403533 -0.0079246918 1.1941429
-0.075212732 -0.0068114805 1.1957502
-0.068209052 -0.0094443299 1.197
-0.19242132 -0.29074651 1.2060001
-0.18495385 -0.29402348 1.2045715
-0.17747696 -0.29481283 1.2036002
-0.19535246 -0.28431308 1.2045001
-0.18440685 -0.28872842 1.202
-0.20193666 -0.27383032 1.2060001
-0.19851899 -0.27454701 1.2045002
-0.20439073 -0.26479408 1.2050588
-0.19932507 -0.26576939 1.2030001
-0.2056758 -0.25528184 1.2040001
-0.21039474 -0.24211253 1.2060001
-0.2067256 -0.24541776 1.2037778
-0.21039474 -0.23576899 1.2060001
-0.20758942 -0.23498698 1.202
-0.21330221 -0.22440343 1.2060002
-0.20969692 -0.22444947 1.202
-0.21293214 -0.21405989 1.2060001
-0.20681921 -0.21391129 1.2030909
-0.22394021 -0.20303699 1.2055557
-0.21497169 -0.205924 1.2045715
-0.20524518 -0.20647518 1.2026666
-0.19915938 -0.20969692 1.202
-0.23153993 -0.19242132 1.2060001
-0.22666965 -0.19572449 1.2033333
-0.23153993 -0.18607776 1.2060001
-0.22766858 -0.18430004 1.2038182
-0.22753027 -0.17542742 1.2046667
-0.22424257 -0.16369179 1.2046667
-0.22060089 -0.15832424 1.204
-0.21799579 -0.15341774 1.2036002
-0.22096734 -0.14378735 1.2060001
-0.21733642 -0.14524288 1.2042857
-0.042220265 -0.14249164 1.204
-0.034482807 -0.14073363 1.2040001
-0.02845134 -0.14014919 1.202
-0.032246429 -0.13797243 1.2060001
-0.02854602 -0.13638653 1.2060001
-0.1106441 -0.030558847 1.202
-0.10748284 -0.030558847 1.202
-0.06006394 -0.030558847 1.202
-0.054885179 -0.034301918 1.2040001
-0.045668323 -0.033457357 1.2034285
-0.034995366 -0.033239108 1.2036666
-0.02851446 -0.034848668 1.2046667
-0.1231619 -0.022459449 1.2037144
-0.11499646 -0.024052421 1.2046667
-0.10637064 -0.02712056 1.2053334
-0.06117766 -0.02425842 1.2032001
-0.042290401 -0.02854602 1.2060001
-0.037935119 -0.02845134 1.202
-0.087461524 -0.011591286 1.202
-0.062665574 -0.014491939 1.2041818
-0.08372622 -0.0048535774 1.2028
-0.073492132 -0.0024599268 1.2033334
-0.066940501 -0.0059108371 1.2044001
-0.081139006 0.0010537533 1.202
-0.077006988 0.0010549222 1.2033334
-0.2143763 -0.29227117 1.2148572
-0.20535947 -0.29253051 1.2126666
-0.19694901 -0.292418 1.21
-0.18351263 -0.29807544 1.21
-0.21402362 -0.28507516 1.217
-0.20524363 -0.28526026 1.2110525
-0.19836336 -0.28852853 1.21
-0.22121193 -0.27250746 1.2190001
-0.21460259 -0.27471101 1.2142942
-0.20669796 -0.27564782 1.21
-0.21492721 -0.26509771 1.2132943
-0.20897104 -0.26731318 1.21
-0.21424019 -0.25547245 1.213111
-0.21410073 -0.24563457 1.2139091
-0.22248559 -0.23316485 1.2181667
-0.21569255 -0.23495494 1.2111429
-0.2318985 -0.22228059 1.2190001
-0.22507183 -0.22456533 1.2160589
-0.21798755 -0.22488253 1.21
-0.2444552 -0.21399851 1.219
-0.23486556 -0.21511516 1.21775
-0.22551209 -0.21487649 1.2133751
-0.2186358 -0.21580708 1.21
-0.24365371 -0.20518208 1.219
-0.23427542 -0.20548049 1.2137059
-0.22567812 -0.20764506 1.21
-0.24297367 -0.19653565 1.219
-0.23576958 -0.19537978 1.2123333
-0.24187262 -0.18630248 1.2190001
-0.23620057 -0.18521687 1.2115384
-0.23444751 -0.1753982 1.2135
-0.2320962 -0.16623807 1.2181667
-0.22738014 -0.16336027 1.2120001
-0.23360834 -0.15196298 1.2190001
-0.22607589 -0.15488726 1.21425
-0.23140317 -0.14706434 1.2126669
-0.22437698 -0.14750072 1.2104446
-0.2195787 -0.1495681 1.21
-0.044905785 -0.14178914 1.21
-0.042250365 -0.13704403 1.2150002
-0.035405453 -0.13448676 1.2127498
-0.02868804 -0.13175073 1.2120001
-0.15602386 -0.043814924 1.2190001
-0.054099098 -0.030762233 1.21
-0.048795268 -0.030762233 1.21
-0.031469412 -0.031469408 1.21
-0.025657654 -0.032036282 1.2124287
-0.12623124 -0.020154567 1.21
-0.11350203 -0.020861745 1.21
-0.10531898 -0.022124564 1.21
-0.096794955 -0.022276102 1.21
-0.054611191 -0.024458738 1.213261
-0.045111068 -0.02501075 1.214375
-0.034884401 -0.024130743 1.2154782
-0.02579329 -0.024780879 1.2180001
-0.12285578 -0.014357756 1.2133334
-0.11484391 -0.014882778 1.2129999
-0.10592595 -0.016300807 1.2148461
-0.095619343 -0.016246606 1.21525
-0.0604637 -0.011668433 1.21
-0.056464929 -0.014916482 1.2153333
-0.03473134 -0.017632833 1.2190001
-0.025647759 -0.013892537 1.2190001
-0.12321813 -0.0086818803 1.216143
-0.11576898 -0.0082683908 1.2171251
-0.090835817 -0.0096179098 1.2190001
-0.086111456 -0.0046083443 1.2126667
-0.062671892 -0.0045511522 1.2117144
-0.058131013 -0.0062536388 1.2182857
-0.074228778 0.0041786651 1.2136154
-0.065398835 0.0050581 1.2160436
-0.058776118 0.0010686567 1.2190001
-0.22137289 -0.29408818 1.2270001
-0.21764916 -0.29055625 1.223
-0.22385281 -0.28545678 1.2256668
-0.2190787 -0.28591022 1.223
-0.22415562 -0.27509263 1.2244545
-0.21979348 -0.27876246 1.223
-0.22397476 -0.26550889 1.2253336
-0.22251852 -0.25476474 1.2262002
-0.21979348 -0.25410271 1.223
-0.22302005 -0.24397984 1.2260001
-0.21979348 -0.24659756 1.223
-0.23182802 -0.23268715 1.2254002
-0.2265224 -0.23640177 1.2246001
-0.25170678 -0.22158802 1.2270001
-0.24493155 -0.22409371 1.2254001
-0.23563436 -0.22575882 1.2243333
-0.25216439 -0.21460536 1.2240001
-0.24565153 -0.21588327 1.2229998
-0.23909242 -0.21979348 1.223
-0.2529262 -0.20476492 1.2247144
-0.24644437 -0.20508954 1.2229998
-0.25206533 -0.19433771 1.2270001
-0.24702641 -0.19470485 1.2229999
-0.24533744 -0.18587929 1.2242
-0.24202575 -0.17640989 1.2270001
-0.23837765 -0.17118876 1.223
-0.23724832 -0.16490714 1.2245386
-0.23472947 -0.15746798 1.224
-0.041951131 -0.13230741 1.2270001
-0.039799791 -0.13123174 1.2270001
-0.034527011 -0.12751655 1.2252858
-0.026110386 -0.12487077 1.2264286
-0.17425855 -0.06238886 1.2270001
-0.17237611 -0.056741588 1.2270001
-0.16605404 -0.052846123 1.2240001
-0.16099195 -0.047688037 1.2270001
-0.15439153 -0.041814368 1.223
-0.050391678 -0.020371104 1.223
-0.046103019 -0.020371104 1.223
-0.022589071 -0.02043773 1.2270001
-0.1037401 -0.012411973 1.2235715
-0.095462427 -0.013138821 1.2235
-0.051525645 -0.015028258 1.2245001
-0.04487234 -0.016129632 1.2266365
-0.035552885 -0.014352676 1.22425
-0.026631778 -0.01551198 1.2240911
-0.12115446 -0.0053608166 1.223
-0.11365786 -0.0048748734 1.2257693
-0.10528567 -0.00811355 1.2266364
-0.095304355 -0.0088204946 1.2270001
-0.086845234 -0.0032164899 1.223
-0.054166354 -0.0052181706 1.2252858
-0.024740411 -0.0096810302 1.2270001
-0.080412246 0.0053608166 1.223
-0.075366855 0.0088029606 1.2246001
-0.061113309 0.0085773058 1.223
-0.056966543 0.0055414108 1.2260771
-0.072708689 0.012536625 1.2256669
-0.065529846 0.013967814 1.2254001
-0.059161853 0.013983709 1.2270001
-0.22357103 -0.29269445 1.2320001
-0.23194775 -0.28305811 1.2352002
-0.2275362 -0.28482637 1.233
-0.23133084 -0.27596986 1.2345002
-0.22789125 -0.2754136 1.2320001
-0.23030032 -0.26705953 1.2333335
-0.22735123 -0.26191294 1.2320001
-0.22700186 -0.25513759 1.2345001
-0.23127167 -0.24209559 1.2346667
-0.22645772 -0.24592395 1.2336
-0.25226521 -0.23169512 1.2350001
-0.24469921 -0.23109736 1.234286
-0.23627967 -0.23573962 1.2335001
-0.25509211 -0.22544885 1.2340001
-0.24625215 -0.22789125 1.2320001
-0.25747171 -0.21527953 1.2340001
-0.26113796 -0.20695996 1.2360001
-0.25797144 -0.20565432 1.2346668
-0.25659597 -0.19704574 1.2350001
-0.25118166 -0.18513535 1.2350001
-0.24753296 -0.18321718 1.233
-0.25030234 -0.17770383 1.2360001
-0.24584188 -0.17471088 1.2340001
-0.24427405 -0.1648663 1.2340001
-0.24163388 -0.15928333 1.2360001
-0.034561709 -0.12312607 1.2320002
-0.02916144 -0.12204602 1.2320001
-0.033536009 -0.11899698 1.2340001
-0.024869982 -0.11785135 1.2333335
-0.018420519 -0.11594092 1.2360001
-0.17617491 -0.054321766 1.2344002
-0.16956837 -0.050762508 1.2320001
-0.17120248 -0.048760198 1.2360001
-0.16500045 -0.045356184 1.2345456
-0.15928333 -0.04225884 1.2360001
-0.14411348 -0.031423241 1.2360001
-0.14411348 -0.027522424 1.2360001
-0.13977924 -0.024921879 1.2360001
-0.046010274 -0.01274463 1.2320001
-0.12204602 -0.0010800533 1.2320001
-0.11664576 -0.0010800533 1.2320001
-0.10399371 -0.0032401599 1.2320002
-0.095507585 -0.0043225512 1.2333335
-0.088706389 -0.00216186 1.2340001
-0.050762508 -0.0043202131 1.2320001
-0.045047928 -0.0059766527 1.234316
-0.035205565 -0.0067255921 1.2335558
-0.027038446 -0.0050440482 1.2336668
-0.12027516 0.0032506799 1.2360001
-0.11398048 0.0051488178 1.2327061
-0.1060629 0.0035555097 1.2345716
-0.098603956 0.0010835599 1.2360001
-0.081266999 0.0075849202 1.2360001
-0.079099879 0.0097520398 1.2360001
-0.052197691 0.0056062038 1.2334547
-0.048760198 0.0043342402 1.2360001
-0.11250965 0.011899874 1.2340001
-0.10943956 0.01191916 1.2360001
-0.073976636 0.015597652 1.233143
-0.064803198 0.018360907 1.2320001
-0.056215722 0.015135825 1.2332002
-0.070431396 0.02058764 1.2360001
-0.064475328 0.02228662 1.2340001
-0.058873426 0.021310015 1.2360001
-0.23684464 -0.28050265 1.245
-0.23575319 -0.27613685 1.245
-0.23029594 -0.25321639 1.245
-0.25403783 -0.24095213 1.2436666
-0.24572046 -0.24136694 1.243
-0.23538937 -0.24484861 1.245
-0.26260287 -0.23291543 1.245
-0.25572184 -0.23650004 1.2431818
-0.24591272 -0.23741344 1.2434
-0.2708979 -0.22302838 1.2410001
-0.26443675 -0.22508134 1.243
-0.26472723 -0.21558574 1.2434616
-0.26231182 -0.20410115 1.245
-0.25185493 -0.17335236 1.2436666
-0.24913903 -0.17298299 1.2410001
-0.25212494 -0.16917475 1.245
-0.24787593 -0.16372257 1.2434
-0.24557625 -0.15826026 1.245
-0.033799883 -0.11556864 1.2436666
-0.02539845 -0.11255854 1.2428463
-0.017420243 -0.1132364 1.2420001
-0.022337904 -0.10896791 1.243
-0.016785886 -0.10878503 1.2434001
-0.19100375 -0.086224549 1.245
-0.18401846 -0.071817413 1.245
-0.18311174 -0.065570958 1.245
-0.17790635 -0.066578448 1.245
-0.1811807 -0.0545725 1.245
-0.18008925 -0.048023798 1.245
-0.1740412 -0.0452068 1.2437693
-0.16623616 -0.040740978 1.2426001
-0.15611987 -0.040253904 1.2410001
-0.16517277 -0.036199752 1.245
-0.15510212 -0.035070531 1.2433531
-0.14741632 -0.032638296 1.2410001
-0.15389445 -0.02728625 1.245
-0.14629765 -0.023342628 1.2427142
-0.13599293 -0.021396218 1.2410001
-0.14243422 -0.018008925 1.245
-0.13568333 -0.016666561 1.2438571
-0.1318533 -0.0087158196 1.243
-0.12988254 -0.0076401499 1.245
-0.091387242 -0.0010879433 1.2410001
-0.04242979 -0.0010879433 1.2410001
-0.034814186 -0.0010879433 1.2410001
-0.029374469 -0.0010879433 1.2410001
-0.11896805 0.0087315999 1.245
-0.10324745 0.0079016164 1.243
-0.095535748 0.0048325625 1.2444286
-0.086429037 0.0035454589 1.244
-0.042769715 0.0057244147 1.2430001
-0.035058521 0.0038972844 1.2441429
-0.027043704 0.0037594391 1.245
-0.1040563 0.012871397 1.2442
-0.099321947 0.01200595 1.245
-0.075310051 0.01855465 1.245
-0.051133335 0.01631915 1.2410001
-0.04757309 0.014890377 1.2427778
-0.07094425 0.02292045 1.245
-0.063886687 0.027519831 1.2445555
-0.054509126 0.025076548 1.2435714
-0.048242092 0.02248387 1.245
-0.24392286 -0.28144944 1.2590001
-0.2421267 -0.27552065 1.2578572
-0.23818658 -0.27416742 1.2535
-0.23681299 -0.26487115 1.2554166
-0.26434174 -0.2516489 1.2590001
-0.23588237 -0.25487339 1.2546363
-0.26443821 -0.24601768 1.2563637
-0.25820461 -0.24429195 1.2533334
-0.24566157 -0.24542254 1.2541111
-0.2366693 -0.24719982 1.251
-0.27139261 -0.23403786 1.2533334
-0.26568976 -0.23660035 1.25
-0.27067083 -0.22793333 1.25
-0.26847917 -0.21368749 1.25
-0.26535749 -0.20313172 1.2525001
-0.26491013 -0.1945464 1.2562943
-0.2582514 -0.19323194 1.25
-0.26458105 -0.18520547 1.2575001
-0.25654674 -0.18470877 1.25
-0.26286936 -0.1768374 1.2581111
-0.25681555 -0.17449656 1.2519
-0.25515252 -0.16826609 1.2545
-0.25198993 -0.15630598 1.2574002
-0.24683952 -0.15647797 1.257
-0.23251566 -0.13223465 1.2570001
-0.22682898 -0.13170113 1.2534286
-0.23141401 -0.1283998 1.2590001
-0.22435787 -0.12573533 1.2574002
-0.21894312 -0.12322427 1.2550001
-0.22184838 -0.11809839 1.2590001
-0.21793905 -0.1152769 1.2576667
-0.033970833 -0.111775 1.25
-0.014264829 -0.11302426 1.2516667
-0.21389674 -0.10731452 1.2576667
-0.2074284 -0.10095956 1.2563335
-0.033059102 -0.1079913 1.2570001
-0.025020692 -0.10606352 1.2565715
-0.01623258 -0.1048125 1.25525
-0.20463194 -0.095787965 1.2583333
-0.19889095 -0.094699457 1.2590001
-0.20198137 -0.089401588 1.2590001
-0.1957141 -0.084527381 1.2565334
-0.19455673 -0.075120926 1.2550908
-0.1888486 -0.074516661 1.25
-0.19297241 -0.065594241 1.2568667
-0.1862224 -0.061634053 1.251
-0.19094414 -0.05739361 1.2590001
-0.18590301 -0.054802768 1.2531111
-0.18390082 -0.045972925 1.2546
-0.17758986 -0.041925706 1.2520001
-0.18255584 -0.035539895 1.2590001
-0.17596883 -0.035189729 1.2545003
-0.16547084 -0.032405358 1.25
-0.17522557 -0.027187858 1.2558461
-0.16555062 -0.025102997 1.2539603
-0.15673922 -0.023294982 1.2522223
-0.16003989 -0.018763296 1.2590001
-0.15326945 -0.015968263 1.25625
-0.14534514 -0.014441256 1.25125
-0.13697916 -0.013149999 1.25
-0.15178578 -0.009187174 1.2576667
-0.1436957 -0.0062300605 1.2550666
-0.13606909 -0.0054923682 1.254706
-0.12748715 -0.0033013516 1.2558
-0.12803191 0.0011037233 1.2590001
-0.092871882 0.0079447925 1.25
-0.085944645 0.0089232149 1.25
-0.034722578 0.0091385199 1.2508334
-0.02461805 0.0070602973 1.252143
-0.018703682 0.0099019501 1.2550001
-0.10264305 0.015706945 1.25
-0.095104262 0.015388762 1.2533889
-0.085676633 0.014649474 1.2575713
-0.078825183 0.015773572 1.2546667
-0.042567741 0.015653281 1.2509091
-0.035906781 0.014101446 1.2565
-0.024468819 0.014626189 1.2573334
-0.018629167 0.012054167 1.25
-0.093816482 0.021853721 1.2590001
-0.089401588 0.020970743 1.2590001
-0.074847609 0.02238057 1.2555
-0.068491042 0.028932923 1.2533334
-0.05223472 0.028856942 1.25
-0.046002213 0.025647122 1.2521819
-0.022074467 0.020970743 1.2590001
-0.063841157 0.034525063 1.2540667
-0.054971382 0.035188854 1.2541251
-0.047854953 0.034846447 1.2578
-0.060704783 0.040837765 1.2590001
-0.05739361 0.040837765 1.2590001
-0.25011301 -0.27568012 1.268
-0.24666768 -0.27413368 1.266
-0.24364951 -0.26517135 1.2656
-0.26192522 -0.2508266 1.266
-0.25011301 -0.25011301 1.268
-0.24268791 -0.25536999 1.2657144
-0.25678268 -0.24788977 1.268
-0.27148613 -0.19391866 1.2640001
-0.27148613 -0.18653131 1.2640001
-0.26926991 -0.18062139 1.2640001
-0.27012205 -0.17674652 1.268
-0.26649964 -0.17618895 1.2640001
-0.26040506 -0.16954032 1.2640001
-0.25708073 -0.16732411 1.2640001
-0.25350088 -0.15254219 1.2654999
-0.24712431 -0.1526487 1.2657143
-0.25455946 -0.14784457 1.268
-0.23751062 -0.13318144 1.266
-0.23381121 -0.12589704 1.2664001
-0.22734159 -0.12198729 1.265
-0.2227125 -0.11394504 1.266
-0.22121105 -0.10782649 1.268
-0.21564397 -0.10441452 1.2651428
-0.032537192 -0.10316029 1.2653334
-0.026328491 -0.10226273 1.2645
-0.017175652 -0.10139176 1.2640001
-0.21173957 -0.09442611 1.2672001
-0.20632946 -0.092416093 1.2640001
-0.023968566 -0.097936198 1.2674286
-0.016446618 -0.095345214 1.2675999
-0.21009491 -0.087817453 1.268
-0.20437272 -0.085282139 1.2656
-0.012227747 -0.086705841 1.268
-0.20072599 -0.075408235 1.265
-0.19835109 -0.072026931 1.2640001
-0.20072599 -0.066536367 1.265
-0.19779703 -0.064270191 1.2640001
-0.19372228 -0.056143135 1.2656001
-0.18948624 -0.052081011 1.2640001
-0.19105582 -0.045485675 1.2656
-0.18783693 -0.043999314 1.2653334
-0.18505381 -0.038783733 1.2640001
-0.16352488 -0.017254803 1.2640001
-0.15790519 -0.013851333 1.2640001
-0.1318647 -0.0022162134 1.2640001
-0.13518901 0.0011081067 1.2640001
-0.083994493 0.018394571 1.2640001
-0.034351308 0.017729705 1.2640001
-0.028145909 0.017951328 1.2640001
-0.092263907 0.025567107 1.268
-0.084744535 0.02330072 1.2655385
-0.075841598 0.025897317 1.266
-0.042361032 0.025545064 1.2668571
-0.035119485 0.024017382 1.26675
-0.024881553 0.024408152 1.2654285
-0.018867619 0.026638392 1.266
-0.072254866 0.031125173 1.268
-0.067594506 0.03730626 1.2640001
-0.042897694 0.034619406 1.2665454
-0.038906466 0.031125173 1.268
-0.021120653 0.030013559 1.268
-0.017785814 0.030013559 1.268
-0.062988244 0.043632451 1.2668573
-0.055164874 0.044862788 1.2657143
-0.046583656 0.044368759 1.26525
-0.052616362 0.050763678 1.268
-0.047058295 0.050763678 1.268
-0.25250366 -0.27338818 1.2763335
-0.24864848 -0.26397613 1.2751428
-0.26165825 -0.25271276 1.2755001
-0.25511351 -0.25287712 1.2763333
-0.24836545 -0.25641292 1.275
-0.2644912 -0.17074749 1.273
-0.24886726 -0.15065955 1.273
-0.25495133 -0.14759867 1.2755001
-0.24638672 -0.14514294 1.2774999
-0.24344486 -0.13599138 1.2767501
-0.23993929 -0.1305716 1.273
-0.23482612 -0.12412328 1.2755001
-0.22721688 -0.11361008 1.2767501
-0.22273754 -0.10521162 1.2767501
-0.21790427 -0.10243266 1.2746667
-0.21619214 -0.096031688 1.2758571
-0.031309273 -0.09839838 1.2755001
-0.024495501 -0.093603939 1.2752726
-0.017855946 -0.091511726 1.273
-0.21231499 -0.085236192 1.276
-0.20757538 -0.081467755 1.273
-0.02128722 -0.087389641 1.2780001
-0.015657557 -0.084981583 1.2754999
-0.20553024 -0.076174319 1.2751428
-0.01456494 -0.079546981 1.2780001
-0.20576955 -0.064388424 1.277375
-0.1997634 -0.061379816 1.273
-0.20054802 -0.057139378 1.2780001
-0.19711411 -0.054106243 1.2744285
-0.19641541 -0.047987856 1.273
-0.090395726 0.027899917 1.273
-0.084815748 0.027899917 1.273
-0.07811977 0.027899917 1.273
-0.032406274 0.027936444 1.2746667
-0.027899917 0.027899917 1.273
-0.085148878 0.030997181 1.278
-0.074678525 0.033281446 1.276125
-0.041291878 0.039059885 1.273
-0.035628863 0.032116435 1.2758571
-0.025704451 0.030171359 1.2746667
-0.065479763 0.046450838 1.2767501
-0.041413516 0.044770271 1.2767501
-0.062120818 0.052048355 1.2767501
-0.055177107 0.055800516 1.2757777
-0.045817718 0.054759327 1.2746665
-0.052657861 0.061620899 1.2780001
-0.25557002 -0.27189443 1.2842501
-0.26534948 -0.26083288 1.2880001
-0.2560128 -0.26503116 1.2864616
-0.2624335 -0.25747052 1.2870001
-0.25475889 -0.25813317 1.2830001
-0.25425079 -0.14447889 1.2848182
-0.24814576 -0.14152791 1.2846667
-0.25255248 -0.13813227 1.2880001
-0.24696681 -0.13530262 1.2840002
-0.24229532 -0.12847069 1.2855
-0.23642713 -0.12327884 1.2842501
-0.23125042 -0.11506446 1.2867501
-0.22921677 -0.11743125 1.2880001
-0.23203965 -0.10613979 1.2880001
-0.22639941 -0.10372552 1.2848182
-0.22222601 -0.095882125 1.2867501
-0.21857901 -0.093355358 1.2830001
-0.030960578 -0.094006509 1.28425
-0.02699432 -0.091105826 1.2830001
-0.21661149 -0.086719275 1.2846667
-0.03048696 -0.088073432 1.2880001
-0.025170125 -0.084142312 1.2855002
-0.019145815 -0.082211457 1.2846667
-0.21115042 -0.077911116 1.2880001
-0.20828396 -0.074305609 1.2842501
-0.028228667 -0.077911116 1.2880001
-0.014656113 -0.07778839 1.286
-0.20429574 -0.054688692 1.2853078
-0.1990831 -0.052863877 1.2830001
-0.20208247 -0.04761498 1.2830001
-0.19795835 -0.046115298 1.2830001
-0.084280431 0.035237066 1.2861251
-0.07660313 0.036726899 1.2850001
-0.033949245 0.036488727 1.2855
-0.024793556 0.036066398 1.2855002
-0.01773968 0.036893532 1.284875
-0.071796954 0.044351738 1.2863334
-0.068115026 0.045593459 1.2842501
-0.034627166 0.042531192 1.2880001
-0.02709952 0.041778427 1.2880001
-0.018066347 0.041778427 1.2880001
-0.066055134 0.055911988 1.2851876
-0.059612457 0.059612457 1.2830001
-0.044672593 0.058940053 1.2846667
-0.064478189 0.064476602 1.2861819
-0.055289701 0.065483771 1.2843162
-0.047005892 0.065059572 1.286889
-0.053973209 0.071587898 1.2880001
-0.048553307 0.071136236 1.2880001
-0.26344064 -0.26486084 1.293875
-0.25711229 -0.14158167 1.2920001
-0.25352147 -0.13451223 1.2942222
-0.24729598 -0.13101023 1.2920001
-0.25128511 -0.12848514 1.2970001
-0.24541211 -0.12529086 1.2953334
-0.23854303 -0.12210535 1.2936667
-0.23700437 -0.11429647 1.296
-0.2340062 -0.10624288 1.2920001
-0.22992863 -0.10080615 1.2920001
-0.23150618 -0.097594485 1.2945001
-0.22640049 -0.095323697 1.2945
-0.22129478 -0.088515714 1.2945001
-0.21661878 -0.082793273 1.2936667
-0.21357402 -0.074435011 1.2948571
-0.024857786 -0.076333314 1.2953334
-0.016585831 -0.076120973 1.296
-0.21293883 -0.069091856 1.2920001
-0.20954086 -0.069091856 1.2920001
-0.084561683 0.038314365 1.293
-0.080729604 0.043207392 1.2970001
-0.077093847 0.043083563 1.2932501
-0.034980439 0.046127331 1.2947272
-0.025049634 0.045253776 1.2933636
-0.018122453 0.046438783 1.2919999
-0.072207235 0.055195514 1.2936667
-0.041908175 0.0509694 1.2920001
-0.039796282 0.05116665 1.2970001
-0.026151843 0.05116665 1.2970001
-0.071541257 0.062459573 1.2953334
-0.066951469 0.066960238 1.2945001
-0.044173479 0.066826552 1.2920001
-0.061079644 0.073340356 1.2950001
-0.054546837 0.076203689 1.2938181
-0.047380853 0.074134268 1.293
-0.057988871 0.080729604 1.2970001
-0.25796092 -0.13582897 1.302
-0.24654672 -0.12213194 1.302
-0.24348082 -0.11812373 1.3025556
-0.23855677 -0.11756626 1.302
-0.23259808 -0.095101677 1.307
-0.22714257 -0.091694064 1.302
-0.22243138 -0.084625073 1.3045001
-0.21801122 -0.081040822 1.302
-0.22109076 -0.075681232 1.3040001
-0.21801122 -0.075333722 1.302
-0.024730766 -0.072670408 1.302
-0.016469061 -0.072887816 1.302
-0.024859952 -0.066890351 1.3059286
-0.015945278 -0.066597208 1.3053334
-0.090933122 0.037666861 1.302
-0.087889336 0.0399497 1.302
-0.084191263 0.043050468 1.3036667
-0.07672134 0.048092324 1.3061668
-0.036905915 0.048320115 1.302
-0.023208873 0.048320115 1.302
-0.075738214 0.054230429 1.3050001
-0.04223254 0.055929575 1.302
-0.035454158 0.054215517 1.3046668
-0.024891671 0.054624557 1.3043078
-0.019441398 0.05489774 1.3045001
-0.073833093 0.064106911 1.30575
-0.068865679 0.068865679 1.302
-0.042313632 0.061757222 1.3045001
-0.065362513 0.075542688 1.3038182
-0.049081061 0.078757979 1.302
-0.062331248 0.083271809 1.3062857
-0.05489336 0.082914039 1.3045001
-0.049269542 0.081352033 1.307
-0.22428639 -0.082813442 1.312
-0.22428639 -0.079362877 1.312
-0.024729012 -0.061534986 1.312
-0.014651981 -0.061716709 1.3141429
-0.084615692 0.046345335 1.3149999
-0.081974469 0.05311022 1.317
-0.078902796 0.054978918 1.312
-0.034505602 0.05865952 1.312
-0.026454292 0.05865952 1.312
-0.081974469 0.061192211 1.317
-0.077896506 0.064846441 1.3131113
-0.040333241 0.062230624 1.3145001
-0.035329841 0.061654039 1.317
-0.025042858 0.062457897 1.3132502
-0.019553173 0.062110081 1.312
-0.072812334 0.073576204 1.3136668
-0.067861013 0.079362877 1.312
-0.070428766 0.084283613 1.317
-0.065656528 0.086099729 1.3138751
-0.054773629 0.087674923 1.3134286
-0.049458027 0.083963625 1.312
-0.063442171 0.09285631 1.3157501
-0.057306383 0.09269274 1.3161666
-0.024703043 -0.054925904 1.3261251
-0.01652877 -0.055132892 1.3256664
-0.025612693 -0.047732748 1.3280001
-0.10414951 0.037373047 1.3262857
-0.098511033 0.037086505 1.322
-0.10356414 0.04279672 1.3273335
-0.095313318 0.044171352 1.3258572
-0.087602228 0.047571003 1.3235
-0.10128656 0.050061174 1.3280001
-0.094766967 0.052156754 1.3280001
-0.086712092 0.055332899 1.3253751
-0.085412316 0.065073654 1.3255001
-0.04172232 0.067219295 1.322
-0.034567285 0.066492945 1.3263637
-0.025839312 0.067082092 1.325
-0.083603688 0.073299602 1.327143
-0.076773986 0.075743817 1.3246666
-0.043897767 0.074424177 1.3265001
-0.035314471 0.071017012 1.3280001
-0.027941119 0.071017012 1.3280001
-0.081494935 0.086442843 1.3280001
-0.075340502 0.085398786 1.3248003
-0.068378247 0.089239404 1.322
-0.048433494 0.086794674 1.3260001
-0.083900973 0.095232643 1.3279998
-0.074345939 0.095251799 1.3250003
-0.066060342 0.096772604 1.322
-0.054358412 0.095713943 1.325
-0.083324417 0.10328237 1.3280001
-0.074192137 0.10340331 1.3280001
-0.065081157 0.10448464 1.3272001
-0.058389861 0.10305778 1.3268001
-0.015191756 -0.050249655 1.3330001
-0.024601897 -0.044124287 1.3363335
-0.01756986 -0.048032273 1.3363334
-0.11416409 0.027191218 1.3370001
-0.10888331 0.028096728 1.3355
-0.11466026 0.035099816 1.3345625
-0.10774461 0.033421867 1.3330001
-0.11449666 0.044025447 1.3365715
-0.10667618 0.046243038 1.3330001
-0.099330716 0.047912464 1.3330001
-0.11260608 0.05043814 1.3380001
-0.10537241 0.053273428 1.3355001
-0.096296281 0.05730994 1.3341112
-0.095011383 0.065686882 1.3380002
-0.089981943 0.066610008 1.3330001
-0.093447402 0.073897742 1.3380002
-0.086092941 0.07614015 1.3361251
-0.042107835 0.0772008 1.3342501
-0.035598807 0.074036874 1.3344287
-0.025513981 0.072797164 1.335
-0.091257848 0.083281584 1.3380001
-0.085833333 0.084464125 1.3350835
-0.045660742 0.08195737 1.3355
-0.093056411 0.094620384 1.3380002
-0.088579632 0.096526086 1.3330001
-0.050928194 0.097761914 1.3355
-0.047912464 0.093487732 1.3330001
-0.093134612 0.10345683 1.3380001
-0.085232951 0.10607781 1.3355001
-0.075550079 0.10829358 1.3340001
-0.066610008 0.10867949 1.3330001
-0.05601399 0.10551034 1.335143
-0.073897742 0.11277365 1.3380002
-0.065627702 0.11250198 1.3367501
-0.059821978 0.1114331 1.3380001
-0.012950997 -0.050626624 1.3430001
-0.020626213 -0.043019786 1.3445001
-0.015374104 -0.044545475 1.3490001
-0.021934723 -0.037978429 1.3454001
-0.016950935 -0.038238153 1.3490001
-0.13127118 0.01773935 1.3490001
-0.1246485 0.0172663 1.3490001
-0.11745073 0.016777473 1.3478
-0.13336834 0.026543317 1.3484546
-0.12502563 0.024763551 1.3454003
-0.11608802 0.022134433 1.3430002
-0.10949479 0.022369903 1.3430001
-0.15019317 0.03902657 1.3490001
-0.14408952 0.03627073 1.3480771
-0.13467309 0.035439253 1.3475003
-0.12480051 0.035320897 1.3430003
-0.15019317 0.041391816 1.3490001
-0.14411959 0.04489037 1.3475003
-0.1346731 0.044889715 1.3475002
-0.124908 0.044776946 1.3441253
-0.11773633 0.048271898 1.3430001
-0.013481906 0.044703163 1.3490001
-0.14215131 0.052744996 1.3490001
-0.13478257 0.054386534 1.3486253
-0.12518744 0.054327369 1.3471253
-0.11575596 0.054681707 1.3434287
-0.10714006 0.057690803 1.3430001
-0.13304514 0.064452976 1.3490001
-0.12535807 0.065044284 1.3490005
-0.11548734 0.064810738 1.3442004
-0.10478534 0.064754978 1.3430002
-0.13127118 0.072140023 1.3490001
-0.12393892 0.074978322 1.3490001
-0.11557953 0.0754788 1.3452502
-0.10478534 0.075351253 1.3430003
-0.095366426 0.077705979 1.3430001
-0.034585085 0.078215905 1.3450001
-0.028382961 0.076870516 1.3490001
-0.12299282 0.083966255 1.3490001
-0.11580275 0.085080162 1.3478754
-0.10478532 0.084770158 1.3430003
-0.095366426 0.085305326 1.3430003
-0.043185655 0.085434146 1.3460002
-0.037134372 0.082547106 1.3490001
-0.1227563 0.093900286 1.3490001
-0.11583464 0.094557278 1.3482503
-0.10480978 0.094210908 1.3433003
-0.095955111 0.09389472 1.3430002
-0.046038151 0.09373197 1.3466001
-0.11424142 0.1035978 1.3490001
-0.10501467 0.10501382 1.3458803
-0.0951702 0.10615893 1.3430003
-0.052602977 0.1059166 1.3454001
-0.1050045 0.11571036 1.3490005
-0.094399482 0.11564463 1.3460002
-0.084794804 0.11541481 1.3433752
-0.076266974 0.11708224 1.3430002
-0.064375632 0.11751086 1.3440911
-0.057074215 0.11297107 1.3470001
-0.1026517 0.12464849 1.3490001
-0.094609864 0.12535806 1.3490003
-0.085102849 0.12529033 1.3482503
-0.075477488 0.12501419 1.3452504
-0.066770643 0.12455375 1.347154
-0.10052298 0.13481905 1.3490001
-0.094609857 0.13481908 1.3490003
-0.085148878 0.13363642 1.3490001
-0.075687893 0.13127118 1.3490001
-0.15249792 0.0051626898 1.3590001
-0.14524262 0.0059508132 1.358
-0.13666944 0.0059569501 1.3590001
-0.15289503 0.01469381 1.3590001
-0.14636417 0.014279146 1.3573335
-0.13582443 0.014031222 1.3566666
-0.12760322 0.014837584 1.3540001
-0.15282284 0.024802573 1.3590001
-0.1453018 0.02533669 1.3548334
-0.13703333 0.022816904 1.3540001
-0.16083765 0.039315868 1.3590001
-0.15405159 0.035688005 1.3569168
-0.14521049 0.032049179 1.3540001
0.017870849 0.034550309 1.3590001
0.020849325 0.035146005 1.3590001
-0.15512279 0.044932805 1.3570771
-0.012463571 0.048073769 1.3540001
-0.0055393646 0.047875937 1.3540001
0.0011870067 0.048667274 1.3540001
-0.15401307 0.054514505 1.3586154
-0.14587314 0.055357467 1.3550001
-0.013091044 0.053565431 1.3577501
-0.0043684305 0.052024033 1.3590001
0.00238278 0.051229771 1.3590001
-0.15289505 0.063937932 1.3590001
-0.14631924 0.064236075 1.3569168
-0.13808845 0.064889707 1.3540001
-0.014693809 0.062349409 1.3590001
0.017805099 0.067659378 1.3540001
0.021426391 0.06546399 1.3577502
-0.15300854 0.074036375 1.3590001
-0.14548139 0.075281166 1.3584735
-0.13479173 0.075123556 1.3562728
-0.12819673 0.077155434 1.3540001
-0.024991795 0.079154015 1.3577502
-0.14452477 0.085505143 1.359
-0.13462217 0.086045347 1.3569168
-0.12724712 0.086176679 1.3540001
-0.034833726 0.08649645 1.3568572
-0.028593361 0.083397299 1.3590001
-0.15130652 0.098885372 1.3590001
-0.1453117 0.095285214 1.3586428
-0.13547793 0.095068194 1.3555626
-0.1270097 0.095284253 1.3540001
-0.043995954 0.096320681 1.3565001
-0.039315868 0.091737032 1.3590001
-0.15130652 0.10484232 1.3590001
-0.1455525 0.10505574 1.3586667
-0.13572595 0.1043498 1.3556666
-0.12534812 0.10448506 1.3543571
-0.11819195 0.10598274 1.3540001
-0.051041286 0.10801761 1.3540001
-0.046970047 0.10286675 1.3565001
-0.15130652 0.11437344 1.3590001
-0.14534958 0.11437345 1.3589998
-0.13581847 0.11437345 1.3589998
-0.12519713 0.1145401 1.3587366
-0.11487455 0.11523776 1.3551539
-0.055789314 0.11513965 1.3540001
-0.04884699 0.11079927 1.3590001
-0.14495242 0.12496355 1.3589997
-0.13589789 0.12366628 1.3589998
-0.1246627 0.12487933 1.3589997
-0.11445359 0.12542041 1.3567777
-0.1068306 0.12700972 1.3540001
-0.062436551 0.12653491 1.3540001
-0.14296681 0.13462706 1.3590001
-0.12390456 0.13224429 1.3590001
-0.11270551 0.13367395 1.3590001
-0.10584157 0.13556935 1.3565001
-0.085464485 0.13887978 1.3540001
-0.076004043 0.13508612 1.3546251
-0.065465085 0.13420759 1.3577502
-0.14177541 0.14177541 1.3590001
-0.10444965 0.14384593 1.358091
-0.095512047 0.14333794 1.3562224
-0.085780084 0.14237112 1.3590001
-0.079823129 0.14177541 1.3590001
-0.15676115 -0.00119665 1.365
-0.15646198 0.0050857626 1.3649999
-0.14958125 0.00358995 1.365
-0.16154775 0.0167531 1.365
-0.15812874 0.01384695 1.3649999
-0.16154775 0.025129652 1.365
-0.15809076 0.025395572 1.3649999
-0.16394106 0.036298379 1.3649999
-0.15915444 0.034702852 1.3650001
0.0167531 0.039489448 1.365
0.021938583 0.037893917 1.3650001
-0.16394107 0.0454727 1.3649999
-0.15676115 0.049062651 1.365
0.0071799001 0.049062651 1.365
0.015004152 0.046117052 1.3649999
0.022257691 0.045712031 1.3649999
-0.16394106 0.055045906 1.3649999
-0.15915444 0.056242544 1.3650001
-0.01268449 0.056242548 1.365
-0.0056840875 0.056242552 1.3649999
0.0047866004 0.052652597 1.365
0.015556451 0.053450365 1.3649999
0.021140816 0.05384925 1.3650001
-0.16394106 0.064619094 1.3649999
-0.15812874 0.065131947 1.3649999
-0.013429072 0.065283902 1.3649999
0.017949751 0.063422449 1.3650001
0.021140816 0.061826915 1.3650001
-0.16394107 0.074192308 1.3649999
-0.15676114 0.074670963 1.3649999
-0.14000805 0.075388953 1.3650001
-0.13761474 0.075388953 1.365
-0.02034305 0.076585606 1.365
-0.017949751 0.0741923 1.365
-0.16450417 0.085384488 1.3649999
-0.15562749 0.085214064 1.3649999
-0.14411084 0.085645951 1.3649999
-0.13761474 0.081372201 1.365
-0.032309551 0.089748748 1.365
-0.026326301 0.085560463 1.3649999
-0.16496675 0.093851551 1.3649999
-0.1555645 0.095390104 1.3649999
-0.14958125 0.092142053 1.365
-0.04188275 0.098125294 1.365
-0.036830228 0.094801277 1.3649999
-0.15676112 0.10530522 1.3649999
-0.043797392 0.10506587 1.365
-0.039489448 0.10171525 1.365
-0.15654357 0.11455204 1.3649999
-0.052652597 0.1172717 1.365
-0.049062651 0.11368175 1.365
-0.15388919 0.12397294 1.3649999
-0.14958125 0.12325495 1.365
-0.13522145 0.12804155 1.365
-0.12804155 0.12086165 1.365
-0.057439201 0.12564825 1.365
-0.15293187 0.13234949 1.365
-0.14519353 0.13482256 1.3649999
-0.1340248 0.13402481 1.3649999
-0.12477796 0.13522145 1.3649999
-0.11607505 0.13590525 1.3649999
-0.071798995 0.13761474 1.365
-0.0622258 0.1364181 1.365
-0.05863585 0.13043486 1.365
-0.14445274 0.1432561 1.3649999
-0.13393274 0.14276956 1.3649999
-0.12415243 0.14374758 1.3649999
-0.1148784 0.14479464 1.3649999
-0.10602319 0.1491026 1.365
-0.094934233 0.14878349 1.3649999
-0.086158797 0.14539297 1.365
-0.0741923 0.14060637 1.365
-0.1124851 0.15197454 1.365
-0.10570409 0.15277232 1.3649999
-0.098125294 0.15197454 1.365
-0.16164331 -0.0024125867 1.376
-0.15973744 -0.0012010334 1.3700001
-0.16341712 0.0056188484 1.3740001
-0.15973744 0.0024020667 1.3700001
-0.16553064 0.013974592 1.3742002
-0.17089154 0.02493006 1.376
-0.16583401 0.024031846 1.37075
-0.17430912 0.035489086 1.3741539
-0.16774434 0.033228591 1.37
0.026072651 0.035694942 1.3726668
0.033908714 0.037173923 1.3742857
-0.1740078 0.044934426 1.3760002
-0.16934569 0.045639265 1.3700001
0.026823079 0.045238923 1.37
0.034612004 0.045491714 1.3712635
-0.17298245 0.056213271 1.376
-0.16934569 0.055247534 1.3700001
-0.014412399 0.056448568 1.3700001
-0.0024020667 0.058850631 1.3700001
0.0052845469 0.056928985 1.37
0.013691781 0.056208365 1.37
0.02466738 0.055524703 1.3700001
0.031650882 0.05328526 1.3710002
-0.17342417 0.065031357 1.3737501
-0.16934569 0.064855799 1.3700001
-0.0108093 0.0684589 1.3700001
-0.0048110373 0.064984344 1.3726251
0.0047323811 0.064304702 1.3760002
0.013246436 0.065045156 1.3740001
-0.17377405 0.075047344 1.3733335
-0.16934569 0.074464068 1.3700001
-0.014135241 0.074186914 1.3700001
-0.0078409063 0.073583893 1.376
0.014458424 0.072300017 1.3745
-0.17412916 0.084775776 1.3736001
-0.16934569 0.082871303 1.3700002
-0.021618599 0.085273363 1.37
-0.017596103 0.084607095 1.3748
-0.17358954 0.09328571 1.3740001
-0.16454159 0.096883357 1.37
-0.15973744 0.097283699 1.3700001
-0.032427903 0.097283706 1.37
-0.024062417 0.093861751 1.3726251
-0.0180944 0.091678292 1.376
-0.17048945 0.10414332 1.376
-0.16500756 0.10540501 1.3723077
-0.042836856 0.10849335 1.3700002
-0.035268176 0.1051295 1.3738573
-0.026538454 0.10012235 1.376
-0.17008735 0.11339157 1.376
-0.1647837 0.11529443 1.3738183
-0.15973744 0.1189023 1.3700001
-0.051644433 0.1189023 1.3700001
-0.045235749 0.11369741 1.3734287
-0.039807681 0.11218528 1.376
-0.1624475 0.12505241 1.376
-0.1585364 0.12490746 1.3700001
-0.054668933 0.12451402 1.3736001
-0.16043702 0.13269226 1.376
-0.15615964 0.1358881 1.3717144
-0.061252698 0.13811883 1.3700001
-0.05777321 0.13240033 1.3730001
-0.15231803 0.14365585 1.3724
-0.14452435 0.1477271 1.3700002
-0.13491608 0.1477271 1.3700002
-0.12851056 0.1477271 1.3700001
-0.08425644 0.14745007 1.3730001
-0.074707344 0.14399557 1.3745
-0.066149764 0.14072604 1.3720001
-0.14352857 0.1512236 1.3712001
-0.17318411 -0.0033003993 1.3870001
-0.16615304 -0.0046110917 1.3834
-0.1746532 0.0050992197 1.3854002
-0.16747694 0.0040355888 1.381
-0.18464866 0.017196817 1.3870001
-0.17472139 0.01455968 1.3840003
-0.19090205 0.026750606 1.3870001
-0.18482234 0.02431873 1.3870003
-0.17618701 0.0237482 1.3822
0.027906053 0.026690116 1.3840001
0.034349848 0.027480578 1.383
-0.19171268 0.033235602 1.3870001
-0.1841304 0.034909278 1.3832108
-0.17796947 0.031477593 1.381
0.024213534 0.030266916 1.381
0.034417812 0.031304639 1.3809999
-0.19130737 0.044179033 1.3870001
-0.18461831 0.045743074 1.3838239
-0.17736413 0.047821727 1.381
-0.19090205 0.053501211 1.3870001
-0.18442786 0.055812106 1.3840003
-0.17693174 0.055172261 1.3809999
-0.19090205 0.066876523 1.3870001
-0.18432727 0.065481745 1.3832502
-0.17796947 0.065376535 1.381
0.0052462653 0.069008566 1.381
-0.19090205 0.075388074 1.3870001
-0.18432727 0.075184256 1.3832502
-0.17796947 0.07385128 1.381
-0.010896089 0.078693986 1.381
-0.0042452584 0.074317008 1.3840001
0.0052620452 0.073292546 1.3856667
0.01092765 0.074068688 1.3850001
-0.19090205 0.083899632 1.3870001
-0.18442787 0.084931456 1.3840003
-0.17796947 0.08232601 1.381
-0.013337431 0.084408268 1.3834001
-0.18447933 0.094625585 1.3850001
-0.1767588 0.096854135 1.381
-0.014579843 0.09275075 1.386
-0.18312004 0.10408418 1.3870001
-0.17583852 0.10448904 1.3815455
-0.030266916 0.10775022 1.381
-0.024663847 0.10364781 1.3836668
-0.18221678 0.11377693 1.3870001
-0.17479144 0.11516562 1.3810003
-0.16828406 0.11985699 1.381
-0.04516574 0.11854625 1.3818572
-0.035412777 0.11254857 1.3834001
-0.027966544 0.11065023 1.3870001
-0.18117456 0.12037773 1.3870001
-0.17423451 0.12399994 1.3840001
-0.1667707 0.12681839 1.381
-0.053020507 0.12668212 1.3850001
-0.046935152 0.1228096 1.3870001
-0.17205504 0.13192913 1.3870001
-0.16508333 0.13522285 1.3845999
-0.059323158 0.13680646 1.381
-0.183961 -0.014164427 1.3962859
-0.1753066 -0.011607505 1.3935001
-0.18486536 -0.0048996904 1.3965001
-0.17659774 -0.0057529369 1.3920001
-0.19241606 0.0085790595 1.3980001
-0.18569247 0.0048865401 1.3935001
-0.17938703 0.00122032 1.3920001
-0.20222069 0.017158121 1.3980001
-0.1948586 0.015893327 1.3947273
-0.18562423 0.012609973 1.3920001
-0.20222069 0.0245116 1.3980001
-0.19607963 0.024094181 1.394143
0.02565565 0.024428755 1.3935001
0.033751916 0.023956293 1.3962858
-0.20222069 0.034316242 1.3980001
-0.19713111 0.034684442 1.3932002
-0.20222069 0.044120878 1.3980001
-0.19669338 0.044264335 1.3920001
-0.20222069 0.053925522 1.3980001
-0.19577231 0.054783955 1.3928001
-0.20222069 0.066181317 1.3980001
-0.19659321 0.064929791 1.3940002
-0.20369139 0.07770177 1.3980001
-0.19668587 0.075740933 1.3935
-0.0030507999 0.078710631 1.3920001
0.0043582856 0.078274801 1.3920001
-0.20222069 0.082113862 1.3980001
-0.19567637 0.085401356 1.395
-0.01098288 0.089083359 1.3920001
-0.0054185512 0.08306367 1.3962858
0.0036749865 0.081996389 1.396
-0.19386666 0.09509787 1.3966668
-0.18670896 0.096405283 1.3920001
-0.19274113 0.10457721 1.3968002
-0.18847193 0.1058391 1.3930001
-0.0244064 0.10738815 1.3920001
-0.18752164 0.11414111 1.3950001
-0.033493575 0.11662052 1.3944001
-0.025737179 0.11152778 1.3980001
-0.17816672 0.12691328 1.3920001
-0.050033119 0.12813359 1.3920001
-0.0440262 0.12535501 1.3950001
-0.03799298 0.12133242 1.3980001
-0.19242132 -0.02174484 1.4039999
-0.18831852 -0.020924279 1.404
-0.19394518 -0.01441841 1.404
-0.20062692 -0.00246168 1.404
-0.19500019 -0.0052750288 1.404
-0.20216548 0.0058464902 1.4040002
-0.19592734 0.0045876768 1.4040002
-0.21047364 0.0184626 1.404
-0.20513999 0.013949521 1.4040002
-0.19734468 0.01189812 1.4039999
-0.21047364 0.025027081 1.4039999
-0.20678113 0.0246168 1.4040002
0.033232681 0.020924279 1.404
-0.21047364 0.035694361 1.4039999
-0.20678113 0.034463521 1.4040002
-0.21047364 0.044310242 1.404
-0.20678113 0.044310238 1.4040002
-0.21129419 0.051284999 1.4039999
-0.20678113 0.054156959 1.4040002
-0.20604262 0.063511342 1.4040002
-0.20582382 0.072893076 1.4040002
-0.20443134 0.086046912 1.4040002
-0.0041848561 0.086897306 1.404
0.00123084 0.084927961 1.404
-0.20124234 0.09415926 1.404
-0.19816524 0.097236358 1.4039999
-0.19652413 0.1046214 1.4039999
-0.19324188 0.11200644 1.404
-0.028309319 0.11446812 1.404
-0.20445418 -0.02447135 1.4150001
-0.197776 -0.023485899 1.41
-0.20473033 -0.014767447 1.4126923
-0.1990121 -0.0173054 1.4100001
-0.21410742 -0.0022328701 1.4150001
-0.20588112 -0.0053022681 1.4110714
-0.21534498 0.0052021397 1.4133335
-0.20735577 0.0040173251 1.41
-0.21553549 0.014600005 1.4113333
0.037083 0.0173054 1.4100001
0.041711796 0.017758345 1.4133334
-0.21617587 0.024653891 1.4115385
0.037495032 0.021837765 1.4100002
0.042439431 0.022661833 1.41
-0.22204651 0.035974018 1.4150001
-0.21623491 0.034371741 1.4119232
-0.22254269 0.044905495 1.4150001
-0.21644682 0.044524435 1.4108334
-0.22204651 0.053340781 1.4150001
-0.21598503 0.055115361 1.4115385
-0.21443413 0.063979127 1.4125
-0.21373177 0.074296191 1.4125
-0.21365595 0.08417578 1.4119999
-0.2089009 0.086527005 1.4100001
-0.21212265 0.091795765 1.4150001
-0.20692182 0.094647132 1.41125
-0.0074429 0.09055528 1.4150001
-0.20266706 0.10319462 1.4125
-0.1990121 0.1063046 1.4100001
-0.2226786 -0.043785114 1.427
-0.21592316 -0.043785114 1.427
-0.22431454 -0.034739397 1.427
-0.21500392 -0.035003435 1.4258749
-0.20735507 -0.034077495 1.4220001
-0.23143561 -0.028773077 1.427
-0.22518061 -0.025020067 1.427
-0.21444045 -0.024933606 1.4221251
-0.20803913 -0.028652096 1.4210001
-0.22518061 -0.015012042 1.427
-0.21476245 -0.015048803 1.4226002
-0.2322696 -0.0020850056 1.427
-0.22494654 -0.0050013834 1.4255
-0.21600102 -0.0069458303 1.4218572
-0.23343723 0.0055044144 1.427
-0.2253924 0.0047019678 1.4228463
-0.23268661 0.012510033 1.427
-0.22587974 0.014976535 1.4235002
-0.23143561 0.025020067 1.427
-0.22587974 0.024957387 1.4235001
-0.23143561 0.035028093 1.427
-0.22673784 0.034531023 1.4236667
-0.23226963 0.045036122 1.427
-0.22717826 0.044722896 1.4227145
-0.22673784 0.055330817 1.4236668
-0.22364636 0.065243214 1.4237274
-0.21800508 0.066024393 1.4210001
-0.22252584 0.073964149 1.4240001
-0.21800508 0.074744597 1.4210001
-0.22142759 0.082566217 1.427
-0.21892558 0.085068226 1.427
-0.0062550167 0.092574246 1.427
-0.24095096 -0.069383785 1.439
-0.2361775 -0.069094487 1.4330001
-0.23212029 -0.051722456 1.439
-0.22738366 -0.051506795 1.4330001
-0.24095096 -0.042891793 1.439
-0.234861 -0.045005757 1.4368182
-0.22738367 -0.045644235 1.4330001
-0.21733356 -0.046481743 1.4330001
-0.24095096 -0.035743162 1.439
-0.23516977 -0.035211757 1.4345001
-0.22989619 -0.036431637 1.4330001
-0.24095096 -0.025230467 1.439
-0.2353304 -0.024799861 1.4340911
-0.24196017 -0.014381366 1.439
-0.23530778 -0.014978524 1.4330003
-0.2446257 -0.0037815643 1.4372857
-0.23685397 -0.0057015023 1.4330003
-0.24557318 0.0050360118 1.4365001
-0.23910879 0.0041875443 1.4330001
-0.24397664 0.014279732 1.4370002
-0.23701502 0.015912667 1.4330002
-0.24095096 0.02649199 1.439
-0.23659627 0.024706513 1.4330001
-0.24095096 0.035322655 1.439
-0.2361775 0.035175372 1.4330001
-0.24095096 0.042891793 1.439
-0.23676194 0.045259669 1.434
-0.23404607 0.054869443 1.4364287
-0.23169978 0.066019721 1.439
-0.22989619 0.062813163 1.4330001
-0.23085877 0.071906827 1.439
-0.2268635 0.076739021 1.4350001
-0.24322239 -0.051938117 1.4450001
-0.23536834 -0.053964965 1.4450001
-0.24347575 -0.04636427 1.4450001
-0.23815528 -0.04940455 1.4450001
-0.24385577 -0.035469934 1.4450001
-0.24575597 -0.025335668 1.4449999
-0.24730426 -0.015342155 1.4449999
-0.24854288 -0.00684063 1.4450001
-0.25208989 0.0088674836 1.4450001
-0.24828953 0.015201401 1.4450001
-0.24512258 0.023435492 1.4450001
-0.24448918 0.036736716 1.4450001
-0.24280012 0.046026457 1.4450001
-0.23857753 0.055316206 1.4450001
-0.2349883 0.065872729 1.4450001
-0.25180146 -0.070299901 1.4580001
-0.24745932 -0.070155248 1.455
-0.25231272 -0.064675912 1.4580001
