# .PCD v0.7 - Point Cloud Data file format
VERSION 0.7
FIELDS x y z
SIZE 4 4 4
TYPE F F F
COUNT 1 1 1
WIDTH 1493
HEIGHT 1
VIEWPOINT 0 0 0 1 0 0 0
POINTS 1493
DATA ascii
-0.44523317 0.10505842 1.1635
-0.1773793 0.10430562 1.1642001
-0.45372581 0.11240736 1.1656667
-0.44681859 0.11094129 1.161
-0.18083091 0.11840523 1.161
-0.17888382 0.11448828 1.1660001
-0.18265612 0.12398389 1.1640002
-0.45857117 0.13992038 1.1650001
-0.19380702 0.13705269 1.1612501
-0.1871839 0.13548794 1.1620001
-0.46140456 0.14527243 1.1670001
-0.45625722 0.14554136 1.1630001
-0.19628216 0.14444123 1.1661428
-0.18959232 0.14245044 1.169
-0.46129468 0.15319751 1.1650001
-0.45492902 0.15488821 1.1632224
-0.44763285 0.15857479 1.161
-0.19465047 0.15688804 1.164
-0.46049678 0.16304116 1.1660001
-0.45449156 0.16487372 1.1658424
-0.44436479 0.16540273 1.1633528
-0.43655196 0.166678 1.1616668
-0.45502156 0.1711455 1.169
-0.44500601 0.17192632 1.1681111
-0.43787396 0.1718775 1.1670001
-0.20152637 0.17709894 1.161
-0.19471194 0.17636612 1.1628668
-0.18778594 0.17608112 1.161
-0.4366405 0.18829484 1.161
-0.21136521 0.1876163 1.161
-0.20493302 0.18484361 1.1636001
-0.19650786 0.18218762 1.1667777
-0.18894358 0.18077305 1.1650001
-0.44304717 0.19668323 1.1685001
-0.43534106 0.19500907 1.1646003
-0.42636606 0.1961468 1.1627144
-0.21481478 0.19472265 1.1629049
-0.20745073 0.19381623 1.1666666
-0.4351882 0.20442213 1.169
-0.4250834 0.20469439 1.1664118
-0.41521215 0.20644981 1.1631819
-0.40814182 0.20865105 1.161
-0.21637022 0.20469905 1.1650001
-0.42188561 0.21077199 1.169
-0.4145022 0.21329562 1.1686
-0.40478629 0.21511838 1.1661767
-0.39494413 0.21433526 1.1654446
-0.38541734 0.21678157 1.1639091
-0.37470362 0.21834329 1.1632223
-0.36742941 0.21882915 1.161
-0.22086477 0.21882915 1.161
-0.21712773 0.21529217 1.165
-0.40480521 0.22033702 1.169
-0.39373714 0.22218168 1.1689999
-0.38460159 0.22472911 1.1690001
-0.37470835 0.22487414 1.1668825
-0.36498994 0.22521748 1.1642942
-0.35668308 0.22711401 1.1638
-0.33282387 0.22900724 1.161
-0.32470453 0.22827785 1.161889
-0.31540209 0.22834252 1.1615001
-0.30839643 0.22900724 1.161
-0.25648811 0.22900724 1.161
-0.23239994 0.22765017 1.1610001
-0.22477779 0.22517222 1.1627142
-0.21871926 0.22144981 1.1676668
-0.3822591 0.23058526 1.169
-0.37474376 0.23195165 1.169
-0.36586192 0.23201999 1.1689999
-0.35533324 0.23534492 1.1668825
-0.34423351 0.23528111 1.1647649
-0.33508188 0.23521607 1.1662631
-0.32551551 0.2351927 1.1666843
-0.31521815 0.23526174 1.1665241
-0.30495858 0.23578116 1.166647
-0.29473123 0.23562185 1.1659999
-0.28409871 0.23748899 1.1643333
-0.27408701 0.23781358 1.1654999
-0.26482391 0.23540001 1.1647646
-0.25510377 0.23500513 1.1652106
-0.24511249 0.2367454 1.1650002
-0.23612592 0.23350869 1.1638572
-0.22751078 0.23161007 1.169
-0.3515144 0.24083348 1.169
-0.34434062 0.24083348 1.169
-0.33511725 0.24083348 1.169
-0.3253814 0.24160211 1.169
-0.31441578 0.24206328 1.1689999
-0.30495816 0.24463998 1.169
-0.29378387 0.24351095 1.1687334
-0.28559723 0.24158245 1.1676668
-0.27493012 0.24216381 1.168
-0.26542926 0.24083348 1.169
-0.25569344 0.24083348 1.169
-0.24410325 0.24137817 1.1672223
-0.23878384 0.24083348 1.169
-0.39312977 -0.055719182 1.177
-0.37042937 -0.050559998 1.177
-0.36836568 -0.050559998 1.177
-0.3924419 -0.047808435 1.177
-0.37082824 -0.044297088 1.1750001
-0.36462682 -0.043362282 1.176158
-0.35517806 -0.043722812 1.1743335
-0.34571788 -0.041800022 1.1733638
-0.27240488 -0.040241629 1.177
-0.26567242 -0.042633872 1.1746001
-0.22296703 -0.040883932 1.1756667
-0.36402881 -0.038048211 1.1730001
-0.35066053 -0.037019879 1.1730001
-0.34404892 -0.035228413 1.1732502
-0.33552533 -0.033832256 1.1748463
-0.32445312 -0.033280421 1.1762729
-0.31463796 -0.034043361 1.1767334
-0.30480453 -0.033225141 1.177
-0.29544923 -0.031986937 1.177
-0.28323916 -0.032502856 1.177
-0.27501565 -0.035209797 1.1743336
-0.26736581 -0.038048211 1.1730001
-0.22249626 -0.035022832 1.1750001
-0.21978121 -0.036114283 1.177
-0.39590704 -0.023651591 1.1730001
-0.34037724 -0.029821569 1.1730001
-0.33489278 -0.029478794 1.1730002
-0.3255693 -0.027970579 1.1730002
-0.31535453 -0.027079361 1.1730002
-0.30537194 -0.025892062 1.1735002
-0.29545107 -0.02573939 1.1742802
-0.28561625 -0.026422193 1.1741431
-0.27799189 -0.029136015 1.1730001
-0.22214493 -0.026515001 1.1745001
-0.21978121 -0.025795916 1.177
-0.30335736 -0.01953827 1.1730001
-0.2951307 -0.019195491 1.1730002
-0.22257236 -0.01545651 1.1754001
-0.21978121 -0.017541224 1.177
-0.22421364 -0.0054908558 1.1750001
-0.222498 0.0041185799 1.1750001
-0.17378777 0.083294727 1.1730001
-0.17225817 0.098580644 1.1738001
-0.16967446 0.095634691 1.1730001
-0.45760685 0.10694632 1.1730001
-0.17427967 0.1049367 1.1747779
-0.45760685 0.11105964 1.1730001
-0.1774396 0.11190598 1.1754
-0.18057142 0.12278856 1.177
-0.17995775 0.12031461 1.1730001
-0.18538666 0.13310693 1.177
-0.19304542 0.14773342 1.1747779
-0.18861222 0.14326514 1.1756667
-0.19481105 0.15453482 1.1757693
-0.45323664 0.17511591 1.1750001
-0.4462952 0.17584443 1.1730001
-0.20155267 0.1881844 1.1730001
-0.19510323 0.18666738 1.1738002
-0.20364957 0.1944917 1.1752223
-0.19845659 0.19157767 1.177
-0.4451437 0.20590885 1.1739233
-0.43806857 0.20875099 1.1730001
-0.21386951 0.20550469 1.1750001
-0.20877072 0.20258495 1.1760001
-0.44368973 0.21152651 1.177
-0.43432257 0.21098736 1.174
-0.42483631 0.21573111 1.1750002
-0.41647363 0.21785906 1.1730002
-0.21530342 0.21427421 1.1765001
-0.4123849 0.22268823 1.1760001
-0.40523475 0.22247715 1.1738001
-0.39504832 0.22735691 1.1735002
-0.38973707 0.22931759 1.1730001
-0.22109094 0.22931759 1.1730001
-0.21631423 0.22544035 1.1750001
-0.3910661 0.23422691 1.177
-0.38563982 0.23566748 1.1754616
-0.37571195 0.23672016 1.1734446
-0.36629114 0.23754422 1.1730002
-0.35888717 0.23960088 1.1730001
-0.34860387 0.23754422 1.1730001
-0.23266441 0.23712869 1.1743335
-0.22492644 0.23495699 1.1751333
-0.2173048 0.23298874 1.177
-0.37331852 0.24124341 1.177
-0.36411524 0.24301831 1.1766001
-0.35458472 0.24330671 1.1752857
-0.34366789 0.24494822 1.1730002
-0.33514208 0.24539696 1.1730002
-0.32471165 0.24598126 1.1740001
-0.31558764 0.24655032 1.1734446
-0.30518547 0.24588513 1.1730002
-0.29581624 0.24759899 1.1730002
-0.28530234 0.24650389 1.1742309
-0.27464145 0.24622865 1.1742002
-0.26468471 0.24586496 1.1741431
-0.25437069 0.24581364 1.1754616
-0.24507427 0.2469316 1.1746001
-0.23633356 0.24210835 1.1762002
-0.3147102 0.25125223 1.177
-0.29613712 0.25176814 1.177
-0.28994611 0.25279999 1.177
-0.24764079 0.2507363 1.177
-0.36151978 -0.061292149 1.1850001
-0.35614344 -0.06321796 1.187
-0.34502006 -0.068795539 1.189
-0.40219229 -0.054107863 1.187
-0.39658415 -0.05344981 1.1828183
-0.37086946 -0.055059049 1.1850001
-0.36439714 -0.054781076 1.183
-0.35544193 -0.054405794 1.1858331
-0.34531787 -0.053309102 1.189
-0.33485216 -0.054852463 1.1883041
-0.32513589 -0.053147919 1.1887143
-0.31478718 -0.052784104 1.1883334
-0.30532742 -0.055231161 1.1886797
-0.29536593 -0.054771103 1.1889997
-0.28496051 -0.05514564 1.1889998
-0.27699015 -0.052580032 1.1863334
-0.2261914 -0.051075477 1.189
-0.40130731 -0.045863692 1.189
-0.39711308 -0.043992762 1.1827143
-0.36606783 -0.046886262 1.1810001
-0.3524211 -0.047889419 1.1838572
-0.34396631 -0.045603212 1.1839333
-0.33527616 -0.044637442 1.1840398
-0.32542381 -0.044859756 1.1853331
-0.31497705 -0.044704664 1.1834999
-0.30457473 -0.044404227 1.1839628
-0.29506925 -0.044915177 1.1861428
-0.28563032 -0.044517707 1.1854999
-0.27530321 -0.045286134 1.1829046
-0.22316195 -0.045240387 1.1850001
-0.21694466 -0.042306002 1.1886001
-0.40130731 -0.03439777 1.189
-0.39787954 -0.038437448 1.1850001
-0.33395573 -0.037387397 1.1810001
-0.32554153 -0.037420265 1.1810001
-0.31577969 -0.038307704 1.1810001
-0.30501214 -0.037065286 1.181
-0.2951211 -0.035787135 1.1821765
-0.2856681 -0.036264319 1.1818572
-0.22052813 -0.034856562 1.1810001
-0.21545035 -0.034146599 1.1863331
-0.20599571 -0.032834236 1.1889999
-0.19700539 -0.030228341 1.189
-0.21525307 -0.024956599 1.1861999
-0.20534424 -0.025016557 1.1889998
-0.19538398 -0.024784924 1.1889998
-0.22052813 -0.012424121 1.1810001
-0.21526723 -0.01559874 1.1862798
-0.20509897 -0.016493762 1.1889999
-0.19521853 -0.016330257 1.1889998
-0.18580008 -0.013290048 1.189
-0.22239032 -0.0051856427 1.1839093
-0.21678446 -0.0063121542 1.1885293
-0.20951369 -0.0093812095 1.189
-0.18396272 -0.0055065937 1.1884286
-0.22208977 0.0034657556 1.1856667
-0.21993725 0.0052117831 1.189
-0.1810226 0.0031270701 1.189
-0.17824298 0.0052117831 1.189
-0.21852495 0.013008418 1.187
-0.17175491 0.10566652 1.1832857
-0.16882817 0.10608543 1.1863334
-0.17550591 0.11549217 1.1855
-0.18193828 0.12719318 1.1878573
-0.17708001 0.12437533 1.1882001
-0.18616104 0.13554524 1.1863333
-0.18839084 0.14686841 1.1840001
-0.19117032 0.15625882 1.1830001
-0.18829958 0.15442815 1.1854001
-0.19179362 0.16260764 1.189
-0.18866655 0.16260764 1.189
-0.19153851 0.18946783 1.1810001
-0.20257822 0.19801848 1.1826001
-0.19519474 0.19581407 1.1854706
-0.21017469 0.20810401 1.1810001
-0.20587863 0.20492075 1.1865386
-0.19492069 0.20117483 1.189
-0.45134044 0.2188949 1.189
-0.44450358 0.21706267 1.1846668
-0.43533573 0.21663283 1.1823335
-0.42966747 0.21845745 1.1810001
-0.21246041 0.21605617 1.1853638
-0.20916624 0.21507293 1.189
-0.45134044 0.22306433 1.189
-0.44437128 0.22354035 1.1882
-0.43517193 0.22449058 1.1866
-0.42498422 0.22576295 1.1828823
-0.41581932 0.22686803 1.1824286
-0.40557095 0.2269509 1.182091
-0.21304101 0.22412518 1.1854445
-0.43327293 0.23036082 1.189
-0.42358154 0.23484509 1.1875715
-0.41446325 0.23468094 1.1866469
-0.40566692 0.23508036 1.1865
-0.39652246 0.23654886 1.1827145
-0.22156347 0.23916431 1.1810001
-0.21463375 0.2351664 1.1817273
-0.40495557 0.24130557 1.189
-0.39368519 0.24421665 1.1876668
-0.3850334 0.24483675 1.1853079
-0.37632158 0.24541275 1.182
-0.36521739 0.24770588 1.1810001
-0.35589927 0.24822354 1.1810001
-0.33441591 0.24951774 1.1810001
-0.32613313 0.24951774 1.1810001
-0.28471941 0.24951774 1.1810001
-0.27436599 0.24951774 1.1810001
-0.26401255 0.24951774 1.1810001
-0.25883585 0.24951774 1.1810001
-0.23442258 0.24600025 1.1823334
-0.22512467 0.24484141 1.1833999
-0.21790555 0.24426593 1.1867778
-0.38046017 0.25120795 1.189
-0.37373573 0.25219312 1.1875001
-0.36516094 0.25305259 1.1860911
-0.35390419 0.25441921 1.1860527
-0.34531373 0.25546151 1.187222
-0.3352398 0.25597939 1.1867142
-0.32517958 0.25604901 1.1864117
-0.3152065 0.25605518 1.1838572
-0.30562127 0.2570602 1.1871333
-0.29532054 0.25678676 1.1849999
-0.28521222 0.25591591 1.1852
-0.27517474 0.25548717 1.185421
-0.26564202 0.2553654 1.1866469
-0.25469097 0.25510982 1.1858001
-0.24456644 0.25570306 1.1859411
-0.23488045 0.25192508 1.1879092
-0.22577445 0.25162488 1.189
-0.32000348 0.26163152 1.189
-0.31479171 0.26232642 1.189
-0.30526572 0.26299486 1.1884286
-0.2939446 0.26163152 1.189
-0.28508458 0.2621527 1.189
-0.27497369 0.26204842 1.189
-0.24703853 0.26163152 1.189
-0.35141009 -0.070072845 1.1930001
-0.34446892 -0.070151158 1.1943334
-0.35226578 -0.064748451 1.193
-0.34482607 -0.06475465 1.19375
-0.33555996 -0.06313666 1.1936666
-0.32400364 -0.063640945 1.1960769
-0.31502244 -0.063969493 1.1962001
-0.30485645 -0.062858753 1.1949999
-0.29672271 -0.063435167 1.1960001
-0.28825298 -0.061843868 1.1956667
-0.41156292 -0.053517871 1.197
-0.4068408 -0.053687651 1.193
-0.35203761 -0.058777519 1.1930001
-0.34513491 -0.058568344 1.193
-0.33572215 -0.059614211 1.1930001
-0.32457256 -0.058253039 1.1936667
-0.31585073 -0.058045413 1.193
-0.29319036 -0.058916967 1.1930001
-0.28970414 -0.059614211 1.1930001
-0.2227689 -0.051247302 1.1930001
-0.2151088 -0.052236572 1.1943334
-0.4148536 -0.04431748 1.1965003
-0.40684083 -0.044972129 1.1930001
-0.22137441 -0.048458338 1.1930001
-0.21358854 -0.046017982 1.1930002
-0.20477839 -0.043932863 1.1946844
-0.19735888 -0.042574264 1.1962001
-0.41423881 -0.035285071 1.1970003
-0.40641075 -0.034950692 1.1953532
-0.2112644 -0.038696945 1.1930001
-0.20420481 -0.037128147 1.193
-0.19581008 -0.034851097 1.1938002
-0.18993597 -0.030431731 1.197
-0.40610617 -0.02308614 1.197
-0.19139299 -0.027192447 1.1930001
-0.18819666 -0.024068383 1.1935713
-0.40610617 -0.019938029 1.197
-0.20655802 -0.013857688 1.193
-0.19400765 -0.012027428 1.1930001
-0.187471 -0.017518209 1.193
-0.21283318 -0.0033119004 1.193
-0.20498919 -0.0052293157 1.1930002
-0.19557644 -0.0052293162 1.1930003
-0.18810599 -0.0031375901 1.193
-0.21497971 0.0046676118 1.1946366
-0.20481881 0.0050207614 1.1948949
-0.19556461 0.005062311 1.1940004
-0.18582016 0.0055247527 1.1944548
-0.17884263 0.0073210434 1.1930001
-0.21790251 0.012569647 1.1950001
-0.20210865 0.012382565 1.197
-0.19763134 0.01224265 1.197
-0.18573849 0.01154307 1.197
-0.168384 0.10981565 1.1930001
-0.17126822 0.11580825 1.1936666
-0.16789921 0.11333195 1.197
-0.1734257 0.12441619 1.1946
-0.18346228 0.13436991 1.1943334
-0.17784441 0.13242429 1.1956667
-0.18993597 0.14271432 1.197
-0.18647401 0.1560984 1.1950001
-0.18647401 0.16133296 1.1950001
-0.20231187 0.20684862 1.1936666
-0.19639732 0.20590836 1.1933635
-0.20483568 0.21420839 1.1953532
-0.19623218 0.21092337 1.197
-0.45167249 0.2282484 1.1954
-0.44612074 0.22672965 1.1948183
-0.21103327 0.22673172 1.1936668
-0.207706 0.22279871 1.1954
-0.45017973 0.23191077 1.197
-0.44316849 0.23259525 1.1962001
-0.43545663 0.2349185 1.1948184
-0.4277581 0.23880546 1.1930001
-0.41939119 0.2395027 1.1930001
-0.21231522 0.23466556 1.1950001
-0.43199065 0.2410053 1.197
-0.42446229 0.24315009 1.1955001
-0.4144533 0.24384168 1.1945386
-0.40535346 0.24627444 1.1954
-0.39521039 0.24870537 1.1936666
-0.3880153 0.24996133 1.1930001
-0.21528347 0.24487908 1.1950001
-0.40610617 0.25079942 1.197
-0.39561248 0.25184879 1.197
-0.38468865 0.25366583 1.1956667
-0.37540883 0.25780198 1.1947143
-0.3650063 0.25832823 1.1930001
-0.24159443 0.25832823 1.1930001
-0.23547494 0.25745562 1.1938
-0.22501421 0.25431663 1.1938001
-0.37287614 0.26199272 1.197
-0.36472443 0.26201507 1.1954999
-0.35502917 0.26227742 1.1955
-0.3453097 0.264869 1.195909
-0.33509657 0.26502639 1.1955715
-0.32569149 0.26436394 1.1938
-0.31515756 0.26659405 1.1956667
-0.3044453 0.26508087 1.1942002
-0.29481003 0.26654646 1.1941999
-0.28529921 0.26574719 1.1950001
-0.27489287 0.26609641 1.1949999
-0.26542887 0.26240122 1.1956668
-0.25570399 0.26304194 1.1954002
-0.24524677 0.26427585 1.1946667
-0.23715761 0.26129314 1.197
-0.34176731 -0.072006471 1.202
-0.34246981 -0.06849397 1.202
-0.33512571 -0.06768392 1.2042223
-0.32560977 -0.066737711 1.202
-0.31507227 -0.066737711 1.202
-0.29376855 -0.064743236 1.2028
-0.42044759 -0.051633913 1.202
-0.417631 -0.053392857 1.2036
-0.42293826 -0.045502983 1.2019999
-0.41834006 -0.04847265 1.202
-0.19494437 -0.041096378 1.202
-0.43277177 -0.03207022 1.2060002
-0.42431381 -0.03397356 1.2026666
-0.41763756 -0.031261347 1.202
-0.19195318 -0.036107793 1.2044001
-0.18924955 -0.034889579 1.2060001
-0.44087741 -0.02220246 1.2060001
-0.43523541 -0.024033856 1.2056521
-0.42460296 -0.024526007 1.2028694
-0.41538724 -0.02424667 1.2025998
-0.4093079 -0.025139544 1.202
-0.44087741 -0.01691616 1.2060001
-0.43423176 -0.017369272 1.2060002
-0.4246119 -0.01520828 1.2060002
-0.41672352 -0.015084566 1.2056366
-0.42473096 -0.0056220628 1.2099998
-0.41867495 -0.0063435598 1.2060001
-0.21391194 0.0094837798 1.202
-0.20864317 0.0094837798 1.202
-0.2145786 0.015219448 1.204353
-0.20606861 0.015342341 1.2035384
-0.19463073 0.015418593 1.2024999
-0.18651435 0.015384798 1.2019999
-0.22096734 0.02431698 1.2060001
-0.21412031 0.023914214 1.206
-0.2053728 0.023391878 1.2060001
-0.1955931 0.023092782 1.206
-0.18755791 0.022836816 1.2060002
-0.21180443 0.033714846 1.2060002
-0.16782381 0.11821675 1.204
-0.17166185 0.12518275 1.205
-0.1688793 0.12138326 1.204
-0.18249922 0.13819481 1.2033334
-0.17570727 0.13438323 1.2042859
-0.18609576 0.14353588 1.205143
-0.17867693 0.14061558 1.2060001
-0.18731105 0.15478531 1.2044001
-0.20196939 0.21742444 1.202
-0.19807056 0.21550307 1.2050002
-0.20504968 0.22503017 1.2035999
-0.45185676 0.23735516 1.2033334
-0.44651824 0.23738484 1.2024
-0.43941513 0.23920201 1.202
-0.21109958 0.23687987 1.2052
-0.20804763 0.23128395 1.2046667
-0.44554973 0.24302776 1.2032001
-0.43591711 0.24486496 1.2034545
-0.4237594 0.24823417 1.202
-0.41517881 0.24973954 1.202
-0.40569502 0.24973954 1.202
-0.21391472 0.24601194 1.2044001
-0.42456537 0.2526851 1.2060002
-0.41551292 0.25358048 1.2046666
-0.4053137 0.25385112 1.2040001
-0.39456719 0.25667727 1.2037778
-0.38567373 0.25764269 1.202
-0.22331637 0.2573306 1.2030001
-0.21763651 0.2550436 1.2042857
-0.39012894 0.26114321 1.2060001
-0.38317168 0.26291135 1.2033334
-0.37560627 0.26758084 1.2038182
-0.36495948 0.26792163 1.2032
-0.3554112 0.26787689 1.2030001
-0.34457734 0.2687071 1.202
-0.33614731 0.2687071 1.202
-0.32350227 0.2687071 1.202
-0.2708146 0.2687071 1.202
-0.26449206 0.26736593 1.2019999
-0.25500831 0.2687071 1.202
-0.24231312 0.26719993 1.2028
-0.23579556 0.26500785 1.2043333
-0.22695847 0.26184806 1.2060002
-0.37955633 0.27171582 1.2060001
-0.36616436 0.27171582 1.2060001
-0.35347724 0.27242067 1.2060001
-0.34471762 0.27292624 1.2043334
-0.33532259 0.27331039 1.2045455
-0.32579795 0.27285051 1.204
-0.31550738 0.27277485 1.2036666
-0.30507571 0.27340886 1.2041333
-0.29499766 0.27436525 1.2047694
-0.28533742 0.27285054 1.2040001
-0.27494845 0.27223584 1.2042857
-0.26480615 0.27255547 1.2055557
-0.25511569 0.27198189 1.2025
-0.24669294 0.27265316 1.2036
-0.29586798 -0.06704922 1.2140001
-0.43491435 -0.033944532 1.21
-0.19128954 -0.033128355 1.2190001
-0.44233969 -0.020154567 1.21
-0.4416503 -0.013381089 1.2116001
-0.43505844 -0.013369517 1.2104
-0.42536744 -0.012941353 1.21
-0.41405258 -0.017325856 1.21
-0.44308829 -0.0053354907 1.2178888
-0.43525764 -0.0054185167 1.2144548
-0.41900283 -0.0063645998 1.21
-0.44188952 0.0026716415 1.2190001
-0.43598059 0.0030100748 1.2180909
-0.4271993 0.001915692 1.2140001
-0.22170024 0.020154567 1.21
-0.21798754 0.026519168 1.21
-0.20387936 0.028216396 1.21
-0.19539322 0.028216392 1.21
-0.18593724 0.027428398 1.21
-0.21639639 0.030762233 1.21
-0.20486332 0.035031248 1.2107998
-0.19496079 0.035346404 1.2116364
-0.18545043 0.034766238 1.2112172
-0.1782088 0.039248366 1.21
-0.20411342 0.041677609 1.2190001
-0.19502984 0.042479102 1.219
-0.1848776 0.042746268 1.219
-0.17773364 0.041506659 1.2140001
-0.16357021 0.11944232 1.21
-0.17078343 0.12729201 1.21
-0.16524954 0.12555626 1.2142942
-0.17329197 0.13598965 1.2127273
-0.16934955 0.1339017 1.2180001
-0.18385279 0.14697711 1.2105001
-0.17810754 0.1442989 1.2147502
-0.18512274 0.15315901 1.2155455
-0.2004849 0.21745716 1.21
-0.19624181 0.21745716 1.21
-0.2004849 0.22170024 1.21
-0.19885314 0.22162192 1.2173334
-0.20597276 0.2355774 1.2125385
-0.45153299 0.24857299 1.21
-0.44393086 0.24768902 1.21
-0.43809664 0.24928017 1.21
-0.21153004 0.24534869 1.2138889
-0.2066782 0.24215761 1.2190001
-0.4510569 0.25333875 1.2152002
-0.44552296 0.25454292 1.2166471
-0.43542919 0.25527459 1.2135999
-0.42563263 0.25697073 1.21
-0.41475978 0.25776631 1.21
-0.40555036 0.25850973 1.2110001
-0.39884827 0.25988784 1.21
-0.21372646 0.25559792 1.2129376
-0.20966184 0.25861841 1.2140001
-0.43280593 0.26253331 1.2190001
-0.42463157 0.26370671 1.2163076
-0.41539168 0.26485556 1.2174209
-0.40595314 0.26473591 1.2166667
-0.39459044 0.26554355 1.2122858
-0.38781807 0.2672264 1.2120001
-0.23188357 0.26752535 1.21
-0.22426793 0.26642939 1.2115386
-0.21548678 0.26423872 1.2153752
-0.40074626 0.27037013 1.2190001
-0.39420024 0.27383921 1.2185833
-0.38508365 0.27445254 1.2134167
-0.37537962 0.27584788 1.2129999
-0.36498889 0.27656111 1.2124001
-0.35534981 0.27719471 1.2130001
-0.34510276 0.27827445 1.21
-0.33536533 0.27863899 1.2111429
-0.32535782 0.2783359 1.2111429
-0.31519446 0.27850723 1.2105715
-0.30464414 0.27916607 1.2108001
-0.29383239 0.27898163 1.21
-0.28490177 0.27853191 1.2115
-0.27463776 0.27707115 1.2135715
-0.26563409 0.27802607 1.2120001
-0.25572786 0.27801305 1.2104001
-0.24375829 0.27670413 1.2121001
-0.23583262 0.27388147 1.2143333
-0.22628802 0.27304175 1.219
-0.21800596 0.27037013 1.2190001
-0.38364777 0.2810567 1.2190001
-0.37509847 0.28191161 1.2190001
-0.36349592 0.28227803 1.219
-0.35474065 0.28394407 1.2182857
-0.34489325 0.28376192 1.2163334
-0.33500677 0.28379807 1.2169999
-0.3251383 0.28422046 1.2167271
-0.31563368 0.28424412 1.2179999
-0.30392438 0.28572044 1.2170001
-0.29506594 0.28469652 1.2156667
-0.28509375 0.283602 1.2179999
-0.27571341 0.28176913 1.219
-0.26573929 0.28248158 1.219
-0.25470021 0.28388584 1.2178888
-0.24543481 0.28212538 1.219
-0.1911554 -0.033294924 1.2250001
-0.19254492 -0.02904309 1.2270001
-0.44709212 -0.0010721633 1.223
-0.44601995 0.0032164901 1.223
-0.21121618 0.041814368 1.223
-0.20500927 0.045724887 1.2243332
-0.19525284 0.046817802 1.223
-0.18548426 0.047175191 1.2229999
-0.20314923 0.053661101 1.226077
-0.19468893 0.054630954 1.2258331
-0.18507789 0.052988093 1.2257694
-0.19577193 0.06131319 1.2270001
-0.16189666 0.12865961 1.223
-0.1644486 0.13516009 1.2241764
-0.17399114 0.14492628 1.2245383
-0.16744597 0.14234699 1.2270001
-0.18272063 0.15523961 1.2246001
-0.17934409 0.15249792 1.2250001
-0.1860909 0.16027483 1.2270001
-0.20220999 0.22751305 1.223
-0.1967939 0.22606209 1.2250001
-0.20203796 0.23462333 1.2240909
-0.19780375 0.23437653 1.2270001
-0.21121618 0.24981405 1.223
-0.20508854 0.24589333 1.2248461
-0.21121617 0.25410271 1.223
-0.20842862 0.25450873 1.2264287
-0.45269543 0.26190752 1.2254001
-0.44447669 0.26210845 1.2236668
-0.43549165 0.26673976 1.2252223
-0.42672101 0.269113 1.223
-0.21192497 0.26772478 1.2240001
-0.20952772 0.26325512 1.2256668
-0.42434362 0.27362064 1.2261111
-0.41510448 0.27356988 1.2244285
-0.40584579 0.27486157 1.2247143
-0.3971599 0.27830297 1.2230002
-0.23319554 0.27822638 1.223
-0.22400148 0.27691597 1.2255001
-0.21692942 0.27349135 1.2250001
-0.40122491 0.28074986 1.2270001
-0.39229959 0.2837463 1.2260002
-0.38498807 0.28525418 1.2247778
-0.37594041 0.28745142 1.2255455
-0.36566108 0.28716257 1.2247778
-0.3550795 0.28821179 1.2236668
-0.3452366 0.28841195 1.223
-0.33558714 0.28841195 1.223
-0.32272115 0.28841195 1.223
-0.31360778 0.28787586 1.223
-0.30985519 0.28841195 1.223
-0.29055625 0.28841195 1.223
-0.28455216 0.28798309 1.223
-0.27572659 0.28695974 1.2245386
-0.26488021 0.28742549 1.2245001
-0.25517488 0.28841195 1.223
-0.24583955 0.28666908 1.2255456
-0.23539874 0.28269625 1.2261112
-0.22804204 0.28074986 1.2270001
-0.37325749 0.29150656 1.2270001
-0.36895481 0.29150656 1.2270001
-0.3546125 0.29150656 1.2270001
-0.34313872 0.29150656 1.2270001
-0.33464015 0.2931326 1.2266002
-0.32548574 0.29256451 1.2246667
-0.31533065 0.2919865 1.2245002
-0.30581552 0.29294166 1.2240001
-0.29471672 0.29257303 1.2240911
-0.28505254 0.29258221 1.2270001
-0.27859852 0.29150656 1.2270001
-0.2613878 0.29150656 1.2270001
-0.25501648 0.29190689 1.2256669
-0.24981405 0.29055625 1.223
-0.19179012 -0.032506801 1.2360001
-0.18767782 -0.033883419 1.2354287
-0.19230326 -0.027782151 1.2346667
-0.189623 -0.02925612 1.2360001
-0.19116944 0.059402931 1.2320001
-0.18420909 0.058442876 1.2320002
-0.2004586 0.065013602 1.2360001
-0.19428979 0.065486997 1.2346667
-0.18588972 0.064311385 1.2355001
-0.1787874 0.066097163 1.2360001
-0.19179012 0.070431396 1.2360001
-0.18745589 0.070973173 1.2360001
-0.16145045 0.12786007 1.2360001
-0.16092795 0.13572669 1.2320001
-0.15893966 0.13587749 1.2333335
-0.17172848 0.14796731 1.2320001
-0.16533525 0.14444369 1.2326669
-0.18252902 0.15876783 1.2320001
-0.17567648 0.15188324 1.2337143
-0.18528876 0.16145045 1.2360001
-0.19548965 0.2268112 1.2320001
-0.19397125 0.23554578 1.2329234
-0.189623 0.23621607 1.2360001
-0.20179744 0.24808404 1.2336
-0.19632228 0.24345265 1.2342223
-0.189623 0.24163388 1.2360001
-0.2041004 0.25519148 1.2338462
-0.45231208 0.26634184 1.2333335
-0.44606557 0.26838174 1.2337143
-0.2112942 0.26980644 1.2360001
-0.20806633 0.26324019 1.2340001
-0.44209248 0.27197355 1.2360001
-0.4348442 0.27519113 1.2342223
-0.42482099 0.27901375 1.2320002
-0.41474047 0.27973381 1.2320001
-0.22141093 0.27973381 1.2320001
-0.2160724 0.27706736 1.2336
-0.43017331 0.28172559 1.2360001
-0.42360884 0.28429133 1.2351112
-0.4151201 0.28444067 1.2336668
-0.40563717 0.28454381 1.2333336
-0.39656442 0.28727365 1.2325716
-0.24085189 0.28837425 1.2320001
-0.23438956 0.28710526 1.2335001
-0.22565006 0.28436217 1.2345001
-0.21887912 0.28172559 1.2360001
-0.39333227 0.2922 1.2360001
-0.3847239 0.29387718 1.2337143
-0.3751829 0.29535604 1.2333336
-0.36543289 0.29403719 1.2340002
-0.35466272 0.29573509 1.2346667
-0.34562689 0.29591149 1.2328002
-0.33481655 0.29809472 1.2320001
-0.32509604 0.29787868 1.2320001
-0.31556633 0.29696837 1.2336
-0.30526352 0.2973361 1.2333335
-0.29341447 0.29701465 1.2320001
-0.28442153 0.29740039 1.2336
-0.27515894 0.29529858 1.2338462
-0.26587945 0.29501563 1.2338669
-0.2544713 0.29650119 1.2337143
-0.24520166 0.29217499 1.2337143
-0.34457207 0.30014613 1.2360001
-0.33807072 0.30014613 1.2360001
-0.32398444 0.30014613 1.2360001
-0.31603834 0.30014613 1.2360001
-0.30881459 0.30014613 1.2360001
-0.29364479 0.30014613 1.2360001
-0.28605983 0.30014613 1.2360001
-0.26222152 0.30014613 1.2360001
-0.25680372 0.30014613 1.2360001
-0.18197699 -0.032690316 1.243
-0.19039008 -0.025022697 1.2410001
-0.18565989 -0.026521502 1.2433335
-0.18277448 0.068540432 1.2410001
-0.1784227 0.068540432 1.2410001
-0.19039008 0.072892204 1.2410001
-0.18241183 0.072166905 1.2410001
-0.17671306 0.071959682 1.2410001
-0.15751719 0.12789005 1.2426001
-0.15684882 0.13460007 1.2442
-0.16317834 0.14791441 1.2436666
-0.15761888 0.14323136 1.2434
-0.17510295 0.15695344 1.2423334
-0.16781327 0.15255752 1.243
-0.18227215 0.16262604 1.245
-0.17790635 0.16044314 1.245
-0.19069692 0.23319334 1.243
-0.19287367 0.24736114 1.243
-0.18797356 0.24464305 1.243
-0.1950143 0.25466642 1.2427499
-0.20349351 0.26523405 1.2427778
-0.19777261 0.26229605 1.2444285
-0.44451961 0.27621993 1.2434
-0.43844116 0.27960142 1.2410001
-0.21164925 0.27844891 1.2423334
-0.20840949 0.27477315 1.2432222
-0.44203725 0.28050265 1.245
-0.43588042 0.28223145 1.243
-0.42864966 0.28721702 1.2410001
-0.22157778 0.28757969 1.2410001
-0.21404688 0.28597775 1.2431177
-0.20846695 0.283777 1.245
-0.42239115 0.29214478 1.245
-0.41490069 0.2917676 1.243
-0.40501633 0.29172856 1.2426001
-0.39504442 0.29619381 1.2436666
-0.364461 0.29918441 1.2410001
-0.24469885 0.29759291 1.2421429
-0.23481019 0.29366669 1.2432224
-0.22582445 0.29190707 1.2444285
-0.21719855 0.29141715 1.245
-0.38442838 0.30154309 1.244
-0.37391633 0.30278602 1.2435
-0.36345285 0.3028774 1.245
-0.35470572 0.30419022 1.2436666
-0.34488299 0.30529907 1.2417274
-0.33508018 0.30529246 1.2432222
-0.32504377 0.30472222 1.241889
-0.31548107 0.30434817 1.2423334
-0.30414766 0.3033317 1.2435
-0.2944206 0.30386347 1.2423334
-0.28504115 0.30353618 1.2410001
-0.27525476 0.30319035 1.2428182
-0.26526925 0.30449072 1.2426667
-0.25497061 0.30412856 1.2421429
-0.2464494 0.30145851 1.245
-0.19033748 -0.020904116 1.2550001
-0.18319106 -0.02365494 1.2526364
-0.1778571 -0.024890238 1.2544546
-0.19094414 -0.018763296 1.2590001
-0.18652923 -0.018763296 1.2590001
-0.175492 -0.018763296 1.2590001
-0.15451249 0.1282125 1.25
-0.15560833 0.1347875 1.25
-0.15571918 0.14755365 1.2547143
-0.17128971 0.15921363 1.2525001
-0.16396274 0.15469374 1.2552859
-0.15783243 0.1512101 1.2590001
-0.19094414 0.16666222 1.2590001
-0.18464194 0.16628979 1.2561666
-0.17496556 0.16286603 1.25525
-0.16886967 0.16003989 1.2590001
-0.19889094 0.18697074 1.2590001
-0.19851153 0.19410187 1.2580001
-0.19654268 0.22540589 1.2583333
-0.19315158 0.2317819 1.2590001
-0.19033748 0.24754874 1.2550001
-0.18873669 0.24833775 1.2590001
-0.19135749 0.25844395 1.2545
-0.18890519 0.25415406 1.2572
-0.20163333 0.26847917 1.25
-0.19397514 0.26601651 1.253143
-0.18763296 0.26378986 1.2590001
-0.45038751 0.27724582 1.25
-0.44819584 0.27943751 1.25
-0.20371893 0.27554625 1.2530001
-0.19612424 0.27410513 1.2578572
-0.45193365 0.28305843 1.2563335
-0.44591108 0.28549889 1.2552222
-0.43708992 0.28785789 1.2516667
-0.20537432 0.28457412 1.2547144
-0.4448005 0.29027924 1.2590001
-0.43551618 0.29144126 1.2545
-0.42493311 0.29655862 1.2538
-0.41441491 0.29663622 1.2516667
-0.40572789 0.29643825 1.2508334
-0.39778748 0.29916251 1.25
-0.23523889 0.29843196 1.25
-0.22481285 0.29709926 1.2539999
-0.21427527 0.2959168 1.2522727
-0.20786993 0.2941066 1.2545999
-0.42205453 0.30193979 1.2570001
-0.41487873 0.30176574 1.2567779
-0.40537095 0.30210108 1.2576667
-0.39426041 0.30469289 1.2547144
-0.38483229 0.30701548 1.2522223
-0.37380776 0.30797446 1.2516667
-0.36582643 0.3068673 1.25125
-0.31231248 0.30792916 1.25
-0.30464166 0.30792916 1.25
-0.2953271 0.30792916 1.25
-0.28491667 0.30792916 1.25
-0.27724582 0.30792916 1.25
-0.25381544 0.30801976 1.2533334
-0.244773 0.30589658 1.253091
-0.23616941 0.3041254 1.2569166
-0.22540532 0.30152485 1.2583333
-0.21559393 0.30168438 1.2589999
-0.39182177 0.31014624 1.2590001
-0.382992 0.3123537 1.2590001
-0.37616947 0.3125591 1.2572858
-0.36530554 0.31313902 1.2572223
-0.35526377 0.31237113 1.2546251
-0.34440038 0.31304702 1.255125
-0.33509082 0.31372389 1.255
-0.32453841 0.31391752 1.2544446
-0.31453556 0.31539857 1.2569447
-0.30443445 0.31435257 1.2565002
-0.29450595 0.31519186 1.2561113
-0.28521463 0.3144151 1.2567501
-0.2750195 0.31400663 1.2567693
-0.26478347 0.3134746 1.2563999
-0.25583932 0.31337258 1.2579166
-0.24455357 0.31140766 1.2589999
-0.19136579 -0.015174516 1.2666668
-0.18437324 -0.015901271 1.2656666
-0.17600389 -0.01516789 1.2662222
-0.16067547 0.15735114 1.2640001
-0.1570175 0.1548003 1.2651428
-0.19170246 0.16954032 1.2640001
-0.18449977 0.16898626 1.2640001
-0.17387396 0.16684778 1.266
-0.16603866 0.16223542 1.2662858
-0.1923091 0.17585723 1.268
-0.18506697 0.17230621 1.2659999
-0.17896974 0.17007683 1.268
-0.19465595 0.18521246 1.2669998
-0.20056731 0.19835109 1.2640001
-0.19464596 0.19494517 1.2658666
-0.20072599 0.20405556 1.265
-0.19659863 0.20437641 1.2669998
-0.20077889 0.21482424 1.2653333
-0.19527282 0.21514305 1.2667366
-0.18786265 0.21898782 1.268
-0.20056731 0.22051322 1.2640001
-0.19351573 0.22373681 1.2640001
-0.18639548 0.22476271 1.2664443
-0.1912647 0.23603196 1.2660002
-0.18698831 0.23216353 1.2671111
-0.19008587 0.24122009 1.268
-0.18760766 0.2551631 1.2662858
-0.19170246 0.26262128 1.2640001
-0.18690768 0.26502293 1.2648889
-0.19194369 0.27715713 1.2656
-0.18710287 0.27294919 1.2662222
-0.45469311 0.28847709 1.2640001
-0.20167542 0.2858915 1.2640001
-0.19679895 0.28284991 1.2665
-0.4515689 0.29402277 1.2656001
-0.44537747 0.29490641 1.2662221
-0.43540791 0.29767829 1.2670001
-0.20409678 0.29434612 1.267
-0.43152073 0.30545259 1.267
-0.42647669 0.30562997 1.2646667
-0.41553998 0.30694553 1.2640001
-0.40540871 0.30662894 1.2640001
-0.39781028 0.30916175 1.2640001
-0.23288387 0.30774242 1.2650001
-0.22493294 0.3062017 1.2655001
-0.21420121 0.30632222 1.266
-0.20754208 0.30188191 1.266
-0.43019435 0.31014013 1.268
-0.42463627 0.31014013 1.268
-0.41463178 0.31014013 1.268
-0.4042567 0.31162229 1.268
-0.39456198 0.31439412 1.2662222
-0.38530082 0.31674939 1.2657778
-0.37493512 0.31762335 1.2653333
-0.36502719 0.31842917 1.2656
-0.35487729 0.31827819 1.2650001
-0.3468374 0.3180266 1.2640001
-0.27148613 0.3180266 1.2640001
-0.2681618 0.3180266 1.2640001
-0.25419968 0.31669688 1.2640001
-0.24482355 0.31601101 1.2648
-0.23521423 0.31228936 1.2667999
-0.22788073 0.31014013 1.268
-0.21898782 0.31014013 1.268
-0.37387264 0.32125625 1.268
-0.36460918 0.32125625 1.268
-0.34238741 0.32240057 1.2666668
-0.33400843 0.32311097 1.2665454
-0.32506055 0.32312047 1.2655001
-0.31577533 0.32354024 1.2653334
-0.30595368 0.32211739 1.2651428
-0.29386067 0.32399493 1.2662858
-0.28440118 0.32213816 1.266
-0.27501735 0.32128897 1.2666668
-0.26425231 0.32198784 1.2665001
-0.25528282 0.3216019 1.2668571
-0.19208205 -0.010814267 1.2763335
-0.18468638 -0.010895762 1.2748749
-0.17655067 -0.010936768 1.273
-0.19158497 -0.0067222798 1.2780001
-0.18486831 -0.0042963126 1.276421
-0.17495067 -0.0054352703 1.2769285
-0.16917738 -0.00224076 1.2780001
-0.1848627 0.00112038 1.2780001
-0.15654418 0.15766017 1.2755001
-0.17074749 0.16851549 1.273
-0.16560557 0.1662458 1.2751428
-0.15958752 0.16181952 1.273
-0.20054802 0.17814042 1.2780001
-0.19493538 0.17761661 1.2742499
-0.18586707 0.17730235 1.2746667
-0.17682594 0.1719103 1.275
-0.20054802 0.18038118 1.2780001
-0.19396022 0.18413946 1.273
-0.18777011 0.18503726 1.2757777
-0.19083543 0.19529942 1.273
-0.1890479 0.19575967 1.276
-0.19195142 0.2053434 1.2729999
-0.18775856 0.20622618 1.27675
-0.19244833 0.21292292 1.2738333
-0.1866807 0.21560921 1.2762142
-0.181888 0.22484222 1.276
-0.1836094 0.23572983 1.2753075
-0.19083543 0.24663526 1.273
-0.18685655 0.24448161 1.2763332
-0.18606076 0.25546998 1.2770001
-0.18360654 0.26411432 1.2754999
-0.1837468 0.27478337 1.27675
-0.19446778 0.28611648 1.2748749
-0.18859883 0.28262088 1.2767501
-0.20127171 0.29631993 1.2754999
-0.19705611 0.29185507 1.2771667
-0.44351754 0.30235204 1.2757777
-0.43678313 0.30329227 1.27425
-0.21092337 0.30913109 1.273
-0.20518535 0.30414724 1.2754999
-0.42400685 0.31604689 1.2768888
-0.41446027 0.31610268 1.2749999
-0.40606147 0.31641838 1.2742499
-0.3984108 0.31805906 1.273
-0.23386584 0.31713253 1.2748749
-0.22604772 0.3140333 1.2757777
-0.21617942 0.31272003 1.2754999
-0.20951106 0.31034526 1.2780001
-0.40254998 0.32092005 1.2755001
-0.39434704 0.32166699 1.2754999
-0.38503483 0.32403332 1.2767501
-0.37520692 0.32486138 1.2763333
-0.36475128 0.32539541 1.2754999
-0.3552365 0.32507607 1.2742499
-0.34558699 0.326491 1.2729999
-0.33636138 0.3283262 1.273
-0.32587102 0.32810301 1.273
-0.31359506 0.32698703 1.273
-0.30466709 0.32698703 1.273
-0.29722711 0.328475 1.273
-0.28457916 0.32698703 1.273
-0.27480695 0.32619211 1.2742499
-0.26470074 0.32724389 1.2739999
-0.25546819 0.32667002 1.2770001
-0.2447855 0.3216888 1.275
-0.35366663 0.33051211 1.2780001
-0.34563723 0.33163249 1.2780001
-0.3349936 0.33275285 1.2780001
-0.32378983 0.33051211 1.2780001
-0.31482679 0.33051211 1.2780001
-0.30407113 0.33096027 1.2780001
-0.29465994 0.33163247 1.278
-0.28457654 0.33051211 1.2780001
-0.27337271 0.33051211 1.2780001
-0.26440966 0.33051211 1.2780001
-0.25880778 0.33051211 1.2780001
-0.17583799 -0.0011247633 1.2830001
-0.16758974 -0.0011247633 1.2830001
-0.19008501 0.0011247633 1.2830001
-0.18465962 0.00451189 1.2855002
-0.17504729 0.0035456158 1.2858572
-0.16807738 0.0022571974 1.2867501
-0.18179262 0.01016232 1.2880001
-0.1563421 0.15859163 1.2830001
-0.16309068 0.16758974 1.2830001
-0.1582509 0.16351441 1.2863334
-0.20358217 0.17883737 1.2830001
-0.18207198 0.17831983 1.2846667
-0.17460656 0.17415842 1.2850001
-0.16824286 0.17275944 1.2880001
-0.20358217 0.1810869 1.2830001
-0.18481843 0.18482062 1.2855
-0.18586142 0.19539484 1.2849231
-0.18475741 0.20541461 1.2850834
-0.18221165 0.21482977 1.2830001
-0.17953432 0.21453786 1.2880001
-0.1810869 0.22495267 1.2830001
-0.17953432 0.2201836 1.2880001
-0.1810869 0.23957458 1.2830001
-0.17866449 0.2367917 1.2850001
-0.18283652 0.24607322 1.2830001
-0.17789446 0.24499723 1.2852224
-0.18338419 0.25471416 1.2846667
-0.17896974 0.25349343 1.2880001
-0.18132214 0.26691228 1.2846667
-0.1810869 0.27669179 1.2830001
-0.17953432 0.27664092 1.2880001
-0.19120976 0.28906417 1.2830001
-0.18441266 0.28476468 1.2848182
-0.17953432 0.28115752 1.2880001
-0.19383343 0.29573771 1.2849231
-0.18800291 0.29188442 1.2880001
-0.20283929 0.30639991 1.2840002
-0.19774373 0.30191731 1.286
-0.2238279 0.31830803 1.2830001
-0.21470004 0.3173587 1.2852223
-0.20699567 0.31247008 1.2867501
-0.42343 0.32180679 1.2880001
-0.41641098 0.32231131 1.2855
-0.40536368 0.32519424 1.2880001
-0.39520133 0.32801712 1.2880001
-0.38554808 0.32773134 1.2846667
-0.37567094 0.32955566 1.2830001
-0.36554807 0.32955566 1.2830001
-0.25307176 0.3288058 1.2830001
-0.24544057 0.32593787 1.2842501
-0.23491398 0.32397059 1.2843636
-0.22634362 0.32274866 1.2861251
-0.385039 0.33083996 1.2880001
-0.36362106 0.334306 1.2861251
-0.35542521 0.33405471 1.2830001
-0.34676135 0.33550715 1.2842501
-0.33610931 0.33761486 1.2880001
-0.32581142 0.33483583 1.286
-0.31468248 0.33530849 1.2865715
-0.30580851 0.33608907 1.2858572
-0.29389313 0.33641046 1.2858572
-0.28399718 0.33389676 1.2838334
-0.27464685 0.33502713 1.2850001
-0.26497355 0.33476675 1.2840002
-0.25919747 0.3335765 1.2855
-0.18348983 0.0079285735 1.2920001
-0.17442861 0.0079285735 1.2920001
-0.1669531 0.0070224502 1.2920001
-0.19443327 0.019329622 1.2970001
-0.18483542 0.014951207 1.294174
-0.17476481 0.014756491 1.2945
-0.16572134 0.014759342 1.2947501
-0.15970412 0.018122453 1.2920001
-0.19443327 0.02387777 1.2970001
-0.18436237 0.022578299 1.2970001
-0.17510365 0.022740733 1.2970001
-0.16422059 0.022578299 1.2970001
-0.16032217 0.035248138 1.2970001
-0.15804809 0.036385171 1.2970001
-0.15577403 0.15691106 1.2970001
-0.16114581 0.16909191 1.2945001
-0.15708698 0.16390042 1.2953334
-0.17460446 0.1773316 1.2950001
-0.16455033 0.17249644 1.2945001
-0.1817871 0.18470965 1.2948571
-0.17851475 0.18078883 1.2970001
-0.18337481 0.19519301 1.2960001
-0.18137807 0.20465222 1.295125
-0.17851475 0.20694068 1.2970001
-0.17851475 0.21148881 1.2970001
-0.18009187 0.22653067 1.2920001
-0.17720675 0.22491956 1.29575
-0.18009187 0.23219393 1.2920001
-0.17752732 0.23430465 1.2953334
-0.17456461 0.24581175 1.295125
-0.18009187 0.2593776 1.2920001
-0.17589834 0.25488529 1.2945
-0.18084697 0.2642858 1.2919999
-0.17851476 0.26492956 1.2970001
-0.18009187 0.27183682 1.2920001
-0.18100667 0.28711796 1.2945001
-0.18516703 0.29562968 1.2945
-0.20047964 0.30694905 1.2920001
-0.19452903 0.30500066 1.29575
-0.18657738 0.3033821 1.2970001
-0.17516479 0.30554265 1.2932501
-0.21035178 0.3195073 1.2970001
-0.20492597 0.31493586 1.2955714
-0.17624068 0.31041101 1.2970001
-0.42411467 0.32632953 1.2970001
-0.41535544 0.32570052 1.2945001
-0.40400702 0.32910287 1.2945001
-0.39982662 0.32960212 1.2920001
-0.24465314 0.32960212 1.2920001
-0.23559189 0.32960212 1.2920001
-0.22419697 0.32680401 1.29325
-0.21632347 0.32517004 1.296
-0.40137395 0.33315173 1.2970001
-0.39357376 0.33357593 1.2948571
-0.38811481 0.33364663 1.2945001
-0.37264293 0.33413273 1.2920001
-0.36783209 0.33834508 1.2936667
-0.3552756 0.33866334 1.2920001
-0.3461321 0.33931863 1.2945001
-0.3352654 0.33866334 1.2920001
-0.32532486 0.33892545 1.293
-0.3171429 0.33866334 1.2920001
-0.28542861 0.33866334 1.2920001
-0.27523476 0.33866334 1.2920001
-0.2641592 0.33899099 1.2932501
-0.25424597 0.33640325 1.2943333
-0.24591003 0.33521912 1.2970001
-0.23574561 0.33353075 1.2970001
-0.22581549 0.33133247 1.2970001
-0.33599433 0.34224802 1.2970001
-0.32405543 0.34224805 1.2970001
-0.31475678 0.34240714 1.2961668
-0.3038415 0.34125847 1.2932501
-0.29562953 0.34224802 1.2970001
-0.28539619 0.34224802 1.2970001
-0.27516288 0.34224802 1.2970001
-0.26608798 0.34243894 1.296
-0.19322608 0.015816821 1.302
-0.19175854 0.025111238 1.302
-0.18486165 0.027025782 1.3025556
-0.17463726 0.027394081 1.302
-0.16509083 0.026252657 1.302
-0.15865737 0.025111239 1.302
-0.19186608 0.031661108 1.3053335
-0.18666388 0.032229271 1.3062859
-0.17417128 0.03300583 1.3050768
-0.16440026 0.035138402 1.3022778
-0.15865737 0.030818339 1.302
-0.17072469 0.040103115 1.307
-0.16424851 0.044209104 1.3051819
-0.15896201 0.045748848 1.3045001
-0.1538109 0.15495408 1.3035001
-0.14344338 0.15604065 1.306375
-0.15535989 0.16405571 1.3050001
-0.17105024 0.1786714 1.3036667
-0.16393036 0.17536384 1.3040001
-0.15854144 0.17228012 1.3057501
-0.18148577 0.1883343 1.302
-0.17796056 0.18482663 1.3048573
-0.18148577 0.19518283 1.302
-0.17712253 0.19657196 1.3049167
-0.16843309 0.19822398 1.307
-0.17462517 0.20472436 1.3046314
-0.16581853 0.2043862 1.3058461
-0.15926667 0.20280719 1.307
-0.17597899 0.21414891 1.3035001
-0.16778874 0.2111627 1.302
-0.1769201 0.22029406 1.302
-0.17518704 0.23591529 1.3042223
-0.17257506 0.24571653 1.3036667
-0.17207663 0.25574872 1.3048573
-0.17611621 0.26303285 1.3045001
-0.17937499 0.27420709 1.3032501
-0.17954704 0.2859073 1.3045001
-0.18148577 0.2956278 1.302
-0.17931822 0.29676306 1.307
-0.19289999 0.30932483 1.302
-0.18351498 0.30653465 1.302
-0.17874731 0.30411142 1.3034286
-0.20218477 0.31733108 1.3030001
-0.19517598 0.31523561 1.303579
-0.18551706 0.31478682 1.3049167
-0.17920294 0.31274909 1.302
-0.41319406 0.32987037 1.302
-0.21268459 0.32720706 1.302
-0.20555912 0.32423386 1.3054616
-0.19650526 0.32254362 1.307
-0.4147808 0.33228296 1.307
-0.40484071 0.33564892 1.3045001
-0.39455083 0.33824077 1.302
-0.38842732 0.33572036 1.307
-0.37625262 0.33850688 1.3045001
-0.24160056 0.33824077 1.302
-0.23464336 0.33802336 1.302
-0.22404443 0.33639273 1.302
-0.21513623 0.33430412 1.3047274
-0.209682 0.33113715 1.307
-0.39415634 0.3403036 1.307
-0.3758235 0.34144938 1.307
-0.36458197 0.34400725 1.3036667
-0.3581762 0.34444702 1.3053335
-0.34585026 0.34356743 1.302
-0.33410323 0.34553203 1.3036667
-0.32530469 0.34539369 1.302
-0.31361675 0.34618229 1.3032501
-0.30449548 0.34684634 1.30575
-0.29448634 0.34585026 1.302
-0.28590727 0.34651431 1.3045001
-0.27461901 0.34720767 1.3038751
-0.2637721 0.34674683 1.304143
-0.25560781 0.34511498 1.304143
-0.2461191 0.3425914 1.3031112
-0.23565353 0.34297714 1.307
-0.22457746 0.3420223 1.307
-0.21808457 0.34106746 1.307
-0.19208117 0.036805972 1.312
-0.18455267 0.036283161 1.3120002
-0.17643863 0.037036009 1.312
-0.19208117 0.040256534 1.312
-0.18521288 0.041402146 1.3158889
-0.17461771 0.043901447 1.3150769
-0.16726786 0.047955859 1.3128334
-0.17203093 0.051955651 1.317
-0.16519132 0.055428233 1.3155296
-0.15787292 0.056086063 1.3145001
-0.16163979 0.063501351 1.317
-0.15460743 0.063711278 1.3170002
-0.14893954 0.066965058 1.317
-0.15124866 0.070428766 1.317
-0.14778496 0.070428766 1.317
-0.1460737 0.14837408 1.312
-0.15067445 0.1552752 1.312
-0.1468405 0.15374163 1.3120002
-0.15303364 0.16663566 1.3145001
-0.1460097 0.16487879 1.315182
-0.16363552 0.17861864 1.3145001
-0.15615173 0.17422976 1.3161668
-0.17433508 0.18654372 1.3135002
-0.16845982 0.18346195 1.3161668
-0.17408831 0.19366634 1.3136668
-0.16884615 0.19538079 1.3161666
-0.17137781 0.2070336 1.312
-0.16363552 0.20166621 1.3145001
-0.17400694 0.21664713 1.3145
-0.17400694 0.2247116 1.3145001
-0.16972178 0.22745028 1.317
-0.17417678 0.23415086 1.31575
-0.17302004 0.24280795 1.3157501
-0.16972178 0.24823254 1.317
-0.17137781 0.25189087 1.312
-0.16972178 0.25746912 1.317
-0.17377646 0.26574019 1.3145001
-0.16972178 0.26208737 1.317
-0.17734893 0.27319035 1.3148572
-0.1805793 0.28179574 1.312
-0.1787885 0.28605831 1.31575
-0.1805793 0.29559797 1.312
-0.17827894 0.29444778 1.312
-0.18748042 0.3186017 1.312
-0.20128267 0.326653 1.312
-0.19453458 0.3269617 1.3147779
-0.18613975 0.32274446 1.3141429
-0.42319095 0.3340182 1.3153334
-0.41459611 0.33589777 1.3136668
-0.40831625 0.33930507 1.312
-0.38991329 0.33930507 1.312
-0.21228512 0.33743277 1.3136667
-0.20579432 0.33233196 1.315125
-0.19696966 0.33182341 1.317
-0.4121815 0.34059814 1.317
-0.40510225 0.34284836 1.3149999
-0.39511019 0.34396821 1.3139999
-0.38484743 0.3420721 1.3147779
-0.37531918 0.34596094 1.3132501
-0.35425749 0.34620619 1.312
-0.34850657 0.34620619 1.312
-0.33367074 0.34983471 1.317
-0.25189087 0.34850657 1.312
-0.2450688 0.34878722 1.3145
-0.2355161 0.34776124 1.3141429
-0.22647035 0.34627387 1.314
-0.21590459 0.34290728 1.317
-0.32212502 0.35214385 1.317
-0.31442788 0.35214385 1.317
-0.30394185 0.35114115 1.3132501
-0.29476377 0.35236952 1.3141429
-0.28520879 0.35283256 1.3147779
-0.2753154 0.3531855 1.3140001
-0.26563981 0.35226536 1.3140001
-0.25977826 0.35214385 1.317
-0.18575011 0.046439007 1.32425
-0.17809249 0.04828972 1.322
-0.18532158 0.052177921 1.3280001
-0.17530407 0.055937666 1.3229232
-0.17355353 0.063452356 1.3266667
-0.16611363 0.06565883 1.3232002
-0.15553156 0.0669875 1.322
-0.16307649 0.072349891 1.3268001
-0.15512307 0.074038684 1.3243078
-0.14737643 0.075432658 1.3237144
-0.15018351 0.080330722 1.3280001
-0.14669088 0.080330722 1.3280001
-0.16109452 0.17963776 1.322
-0.15414079 0.1766576 1.3219999
-0.14857781 0.17361121 1.322
-0.16482371 0.18609081 1.3247694
-0.15358661 0.18331879 1.3279999
-0.16592607 0.19487008 1.3252728
-0.1649422 0.20095392 1.325
-0.17268404 0.21904218 1.322
-0.173843 0.22136009 1.322
-0.16573033 0.22136009 1.322
-0.17247349 0.23429255 1.3236365
-0.15577173 0.236801 1.3280001
-0.17206617 0.24544878 1.3244001
-0.16842958 0.24624777 1.325
-0.17075275 0.25322777 1.325
-0.16687395 0.25641578 1.3265001
-0.17036614 0.26655927 1.322
-0.16726539 0.26484099 1.325
-0.1731758 0.2752077 1.3225455
-0.16822882 0.27359012 1.3280001
-0.17558092 0.28442156 1.3264
-0.17666687 0.29444781 1.3245715
-0.17731985 0.30132785 1.322
-0.18659149 0.3279838 1.322
-0.44356528 0.33180079 1.3280001
-0.43658 0.33412921 1.3280001
-0.42746532 0.33802074 1.325
-0.2052899 0.33751056 1.3230001
-0.19503751 0.33551154 1.32425
-0.18870485 0.33207723 1.3260001
-0.42377368 0.34169662 1.3280001
-0.41468263 0.34499291 1.325
-0.40447471 0.34768599 1.322
-0.39520308 0.3479178 1.322
-0.38477251 0.34826547 1.322
-0.22136009 0.34884495 1.322
-0.21472722 0.34395373 1.324
-0.20451348 0.34111449 1.3280001
-0.39466828 0.35135961 1.3280001
-0.36384997 0.35222539 1.3260001
-0.35518703 0.35319424 1.327143
-0.3480998 0.35275665 1.3280001
-0.29533988 0.35797805 1.3232
-0.28510252 0.35811657 1.322
-0.27467194 0.35811657 1.322
-0.26518956 0.35769683 1.3256
-0.25496736 0.3540155 1.324
-0.24568829 0.3542673 1.3232
-0.23569043 0.35319322 1.3244001
-0.22818582 0.35275665 1.3280001
-0.19281845 0.047912464 1.3330001
-0.19194201 0.05580049 1.3330001
-0.18510622 0.058065142 1.3335557
-0.19095759 0.064436458 1.3363333
-0.1851588 0.064455815 1.3367501
-0.17664845 0.067685552 1.3344287
-0.17175779 0.075238287 1.3380002
-0.16549946 0.076055706 1.3346667
-0.15659195 0.078295976 1.3330001
-0.17008209 0.08093562 1.3380001
-0.16296916 0.082657285 1.3373752
-0.15491366 0.084607922 1.3366667
-0.14611481 0.085002743 1.3355001
-0.15412958 0.090788648 1.3380001
-0.14574277 0.091785684 1.3380002
-0.1431531 0.16886222 1.3330001
-0.14508496 0.17550939 1.3346667
-0.16009775 0.18697546 1.3330001
-0.15542336 0.18814404 1.3330001
-0.14764495 0.18443237 1.335143
-0.16146292 0.19471855 1.3335557
-0.15537272 0.19367766 1.3375835
-0.14896846 0.19236872 1.3380001
-0.16127284 0.20293625 1.335
-0.16477212 0.22787635 1.3330001
-0.16507697 0.23529443 1.3330001
-0.15698148 0.23332982 1.3330001
-0.16459024 0.24556322 1.3335264
-0.1576464 0.24525733 1.3360001
-0.16531985 0.25459933 1.3345386
-0.16492663 0.26435378 1.3342501
-0.16701448 0.27476734 1.3360001
-0.17135832 0.28598815 1.3342501
-0.16738175 0.28515735 1.3367501
-0.17295229 0.29448634 1.3330001
-0.16788842 0.29456818 1.3355001
-0.17432086 0.30338979 1.336182
-0.16773614 0.30262882 1.3380001
-0.44494942 0.33626151 1.335143
-0.43588659 0.33772445 1.3330001
-0.43437704 0.34298232 1.3365716
-0.21308567 0.34655553 1.3355
-0.20644447 0.34544259 1.3380001
-0.19983003 0.34239882 1.3330001
-0.19191022 0.069464438 1.3430001
-0.1860234 0.069464438 1.3430001
-0.19040236 0.072140023 1.3490001
-0.18381856 0.075275339 1.3458003
-0.17631015 0.075645596 1.3430002
-0.17350937 0.083936259 1.3443334
-0.16600823 0.086536206 1.3430002
-0.17071769 0.091834337 1.3430001
-0.16427067 0.092861451 1.3442001
-0.15579763 0.095620185 1.3435457
-0.14764135 0.096779265 1.3430001
-0.15422045 0.10351201 1.3476155
-0.14467409 0.10485712 1.3439003
-0.13836692 0.10761872 1.3490001
-0.15019317 0.11234922 1.3490001
-0.14408594 0.11409152 1.3472
-0.13659298 0.11412316 1.3490001
-0.14246096 0.17778187 1.3430001
-0.14507237 0.18517426 1.3454001
-0.15295537 0.19820818 1.3442
-0.14749652 0.19410497 1.3460001
-0.15611838 0.20180006 1.3430001
-0.15517649 0.24653991 1.3430001
-0.16247615 0.25784257 1.3430001
-0.15694043 0.25429249 1.3460001
-0.16285023 0.26356146 1.3447144
