# .PCD v0.7 - Point Cloud Data file format
VERSION 0.7
FIELDS x y z
SIZE 4 4 4
TYPE F F F
COUNT 1 1 1
WIDTH 1464
HEIGHT 1
VIEWPOINT 0 0 0 1 0 0 0
POINTS 1464
DATA ascii
-0.18741748 -0.081221238 1.197
-0.16186334 -0.082155645 1.1963334
-0.15440893 -0.082972988 1.1958573
-0.14540884 -0.081925727 1.1950001
-0.13553004 -0.082263038 1.1953332
-0.12837292 -0.081501067 1.197
-0.11438133 -0.081221238 1.197
-0.10491454 -0.083437085 1.1952503
-0.09582489 -0.085552104 1.1949052
-0.087852523 -0.087852523 1.1930001
-0.03672795 -0.087097712 1.197
-0.24660195 -0.070307791 1.197
-0.21436611 -0.072208941 1.1963849
-0.20496109 -0.07381703 1.1948669
-0.19632348 -0.076348029 1.193
-0.18590219 -0.077655353 1.193
-0.17416583 -0.077786855 1.1950001
-0.16433993 -0.076936699 1.1939999
-0.1554153 -0.0780214 1.1930001
-0.14589794 -0.077655345 1.193
-0.13491638 -0.077393889 1.193
-0.12456144 -0.075326972 1.1950002
-0.11604285 -0.07625287 1.1944544
-0.10876979 -0.07843975 1.1930001
-0.24555258 -0.068209052 1.197
-0.2224513 -0.064193696 1.1955001
-0.21520136 -0.065905675 1.1932857
-0.20742954 -0.067283876 1.1930001
-0.12654947 -0.067981116 1.1930001
-0.24030572 -0.051419131 1.197
-0.2337504 -0.053226627 1.1956668
-0.22688982 -0.057333708 1.1938888
-0.26339188 -0.043623809 1.1969999
-0.25533143 -0.043010496 1.1966002
-0.24476086 -0.045284424 1.1946473
-0.23716901 -0.045282718 1.1932857
-0.26491824 -0.03443842 1.1970001
-0.25495633 -0.034423161 1.1968098
-0.24531303 -0.034164865 1.1930002
-0.23793392 -0.033990558 1.193
-0.251499 -0.027633408 1.197
-0.24483341 -0.024935903 1.1963336
-0.23518851 -0.024969984 1.1930001
0.013596225 -0.021963129 1.1930001
-0.24366374 -0.017419539 1.1970003
-0.23439243 -0.015694087 1.1936002
-0.22741717 -0.01406105 1.193
0.015188512 -0.01497373 1.1946002
-0.23364027 -0.0064638094 1.1960001
-0.22492205 -0.0052298778 1.1933203
-0.2181671 -0.0043926262 1.1930001
0.014153052 -0.0057656909 1.1956668
-0.23200107 0.0059359097 1.1956667
-0.22659133 0.0029503023 1.194091
0.0124587 0.0047742291 1.1952224
-0.24345385 0.019938029 1.197
-0.23676136 0.016760113 1.1950001
0.0075956597 0.016501278 1.1950002
-0.25079942 0.025184881 1.197
-0.24433565 0.025702016 1.1938889
-0.2395027 0.02823831 1.1930001
-0.0017431056 0.027541069 1.1930001
0.0031465164 0.024496378 1.1959094
-0.25163892 0.033789717 1.197
-0.24540421 0.035042994 1.1941767
-0.23671372 0.036430907 1.193
-0.011504496 0.037651081 1.1930001
-0.0055481601 0.034670852 1.1948003
0.0017489501 0.03113131 1.197
-0.24240446 0.041974798 1.197
-0.23425378 0.043465875 1.1957694
-0.22557671 0.045715116 1.1941431
-0.21709134 0.047362674 1.193
-0.012422993 0.044757467 1.1952858
-0.0077653378 0.043863665 1.1970001
-0.22393556 0.051838882 1.197
-0.21413957 0.055131424 1.1941113
-0.2081268 0.055430755 1.1930001
-0.011523783 0.052379079 1.1950001
-0.0094443299 0.05456724 1.197
-0.21301207 0.064598456 1.1937274
-0.22369012 0.075709693 1.1947144
-0.21789265 0.074547127 1.1934999
-0.012037071 0.076936699 1.194
-0.0069195298 0.075436287 1.1962003
-0.22300926 0.083209865 1.1954
-0.21526054 0.085477643 1.1938891
-0.20603508 0.088898383 1.1930001
-0.023531927 0.086806655 1.193
-0.016651843 0.084425807 1.1948004
-0.00434739 0.082300588 1.1969999
-0.21232122 0.091743603 1.1960001
-0.20509146 0.095002547 1.1939414
-0.19677171 0.096966483 1.193
-0.032695942 0.095084026 1.1935
-0.026216015 0.093332909 1.1962001
-0.01888866 0.09129519 1.197
-0.20147903 0.10178889 1.197
-0.19461757 0.10307389 1.1956667
-0.18608004 0.10542555 1.1938001
-0.17507753 0.10688724 1.193
-0.165097 0.10921802 1.193
-0.15583363 0.10981565 1.1930001
-0.031951431 0.10476166 1.1950001
-0.18363975 0.11018385 1.197
-0.17440531 0.11060359 1.197
-0.16380428 0.1134661 1.1962001
-0.15449312 0.11549558 1.1952224
-0.14566419 0.1156059 1.1941429
-0.13581283 0.11758492 1.193
-0.12278435 0.11776421 1.1930001
-0.11434773 0.11748531 1.193
-0.10772392 0.11818256 1.1930001
-0.059614211 0.11818255 1.1930001
-0.031936966 0.11545064 1.1945
-0.14376369 0.12067755 1.197
-0.13360137 0.12248576 1.1962
-0.12439336 0.12260196 1.1952858
-0.11470762 0.12469827 1.1962385
-0.10541621 0.12296686 1.1950003
-0.095324732 0.12421764 1.194895
-0.084842399 0.12569629 1.1948001
-0.074595161 0.12554093 1.194895
-0.064863965 0.12497537 1.194846
-0.056285724 0.12618785 1.1945002
-0.044696301 0.12571682 1.1944739
-0.035812818 0.12396619 1.1953533
-0.087097712 0.13117126 1.197
-0.078702748 0.13117126 1.197
-0.053517867 0.13117126 1.197
-0.049320389 0.13117126 1.197
-0.20232064 -0.16122426 1.202
-0.20335206 -0.15474425 1.2052728
-0.19694535 -0.15472992 1.2037499
-0.2026415 -0.14343494 1.2060001
-0.19796361 -0.14517425 1.2043334
-0.044293582 -0.14237329 1.2030001
-0.2027276 -0.13464218 1.2051113
-0.19585843 -0.13116044 1.2033334
-0.18692578 -0.13271624 1.2046667
-0.075065456 -0.13110024 1.2060001
-0.042809736 -0.13391294 1.2028
-0.2024653 -0.12634258 1.2060001
-0.1965227 -0.12784812 1.2034545
-0.072039641 -0.12481323 1.204
-0.041141968 -0.12553808 1.2033334
-0.039118621 -0.12264216 1.2060001
-0.084959358 -0.11280005 1.2045456
-0.074779451 -0.11566366 1.2034999
-0.06849397 -0.11802037 1.202
-0.041096378 -0.1106441 1.202
-0.038440328 -0.1141177 1.2037144
-0.2061657 -0.10149696 1.2060001
-0.19453584 -0.1004397 1.2060001
-0.18521565 -0.10317443 1.2079999
-0.17444789 -0.10043969 1.2060001
-0.16617319 -0.10281619 1.2079999
-0.15487196 -0.1050159 1.2099998
-0.14532503 -0.1050159 1.2099997
-0.13246858 -0.10281619 1.2079999
-0.093683951 -0.10348508 1.2056365
-0.088431321 -0.10529839 1.2024446
-0.041937981 -0.10365883 1.2035
-0.039118621 -0.10678325 1.2060001
-0.21039474 -0.093038879 1.2060001
-0.20510845 -0.094700284 1.2060002
-0.1955931 -0.095153414 1.206
-0.18502048 -0.095153414 1.206
-0.17491782 -0.095035926 1.206
-0.1650836 -0.094700284 1.2060002
-0.15576963 -0.093567513 1.2060002
-0.14421026 -0.093250319 1.2060002
-0.13403708 -0.094800986 1.206
-0.12355448 -0.093371712 1.2079999
-0.11524133 -0.09198162 1.2060001
-0.10385738 -0.094358265 1.2042501
-0.095956072 -0.095956773 1.2027999
-0.041890055 -0.097511627 1.2046667
-0.039118621 -0.094096139 1.2060001
-0.22167218 -0.082113862 1.2060001
-0.21391839 -0.08399073 1.2056925
-0.20547336 -0.085850395 1.204
-0.19489418 -0.087235339 1.2025
-0.18436886 -0.086049132 1.2036362
-0.17443007 -0.085723095 1.2046665
-0.16573243 -0.08635366 1.2041334
-0.15515949 -0.088664316 1.2040002
-0.14458595 -0.087922797 1.2038462
-0.13450144 -0.087912135 1.2033334
-0.12482934 -0.085177898 1.2044444
-0.11530408 -0.086743772 1.2043157
-0.10600759 -0.08914753 1.202
-0.23408379 -0.071203612 1.202
-0.22425406 -0.074552968 1.2025713
-0.21514627 -0.078043498 1.2030001
-0.20864317 -0.077977747 1.202
-0.25221524 -0.062613279 1.2060002
-0.24477778 -0.063949719 1.2046666
-0.23506489 -0.064674139 1.2042608
-0.22734728 -0.066123024 1.202
-0.26114321 -0.052862998 1.2060001
-0.2545647 -0.054742567 1.206
-0.2452956 -0.054915156 1.2045716
-0.23784743 -0.056560278 1.2042857
-0.26238456 -0.045311391 1.202
-0.25491253 -0.047610488 1.2019999
-0.24973954 -0.04847265 1.202
-0.2708146 -0.030558847 1.202
-0.26430047 -0.034199085 1.2019999
-0.27254778 -0.02746509 1.205
-0.26429993 -0.0251179 1.2039999
-0.25549275 -0.023620391 1.2022352
-0.26184806 -0.015506481 1.2060002
-0.25532961 -0.01477008 1.2034999
-0.24678902 -0.013277292 1.2019999
-0.25526175 -0.004993971 1.2054545
-0.24551138 -0.0055479272 1.2037389
-0.23808382 -0.0034264517 1.2029999
0.017328694 -0.0043675532 1.2031429
0.020065732 -0.005278118 1.2046667
-0.2521565 0.0015858898 1.2060001
-0.24634159 0.0019030679 1.2060001
-0.23664212 0.0031672714 1.2042857
0.016139435 0.0043735644 1.2042859
-0.23832531 0.013024345 1.2046667
0.0094837798 0.017913807 1.202
0.012662135 0.014772272 1.2035
-0.25459015 0.02799372 1.2050002
0.0078516211 0.025191698 1.2028888
0.01162986 0.02220246 1.2060001
-0.26383445 0.03623518 1.2060002
-0.25609821 0.035611682 1.2029229
-0.0010537533 0.036881369 1.202
0.0039799316 0.03482781 1.2038462
-0.26290533 0.042642821 1.2060002
-0.2545653 0.045070991 1.2048888
-0.24586667 0.045711704 1.2036841
-0.23743464 0.048391748 1.2037144
-0.011591286 0.049526405 1.202
-0.0039742668 0.045855734 1.2035384
0.00105726 0.042290401 1.2060001
-0.25162786 0.052862998 1.2060001
-0.24573743 0.053316116 1.2060002
-0.23488677 0.054759797 1.2052941
-0.22511086 0.056217127 1.2029229
-0.21812694 0.057956435 1.202
-0.0066877976 0.052453306 1.2046667
-0.23153993 0.06026382 1.2060001
-0.22407903 0.063790977 1.2053684
-0.21812694 0.063225202 1.202
-0.22494973 0.070758104 1.2046667
-0.00274046 0.074867681 1.2028
-0.23180926 0.085584059 1.2052002
-0.22638005 0.087350592 1.2030909
-0.012020502 0.087099649 1.2028
-0.0070337891 0.085627846 1.2033334
-0.22378036 0.093400761 1.2052001
-0.21573335 0.095823467 1.2033334
-0.022387536 0.096468598 1.2033334
-0.015574861 0.094245173 1.2045
-0.21208636 0.1012855 1.2060001
-0.20502208 0.10409847 1.2055001
-0.19682546 0.10783877 1.2042857
-0.030558847 0.10432158 1.202
-0.026415721 0.10144144 1.2053334
-0.19338791 0.112168 1.2054287
-0.18522014 0.11392354 1.2054669
-0.17439461 0.11624307 1.2046667
-0.16550896 0.11780646 1.2025001
-0.030558847 0.11380535 1.202
-0.02854602 0.11841312 1.2060001
-0.17021886 0.1215849 1.2060001
-0.16478153 0.12249112 1.2060002
-0.15493768 0.12306997 1.205
-0.14484134 0.12531665 1.20375
-0.13593417 0.12618695 1.202
-0.12563081 0.12773831 1.202
-0.11485912 0.12961166 1.202
-0.10432158 0.12890916 1.202
-0.095891558 0.12961166 1.202
-0.070601471 0.12961166 1.202
-0.065683953 0.12961166 1.202
-0.032365281 0.12660094 1.202
-0.02854602 0.12475668 1.2060001
-0.1427301 0.13004299 1.2060001
-0.13480066 0.1305716 1.2060001
-0.12475668 0.13110024 1.2060001
-0.11601193 0.13182876 1.2030001
-0.10361148 0.13110024 1.2060001
-0.094345696 0.13271624 1.2046667
-0.085182987 0.13298899 1.202889
-0.075260825 0.13287587 1.2042859
-0.064102121 0.1325738 1.2042857
-0.055368513 0.13473096 1.2029999
-0.045562413 0.13387547 1.2040001
-0.035572793 0.13208444 1.2053335
-0.21109256 -0.15168963 1.21
-0.2068495 -0.15451834 1.21
-0.20588192 -0.14625381 1.2114286
-0.20695178 -0.13430475 1.2126669
-0.18713576 -0.13342033 1.2175001
-0.083859652 -0.13208404 1.217
-0.078670897 -0.13288923 1.2126667
-0.041557945 -0.13640232 1.2155001
-0.036525548 -0.13225622 1.216625
-0.025647761 -0.13144477 1.2190001
-0.01602985 -0.13144477 1.2190001
-0.20363428 -0.12349936 1.2133334
-0.19494788 -0.12401026 1.2151766
-0.18915223 -0.12645771 1.2190001
-0.17312238 -0.12075821 1.2190001
-0.16489732 -0.12314092 1.2174375
-0.15572864 -0.12343904 1.21775
-0.14533731 -0.12075821 1.2190001
-0.13496129 -0.12249801 1.2185832
-0.12588775 -0.12161313 1.2190001
-0.11434627 -0.12075821 1.2190001
-0.10259104 -0.12075821 1.2190001
-0.094469197 -0.12286807 1.2170769
-0.085157588 -0.12560754 1.2141876
-0.077479802 -0.12524061 1.2106668
-0.034390014 -0.12533358 1.21465
-0.024742423 -0.12479172 1.218375
-0.016418451 -0.12406132 1.219
-0.20367493 -0.1147168 1.2153333
-0.19521277 -0.11491168 1.2154211
-0.18500033 -0.11450139 1.2160666
-0.17491762 -0.11470652 1.2156876
-0.16472791 -0.11477894 1.21225
-0.15435882 -0.11497756 1.2125788
-0.14495623 -0.11468058 1.2131765
-0.13491741 -0.11473622 1.2118
-0.12490287 -0.11529943 1.2177498
-0.11454655 -0.11477201 1.2187368
-0.10451576 -0.11518151 1.2164999
-0.09453693 -0.11513966 1.2116001
-0.08521492 -0.11845227 1.21
-0.077435963 -0.11986663 1.21
-0.033864539 -0.11568034 1.2120001
-0.024372501 -0.11440564 1.2177501
-0.016182516 -0.11404093 1.219
-0.21162295 -0.10236398 1.21
-0.20466058 -0.10535513 1.2106954
-0.194906 -0.10628512 1.2102351
-0.17508541 -0.10611276 1.2103999
-0.12483633 -0.10559724 1.2134784
-0.11516855 -0.10474455 1.2126669
-0.10514144 -0.1051448 1.2114401
-0.097236946 -0.10643025 1.21
-0.034507949 -0.10498814 1.2130456
-0.026490849 -0.10660678 1.2184999
-0.01602985 -0.10793433 1.2190001
0.0085492535 -0.1036597 1.2190001
-0.21481735 -0.093863763 1.2102666
-0.20578873 -0.098651297 1.21
-0.17078343 -0.096529767 1.21
-0.16300447 -0.098651297 1.21
-0.15472041 -0.097742073 1.21
-0.14596149 -0.097378381 1.21
-0.1368389 -0.098651297 1.21
-0.11562356 -0.096529759 1.2100002
-0.10766782 -0.098120913 1.21
-0.036490612 -0.096510388 1.2146363
-0.21654794 -0.087134406 1.21
-0.24079403 -0.061524466 1.21
-0.25564477 -0.056220632 1.21
-0.24503709 -0.058342166 1.21
-0.27447495 -0.02191237 1.2135
-0.26766679 -0.020861745 1.21
-0.2744202 -0.015216053 1.2152857
-0.26667672 -0.014426427 1.21
-0.27347896 -0.0051489817 1.219
-0.26539624 -0.0055345343 1.2116842
0.022731263 -0.0019107827 1.2116001
-0.27272117 0.0053432835 1.219
-0.26473972 0.0055613425 1.2168947
-0.25561613 0.0061504003 1.213222
-0.24476086 0.0062578409 1.2115557
-0.23867249 0.0074253664 1.21
0.017517554 0.0079636397 1.2110001
0.024347953 0.0055135028 1.2161667
0.030927485 0.0085339118 1.2165
-0.27250746 0.011755223 1.2190001
-0.26502687 0.011755223 1.2190001
-0.25434938 0.014413167 1.2177501
-0.24570601 0.014373095 1.2141668
0.017030016 0.014899936 1.2138751
0.021016916 0.012467661 1.2190001
-0.254554 0.021159403 1.2190001
0.0095469002 0.028640701 1.21
0.01442818 0.024106421 1.2147273
0.0080575692 0.035723414 1.2137144
0.011755223 0.032059699 1.2190001
-0.2643666 0.047498778 1.21
-0.25882709 0.048795268 1.21
-0.0010607666 0.047734499 1.21
0.0031933207 0.044235349 1.2137144
-0.26422879 0.054341063 1.2153333
-0.25537986 0.056183003 1.2126154
-0.24421939 0.056255694 1.2107273
-0.0035022211 0.055610415 1.2164999
0.0010686567 0.054501493 1.2190001
-0.25354129 0.063385412 1.2185832
-0.24547449 0.063814454 1.2178462
-0.2347465 0.065053836 1.2122104
-0.22806484 0.066828303 1.21
-0.003904284 0.064627185 1.2152224
0.0030498612 0.064939894 1.2172142
-0.23339875 0.071404211 1.2156668
-0.0015920267 0.07272125 1.2110001
0.0023477136 0.072651118 1.2152002
-0.23442943 0.0859221 1.21
-0.24044774 0.095110439 1.2190001
-0.23430853 0.095291346 1.2132354
-0.2259433 0.097438991 1.21
-0.013497912 0.09692502 1.2111429
-0.0071428297 0.095639452 1.214
-0.23341811 0.10229403 1.2180001
-0.22398175 0.10295223 1.21375
-0.21564531 0.1052379 1.211
-0.2068495 0.10804665 1.21
-0.023739304 0.10607786 1.2106314
-0.015282218 0.1043327 1.2128125
-0.0067681591 0.10223482 1.219
-0.21375941 0.11275386 1.2182858
-0.20438901 0.11460616 1.2124118
-0.19547038 0.11678078 1.21
-0.18563415 0.11907105 1.21
-0.1782088 0.11986663 1.21
-0.024968343 0.11460041 1.2137059
-0.016457312 0.11178149 1.2190001
-0.20316269 0.12104487 1.2165
-0.19532013 0.12301075 1.2162727
-0.1855886 0.12440474 1.2147273
-0.17486234 0.12507679 1.2116249
-0.16471115 0.12707984 1.2107273
-0.15522553 0.1276456 1.21
-0.02591631 0.12426458 1.2150002
-0.17205372 0.13144477 1.2190001
-0.16510332 0.13215508 1.2167778
-0.15423213 0.13310272 1.2163635
-0.14518563 0.13414678 1.214375
-0.13517061 0.13560122 1.2140669
-0.12543106 0.13568535 1.2134545
-0.11433724 0.13664138 1.2154615
-0.10513523 0.136195 1.2142352
-0.095180936 0.13772163 1.2130833
-0.084577881 0.13852794 1.2144445
-0.074511066 0.13752988 1.2142
-0.06508366 0.137613 1.213923
-0.054982077 0.13820228 1.2108001
-0.044723272 0.13841991 1.2105715
-0.034524068 0.13704672 1.2130667
-0.027447995 0.13352247 1.2160001
-0.10508458 0.14284377 1.219
-0.095110446 0.14213133 1.2190001
-0.053692617 0.14305864 1.2167778
-0.044773124 0.14348964 1.216
-0.036009632 0.1427142 1.2171251
-0.21190698 -0.14736679 1.2270001
-0.18149191 -0.14175525 1.2250001
-0.17748556 -0.14220358 1.2270001
-0.16350184 -0.14091277 1.2270001
-0.15554188 -0.14134304 1.2270001
-0.14629112 -0.14091277 1.2270001
-0.13481732 -0.14162989 1.2270001
-0.10003731 -0.14629112 1.2270001
-0.096541375 -0.14602222 1.2270001
-0.085784465 -0.14125116 1.2262001
-0.04227059 -0.14655501 1.2238001
-0.036319718 -0.14396922 1.2265555
-0.028325975 -0.14162989 1.2270001
-0.18291107 -0.13466373 1.2229999
-0.17510591 -0.13536048 1.2253999
-0.16505153 -0.13549341 1.2248822
-0.15544949 -0.13511191 1.2246841
-0.14507273 -0.13540468 1.2257998
-0.13454641 -0.13488795 1.2257367
-0.12462404 -0.13338307 1.2270001
-0.11536561 -0.13257633 1.227
-0.10383379 -0.13294017 1.227
-0.094704688 -0.13468647 1.2267647
-0.086047024 -0.13649364 1.2243334
-0.034505449 -0.13659753 1.2236665
-0.024691081 -0.13591544 1.2245998
-0.016834632 -0.13431497 1.2256669
-0.20692752 -0.12115446 1.223
-0.19191724 -0.12329879 1.223
-0.18489942 -0.12524818 1.2229997
-0.17527321 -0.12615786 1.2229998
-0.16547054 -0.129017 1.223
-0.15379588 -0.12806396 1.223
-0.14496775 -0.12668456 1.2229998
-0.1357359 -0.12780187 1.2229999
-0.1250919 -0.12549527 1.2234999
-0.11481875 -0.1246497 1.2240523
-0.10552663 -0.1250083 1.2247143
-0.09595862 -0.12758744 1.223
-0.020371104 -0.12973176 1.223
-0.013416507 -0.12640108 1.2245001
-0.0081318347 -0.12322389 1.2252858
-0.20692752 -0.11686581 1.223
-0.19191724 -0.11901013 1.223
-0.18441208 -0.11901013 1.223
-0.17905128 -0.11901013 1.223
-0.11472148 -0.11901013 1.223
-0.012157612 -0.11550113 1.2236668
-0.0057573887 -0.11443913 1.2251816
0.001505938 -0.11423615 1.2270001
-0.023604875 -0.10299756 1.2238572
-0.014556299 -0.10404743 1.2235714
-0.0056664553 -0.10478758 1.2253635
0.0035488142 -0.10523622 1.223923
-0.032884803 -0.094363205 1.2244546
-0.024728769 -0.095103748 1.2264544
-0.015613796 -0.095766082 1.2258234
-0.0045831678 -0.095779575 1.2261578
0.0028927976 -0.095469326 1.2257694
-0.03419473 -0.085809372 1.2266002
-0.022589071 -0.089280613 1.2270001
-0.01613505 -0.088204943 1.2270001
-0.03549711 -0.078523912 1.2270001
-0.27983463 -0.012865961 1.223
-0.27854806 -0.0051463842 1.2229999
-0.27483121 0.0025017145 1.223
-0.27125731 0.013938124 1.223
-0.26525542 0.016244132 1.2235715
-0.25839135 0.017154614 1.223
0.023851123 0.014824609 1.2254001
0.03119443 0.011832369 1.2270001
-0.2721445 0.02043773 1.2270001
-0.26391897 0.021477459 1.2250001
-0.25839135 0.022515431 1.223
0.017531872 0.02468664 1.2243334
0.02043773 0.021513401 1.2270001
0.0096652498 0.038662754 1.2250001
0.013251401 0.033311874 1.2256668
0.0066001727 0.045268185 1.2252859
-0.2658965 0.058968984 1.223
0.0035791378 0.055481017 1.2250001
-0.26339713 0.064974152 1.2256666
-0.25624704 0.068082377 1.223
-0.24533744 0.06782911 1.2242
-0.26389769 0.07601402 1.2270001
-0.25522795 0.075482942 1.2261109
-0.24571699 0.073374204 1.2259091
-0.23645015 0.075435646 1.2244545
-0.26461479 0.080675252 1.2270001
-0.23806541 0.084367327 1.2260001
-0.24412526 0.096479595 1.2243334
-0.25174272 0.10552073 1.2264287
-0.24550933 0.10448532 1.2258888
-0.23553754 0.10627067 1.2244285
-0.22694124 0.10685895 1.223
-0.011793797 0.1082885 1.223
-0.005905665 0.1063195 1.2250001
-0.25170678 0.11186968 1.2270001
-0.23255984 0.11208482 1.2270001
-0.22489332 0.11418662 1.2253529
-0.21639697 0.11642645 1.224
-0.021085879 0.11829535 1.223
-0.015390273 0.11584517 1.2247778
-0.21334779 0.12198948 1.2260001
-0.20553781 0.12543704 1.2245384
-0.19513373 0.12758744 1.223
-0.18291107 0.12887403 1.223
-0.17905128 0.12973176 1.223
-0.022352053 0.12543529 1.2248183
-0.01828639 0.12262638 1.2270001
-0.19397914 0.13051462 1.2270001
-0.18486157 0.13261475 1.2270001
-0.17504893 0.13531576 1.225
-0.16559209 0.13698004 1.2238889
-0.15653585 0.13723691 1.223
-0.023747634 0.13545522 1.2252223
-0.17103153 0.14091277 1.2270001
-0.16365552 0.14152744 1.2270001
-0.15442726 0.14224492 1.2261112
-0.14464314 0.1443243 1.2257998
-0.13529429 0.14507656 1.2257998
-0.1242675 0.14254197 1.2262002
-0.11420539 0.14454587 1.2255882
-0.10460808 0.14778009 1.2255456
-0.095322005 0.14674714 1.2254001
-0.085002944 0.14597362 1.2257369
-0.075287364 0.14583758 1.2258234
-0.065551706 0.14615083 1.2257999
-0.05531583 0.14760412 1.2240911
-0.045030858 0.14831592 1.223
-0.034891773 0.14762495 1.2246667
-0.02685458 0.14287826 1.2254002
-0.13338308 0.15166947 1.2270001
-0.10326432 0.15166947 1.2270001
-0.092507616 0.15166947 1.2270001
-0.080675252 0.15166947 1.2270001
-0.078523912 0.15274514 1.2270001
-0.053015161 0.15289882 1.2270001
-0.045444723 0.15353534 1.2262727
-0.037648451 0.15166947 1.2270001
-0.17445315 -0.15061484 1.2360001
-0.162534 -0.15169841 1.2360001
-0.15488221 -0.15271695 1.2354667
-0.14546794 -0.15224019 1.2360001
-0.13761212 -0.1514817 1.2360001
-0.12244228 -0.15061484 1.2360001
-0.11472537 -0.15322654 1.2345716
-0.10547819 -0.15199588 1.2340001
-0.096124746 -0.15120746 1.2320001
-0.21323104 -0.14395569 1.2346667
-0.17472015 -0.14532678 1.2328001
-0.16509187 -0.14548157 1.233143
-0.15417488 -0.14599578 1.2322859
-0.14454912 -0.14554879 1.2326156
-0.13500692 -0.14597829 1.2334287
-0.12513499 -0.14511473 1.2336472
-0.11533833 -0.14455661 1.2320002
-0.1052452 -0.14448711 1.2320002
-0.093964644 -0.14429513 1.2320002
-0.088780388 -0.14537518 1.2320001
-0.044282187 -0.14796731 1.2320001
-0.21346132 -0.13977924 1.2360001
-0.13068645 -0.13824683 1.2320001
-0.12593421 -0.13889487 1.2320001
-0.11508568 -0.13836682 1.2320002
-0.10584522 -0.13824682 1.2320002
-0.098284855 -0.13932689 1.2320001
-0.020521013 -0.13932689 1.2320001
-0.011880587 -0.1317665 1.2320001
-0.0039637019 -0.12362052 1.2333335
-0.0025201244 -0.11916589 1.2320001
0.0036721812 -0.11383762 1.2320001
-0.011880587 -0.092884585 1.2320001
-0.0075603733 -0.093424611 1.2320001
-0.03175357 -0.083596125 1.2320001
-0.025135787 -0.084735096 1.2320002
-0.014663378 -0.083973654 1.2325716
-0.0054055969 -0.085409224 1.2332802
0.0037519275 -0.085021198 1.2331766
-0.032876406 -0.075482406 1.2336001
-0.024850905 -0.074551016 1.2324803
-0.015495961 -0.074963175 1.2333335
-0.0050843973 -0.077266172 1.2360001
0.0060197785 -0.076089993 1.2360001
0.01191916 -0.070431396 1.2360001
-0.025283067 -0.067903094 1.2360001
-0.016253401 -0.067397431 1.2360001
0.01408628 -0.062846482 1.2360001
0.01408628 -0.059595801 1.2360001
-0.2732535 0.018360907 1.2320001
0.027670607 0.016541447 1.2342857
-0.27295944 0.025829604 1.2348573
-0.26677477 0.026256962 1.2338183
0.017640872 0.028441405 1.2320001
0.022448802 0.024070635 1.2340001
0.015606168 0.034456003 1.2337143
0.02058764 0.031423241 1.2360001
0.0091883438 0.047021769 1.233
0.012635105 0.042597234 1.2353334
0.0061401729 0.05164969 1.2360001
-0.27175352 0.064963631 1.2350001
-0.26922432 0.065956891 1.2333335
-0.27153349 0.073561102 1.2340001
-0.26814425 0.072440714 1.2333335
-0.25030234 0.079099879 1.2360001
-0.24570914 0.07799127 1.233143
-0.26229984 0.086234778 1.2346667
-0.25569686 0.084616117 1.2351429
-0.243058 0.08526811 1.2346667
-0.23946676 0.08343412 1.2360001
-0.26157138 0.095136568 1.2360001
-0.25572017 0.09571448 1.2360001
-0.24665016 0.093033619 1.2340001
-0.25530636 0.10060801 1.2340001
-0.24733222 0.10908539 1.2320001
-0.0054002665 0.10908539 1.2320001
-0.25257468 0.11665769 1.2344
-0.2448436 0.11397521 1.2337501
-0.2353076 0.11626478 1.2328573
-0.22501111 0.11988592 1.2320001
-0.012430257 0.11674131 1.233
-0.0071441322 0.11344872 1.2348001
0.0010800533 0.1155657 1.2320001
-0.2351325 0.12114201 1.2360001
-0.22441731 0.12303257 1.2346668
-0.21618308 0.12639196 1.2340001
-0.015741818 0.12486617 1.233778
-0.21237776 0.13111076 1.2360001
-0.20451497 0.1332811 1.2343334
-0.19509448 0.13581239 1.2347693
-0.18553247 0.13793121 1.2340002
-0.1782088 0.13932689 1.2320001
-0.020521013 0.13500667 1.2320001
-0.018420519 0.13219431 1.2360001
-0.18312164 0.14194636 1.2360001
-0.17419526 0.14429742 1.2341819
-0.16514999 0.14609092 1.2327275
-0.15525766 0.14715728 1.2320002
-0.14364709 0.14580719 1.2320001
-0.13068645 0.14580719 1.2320001
-0.12600622 0.14724727 1.2320002
-0.11916589 0.14724727 1.2320001
-0.02294334 0.14572266 1.2333335
-0.162534 0.15061484 1.2360001
-0.15469834 0.15145469 1.2340002
-0.14457363 0.1529904 1.2337779
-0.13529636 0.15560538 1.2335557
-0.12491018 0.15388811 1.2342224
-0.11518952 0.15422922 1.2331113
-0.10512109 0.1564666 1.2330002
-0.095441446 0.15613784 1.233143
-0.085445724 0.15544543 1.2322003
-0.074325651 0.1557121 1.2329415
-0.064634077 0.15497604 1.2335385
-0.056148473 0.15680601 1.2335387
-0.043990552 0.15866555 1.2340002
-0.035686646 0.15486564 1.2336001
-0.026430247 0.1513337 1.2342857
-0.10077108 0.16145045 1.2360001
-0.094992094 0.16145045 1.2360001
-0.085601233 0.16145045 1.2360001
-0.079099879 0.16145045 1.2360001
-0.15122412 -0.16210355 1.2410001
-0.14578441 -0.16210355 1.2410001
-0.1353398 -0.16044314 1.245
-0.12442529 -0.16044314 1.245
-0.17153239 -0.15267472 1.2410001
-0.16601647 -0.15490682 1.2426001
-0.15475994 -0.15856774 1.2410001
-0.14451514 -0.15829575 1.2410001
-0.13468614 -0.1562646 1.2429999
-0.12499403 -0.15522042 1.2425002
-0.11858582 -0.15883973 1.2410001
-0.21719855 -0.14297995 1.245
-0.2159512 -0.13580756 1.245
-0.21313258 -0.12717959 1.2442
-0.033834949 -0.073127151 1.245
-0.0054432238 -0.071849845 1.2418001
0.0038875157 -0.071713962 1.2421428
-0.0232912 -0.063723698 1.2435454
-0.015547684 -0.062281348 1.2424546
-0.0054558488 -0.064378165 1.2446804
0.0054543056 -0.064369589 1.2445203
0.012692672 -0.066001892 1.2410001
-0.020737549 -0.056755401 1.245
-0.014768388 -0.055360034 1.2447335
-0.0061848834 -0.057846848 1.245
0.0065486999 -0.057846848 1.245
0.013925265 -0.056066435 1.2432222
0.034870878 0.016347788 1.243
-0.2708979 0.027198583 1.2410001
0.027712893 0.026018977 1.2423334
0.032941453 0.022033965 1.2442
0.018495036 0.036990076 1.2410001
0.023967717 0.034859072 1.2426001
0.017436899 0.042494662 1.243
0.020737549 0.040383648 1.245
0.0083514191 0.055542383 1.2423334
0.011967377 0.051133335 1.2410001
-0.27307376 0.070716314 1.2410001
-0.26001847 0.088123411 1.2410001
-0.25392595 0.08768823 1.2410001
-0.24845172 0.084998965 1.243
-0.25566667 0.094651073 1.2410001
-0.24994205 0.091681801 1.245
-0.24805108 0.11858582 1.2410001
-0.0026426488 0.11677539 1.2415715
0.0021793933 0.11660105 1.243
-0.25283608 0.12500231 1.2442
-0.2448222 0.12398083 1.2432501
-0.23498434 0.12667449 1.2431538
-0.2260029 0.127808 1.2418001
-0.011967377 0.12837732 1.2410001
-0.007389423 0.12344587 1.2436666
-0.22229199 0.13279308 1.245
-0.21551244 0.13519661 1.2436666
-0.20670924 0.13762483 1.2410001
-0.014164303 0.13512239 1.243
-0.20435683 0.14144927 1.2443333
-0.1946146 0.14373754 1.2436666
-0.18517843 0.14702325 1.2435713
-0.17669164 0.14837006 1.2426001
-0.016348204 0.14496398 1.2432858
-0.18227215 0.15171155 1.245
-0.17386702 0.15205064 1.2442
-0.16459575 0.15435293 1.2434
-0.15473694 0.15691806 1.243
-0.14663059 0.15823531 1.2410001
-0.12511349 0.15992767 1.2410001
-0.11749788 0.15992767 1.2410001
-0.066364549 0.15992767 1.2410001
-0.033726245 0.15920238 1.2410001
-0.024573453 0.15652639 1.2427778
-0.01853478 0.15373197 1.2436666
-0.15389445 0.16044314 1.245
-0.1441627 0.16317509 1.2444286
-0.13512063 0.16345537 1.243
-0.12514831 0.16317509 1.2444285
-0.11451108 0.16358687 1.244
-0.10511234 0.16421561 1.2437999
-0.094259053 0.16618079 1.243
-0.085023694 0.16634347 1.2434
-0.075738266 0.16531876 1.2437693
-0.064347804 0.16468836 1.2440768
-0.054923501 0.16444007 1.2434616
-0.04470152 0.16463478 1.2436669
-0.034911059 0.16310646 1.2444999
-0.028377701 0.16044314 1.245
-0.13040416 -0.1610875 1.25
-0.1282125 -0.1610875 1.25
-0.22184838 -0.1512101 1.2590001
-0.21894312 -0.1518299 1.2550001
-0.13040416 -0.15889584 1.25
-0.1282125 -0.15889584 1.25
-0.23141193 -0.14325786 1.2570001
-0.22426216 -0.14394692 1.255
-0.21807083 -0.14793751 1.25
-0.2505452 -0.13134308 1.2590001
-0.24370345 -0.13248324 1.2578572
-0.23492114 -0.13471143 1.2561114
-0.22506481 -0.13523753 1.2533337
-0.21807083 -0.13150001 1.25
-0.25154769 -0.12412021 1.2585
-0.24498817 -0.12470023 1.2588003
-0.23503304 -0.12468791 1.2586802
-0.22487411 -0.12455837 1.2574003
-0.21699741 -0.12478181 1.2522223
-0.2529611 -0.11498392 1.2566252
-0.2453945 -0.11662678 1.2589999
-0.23373464 -0.11572114 1.2589999
-0.22500189 -0.11510259 1.2589999
-0.2169728 -0.11660762 1.2525001
-0.25661567 -0.10816488 1.2590001
-0.22471806 -0.10573669 1.2589999
-0.017533334 -0.051504165 1.25
-0.0053510182 -0.054223645 1.2502942
0.0053586252 -0.054437831 1.2502779
0.012054167 -0.052599996 1.25
-0.01315 -0.048216663 1.25
-0.0045749079 -0.04606026 1.2557898
0.0055061327 -0.045151528 1.2562804
0.01270791 -0.045968644 1.2528572
-0.0011037233 -0.038630318 1.2590001
0.0062544323 -0.038262412 1.2589999
0.01344719 -0.036816671 1.2574002
0.038354166 0.017533334 1.25
0.040708017 0.018703682 1.2550001
0.0295875 0.0295875 1.25
0.035783194 0.026271945 1.2520002
0.041355249 0.025004162 1.2555715
0.028367681 0.036206331 1.2514286
0.034138888 0.034138892 1.2561001
0.01742663 0.047252331 1.2534286
0.025060395 0.043965556 1.2555295
0.0098980051 0.057192415 1.2545
0.015413699 0.053198617 1.2555001
-0.25167641 0.12675138 1.25
-0.24875416 0.1282125 1.25
-0.0032879382 0.12607212 1.2505
0.0021955022 0.12511623 1.251875
-0.25430244 0.13422336 1.2566668
-0.24546467 0.13378215 1.2556001
-0.23590103 0.13460322 1.2540714
-0.22600499 0.13668616 1.2519232
-0.216975 0.13917083 1.25
-0.012054167 0.13807499 1.25
-0.0061820885 0.13348252 1.2544377
0.00110197 0.13223815 1.2570001
-0.23426528 0.14100066 1.2589999
-0.22463425 0.14375143 1.2581111
-0.21517318 0.14555019 1.2571765
-0.20545562 0.14672543 1.2546
-0.19761527 0.14720695 1.25
-0.013033278 0.14558828 1.2539999
-0.0091976942 0.14090869 1.2590001
-0.21081115 0.1512101 1.2590001
-0.2046303 0.15165159 1.2590001
-0.19496459 0.15396595 1.2555625
-0.18490814 0.15517756 1.2526155
-0.17555945 0.15743874 1.2529167
-0.16691998 0.15814629 1.251
-0.020820834 0.15889584 1.25
-0.015754772 0.15550771 1.2541111
-0.19259971 0.16059175 1.2590001
-0.1851496 0.16169548 1.2589999
-0.17455882 0.16420566 1.2583846
-0.16491127 0.16543283 1.2565295
-0.15596236 0.16531523 1.2543334
-0.14478604 0.16793267 1.2575001
-0.13325158 0.16749243 1.2520001
-0.124925 0.16693194 1.25
-0.11533645 0.16793646 1.25
-0.10541916 0.1689775 1.25
-0.097529173 0.16985416 1.25
-0.085474998 0.16985416 1.25
-0.072982498 0.1689775 1.25
-0.065384723 0.16948889 1.25
-0.054791663 0.16985416 1.25
-0.044929169 0.16985416 1.25
-0.035223216 0.16797559 1.25
-0.025279067 0.16488111 1.2538127
-0.018162999 0.16348232 1.2557501
-0.15562499 0.17107712 1.2590001
-0.1412766 0.17218083 1.2590001
-0.13394326 0.17225294 1.2575001
-0.12477144 0.17291944 1.2576667
-0.11512155 0.17323691 1.2571819
-0.10501919 0.17405625 1.2565833
-0.094627179 0.17495 1.2550834
-0.08486329 0.1748964 1.2546923
-0.075461812 0.17380688 1.2556666
-0.065011188 0.17465341 1.2569166
-0.054683961 0.17552884 1.2547144
-0.045229908 0.17566609 1.2549446
-0.035263039 0.17301103 1.2570001
-0.028121276 0.1714931 1.2580001
-0.22494565 -0.15181062 1.2640001
-0.22642313 -0.14885567 1.2640001
-0.24400508 -0.11324849 1.2640001
-0.23713483 -0.11302687 1.2640001
-0.22716187 -0.11302687 1.2640001
-0.26081711 -0.10432509 1.266
-0.25472924 -0.10469422 1.2649412
-0.24489155 -0.10527014 1.2640001
-0.23491859 -0.10527013 1.2640001
-0.22863935 -0.10563951 1.2640001
-0.25415525 -0.095699809 1.2679999
-0.24466771 -0.096976876 1.2666665
-0.23471406 -0.097559765 1.2662222
-0.22937807 -0.098621495 1.2640001
-0.25678268 -0.087817453 1.268
-0.010004519 -0.041129693 1.268
-0.0082048979 -0.042798869 1.2648
-0.0035547079 -0.035980854 1.2667999
0.0047665914 -0.03336779 1.2663528
0.012577828 -0.031814232 1.266
0.0099729598 -0.029918879 1.2640001
0.010004519 -0.027790334 1.268
0.037346002 0.037347171 1.2653333
0.04243768 0.033550382 1.2672001
0.024932399 0.048756693 1.2640001
0.032196112 0.043744262 1.2664001
0.01552109 0.056173876 1.2646667
0.023775199 0.053990044 1.2671999
0.030013559 0.050022598 1.268
0.011116133 0.061138734 1.268
-0.25264832 0.13851333 1.2640001
-0.24489158 0.13851333 1.2640001
-0.0027711433 0.13806885 1.265
0.00185152 0.13584359 1.2666668
-0.2544162 0.14219083 1.2657143
-0.2455046 0.14266682 1.2650908
-0.23561838 0.14610799 1.2657777
-0.22526225 0.1486446 1.2640001
-0.010004519 0.14784457 1.268
-0.0060439347 0.1437414 1.2666668
-0.23177138 0.15062362 1.268
-0.22437055 0.15328254 1.267
-0.21486783 0.15427265 1.266
-0.20521596 0.15640941 1.2653333
-0.19835109 0.15845925 1.2640001
-0.011759957 0.1542218 1.2656
-0.20056731 0.16067547 1.2640001
-0.19492789 0.16343942 1.2648001
-0.18485087 0.16683625 1.2645
-0.1766322 0.16865385 1.2640001
-0.15291873 0.16954032 1.2640001
-0.1495944 0.16954032 1.2640001
-0.022162132 0.16954032 1.2640001
-0.015691331 0.16564843 1.2657143
-0.1834162 0.17081791 1.268
-0.17447451 0.17407347 1.2661818
-0.1649396 0.17397372 1.2651428
-0.15489623 0.17504065 1.2655385
-0.14557904 0.17486109 1.2650666
-0.13585001 0.17716117 1.265
-0.12553266 0.17777196 1.2640001
-0.11524309 0.17840517 1.2640001
-0.10527013 0.17840517 1.2640001
-0.087540425 0.17840517 1.2640001
-0.075351253 0.17840517 1.2640001
-0.065378293 0.17840517 1.2640001
-0.034078289 0.17801392 1.2657144
-0.024487991 0.17586003 1.2658666
-0.017627012 0.17388809 1.268
-0.13228199 0.18119298 1.268
-0.12445116 0.18223315 1.2675
-0.11482812 0.18217407 1.2662222
-0.10492415 0.18186352 1.2657778
-0.09484715 0.18217406 1.2662222
-0.085457467 0.18174089 1.266
-0.07484863 0.18193406 1.268
-0.064976193 0.18186355 1.2657777
-0.055398952 0.18376082 1.2661818
-0.045266859 0.18329276 1.2656
-0.036238592 0.18163761 1.268
-0.26409349 -0.10243266 1.2746667
-0.26267418 -0.095009916 1.275
-0.25388923 -0.092627719 1.2729999
-0.24555282 -0.091912434 1.2754999
-0.23702359 -0.093492016 1.2746665
-0.26162967 -0.085223295 1.2735554
-0.25488797 -0.08481288 1.2763332
-0.24785297 -0.086269267 1.278
-0.26104853 -0.0784266 1.2780001
-0.25591636 -0.079036586 1.2770001
-0.24984474 -0.079546981 1.2780001
-0.0078119766 -0.036827888 1.273
0.00784266 -0.0280095 1.2780001
0.014507957 -0.027899915 1.273
0.044707265 0.037163325 1.2748749
0.036447577 0.044978503 1.273909
0.041454058 0.04369482 1.2780001
0.01673995 0.059147824 1.273
0.025708253 0.056560606 1.275
0.03095773 0.052589189 1.2763335
0.01536961 0.062868506 1.2748749
0.021203937 0.061379816 1.273
0.0033545648 0.13642117 1.2755001
-0.25333124 0.14786956 1.273
-0.24599755 0.147471 1.2729999
-0.0027109035 0.14659771 1.2737142
0.0018658388 0.14396854 1.2763333
-0.25399166 0.15217297 1.2763333
-0.24483122 0.15189959 1.2771667
-0.23556502 0.15468563 1.2754999
-0.22476172 0.15780194 1.273
-0.21613134 0.15884353 1.2729999
-0.20869137 0.15958752 1.273
-0.01004397 0.15512353 1.273
-0.0055905031 0.15325274 1.2759999
-0.23303905 0.16021433 1.2780001
-0.22551648 0.16149476 1.278
-0.21427269 0.16329537 1.278
-0.20494734 0.16533528 1.2755001
-0.19593002 0.16761868 1.2746667
-0.011866385 0.16456875 1.2770001
-0.19412397 0.17173216 1.2770001
-0.18503724 0.17485076 1.2757777
-0.1737235 0.17893147 1.273
-0.16516751 0.17967546 1.273
-0.15586753 0.17967546 1.273
-0.14507957 0.17967546 1.273
-0.014304042 0.17548499 1.2749999
-0.17365889 0.18187504 1.2780001
-0.16461641 0.18365303 1.277375
-0.15496311 0.18330029 1.2757777
-0.14430109 0.18390468 1.2759999
-0.13507217 0.18487802 1.2752726
-0.12536311 0.18692045 1.2767501
-0.11595725 0.18748622 1.2748749
-0.10521381 0.18692045 1.2767501
-0.094005845 0.18722081 1.2744285
-0.085037827 0.1868609 1.2763333
-0.074976481 0.18666242 1.2765
-0.064793557 0.18767264 1.2742499
-0.054683834 0.18860343 1.273
-0.044036895 0.18845335 1.275
-0.034663837 0.18562147 1.2754999
-0.024600144 0.18338507 1.2754999
-0.016782321 0.18275724 1.2763333
-0.063861661 0.19158497 1.2780001
-0.054857414 0.19143505 1.2770001
-0.04705596 0.19158497 1.2780001
-0.26881844 -0.096729651 1.2830001
-0.2362003 -0.091105826 1.2830001
-0.24452356 -0.084807158 1.2830001
-0.23882474 -0.088106461 1.2830001
-0.25569621 -0.076858826 1.2830001
-0.24744794 -0.079858199 1.2830001
0.048364822 0.039366715 1.2830001
0.05061435 0.039366715 1.2830001
0.039366715 0.048364822 1.2830001
0.045196354 0.044442613 1.2852223
0.0508116 0.042907573 1.2880001
0.027049111 0.059728615 1.2855
0.034953307 0.054205988 1.286077
0.041778427 0.0508116 1.2880001
0.011271741 0.066490345 1.2855
0.023681397 0.06277547 1.2863334
0.0039421506 0.14748755 1.28425
-0.25297648 0.15712613 1.2863334
-0.24574518 0.15685382 1.2835001
-0.23957458 0.15859163 1.2830001
-0.0026281003 0.15739951 1.2855
0.0026332147 0.15336524 1.2863334
-0.24276653 0.16146797 1.2880001
-0.23498085 0.16362602 1.2852223
-0.22528306 0.16670989 1.284875
-0.21582958 0.16808964 1.2830001
-0.20695645 0.16983926 1.2830001
-0.010136019 0.16555791 1.2846667
-0.0061407578 0.16383691 1.286889
-0.2224419 0.17050116 1.2880001
-0.21414635 0.17307696 1.2870001
-0.2051058 0.17355326 1.2855
-0.19451155 0.17693457 1.2855
-0.18671072 0.17883737 1.2830001
-0.01016232 0.17501771 1.2880001
-0.18436143 0.18210313 1.2870001
-0.1753117 0.18470375 1.2846668
-0.16547082 0.18753198 1.2840002
-0.15521733 0.18783547 1.2830001
-0.14621922 0.18783547 1.2830001
-0.13384683 0.18783547 1.2830001
-0.030368609 0.18783547 1.2830001
-0.024744794 0.18783547 1.2830001
-0.014646345 0.18589842 1.2851429
-0.16302213 0.19143279 1.286
-0.15445116 0.1921103 1.286
-0.14448048 0.19199519 1.2848182
-0.13568494 0.19293778 1.2855
-0.12587908 0.19285615 1.2864616
-0.1145638 0.19254982 1.2865715
-0.10397304 0.19265889 1.285143
-0.094960526 0.19426884 1.285143
-0.085227102 0.19343501 1.2856923
-0.075292595 0.19283724 1.2850834
-0.064974338 0.19467309 1.2852223
-0.055220794 0.19609234 1.2855002
-0.044943489 0.19517395 1.2852223
-0.035111744 0.19246157 1.2850834
-0.027475903 0.19157855 1.2880001
0.047571439 0.047571439 1.2920001
0.0509694 0.046438787 1.2920001
0.037943885 0.057198994 1.2920001
0.044251405 0.054083321 1.2942222
0.014734137 0.06778615 1.293
0.02532953 0.065023534 1.2936667
0.034198392 0.061428405 1.2941428
0.0065755262 0.14531925 1.293
0.0056724721 0.15603325 1.2934999
-0.25215241 0.16293639 1.2936667
-0.24512652 0.16455473 1.2945
-0.23682114 0.16870415 1.2950001
-0.0024277405 0.16659334 1.2927142
0.0031574611 0.16422468 1.2958889
-0.2330925 0.17245056 1.2970001
-0.22530216 0.17516105 1.2954615
-0.2157235 0.17715065 1.2941428
-0.20501025 0.17782657 1.2920001
-0.0051492699 0.1742328 1.295077
-0.22172216 0.18078883 1.2970001
-0.21404716 0.18164161 1.2970001
-0.20421463 0.18272947 1.296091
-0.19524844 0.18503392 1.2948571
-0.18547638 0.18757349 1.2943077
-0.17629965 0.18876979 1.2932501
-0.010772261 0.18593815 1.2932501
-0.0071910047 0.18131453 1.2953334
-0.18419993 0.19215919 1.2970001
-0.17428906 0.19246584 1.296
-0.16644467 0.19481651 1.2945
-0.15547158 0.19746521 1.2945
-0.1456399 0.19784276 1.2945
-0.13403064 0.19745924 1.2919999
-0.12400608 0.19791469 1.293
-0.11555982 0.19757223 1.2941428
-0.10722452 0.19745924 1.2919999
-0.08381635 0.19821434 1.2920001
-0.074755117 0.19821434 1.2920001
-0.067959204 0.19821434 1.2920001
-0.041908175 0.19821434 1.2920001
-0.034778535 0.19771492 1.2936667
-0.024488056 0.19411454 1.2948571
-0.016585831 0.19246584 1.296
-0.14440365 0.20125549 1.2970001
-0.1363107 0.20219855 1.29575
-0.12621106 0.20125549 1.2970001
-0.11142959 0.20125549 1.2970001
-0.10378433 0.20188421 1.2961667
-0.095432371 0.20233954 1.2942222
-0.086045049 0.20191431 1.29575
-0.075044416 0.20125549 1.2970001
-0.064279929 0.20217998 1.2964444
-0.054472558 0.20200461 1.2945
-0.045414072 0.20210159 1.295125
-0.038659245 0.20125549 1.2970001
0.047460977 0.055466264 1.3045001
0.051561151 0.053852756 1.307
0.0171213 0.069626622 1.302
0.025556 0.068280056 1.3053335
0.035922118 0.064297713 1.3050001
0.042394724 0.063401125 1.307
0.01374964 0.072185613 1.307
0.0068693412 0.13736382 1.30575
0.01031223 0.13864221 1.307
0.0074269008 0.14224158 1.3032501
0.01029645 0.14528909 1.3050001
0.011049799 0.1561957 1.3036667
-0.25366351 0.16745736 1.3053335
-0.24882956 0.16778874 1.302
0.0068536345 0.16561328 1.3028334
0.011443239 0.16476062 1.305125
-0.2523059 0.17209966 1.307
-0.24500275 0.17286599 1.3042728
-0.23530523 0.17638758 1.3036667
-0.22942542 0.17920294 1.302
-0.0019023666 0.178442 1.302
0.0039628702 0.17404726 1.3054616
0.011458034 0.17072469 1.307
-0.23030646 0.18218273 1.307
-0.2242502 0.1837462 1.304143
-0.21515252 0.18697314 1.3031112
-0.20614044 0.18787773 1.302
-0.0045735696 0.1853361 1.3050001
-0.21426523 0.19134915 1.307
-0.20480457 0.19250691 1.3051251
-0.1954987 0.19321512 1.3028334
-0.18519409 0.1959427 1.3040001
-0.1752965 0.19712687 1.3031112
-0.16436447 0.1997485 1.302
-0.030818339 0.1997485 1.302
-0.024350293 0.19898756 1.302
-0.014340903 0.19560303 1.3031112
-0.0080206236 0.19134915 1.307
-0.18512908 0.2014977 1.307
-0.17616726 0.20166141 1.307
-0.16384988 0.20280719 1.307
-0.15418826 0.20356764 1.3055714
-0.14469852 0.20593603 1.3042223
-0.13426176 0.20722549 1.3045001
-0.12478817 0.206818 1.3043332
-0.11535989 0.20599715 1.3044999
-0.10562851 0.20737442 1.3040001
-0.094644934 0.20822175 1.3042223
-0.084104501 0.20729423 1.3035001
-0.075430147 0.2068644 1.3036667
-0.06558957 0.20779176 1.3042728
-0.05489336 0.20813949 1.3045001
-0.04511765 0.2083109 1.3047779
-0.035433583 0.20514478 1.3039231
-0.025589608 0.20433491 1.307
-0.015812086 0.2009739 1.307
-0.092810072 0.21197362 1.307
-0.08478944 0.21197362 1.307
-0.042394724 0.21197362 1.307
0.0080513069 -0.1035168 1.312
0.014437983 -0.10421868 1.3129092
0.021853546 -0.10121642 1.312
0.0149693 -0.094402768 1.3132501
0.022914562 -0.09478645 1.3162857
0.016163981 -0.088901892 1.317
0.02193683 -0.088901892 1.317
0.049458027 0.056359146 1.312
0.034505602 0.067861013 1.312
0.042556908 0.065560639 1.312
0.0080513069 0.072461762 1.312
0.015887478 0.073437139 1.3130001
0.026032794 0.071192004 1.3140001
0.035021957 0.070428766 1.317
0.041406721 0.070161387 1.312
0.00577285 0.088324606 1.317
-0.0011501866 0.09661568 1.312
0.0048348755 0.09464296 1.3133334
0.011306896 0.095294714 1.316
0.00577285 0.10044759 1.317
0.01039113 0.10044759 1.317
0.0069274204 0.11776614 1.317
0.01039113 0.11776614 1.317
0.0069116405 0.1255562 1.3140001
0.014362709 0.12579669 1.3154089
0.0069011203 0.13342166 1.312
0.015431131 0.13539015 1.3132502
0.021936828 0.13508469 1.317
0.015633784 0.14479308 1.3137858
0.013999114 0.15396771 1.3148572
0.014963823 0.16459855 1.3130001
-0.25385836 0.1767235 1.3132501
-0.24517651 0.17841481 1.3130001
0.007284516 0.17751215 1.312
0.012383684 0.1753674 1.3138751
-0.25169626 0.18242206 1.317
-0.24428219 0.18273047 1.3164445
-0.23531477 0.18484457 1.3145001
-0.22543657 0.18805552 1.312
-0.0019169777 0.189014 1.312
0.0042275791 0.18399787 1.3145002
0.01039113 0.18126749 1.317
-0.23206857 0.19050404 1.317
-0.22514115 0.19204347 1.317
-0.21557672 0.19436593 1.3150002
-0.20512739 0.1982052 1.316
-0.19572131 0.19917187 1.3132501
-0.01035168 0.19783211 1.312
-0.0049899872 0.19471176 1.3142223
0.00115457 0.19165862 1.317
-0.19359043 0.2032818 1.316
-0.18504494 0.20695217 1.3151251
-0.17474109 0.20700282 1.3142223
-0.16571024 0.20720024 1.3145001
-0.15575868 0.20754921 1.3128334
-0.031055041 0.20818378 1.312
-0.024184601 0.20844823 1.3136667
-0.016023951 0.2058226 1.3142729
-0.17434007 0.21128631 1.317
-0.16433381 0.21128631 1.317
-0.15401964 0.21174812 1.317
-0.14519967 0.212616 1.3145
-0.13536796 0.21451789 1.3147779
-0.12506956 0.21417123 1.3142225
-0.11559937 0.21389508 1.316
-0.10405365 0.21415728 1.315125
-0.09478645 0.2161186 1.3162857
-0.085342184 0.21612224 1.3155
-0.074340865 0.2150483 1.3139234
-0.064902946 0.21468338 1.3142223
-0.055314157 0.21434456 1.3145001
-0.045168884 0.21433574 1.3136668
-0.03509184 0.21270524 1.3155714
-0.028058007 0.21178864 1.3153334
0.025496975 -0.092716262 1.322
0.017045908 -0.083795853 1.3233848
0.02557149 -0.084319636 1.3256667
0.031433761 -0.082659148 1.3280001
0.019791627 -0.076838076 1.3280001
0.025612695 -0.076838076 1.3280001
0.047517087 0.062583484 1.322
0.00695372 0.079967782 1.322
0.014819392 0.077000916 1.32575
0.024989165 0.075548284 1.32575
0.034599926 0.072683029 1.3244001
0.040563367 0.073014058 1.322
0.0061258962 0.0846036 1.3219999
0.013424103 0.084184423 1.3276001
0.014599227 0.095194131 1.3260002
-0.0011589533 0.10314684 1.322
0.0043711946 0.10522023 1.3233848
0.014838871 0.10506272 1.3255292
0.0044755088 0.11346345 1.3245716
0.015505184 0.11465769 1.3246088
0.022120053 0.11758555 1.3280001
0.019702207 0.12284905 1.322
0.02208674 0.12670463 1.3260001
0.024735276 0.13495281 1.3254286
0.019702207 0.14718707 1.322
0.023941768 0.14363903 1.3255999
0.018416012 0.15410496 1.3245715
0.022120053 0.15134773 1.3280001
0.017443474 0.1651355 1.3265001
0.016664265 0.17397566 1.3260001
-0.24619481 0.18791601 1.3219999
-0.23874438 0.1889094 1.322
0.0073523112 0.18842256 1.324
0.012785306 0.18524107 1.3256
-0.24332058 0.19209521 1.3280001
-0.23356311 0.19486935 1.324
-0.22583306 0.19684476 1.3227501
-0.21556532 0.19818102 1.322
-0.00347686 0.19818102 1.322
0.0042646914 0.19464825 1.326
-0.23205498 0.20188537 1.3235
-0.22120053 0.20140891 1.3280001
-0.21421525 0.20140891 1.3280001
-0.20443867 0.20386051 1.325
-0.19511375 0.20717737 1.3232
-0.18659149 0.20977055 1.322
-0.011218995 0.20776649 1.324
-0.0054224762 0.20265611 1.3260001
-0.19442363 0.21072261 1.3280001
-0.18444483 0.21350633 1.3260001
-0.17416212 0.2144639 1.3236365
-0.16444261 0.21517901 1.322
-0.15579645 0.21573089 1.3219999
-0.14486916 0.21765144 1.322
-0.13443859 0.21904218 1.322
-0.12516695 0.21904218 1.322
-0.11447883 0.21801201 1.322
-0.10500117 0.21857861 1.322
-0.096193127 0.21904218 1.322
-0.078808829 0.21904218 1.322
-0.063742436 0.21904218 1.322
-0.05562976 0.21904218 1.322
-0.045199178 0.21904218 1.322
-0.034073226 0.21672428 1.322
-0.024681674 0.21518528 1.325
-0.017047076 0.21350634 1.3260001
-0.1653183 0.22003631 1.3280001
-0.15484038 0.22003631 1.3280001
-0.14407139 0.2226558 1.3280001
-0.13504875 0.22236474 1.3280001
-0.12492605 0.2226295 1.3268001
-0.11577455 0.22339961 1.3280001
-0.10477919 0.2231409 1.3280001
-0.094639137 0.22415896 1.3262
-0.085504688 0.22489099 1.3264
-0.074915476 0.22369283 1.3258184
-0.064999968 0.22369377 1.3266667
-0.054459311 0.22339961 1.3280001
-0.044240106 0.22352897 1.3280001
-0.0349264 0.22061843 1.3280001
0.03155211 -0.080633171 1.3330001
0.017862832 -0.074623242 1.3330001
0.025709128 -0.072452985 1.3330001
0.032331172 -0.074011125 1.3330001
0.019903401 -0.067903534 1.3355
0.026516933 -0.066765815 1.336182
0.034884669 -0.06531845 1.3353335
0.03636238 -0.059821978 1.3379999
0.054285247 0.058183491 1.3363333
0.028101113 0.078442819 1.3355
0.033470958 0.077011138 1.3350002
0.017537229 0.086123146 1.3335557
0.023677539 0.082282707 1.3370001
0.0192516 0.094909929 1.3365716
0.019866142 0.1028365 1.3330001
0.023268236 0.10595568 1.3365716
0.025667043 0.11511573 1.336182
0.031670459 0.117298 1.3380001
0.026206467 0.12507382 1.3353078
0.031670459 0.12081694 1.3380001
0.02859411 0.134267 1.335143
0.028490642 0.145959 1.3355001
0.019866142 0.15776055 1.3330001
0.02564035 0.15414643 1.3348184
0.019881045 0.1648975 1.3340001
0.02320835 0.16245317 1.3370001
0.017528949 0.1776267 1.3330001
0.018141191 0.18577608 1.3348751
0.02228662 0.18884978 1.3380001
-0.24374524 0.19635685 1.3380001
-0.23811494 0.19823362 1.3380001
0.0064272815 0.19807713 1.3330001
0.014252628 0.19402085 1.3359169
-0.2404609 0.20057958 1.3380001
-0.23313518 0.20267276 1.3363333
-0.225261 0.20535806 1.3355001
-0.21549189 0.20729709 1.3359169
-0.20668451 0.20902522 1.335
-0.19983003 0.20917881 1.3330001
-0.0037674261 0.20753534 1.3341112
0.0035158093 0.2036047 1.3358573
0.01055682 0.20057958 1.3380001
-0.2052715 0.21230938 1.3380001
-0.19473965 0.21464674 1.3355001
-0.18515253 0.21791883 1.335
-0.17879529 0.21852757 1.3330001
-0.024540531 0.21852757 1.3330001
-0.014333391 0.21678771 1.3348751
-0.0064382399 0.21249917 1.3355001
-0.1818119 0.22169322 1.3380001
-0.17425354 0.22279705 1.3365716
-0.16484657 0.22502816 1.3355001
-0.1546405 0.22610609 1.3363334
-0.14634854 0.22713368 1.3355001
-0.134267 0.22690715 1.335143
-0.12544198 0.22699679 1.3337144
-0.1139046 0.22757986 1.3340001
-0.10543671 0.22766714 1.3363334
-0.099517003 0.22713512 1.3355
-0.074790187 0.22787635 1.3330001
-0.065830939 0.22787635 1.3330001
-0.055383712 0.22777174 1.3346667
-0.044406671 0.22787635 1.3330001
-0.035123207 0.22596478 1.3355001
-0.026922183 0.22255911 1.335143
-0.017110605 0.22199671 1.3370001
-0.15131442 0.23107706 1.3380001
-0.14779547 0.23107706 1.3380001
-0.13020077 0.23107706 1.3380001
-0.12400924 0.23137355 1.3370001
-0.11671151 0.23166355 1.3380001
-0.092665419 0.23107706 1.3380001
-0.08413896 0.23021354 1.3330001
-0.075958781 0.23021354 1.3330001
