# .PCD v0.7 - Point Cloud Data file format
VERSION 0.7
FIELDS x y z
SIZE 4 4 4
TYPE F F F
COUNT 1 1 1
WIDTH 1457
HEIGHT 1
VIEWPOINT 0 0 0 1 0 0 0
POINTS 1457
DATA ascii
-0.03816539 0.041870769 1.268
-0.12660293 -0.2408817 1.2780001
-0.13472782 -0.23473482 1.2776428
-0.12528029 -0.23425999 1.2736666
-0.11508448 -0.23353483 1.2764615
-0.10580554 -0.2336629 1.2752726
-0.097473063 -0.23191866 1.2780001
-0.13463432 -0.22588338 1.2776666
-0.12745963 -0.2250042 1.274111
-0.11271566 -0.22877932 1.273
-0.10468049 -0.22833291 1.273
-0.094691589 -0.22749002 1.274111
-0.085413739 -0.22386526 1.2736249
-0.14386728 -0.21371356 1.2775455
-0.13528867 -0.21497488 1.2771666
-0.12759562 -0.21761936 1.273
-0.082663752 -0.21783303 1.27425
-0.1512513 -0.20390914 1.2780001
-0.14642788 -0.20678461 1.2749999
-0.1328036 -0.20869137 1.273
-0.15244721 -0.19371867 1.2772857
-0.14842756 -0.19529942 1.273
-0.16021433 -0.18038118 1.2780001
-0.15434211 -0.18451124 1.2772106
-0.14669156 -0.18438746 1.2729999
-0.16021433 -0.17477928 1.2780001
-0.15461245 -0.17477928 1.278
-0.14549939 -0.17526446 1.2751054
-0.13949959 -0.17521147 1.273
-0.17141815 -0.16021433 1.2780001
-0.16383402 -0.16262746 1.278
-0.15461244 -0.16469589 1.278
-0.14609663 -0.16548087 1.2759999
-0.18038118 -0.15349205 1.2780001
-0.17436275 -0.15404774 1.2772857
-0.16542152 -0.1552112 1.2737142
-0.15478539 -0.15441386 1.2732779
-0.14718755 -0.15462753 1.2729999
-0.18150157 -0.14452901 1.278
-0.17485656 -0.14581436 1.2741538
-0.1673995 -0.14842756 1.273
-0.18134151 -0.13492577 1.278
-0.17707147 -0.1357796 1.2729999
-0.18038118 -0.12660293 1.2780001
-0.17693178 -0.12440834 1.2746667
-0.17473218 -0.11521737 1.2759999
-0.17091516 -0.10500998 1.27425
-0.17125048 -0.096255153 1.2767501
-0.11378729 0.0042478004 1.275
-0.11091762 0.01008342 1.2780001
-0.10867686 0.01232418 1.2780001
-0.075887777 0.018971942 1.273
-0.012843825 0.018432572 1.27425
-0.0043443702 0.017011814 1.2746665
0.0044644251 0.015631404 1.2734998
0.01004397 0.01339196 1.273
-0.09386646 0.022350617 1.2746667
-0.084801331 0.023717536 1.2746665
-0.074918613 0.022365957 1.2754999
-0.064917386 0.022946969 1.2767501
-0.05938014 0.02576874 1.2780001
-0.023230266 0.025243443 1.2739999
-0.015141785 0.022869844 1.2752726
-0.0067222798 0.02128722 1.2780001
-0.058175925 0.034397446 1.276125
-0.031024706 0.03727429 1.273
-0.026480595 0.032823566 1.2763333
-0.054347634 0.045787279 1.2738333
-0.044639867 0.047987856 1.273
-0.034829631 0.044636965 1.2753075
-0.050417099 0.050417099 1.2780001
-0.044633731 0.051845193 1.2763333
-0.038466379 0.05116402 1.2780001
-0.14275639 -0.24373437 1.2880001
-0.13597666 -0.24459568 1.2857274
-0.12794617 -0.24528798 1.2870001
-0.1163021 -0.24276654 1.2880001
-0.1435222 -0.23453984 1.2850001
-0.13272208 -0.23957458 1.2830001
-0.12147444 -0.23957458 1.2830001
-0.11547571 -0.23882473 1.2830001
-0.10010394 -0.23395076 1.2830001
-0.15243481 -0.2224419 1.2880001
-0.14407684 -0.22511895 1.2839378
-0.13429675 -0.22382788 1.2830001
-0.15326698 -0.21412474 1.2855
-0.14650042 -0.2182041 1.2830001
-0.13384683 -0.21707933 1.2830001
-0.15552199 -0.2051058 1.2855
-0.16216591 -0.19341056 1.2858572
-0.1572015 -0.19616565 1.2845001
-0.17050114 -0.18179262 1.2880001
-0.16449347 -0.18476927 1.2851429
-0.18179262 -0.17050114 1.2880001
-0.17351219 -0.17376311 1.2880001
-0.16612288 -0.17528918 1.2840716
-0.18358818 -0.16431715 1.2861819
-0.17570949 -0.1644462 1.2847859
-0.16636273 -0.16820323 1.2830001
-0.19082578 -0.1524348 1.2880001
-0.1854088 -0.15561751 1.2841541
-0.1777126 -0.15859163 1.2830001
-0.19082578 -0.14565992 1.2880001
-0.18685713 -0.14520492 1.2840002
-0.18611647 -0.13528506 1.2844286
-0.18448049 -0.12451808 1.2849231
-0.18369587 -0.11494722 1.2855002
-0.17883737 -0.11247633 1.2830001
-0.18179262 -0.10952722 1.2880001
-0.17616282 -0.10573668 1.2843637
-0.17501773 -0.098235756 1.2880001
-0.12034968 -0.0011247633 1.2830001
-0.12034968 0.0011247633 1.2830001
-0.11607856 0.0061971564 1.2855
-0.11247633 0.011247633 1.2830001
-0.0011247633 0.019120976 1.2830001
0.0056413501 0.019170655 1.2863334
-0.093065836 0.026509743 1.2867501
-0.086226121 0.027691096 1.284
-0.075359143 0.026994321 1.2830001
-0.06616953 0.026393799 1.2841113
-0.059612457 0.028119083 1.2830001
-0.013887179 0.026904898 1.2846667
-0.0047340877 0.024345294 1.2855
0.003385979 0.02255371 1.2863334
-0.083758049 0.031304233 1.2867501
-0.074362375 0.033551786 1.2880001
-0.065445296 0.033850562 1.2870625
-0.059612457 0.039366715 1.2830001
-0.023851322 0.035875097 1.2855
-0.015903927 0.032529194 1.2875456
-0.058715627 0.04403672 1.2880001
-0.031493373 0.04724006 1.2830001
-0.026675411 0.044714481 1.2857778
-0.05204444 0.054302741 1.2865715
-0.045159731 0.057650305 1.2848182
-0.034921646 0.055205226 1.2851053
-0.028228667 0.051940747 1.2880001
-0.04403672 0.063393518 1.2880001
-0.037544128 0.064079076 1.2880001
-0.13460624 -0.25161144 1.2957501
-0.12621106 -0.25128511 1.2970001
-0.15414968 -0.24559996 1.2970001
-0.14655539 -0.24610281 1.2936666
-0.13365309 -0.24805108 1.2920001
-0.12458786 -0.24728458 1.2958889
-0.11779594 -0.24578577 1.2920001
-0.16032217 -0.23081844 1.2970001
-0.15469378 -0.23541403 1.2959476
-0.14837758 -0.23672454 1.2920001
-0.1623895 -0.22482315 1.2970001
-0.15498951 -0.22625099 1.2925555
-0.16191402 -0.21580955 1.2970001
-0.15743881 -0.21520413 1.2920001
-0.16249177 -0.20453729 1.2961668
-0.15970412 -0.20576535 1.2920001
-0.17282957 -0.19215919 1.2970001
-0.16710106 -0.19497955 1.2941428
-0.18382092 -0.18078883 1.2970001
-0.17494977 -0.18509352 1.2943529
-0.16876535 -0.18915311 1.2920001
-0.19306882 -0.17351179 1.2970001
-0.1850068 -0.1748596 1.2938422
-0.17660502 -0.17660502 1.293
-0.19456105 -0.16462858 1.2965833
-0.18726534 -0.16650005 1.2919999
-0.19555013 -0.15530157 1.2943332
-0.19553891 -0.14538702 1.2947272
-0.19282678 -0.13545793 1.29575
-0.18915312 -0.13252044 1.2920001
-0.1931338 -0.12556133 1.2970001
-0.18915312 -0.12421431 1.2920001
-0.19215919 -0.11825182 1.2970001
-0.18951911 -0.11574981 1.2945001
-0.18332081 -0.10617854 1.2939999
-0.17782657 -0.10080615 1.2920001
-0.17775673 -0.097406149 1.2970001
-0.14288761 -0.025393819 1.2970001
-0.1398555 -0.02387777 1.2970001
-0.12268271 0.0034078225 1.29575
-0.1189286 0.00679592 1.2920001
-0.11605868 0.011720157 1.2936667
0.01019388 0.019255107 1.2920001
-0.095329173 0.028371125 1.2945001
-0.0028316332 0.027750008 1.2920001
0.0052185338 0.026309555 1.2934999
0.010223467 0.024991794 1.2957501
-0.091744922 0.03058164 1.2920001
-0.084839225 0.036497828 1.2952144
-0.075132668 0.038510215 1.2919999
-0.065693893 0.039642867 1.2920001
-0.021520413 0.039642867 1.2920001
-0.013769302 0.037097156 1.2934285
-0.0049130344 0.034782436 1.2936667
0.0026530856 0.032216042 1.2970001
-0.081866637 0.043207392 1.2970001
-0.074970998 0.043164656 1.29575
-0.065915801 0.043187119 1.296375
-0.057988871 0.048892576 1.2970001
-0.022515055 0.045844156 1.2934285
-0.015527081 0.042422339 1.2961667
-0.006594813 0.043889612 1.2970001
-0.055177577 0.0547175 1.2950001
-0.03058164 0.05776532 1.2920001
-0.026099242 0.054472562 1.2945
-0.051793177 0.06237337 1.2936667
-0.045306131 0.066260226 1.2920001
-0.033427034 0.065551199 1.2943077
-0.028425917 0.061399981 1.2970001
-0.042070355 0.071633309 1.2970001
-0.038659245 0.071633309 1.2970001
-0.16384988 -0.25093094 1.307
-0.16329691 -0.24446338 1.3040835
-0.15865737 -0.24654672 1.302
-0.17151073 -0.23333676 1.306
-0.16472104 -0.23554346 1.3030001
-0.17177311 -0.22483318 1.3045001
-0.16740827 -0.22562067 1.302
-0.17129759 -0.21712974 1.307
-0.1668084 -0.21479078 1.3032501
-0.17301631 -0.20127945 1.307
-0.16699447 -0.2061727 1.3034286
-0.18218273 -0.19134915 1.307
-0.17543517 -0.19581385 1.3036667
-0.20051558 -0.18218273 1.307
-0.19356808 -0.18365338 1.3047779
-0.18483816 -0.18560128 1.3028334
-0.20289969 -0.17485709 1.3057501
-0.19746566 -0.17520796 1.302
-0.2039901 -0.16433321 1.3047779
-0.1991778 -0.1660766 1.302
-0.2036483 -0.15486297 1.3042223
-0.20312943 -0.14560206 1.3048573
-0.19917779 -0.14210679 1.302
-0.20051558 -0.13520479 1.307
-0.1967047 -0.13468756 1.302
-0.20051558 -0.12832996 1.307
-0.19733794 -0.12418919 1.3036667
-0.19352739 -0.11466566 1.3036667
-0.18667156 -0.10400072 1.3036667
-0.18347813 -0.098031491 1.3053335
-0.17806152 -0.094737858 1.302
-0.17360906 -0.081853636 1.3028334
-0.1741621 -0.079060428 1.307
-0.15319189 -0.032746304 1.3060001
-0.14952601 -0.031959757 1.302
-0.15124604 -0.027499281 1.307
-0.14590977 -0.024254153 1.3036667
-0.14240164 -0.016415875 1.3064445
-0.13864221 -0.015659312 1.307
-0.14093381 -0.0045832135 1.307
-0.1345173 -0.0038957316 1.307
-0.12762366 -0.0026691577 1.3036667
-0.12671524 0.005031453 1.3045001
-0.12260096 0.012030935 1.307
-0.11485999 0.015140325 1.305889
-0.10713261 0.018905755 1.307
-0.11114293 0.02406187 1.307
-0.10526652 0.025170963 1.305125
-0.099303536 0.026252659 1.302
-0.10340875 0.033514746 1.307
-0.095328927 0.035287883 1.3031111
-0.087889336 0.0399497 1.302
-0.00114142 0.038808279 1.302
0.0054627052 0.035175666 1.3036667
0.010292505 0.032023318 1.3045001
-0.1019765 0.040103115 1.307
-0.094314717 0.043911647 1.3066666
-0.085363738 0.046494823 1.3040835
-0.075333714 0.047939643 1.302
-0.064645879 0.047628343 1.302
-0.014517975 0.046986956 1.3027143
-0.0036385653 0.046496727 1.3051819
0.0018005482 0.044031586 1.307
-0.084407508 0.051561151 1.307
-0.076336481 0.052292142 1.3061668
-0.0645082 0.05191021 1.3061668
-0.057451472 0.055929583 1.302
-0.022461807 0.055586368 1.3028334
-0.016217967 0.053612474 1.3057501
-0.0045832135 0.051561151 1.307
0.0011458034 0.051561151 1.307
-0.053749748 0.064044446 1.3045001
-0.046843149 0.06855204 1.3032501
-0.030818339 0.069626622 1.302
-0.024940237 0.065283924 1.3037647
-0.019478656 0.060727578 1.307
-0.043612801 0.07590998 1.3053335
-0.034997351 0.075427137 1.3035625
-0.027099082 0.073667325 1.3061668
-0.03781151 0.081352033 1.307
-0.16852541 -0.25144115 1.3136667
-0.17322923 -0.24355608 1.3151251
-0.16792725 -0.24729013 1.312
-0.18126749 -0.23206857 1.317
-0.17684451 -0.23563643 1.3150002
-0.18126749 -0.2274503 1.317
-0.17758425 -0.22563986 1.3141429
-0.17440563 -0.21472092 1.3140001
-0.18126749 -0.20204975 1.317
-0.17514476 -0.20563968 1.3153335
-0.20435889 -0.19165862 1.317
-0.19435261 -0.19319803 1.317
-0.18480435 -0.19581939 1.3147779
-0.21128631 -0.18126749 1.317
-0.20557578 -0.18482345 1.3149168
-0.19668193 -0.18846631 1.3120002
-0.1897808 -0.1897808 1.312
-0.21220997 -0.17618738 1.317
-0.20754921 -0.1757084 1.3128334
-0.21167116 -0.16587321 1.317
-0.20818378 -0.16677707 1.312
-0.21128631 -0.15471238 1.317
-0.2081838 -0.1552752 1.312
-0.21128631 -0.14663039 1.317
-0.20768143 -0.14433791 1.3136668
-0.2061516 -0.13583022 1.3149168
-0.2028193 -0.12560777 1.3145
-0.20204975 -0.11776614 1.317
-0.1984285 -0.11477245 1.3148572
-0.19422556 -0.10596644 1.315182
-0.1897808 -0.10121642 1.312
-0.19165862 -0.095829308 1.317
-0.18547337 -0.093693532 1.3140836
-0.17827894 -0.093165122 1.312
-0.18262467 -0.086263008 1.3163751
-0.17850541 -0.086370654 1.3136667
-0.17471954 -0.074623346 1.3158463
-0.16972178 -0.075047046 1.317
-0.17203093 -0.06811963 1.317
-0.16394894 -0.061192211 1.317
-0.16345413 -0.055254418 1.317
-0.16163979 -0.044258516 1.317
-0.16106251 -0.036368955 1.317
-0.15720767 -0.035358597 1.3153335
-0.15492913 -0.024714448 1.3135387
-0.15343414 -0.015818762 1.3159287
-0.14674738 -0.013718796 1.3142729
-0.13687222 -0.012652053 1.3120002
-0.15124866 -0.00577285 1.317
-0.14538597 -0.0050002155 1.3161668
-0.13704462 -0.0057611614 1.3136667
-0.14293577 0.0030018822 1.317
-0.13581601 0.004284333 1.3145002
-0.12997109 0.0080513069 1.312
-0.13162097 0.0115457 1.317
-0.12491649 0.014984424 1.3145001
-0.11689806 0.018675979 1.3150002
-0.12199956 0.022706544 1.317
-0.11452741 0.024831504 1.3147274
-0.11292218 0.034125376 1.3162858
-0.10783 0.035368241 1.3120002
-0.10448546 0.045328096 1.3145001
-0.096385643 0.047617726 1.312
0.0048307842 0.043477058 1.312
-0.1039113 0.051955651 1.317
-0.09698388 0.051955651 1.317
-0.083963625 0.054058772 1.312
-0.073991396 0.056889385 1.3153335
-0.064993702 0.056469165 1.3145001
-0.058883071 0.058883071 1.317
-0.012949463 0.05727658 1.3132501
-0.0042251442 0.055688784 1.3142225
0.0026837687 0.05329198 1.312
-0.073892474 0.061961923 1.317
-0.061192211 0.061192211 1.317
-0.05720045 0.061804127 1.3136667
-0.015801227 0.064040564 1.3145001
-0.00115457 0.062346779 1.317
0.00115457 0.062346779 1.317
-0.048551679 0.075216629 1.3141429
-0.031055041 0.079362877 1.312
-0.024190864 0.075212859 1.3141429
-0.01962769 0.070428766 1.317
-0.042573951 0.084000155 1.3125558
-0.034761585 0.084894061 1.3145002
-0.02886425 0.081974469 1.317
-0.18045306 -0.25030586 1.3280001
-0.17469934 -0.25218263 1.3232
-0.18355763 -0.24332058 1.3280001
-0.17809249 -0.24569811 1.322
-0.1843901 -0.23522466 1.3246667
-0.18411228 -0.22447401 1.325
-0.17963776 -0.22136009 1.322
-0.18278149 -0.21421525 1.3280001
-0.17917418 -0.21486995 1.322
-0.18560727 -0.20381856 1.3260001
-0.17886512 -0.20899791 1.322
-0.22003631 -0.19325942 1.3280001
-0.2141307 -0.19474702 1.3266667
-0.20611309 -0.19580545 1.3233333
-0.19558182 -0.19757311 1.3245715
-0.1889094 -0.19818102 1.322
-0.22061843 -0.18569201 1.3280001
-0.21547504 -0.18585594 1.3249999
-0.20977055 -0.1889094 1.322
-0.22003631 -0.17812464 1.3280001
-0.21595164 -0.17551705 1.322
-0.21566731 -0.16571485 1.325
-0.2152613 -0.15627706 1.3244001
-0.21503055 -0.14443469 1.3244001
-0.21359739 -0.13643037 1.3256
-0.20977055 -0.13212068 1.322
-0.21072261 -0.12573504 1.3280001
-0.20668 -0.12439432 1.322
-0.20531693 -0.11439934 1.3243078
-0.20188172 -0.10539404 1.3260001
-0.19760154 -0.10256737 1.322
-0.20140891 -0.098958135 1.3280001
-0.19564551 -0.094789878 1.3240001
-0.19260587 -0.088179082 1.3235
-0.18738887 -0.084469371 1.324
-0.1825062 -0.077881314 1.3260001
-0.17905828 -0.073014058 1.322
-0.17365275 -0.065334462 1.325
-0.17214875 -0.05552157 1.325
-0.16606148 -0.055133067 1.3219999
-0.17113936 -0.046568535 1.3280001
-0.16643694 -0.045423899 1.323
-0.16404772 -0.03443313 1.324
-0.1626243 -0.025554834 1.325
-0.16269803 -0.015633501 1.3266667
-0.15800399 -0.013134805 1.322
-0.16315618 -0.0048231692 1.3280001
-0.15632305 -0.0043724086 1.3238463
-0.14950497 -0.0023179066 1.322
-0.15347022 0.0034920552 1.3273335
-0.14648487 0.0052231802 1.3235002
-0.13791545 0.00695372 1.322
-0.14300625 0.012791093 1.3262
-0.13440704 0.015095121 1.3243079
-0.12771665 0.017847881 1.322
-0.13236859 0.0239607 1.3268001
-0.12605725 0.026178479 1.3247693
-0.11879271 0.027235404 1.322
-0.12369767 0.03405324 1.3280001
-0.11806771 0.035225049 1.3246667
-0.1222424 0.045404319 1.3280001
-0.11460172 0.044699129 1.3244002
-0.10268326 0.055397969 1.322
-0.095988236 0.055206709 1.3237144
-0.063742436 0.059106618 1.322
-0.0057947673 0.059106618 1.322
0.0019403555 0.057822596 1.3280001
-0.074404806 0.065828554 1.3220001
-0.065268889 0.065274499 1.3248003
-0.056531265 0.066986397 1.325
-0.01184026 0.067109533 1.3244001
-0.00514453 0.065406851 1.3254288
0.0030206428 0.06531097 1.3256
-0.072680488 0.072101012 1.3265001
-0.067912444 0.071793154 1.3280001
-0.052389599 0.073345438 1.3280001
-0.024338022 0.079195149 1.322
-0.016083451 0.074295118 1.3241431
-0.0064031733 0.072181225 1.3280001
0.0034926399 0.072181225 1.3280001
-0.044819761 0.087079301 1.3244001
-0.032837007 0.088466763 1.322
-0.025321992 0.085583128 1.3252002
-0.018627413 0.080330722 1.3280001
-0.042516384 0.094467662 1.3266667
-0.034866564 0.095308356 1.3257499
-0.027265113 0.094983913 1.3266667
-0.033762187 0.10128656 1.3280001
-0.029105334 0.10128656 1.3280001
-0.18214095 -0.2538996 1.3346667
-0.17879529 -0.25475407 1.3330001
-0.19269373 -0.24349429 1.3344287
-0.18703398 -0.24674639 1.3355001
-0.19366787 -0.23523578 1.3358126
-0.18814406 -0.23839372 1.3330001
-0.19185865 -0.22585167 1.3371668
-0.18781777 -0.22383508 1.3340001
-0.18732832 -0.21542506 1.3355001
-0.21582831 -0.20175256 1.3380001
-0.20057958 -0.20292553 1.3380001
-0.19426094 -0.20467284 1.3357779
-0.18715191 -0.20820636 1.33425
-0.22420816 -0.19523059 1.3355001
-0.21735898 -0.19749284 1.3330001
-0.20567301 -0.19983003 1.3330001
-0.22320196 -0.18697546 1.3330001
-0.22350879 -0.1743568 1.3348184
-0.22180808 -0.16557078 1.3363334
-0.21852757 -0.16360353 1.3330001
-0.22169322 -0.15483336 1.3380001
-0.21852757 -0.15425476 1.3330001
-0.22234359 -0.1457174 1.3358573
-0.21852757 -0.1414002 1.3330001
-0.22276266 -0.13600157 1.3373752
-0.21759148 -0.13356806 1.3352224
-0.21503916 -0.12438376 1.3360002
-0.21297479 -0.11526877 1.3358573
-0.20917881 -0.11101668 1.3330001
-0.20671214 -0.10569619 1.3346667
-0.20273596 -0.095506907 1.33675
-0.19983003 -0.093487732 1.3330001
-0.19486167 -0.08551795 1.3363334
-0.18884978 -0.08093562 1.3380001
-0.19119574 -0.077416681 1.3380001
-0.18645667 -0.074815713 1.3357779
-0.18310826 -0.066503055 1.3367501
-0.17684764 -0.063883282 1.3330001
-0.16944651 -0.064272813 1.3330001
-0.17737551 -0.054732706 1.3355001
-0.17370677 -0.044306207 1.3370001
-0.17086409 -0.034798402 1.3379999
-0.16827792 -0.035057902 1.3330001
-0.17008209 -0.025805561 1.3380001
-0.16710933 -0.025709128 1.3330001
-0.17008209 -0.01290278 1.3380001
-0.16737796 -0.013880639 1.335143
-0.16594073 -0.0081801768 1.3330001
-0.1610994 0.0041735596 1.3330001
-0.15503383 0.0070115798 1.3330001
-0.15313375 0.013602624 1.3375002
-0.14646076 0.017574975 1.3365002
-0.1384787 0.018113248 1.3330001
-0.14313951 0.023789227 1.3346667
-0.13663708 0.025873551 1.3346667
-0.13254674 0.035971388 1.3380002
-0.12804481 0.03555873 1.3330001
-0.13020077 0.041054301 1.3380001
-0.12511948 0.04209505 1.3338333
0.0035057899 0.059598431 1.3330001
-0.059598431 0.068947203 1.3330001
0.0011685967 0.068947203 1.3330001
-0.072152592 0.076835744 1.3346667
-0.065193981 0.075347379 1.3359169
-0.056428406 0.074589871 1.3363334
-0.011460138 0.075550079 1.334
-0.0042887507 0.07472463 1.3341112
0.0019513139 0.07571464 1.3355001
-0.05043814 0.083281577 1.3379999
-0.048092179 0.087973498 1.3380001
-0.022203337 0.089981943 1.3330001
-0.016059032 0.08482264 1.3358572
-0.0011729799 0.083281577 1.3380001
0.0019549669 0.08484555 1.3380002
-0.05043814 0.090319462 1.3380001
-0.04667962 0.096528642 1.3358573
-0.024108157 0.095734984 1.335
-0.017125508 0.090788648 1.3380001
-0.0011729799 0.09735734 1.3380001
0.0011685967 0.098162115 1.3330001
-0.042431194 0.10338056 1.3370001
-0.034951534 0.1054389 1.3363334
-0.027618757 0.10495528 1.3365716
0.0011685967 0.10166791 1.3330001
-0.031670459 0.1114331 1.3380001
-0.20237017 -0.23245606 1.3460001
-0.1989744 -0.23311794 1.3430001
-0.20222859 -0.2282463 1.3490001
-0.19659176 -0.22533113 1.3457274
-0.19429299 -0.21385932 1.3448002
-0.22082269 -0.20665576 1.3470001
-0.21688585 -0.20704822 1.3470001
-0.20473278 -0.20531884 1.3460001
-0.19779703 -0.20839331 1.3430001
-0.22958584 -0.19426495 1.3430001
-0.23061155 -0.16674989 1.3490001
-0.22602132 -0.16427067 1.3442
-0.23061155 -0.15019317 1.3490001
-0.22617562 -0.15510575 1.3447144
-0.22644621 -0.14481568 1.3430001
-0.22487639 -0.13068733 1.3430001
-0.22313564 -0.12562107 1.3455001
-0.22128321 -0.11830588 1.3450001
-0.21734127 -0.11467519 1.3430001
-0.21297403 -0.10673779 1.3464286
-0.20885882 -0.1014768 1.3460001
-0.20611994 -0.095149018 1.3466001
-0.20132913 -0.088302247 1.3430001
-0.19744408 -0.083269134 1.3454001
-0.19501227 -0.075406879 1.3463334
-0.1895555 -0.071819164 1.3430001
-0.1921763 -0.066226907 1.3490001
-0.18704894 -0.06383992 1.3436002
-0.18234858 -0.054966122 1.3454001
-0.17778747 -0.044150162 1.3466001
-0.17475386 -0.034881692 1.3455715
-0.17385365 -0.025799926 1.3464288
-0.17071769 -0.016483087 1.3430001
-0.1377515 0.029434083 1.3430001
-0.13638683 0.03262106 1.3450001
-0.061222892 0.078883342 1.3430001
-0.057690803 0.078883342 1.3430001
-0.00353209 0.078883342 1.3430001
-0.071819164 0.081238069 1.3430001
-0.064322852 0.083376594 1.3453078
-0.055012658 0.085102543 1.3439233
-0.010608105 0.084868781 1.3445001
-0.0049515883 0.084926844 1.3442001
0.0051019075 0.086732425 1.3430001
-0.053339384 0.093926944 1.3460001
-0.048271898 0.095366426 1.3430001
-0.020800086 0.096936248 1.3430001
-0.014145018 0.094918013 1.3450003
-0.0044559618 0.093910761 1.3480772
-0.050852802 0.10052298 1.3490001
-0.045761921 0.10705654 1.3446366
-0.037675627 0.10949479 1.3430001
-0.022834377 0.10495842 1.3451819
-0.015847152 0.10146908 1.3490001
-0.0023639319 0.10159383 1.3475001
-0.043661505 0.11564374 1.3460001
-0.035607923 0.11579348 1.3450001
-0.027683284 0.11480954 1.3470001
-0.042180229 0.12259862 1.3490001
-0.037337106 0.12383755 1.3490001
-0.20535216 -0.23146629 1.3540001
-0.20265324 -0.22450645 1.3550001
-0.19823012 -0.22197025 1.3540001
-0.2152427 -0.21286869 1.3565001
-0.20240693 -0.21428326 1.3547144
-0.1982301 -0.21722221 1.3540001
-0.21167511 -0.20692271 1.3565001
-0.20810971 -0.20692271 1.3565001
-0.23146629 -0.16499393 1.3540001
-0.22909229 -0.16143291 1.3540001
-0.23146629 -0.15549788 1.3540001
-0.21484821 -0.10406092 1.3540001
-0.20772617 -0.093773529 1.3540001
-0.20179114 -0.084277473 1.3540001
-0.20090044 -0.07488662 1.3560002
-0.19743878 -0.070824735 1.3540001
-0.1940756 -0.064098358 1.3540001
-0.18596439 -0.053810969 1.3540001
-0.18235683 -0.045885086 1.3560002
-0.18228267 -0.039315868 1.3590001
-0.17923801 -0.035610199 1.3540001
-0.17807055 -0.024613043 1.3554287
-0.17448997 -0.016618093 1.3540001
-0.064098358 0.088431999 1.3540001
-0.060537338 0.091399513 1.3540001
-0.056580652 0.096147537 1.3540001
-0.01068306 0.098521553 1.3540001
-0.0083090467 0.097334549 1.3540001
-0.051684104 0.10454974 1.3552501
-0.020179113 0.10801761 1.3540001
-0.013071537 0.10552585 1.3555001
-0.0059433128 0.10472047 1.3556668
-0.051041286 0.11395264 1.3540001
-0.048667274 0.11632665 1.3540001
-0.023057735 0.11530796 1.3560002
-0.017870849 0.11079927 1.3590001
-0.044236273 0.12647593 1.3546251
-0.034838587 0.12708934 1.3548335
-0.028333167 0.1245291 1.358
-0.04169865 0.13224429 1.3590001
-0.035979979 0.13272086 1.3590001
-0.2130037 -0.22138025 1.365
-0.20702043 -0.22377355 1.3649999
-0.21317463 -0.21659365 1.3649999
-0.20791793 -0.21629448 1.3649999
-0.23574005 -0.16530864 1.3649999
-0.21898694 -0.10410855 1.365
-0.21180704 -0.095732003 1.365
-0.20522547 -0.084363826 1.365
-0.21180704 -0.07060235 1.365
-0.20558445 -0.072995648 1.365
-0.20223385 -0.068209052 1.365
-0.19804557 -0.064619102 1.365
-0.19197686 -0.055558749 1.3649999
-0.18627851 -0.046669349 1.3650001
-0.18308745 -0.035899498 1.365
-0.18308745 -0.025129652 1.3649999
-0.17830084 -0.02034305 1.365
-0.18069415 -0.017949751 1.365
-0.17770252 -0.014958125 1.365
-0.062624685 0.09373758 1.3650001
-0.05863585 0.096928649 1.365
-0.054806571 0.10506587 1.365
-0.0023932999 0.10889515 1.365
0.00119665 0.10889515 1.365
-0.052652597 0.11368175 1.365
-0.01507779 0.11272444 1.365
-0.0047865999 0.11128845 1.365
0.0023932999 0.1124851 1.365
-0.049062651 0.12564825 1.3650001
-0.025129648 0.12485048 1.3650001
-0.044959851 0.13351195 1.3649999
-0.035728548 0.13658904 1.3649999
-0.029118484 0.13123262 1.3650001
-0.04188275 0.14000805 1.365
-0.037096146 0.14000805 1.3650001
-0.24367125 -0.16767476 1.376
-0.23660356 -0.16454157 1.3700001
-0.22075167 -0.10012235 1.376
-0.21850507 -0.10143267 1.3720001
-0.21345228 -0.094689064 1.373
-0.21087122 -0.084349796 1.3745
-0.20777877 -0.084072337 1.3700001
-0.21199027 -0.074838929 1.3724
-0.20697808 -0.076465793 1.3700002
-0.20485672 -0.06587448 1.3734286
-0.1981705 -0.061252698 1.3700001
-0.19674386 -0.055008497 1.3740001
-0.19272815 -0.046975303 1.3740001
-0.18816817 -0.043883737 1.3715
-0.18705982 -0.035433896 1.3726668
-0.18616016 -0.0252217 1.3700001
-0.064768389 0.095685162 1.3717144
-0.058850631 0.099685766 1.3700001
-0.062280446 0.10447091 1.375
-0.058092903 0.10657141 1.3710002
-0.055492029 0.1153902 1.3726668
-0.013221011 0.11538424 1.3710002
-0.0044173771 0.11559684 1.3735
0.0048225434 0.1156766 1.3745002
0.01085664 0.11339157 1.376
-0.052775335 0.12462493 1.3725716
-0.024070635 0.12637939 1.3730001
-0.0012062934 0.12183563 1.376
-0.051644433 0.13091263 1.3700001
-0.047711123 0.13671909 1.3720002
-0.030025832 0.1369178 1.3700001
-0.026755515 0.13474682 1.3748
-0.043910701 0.14436267 1.3722501
-0.034725536 0.14477462 1.3718749
-0.027744746 0.14113632 1.376
-0.0361888 0.15078667 1.376
-0.2450932 -0.16622302 1.3840001
-0.22397518 -0.10048616 1.381
-0.22281027 -0.094272517 1.3858001
-0.21719539 -0.093706377 1.381
-0.22008453 -0.085115574 1.3870001
-0.21573584 -0.084842041 1.3825001
-0.21597122 -0.077651627 1.3840001
-0.20654145 -0.063197322 1.381
-0.2040924 -0.056171253 1.383
-0.19976164 -0.053269774 1.381
-0.20360185 -0.046610907 1.3870001
-0.19714481 -0.045726057 1.38175
-0.19370826 -0.035109624 1.3810003
-0.19088335 -0.027038446 1.381
-0.18523353 -0.020581502 1.381
-0.074982762 0.087142132 1.3870001
-0.072550893 0.094032437 1.3870001
-0.069008566 0.095643461 1.381
-0.071740262 0.10092274 1.3870001
-0.067249276 0.10487598 1.3846002
-0.064037427 0.11350795 1.3847501
-0.059323158 0.11622496 1.381
-0.020581502 0.11985699 1.381
-0.00726406 0.11985699 1.381
0.00726406 0.11743563 1.381
-0.062012769 0.12037773 1.3870001
-0.058031388 0.12517111 1.38625
-0.021253906 0.12571137 1.3855001
-0.014591239 0.12118835 1.3870001
-0.0036378743 0.12562838 1.3823335
0.0030968736 0.12583488 1.3816668
-0.055046197 0.13578588 1.3850001
-0.024053453 0.1348501 1.3858001
-0.0028354323 0.13153537 1.3850001
0.0012106766 0.13196376 1.381
-0.054698303 0.14586113 1.3865
-0.048630826 0.14589249 1.3818572
-0.030266916 0.14891323 1.381
-0.027906053 0.14559942 1.3840001
-0.055527776 0.15361333 1.3870001
-0.045736581 0.153393 1.385
-0.034180533 0.15468274 1.3828001
-0.23163462 -0.088241756 1.3980001
-0.22546676 -0.085494988 1.3932002
-0.22201233 -0.078621216 1.3940001
-0.086078145 0.078731678 1.396
-0.079320796 0.079320796 1.3920001
-0.084326565 0.08554513 1.3940001
-0.078832664 0.084690213 1.3920001
-0.083512351 0.094526805 1.3957502
-0.077368282 0.095673084 1.3920001
-0.082113862 0.10172314 1.3980001
-0.076039262 0.10537393 1.3944
-0.074642681 0.11318534 1.39575
-0.068206415 0.11600328 1.3928573
-0.066279158 0.12496813 1.3948002
-0.014661198 0.12634678 1.3938
-0.0085545136 0.12587707 1.3940001
0.0061279 0.12623474 1.3980001
-0.073534802 0.13726497 1.3980001
-0.06606067 0.13455838 1.3953751
-0.059795681 0.1342352 1.3920001
-0.021269336 0.13520303 1.3944001
-0.015442307 0.13162729 1.3980001
-0.0043703085 0.13474166 1.3954287
-0.073379628 0.14430809 1.3950001
-0.065897286 0.14399776 1.3920001
-0.059795681 0.14399776 1.3920001
-0.024846487 0.14297907 1.3940001
-0.07343135 0.15298007 1.396
-0.065952845 0.15388688 1.3931252
-0.055677101 0.15650603 1.3920001
-0.044105854 0.15881594 1.3920001
-0.028107686 0.15275918 1.3940001
-0.073534802 0.16300213 1.3980001
-0.065305904 0.16352738 1.398
-0.054286841 0.16494106 1.3952308
-0.044797845 0.16499832 1.3961999
-0.03799298 0.16055098 1.3980001
-0.060666211 0.17219399 1.3980001
-0.054946836 0.17341955 1.3979999
-0.046817161 0.17231655 1.3980001
-0.23016708 -0.081235439 1.404
-0.2277054 -0.080004603 1.404
-0.22647455 -0.077542916 1.404
-0.092312999 0.077542916 1.404
-0.08985132 0.077542916 1.404
-0.093016334 0.085982971 1.4040002
-0.08985132 0.084927961 1.404
-0.093133561 0.095184959 1.4040002
-0.088312775 0.096928649 1.4040002
-0.092312999 0.10215972 1.404
-0.084927961 0.10544196 1.4040002
-0.081762947 0.11517145 1.4040002
-0.076065913 0.11791448 1.404
-0.074588902 0.12505333 1.4040002
0.0061542001 0.12185316 1.404
-0.080004603 0.13908492 1.404
-0.075081237 0.13457184 1.4040002
-0.014594245 0.13591991 1.4040002
-0.0073850402 0.1353924 1.404
-0.081235439 0.14646997 1.4040002
-0.077542916 0.14523911 1.404
-0.023385962 0.14482884 1.4039999
-0.081059612 0.15455833 1.4040002
-0.076312073 0.15631668 1.4040002
-0.02584764 0.15139332 1.404
-0.080989271 0.16320938 1.404
-0.075388946 0.16431713 1.4040002
-0.064003676 0.16862507 1.404
-0.040617719 0.16739424 1.404
-0.0369252 0.16247088 1.404
-0.075081237 0.17108676 1.404
-0.063695967 0.17570241 1.4040002
-0.051079862 0.17662555 1.404
-0.04492566 0.1747793 1.404
-0.060311161 0.18093348 1.404
-0.054156959 0.18093348 1.404
-0.1116435 0.068226583 1.4150001
-0.1037871 0.066986091 1.4150001
-0.12156737 0.076909967 1.4150001
-0.11329748 0.07525599 1.4150001
-0.10411075 0.074361064 1.4137503
-0.096106775 0.074784055 1.41
-0.12308351 0.08421503 1.4150001
-0.11410007 0.084333956 1.4146878
-0.10402089 0.084203832 1.4125001
-0.096592382 0.083525054 1.41
-0.12231165 0.094524823 1.4150001
-0.11395158 0.094130173 1.4128127
-0.10396937 0.094068527 1.411875
-0.097157463 0.094685256 1.4100001
-0.12094712 0.10233987 1.4150001
-0.11394995 0.10403924 1.4128126
-0.10390117 0.10389897 1.4109375
-0.094767667 0.10465647 1.41
-0.087763101 0.1063046 1.4100001
-0.11356496 0.11374218 1.414643
-0.1037896 0.11427709 1.412353
-0.093943603 0.11495731 1.41
-0.086389661 0.11633076 1.41
-0.11265843 0.12371001 1.4150001
-0.1044487 0.12429644 1.4150003
-0.093736954 0.12574218 1.412143
-0.084054805 0.12608221 1.41
-0.077874303 0.1285544 1.4100001
0.0086527001 0.1223739 1.4100001
-0.11359283 0.13432662 1.4150002
-0.1042006 0.13397218 1.4150003
-0.094274119 0.1347533 1.4136668
-0.084302031 0.13572378 1.41
-0.077874303 0.13349879 1.4100001
-0.014215151 0.13906124 1.4100001
-0.0074166004 0.1384432 1.4100001
-0.11412446 0.14389609 1.4150003
-0.1042006 0.14389609 1.4150003
-0.094176203 0.14435551 1.4134376
-0.085538127 0.14511813 1.41
-0.022249799 0.1470959 1.4100001
-0.015354378 0.14438742 1.4125
-0.0068226582 0.14203534 1.4150001
-0.12032688 0.1563009 1.4150001
-0.11412446 0.15381995 1.4150003
-0.1042006 0.15381992 1.4150003
-0.094051123 0.15450865 1.4126472
-0.086114965 0.15616062 1.41
-0.02354617 0.15306272 1.4137501
-0.12074038 0.1641573 1.4150001
-0.11412446 0.16498426 1.4150004
-0.1042006 0.16498427 1.4150004
-0.094480313 0.16540702 1.4138891
-0.085319191 0.16647859 1.4104545
-0.07375396 0.16934569 1.4100002
-0.067985497 0.16934569 1.4100001
-0.0365307 0.16593328 1.4125001
-0.12032688 0.17242718 1.4150001
-0.11309072 0.17552841 1.4150001
-0.1042006 0.17614864 1.4150003
-0.094172701 0.17635436 1.4146669
-0.084131509 0.17567964 1.41125
-0.074083589 0.17577343 1.41
-0.067985497 0.1755262 1.4100001
-0.043311715 0.17614132 1.4116668
-0.1116435 0.18359154 1.4150001
-0.1034112 0.18483201 1.4150001
-0.094216734 0.18594895 1.4140627
-0.084054805 0.18541497 1.41
-0.074165992 0.18541498 1.41
-0.064524427 0.18566222 1.41
-0.054741859 0.18648654 1.4104545
-0.048293374 0.18326935 1.4125001
-0.10047915 0.19227491 1.4150001
-0.09345825 0.19469413 1.4145455
-0.084422417 0.19533712 1.4120002
-0.07464657 0.19422072 1.4127272
-0.064505138 0.19351541 1.4150001
-0.056317937 0.1932673 1.4150001
-0.088074319 0.20219879 1.4150001
-0.11634331 0.058797155 1.427
-0.12201124 0.067874745 1.4250001
-0.11530723 0.064934261 1.4245001
-0.10724834 0.064845718 1.4225
-0.12487691 0.07476975 1.4233079
-0.11709988 0.072253108 1.4210001
-0.13135535 0.08631923 1.427
-0.12597486 0.0849877 1.4227144
-0.14136338 0.098829262 1.427
-0.13410756 0.09632726 1.427
-0.12748106 0.094261236 1.4210001
-0.14736819 0.10433368 1.427
-0.13385735 0.10383327 1.427
-0.12583731 0.10545072 1.4235001
-0.13260636 0.11133929 1.427
-0.12370922 0.11416758 1.4253637
-0.11834562 0.11709987 1.4210001
-0.1513714 0.12885334 1.427
-0.1488694 0.12885334 1.427
-0.12362189 0.12544154 1.427
-0.11784732 0.12532178 1.4210001
0.0087202033 0.12582007 1.4210001
0.01125903 0.12384933 1.427
-0.15187182 0.13535856 1.427
-0.1488694 0.13510837 1.427
-0.13260636 0.13635935 1.427
-0.12474297 0.13471682 1.422875
-0.11834562 0.13204879 1.4210001
-0.15331741 0.14608939 1.427
-0.1488694 0.14511639 1.427
-0.13302334 0.14553338 1.427
-0.1246759 0.14462161 1.422125
-0.012457433 0.14824346 1.4210001
-0.0062427432 0.14616226 1.4250001
-0.15220541 0.15637541 1.427
-0.1488694 0.15512441 1.427
-0.13357967 0.15517837 1.4264547
-0.12514691 0.15416171 1.4214287
-0.023098851 0.1566748 1.424
-0.015821496 0.15199326 1.4250001
-0.15220541 0.16221343 1.427
-0.1488694 0.16513245 1.427
-0.1337184 0.16495578 1.4255
-0.12604655 0.16477787 1.4210004
-0.033678904 0.16591355 1.423
-0.028773077 0.16137943 1.427
-0.13367237 0.17489761 1.4250001
-0.12514691 0.17481373 1.4214287
-0.11834562 0.17689556 1.4210001
-0.095922239 0.17315832 1.4210001
-0.041109528 0.17564981 1.4210001
-0.037530102 0.17263845 1.427
-0.13385735 0.18514849 1.427
-0.12487449 0.18480957 1.4243751
-0.11615326 0.18519689 1.4216002
-0.10713392 0.18810724 1.4210001
-0.043601017 0.18063278 1.4210001
-0.13135535 0.19265452 1.427
-0.12483995 0.19474822 1.424
-0.11479315 0.19464564 1.42325
-0.10533675 0.19498757 1.423143
-0.097167984 0.19807319 1.4210001
-0.071007371 0.19807319 1.4210001
-0.064778656 0.19807319 1.4210001
-0.054812707 0.1955817 1.4210001
-0.12456419 0.2024838 1.427
-0.1148481 0.20289136 1.4256667
-0.10476281 0.2044258 1.4265385
-0.095019937 0.2045477 1.4246923
-0.08432769 0.20413849 1.4235716
-0.075733773 0.2018221 1.4240001
-0.067554176 0.20141153 1.427
-0.13245995 0.059291597 1.439
-0.12599821 0.057200044 1.4372001
-0.11934502 0.057788111 1.4330001
-0.14087009 0.068542771 1.439
-0.13408062 0.065987587 1.4383334
-0.12638614 0.064689703 1.4339232
-0.11934502 0.061556902 1.4330001
-0.1529597 0.077899061 1.439
-0.14255214 0.076494187 1.439
-0.13465817 0.075505994 1.4355001
-0.12939513 0.071607009 1.4330001
-0.16021346 0.085363068 1.439
-0.15453361 0.085742645 1.4366924
-0.14519162 0.085306436 1.4372352
-0.13601905 0.085540108 1.4330002
-0.16021346 0.095875777 1.439
-0.15468477 0.095576398 1.4345001
-0.14605986 0.095278062 1.4338002
-0.13735145 0.093382239 1.4330001
0.035322651 0.099660344 1.439
-0.16129477 0.10650861 1.439
-0.15452039 0.10552612 1.4330002
-0.14469869 0.10586874 1.4330002
-0.13665354 0.10650322 1.4330001
0.036354806 0.10631201 1.439
0.042471286 0.10891151 1.439
-0.17030565 0.11732167 1.439
-0.16315703 0.11690116 1.439
-0.15452039 0.11557624 1.4330002
-0.14572655 0.11557624 1.4330003
-0.13603537 0.11611464 1.4330003
-0.12839012 0.117335 1.4330001
0.016331425 0.11808875 1.4330001
0.025166688 0.11827614 1.43525
0.035322651 0.11606017 1.4389998
0.043072011 0.11732167 1.439
-0.16345739 0.12615232 1.4389999
-0.15486835 0.12537934 1.4340912
-0.14547531 0.12537506 1.4330003
-0.13567644 0.12562633 1.4330003
-0.12889263 0.12487258 1.4330001
0.015348504 0.12588997 1.4350001
0.02537499 0.12542796 1.4368572
0.035387117 0.12583131 1.4381999
0.043232817 0.12549338 1.4363333
-0.16405897 0.13571414 1.4367502
-0.15726133 0.13556223 1.4330002
-0.14447029 0.13567643 1.4330002
-0.13718395 0.13492267 1.4330002
0.0088306628 0.13245995 1.439
0.016399803 0.13245995 1.439
0.029015036 0.13245995 1.439
0.034565739 0.13447838 1.439
-0.1647208 0.144568 1.4362727
-0.15810969 0.14447029 1.433
-0.14447029 0.14572656 1.4330002
-0.13836844 0.14518814 1.433
-0.008793843 0.14949533 1.4330001
-0.16448353 0.15414955 1.4366001
-0.1564531 0.15548675 1.4330003
-0.14447029 0.15577663 1.4330002
-0.13894273 0.1555254 1.4330001
-0.021356476 0.15954544 1.4330001
-0.014833376 0.1561573 1.4342
-0.0075691398 0.1513828 1.439
-0.16490382 0.16378246 1.4383334
-0.1564531 0.16650321 1.4330003
-0.14447029 0.16582675 1.4330002
-0.13944523 0.16582677 1.4330001
-0.032662846 0.16833928 1.4330001
-0.02520732 0.16512281 1.4378
-0.016904412 0.16122267 1.439
-0.16147499 0.17409022 1.439
-0.15429197 0.17553425 1.4330002
-0.14572486 0.17572379 1.4338002
-0.13944523 0.17587686 1.4330001
-0.034849547 0.17426525 1.4369999
-0.02817402 0.17114668 1.439
-0.15461332 0.18420784 1.4367501
-0.14591822 0.1855385 1.4348752
-0.13944523 0.18592696 1.4330001
-0.15222381 0.19301307 1.439
-0.14494309 0.19451509 1.4376668
-0.13596633 0.1960737 1.4330003
-0.085425898 0.20916784 1.4330001
-0.075450756 0.20624153 1.4345001
-0.066771321 0.20450501 1.4370002
-0.14061294 0.059538815 1.4450001
-0.13385677 0.056582987 1.4450001
-0.15074721 0.065872729 1.4450001
-0.14346321 0.06523934 1.4449999
-0.13807938 0.064605944 1.4450001
-0.16172601 0.078962825 1.4450001
-0.15509047 0.07401634 1.4449999
-0.14720023 0.074233502 1.4450001
-0.16404845 0.086141273 1.4449999
-0.16563192 0.094692051 1.4449999
0.038425758 0.096697785 1.4450001
0.041803848 0.097542316 1.4450001
-0.16594861 0.10387623 1.4449999
0.039270282 0.10134266 1.4450001
0.043070633 0.10387623 1.4450001
-0.17354931 0.11781085 1.4450001
-0.16721541 0.11274371 1.4450001
0.047293246 0.11485502 1.4450001
0.05278264 0.11527728 1.4450001
-0.17152247 0.12338469 1.4450001
-0.16848218 0.12667833 1.4450001
0.04940455 0.12034442 1.4450001
-0.17101575 0.13427903 1.4450001
-0.16848218 0.13427904 1.4450001
0.0076007 0.13554582 1.4450001
0.015201401 0.13554581 1.4450001
0.025124537 0.13470131 1.4449998
0.034203149 0.13402566 1.4450001
-0.17101575 0.14441329 1.4450001
-0.16848218 0.14314651 1.4450001
0.026602451 0.14251313 1.4450001
0.031669583 0.14061294 1.4450001
-0.17101575 0.15328078 1.4450001
-0.16848218 0.15708113 1.4450001
-0.01140105 0.15834792 1.4450001
-0.0076007 0.15454757 1.4450001
-0.17101575 0.16214827 1.4450001
-0.16848218 0.16721541 1.4450001
-0.021535316 0.16848218 1.4450001
-0.017101577 0.16594861 1.4450001
-0.16531523 0.1748161 1.4450001
-0.032936364 0.17608288 1.4450001
-0.024575595 0.1730426 1.4450001
-0.16172601 0.18199454 1.4450001
-0.15834792 0.18748394 1.4450001
-0.041803848 0.18115002 1.4450001
-0.038003497 0.18115002 1.4450001
-0.04940455 0.19128428 1.4450001
-0.15670487 0.039112311 1.4580001
-0.17511065 0.049849018 1.4580001
-0.16590779 0.046270117 1.4580001
-0.15589882 0.046001662 1.4576252
-0.14479955 0.048388239 1.4580001
-0.13747536 0.049643878 1.452
-0.17383248 0.056239918 1.4580001
-0.1661634 0.054961741 1.4580001
-0.15512933 0.055784751 1.4527999
-0.14564975 0.055858038 1.4548
-0.13664804 0.05403899 1.4528571
-0.18150157 0.06774354 1.4580001
-0.17459938 0.064420268 1.4580001
-0.16599442 0.063839957 1.4565001
-0.15688948 0.064434484 1.4525999
-0.14829518 0.064282462 1.452
-0.18150155 0.074134447 1.4580001
-0.17499232 0.074081846 1.4570001
-0.16573419 0.073574774 1.4519998
-0.15720561 0.070647061 1.452
-0.14893164 0.070010602 1.452
-0.18380229 0.084615506 1.4580001
-0.17457283 0.084098198 1.4534999
-0.16844974 0.084012717 1.452
-0.18431357 0.094670527 1.4580001
-0.1748942 0.094158046 1.4529229
-0.16929837 0.094196081 1.452
0.0447363 0.09841986 1.4580001
-0.19044882 0.10736711 1.4580001
-0.18421327 0.10483777 1.4572002
-0.1748942 0.10434707 1.4529229
-0.16929837 0.1018336 1.452
0.048045713 0.10544107 1.455
0.053683564 0.10736711 1.4580001
-0.19044882 0.11631438 1.4580001
-0.18421327 0.11471604 1.4571999
-0.17515086 0.11425722 1.4525453
0.047734499 0.11328988 1.452
0.053185612 0.11189773 1.456
-0.19044882 0.12526163 1.4580001
-0.18508537 0.12508982 1.456
-0.17716734 0.12509333 1.4519998
-0.18508537 0.13530125 1.456
-0.1769359 0.13492952 1.4519998
0.0063698604 0.1389394 1.454
0.014002119 0.13874827 1.452
0.02163964 0.13874827 1.452
-0.18364437 0.14500044 1.4572501
-0.17670445 0.14476572 1.4519998
0.0063908999 0.14187798 1.4580001
0.016577942 0.1441361 1.455
0.022657976 0.14333078 1.452
-0.1810755 0.15295555 1.4580001
-0.17540114 0.15586549 1.4533334
-0.0058691078 0.15644819 1.4556
-0.17444615 0.16551116 1.456
-0.01336566 0.1654796 1.452
-0.00766908 0.16232885 1.4580001
-0.16866191 0.17566296 1.452
-0.033095919 0.17948171 1.452
-0.025473302 0.17748202 1.4530001
-0.01829428 0.17316972 1.456
-0.043761447 0.18652837 1.454
-0.035218857 0.1855444 1.4556
-0.027191196 0.18376787 1.4571428
-0.17069753 0.039786641 1.4640001
-0.16556375 0.037953157 1.464
-0.15529624 0.037219759 1.4640001
-0.17454784 0.045776024 1.4640001
-0.15016247 0.0449204 1.4640001
-0.1475956 0.0449204 1.4640001
-0.18250516 0.055701293 1.4640001
-0.17656468 0.052987736 1.464
-0.18404528 0.064172 1.464
-0.17839816 0.061605122 1.4640001
-0.19123256 0.0770064 1.4640001
-0.18738222 0.074439518 1.464
-0.19123256 0.084707037 1.4640001
-0.18866567 0.080856718 1.4640001
-0.192516 0.094974563 1.464
0.044278681 0.096258007 1.4640001
-0.192516 0.1026752 1.4640001
0.047487281 0.1026752 1.4640001
0.052621037 0.10310301 1.4640001
-0.19422726 0.11636522 1.4640001
-0.19579589 0.12477888 1.464
-0.19233264 0.1354946 1.464
-0.19123256 0.14246184 1.4640001
-0.18781005 0.14673997 1.4640001
-0.00128344 0.1475956 1.4640001
0.0047059464 0.14588435 1.464
0.012406587 0.14673997 1.4640001
-0.18417364 0.1540128 1.4640001
-0.0021390666 0.153585 1.4640001
0.0055615734 0.15016247 1.4640001
0.015829094 0.1510181 1.4640001
-0.18096504 0.16043 1.4640001
-0.17839816 0.16556376 1.4640001
-0.01155096 0.16813064 1.4640001
-0.0089840796 0.16556376 1.4640001
-0.01668472 0.17497565 1.4640001
-0.024385357 0.18524317 1.4640001
-0.17567044 0.015647383 1.4763638
-0.17513856 0.026187519 1.4764615
-0.16564751 0.026467919 1.47
-0.15926491 0.029781243 1.4770001
-0.1846437 0.036514394 1.4770001
-0.17589372 0.034919169 1.4752501
-0.1647695 0.0333221 1.4700001
-0.15491785 0.0348555 1.4726251
-0.190341 0.044024445 1.4770001
-0.18487115 0.043950807 1.4746667
-0.17728041 0.041872233 1.4730002
-0.19241273 0.054642104 1.4770001
-0.18502049 0.052836698 1.4700001
-0.20069969 0.068626344 1.4770001
-0.19511867 0.065036952 1.4757274
-0.18879455 0.062501952 1.47
-0.20069969 0.075100526 1.4770001
-0.19567007 0.074440219 1.4742001
-0.20199454 0.086322449 1.4770001
-0.19652061 0.084998287 1.4715557
-0.20199452 0.095817909 1.4770001
-0.19717109 0.095363803 1.47
0.046650939 0.093559608 1.47
0.053961381 0.096042179 1.4750911
-0.20254946 0.10488177 1.4770001
-0.19631195 0.10653254 1.4700001
0.054125398 0.1018073 1.47
-0.20318232 0.11402608 1.4762224
-0.19803023 0.11512386 1.4700001
-0.20383143 0.12410795 1.4746667
-0.20134711 0.13336818 1.4770001
-0.19740582 0.13418895 1.47175
-0.1946342 0.14397234 1.4742
-0.18708396 0.1561214 1.47175
-0.0012917684 0.15759879 1.4735
0.0050218389 0.15446194 1.4723334
0.012653807 0.1541678 1.4728
-0.015504288 0.17697839 1.4735
-0.19319278 -0.0013053566 1.4890001
-0.186666 -0.0019580349 1.4890001
-0.19300629 0.005780865 1.4890002
-0.18580471 0.0055048596 1.4853077
-0.19275767 0.014794041 1.4890002
-0.18492459 0.015866438 1.4834
-0.19254011 0.025454454 1.4890001
-0.18487374 0.025741912 1.4829999
-0.20320052 0.036985103 1.489
-0.19503942 0.034426194 1.4860001
-0.18656386 0.033152465 1.483
-0.21016242 0.045687482 1.4890001
-0.20440625 0.044671189 1.4868183
-0.19631459 0.044203285 1.4829999
-0.21016242 0.054824978 1.4890001
-0.20446277 0.054697424 1.4855
-0.19804806 0.054170694 1.4829999
-0.21277313 0.065267831 1.4890002
-0.20483492 0.065025426 1.4835
-0.1989148 0.061104544 1.483
-0.21364979 0.075558148 1.4860001
-0.20671536 0.075405605 1.4829999
-0.21379268 0.08473596 1.4870001
-0.20758209 0.085373014 1.4829999
0.050703771 0.089706667 1.483
-0.21354 0.093744375 1.48525
-0.20801546 0.094907053 1.4829999
0.050703771 0.093606956 1.483
-0.21467692 0.10384491 1.4857273
-0.20820118 0.103822 1.4829999
-0.2131238 0.11399875 1.4878
-0.20844883 0.1144085 1.4829999
-0.21277313 0.12139817 1.4890001
-0.20775545 0.12558934 1.483
-0.2053345 0.13570836 1.4864286
0.0013000966 0.15991189 1.483
0.0039160699 0.16055886 1.4890001
-0.19541252 -0.01180344 1.4959999
-0.20065849 -0.0013114933 1.4960001
-0.19541249 -0.0060328697 1.4960002
-0.20065849 0.0052459734 1.4960001
-0.19751088 0.0044590775 1.4960001
-0.19716115 0.016612248 1.4960002
-0.20328146 0.02754136 1.4960001
-0.19698629 0.024393776 1.4960001
-0.21115042 0.036721811 1.4960001
-0.20590445 0.03278733 1.4960002
-0.19803549 0.030164346 1.4960001
-0.21302398 0.045152843 1.4960002
-0.20852745 0.040656295 1.4960001
-0.21489753 0.055644788 1.4960002
-0.21849477 0.064787768 1.4960001
-0.21901937 0.074755117 1.4959999
-0.22164237 0.083935574 1.4960001
-0.21901938 0.083935574 1.4960001
-0.22164237 0.091804534 1.4960001
-0.21901938 0.094427519 1.4960001
-0.22164237 0.10491946 1.4960001
-0.21901938 0.10885394 1.4960001
-0.21705213 0.11541142 1.4960001
-0.2137734 0.12590337 1.4960001
-0.2103395 -0.02381202 1.5090001
-0.20654003 -0.023341252 1.507
-0.2116624 -0.01587468 1.5089999
-0.2043703 -0.015823834 1.5040002
-0.19896212 -0.015811561 1.503
-0.21166241 -0.0052915602 1.5089999
-0.20447224 -0.0056298738 1.5030001
-0.22092263 0.0092602298 1.5090001
-0.21496962 0.0052915602 1.5089999
-0.20662834 0.0056298738 1.5030001
-0.22180456 0.016756607 1.5089999
-0.21498977 0.015824271 1.5045003
-0.2055503 0.015811561 1.5030001
-0.22224551 0.025134908 1.5089999
-0.21477368 0.025034972 1.5030001
-0.20598949 0.024156548 1.5030001
-0.22224551 0.03439514 1.5089999
-0.21530072 0.03373133 1.5030001
-0.22286358 0.045469541 1.5077999
-0.21675013 0.04348179 1.503
-0.22467169 0.055506151 1.5075002
-0.21740896 0.051387571 1.503
-0.22477756 0.065351553 1.506
-0.2246993 0.07452029 1.5064286
-0.22709613 0.085546888 1.5089999
-0.22599196 0.095150761 1.5074999
-0.22356841 0.1058312 1.5090001
-0.2220259 0.11497702 1.5074999
-0.2139733 -0.030567612 1.516
-0.21473274 -0.025631228 1.5159999
-0.21663134 -0.01594832 1.516
-0.21751736 -0.0044300887 1.5159999
-0.22301066 0.0055819121 1.516
-0.21928939 0.0013290267 1.516
-0.22620034 0.015682515 1.516
-0.22792807 0.025916021 1.516
-0.22726355 0.034554694 1.516
-0.23257966 0.049173985 1.516
-0.22903557 0.044300888 1.5159999
-0.23371883 0.056388706 1.5159999
-0.23257966 0.065122306 1.516
-0.22992161 0.065122306 1.516
-0.22992161 0.074425489 1.516
-0.23257966 0.08771576 1.516
-0.22992161 0.082399651 1.516
-0.23257966 0.093031868 1.516
-0.22992161 0.098347977 1.516
-0.22726355 0.1049931 1.5160002
-0.22116984 -0.034851007 1.529
-0.21784598 -0.03475238 1.5245001
-0.22321153 -0.023719491 1.5262729
-0.2234638 -0.014720108 1.5263335
-0.22475366 -0.0053494205 1.526
-0.23278685 0.0062553086 1.5290002
-0.22757274 0.0044514216 1.5240002
-0.23427075 0.01472537 1.5270001
-0.22831292 0.01201647 1.5230001
-0.23504032 0.024172464 1.5253078
-0.24261662 0.038872276 1.529
-0.23534051 0.034764219 1.5252501
-0.24351023 0.046468008 1.5290002
-0.23682345 0.045078758 1.5246364
-0.24460532 0.055211589 1.5267501
-0.23832665 0.054074116 1.5230001
-0.24315281 0.06353607 1.529
-0.23779605 0.06488166 1.526
-0.2366765 0.074591033 1.5268184
-0.23605448 0.084784769 1.5270001
-0.23612183 0.095653534 1.526
-0.22487552 -0.033663999 1.5359999
-0.23026176 -0.021544959 1.536
-0.22756864 -0.02827776 1.536
-0.23093504 -0.01413888 1.536
-0.23295489 -0.0053862398 1.5360001
-0.23699456 0.0053862398 1.536
-0.24103422 0.01481216 1.5359999
-0.2423808 0.02423808 1.536
-0.24480462 0.03527987 1.536
-0.24803634 0.04551373 1.536
-0.2491136 0.052515838 1.536
-0.24749772 0.064904191 1.536
-0.24411209 0.075214989 1.5360001
-0.2417075 0.08416 1.536
-0.22860573 -0.03246472 1.5430001
-0.23401652 -0.020290449 1.5430001
-0.23401652 -0.01623236 1.5430001
-0.23672192 -0.0081161801 1.5430001
-0.24213271 0.0081161801 1.5430001
-0.23942731 0.0027053934 1.5430001
-0.24483809 0.01623236 1.5430001
-0.24573989 0.02389764 1.5430001
-0.25024888 0.036522809 1.5430001
-0.24754348 0.03246472 1.5430001
-0.25205246 0.044638991 1.5430001
-0.25295427 0.051402472 1.5430001
-0.25024888 0.066282138 1.5430001
-0.24754348 0.078456402 1.5430001
-0.23067993 -0.042314071 1.557
-0.22658503 -0.04367904 1.557
-0.23272738 -0.03548922 1.557
-0.22879642 -0.038136315 1.5535001
-0.23361617 -0.025860788 1.5523334
-0.23851176 -0.01499626 1.5546666
-0.24196656 -0.0045406949 1.5535001
-0.24541999 0.0054552779 1.55525
-0.24854857 0.014298433 1.5535001
-0.2528384 0.025362667 1.5556
-0.24866648 0.023100168 1.5500001
-0.25498539 0.03559304 1.5530001
-0.25672001 0.044260267 1.5535001
-0.25630021 0.055345137 1.5523334
-0.25576362 0.06476526 1.5530001
-0.23308814 -0.050730947 1.5640001
-0.23263109 -0.045246515 1.5640001
-0.23628737 -0.035191741 1.5640001
-0.23811553 -0.025136955 1.5640001
-0.24268587 -0.015082174 1.5640001
-0.25091252 -0.0041133198 1.5640001
-0.2467992 -0.0068555335 1.5640001
-0.25091252 0.0095977467 1.5640001
-0.2481703 0.0027422132 1.5640001
-0.25365472 0.017824387 1.5640001
-0.25639695 0.02467992 1.5640001
-0.26188138 0.038390987 1.5640001
-0.25913915 0.032906562 1.5640001
-0.26188138 0.045246515 1.5640001
-0.26188138 0.052102052 1.5640001
-0.24501343 -0.051217496 1.5790001
