# .PCD v0.7 - Point Cloud Data file format
VERSION 0.7
FIELDS x y z
SIZE 4 4 4
TYPE F F F
COUNT 1 1 1
WIDTH 1439
HEIGHT 1
VIEWPOINT 0 0 0 1 0 0 0
POINTS 1439
DATA ascii
-0.1660579 -0.22471246 1.1305451
-0.15354817 -0.22685502 1.13
-0.14601937 -0.22764754 1.13
-0.13472614 -0.2288363 1.13
-0.12290404 -0.2266067 1.1314546
-0.11523644 -0.22422011 1.1342002
-0.10674819 -0.2218101 1.138
-0.19055051 -0.21549168 1.138
-0.18510959 -0.21446125 1.1352003
-0.17566736 -0.21536539 1.1320802
-0.15769082 -0.21406688 1.13
-0.1218479 -0.21595806 1.13
-0.11553771 -0.21532898 1.1307405
-0.10498139 -0.21469983 1.1313845
-0.095104009 -0.21303177 1.132
-0.18305863 -0.2061975 1.1377335
-0.1752487 -0.20559444 1.1334547
-0.1575107 -0.20729001 1.13
-0.11516887 -0.20528504 1.1301903
-0.09438777 -0.20567138 1.13336
-0.087045103 -0.20359969 1.1315
-0.17402273 -0.196317 1.1367501
-0.16554672 -0.19529344 1.1312797
-0.15949197 -0.19515477 1.13
-0.1129322 -0.19713604 1.13
-0.09436053 -0.19568089 1.1330402
-0.085590251 -0.19548865 1.1331578
-0.16385962 -0.18554795 1.1356844
-0.15602843 -0.18470344 1.1302352
-0.10203523 -0.18631524 1.13
-0.094319716 -0.18566895 1.13256
-0.084681109 -0.18565847 1.136429
-0.078165852 -0.18693864 1.1368572
-0.16097879 -0.17842007 1.1370001
-0.15475522 -0.17534088 1.1350436
-0.14635311 -0.17456196 1.1302352
-0.1396793 -0.17137957 1.13
-0.10062004 -0.17619121 1.13
-0.094252817 -0.17561659 1.1317599
-0.086384512 -0.17549708 1.1361333
-0.16760464 -0.16062111 1.138
-0.15046816 -0.16840239 1.1366667
-0.14437062 -0.16556294 1.1350435
-0.13655069 -0.16393229 1.1307499
-0.1218479 -0.16246387 1.13
-0.11590409 -0.16246387 1.13
-0.10345446 -0.16443974 1.1307998
-0.094373859 -0.16490783 1.1332002
-0.086967789 -0.16458319 1.1350667
-0.18057404 -0.15263994 1.138
-0.17418037 -0.15356281 1.1361177
-0.1647525 -0.15413611 1.1359261
-0.15646397 -0.15248039 1.1368002
-0.14066818 -0.15762818 1.138
-0.13383663 -0.15541074 1.1352631
-0.12536114 -0.15462686 1.1309597
-0.11599635 -0.15532123 1.1301535
-0.10545095 -0.15470262 1.1334999
-0.095174327 -0.15627496 1.1364
-0.087930009 -0.15691808 1.1372001
-0.18383908 -0.14502154 1.1380001
-0.17580263 -0.1442533 1.1335002
-0.16550662 -0.14436813 1.1332003
-0.15476383 -0.14435145 1.1343203
-0.14864935 -0.14166583 1.138
-0.13069171 -0.14864935 1.138
-0.1241971 -0.14717978 1.1361539
-0.11419479 -0.14497529 1.1341482
-0.10520039 -0.14501843 1.1353916
-0.09876702 -0.14665405 1.138
-0.18157168 -0.13567995 1.138
-0.17544299 -0.13474335 1.1347275
-0.16603041 -0.13488951 1.1301903
-0.1548534 -0.13597091 1.1313912
-0.14550236 -0.13284907 1.1357144
-0.11173642 -0.13767524 1.138
-0.10714725 -0.13787477 1.138
-0.17334485 -0.12637967 1.1371112
-0.16527981 -0.12475675 1.13272
-0.15547124 -0.12414991 1.1305333
-0.14524734 -0.12542455 1.1307999
-0.13774012 -0.12354644 1.1365001
-0.16221735 -0.11792183 1.138
-0.15388498 -0.11585518 1.1354001
-0.14494409 -0.11535142 1.1329998
-0.13546312 -0.11488301 1.135926
-0.12789829 -0.11273406 1.138
-0.14066818 -0.10874349 1.138
-0.1342389 -0.10785669 1.138
-0.12769876 -0.10774584 1.138
-0.19172086 -0.27163255 1.149
-0.1746583 -0.27001771 1.1450001
-0.2004507 -0.2608881 1.149
-0.19339968 -0.26431286 1.149
-0.18546607 -0.26472977 1.1465241
-0.17563106 -0.26495308 1.1448003
-0.16803333 -0.2627905 1.1450001
-0.20228215 -0.2550275 1.149
-0.19535618 -0.25495243 1.1471055
-0.1858784 -0.2555005 1.1444786
-0.17513055 -0.25757429 1.1425385
-0.1654755 -0.25738919 1.1416667
-0.15904398 -0.25707111 1.141
-0.14203082 -0.25165156 1.1436667
-0.12691854 -0.25081521 1.149
-0.20263319 -0.24493937 1.149
-0.1954253 -0.2451047 1.1465241
-0.18554664 -0.24541456 1.1430004
-0.14203548 -0.24898182 1.1436667
-0.13518685 -0.24673824 1.1453638
-0.12521212 -0.24500971 1.1454003
-0.11946459 -0.24356273 1.149
-0.20451494 -0.23455067 1.1475716
-0.19573964 -0.23564832 1.1455221
-0.1854187 -0.23552589 1.1432403
-0.17904954 -0.23306446 1.141
-0.12224591 -0.23848139 1.1430001
-0.11564764 -0.23523507 1.1440771
-0.20193928 -0.22543184 1.1485556
-0.19512346 -0.22580625 1.1434351
-0.18694025 -0.22662956 1.1413332
-0.11103071 -0.22906336 1.141
-0.10692547 -0.22729811 1.1442001
-0.2004507 -0.21455276 1.149
-0.19469298 -0.21528226 1.142778
-0.2004507 -0.20548716 1.149
-0.19475144 -0.20535019 1.1442385
-0.18686987 -0.20323801 1.1409999
-0.19490667 -0.19540504 1.1460003
-0.18505119 -0.19505398 1.1410003
-0.17704895 -0.1928311 1.1409999
-0.19488461 -0.18521017 1.1467146
-0.18518375 -0.18518099 1.1418003
-0.1750484 -0.18505122 1.1410003
-0.1683799 -0.18338405 1.1409999
-0.074111409 -0.18286876 1.1409999
-0.20436135 -0.17355014 1.149
-0.19491883 -0.17527841 1.1471179
-0.1852362 -0.17521939 1.1421202
-0.1750484 -0.17504841 1.1410003
-0.16550034 -0.1745937 1.1410002
-0.15904398 -0.17204759 1.141
-0.081022412 -0.17404814 1.141
-0.075164944 -0.17538954 1.1432402
-0.067793362 -0.17492495 1.145667
-0.21127906 -0.16393645 1.149
-0.20537178 -0.16466436 1.1473532
-0.19573775 -0.16562423 1.1450003
-0.18569994 -0.16562426 1.1450003
-0.17519848 -0.16518342 1.1419603
-0.16477288 -0.16559128 1.1410002
-0.15539081 -0.16478473 1.1410002
-0.14754081 -0.16154468 1.141
-0.081839457 -0.16640398 1.1444286
-0.075069137 -0.16519852 1.1451484
-0.065628596 -0.16446427 1.147815
-0.059326664 -0.16088411 1.1470001
-0.21153089 -0.15436719 1.149
-0.20507991 -0.1551585 1.1453813
-0.19543913 -0.15534754 1.1432403
-0.18586315 -0.15554218 1.1426365
-0.17702587 -0.15865593 1.143
-0.15304233 -0.15704343 1.1409999
-0.14543162 -0.1548283 1.141348
-0.13770474 -0.15237547 1.1409999
-0.093597308 -0.15189914 1.1409999
-0.084032066 -0.15410918 1.1419412
-0.075491101 -0.15467337 1.1470743
-0.069503009 -0.15512267 1.149
-0.20379318 -0.14584994 1.1474001
-0.19554968 -0.14540562 1.1438804
-0.18816315 -0.14459555 1.1409999
-0.14403996 -0.1456212 1.1414212
-0.13535985 -0.14504023 1.1423336
-0.12579042 -0.14282902 1.1433333
-0.11945022 -0.14153345 1.1450001
-0.10102794 -0.14103901 1.141
-0.094370291 -0.14465299 1.1430004
-0.085359454 -0.14460535 1.1455334
-0.076671556 -0.14428082 1.1486192
-0.2004507 -0.13799873 1.149
-0.19458969 -0.13597527 1.1461112
-0.18652993 -0.13466302 1.1425557
-0.1427895 -0.13728797 1.1409999
-0.134891 -0.13550474 1.1427393
-0.12569946 -0.13575357 1.1470802
-0.11605076 -0.13497856 1.1453812
-0.10449302 -0.13384031 1.1412224
-0.095805071 -0.13565239 1.1462176
-0.086425483 -0.13759582 1.149
-0.076985732 -0.13713534 1.149
-0.19261652 -0.12852196 1.1483334
-0.18472068 -0.12602365 1.1464002
-0.17636488 -0.12381493 1.1425385
-0.13274164 -0.12590584 1.1413332
-0.12557308 -0.12558092 1.1459602
-0.11560942 -0.12634818 1.1486192
-0.10538337 -0.12581904 1.1466669
-0.096596733 -0.12577766 1.1478002
-0.18030491 -0.11986751 1.149
-0.17392512 -0.11664031 1.1476668
-0.16562308 -0.11471787 1.1434445
-0.15680294 -0.11176243 1.1416668
-0.13103624 -0.11903292 1.141
-0.12384527 -0.11608524 1.1427501
-0.11679263 -0.1159444 1.149
-0.10475816 -0.11986751 1.149
-0.09770713 -0.11936386 1.149
-0.16323017 -0.10773757 1.1485556
-0.15493917 -0.10613181 1.1454002
-0.14544043 -0.10502673 1.1428337
-0.1353775 -0.10334499 1.14175
-0.12465217 -0.10429053 1.1433159
-0.1181887 -0.10660485 1.149
-0.15008621 -0.099721707 1.149
-0.14370669 -0.099050187 1.149
-0.13527347 -0.098633476 1.1467779
-0.12597437 -0.097412214 1.1471335
-0.11919598 -0.099050187 1.149
-0.19981776 -0.28096202 1.1570001
-0.214018 -0.27183327 1.1570001
-0.20459948 -0.27357212 1.1569998
-0.19819488 -0.27203614 1.1570001
-0.214018 -0.26473317 1.1569998
-0.20582034 -0.26552191 1.1553158
-0.19732997 -0.26606417 1.153
-0.21328031 -0.25495899 1.1569999
-0.207709 -0.25525904 1.1541427
-0.14151153 -0.25472075 1.153
-0.13552509 -0.2534793 1.1544545
-0.21401802 -0.24444713 1.1569998
-0.20796427 -0.24579401 1.1538
-0.21346645 -0.23502657 1.1555712
-0.20901896 -0.23497443 1.1536666
-0.21198939 -0.22821824 1.1570001
-0.20714106 -0.22435014 1.1549999
-0.20566149 -0.21537684 1.1548666
-0.20507225 -0.20579274 1.1555713
-0.20364237 -0.19553493 1.1556665
-0.22010382 -0.1825746 1.1570001
-0.21503229 -0.1825746 1.1570001
-0.2052189 -0.18495326 1.1557271
-0.19912694 -0.1809326 1.153
-0.22086456 -0.17522089 1.1570001
-0.2146641 -0.17517117 1.1549999
-0.20605813 -0.17717823 1.153
-0.22263956 -0.16457073 1.1569998
-0.21605583 -0.16512178 1.1543332
-0.22276637 -0.15607592 1.1569998
-0.21617125 -0.15437932 1.1537273
-0.064975075 -0.15455921 1.1537619
-0.059637003 -0.15465188 1.153
-0.22010382 -0.14910258 1.1570001
-0.21444139 -0.14552155 1.1560585
-0.20782387 -0.14285605 1.1538889
-0.071766563 -0.14454392 1.153
-0.068404987 -0.14618614 1.1559999
-0.059843898 -0.14910258 1.1570001
-0.2130037 -0.13895956 1.1570001
-0.20537046 -0.13567282 1.1558887
-0.19912694 -0.13241436 1.153
-0.091412663 -0.13121742 1.1543332
-0.085818097 -0.13429536 1.1548822
-0.075728901 -0.13469428 1.1552222
-0.19447136 -0.12537743 1.1559091
-0.18676974 -0.12102821 1.1536666
-0.1202848 -0.12837118 1.153
-0.1138831 -0.12163254 1.153
-0.091532767 -0.12454364 1.155
-0.19170333 -0.11867349 1.1570001
-0.18449819 -0.11544988 1.1563332
-0.17630337 -0.1121904 1.1546665
-0.11189336 -0.11391494 1.1533333
-0.10431433 -0.11443771 1.1552398
-0.094462365 -0.11471505 1.1550951
-0.19170333 -0.10447324 1.1570001
-0.18358889 -0.10447323 1.1569998
-0.17480469 -0.10662903 1.1566923
-0.16597609 -0.10348564 1.1555262
-0.15633655 -0.10074273 1.153
-0.11368928 -0.10416187 1.1548822
-0.10650185 -0.10853045 1.1570001
-0.096358813 -0.10853045 1.1570001
-0.18156029 -0.095344514 1.1570001
-0.17750309 -0.095006406 1.1570001
-0.16228853 -0.09838742 1.1570001
-0.15417068 -0.096850224 1.1562728
-0.14501119 -0.095658734 1.1555712
-0.13468763 -0.094177537 1.1551539
-0.12433763 -0.092816956 1.1544285
-0.11569855 -0.095434919 1.1556665
-0.22546113 -0.290025 1.169
-0.24083348 -0.28387606 1.169
-0.23622178 -0.28361985 1.169
-0.22427763 -0.283793 1.1654999
-0.21520041 -0.28395867 1.1619999
-0.20865105 -0.28396899 1.161
-0.24288313 -0.27567747 1.169
-0.23525392 -0.27522194 1.1690001
-0.22442086 -0.27536511 1.1623333
-0.2147579 -0.27690417 1.161
-0.20661543 -0.27757129 1.1610001
-0.19847295 -0.27582651 1.161
-0.24262692 -0.26389199 1.169
-0.23517254 -0.26513645 1.1690001
-0.22464329 -0.26530495 1.1622174
-0.21882915 -0.26564842 1.161
-0.24483386 -0.25507703 1.1685202
-0.23485279 -0.25495851 1.165889
-0.22494215 -0.25523612 1.1624544
-0.21792443 -0.25501794 1.1610001
-0.24407348 -0.24504712 1.1686192
-0.23504852 -0.24460793 1.1648185
-0.22532244 -0.24481598 1.1618569
-0.21848989 -0.24597074 1.1610001
-0.24269678 -0.23598887 1.1689999
-0.2351668 -0.23504624 1.169
-0.22457905 -0.23477678 1.1643999
-0.21795675 -0.23395088 1.1610001
-0.23775901 -0.22853561 1.169
-0.22345488 -0.22601284 1.1683332
-0.21572268 -0.22503671 1.1625239
-0.22161804 -0.21367565 1.169
-0.21484542 -0.21512012 1.1624547
-0.23673418 -0.20291501 1.169
-0.22033702 -0.20496467 1.169
-0.21440706 -0.2052131 1.1646001
-0.20865105 -0.2025442 1.161
-0.25176492 -0.19403322 1.169
-0.24452285 -0.19481893 1.1690001
-0.23555705 -0.1945926 1.1682501
-0.22306985 -0.19437484 1.1689999
-0.21444248 -0.19462413 1.1634763
-0.20865104 -0.19440171 1.161
-0.25210655 -0.18549302 1.1689999
-0.24456765 -0.18521515 1.1672403
-0.23490182 -0.18486075 1.1650003
-0.22580948 -0.18476468 1.1626363
-0.21521027 -0.18739015 1.1610001
-0.25210655 -0.17524478 1.1689999
-0.24481888 -0.17517231 1.1667395
-0.23482078 -0.17520487 1.1631178
-0.22665845 -0.17498504 1.1610001
-0.25210655 -0.16909584 1.169
-0.24391685 -0.16563921 1.1675884
-0.23474079 -0.16574125 1.1616665
-0.22765017 -0.16726011 1.1610001
-0.24083348 -0.15884762 1.169
-0.23426329 -0.15632781 1.1655333
-0.22774009 -0.1537931 1.1618001
-0.23058525 -0.14757456 1.169
-0.22424978 -0.14578965 1.1638891
-0.21815062 -0.14215413 1.161
-0.063888624 -0.14467148 1.1632606
-0.058414929 -0.14450009 1.169
-0.22170345 -0.1363015 1.169
-0.2155463 -0.13464706 1.1636001
-0.20712434 -0.13180639 1.161
-0.082442611 -0.13180639 1.161
-0.072454296 -0.13404992 1.1613334
-0.065367013 -0.13708091 1.1663334
-0.054315634 -0.13527668 1.169
-0.2135535 -0.12700386 1.1683332
-0.20478837 -0.12581436 1.1658421
-0.19750512 -0.12327523 1.1621429
-0.09058509 -0.12111939 1.161
-0.08462593 -0.12541184 1.1630799
-0.074616998 -0.12571903 1.1659602
-0.068486959 -0.12674934 1.166
-0.21008877 -0.11990433 1.169
-0.20414893 -0.11716305 1.1683844
-0.19501947 -0.11464059 1.161909
-0.18778594 -0.112468 1.161
-0.091263629 -0.11161983 1.161
-0.08615832 -0.11556591 1.1654444
-0.2018902 -0.10863127 1.169
-0.19411075 -0.10522708 1.1621429
-0.18512835 -0.10415589 1.1610001
-0.17562877 -0.10234645 1.1610001
-0.11094129 -0.101781 1.161
-0.10455683 -0.10427925 1.1609998
-0.094571508 -0.10466477 1.1609998
-0.085542075 -0.10500275 1.1650002
-0.19267936 -0.097872525 1.1670001
-0.18484709 -0.094908722 1.1626471
-0.17488372 -0.094776087 1.161
-0.16616859 -0.094302312 1.1609998
-0.15645193 -0.092620723 1.1610001
-0.14599918 -0.091489822 1.1610001
-0.13604726 -0.09092436 1.1610001
-0.1221372 -0.09058509 1.161
-0.11318047 -0.09282428 1.1610001
-0.10489276 -0.09470626 1.1616398
-0.094656326 -0.094656326 1.1609998
-0.085713975 -0.09489847 1.1640002
-0.18230854 -0.088343896 1.165
-0.17492051 -0.085071936 1.1645557
-0.16580488 -0.084682502 1.1614997
-0.15517187 -0.084495753 1.1632069
-0.14496455 -0.086071827 1.1666844
-0.13449012 -0.086226717 1.1668825
-0.12534867 -0.0866706 1.1650001
-0.11520166 -0.086589895 1.1655
-0.10526351 -0.086276174 1.1670002
-0.094906181 -0.085020296 1.166167
-0.08646629 -0.085698113 1.16725
-0.1718775 -0.078776389 1.1670001
-0.16438314 -0.077879682 1.1667144
-0.15405782 -0.076004662 1.1681112
-0.15167385 -0.068663165 1.169
-0.24196571 -0.29407346 1.177
-0.2355662 -0.29376757 1.1757693
-0.22863203 -0.29238847 1.1730001
-0.2538977 -0.28497109 1.1754616
-0.24650896 -0.2851676 1.1734213
-0.23457243 -0.28601652 1.1735716
-0.22767226 -0.28813809 1.1730001
-0.2614674 -0.27426219 1.177
-0.25537682 -0.274939 1.1746002
-0.24685968 -0.27444315 1.1730002
-0.23445924 -0.2776491 1.1730001
-0.26199779 -0.26509261 1.1766001
-0.25515753 -0.26441777 1.1736002
-0.2468783 -0.26602104 1.1730002
-0.23445924 -0.26633745 1.1730001
-0.26182854 -0.25563753 1.177
-0.25536263 -0.25487664 1.1737061
-0.25553352 -0.24542236 1.1750953
-0.24988419 -0.24474254 1.1730001
-0.26105466 -0.23009957 1.177
-0.25507233 -0.23481263 1.174778
-0.24753371 -0.23445924 1.1730002
-0.23445924 -0.23471631 1.1730002
-0.25473151 -0.22562292 1.1758237
-0.24552251 -0.22557084 1.173522
-0.23528908 -0.22491245 1.1733481
-0.22808358 -0.2243816 1.1730002
-0.24399498 -0.21675447 1.177
-0.23510884 -0.2150885 1.1739093
-0.2272609 -0.21492097 1.1730002
-0.26238063 -0.20155311 1.1760001
-0.25460196 -0.20310076 1.1750002
-0.24563901 -0.20411116 1.1745558
-0.23477522 -0.20513682 1.173182
-0.22607026 -0.20463765 1.1730002
-0.2638624 -0.19429965 1.1759475
-0.25656831 -0.19486855 1.1730002
-0.24988419 -0.19846769 1.1730001
-0.23377366 -0.19709659 1.1730002
-0.22726093 -0.19692521 1.1730002
-0.26451623 -0.1850654 1.1754001
-0.25708249 -0.18509939 1.1730002
-0.26177576 -0.17616767 1.1751819
-0.25725597 -0.17533612 1.1733638
-0.2542586 -0.16584049 1.1750001
-0.24782753 -0.1631617 1.1730002
-0.2507363 -0.15890285 1.177
-0.24462515 -0.1561421 1.1754001
-0.23754422 -0.1528784 1.1730002
-0.24041794 -0.14755262 1.177
-0.23516072 -0.14519225 1.1755883
-0.22767226 -0.14170387 1.1730001
-0.056612253 -0.14248952 1.174143
-0.23330513 -0.13559908 1.1762501
-0.22567333 -0.13448092 1.1741766
-0.063891031 -0.13396652 1.1755002
-0.054724708 -0.13558275 1.1750002
-0.2311314 -0.12897958 1.177
-0.22359325 -0.12604772 1.1753335
-0.21581502 -0.1230473 1.1738573
-0.20669433 -0.12442793 1.1730001
-0.081238069 -0.12031461 1.1730001
-0.075068086 -0.12031461 1.1730001
-0.067928523 -0.12247384 1.174
-0.21315607 -0.11635838 1.1746001
-0.20685174 -0.11285768 1.173889
-0.081825681 -0.11443844 1.1730002
-0.075867146 -0.11561999 1.177
-0.069133058 -0.11762938 1.177
-0.20155311 -0.10464288 1.1760001
-0.19914448 -0.10008816 1.177
-0.081422754 -0.10616112 1.1756667
-0.079451419 -0.10834285 1.177
-0.19326206 -0.094054185 1.1752857
-0.1881844 -0.091521367 1.1730001
-0.081238069 -0.095634684 1.1730001
-0.18396276 -0.085054494 1.1752224
-0.17892942 -0.082266398 1.1730001
-0.14430898 -0.08158084 1.1730002
-0.13559265 -0.081825681 1.1730002
-0.12433851 -0.082244486 1.1743336
-0.11501582 -0.082078576 1.1740001
-0.10557521 -0.081923619 1.1730002
-0.099748008 -0.081238069 1.1730001
-0.082732297 -0.084108084 1.1747779
-0.079451419 -0.089769788 1.177
-0.17526233 -0.078352079 1.1760001
-0.1662467 -0.076439194 1.1730001
-0.15774582 -0.073834091 1.1730001
-0.14565106 -0.075490952 1.1754349
-0.13585849 -0.079107471 1.177
-0.12794775 -0.079451419 1.177
-0.1124702 -0.079451419 1.177
-0.10387155 -0.079107471 1.177
-0.094441652 -0.077955641 1.1752224
-0.0866469 -0.075973846 1.1758237
-0.1511645 -0.065813117 1.1730001
-0.14660804 -0.066859417 1.1763334
-0.25382566 -0.30022764 1.1850001
-0.24759257 -0.30092022 1.1850001
-0.27309746 -0.2908175 1.189
-0.26519242 -0.29430571 1.1862631
-0.25470513 -0.29559773 1.1835883
-0.24562709 -0.29620233 1.1822
-0.27440041 -0.28430277 1.1889999
-0.26566896 -0.28516924 1.1847777
-0.25945705 -0.28637597 1.1810001
-0.27489576 -0.27489266 1.18775
-0.26688978 -0.27518654 1.1831539
-0.27467963 -0.26569057 1.1875262
-0.26773819 -0.26496947 1.1832223
-0.27311155 -0.25620687 1.1885556
-0.26739731 -0.25476804 1.1846923
-0.26584977 -0.24539636 1.1847893
-0.27247205 -0.23327942 1.189
-0.26580048 -0.23568667 1.1843333
-0.25987118 -0.23605828 1.1810001
-0.28247866 -0.22202197 1.189
-0.27485168 -0.22483864 1.1884667
-0.2656787 -0.22520038 1.1838
-0.25624746 -0.22130464 1.1810001
-0.28321442 -0.21490943 1.1889999
-0.27495128 -0.21558741 1.1879998
-0.2649067 -0.21504192 1.1849998
-0.2548691 -0.21446197 1.1817999
-0.24744703 -0.21318661 1.181
-0.2908175 -0.20430191 1.189
-0.28503981 -0.20531419 1.1876665
-0.27533624 -0.20468502 1.1851739
-0.26579204 -0.20603639 1.182
-0.25676516 -0.20741379 1.1810001
-0.2908175 -0.19700541 1.189
-0.28498954 -0.19482881 1.1871052
-0.27500334 -0.19458605 1.1825651
-0.26815394 -0.19878592 1.1810001
-0.28221807 -0.18527889 1.189
-0.27478716 -0.18488002 1.1837368
-0.28039393 -0.17824298 1.189
-0.27412853 -0.17628549 1.18725
-0.26705953 -0.17429735 1.1828183
-0.27205509 -0.16990414 1.189
-0.26505977 -0.16539913 1.1865999
-0.25703779 -0.16262655 1.1815716
-0.2635425 -0.15652722 1.189
-0.25541443 -0.15434629 1.1847999
-0.24692938 -0.15193664 1.1810001
-0.25367171 -0.14588016 1.1865001
-0.24518245 -0.14395924 1.1824118
-0.23916431 -0.14184204 1.1810001
-0.24402323 -0.13761672 1.1870002
-0.23761129 -0.13459463 1.1810001
-0.063155942 -0.13148861 1.1810001
-0.056408536 -0.13150993 1.1843334
-0.23146455 -0.12610893 1.1840001
-0.22725217 -0.12382682 1.1836667
-0.063615322 -0.12541549 1.1847501
-0.056705926 -0.12650926 1.1884286
-0.22297554 -0.11779707 1.1861429
-0.2163576 -0.11294024 1.1839093
-0.073854491 -0.11147196 1.1810001
-0.064957991 -0.11482013 1.182739
-0.058351986 -0.11566126 1.1886001
-0.047948405 -0.11361688 1.189
-0.21361189 -0.10703996 1.1875455
-0.20658411 -0.10410241 1.1841429
-0.076282136 -0.10559712 1.1852105
-0.065578699 -0.10721639 1.1874001
-0.058580447 -0.10777967 1.189
-0.20310837 -0.096171014 1.1881112
-0.19681586 -0.09281221 1.1836668
-0.080261461 -0.099023886 1.189
-0.079811446 -0.094324946 1.1823335
-0.1934104 -0.086397782 1.1874001
-0.18747282 -0.083701216 1.1836667
-0.079721436 -0.084898151 1.1810001
-0.18222043 -0.079721436 1.1810001
-0.17601188 -0.076570109 1.1856668
-0.16669028 -0.07558006 1.1810001
-0.14104339 -0.072596774 1.1830001
-0.13484523 -0.074667685 1.1856315
-0.12525912 -0.076707348 1.1845
-0.11517753 -0.075533777 1.1835998
-0.10486358 -0.07450971 1.1831052
-0.09518832 -0.073245503 1.1823334
-0.082679562 -0.074396804 1.1810001
-0.079143062 -0.075770304 1.1840001
-0.15037902 -0.062224045 1.1830001
-0.14294751 -0.064338781 1.18375
-0.13579065 -0.067942709 1.189
-0.12820987 -0.069837898 1.189
-0.11153216 -0.069837898 1.189
-0.10403816 -0.068910882 1.1884286
-0.094317719 -0.067290522 1.1855
-0.085017271 -0.066714115 1.1845
-0.079991452 -0.069602951 1.1850001
-0.14445773 -0.058338661 1.1883334
-0.13863343 -0.057329617 1.189
-0.28228056 -0.29394019 1.197
-0.27536416 -0.29566091 1.1934
-0.28285825 -0.28494999 1.1950001
-0.2792455 -0.28656656 1.1930001
-0.28370884 -0.2748414 1.1948463
-0.2836194 -0.26556224 1.1951538
-0.2792455 -0.26146585 1.1930001
-0.28181413 -0.25686246 1.197
-0.27671698 -0.25393701 1.1945
-0.2744773 -0.24514055 1.1949999
-0.28123116 -0.23296013 1.197
-0.2765708 -0.2346679 1.1950002
-0.29347381 -0.22246645 1.197
-0.28473523 -0.22518525 1.1947143
-0.2792455 -0.22904406 1.1930001
-0.29542962 -0.21476355 1.1950003
-0.28886744 -0.21691206 1.1930001
-0.30116919 -0.20410247 1.197
-0.29652405 -0.20484832 1.1945385
-0.30116919 -0.19728155 1.197
-0.29567286 -0.19550593 1.1951334
-0.28970414 -0.19139299 1.1930001
-0.29235449 -0.18825698 1.197
-0.28645378 -0.18476082 1.1933999
-0.28301433 -0.17679502 1.1956667
-0.27715379 -0.17204452 1.1930001
-0.27400944 -0.1651521 1.1955715
-0.27248642 -0.15775529 1.197
-0.26769125 -0.15367821 1.1943333
-0.26295179 -0.14806139 1.1950001
-0.25666782 -0.14247587 1.1950001
-0.25331602 -0.13871117 1.1956667
-0.2461061 -0.13551566 1.1946001
-0.23880546 -0.13143015 1.1930001
-0.23296013 -0.12382566 1.197
-0.22904406 -0.12027428 1.1930001
-0.053529188 -0.12312663 1.193
-0.049155578 -0.12132014 1.1930001
-0.22501345 -0.11425158 1.1956667
-0.053353932 -0.11507798 1.1933333
-0.048632648 -0.1155679 1.1930001
-0.22104712 -0.10895038 1.1950001
-0.21641459 -0.10362638 1.194
-0.072795764 -0.1023938 1.1935714
-0.064843528 -0.10249461 1.193
-0.055086281 -0.10605042 1.1946002
-0.049155578 -0.10772392 1.1930001
-0.21196894 -0.098125584 1.1950001
-0.20638382 -0.093561903 1.1937999
-0.075671241 -0.096491516 1.1947501
-0.065690562 -0.099270396 1.197
-0.059814088 -0.099690147 1.197
-0.20230281 -0.08839751 1.1956667
-0.19572394 -0.083318397 1.1955
-0.18930127 -0.080531478 1.1930001
-0.078597546 -0.084882542 1.1954
-0.18549444 -0.078179203 1.1954
-0.17300317 -0.073918343 1.1960001
-0.16775805 -0.073393658 1.1960001
-0.12399572 -0.071840204 1.1946001
-0.11681013 -0.070713252 1.1950001
-0.078571245 -0.071236178 1.1950001
-0.1338705 -0.064096473 1.193
-0.1258724 -0.066043414 1.1957693
-0.10319111 -0.065475166 1.1950001
-0.095781773 -0.062727541 1.1947777
-0.083509728 -0.062830262 1.1945001
-0.078702748 -0.068209052 1.197
-0.15005991 -0.057715349 1.197
-0.14623706 -0.058281679 1.1943334
-0.13444458 -0.057593964 1.1945385
-0.1290725 -0.058764718 1.197
-0.09234456 -0.059814088 1.197
-0.087097712 -0.059814084 1.197
-0.29318452 -0.30056956 1.2030001
-0.28651747 -0.30131909 1.2060001
-0.2940416 -0.29509416 1.2043334
-0.28767467 -0.29610473 1.2019999
-0.30554816 -0.28267288 1.2060002
-0.2952776 -0.28410083 1.2060002
-0.28872842 -0.28556713 1.2019999
-0.30343363 -0.27805936 1.2060001
-0.29533035 -0.27471483 1.2038823
-0.28978217 -0.27502963 1.202
-0.29479226 -0.26564133 1.2046667
-0.28899187 -0.26370177 1.202
-0.29215619 -0.25656173 1.2060002
-0.28642061 -0.25395212 1.2035384
-0.28329289 -0.24623351 1.2045455
-0.27924463 -0.24552453 1.202
-0.29145136 -0.23365445 1.2060001
-0.28582388 -0.23592779 1.2037143
-0.27924463 -0.23920201 1.202
-0.31294894 -0.22096734 1.2060001
-0.30450201 -0.22377966 1.2052002
-0.29575506 -0.22714679 1.204
-0.28978217 -0.22866447 1.202
-0.31427053 -0.21462375 1.2060001
-0.30584449 -0.21514627 1.2029998
-0.31279793 -0.20556153 1.2060002
-0.30637878 -0.20561361 1.2019999
-0.3118917 -0.19982214 1.2060001
-0.30504912 -0.19505548 1.2034999
-0.2982122 -0.19072935 1.202
-0.30169082 -0.18833546 1.2046667
-0.29483819 -0.18488753 1.2040001
-0.28978217 -0.18229933 1.202
-0.29180378 -0.17761967 1.2060001
-0.28608048 -0.17320439 1.2041539
-0.28399265 -0.16585043 1.2050002
-0.27840164 -0.16291027 1.202
-0.28228843 -0.15692759 1.2060002
-0.27577558 -0.15444048 1.2027999
-0.27242064 -0.14836882 1.2060001
-0.26473621 -0.14393425 1.2038461
-0.25816956 -0.14014919 1.202
-0.26220047 -0.13850106 1.2060001
-0.2547614 -0.13549361 1.2049092
-0.24582916 -0.13240866 1.2035
-0.23999801 -0.13004299 1.2060001
-0.23703769 -0.12539104 1.2060001
-0.23115596 -0.11821499 1.204
-0.22776443 -0.11300176 1.2046667
-0.22283523 -0.10596036 1.2046667
-0.21812694 -0.10010657 1.202
-0.054598801 -0.10207644 1.2035
-0.049691219 -0.10255422 1.2060001
-0.21391194 -0.095891558 1.202
-0.072581567 -0.09392041 1.2037778
-0.064345799 -0.09532962 1.2032498
-0.057303496 -0.096633568 1.2060001
-0.20299393 -0.086695321 1.2060001
-0.19770762 -0.081409022 1.2060001
-0.075919911 -0.085779108 1.2046667
-0.1834086 -0.075333722 1.2046667
-0.17574361 -0.072037011 1.2040001
-0.1651382 -0.07150469 1.202
-0.076227047 -0.075702794 1.2035
-0.17233337 -0.068721898 1.2060001
-0.16528498 -0.068017058 1.2060001
-0.15710105 -0.064474687 1.2056365
-0.12382023 -0.062245414 1.2034545
-0.11587454 -0.067954943 1.203143
-0.10432158 -0.064278953 1.202
-0.096945301 -0.06006394 1.202
-0.082192764 -0.06006394 1.202
-0.078313127 -0.064430743 1.2048572
-0.1519912 -0.056995608 1.204
-0.13116044 -0.05239369 1.2033334
-0.12703425 -0.055951398 1.2042222
-0.092766412 -0.056419112 1.2052
-0.085982412 -0.05584332 1.2049334
-0.079294503 -0.058149301 1.2060001
-0.1321575 -0.049691219 1.2060001
-0.30189887 -0.29338467 1.2140001
-0.29807544 -0.29277158 1.21
-0.30168205 -0.28619486 1.21
-0.29807544 -0.28958929 1.21
-0.31226149 -0.27549967 1.2190001
-0.30563143 -0.27482602 1.2114445
-0.30388528 -0.26539192 1.2151875
-0.29807544 -0.26200935 1.21
-0.30266732 -0.25659636 1.219
-0.29617926 -0.25462165 1.2129232
-0.30029252 -0.24472237 1.2190001
-0.29459891 -0.24526909 1.2160666
-0.28852853 -0.2453907 1.21
-0.31446648 -0.23229389 1.2173333
-0.30456659 -0.23381384 1.2156
-0.29579103 -0.23580442 1.2122223
-0.32450455 -0.22440539 1.2166922
-0.31549579 -0.22555253 1.2111428
-0.30831605 -0.22760896 1.2113334
-0.32503945 -0.21474846 1.215
-0.31929076 -0.21533564 1.21
-0.32305884 -0.20676288 1.217
-0.31733 -0.20473289 1.2116251
-0.31469306 -0.19532628 1.2156428
-0.30919331 -0.19125184 1.2120001
-0.31151342 -0.18754925 1.2190001
-0.30503005 -0.18446176 1.2138237
-0.29769671 -0.18229817 1.2113334
-0.30336577 -0.17632198 1.21775
-0.29557469 -0.17465362 1.2113335
-0.30100498 -0.16920398 1.2190001
-0.29438058 -0.16495724 1.214
-0.28852853 -0.16335808 1.21
-0.29277992 -0.15666318 1.21775
-0.2857087 -0.15328388 1.2136153
-0.27990389 -0.15006255 1.2140001
-0.28355023 -0.14711839 1.219
-0.27519953 -0.14477345 1.2131875
-0.26837397 -0.14214273 1.21
-0.27262151 -0.13737531 1.2171251
-0.26519275 -0.1346876 1.214294
-0.25617206 -0.13207071 1.2125001
-0.2482194 -0.1304743 1.21
-0.26288953 -0.12930745 1.2190001
-0.25393912 -0.12700763 1.2174615
-0.24475749 -0.12462064 1.2150557
-0.23820172 -0.12229062 1.2130001
-0.23397294 -0.11499571 1.2156364
-0.2318985 -0.10793433 1.2190001
-0.22617364 -0.10522674 1.2155001
-0.051977567 -0.10077284 1.21
-0.049856033 -0.10077284 1.21
-0.22228059 -0.098316416 1.2190001
-0.21705039 -0.095044106 1.2136668
-0.20897104 -0.090165168 1.21
-0.071071364 -0.090165168 1.21
-0.064176381 -0.090960741 1.21
-0.053394876 -0.094032407 1.2134001
-0.047700454 -0.095398717 1.2181667
-0.21052536 -0.088698506 1.2190001
-0.20561105 -0.085372724 1.2173333
-0.1998388 -0.080149248 1.2190001
-0.072768591 -0.085285641 1.21
-0.065191038 -0.085108027 1.2151
-0.05538772 -0.086818293 1.2171818
-0.048089549 -0.087629847 1.2190001
-0.19409961 -0.078191303 1.2152001
-0.18646926 -0.073188126 1.2138889
-0.07274083 -0.07486587 1.2113334
-0.069011495 -0.076122716 1.2173333
-0.1829716 -0.067990325 1.2181667
-0.17499439 -0.065751076 1.2143077
-0.16510594 -0.063487872 1.2121251
-0.15805423 -0.0604637 1.21
-0.11524351 -0.063414522 1.2131052
-0.10781685 -0.065607399 1.2136668
-0.073818117 -0.064569592 1.2121178
-0.069462679 -0.064653724 1.2190001
-0.16185898 -0.05798332 1.2173334
-0.15542959 -0.054809134 1.215
-0.14815374 -0.053391922 1.21
-0.12280599 -0.053692985 1.212875
-0.11721822 -0.055584662 1.2167778
-0.095135786 -0.053986814 1.2119092
-0.083270185 -0.052507952 1.21
-0.074976631 -0.054397926 1.2124091
-0.069177769 -0.054277938 1.2140001
-0.13150497 -0.047140408 1.2130001
-0.12541504 -0.047249556 1.2158333
-0.091248721 -0.046861928 1.2150002
-0.085047841 -0.04570777 1.2126501
-0.076517358 -0.045684889 1.2149999
-0.083355218 -0.039540295 1.2190001
-0.078011937 -0.039540295 1.2190001
-0.322175 -0.27277306 1.2250001
-0.31639633 -0.27322242 1.2243333
-0.31410667 -0.26637569 1.2262001
-0.30985519 -0.26375216 1.223
-0.31230286 -0.25708511 1.2270001
-0.30695289 -0.2542918 1.223923
-0.30422512 -0.24511161 1.2242308
-0.29913357 -0.2455254 1.223
-0.33023068 -0.23126905 1.2270001
-0.32442993 -0.23253636 1.2246001
-0.3151713 -0.2372928 1.2270001
-0.30748329 -0.23796222 1.2238001
-0.33381197 -0.224012 1.2252222
-0.32915413 -0.22837079 1.223
-0.33315942 -0.21582393 1.2248183
-0.33195177 -0.20674376 1.2270001
-0.32653272 -0.20373839 1.2238889
-0.33023068 -0.19039358 1.2270001
-0.32469034 -0.19472043 1.2257367
-0.31843251 -0.19191724 1.223
-0.32127583 -0.18803535 1.2256669
-0.31621069 -0.18500109 1.22425
-0.31450126 -0.17673975 1.2259094
-0.3081874 -0.17380959 1.223
-0.30373606 -0.16553113 1.2252222
-0.29913357 -0.16189666 1.223
-0.30118757 -0.15704782 1.2270001
-0.29611132 -0.15427668 1.2237999
-0.29241586 -0.14803235 1.2254002
-0.28556925 -0.14385644 1.2246001
-0.27983463 -0.1404534 1.223
-0.28074986 -0.13876143 1.2270001
-0.27519178 -0.13475932 1.2241429
-0.27125731 -0.12973176 1.223
-0.2650561 -0.1259888 1.224647
-0.25618941 -0.12259372 1.224
-0.24766973 -0.12115446 1.223
-0.25347817 -0.11846099 1.2262002
-0.24471809 -0.1162484 1.225
-0.2379788 -0.11262875 1.2235715
-0.24202575 -0.10864267 1.2270001
-0.23417971 -0.10522609 1.2257693
-0.22861975 -0.10196423 1.2243334
-0.22438005 -0.095423758 1.2258002
-0.21675146 -0.091744483 1.2240001
-0.046103023 -0.095422536 1.223
-0.2144746 -0.087661788 1.2258574
-0.20669959 -0.082095198 1.2252858
-0.063257635 -0.08094833 1.223
-0.054013688 -0.082862534 1.2252858
-0.048352551 -0.08273425 1.2256668
-0.20164882 -0.077721469 1.2256669
-0.19593894 -0.074258186 1.2246667
-0.064904898 -0.076082744 1.2258003
-0.058444738 -0.077806801 1.2270001
-0.19343132 -0.067502841 1.2265557
-0.18574275 -0.064723298 1.2247144
-0.17567146 -0.061537322 1.2243334
-0.11043283 -0.061113309 1.223
-0.10614417 -0.061113309 1.223
-0.06840834 -0.068410687 1.2256669
-0.17310323 -0.057904955 1.2264287
-0.16538352 -0.055841915 1.2250001
-0.15556678 -0.050853502 1.2238001
-0.1490307 -0.050391678 1.223
-0.11339351 -0.054369286 1.2256666
-0.10494907 -0.056649856 1.2263848
-0.098388009 -0.05259094 1.2243334
-0.069804579 -0.051546246 1.2250001
-0.15166947 -0.048405148 1.2270001
-0.14844246 -0.048405148 1.2270001
-0.13288076 -0.043338601 1.2256668
-0.1248643 -0.043289509 1.2243334
-0.11735732 -0.046203543 1.2256666
-0.093379907 -0.044721395 1.2243334
-0.072549723 -0.042529147 1.223
-0.069918551 -0.045178138 1.2270001
-0.13230741 -0.039799791 1.2270001
-0.1242591 -0.038859252 1.2264287
-0.11939937 -0.039799791 1.2270001
-0.091133885 -0.039670043 1.223
-0.084353611 -0.03610241 1.2251539
-0.075652473 -0.03739509 1.2258002
-0.32293594 -0.2710934 1.2320001
-0.3238242 -0.26633862 1.2353847
-0.31814632 -0.26380804 1.2325716
-0.31597492 -0.25465328 1.2343334
-0.31490305 -0.24460256 1.2336669
-0.3099753 -0.24733222 1.2320001
-0.34132141 -0.23079827 1.2360001
-0.33454388 -0.23186167 1.233
-0.3257997 -0.23776603 1.2346667
-0.3196502 -0.23946676 1.2360001
-0.34132141 -0.22538048 1.2360001
-0.33697665 -0.22789125 1.2320001
-0.34132141 -0.2112942 1.2360001
-0.33805668 -0.21439058 1.2320001
-0.34132141 -0.20370927 1.2360001
-0.33626288 -0.2041481 1.2338669
-0.33423159 -0.19589227 1.2345456
-0.3315717 -0.18725133 1.2346667
-0.32631335 -0.1848862 1.2333335
-0.32275811 -0.17645597 1.2348573
-0.3176527 -0.17247583 1.2335001
-0.31334051 -0.16587353 1.2353334
-0.30779216 -0.1641641 1.233143
-0.30442712 -0.15471986 1.2341819
-0.29917479 -0.15012741 1.2320001
-0.30122969 -0.14844772 1.2360001
-0.2946845 -0.14474364 1.2340002
-0.28837425 -0.14148699 1.2320001
-0.29147765 -0.13977924 1.2360001
-0.28466883 -0.13722132 1.2346667
-0.27779901 -0.13241261 1.233
-0.27261353 -0.12656787 1.2340001
-0.26666445 -0.12170237 1.2340001
-0.2612946 -0.11929329 1.2333335
-0.25517243 -0.11513929 1.2344
-0.24776423 -0.11210953 1.2320001
-0.25030234 -0.10943956 1.2360001
-0.24377777 -0.10660135 1.2345001
-0.23751004 -0.10199491 1.2333335
-0.23337017 -0.096965842 1.2348573
-0.22741784 -0.094066329 1.2333335
-0.2227091 -0.088086769 1.2344
-0.21614638 -0.083947144 1.2340002
-0.21201658 -0.078377508 1.2360001
-0.20549718 -0.074625865 1.2337143
-0.19980986 -0.070203468 1.2320001
-0.063503981 -0.072150543 1.2330002
-0.05484093 -0.074303925 1.233524
-0.04813952 -0.076264739 1.2340001
-0.20154215 -0.066097163 1.2360001
-0.1958333 -0.063763127 1.2328002
-0.18900934 -0.061563041 1.2320001
-0.066041932 -0.067127243 1.2350001
-0.19467962 -0.059595805 1.2360001
-0.18472473 -0.057687901 1.2344617
-0.17512707 -0.05417832 1.2338183
-0.16587643 -0.051924963 1.2340001
-0.11124549 -0.050762508 1.2320001
-0.1052452 -0.051722553 1.2320002
-0.070431396 -0.059595801 1.2360001
-0.16361755 -0.047676641 1.2360001
-0.15435293 -0.045731943 1.2337145
-0.14500214 -0.043823104 1.2343334
-0.13774945 -0.041466918 1.2340001
-0.11346579 -0.044124383 1.2326669
-0.10593288 -0.046077363 1.2338668
-0.09674105 -0.045936458 1.233
-0.068264283 -0.0433424 1.2360001
-0.13267334 -0.037874103 1.2344
-0.12433823 -0.034717169 1.2333335
-0.11689083 -0.038082007 1.2333335
-0.092102602 -0.037924599 1.2360001
-0.086332135 -0.032585952 1.233143
-0.073432297 -0.034179214 1.2332308
-0.084246956 -0.02880376 1.2352002
-0.076932758 -0.02925612 1.2360001
-0.33070934 -0.26303944 1.245
-0.32732189 -0.26278147 1.2425001
-0.322644 -0.25545278 1.2442
-0.3187674 -0.25131491 1.2410001
-0.32285088 -0.2464494 1.245
-0.3187674 -0.24913903 1.2410001
-0.33507514 -0.23684464 1.245
-0.34598964 -0.22811306 1.245
-0.33617449 -0.19039008 1.2410001
-0.33216462 -0.18227215 1.245
-0.32615101 -0.17451295 1.2426001
-0.32226485 -0.16740169 1.244
-0.31819201 -0.16345274 1.243
-0.31247011 -0.15745854 1.243
-0.30888036 -0.152803 1.245
-0.30301052 -0.14637792 1.2442
-0.29639572 -0.14165881 1.243
-0.29253966 -0.13721535 1.2442
-0.28603241 -0.1334388 1.2432858
-0.28050265 -0.12988254 1.245
-0.27583876 -0.12610528 1.2436666
-0.268722 -0.12076171 1.2410001
-0.26226622 -0.11532672 1.2434
-0.25628471 -0.1112376 1.244
-0.25171992 -0.10678852 1.243
-0.24698967 -0.10402264 1.2425001
-0.24253654 -0.097813495 1.2443333
-0.23479533 -0.0930878 1.2434
-0.22846809 -0.091387242 1.2410001
-0.23138739 -0.088407449 1.245
-0.22511485 -0.084213257 1.2435
-0.21758866 -0.081595749 1.2410001
-0.22205471 -0.078862883 1.2436666
-0.21612006 -0.074807823 1.2435
-0.20924777 -0.071441613 1.2410001
-0.044675805 -0.072463952 1.243
-0.21239617 -0.067888185 1.245
-0.20519027 -0.064298958 1.2431818
-0.063399799 -0.062672168 1.2433333
-0.055088658 -0.065620638 1.2430001
-0.048387617 -0.068033718 1.245
-0.20191824 -0.057846848 1.245
-0.19448616 -0.05543616 1.2440001
-0.18517524 -0.052283082 1.2424999
-0.17733474 -0.051133335 1.2410001
-0.066470325 -0.055576865 1.243
-0.18363647 -0.04829666 1.245
-0.17423664 -0.046242032 1.2432858
-0.16521268 -0.04324485 1.2436668
-0.15595937 -0.041515801 1.2415714
-0.14687236 -0.040253904 1.2410001
-0.10313796 -0.041845176 1.2421429
-0.097672574 -0.042213626 1.2438571
-0.064887792 -0.044164274 1.244
-0.15417702 -0.037452664 1.2443333
-0.14461386 -0.035461314 1.2435883
-0.13571812 -0.033754617 1.2420911
-0.12789145 -0.032462791 1.2426001
-0.11387175 -0.033596337 1.2435454
-0.10632871 -0.037078619 1.244
-0.099321947 -0.038200751 1.245
-0.06592489 -0.034870297 1.243
-0.1353398 -0.029469149 1.245
-0.12408813 -0.027912715 1.2437999
-0.11766607 -0.027272722 1.2444285
-0.083430171 -0.025083188 1.2440001
-0.074865185 -0.024831586 1.2436666
-0.068033718 -0.028741516 1.245
-0.34105051 -0.26158243 1.2590001
-0.33523405 -0.26158968 1.2537501
-0.34187829 -0.25413227 1.2589999
-0.33536172 -0.25495255 1.2572634
-0.3276971 -0.25553077 1.251
-0.34325796 -0.24723402 1.2590001
-0.33529675 -0.2459392 1.2571539
-0.32817841 -0.24652043 1.2520001
-0.35208774 -0.23067817 1.2590001
-0.33422917 -0.23998749 1.25
-0.35208774 -0.22626328 1.2590001
-0.34746057 -0.22270715 1.2514286
-0.35096911 -0.21894312 1.2550001
-0.34591803 -0.21734028 1.25
-0.34237498 -0.18432179 1.2590001
-0.33804116 -0.18496791 1.2548572
-0.3421542 -0.17880318 1.2590001
-0.33541483 -0.1765185 1.2569001
-0.3291153 -0.17277639 1.25
-0.33195686 -0.1676318 1.2580001
-0.32625595 -0.16497065 1.2538182
-0.32165688 -0.15630598 1.2574002
-0.31566113 -0.1532827 1.253
-0.31238085 -0.1465088 1.2565715
-0.30590203 -0.14372648 1.2536666
-0.29916251 -0.1413625 1.25
-0.30230826 -0.13811181 1.2570001
-0.29540327 -0.13374339 1.2551818
-0.2860125 -0.13040416 1.25
-0.29204518 -0.12736967 1.2590001
-0.28437582 -0.12545191 1.2566876
-0.27738008 -0.12385122 1.2534286
-0.27439103 -0.11649071 1.2570001
-0.26687008 -0.11431334 1.2527274
-0.25971249 -0.11067916 1.25
-0.27041221 -0.10926861 1.2590001
-0.26366344 -0.10739819 1.2572223
-0.25574994 -0.10383384 1.2543572
-0.24925166 -0.1010161 1.2525001
-0.25261879 -0.097075641 1.2583333
-0.24495254 -0.093701258 1.2542224
-0.23889166 -0.092050001 1.25
-0.24281913 -0.089401588 1.2590001
-0.23492685 -0.085076317 1.2553846
-0.22902916 -0.083283335 1.25
-0.23141401 -0.076156907 1.2590001
-0.22566985 -0.075480558 1.2530714
-0.041641667 -0.071229167 1.25
-0.22281961 -0.067907624 1.2561668
-0.21531622 -0.063915387 1.2539999
-0.20784307 -0.061731946 1.25
-0.060270835 -0.060270835 1.25
-0.054791667 -0.060270835 1.25
-0.044486243 -0.064233966 1.2515911
-0.038507584 -0.063812569 1.2550001
-0.21228279 -0.057025705 1.2589999
-0.20500562 -0.054548085 1.2552859
-0.19615416 -0.052052081 1.25
-0.062329814 -0.05454978 1.2513636
-0.055007655 -0.055005684 1.2550001
-0.04631868 -0.056243435 1.258
-0.20308509 -0.049667548 1.2590001
-0.19448461 -0.046322305 1.2562002
-0.18508588 -0.043443717 1.2524287
-0.17569862 -0.041276392 1.25
-0.16985416 -0.040545832 1.25
-0.062141787 -0.045645844 1.2546667
-0.05776152 -0.048931733 1.2590001
-0.191496 -0.036974732 1.2590001
-0.18528028 -0.036392771 1.258
-0.17539753 -0.03617784 1.2560717
-0.1646795 -0.035831939 1.2540001
-0.15541898 -0.033584222 1.2520001
-0.14684168 -0.031779166 1.25
-0.11067916 -0.031779166 1.25
-0.10368288 -0.033429369 1.2521819
-0.095802873 -0.034746952 1.2539232
-0.061952572 -0.034827724 1.2545556
-0.16003989 -0.029800531 1.2590001
-0.15327927 -0.028512079 1.2578572
-0.14453749 -0.025948716 1.2551765
-0.13518208 -0.024539459 1.2536669
-0.12629549 -0.024314851 1.2527143
-0.11337491 -0.025402045 1.252143
-0.10709441 -0.02663306 1.25725
-0.085845537 -0.023482392 1.2553334
-0.07634306 -0.020820834 1.25
-0.065512009 -0.024639642 1.2541766
-0.081792474 -0.017414983 1.2574002
-0.074502297 -0.015598353 1.2534668
-0.067689575 -0.01627814 1.2566667
-0.34240496 -0.24821588 1.2640001
-0.35681856 -0.23257732 1.2653333
-0.35682085 -0.22752129 1.266
-0.34092748 -0.17545022 1.2640001
-0.33797252 -0.17286465 1.2640001
-0.33494329 -0.16596402 1.2657143
-0.32481846 -0.15426703 1.266
-0.32024282 -0.1495944 1.2640001
-0.31487903 -0.14445785 1.2656
-0.30916175 -0.14072955 1.2640001
-0.31014013 -0.13895166 1.268
-0.30410162 -0.13373637 1.266
-0.29464906 -0.12456311 1.2664
-0.28699961 -0.12152237 1.2640001
-0.28321239 -0.11626703 1.2657778
-0.27671248 -0.11117115 1.2656001
-0.27191395 -0.10654305 1.266
-0.26551703 -0.10337187 1.2648889
-0.26197019 -0.098192513 1.268
-0.25522348 -0.092949972 1.2665713
-0.24932399 -0.09197285 1.2640001
-0.25233623 -0.087817453 1.268
-0.24399683 -0.085086033 1.2655385
-0.23824294 -0.081999898 1.2640001
-0.23427296 -0.074666135 1.2665
-0.22937807 -0.072026931 1.2640001
-0.23010395 -0.067808412 1.268
-0.22461753 -0.063880958 1.2657144
-0.218297 -0.060945865 1.2640001
-0.22121105 -0.057803892 1.268
-0.21564597 -0.053782701 1.2661818
-0.043476827 -0.053329781 1.2644445
-0.038783733 -0.05540533 1.2640001
-0.21053955 -0.045131501 1.268
-0.20468579 -0.044797055 1.2644706
-0.19657812 -0.041886434 1.2640001
-0.05443915 -0.044754118 1.2646316
-0.045077041 -0.045602363 1.2659047
-0.038783733 -0.045432378 1.2640001
-0.20315289 -0.038044997 1.2640001
-0.19613487 -0.037010767 1.2640001
-0.18443972 -0.031339519 1.2655001
-0.17508084 -0.032135092 1.2640001
-0.16732411 -0.032135092 1.2640001
-0.056147717 -0.034837909 1.2675292
-0.043058801 -0.036945798 1.2674999
-0.037736118 -0.035512891 1.266
-0.17464326 -0.027598219 1.2665714
-0.16408765 -0.026072726 1.2657499
-0.15588482 -0.023803247 1.2652308
-0.14793223 -0.021608081 1.2640001
-0.1318647 -0.021054026 1.2640001
-0.12854037 -0.021054026 1.2640001
-0.10317881 -0.024319811 1.2655385
-0.09514688 -0.025302097 1.2655237
-0.089017898 -0.02327024 1.2640001
-0.060945861 -0.025486451 1.2640001
-0.058470864 -0.02512246 1.268
-0.16118394 -0.018897427 1.268
-0.15657501 -0.018877557 1.2666668
-0.14405388 -0.018837813 1.2640001
-0.13489595 -0.017910551 1.2657143
-0.10499506 -0.017890237 1.2666667
-0.095439948 -0.018262221 1.268
-0.084416866 -0.016105242 1.267
-0.078675576 -0.012189173 1.2640001
-0.063736923 -0.013791471 1.2659999
-0.058915507 -0.0166742 1.268
-0.073249005 -0.0088771265 1.2660002
-0.069810718 -0.0099729598 1.2640001
-0.36046693 -0.2332433 1.273
-0.36188275 -0.22743714 1.2780001
-0.3417159 -0.16693662 1.2780001
-0.33634654 -0.16397458 1.2767501
-0.331572 -0.15776463 1.2763335
-0.32874519 -0.15430342 1.2755001
-0.3228367 -0.14698648 1.276
-0.31812567 -0.14200772 1.2755001
-0.31339654 -0.13626137 1.2752222
-0.30689907 -0.13168761 1.273
-0.31034526 -0.12884369 1.2780001
-0.303213 -0.12607782 1.2752222
-0.29855627 -0.12299852 1.2755001
-0.29397559 -0.11745316 1.2759999
-0.28653365 -0.11310315 1.2742499
-0.28159556 -0.10778821 1.2763335
-0.27563637 -0.1047119 1.2752222
-0.2689552 -0.1015557 1.273
-0.27113196 -0.098593444 1.2780001
-0.26465297 -0.094050981 1.2746665
-0.26218307 -0.086219788 1.2772857
-0.25503314 -0.084477104 1.2751428
-0.24812327 -0.082211755 1.273
-0.26104853 -0.079546981 1.2780001
-0.25656703 -0.078053139 1.278
-0.24521866 -0.077193849 1.2761817
-0.23810616 -0.073297098 1.2751428
-0.23310858 -0.065641291 1.2763333
-0.22833484 -0.062204178 1.2746667
-0.22465467 -0.055322047 1.2763333
-0.21910734 -0.050963849 1.273
-0.22319934 -0.047987856 1.273
-0.21594536 -0.046034865 1.2729999
-0.050219849 -0.041291878 1.273
-0.19830726 -0.03585216 1.2780001
-0.051130816 -0.03380657 1.2748749
-0.045400202 -0.033544336 1.2754999
-0.037943885 -0.03013191 1.273
-0.18302345 -0.027899917 1.273
-0.1718635 -0.02343593 1.273
-0.1679575 -0.02343593 1.273
-0.055267587 -0.024565626 1.2736249
-0.041291878 -0.027899917 1.273
-0.037943885 -0.027899917 1.273
-0.11048367 -0.014507957 1.273
-0.10429411 -0.01378003 1.2746667
-0.095839724 -0.014806132 1.2748749
-0.084980115 -0.013974067 1.2755001
-0.079235762 -0.01004397 1.273
-0.061379816 -0.01004397 1.273
-0.056719564 -0.015365227 1.2748749
-0.074552849 -0.0047783111 1.2761817
-0.065795004 -0.006093028 1.2768888
-0.34326059 -0.16485542 1.2880001
-0.33808869 -0.16228372 1.2855
-0.3330141 -0.15382607 1.2855
-0.32480872 -0.14410669 1.28425
-0.32118216 -0.13748631 1.2855
-0.31701508 -0.13318247 1.2838334
-0.31453586 -0.12752281 1.2872858
-0.30633304 -0.12313193 1.2846667
-0.30215138 -0.11666171 1.2870001
-0.29582077 -0.11308236 1.2844286
-0.29131985 -0.10839808 1.2880001
-0.28410715 -0.1052142 1.2850001
-0.27669179 -0.10010394 1.2830001
-0.27408081 -0.09522704 1.2865715
-0.26881844 -0.091105826 1.2830001
-0.27212435 -0.08694429 1.2880001
-0.26724187 -0.085044004 1.284875
-0.26341957 -0.077158764 1.2830001
-0.25540471 -0.074002571 1.284765
-0.24616306 -0.072300561 1.283625
-0.25447616 -0.068788819 1.2863334
-0.24441825 -0.066840857 1.2874446
-0.23745717 -0.064788669 1.2837143
-0.23413227 -0.055926122 1.2865295
-0.22776458 -0.052301496 1.2830001
-0.04724006 -0.030368609 1.2830001
-0.051634789 -0.024289051 1.2844286
-0.046238031 -0.028192138 1.2863334
-0.1012287 -0.01012287 1.2830001
-0.093768939 -0.011890035 1.2852223
-0.087075293 -0.011747834 1.2851429
-0.055283476 -0.014217605 1.2870001
-0.083127141 -0.0056406199 1.2871667
-0.076708861 -0.0024744791 1.2830001
-0.064111516 -0.0024102069 1.2830001
-0.058686588 -0.0045127515 1.2873751
-0.08016941 0.0022582933 1.2880001
-0.074240878 0.0042898804 1.2870003
-0.065394633 0.0045127505 1.2861252
-0.058038145 0.0049682455 1.2880001
-0.071136236 0.01016232 1.2880001
-0.065365046 0.011667849 1.2880001
-0.057210092 0.010915085 1.2880001
-0.34442654 -0.16284916 1.2945001
-0.33717912 -0.15507725 1.2950001
-0.33137256 -0.14639062 1.2945001
-0.32851419 -0.14402962 1.2936667
-0.32479525 -0.13436696 1.2945
-0.32272515 -0.12444771 1.2955714
-0.31615505 -0.12367401 1.2942727
-0.30921435 -0.12119391 1.2920001
-0.32178137 -0.11938885 1.2970001
-0.31470644 -0.11623042 1.2970003
-0.30565459 -0.11439799 1.2919999
-0.29788783 -0.11213268 1.2920001
-0.31041101 -0.10688144 1.2970001
-0.30516249 -0.10603223 1.2950001
-0.29519099 -0.10590208 1.2946923
-0.28768751 -0.1024464 1.2936667
-0.30699992 -0.098922193 1.2970001
-0.28426826 -0.095890507 1.296
-0.2778776 -0.094010226 1.2919999
-0.2819851 -0.088688865 1.2970001
-0.27690437 -0.088517912 1.2945001
-0.25299811 -0.065961525 1.2941428
-0.24529298 -0.062668413 1.293875
-0.046530835 -0.024395879 1.2945
-0.037522208 -0.025014807 1.2970001
-0.10646942 -0.011326533 1.2920001
-0.052958701 -0.013994961 1.2945
-0.034869123 -0.012507402 1.2970001
-0.10260265 -0.0073677255 1.2932501
-0.094507597 -0.0071807764 1.2936667
-0.086930886 -0.0038567199 1.2945
-0.054470364 -0.0045393799 1.2945
-0.037522208 -0.0079592569 1.2970001
-0.081969559 0.0047650337 1.2950001
-0.078153081 0.0079285735 1.2920001
-0.054024141 0.003776242 1.2928333
-0.080729604 0.01023333 1.2970001
-0.074578911 0.012895369 1.2942727
-0.064617909 0.017166946 1.2930714
-0.057254881 0.015875775 1.2932501
-0.064811088 0.021603696 1.2970001
-0.35207692 -0.16440189 1.3053335
-0.34673861 -0.16135226 1.3053334
-0.35328937 -0.15773892 1.307
-0.34484449 -0.15653738 1.3057501
-0.33900174 -0.15180886 1.302
-0.33474654 -0.14528909 1.3050001
-0.33113715 -0.13176738 1.307
-0.32987037 -0.13582899 1.302
-0.33113715 -0.12832996 1.307
-0.32758754 -0.12669761 1.302
-0.31617334 -0.11528342 1.302
-0.30133486 -0.1027278 1.302
-0.2967692 -0.10158638 1.302
-0.30350146 -0.097522736 1.3053335
-0.29438475 -0.096853912 1.3049167
-0.28852978 -0.092207983 1.3050001
-0.25339526 -0.061636679 1.302
-0.24882956 -0.060495261 1.302
-0.043373957 -0.0228284 1.302
-0.039188754 -0.023208873 1.302
-0.13240471 -0.01826272 1.302
-0.12630609 -0.016000152 1.3038751
-0.0513639 -0.012555619 1.302
-0.045656804 -0.01483846 1.302
-0.038289454 -0.015461052 1.302
-0.11114293 -0.0068748202 1.307
-0.10548439 -0.004118755 1.3050001
-0.095775515 -0.0028016677 1.302
-0.051511835 -0.0045755426 1.3057501
-0.046352949 -0.0059373449 1.307
-0.1019765 0.0011458034 1.307
-0.094199039 0.0020046078 1.306375
-0.086027801 0.0044088815 1.3034286
-0.082420036 0.012591782 1.30575
-0.076302111 0.018004213 1.3038751
-0.055929583 0.0171213 1.302
-0.073414944 0.024038076 1.3055714
-0.065107606 0.025734344 1.3028823
-0.057389982 0.02501894 1.3055714
-0.064875275 0.033965379 1.3058888
-0.057672102 0.033610232 1.307
-0.35425749 -0.16217633 1.312
-0.35269931 -0.1541968 1.3126251
-0.34730473 -0.15348858 1.3142225
-0.35372028 -0.1479028 1.316
-0.34361047 -0.14684835 1.3163751
-0.33819962 -0.14471984 1.3136667
-0.34059814 -0.13623926 1.317
-0.33601505 -0.13578503 1.3126252
-0.33634743 -0.12832795 1.3120002
-0.3007738 -0.093165122 1.312
-0.29651815 -0.092244968 1.312
-0.13194403 -0.013249064 1.3145001
-0.12498695 -0.011118472 1.3120002
-0.1246378 -0.0076017519 1.314
-0.11523783 -0.0046073222 1.3145001
-0.10811755 -0.0011501866 1.312
-0.042883616 -0.0029422881 1.3142223
-0.038100809 -0.00115457 1.317
