# .PCD v0.7 - Point Cloud Data file format
VERSION 0.7
FIELDS x y z normal_x normal_y normal_z
SIZE 4 4 4 4 4 4
TYPE F F F F F F
COUNT 1 1 1 1 1 1
WIDTH 206
HEIGHT 1
VIEWPOINT 0 0 0 1 0 0 0
POINTS 206
DATA ascii
-0.22534709 -0.014964613 1.0040998 0.1523330212 0.17337358 0.9730037451
-0.078313217 -0.091311269 1.1120001 0.03643264994 0.07037528604 0.9968550205
-0.10897712 0.044819146 1.0025001 -0.2799108624 0.02782060765 0.9596228004
-0.1997748 -0.046393201 1.08 -0.6360992789 0.770709753 -0.03720416874
-0.05917193 -0.013579128 1.1065 0.6231945753 -0.08410160989 0.7775316238
-0.1811544 0.040544081 0.98400003 -0.02804648131 -0.2382411808 0.9708009958
-0.21610619 -0.073523365 1.0257143 -0.2376175076 0.3536009192 0.9047122598
-0.1311847 -0.11667731 1.103 -0.07999302447 -0.01762521267 0.9966396093
-0.14301525 0.0079945624 0.99309087 -0.3976217806 0.07866179943 0.9141713381
-0.18834218 -0.00430005 0.98100007 0.2105347067 -0.0005111623323 0.9775862694
-0.064857863 -0.055177435 1.1041998 0.5040364265 0.02040408738 0.8634413481
-0.14392588 0.051154375 0.98900002 -0.2384562343 -0.1296013296 0.9624666572
-0.24427553 -0.045147739 1.0144402 0.1503026634 0.3538057208 0.9231633544
-0.21068667 0.021675583 0.98900002 0.4653559029 -0.1270972788 0.8759509921
-0.19412427 -0.055856381 1.0445 -0.9471789002 0.2924776673 0.1315636635
-0.25500479 -0.0079688998 1.0100001 0.1745205224 0.06670600921 0.982391417
-0.20579837 -0.044903591 1.0180693 -0.2682693005 0.4020061493 0.8754556775
-0.11093831 -0.095730588 1.1120001 -0.07999302447 -0.01762521267 0.9966396093
-0.1259205 0.025262805 1.0013334 -0.3564908206 0.05278607458 0.9328064919
-0.16554455 0.01565362 0.98448634 -0.2337711304 -0.09400748461 0.9677363634
-0.23010221 0.0096240463 0.99800003 0.4117876887 0.1641378999 0.8963758349
-0.057099778 -0.035669226 1.0946666 0.6231945753 -0.08410160989 0.7775316238
-0.19530916 -0.064371392 1.0245553 -0.4577925205 0.4069313109 0.7904637456
-0.22482337 -0.05531767 1.0176672 -0.02682348527 0.3253383636 0.9452171326
-0.08175344 -0.066714667 1.1068749 0.2701595724 -0.01497011539 0.9626991749
-0.073574252 -0.044144548 1.1190001 0.5772010088 -0.06468025595 0.8140364885
-0.24453653 -0.024881981 1.0070001 0.09444284439 0.1158468053 0.9887669683
-0.15501566 0.034593184 0.98636657 -0.2006236911 -0.1296290606 0.9710543156
-0.18511252 0.016351262 0.98163164 0.006275159772 -0.1270146072 0.9918810129
-0.20768331 -0.027251668 1.0100001 -0.1192796677 0.3381566405 0.9335001111
-0.22649089 -0.037440442 1.0102729 0.0367041938 0.354005605 0.9345228076
-0.12888387 0.043195996 0.9974001 -0.2893286645 0.01677241735 0.9570828676
-0.10820872 -0.11405784 1.1120001 -0.07999302447 -0.01762521267 0.9966396093
-0.2051385 0.0051809628 0.98396891 0.469142586 0.01441187132 0.8830048442
-0.095486298 -0.10285205 1.1061332 -0.04252757132 0.0278351102 0.9987074733
-0.21607515 -0.0016237118 0.99671441 0.546720922 0.2812139988 0.7886791825
-0.093168125 -0.082026944 1.1120001 -0.02525901981 0.08017385751 0.9964607954
-0.16757759 -0.0016012944 0.98314297 -0.2070556283 -0.002605762333 0.9783257246
-0.14080477 0.024745591 0.99199998 -0.4086063206 0.0114753861 0.9126386046
-0.24159384 0.0014713388 1.0070001 0.2542769611 0.09126879275 0.9628152847
-0.066940144 -0.073392846 1.1039166 0.2701595724 -0.01497011539 0.9626991749
-0.1950682 0.03238412 0.98276472 0.1511572897 -0.2224011421 0.9631662369
-0.16286977 0.046163954 0.99350005 -0.1747936606 -0.2041729838 0.963203311
-0.23097675 -0.072213836 1.0220001 -0.08015365154 0.4015717804 0.9123132825
-0.20993099 -0.061639309 1.0190001 -0.3064336181 0.384560138 0.8707536459
-0.12380637 -0.1023596 1.1120001 -0.07999302447 -0.01762521267 0.9966396093
-0.15546089 0.00604602 0.98519981 -0.3351095617 0.007918440737 0.942145884
-0.20688033 -0.015743738 1.0026364 0.4352784753 0.374446094 0.8187324405
-0.17482732 0.025346216 0.98388457 -0.119205527 -0.1602947265 0.9798446894
-0.06042162 -0.018222393 1.0940001 0.6231945753 -0.08410160989 0.7775316238
-0.13426413 0.014918237 1.001 -0.4168540537 0.02384265326 0.9086606503
-0.070908308 -0.037882522 1.108 0.6231945753 -0.08410160989 0.7775316238
-0.11706354 0.037856225 0.9958182 -0.3042131662 0.02840944752 0.9521802664
-0.20472051 -0.069595933 1.031 -0.3824034929 0.3987754285 0.8335140944
-0.1784303 0.0063827178 0.9780001 -0.01989364065 -0.1127771959 0.9934211373
-0.24321686 -0.055066679 1.0220002 0.09745886177 0.3731125891 0.9226531386
-0.25300318 -0.033608958 1.0050714 0.1370510459 0.285585016 0.9485031366
-0.19754456 -0.01121432 0.98400003 0.423045367 0.323184967 0.8465129137
-0.21628679 -0.042374559 1.0070001 -0.1148143783 0.3547846079 0.9278715253
-0.19432631 -0.055134442 1.031 -0.453999877 0.420766741 0.7853912711
-0.13959076 0.035547957 0.98900002 -0.3251672685 -0.03135136142 0.9451366663
-0.10199139 -0.087744981 1.108 -0.04511738569 0.02978625521 0.9985375404
-0.058105648 -0.047681373 1.1010001 0.6231945753 -0.08410160989 0.7775316238
-0.19496845 0.015549876 0.98532343 0.2665513158 -0.1490849853 0.9522206187
-0.11512096 -0.10548869 1.1070768 -0.07999302447 -0.01762521267 0.9966396093
-0.14702915 0.0163933 0.98850012 -0.3778442442 0.02859261446 0.925427556
-0.24497989 -0.014676306 1.0066667 0.1494727582 0.04839443043 0.9875808358
-0.19790436 -0.048612796 1.024143 -0.449993372 0.3882578313 0.804215014
-0.15317273 0.05134834 0.99275005 -0.221102491 -0.1818626523 0.9581438899
-0.21498896 0.013315017 0.99223071 0.5738630891 0.04510161653 0.8177083731
-0.23514734 -0.01497147 1.0045999 0.1494433433 0.06969351321 0.9863110781
-0.084877186 -0.084784672 1.1079999 0.03817417473 0.0705986619 0.9967740774
-0.15492024 0.024997644 0.9859615 -0.2424785942 -0.09083387256 0.9658951163
-0.1754771 -0.0031437268 0.9780001 -0.08128798008 -0.07427280396 0.9939194322
-0.16452539 0.034738015 0.98700005 -0.1397358328 -0.1723916233 0.9750666618
-0.23503941 -0.024647024 1.0064 0.08695686609 0.1887467355 0.9781682491
-0.22512546 -0.024445256 1.0042647 0.05717858672 0.2211832106 0.9735546112
-0.22519322 -0.0055692503 1.002818 0.243760556 0.2167572677 0.9453026652
-0.23484565 -0.045277476 1.0153794 0.1106228605 0.3891688883 0.9144999385
-0.17573424 0.0152509 0.98196441 -0.09037123621 -0.1280719489 0.9876388907
-0.24436085 -0.036236245 1.0114002 0.1438163966 0.3450650871 0.9274950027
-0.074417114 -0.083885431 1.1078124 0.08369637281 0.06771548092 0.9941878915
-0.20319906 -0.00171476 0.97800004 0.3934203684 0.08606240898 0.9153216481
-0.16469505 0.024923686 0.98456222 -0.1784518212 -0.1566247344 0.9714029431
-0.10492489 -0.10649629 1.1077142 -0.07999302447 -0.01762521267 0.9966396093
-0.23542881 -0.0052885804 1.0057999 0.2442055941 0.1224782169 0.9619577527
-0.174758 0.034609161 0.98686099 -0.09363853931 -0.2135058939 0.9724438787
-0.20364204 -0.055783775 1.0221877 -0.4240689874 0.4213997126 0.801615715
-0.065108769 -0.064518817 1.102739 0.4003589749 0.002184256911 0.9163557887
-0.23226409 -0.063723736 1.0190001 -0.02891142666 0.4061448574 0.9133512378
-0.085206367 -0.094113156 1.1067725 0.02440553717 0.06591116637 0.9975270033
-0.1961991 0.0058901049 0.98299998 0.3019669652 -0.09703703225 0.9483668804
-0.21511616 -0.024688099 1.0056667 -0.0365928039 0.3216300309 0.9461580515
-0.15535162 0.015426302 0.98528552 -0.3138298392 -0.009384080768 0.9494328499
-0.071901672 -0.046674713 1.1066666 0.6231945753 -0.08410160989 0.7775316238
-0.21604435 -0.0074021099 1.0034705 0.4456451237 0.2919391394 0.8462694287
-0.23494405 -0.054774817 1.0190002 0.08994244039 0.3687950075 0.9251489639
-0.073582411 -0.055734597 1.1051576 0.399733752 0.03429705277 0.9159894586
-0.25413427 -0.024950605 1.0059412 0.09893745929 0.1452699602 0.9844328165
-0.2348752 -0.03587728 1.011969 0.1201854348 0.362765044 0.9240979552
-0.2257349 0.004184471 1.0031599 0.3466014266 0.2304321229 0.9092680812
-0.25256988 -0.017044591 1.0100001 0.09160181135 0.06574819237 0.9936227798
-0.18512271 0.02489352 0.98217398 0.06708433479 -0.1707438827 0.9830291271
-0.15045002 0.039134398 0.99200004 -0.2340471596 -0.1525703669 0.9601792693
-0.084267445 -0.074889608 1.1069998 0.1896696687 -0.04637466744 0.9807521701
-0.1159144 -0.11397202 1.1076249 -0.07999302447 -0.01762521267 0.9966396093
-0.10150573 -0.097134665 1.108 -0.07283129543 0.01657641307 0.9972065091
-0.12297083 -0.10747714 1.1045001 -0.07999302447 -0.01762521267 0.9966396093
-0.20482364 0.01561923 0.98796779 0.4154853225 -0.09955277294 0.9041355848
-0.20710005 -0.035541415 1.0113751 -0.1588161737 0.35622859 0.9208032489
-0.17362309 0.042833518 0.98764724 -0.1044257209 -0.2180136591 0.9703428745
-0.22458136 -0.045390915 1.0118753 0.03052509204 0.3871913254 0.9214939475
-0.21484689 -0.05527515 1.0169003 -0.2176425308 0.4021095335 0.8893478513
-0.22262689 0.012344844 0.99585718 0.5497019291 0.1035086885 0.8289232254
-0.074682191 -0.074682385 1.1063198 0.2128826529 -0.05247988924 0.9756673574
-0.1343592 0.034899294 0.99525017 -0.3112625778 -0.0001627376623 0.9503239393
-0.057525109 -0.024653621 1.09 0.6231945753 -0.08410160989 0.7775316238
-0.093912229 -0.094554536 1.1068888 -0.01864856482 0.03364127129 0.9992599487
-0.22396037 -0.068214506 1.0223336 -0.0855152905 0.4110530615 0.9075915813
-0.23562366 0.0058045075 1.0100001 0.2879080474 0.1449285299 0.9466280341
-0.12108959 -0.099777818 1.105 -0.08245277405 0.0110728899 0.9965334535
-0.12730791 0.016616967 0.99757147 -0.3934938312 0.06043925881 0.9173383713
-0.21204472 -0.076170675 1.0319 -0.3115971386 0.3048481047 0.8999860287
-0.21247059 0.0070284316 0.98833328 0.5532520413 0.1534903347 0.8187507987
-0.12582844 0.03603052 0.99799991 -0.3042131662 0.02840944752 0.9521802664
-0.24531801 -0.0052938247 1.0065833 0.1952872276 0.04148815945 0.9798681736
-0.19646451 -0.071195856 1.028 -0.4088134468 0.4170723557 0.8117402196
-0.2149137 -0.015024192 1.0039998 0.3396658599 0.3073341548 0.8889166713
-0.066115513 -0.03586949 1.1023529 0.6231945753 -0.08410160989 0.7775316238
-0.20460048 0.024581777 0.98549998 0.3685749471 -0.1682037413 0.9142537713
-0.1362787 0.0087359827 0.99650007 -0.3871518075 0.08415068686 0.9181678295
-0.074608222 -0.064918101 1.1052397 0.3931980431 -0.0342647545 0.918815136
-0.15808725 0.042484146 0.98900002 -0.1823371947 -0.1936702728 0.9639735222
-0.1445981 0.045432404 0.99380022 -0.2608021796 -0.1454636604 0.9543702602
-0.20511684 -0.064044513 1.0260644 -0.4088134468 0.4170723557 0.8117402196
-0.19481996 0.02499526 0.98330003 0.2075601965 -0.1998815536 0.957583487
-0.13442755 0.024443587 0.99575001 -0.3737541139 0.04742264003 0.9263147116
-0.064941712 -0.045602739 1.1028332 0.6231945753 -0.08410160989 0.7775316238
-0.1923389 0.0022863469 0.9780001 0.1551873386 -0.1529248059 0.9759768844
-0.21553013 -0.035186011 1.0070001 -0.1084186062 0.3503666818 0.9303163886
-0.20213325 0.031032026 0.98325002 0.3306525052 -0.2552942932 0.9085668325
-0.21444598 -0.066898093 1.0235001 -0.2292491496 0.3653168082 0.9022130966
-0.16562688 0.005175841 0.98399991 -0.1823291928 -0.08966431767 0.9791406393
-0.23906699 -0.0292193 1.01 0.1158933267 0.2170601785 0.9692541361
-0.060587309 -0.041353244 1.097 0.6231945753 -0.08410160989 0.7775316238
-0.18456039 0.034397312 0.98442841 0.03675394878 -0.2363954931 0.9709615707
-0.14633526 0.025108889 0.98772019 -0.3730236888 -0.0249741897 0.9274856448
-0.21724291 0.0050559123 0.99519992 0.5372366309 0.1956692636 0.8204208612
-0.11321612 0.043563198 0.99671429 -0.2799108624 0.02782060765 0.9596228004
-0.23217727 -0.030898117 1.0070001 0.05391698703 0.2140241265 0.9753392339
-0.12461074 -0.11494856 1.1018695 -0.07999302447 -0.01762521267 0.9966396093
-0.20333239 -0.047822069 1.0743334 -0.6360992789 0.770709753 -0.03720416874
-0.14841865 0.0071726474 0.98900008 -0.3947164416 0.09879825264 0.9134756923
-0.13163149 0.048264883 1.001 -0.264960736 -0.003423266346 0.9642531276
-0.18497445 0.0051382896 0.97683346 0.04925338179 -0.1181751192 0.9917705059
-0.2054882 -0.043135345 1.0814375 -0.4544082284 0.8851513267 -0.1001012921
-0.11462434 -0.098721609 1.1062 -0.08245277405 0.0110728899 0.9965334535
-0.1447929 0.040750097 0.98900002 -0.3052959442 -0.1251059473 0.9440036416
-0.1350773 0.045105893 0.99616128 -0.277048409 -0.06690878421 0.9585235715
-0.22130047 -0.074961431 1.0220001 -0.1086565107 0.4084376395 0.9062960148
-0.19475548 -0.0043796073 0.98225015 0.3607558608 0.1342291087 0.9229505658
-0.19663282 -0.054949392 1.0246087 -0.453999877 0.420766741 0.7853912711
-0.11340794 -0.1017097 1.1120001 -0.07999302447 -0.01762521267 0.9966396093
-0.21397661 -0.046005819 1.0116959 -0.1670585126 0.3825557828 0.9087037444
-0.1424914 0.014293741 0.99358815 -0.3854919374 0.03063844703 0.9222024083
-0.094186611 -0.086418986 1.1075999 -0.02532039396 0.08032081276 0.9964473844
-0.078963116 -0.084812239 1.1120001 0.04530898109 0.06796296686 0.996658504
-0.14517203 0.034474365 0.9865427 -0.293966949 -0.1143890619 0.9489460588
-0.21600559 -0.062711298 1.0190001 -0.2011609375 0.3839262128 0.9011852741
-0.19921111 -0.045559488 1.0190001 -0.4440663755 0.3562904596 0.8221083879
-0.21161857 -0.039844498 1.01 -0.1588161737 0.35622859 0.9208032489
-0.10519552 -0.10218236 1.1120002 -0.07999302447 -0.01762521267 0.9966396093
-0.15469646 0.045533825 0.99354577 -0.221102491 -0.1818626523 0.9581438899
-0.090982802 -0.07803151 1.108 0.01621237583 0.09105674922 0.9957137108
-0.18434103 -0.0025699739 0.97694129 0.05957014859 -0.1600189954 0.985314846
-0.20765483 -0.053894941 1.01825 -0.3397986293 0.4104548395 0.8462054729
-0.10460176 -0.094073363 1.1120001 -0.07283129543 0.01657641307 0.9972065091
-0.21059549 -0.069595933 1.031 -0.3824034929 0.3987754285 0.8335140944
-0.22396976 -0.033430427 1.0068126 0.02017531916 0.3230159581 0.9461784363
-0.2239778 -0.0026247399 0.99800003 0.3854769766 0.2750608027 0.8807661533
-0.20812087 -0.022511484 1.0070001 0.06740466505 0.3717834353 0.9258691669
-0.16495098 0.043795284 0.98884016 -0.1574263424 -0.186706692 0.9697203636
-0.22520681 -0.06387262 1.0190003 -0.06310418993 0.4194376767 0.90558815
-0.20958646 0.014784107 0.99200004 0.5073151588 -0.03041746095 0.8612235785
-0.24703591 -0.018594099 1.01 0.09160181135 0.06574819237 0.9936227798
-0.11600754 -0.1169824 1.1120001 -0.07999302447 -0.01762521267 0.9966396093
-0.14806592 0.051387131 0.99350005 -0.2472649515 -0.1388739049 0.9589442611
-0.25136471 -0.023513176 1.0100001 0.09893745929 0.1452699602 0.9844328165
-0.0615476 -0.025280841 1.0930001 0.6231945753 -0.08410160989 0.7775316238
-0.24838875 -0.033626784 1.0070001 0.1482376158 0.2987220883 0.9427570105
-0.20577335 -0.074294165 1.0322001 -0.3824034929 0.3987754285 0.8335140944
-0.24526502 0.0024349417 1.0100001 0.2542769611 0.09126879275 0.9628152847
-0.17512473 0.004816188 0.98115015 -0.08128798008 -0.07427280396 0.9939194322
-0.212736 0.016631084 0.98900008 0.5073151588 -0.03041746095 0.8612235785
-0.12461115 0.018428409 1.001 -0.3564908206 0.05278607458 0.9328064919
-0.20338139 -0.045693621 1.0220001 -0.4311033487 0.359043479 0.8277908564
-0.19974938 -0.072307467 1.031 -0.4088134468 0.4170723557 0.8117402196
-0.25417084 -0.014295891 1.0067 0.1575584561 0.07027675956 0.9850058556
-0.24464297 -0.051940363 1.0190001 0.08911321312 0.3519825041 0.9317548871
-0.22449215 -0.073788509 1.0190003 -0.0855152905 0.4110530615 0.9075915813
-0.25195208 -0.006532745 1.0070001 0.2111766338 0.05265271291 0.9760287404
-0.23497283 0.0025012756 1.0070001 0.2879080474 0.1449285299 0.9466280341
-0.061267167 -0.035079814 1.0962501 0.6231945753 -0.08410160989 0.7775316238
-0.18402492 0.01395191 0.97800004 -0.00446827244 -0.1440428346 0.989561379
-0.10830515 -0.11219054 1.108 -0.07999302447 -0.01762521267 0.9966396093
-0.1004099 -0.088711649 1.1120001 -0.01864856482 0.03364127129 0.9992599487
