# .PCD v0.7 - Point Cloud Data file format
VERSION 0.7
FIELDS x y z normal_x normal_y normal_z
SIZE 4 4 4 4 4 4
TYPE F F F F F F
COUNT 1 1 1 1 1 1
WIDTH 206
HEIGHT 1
VIEWPOINT 0 0 0 1 0 0 0
POINTS 206
DATA ascii
0.091598369 0.06473849 0.82390904 0.7863380313 0.1033893824 0.6090838909
0.12179003 -0.040596679 0.90800005 0.1900083274 0.7739799619 0.6040296555
0.21845043 0.034569595 0.83900005 -0.7715443969 0.1341257095 0.6218758225
0.038110454 0.0078689596 0.88 -0.3028033674 0.342964828 0.8892048597
0.17340605 0.10388561 0.80524004 -0.3454423547 -0.4676364064 0.8136250973
0.15161745 0.00073961448 0.84366673 0.556191504 0.5507479906 0.622356534
0.14521095 0.048668902 0.79471445 -0.2215049714 0.6392892599 0.7363727093
0.11573507 0.11399363 0.80268425 0.3699833155 -0.2173089534 0.9032658339
0.043505754 0.052339163 0.86860013 0.5379508734 0.3193693757 0.7801359296
0.077912875 -0.028174562 0.9108572 -0.02708396129 0.5008972883 0.86508286
0.18457317 0.054823462 0.81626844 -0.3698094487 0.02731626667 0.9287059903
0.18427908 0.012165709 0.82205886 -0.3487020135 0.5322797298 0.7714176774
0.11504361 0.074739642 0.79443127 0.4949641526 -0.06600151956 0.8664030433
0.15517263 0.03496848 0.83100003 0.3448606133 0.1499566138 0.9265981913
0.14709687 0.088135004 0.79022223 -0.06791473925 -0.283947587 0.9564315677
0.17312761 0.075227201 0.79720014 -0.5887079239 0.1032797024 0.8017208576
0.10857815 0.048272949 0.80740005 0.6355298162 0.2655727565 0.7249641418
0.098120481 0.090985283 0.81400001 0.6957289577 -0.227852121 0.6812081933
0.14859413 0.11020138 0.81100005 -0.1249556318 -0.5959384441 0.793248713
0.19793151 0.03456562 0.82260001 -0.6885413527 0.1922898144 0.6992391348
0.051042162 0.028949287 0.86900002 0.2878533006 0.5720493793 0.7680494785
0.10881362 -0.0198565 0.90600002 0.2192780972 0.7317696214 0.645314157
0.17443964 -0.0078151328 0.84099996 0.05864915997 0.8254784346 0.5613783002
0.15972078 0.053717751 0.81700003 -0.4588194788 0.6433553696 0.612844646
0.19980198 0.019906471 0.84100002 -0.6985570192 0.4382102787 0.5656764507
0.099501669 -0.040596679 0.90800005 0.1686549932 0.6821844578 0.711463213
0.17490602 0.034839507 0.8146171 0.08828093112 0.07232890278 0.9934661388
0.13235044 0.098423272 0.80255562 0.2578800321 -0.4480955303 0.8559837937
0.19211185 0.070815384 0.82850003 -0.6499159336 0.08836904913 0.7548511028
0.12518129 0.054939725 0.79332143 0.2896309793 0.2484411895 0.9243326783
0.15524456 0.015084695 0.82428032 0.4107674956 0.3988541663 0.8198691607
0.15120344 0.068062298 0.78900003 -0.2386111319 0.1662887037 0.956772089
0.13228023 0.07168065 0.79000002 0.1686901599 0.04599928856 0.9845951796
0.14718795 0.0015104966 0.86100006 0.6101780534 0.5108729601 0.6055505872
0.098062992 0.074516989 0.80708009 0.7524937391 -0.01766542159 0.6583624482
0.16039932 -0.012682737 0.85100001 0.4328280985 0.6483833194 0.626305759
0.11511363 0.095102936 0.80412495 0.4541937709 -0.2993227839 0.839114964
0.16663153 0.059762366 0.80200005 -0.5027662516 0.6033165455 0.6190599799
0.13152105 0.11962818 0.79800004 0.09586331248 -0.561281383 0.8220544457
0.15471849 0.10234962 0.79608721 -0.162340641 -0.5758195519 0.801297307
0.16437675 0.0014574584 0.83150005 0.3708565533 0.6285470724 0.6836621761
0.21560653 0.045508642 0.85100001 -0.793744266 0.03308490291 0.6073511839
0.20034026 0.057136748 0.82500005 -0.6933013201 -0.120504044 0.7105012536
0.037000459 0.025607297 0.87507695 0.1702323258 0.5946793556 0.7857336998
0.088744089 0.080086127 0.82300001 0.7762836218 -0.06702180207 0.6268108487
0.094408855 -0.022954499 0.9104799 -0.02398823015 0.5018056631 0.8646476865
0.20496817 0.040260918 0.83500004 -0.7711858153 0.1257657111 0.624063611
0.050031368 0.016933694 0.87800002 -0.3028033674 0.342964828 0.8892048597
0.12390834 0.086100653 0.79140007 0.3810622096 -0.2854519486 0.8793797493
0.21217585 0.017439723 0.84855562 -0.7001410723 0.4695118666 0.5379229188
0.12228029 -0.026158078 0.91033334 0.1900083274 0.7739799619 0.6040296555
0.037710253 0.038472079 0.86900002 0.5379508734 0.3193693757 0.7801359296
0.10564403 0.11362398 0.81259996 0.4458851218 -0.1859646291 0.875559032
0.16496135 0.025005125 0.81673574 0.2236223072 0.1856279075 0.9568361044
0.18478069 0.025064483 0.81695229 -0.3386778235 0.3179360926 0.8855585456
0.16508326 0.085292034 0.79321748 -0.3867085874 -0.1652700752 0.907271862
0.11010933 0.063821331 0.80000001 0.6258927584 0.1337940544 0.7683472037
0.15811025 0.038032427 0.81855565 0.02916783281 0.3289826512 0.943885386
0.13955832 0.1006764 0.79200006 0.0249526985 -0.5236041546 0.8515961766
0.10499488 0.084889933 0.8036384 0.6275980473 -0.2794782519 0.7266447544
0.18087649 0.093621857 0.80699998 -0.7555151582 -0.2553545237 0.6033166051
0.135069 0.084283412 0.78608698 0.1609091908 -0.2099731565 0.9643751979
0.098916925 0.058874305 0.81566668 0.7704902291 0.191395238 0.6080400348
0.083613396 0.067550667 0.833 0.7769927382 0.06244953722 0.6264042854
0.19520801 0.045224246 0.81768185 -0.5034268498 -0.04572044685 0.8628273606
0.17508808 0.0055565909 0.82587802 0.1290210187 0.5848944783 0.8007821441
0.18085194 0.083167031 0.80166674 -0.6958022118 0.006959559396 0.7181997299
0.19936189 0.028480269 0.83300006 -0.7432863116 0.2436982542 0.623006165
0.20762019 0.033654943 0.84423816 -0.7594490647 0.1955821812 0.6204713583
0.11216673 0.10329798 0.81176919 0.4864401519 -0.2328706086 0.8421087861
0.048868906 0.040469564 0.87100005 0.5379508734 0.3193693757 0.7801359296
0.15381141 0.05624542 0.79413795 -0.3610048592 0.5313328505 0.7663947344
0.1313422 -0.032636546 0.90800005 0.1900083274 0.7739799619 0.6040296555
0.11695706 0.048652612 0.79799998 0.435562849 0.279658258 0.855614543
0.1747946 0.01657158 0.81766671 0.09999988228 0.3801057935 0.9195213914
0.099069469 0.047752909 0.81300002 0.7484748363 0.2465523481 0.6156275868
0.17664154 0.062486723 0.81575012 -0.4557685554 0.5672503114 0.6859315634
0.1594635 0.075316615 0.79000002 -0.3223472536 0.06173241884 0.944606483
0.12492377 0.10516186 0.80508184 0.2590398788 -0.3592149317 0.896584034
0.13528061 0.05480282 0.79134721 0.1434707195 0.2379618585 0.9606197476
0.15486827 0.004343926 0.83370006 0.5191003084 0.5951331258 0.6134749055
0.17437083 0.044931281 0.81349987 0.01239991002 0.219154492 0.9756113887
0.15538487 0.025088541 0.823596 0.404714644 0.2216128856 0.8871830702
0.12488084 0.065098479 0.79092091 0.3143553138 0.1533473432 0.9368379116
0.18533935 0.034840818 0.81543493 -0.2524976134 0.1129306853 0.9609847069
0.18596321 0.066378005 0.82218176 -0.3772153258 0.457420826 0.8052793145
0.16482913 0.044956204 0.81551993 -0.01348396018 0.4077322483 0.9130019546
0.18520747 0.045176052 0.81513047 -0.1673244238 -0.07062999904 0.9833686948
0.14479251 0.07513833 0.78801966 -0.05646995455 0.02694426104 0.9980406761
0.084980384 -0.03439375 0.9090001 -0.02708396129 0.5008972883 0.86508286
0.16769339 0.097223006 0.80138469 -0.3497718871 -0.4425438046 0.8257206678
0.19347431 0.026106739 0.82211119 -0.5960472226 0.3258705139 0.7338501811
0.14859375 -0.0030960103 0.85299999 0.556191504 0.5507479906 0.622356534
0.11448635 -0.034979682 0.9068892 0.1900083274 0.7739799619 0.6040296555
0.12495819 0.11411679 0.80168873 0.2699302435 -0.3884081244 0.8810657263
0.11650798 0.083815075 0.79648292 0.48844859 -0.3190570772 0.8121702671
0.16421118 -0.007857495 0.84407687 0.4328280985 0.6483833194 0.626305759
0.16396396 0.013378683 0.82185692 0.3288864791 0.4061767161 0.8525574207
0.12381808 0.074954979 0.79039168 0.3427885175 -0.02102893405 0.9391772151
0.17261425 0.066378742 0.80040008 -0.5524808764 0.4559895098 0.697738111
0.20567545 0.024581131 0.84568405 -0.7339291573 0.2927117646 0.6129174829
0.20964168 0.042224649 0.84500003 -0.7895944118 0.06539789587 0.610134244
0.037353732 0.016435646 0.8780002 -0.3028033674 0.342964828 0.8892048597
0.17506568 0.025009058 0.81508172 0.06517771631 0.167483747 0.983717978
0.14078653 0.11107279 0.80700004 0.02418153919 -0.5670912266 0.8232999444
0.15575607 0.086791553 0.79064286 -0.2570458651 -0.1740173548 0.9506026506
0.1647741 0.065446764 0.79565865 -0.516336143 0.4047879875 0.75468117
0.10471715 0.075203367 0.80171424 0.6875382066 -0.05969403312 0.7236904502
0.15500951 0.11395381 0.81482631 -0.1870515198 -0.5777205229 0.7945128679
0.11437729 -0.025693785 0.90750045 0.1900083274 0.7739799619 0.6040296555
0.10767333 0.091699712 0.80728579 0.6034167409 -0.2605901957 0.7536451221
0.11184627 0.054023616 0.80140007 0.553468287 0.2278131843 0.8011080027
0.089391068 0.058867291 0.82900006 0.7755818367 0.1214805618 0.6194475293
0.17226635 0.083202958 0.79753852 -0.4291593432 -0.09009207785 0.8987244964
0.094311424 0.074944682 0.81414294 0.7850677967 -0.003851871006 0.6193978786
0.13792297 0.091164745 0.78900003 0.1550100893 -0.428984195 0.8899126053
0.13698895 0.065335743 0.78893304 0.07495058328 0.1542777717 0.9851805568
0.045144372 0.025247844 0.87287748 0.1828520596 0.6095184684 0.7713963985
0.10495175 -0.034983825 0.90694469 0.2192780972 0.7317696214 0.645314157
0.18929249 0.059018955 0.82100004 -0.5400617123 0.07306637615 0.8384477496
0.15827252 0.044827472 0.82249999 -0.120904319 0.4005181789 0.908277154
0.14534709 0.095479898 0.79214656 0.003014953807 -0.5415155292 0.8406853676
0.13399217 0.11409368 0.80286837 0.09006538987 -0.5608839393 0.8229808211
0.092275016 -0.038558722 0.91000003 -0.02708396129 0.5008972883 0.86508286
0.11853994 0.091800451 0.79799998 0.4667319059 -0.3800017238 0.7985987663
0.16457255 0.034850456 0.81575471 0.2296942472 0.1068380177 0.9673811197
0.17505741 0.055018183 0.81504089 -0.3318835497 0.422927767 0.8431994915
0.15513164 0.10804851 0.80765009 -0.1951178461 -0.6030991673 0.7734341621
0.21328732 0.024542285 0.84547061 -0.7549244165 0.2426159978 0.6092836857
0.19462082 0.064705826 0.8247841 -0.6758942008 0.02680813707 0.7365109324
0.1537915 -0.0082064765 0.85099995 0.4833018482 0.6184812188 0.619596839
0.086876787 0.073952973 0.81900007 0.7829986811 0.005044264719 0.6220028996
0.043902732 0.044969708 0.86705428 0.5379508734 0.3193693757 0.7801359296
0.16613087 0.10471451 0.80345708 -0.3193285167 -0.5228073001 0.7903807759
0.16160297 0.10003994 0.79800004 -0.2891987264 -0.5136016011 0.8078226447
0.086896978 -0.027156841 0.90899998 -0.02708396129 0.5008972883 0.86508286
0.16523917 0.0062884651 0.82587188 0.2721398473 0.5491354465 0.7901836634
0.15736495 0.0082464842 0.82790911 0.4200586379 0.5335570574 0.7340760231
0.1747891 0.095229924 0.8031249 -0.3601542711 -0.4111759067 0.8373907804
0.15504973 0.095381744 0.79367995 -0.1918287426 -0.4741170406 0.859310627
0.099167652 0.067292936 0.80800009 0.7582592964 0.106431812 0.6432068944
0.15794048 -0.001468855 0.83700007 0.4833018482 0.6184812188 0.619596839
0.16422921 0.093545042 0.7958464 -0.3538403511 -0.3485739529 0.8679246306
0.045002226 0.012012837 0.88 -0.3028033674 0.342964828 0.8892048597
0.14694041 0.062378887 0.79062498 -0.1559892148 0.1785129756 0.9714939594
0.13490939 0.10499229 0.80439234 0.06664377451 -0.5396515131 0.8392465711
0.1733194 -0.0032864709 0.83543479 0.3234329522 0.6365250349 0.7001621723
0.10491223 -0.025074929 0.90891314 0.1922503263 0.7270790339 0.6590871811
0.098736048 0.081492886 0.8083334 0.7149981856 -0.1763908118 0.6765086055
0.10488027 0.093161859 0.8138572 0.6387764812 -0.2467041463 0.7287672758
0.045763694 0.034106426 0.87100023 0.5379508734 0.3193693757 0.7801359296
0.11499944 0.06481906 0.79506123 0.4652616382 0.1103163064 0.8782721162
0.10630957 0.055505253 0.80540466 0.6985194683 0.1973154098 0.6878497005
0.1918001 0.052975215 0.81880009 -0.4354754984 -0.06533956528 0.8978261352
0.10443497 0.065060996 0.80370897 0.7025492787 0.1154047921 0.7022152543
0.14498599 0.10622206 0.80458605 -0.1158875674 -0.5539305806 0.824458003
0.095854625 0.06483078 0.81423527 0.7835049629 0.1328644305 0.6070148945
0.11123994 0.096534729 0.81166673 0.5119823813 -0.2709353864 0.8151490688
0.10880949 0.11244589 0.80671442 0.4389504492 -0.2373399138 0.8665980697
0.12566093 0.097407877 0.80234796 0.3359176219 -0.4074304402 0.8492112756
0.15706973 0.033060282 0.82300001 0.3448606133 0.1499566138 0.9265981913
0.096370563 0.084721044 0.81566685 0.7564336658 -0.1904261261 0.6257363558
0.078009307 -0.034228574 0.90800005 -0.02708396129 0.5008972883 0.86508286
0.14512064 0.054968681 0.79250002 -0.1392739713 0.3779045939 0.9153091908
0.10195435 0.053808551 0.81268412 0.7348265052 0.2163049728 0.6428391337
0.17541346 0.011674104 0.82206666 0.113052927 0.4537905455 0.8839079142
0.16245978 0.059265587 0.79533339 -0.5063877702 0.4385291636 0.7424712777
0.088552102 -0.019944167 0.91000003 -0.02398823015 0.5018056631 0.8646476865
0.11010933 0.078549333 0.80000001 0.5940954685 -0.1959053874 0.7801741362
0.16565411 -0.0031804489 0.83596313 0.4093057215 0.6448848248 0.645439744
0.11583509 0.10576602 0.80695343 0.4307123125 -0.2520757616 0.8665706515
0.12446509 0.092324398 0.79540002 0.3943705261 -0.4163024426 0.8192461133
0.14475673 0.10150288 0.79575002 -0.06703282148 -0.5536836982 0.8300247192
0.12485761 -0.03492751 0.90800059 0.1900083274 0.7739799619 0.6040296555
0.18539277 0.072011076 0.8251819 -0.5022124052 0.3703586757 0.7814199328
0.16505395 0.074668907 0.79302043 -0.3810440004 0.01633117907 0.9244126678
0.095120966 0.059811458 0.82200003 0.7798534632 0.143460393 0.609300971
0.17459954 0.00097134663 0.83100003 0.2402251512 0.6228023767 0.7445865273
0.14944054 0.023103235 0.82350004 0.530847609 0.2552804351 0.8081043959
0.11633351 0.055870172 0.79745966 0.4998242557 0.2166321725 0.8385977745
0.13542864 0.094834514 0.79335153 0.1802312583 -0.4853704572 0.8555303812
0.036475796 0.044362541 0.86751854 0.5379508734 0.3193693757 0.7801359296
0.19360079 0.035992939 0.81841677 -0.5371359587 0.1473869532 0.8305191398
0.21466129 0.034737751 0.84388357 -0.7715443969 0.1341257095 0.6218758225
0.11242007 0.086036079 0.80047995 0.5650635362 -0.3028959632 0.7674354911
0.12446102 0.048876189 0.79384619 0.3372855484 0.3086644709 0.8893619776
0.15066744 0.049296718 0.79200006 -0.3281054199 0.5854257345 0.7413660288
0.18307091 0.062848009 0.81812513 -0.3753989041 0.4774251878 0.7944437265
0.16609573 0.017445374 0.81783348 0.233050704 0.3282664418 0.9153843522
0.1549875 -0.0047319708 0.84614301 0.4833018482 0.6184812188 0.619596839
0.12522481 0.1189286 0.79799998 0.1918652356 -0.4646322727 0.8644677997
0.16561224 0.054572783 0.81583726 -0.3089079857 0.6337897778 0.7091447711
0.20060639 0.0429358 0.81900007 -0.6465142965 0.03789628297 0.7619600296
0.11548539 -0.040824961 0.90600002 0.1900083274 0.7739799619 0.6040296555
0.13256691 0.088917084 0.79033333 0.2399757802 -0.4116674364 0.8791709542
0.15536249 0.064541861 0.79130453 -0.2452494502 0.1690355688 0.9546096921
0.13655193 0.04937971 0.79333335 0.1564950943 0.2794101238 0.9473327398
0.18267334 0.0069136848 0.824238 -0.2941682041 0.595960021 0.7471925616
0.1083709 0.10780002 0.81220007 0.4992235899 -0.2019843012 0.8426020145
0.16050276 0.026150674 0.82100004 0.326814115 0.1994496882 0.9238032103
0.051183127 0.023680344 0.87140006 0.1828520596 0.6095184684 0.7713963985
0.18503967 0.016867692 0.81878597 -0.3411129117 0.4450495243 0.8279932737
0.18097305 0.077503845 0.8005715 -0.7198432684 0.07204800099 0.6903874278
0.11291423 0.048542786 0.80250007 0.5486361384 0.237248987 0.8016927838
0.095763177 -0.027765205 0.90777779 -0.02398823015 0.5018056631 0.8646476865
0.095821992 -0.034706436 0.90787923 0.1394160241 0.6681408286 0.730856359
