# .PCD v0.7 - Point Cloud Data file format
VERSION 0.7
FIELDS x y z normal_x normal_y normal_z
SIZE 4 4 4 4 4 4
TYPE F F F F F F
COUNT 1 1 1 1 1 1
WIDTH 206
HEIGHT 1
VIEWPOINT 0 0 0 1 0 0 0
POINTS 206
DATA ascii
0.1850076 -0.024322366 0.93090022 -0.2277093977 0.1944784373 0.9541103244
0.098532356 -0.11088752 1.057 0.2508688867 0.6847264767 0.6842619777
0.063868672 -0.017498266 0.99800003 0.5146475434 0.3006349504 0.80296731
0.18071398 -0.10383661 0.99199998 0.473746866 0.6788006425 0.5610646605
0.24147375 -0.065803766 0.99200004 -0.6834058166 0.2875920832 0.671004653
0.1454127 0.018708067 0.97000003 0.6975352764 -0.4165878594 0.5830087066
0.20123753 0.02367745 0.96450007 -0.3223438263 -0.5883910656 0.7415459752
0.13561206 -0.033730011 0.95395845 0.7321022749 0.1926942021 0.6533721685
0.15103303 -0.12362957 1.0656667 0.3993362486 0.7264214754 0.559323132
0.19621192 -0.06589976 0.95899975 0.08242785931 0.1834273338 0.9795713425
0.22295474 -0.029670782 0.96700007 -0.532478869 0.3304930031 0.7792564631
0.062492743 -0.053981192 1.0220002 -0.4813491106 0.3461727202 0.8052747846
0.15527144 0.00082156184 0.93714285 0.3356299102 -0.4563906193 0.8240510821
0.21425071 -0.0054978584 0.94410717 -0.561280489 -0.1748811603 0.808938086
0.17490736 0.024885565 0.94171435 -0.1545127779 -0.5419880152 0.8260598183
0.20302151 -0.094130374 0.97284228 -0.1918042898 0.7210816145 0.6657720208
0.13071977 -0.0059034731 0.96200007 0.8695604801 -0.2548521757 0.4229834378
0.1310266 -0.1031486 1.0600001 0.3993362486 0.7264214754 0.559323132
0.15706186 -0.041115668 0.93800002 0.334742099 0.4325879514 0.8371471763
0.19675556 -0.039184369 0.95100003 -0.3574537337 0.6592047811 0.6615707874
0.22227518 -0.061288502 0.96650004 -0.5570970774 0.2090877891 0.8036946654
0.17448585 -0.077113971 0.97090006 0.488560617 0.4428399205 0.7517986894
0.18568923 0.0024639487 0.93600005 -0.1476002634 -0.4766939878 0.8665893078
0.16713037 -0.087085083 1.0034001 0.6283022165 0.5282350779 0.5711427331
0.22710007 -0.084520623 0.99390912 -0.5896807909 0.5449371338 0.5960873365
0.1199017 -0.027211733 0.97000003 0.7878724337 0.08923887461 0.6093385816
0.099712946 -0.088530183 1.0630001 0.2508688867 0.6847264767 0.6842619777
0.071199067 -0.036636487 1.011 0.3218275011 0.7257884145 0.6079952717
0.15377259 0.030425593 0.93800002 0.3059638143 -0.5205849409 0.79710567
0.17856649 -0.047121711 0.94300002 -0.1554351598 0.6951378584 0.7018712163
0.2022918 0.012778099 0.94355553 -0.3593263924 -0.5584297776 0.7476902604
0.16592069 -0.014429745 0.92800021 0.2315202653 -0.05854921043 0.9710665941
0.055119541 -0.03674636 0.99800003 0.5312137008 0.2921584249 0.7952706814
0.14314151 -0.014727374 0.9407146 0.6223505735 0.02586332895 0.7823112011
0.14477764 0.0081833331 0.95240009 0.6661319137 -0.4134192467 0.620767951
0.1247409 -0.12104487 1.054 0.3993362486 0.7264214754 0.559323132
0.20710066 -0.026036311 0.94064289 -0.5463973284 0.4377619028 0.7140129209
0.20999497 -0.047227785 0.96200007 -0.3414202929 0.1125325337 0.9331498146
0.21800947 -0.077594936 0.97266674 -0.5565876961 0.4785977304 0.6790834665
0.18550017 -0.093871891 0.97552401 0.4112028182 0.6140751243 0.6736645699
0.18637505 0.016443681 0.95205009 -0.214286685 -0.5957450867 0.7740601301
0.11429979 -0.098966889 1.0600001 0.3705471456 0.7296085358 0.5747749209
0.18863003 -0.048633371 0.96200007 -0.1930592656 0.5308113694 0.8252075315
0.19461049 -0.082076311 0.96516675 0.1451667994 0.4183442295 0.8966128826
0.15489113 -0.024587782 0.93485731 0.4458734691 0.1626962125 0.8801856637
0.17390524 -0.087097131 0.98366672 0.6283022165 0.5282350779 0.5711427331
0.17084479 -0.030101227 0.92800003 0.02509358153 0.3352580369 0.9417921305
0.15156847 0.023844106 0.95100003 0.3229568601 -0.5131689906 0.7952084541
0.16465677 0.014891437 0.94385707 0.05701530725 -0.3942008317 0.9172540307
0.14214608 -0.11620023 1.057 0.3993362486 0.7264214754 0.559323132
0.22397487 -0.045373004 0.96485746 -0.3733685613 0.06842441112 0.9251562357
0.2121176 -0.033601977 0.95825005 -0.4495227933 0.5417186022 0.7102606893
0.2016335 -0.00629958 0.93750006 -0.3322004974 -0.1951826811 0.9227927923
0.14552671 -0.03447789 0.94383347 0.6150183678 0.2202808708 0.7571187019
0.074652001 -0.024276199 1.0062222 0.5146475434 0.3006349504 0.80296731
0.21102156 -0.062213525 0.95900005 -0.2673663497 0.1749895215 0.9475726485
0.19473487 -0.032077864 0.93550003 -0.3892489076 0.4091635346 0.8252699375
0.17554125 -0.0040030987 0.93054563 -0.01834651083 -0.3633516133 0.9314714074
0.13235295 -0.014682311 0.95235306 0.777195096 0.03187951073 0.6284516454
0.17804193 -0.065510228 0.96633339 0.1718387008 0.3701913357 0.9129238129
0.17514347 0.0069592306 0.94171441 -0.04690798372 -0.513538897 0.8567832112
0.23163725 -0.060687251 0.97500002 -0.6695402861 0.2342004329 0.7048872113
0.17272361 -0.094760492 0.99486971 0.5716354847 0.5853517652 0.5749749541
0.20479634 -0.075334899 0.96311122 -0.1840281636 0.3378693461 0.9230265021
0.19522227 -0.098901153 0.98100007 0.2599354982 0.695053041 0.6703244448
0.11528219 -0.11369479 1.0562499 0.3993362486 0.7264214754 0.559323132
0.22732635 -0.075936861 0.98527282 -0.6342577934 0.4365864098 0.6380512714
0.13773447 -0.0051557911 0.94573915 0.7117154002 -0.2794135511 0.6445069909
0.18522529 -0.07477802 0.96312505 0.2419802547 0.33973369 0.9088600278
0.21626841 -0.015623953 0.93800002 -0.6736273766 0.1206005439 0.7291650772
0.19511969 -0.014572633 0.9320001 -0.3059166074 -0.009991893545 0.9520058632
0.13747784 -0.023514587 0.94661111 0.7076267004 0.1422196478 0.6921257377
0.099150121 -0.098223485 1.057 0.2508688867 0.6847264767 0.6842619777
0.16413178 -0.0036864185 0.93072021 0.1608245671 -0.3451658487 0.9246599078
0.059641212 -0.04540379 1.0154001 0.2854837477 0.6952451468 0.6596462727
0.1291552 -0.025163257 0.95666671 0.7745047212 0.1206752062 0.6209508181
0.17477025 -0.042776026 0.93363172 -0.08387167752 0.5575119853 0.8259212375
0.1769201 -0.0146754 0.93000019 -0.06018209085 -0.1066412702 0.992474556
0.21252275 0.0046715378 0.9465 -0.388995409 -0.4920938313 0.7787979245
0.12706523 -0.015742594 0.96200007 0.7973534465 -0.001487144735 0.603510797
0.18836264 -0.038222957 0.94100004 -0.3416608274 0.6544399858 0.6745191813
0.18325944 0.025419826 0.94760001 -0.2320584953 -0.6052076221 0.7614936233
0.1276111 -0.032114051 0.96400005 0.765932858 0.1511199027 0.624907732
0.070364773 -0.051660214 1.016 0.2854837477 0.6952451468 0.6596462727
0.15508534 0.015059233 0.94736654 0.3884987235 -0.4402480423 0.8094753623
0.14421342 0.0126503 0.96200007 0.7401848435 -0.4155976474 0.5285877585
0.19340117 0.021489102 0.95857149 -0.2712365985 -0.5888507962 0.7613707781
0.14686517 -0.0046049538 0.9379999 0.5243845582 -0.3008783758 0.7965506911
0.064636633 -0.0292193 1.01 0.5331822038 0.2763270438 0.7995999455
0.15466678 -0.014732049 0.93352383 0.4400055707 -0.02286763489 0.8977038264
0.20092411 0.01917533 0.95100003 -0.3404521346 -0.5631660223 0.7529517412
0.19535965 0.0035625901 0.93762487 -0.2344895303 -0.4579174519 0.8575116992
0.18320167 -0.098159924 0.98390007 0.473746866 0.6788006425 0.5610646605
0.16295367 -0.024565347 0.93000025 0.2429742962 0.1609787941 0.956582129
0.1343623 -0.12138941 1.057 0.3993362486 0.7264214754 0.559323132
0.19518359 -0.055292349 0.96199995 -0.005359115079 0.2835126221 0.9589534998
0.21240512 -0.082418844 0.96700013 -0.3593351245 0.474742949 0.8034285307
0.20486742 -0.055415042 0.9577499 -0.1117212772 0.165280506 0.9798983335
0.13638799 0.0044719558 0.9512729 0.7023977637 -0.4124031663 0.5801388025
0.21612689 -0.055407666 0.96247619 -0.3580411673 0.09681645036 0.9286727309
0.23401652 -0.081184007 0.98866671 -0.6342577934 0.4365864098 0.6380512714
0.16465142 -0.034522258 0.93305004 0.1824389994 0.3776382804 0.9078024626
0.14482708 0.0038021936 0.94441378 0.6019997597 -0.3954059184 0.6937221885
0.21926573 -0.0025011299 0.95100003 -0.8149582744 -0.2863681614 0.5038217306
0.23473094 -0.066333219 0.98606688 -0.6834058166 0.2875920832 0.671004653
0.16482925 0.023211977 0.94046181 0.121781677 -0.4448524117 0.887285471
0.056416567 -0.041429952 1.0055001 0.3235772848 0.7140418887 0.620839715
0.20336702 -0.014803735 0.93586957 -0.3481405079 -0.007715913467 0.937410593
0.12652783 -0.032129537 0.97300005 0.7646657825 0.1161445379 0.6338743567
0.19481681 -0.087755062 0.97183335 0.1224697977 0.5384961367 0.8336803913
0.21392153 -0.074035048 0.96512526 -0.4125339687 0.3614696264 0.8361551762
0.10486438 -0.10463273 1.0569998 0.2508688867 0.6847264767 0.6842619777
0.20487748 0.0048205066 0.94170988 -0.3188119233 -0.5183414817 0.7935244441
0.1847288 -0.03386258 0.93464512 -0.2874671817 0.5020291209 0.8156772256
0.17647658 -0.085059322 0.97323072 0.5293011665 0.5173023343 0.6724868417
0.2057845 -0.037948709 0.95483345 -0.4419369996 0.5822194815 0.6824310422
0.13268507 -0.0064098942 0.95353341 0.7940285802 -0.1995129883 0.574206531
0.15472059 0.0057976078 0.94379306 0.4091125429 -0.3902464211 0.8248239756
0.074733399 -0.016003547 1.005421 0.5146475434 0.3006349504 0.80296731
0.16533053 -0.042146396 0.93626082 0.1667543352 0.5326176286 0.8297659159
0.17790635 -0.091739662 0.97800004 0.5514454246 0.5979725718 0.5816671848
0.20460482 -0.032883078 0.94435704 -0.4851549268 0.5536049008 0.6768650413
0.1769201 -0.024459001 0.93000019 -0.0519484058 0.2090935707 0.9765148163
0.18479496 -0.0049030264 0.93269455 -0.1610993296 -0.3496296108 0.9229334593
0.15527375 0.023579046 0.94383341 0.3541848361 -0.474948287 0.8055912256
0.1849833 -0.014776494 0.93014657 -0.2169388086 -0.1002243012 0.9710265994
0.16437449 0.0069132876 0.94300002 0.1870530099 -0.4339458048 0.8813071251
0.18488942 -0.0870011 0.971421 0.3589571416 0.5401961803 0.7611424923
0.16532008 0.0019951053 0.93621439 0.1471419185 -0.4781562388 0.8658613563
0.17434473 0.014870459 0.94250029 -0.09255851805 -0.5422065854 0.8351317048
0.19505601 -0.024728768 0.93240643 -0.3136926591 0.2596114278 0.9133448601
0.22531499 -0.065072961 0.97299999 -0.6325114369 0.3002308607 0.7139962912
0.19668546 -0.044057716 0.95714998 -0.3378059864 0.5019865632 0.7961762547
0.14325108 -0.025351219 0.94174093 0.6093562245 0.1538457721 0.7778280377
0.18499906 0.0069659925 0.94228584 -0.1756580919 -0.5077421069 0.8434110284
0.13731746 -0.014989077 0.94580758 0.7245234251 0.01883536205 0.6889927983
0.15634266 -0.033571389 0.93763995 0.3956484795 0.3491275609 0.8494541049
0.070694149 -0.044550698 1.0134286 0.3080922663 0.7177988887 0.6243748069
0.19526123 -0.075039528 0.96248269 0.1070697233 0.3029305935 0.9469789267
0.12498011 -0.10633153 1.057 0.3993362486 0.7264214754 0.559323132
0.18565634 -0.055425283 0.96275777 -0.0438422896 0.3847024441 0.9219988585
0.12173393 -0.09943153 1.0600001 0.3993362486 0.7264214754 0.559323132
0.20662157 -0.068206199 0.96199995 -0.2193618268 0.2580214441 0.9409066439
0.17286366 -0.087354183 0.99533337 0.5716354847 0.5853517652 0.5749749541
0.18495026 -0.064938203 0.96376783 0.1085917652 0.3291104138 0.9380267262
0.17778704 -0.074134581 0.96500003 0.2684485912 0.3622490168 0.8925867081
0.13879035 -0.03074996 0.94800007 0.7164946198 0.2121782154 0.6645418406
0.12610918 -0.024911093 0.96446157 0.7878724337 0.08923887461 0.6093385816
0.20146677 -0.030425593 0.93800002 -0.4635798335 0.4298341274 0.7748137712
0.17481166 0.0021566546 0.93618745 -0.02905515023 -0.4670796692 0.8837377429
0.21618159 -0.036253747 0.96373934 -0.4511176944 0.2980605662 0.8412209749
0.18074445 -0.042266905 0.93800002 -0.2003010958 0.7009912729 0.684463799
0.18504861 -0.081937768 0.96620005 0.2625381947 0.4599805176 0.8482285142
0.22497323 -0.054570682 0.96586245 -0.5485846996 0.1425469965 0.8238538504
0.19501941 -0.036722161 0.94340003 -0.4050354362 0.603189528 0.6871016622
0.14145279 -0.036683243 0.95100003 0.6813932061 0.280992955 0.6758300662
0.17481583 -0.034844812 0.93155563 -0.0240986906 0.3776195347 0.9256471992
0.20529068 -0.082811393 0.96685016 -0.1647605598 0.4238701761 0.8906110525
0.06777335 -0.015841804 1.0039999 0.5146475434 0.3006349504 0.80296731
0.20656519 -0.092403293 0.96700007 -0.1654939801 0.5851734281 0.7938411832
0.067601152 -0.024640886 1.0055789 0.5331822038 0.2763270438 0.7995999455
0.22364908 -0.036613885 0.96633339 -0.4718256891 0.2621168196 0.8418285251
0.11461782 -0.10528016 1.0569997 0.3993362486 0.7264214754 0.559323132
0.19515578 -0.0049161529 0.93533325 -0.258066982 -0.2734712362 0.9266147614
0.23512727 -0.074482262 0.98718739 -0.6425809264 0.4081932604 0.6484350562
0.10537183 -0.11212303 1.057 0.2508688867 0.6847264767 0.6842619777
0.21372011 -0.024083758 0.9405176 -0.655845046 0.314437151 0.6862918735
0.14789453 -0.040907543 0.94459999 0.5239380598 0.3668599129 0.7687019706
0.19542161 0.013130521 0.94369584 -0.3028634489 -0.5702157617 0.763628006
0.17738256 -0.095110372 0.98553854 0.5353299975 0.6240410209 0.5692052841
0.21554124 -0.065205418 0.96296006 -0.3540925682 0.2563550472 0.8993889689
0.24134369 -0.071492165 0.9885 -0.6476237178 0.3666252494 0.6679591537
0.19518611 -0.095000289 0.97566682 0.1731680781 0.6789612174 0.7134594917
0.1947462 0.017767169 0.95286685 -0.3036398292 -0.5903986692 0.7478182912
0.2048811 -0.045397695 0.95839375 -0.2512294054 0.2255824953 0.9412737489
0.18507253 -0.047522638 0.95666671 -0.269730866 0.6442081928 0.7157102227
0.13577835 -0.11499932 1.0566782 0.3993362486 0.7264214754 0.559323132
0.20287791 -0.023500638 0.93643749 -0.4078549445 0.2767809331 0.8700842857
0.12503365 -0.11471085 1.0552691 0.3993362486 0.7264214754 0.559323132
0.12947987 -0.031600621 0.95700002 0.7522550225 0.1579910368 0.639649272
0.20453432 -0.087584041 0.97112519 -0.2368292958 0.597235322 0.7663040757
0.1548011 -0.004911338 0.93433332 0.385769695 -0.3228453398 0.8642641902
0.2082534 -0.014715475 0.94000006 -0.4758870602 0.04410711676 0.8783997297
0.22158222 -0.075233251 0.97740012 -0.6342577934 0.4365864098 0.6380512714
0.18916275 -0.064735696 0.95900005 0.08090008795 0.2941508889 0.95232898
0.18612343 0.022705905 0.95281827 -0.1793251932 -0.6210603714 0.7629721761
0.10345835 -0.092616908 1.0600001 0.2508688867 0.6847264767 0.6842619777
0.20433481 -0.063604087 0.95839989 -0.0695739314 0.1438369304 0.9871526957
0.17887244 -0.081382722 0.96700007 0.3503053784 0.5013073683 0.7911871076
0.072831273 -0.032222323 1.0070001 0.5331822038 0.2763270438 0.7995999455
0.21135941 -0.055677213 0.95862502 -0.309201479 0.1425311714 0.9402549267
0.20093288 0.021018082 0.95900005 -0.3053849041 -0.5858632326 0.7506693006
0.22874863 -0.0586753 0.97000003 -0.6515629292 0.2002072781 0.7316985726
0.14787936 -0.02398414 0.93799996 0.5578871369 0.167535007 0.8128308654
0.065432377 -0.034991607 1.0120628 0.3118192852 0.728895247 0.6094919443
0.18390112 0.013017527 0.94777787 -0.1681140065 -0.6163338423 0.7693310976
0.22716011 -0.080633171 0.98900002 -0.5967860818 0.5108261108 0.6187915802
0.13349883 -0.025890345 0.95261925 0.765932858 0.1511199027 0.624907732
0.13316438 -0.10751298 1.0565385 0.3993362486 0.7264214754 0.559323132
0.2202362 -0.0074797198 0.94800007 -0.7728303075 -0.03333575651 0.6337366104
0.14883871 0.0008223133 0.93800002 0.4450182617 -0.3474779427 0.8253592253
0.16770738 -0.093908355 0.99739999 0.5716354847 0.5853517652 0.5749749541
0.19883107 -0.058430273 0.95900005 -0.02254102752 0.197725147 0.9799982905
0.097382247 -0.10540653 1.0562501 0.2508688867 0.6847264767 0.6842619777
0.14630778 -0.12207847 1.0630001 0.3993362486 0.7264214754 0.559323132
0.17165835 -0.024406403 0.92800021 0.0156941358 0.2134462297 0.9768287539
