# .PCD v0.7 - Point Cloud Data file format
VERSION 0.7
FIELDS x y z normal_x normal_y normal_z
SIZE 4 4 4 4 4 4
TYPE F F F F F F
COUNT 1 1 1 1 1 1
WIDTH 206
HEIGHT 1
VIEWPOINT 0 0 0 1 0 0 0
POINTS 206
DATA ascii
-0.20584528 -0.1113222 1.0220002 -0.05122235417 0.1878774166 0.9808559418
-0.017024342 -0.053692151 1.067 0.4048360884 0.1764432937 0.8972042799
-0.12841882 0.014204338 0.99200004 -0.3106853366 -0.1889808327 0.9315368533
-0.081761964 -0.15456633 1.087 0.03436078876 0.03838070109 0.9986722469
-0.1950859 -0.034763124 0.99593753 0.6690580249 0.1114849672 0.7348009944
-0.1581156 -0.089946002 1.08 -0.8281234503 -0.5023456812 0.2487175167
-0.026872052 -0.11349421 1.0818666 0.2340493947 0.1224078983 0.9644880295
-0.13663384 -0.041734677 0.9877001 -0.1616763771 0.0315547958 0.9863392115
-0.15998027 -0.11659579 1.031 -0.7249463797 0.3838954568 0.5719064474
-0.22403832 -0.064948961 1.0149202 0.2327101082 0.1855815351 0.9546756148
-0.16488168 -0.0067084432 0.98334783 0.1175243407 -0.157721296 0.9804652333
-0.17989638 -0.073713638 1.001 0.3729887903 0.5364819169 0.7570115328
-0.104674 -0.020062517 0.99500006 -0.3849004209 -0.01789026707 0.9227846861
-0.19042076 -0.075042665 1.0700001 -0.5361123085 -0.7537069321 0.3801440299
-0.048733901 -0.14429057 1.09 0.03436078876 0.03838070109 0.9986722469
-0.16609481 -0.052420143 0.9777692 0.1868450344 -0.05173522979 0.9810261726
-0.031787056 -0.081513345 1.077 0.3857234418 0.1736016572 0.9061346054
-0.13760948 -0.011482054 0.9774 -0.1330468804 -0.08978371322 0.9870346785
-0.1749084 -0.095487535 1.0179288 -0.04239415377 0.419754535 0.9066470265
-0.18681811 -0.1310645 1.02575 -0.1497969329 0.2851724625 0.9466982484
-0.2049014 -0.084709823 1.0131114 0.08895099908 0.2896864414 0.9529792666
-0.19922251 -0.058438599 1.01 0.3069261909 0.2438009679 0.9199768305
-0.050505642 -0.11911708 1.087 0.1133676991 0.09103341401 0.9893738627
-0.15436934 -0.02553927 0.97725028 -0.006479278672 -0.009971406311 0.9999293089
-0.1839771 -0.016816396 0.98220003 0.4467218518 -0.1607518345 0.8801127076
-0.012046277 -0.071351022 1.057 0.4048360884 0.1764432937 0.8972042799
-0.1247265 -0.02521449 0.98422205 -0.3433949053 0.1162638664 0.9319670796
-0.11519169 -0.0048070354 0.98744828 -0.4072724879 -0.1312855631 0.9038214684
-0.22185163 -0.094509043 1.017 0.166089192 0.2554022372 0.9524621367
-0.040863186 -0.099782199 1.0840001 0.2082320899 0.177364409 0.9618634582
-0.17486842 -0.03339519 0.98210543 0.3219172955 -0.06798049062 0.9443240762
-0.018390276 -0.094774537 1.0756667 0.3630487025 0.1694282442 0.9162366986
-0.14502084 0.004318648 0.9846428 -0.002104206942 -0.274458766 0.9615965486
-0.17152157 -0.10083859 1.075 -0.6684445739 -0.6204579473 0.410138756
-0.16735098 -0.076408513 1.0731111 -0.7901510596 -0.5690667033 0.2276497036
-0.036800787 -0.13239171 1.0864545 0.1560670733 0.06675238907 0.9854882956
-0.062893823 -0.135317 1.087 0.01082597859 0.05424932018 0.9984687567
-0.17503609 -0.11489882 1.0238999 -0.186418578 0.3413972855 0.9212470055
-0.23068957 -0.081053093 1.016 0.2007476389 0.2160467058 0.9555230141
-0.18146211 -0.04902057 0.98100007 0.5537347198 0.1149986163 0.824714005
-0.15107508 -0.042713832 0.98100013 -0.1016699746 0.03203537688 0.9943022728
-0.21161857 -0.048698831 1.01 0.2967772484 0.2979745269 0.9072675705
-0.03104189 -0.056439802 1.0730001 0.4048360884 0.1764432937 0.8972042799
-0.062111828 -0.15138905 1.09 0.03436078876 0.03838070109 0.9986722469
-0.18541701 -0.084920302 1.0156252 0.06871762127 0.3911660612 0.9177510738
-0.017065793 -0.0744932 1.0706817 0.4048360884 0.1764432937 0.8972042799
-0.10442766 -0.0064938208 1.001 -0.4072724879 -0.1312855631 0.9038214684
-0.18804456 -0.10228552 1.0190001 -0.03242850676 0.2401078045 0.9702044129
-0.20531116 -0.096418373 1.0220002 0.02155872248 0.2610482574 0.96508497
-0.19487882 -0.075921088 1.0070001 0.2027759552 0.3096295297 0.9289841056
-0.15175627 -0.0094311796 0.97799999 0.0383800976 -0.1631680131 0.9858514667
-0.2140442 -0.074604407 1.0131004 0.2238543332 0.204863444 0.9528484941
-0.13675211 -0.026150092 0.97800004 -0.1765700281 0.0997030586 0.9792253971
-0.16585539 -0.018957626 0.9780001 0.1309643388 -0.08114828169 0.9880603552
-0.16474532 -0.1073916 1.0222502 -0.1508127153 0.3365364969 0.9295153022
-0.18686004 -0.065033183 1.0070001 0.4038274288 0.3709297478 0.8362622261
-0.17579752 -0.1251823 1.031 -0.172022149 0.3518174887 0.9201265574
-0.19234981 -0.025080305 0.98642868 0.5915217996 -0.1008951887 0.7999513149
-0.19895674 -0.044561468 1.0022857 0.5375840664 0.3107751608 0.7838508487
-0.16369559 -0.097281948 1.067 -0.766412735 -0.5682920814 0.2994254529
-0.16428162 -0.034913365 0.97786373 0.04021692276 -0.05180633441 0.9978470206
-0.19482785 -0.11455679 1.0223749 -0.0746781826 0.2148607224 0.9737854004
-0.11854199 0.01124851 0.98700005 -0.3454903364 -0.1973559558 0.91743505
-0.073376127 -0.14694282 1.087 0.03436078876 0.03838070109 0.9986722469
-0.018936001 -0.1050948 1.08 0.2913720906 0.1848278195 0.9385845661
-0.11501465 -0.015928755 0.98647368 -0.3846744597 -0.05561742932 0.9213752151
-0.14348482 -0.034483958 0.98113656 -0.1600553095 0.05678791925 0.9854732156
-0.17333996 -0.085307449 1.0758889 -0.7878896594 -0.5516587496 0.2736833394
-0.052411515 -0.13207701 1.087 0.06169034541 0.05477293581 0.9965913296
-0.21469538 -0.1024344 1.0190001 0.05624829978 0.2159196138 0.9747896194
-0.13467143 0.0055311024 0.9860909 -0.2463356107 -0.1743312925 0.9533768296
-0.025348675 -0.064775117 1.0708399 0.4048360884 0.1764432937 0.8972042799
-0.21483077 -0.085004412 1.0158892 0.1749242395 0.2634650469 0.9486768246
-0.19511251 -0.12483736 1.0224998 -0.1239676848 0.2189818323 0.9678217769
-0.1247187 -0.0051736487 0.98383331 -0.3188245893 -0.1681859046 0.932772398
-0.153855 -0.050430249 0.97500002 -0.06343200058 0.07881379873 0.9948692322
-0.18351313 -0.034104265 0.98740005 0.5680238605 -0.01072403509 0.8229422569
-0.19529411 -0.095418841 1.0172002 0.02518948354 0.3038606942 0.952383399
-0.18566483 -0.075975865 1.0107896 0.1037640423 0.3565196097 0.9285078049
-0.19498971 -0.085116915 1.012273 0.09517677873 0.3715638816 0.9235159159
-0.1743907 -0.044363629 0.97580022 0.2877479196 -0.02838990465 0.957285285
-0.12482367 -0.015313089 0.98409349 -0.3705641627 -0.03252938762 0.9282370806
-0.18492685 -0.11491112 1.0239999 -0.1639074385 0.2865155637 0.9439508319
-0.017993459 -0.085667491 1.0721428 0.4048360884 0.1764432937 0.8972042799
-0.20481102 -0.066420995 1.0102001 0.2209805399 0.19422701 0.9557423592
-0.029459506 -0.12258956 1.0840001 0.2217842489 0.09006718546 0.9709272385
-0.13889556 0.00085737999 0.97800004 -0.07942878455 -0.2354912609 0.9686253071
-0.18871477 -0.040873706 0.99200004 0.6456366181 0.163258642 0.7459892631
-0.026580764 -0.097039513 1.0802667 0.289830029 0.1954367012 0.9369114637
-0.026903877 -0.048174735 1.0705 0.4048360884 0.1764432937 0.8972042799
-0.16729268 -0.12142222 1.0347143 -0.4430924654 0.4135216475 0.7954048514
-0.11706787 -0.030671058 0.98550004 -0.3806706965 0.08699866384 0.9206090569
-0.15459457 -0.034949243 0.97645742 -0.1013934314 0.007849829271 0.9948154092
-0.10840597 -0.023115069 0.98700005 -0.3851008117 0.03998100013 0.9220080972
-0.17583653 -0.087367974 1.0138824 0.008956020698 0.3776223361 0.9259163737
-0.016284848 -0.065025143 1.070913 0.4048360884 0.1764432937 0.8972042799
-0.17560683 -0.10605849 1.0220002 -0.1508127153 0.3365364969 0.9295153022
-0.21518865 -0.065238863 1.0133916 0.2226126343 0.1456600726 0.9639641047
-0.19511239 -0.066480577 1.0101113 0.2213099748 0.2467377484 0.9434735775
-0.15334505 0.0022112455 0.98700005 0.04138047993 -0.2849345803 0.9576533437
-0.22441819 -0.074806705 1.0158334 0.1970098913 0.1832151562 0.9631299376
-0.17470315 -0.054447971 0.98264998 0.4830576181 0.2408410907 0.8418140411
-0.14562143 -0.015189981 0.97544122 0.004415001255 -0.108856149 0.9940477014
-0.13458841 -0.034485873 0.98330009 -0.2130481899 0.0690504089 0.9745986462
-0.035155982 -0.11496521 1.0837998 0.2222019285 0.1163296476 0.968035996
-0.12464808 0.0051959548 0.98738885 -0.3412164152 -0.1951082945 0.9195129871
-0.16496675 -0.044446997 0.97500026 0.06222238764 0.01253940444 0.9979835153
-0.16659153 -0.09729597 1.0181818 -0.05765685067 0.4393076301 0.8964844942
-0.025377134 -0.07519266 1.0720999 0.4048360884 0.1764432937 0.8972042799
-0.14627731 -0.0037894354 0.9826501 -0.012726238 -0.2139282525 0.9767664671
-0.17579131 -0.014972275 0.98160028 0.2892227769 -0.2105630785 0.9338165522
-0.2051274 -0.07466127 1.0103531 0.1837356538 0.2482635826 0.9511079788
-0.20503987 -0.054868948 1.0054061 0.3425121009 0.2678144276 0.9005336761
-0.14618142 -0.025463814 0.9778235 -0.1048726067 0.06249898672 0.9925198555
-0.15710951 -0.094840698 1.0711538 -0.8281234503 -0.5023456812 0.2487175167
-0.18565628 -0.094542637 1.0183229 -0.003808145411 0.3648202717 0.9310701489
-0.11044598 -0.012175146 0.99200004 -0.3962886631 -0.1345501095 0.908213377
-0.13429387 -0.016198711 0.98306894 -0.2414082438 -0.03860053793 0.969655633
-0.044774033 -0.12479442 1.0866399 0.1240580082 0.08335259557 0.9887679219
-0.035144307 -0.10543242 1.0834398 0.2047794461 0.1721261889 0.9635548592
-0.15545243 -0.0047773533 0.9836362 0.0590069592 -0.2446419895 0.9678163528
-0.13222654 -0.0055900649 0.98100001 -0.1958979517 -0.1828156412 0.96343261
-0.17549478 -0.025441596 0.98183322 0.338167876 -0.1237705275 0.9329112172
-0.16555247 -0.086305916 1.0748 -0.7811744809 -0.5644451976 0.2667734921
-0.034413759 -0.096112713 1.0803809 0.2144525349 0.1922497749 0.9576273561
-0.21486999 -0.055311799 1.012609 0.2329045236 0.2270705104 0.9456185699
-0.025457805 -0.085794069 1.0753999 0.3876364529 0.1708456278 0.9058420062
-0.18490055 -0.025356028 0.98415399 0.5199221373 -0.1417952329 0.8423628211
-0.224153 -0.085282132 1.0158238 0.1900460124 0.2310258448 0.9542062283
-0.018658426 -0.046648197 1.0641251 0.4048360884 0.1764432937 0.8972042799
-0.12521468 -0.032902744 0.98505002 -0.3317677081 0.1142520383 0.936416924
-0.18348019 -0.12563422 1.031 -0.149467364 0.310300678 0.9388146996
-0.044268239 -0.13410419 1.087 0.07853254676 0.05963347852 0.9951263666
-0.20359007 -0.038611904 1.001 0.6007091999 0.247420609 0.7602180243
-0.20158949 -0.1209537 1.0220001 -0.09346956015 0.1618642062 0.9823763967
-0.063017108 -0.14388819 1.09 0.03436078876 0.03838070109 0.9986722469
-0.043778982 -0.11569009 1.0868421 0.1830857694 0.09556957334 0.9784406424
-0.17472021 -0.075074784 1.0723431 -0.7699759007 -0.5888131261 0.2458377928
-0.15910184 -0.018060209 0.98100013 0.07579164207 -0.1218198612 0.989654243
-0.17224045 -0.0089139463 0.98400003 0.2494631857 -0.233204633 0.9398849607
-0.20488632 -0.10472902 1.0190001 -0.007260737941 0.1933016479 0.9811124802
-0.025420029 -0.10548632 1.0832306 0.2082320899 0.177364409 0.9618634582
-0.032784529 -0.087549552 1.0807999 0.3453297019 0.175629437 0.9219011068
-0.19493857 -0.10423078 1.018679 -0.007613901049 0.1973540783 0.9803026915
-0.14104164 -0.0172002 0.98100007 -0.09569622576 -0.05086874217 0.9941099286
-0.14452548 -0.043676868 0.98360872 -0.1476783007 0.04929572716 0.987806201
-0.19368197 -0.042425208 0.99666667 0.652272284 0.2544535398 0.7139987946
-0.22282179 -0.058191966 1.0159999 0.2576799989 0.1765887439 0.9499565363
-0.21144497 -0.093179144 1.0220001 0.1060587466 0.2855841219 0.9524669051
-0.1589721 -0.087481692 1.0730001 -0.7811744809 -0.5644451976 0.2667734921
-0.16426191 -0.02494029 0.98100007 0.09648121148 -0.1052863821 0.9897505641
-0.11608746 0.004874825 0.9861818 -0.3818317056 -0.17660366 0.9072021246
-0.19495159 -0.028720256 0.99275005 0.6488004923 0.02148612589 0.7606551647
-0.14339523 -0.0078807948 0.97710007 -0.03629953787 -0.195532158 0.9800252914
-0.22154419 -0.10094553 1.0190001 0.1122531742 0.2559738457 0.960144043
-0.16571045 -0.11377093 1.0242223 -0.1643481404 0.3385455012 0.9264861941
-0.042535938 -0.10608267 1.0856153 0.2057269961 0.1593125015 0.9655547142
-0.067467786 -0.15372986 1.0867273 0.03436078876 0.03838070109 0.9986722469
-0.075081378 -0.1543256 1.087 0.03436078876 0.03838070109 0.9986722469
-0.15904924 -0.11412008 1.0250001 -0.1693180501 0.3311407566 0.9282656908
-0.17501161 -0.037971064 0.977 0.3267095685 -0.01725005172 0.9449673295
-0.15457885 -0.015122986 0.97655576 0.06263519824 -0.1485442966 0.9869201779
-0.18062972 -0.042803247 0.97650003 0.4464990199 0.01455670316 0.8946657181
-0.19877243 -0.053932641 1.0043751 0.353851378 0.2904456556 0.8890615702
-0.11539604 -0.024702713 0.98422199 -0.3818348944 0.04238782451 0.9232580066
-0.035213001 -0.12467186 1.08556 0.173411563 0.08711201698 0.9809892774
-0.20250918 -0.11516042 1.0183077 -0.063612625 0.1668866724 0.9839218855
-0.18322246 -0.099002846 1.0220001 -0.03236114234 0.3106859922 0.9499615431
-0.15535624 -0.044417866 0.97589207 -0.06792220473 0.0399180837 0.996891737
-0.23091662 -0.074890129 1.0170001 0.197130248 0.1900911182 0.9617718458
-0.055741385 -0.1277274 1.09 0.0360086076 0.06705265492 0.9970994592
-0.19173402 -0.10841035 1.0220001 -0.04868049175 0.2083756924 0.9768366218
-0.10700057 -0.0061099282 0.99537498 -0.4072724879 -0.1312855631 0.9038214684
-0.17347653 -0.050585419 0.97799999 0.2911884487 0.01039284375 0.9566092491
-0.16919227 -0.057164803 0.98300004 0.3484390676 0.2898294628 0.8913972974
-0.17282331 -0.018984843 0.9780001 0.238810122 -0.1592952907 0.9579116702
-0.05613004 -0.15084685 1.0913334 0.03436078876 0.03838070109 0.9986722469
-0.1363111 -0.0050126868 0.97660726 -0.1676266342 -0.1908968687 0.9671916366
-0.044549789 -0.14127286 1.087 0.06388417631 0.04405571148 0.9969844222
-0.048733901 -0.13664603 1.09 0.06388417631 0.04405571148 0.9969844222
-0.13294357 0.01184932 0.98900002 -0.2544511855 -0.2026087195 0.9456237555
-0.18396646 -0.10518338 1.0221152 -0.04915716127 0.2914125025 0.9553335905
-0.03104189 -0.076193728 1.0730001 0.4048360884 0.1764432937 0.8972042799
-0.1049384 -0.014319124 0.99589998 -0.39650172 -0.1167808026 0.9105759859
-0.10763476 -0.017712047 0.98899996 -0.3846744597 -0.05561742932 0.9213752151
-0.054467302 -0.14429055 1.09 0.03436078876 0.03838070109 0.9986722469
-0.17257152 -0.095243111 1.0756667 -0.6684445739 -0.6204579473 0.410138756
-0.18482639 -0.074396059 1.0710384 -0.5386888981 -0.7843381166 0.3076166511
-0.18849397 -0.035263367 0.99312502 0.6388955712 0.03772221878 0.7683680654
-0.16472703 -0.014302916 0.98111141 0.1011346504 -0.1497710943 0.9835346341
-0.05171847 -0.12466145 1.087 0.07829284668 0.07616819441 0.9940164089
-0.02567059 -0.055351723 1.0716399 0.4048360884 0.1764432937 0.8972042799
-0.17260993 -0.10233515 1.0190001 -0.1172443256 0.3599286079 0.9255836606
-0.16538392 -0.10285128 1.0190001 -0.1098115519 0.3494586051 0.9304945469
-0.023981918 -0.093283996 1.0769999 0.3453297019 0.175629437 0.9219011068
-0.19229683 -0.13029458 1.0250001 -0.1575256139 0.2600002587 0.9526728392
-0.2041575 -0.045353748 1.0040001 0.3488980234 0.334307611 0.8755047917
-0.21526112 -0.09512981 1.0185388 0.1427468508 0.2860280573 0.9475290179
-0.14746936 -0.032366097 0.9780001 -0.1539391428 0.03756786138 0.9873659015
-0.06806691 -0.14566316 1.087 0.03436078876 0.03838070109 0.9986722469
-0.18072176 -0.053487625 0.98400009 0.5747485757 0.2891458869 0.7655447125
-0.21114634 -0.11079956 1.0220001 -0.03643284738 0.1679634452 0.98511976
-0.1856467 -0.12506635 1.0263332 -0.1497969329 0.2851724625 0.9466982484
-0.12504318 0.012213003 0.98863643 -0.3106853366 -0.1889808327 0.9315368533
-0.16435595 -0.094608724 1.0713042 -0.766412735 -0.5682920814 0.2994254529
-0.047778334 -0.11562356 1.09 0.1727055013 0.08710005134 0.9811148643
