# .PCD v0.7 - Point Cloud Data file format
VERSION 0.7
FIELDS x y z normal_x normal_y normal_z
SIZE 4 4 4 4 4 4
TYPE F F F F F F
COUNT 1 1 1 1 1 1
WIDTH 206
HEIGHT 1
VIEWPOINT 0 0 0 1 0 0 0
POINTS 206
DATA ascii
-0.10455402 -0.11521692 1.0757585 0.1563677788 -0.007413849235 0.9876710773
-0.045895252 -0.28131184 1.2666668 -0.3431178927 0.9016859531 0.2631207108
0.051596213 -0.15825148 1.1850001 -0.02864667401 0.1457849145 0.9889014959
0.012250191 -0.096273787 1.0916001 -0.4569948018 -0.09353691339 0.884537518
-0.013413876 -0.24041794 1.177 -0.2328151464 -0.2579180896 0.9376968145
-0.093191043 -0.19199915 1.0927143 -0.2972306013 0.02487061173 0.9544817805
-0.039845377 -0.12231604 1.057 -0.2895049155 -0.173035562 0.9414061904
0.042150132 -0.21601944 1.202 -0.1410123557 0.1687628776 0.9755176306
-0.033223737 -0.079027116 1.0706002 -0.4149029851 -0.2120660841 0.8848070502
-0.12438127 -0.15498425 1.0757776 0.009372071363 -0.03212771937 0.9994398355
-0.083134301 -0.14811283 1.09 -0.07464247197 0.3129394352 0.9468354583
-0.070484005 -0.096796274 1.072 0.3906789124 -0.0530366376 0.9189978838
-0.042017758 -0.25723067 1.169 -0.2328151464 -0.2579180896 0.9376968145
0.015418014 -0.2353539 1.1931742 -0.286221236 0.03724195063 0.9574395418
-0.015253381 -0.10500105 1.0722351 -0.4642052948 -0.09602672607 0.8805068731
0.036256593 -0.18651229 1.193 -0.02864667401 0.1457849145 0.9889014959
-0.13019201 -0.1282914 1.0840001 0.06436074525 -0.005002943333 0.9979141355
-0.0050849719 -0.075335853 1.0841738 -0.4468157589 -0.1300260723 0.8851264715
-0.075998336 -0.12401327 1.0716666 0.3505089283 0.003191618016 0.9365539551
-0.10621565 -0.17350212 1.0751538 -0.2845933139 -0.02510975301 0.9583194256
-0.1069884 -0.1391796 1.08 0.006014279556 0.1542058289 0.9880204201
-0.05389747 -0.085492529 1.0600002 0.09517138451 -0.2206293195 0.970703423
-0.079055049 -0.17633247 1.094 -0.3710681498 0.06593553722 0.9262617826
0.02636065 -0.20565109 1.1940908 -0.1410123557 0.1687628776 0.9755176306
-0.060231384 -0.12231604 1.057 0.3656622767 -0.1471919268 0.9190351963
0.0025927415 -0.2517997 1.182 -0.2610102594 -0.1003407091 0.9601069689
0.0044850893 -0.11291309 1.0836428 -0.5026837587 -0.01195547264 0.8643877506
-0.033130988 -0.24434103 1.1810001 -0.2328151464 -0.2579180896 0.9376968145
-0.02441418 -0.12207222 1.0711251 -0.469365418 -0.09479146451 0.8779013157
-0.12228273 -0.17319776 1.0855 -0.3506715596 -0.03041772731 0.9360044003
-0.044655543 -0.10437308 1.06036 -0.1816929877 -0.183919996 0.9660026431
-0.094423391 -0.16488661 1.0861249 -0.3044808805 0.08556458354 0.9486675262
0.052288782 -0.18479988 1.1850001 0.02589454874 0.1384716928 0.9900277853
-0.0022723197 -0.095437445 1.08 -0.4702395797 -0.1067850739 0.876054585
-0.017296759 -0.085496664 1.076238 -0.3899344206 -0.2041827142 0.8979201317
-0.0013944843 -0.23531926 1.193 -0.2672527134 -0.06818813086 0.9612109065
-0.12247437 -0.11833545 1.0730001 0.1625386029 -0.0275542587 0.9863173962
-0.097249508 -0.19166651 1.077 -0.3031003475 0.0320619382 0.9524191618
-0.087807812 -0.14068133 1.077 0.01930461451 0.3567226827 0.9340108633
-0.015711913 -0.254958 1.1818331 -0.2328151464 -0.2579180896 0.9376968145
0.032090086 -0.22411649 1.1936666 -0.1591536105 0.1282065958 0.9788938761
-0.1003345 -0.17869097 1.09 -0.2972306013 0.02487061173 0.9544817805
-0.025608543 -0.095061615 1.0685 -0.4324884713 -0.1726287901 0.8849593401
0.016814264 -0.21649371 1.193 -0.2264138311 0.1266358942 0.9657639861
-0.10480358 -0.15530011 1.0868 -0.2273904979 0.1058802903 0.9680304527
0.041680064 -0.17363699 1.1946001 -0.02864667401 0.1457849145 0.9889014959
-0.095189475 -0.12535326 1.0750799 0.2028725445 0.08638831973 0.9753869772
-0.11494152 -0.12800737 1.08 0.1318831295 0.001690481906 0.9912638068
0.044694848 -0.19701532 1.1935713 0.02589454874 0.1384716928 0.9900277853
-0.1127179 -0.10723329 1.0824444 0.1759571135 -0.001743014785 0.9843962789
-0.11525663 -0.16343322 1.0805714 -0.2131244093 0.09934648126 0.9719610214
-0.064281993 -0.10521383 1.0649998 0.466314733 -0.07225456834 0.8816631436
-0.043394808 -0.078408673 1.0633334 -0.13391532 -0.2014935315 0.9702922702
0.0076804762 -0.22587021 1.1946667 -0.2982627451 0.04926099628 0.9532117844
0.011465923 -0.24703853 1.189 -0.2937402129 -0.001875173184 0.9558834434
-0.0055301385 -0.1118167 1.077 -0.5121154189 0.01134993229 0.8588416576
-0.095999517 -0.14826386 1.0811429 -0.1496562064 0.2413391322 0.9588317871
-0.085600361 -0.11714026 1.0730001 0.256852597 -0.01091188565 0.9663890004
-0.026273742 -0.25542682 1.1764287 -0.2328151464 -0.2579180896 0.9376968145
-0.12274209 -0.13619652 1.077 0.04686744884 0.05745462701 0.9972473979
-0.04348442 -0.24951774 1.1810001 -0.2328151464 -0.2579180896 0.9376968145
-0.056127708 -0.11206955 1.0600002 0.3422263861 -0.1959240139 0.9189640284
-0.054766241 -0.1214648 1.0470001 0.2375400215 -0.08411327749 0.9677291512
-0.097822189 -0.1060679 1.0755 0.1891059726 -0.056850072 0.9803096652
-0.0049160277 -0.24507098 1.186818 -0.2625134885 -0.1179093644 0.9576972723
-0.082215995 -0.16634619 1.0905001 -0.2941634059 0.1066906601 0.9497815371
-0.085494287 -0.18428205 1.0901819 -0.3941318095 0.02815518528 0.9186225533
0.038437448 -0.17764334 1.1850001 -0.02864667401 0.1457849145 0.9889014959
0.004091403 -0.087178357 1.077 -0.4642561674 -0.1171485633 0.8779193759
-0.070689775 -0.11585639 1.067 0.4709836543 -0.2216261923 0.8538479209
-0.062846325 -0.09500616 1.064294 0.3587420583 -0.08675290644 0.9293966293
-0.014799477 -0.11524269 1.0733999 -0.4964161515 -0.07897733152 0.8644846082
-0.025988229 -0.11423682 1.0648947 -0.4582826495 -0.1029358283 0.8828257322
-0.0048075146 -0.085105933 1.0812857 -0.4599957168 -0.1237937957 0.8792491555
0.034349702 -0.21428756 1.1933336 -0.1665686369 0.1726530492 0.9707964659
-0.034703512 -0.10517652 1.0617498 -0.3645037115 -0.1526774317 0.9186003804
0.0059940089 -0.10398302 1.09 -0.4817740023 -0.08008209616 0.8726285696
-0.034798779 -0.095138915 1.0647141 -0.3825219274 -0.1853180826 0.9051707983
-0.01521736 -0.095199898 1.073724 -0.3939694166 -0.1743353605 0.9024385214
-0.026172163 -0.10452115 1.0662726 -0.4460834861 -0.1296085268 0.8855569959
0.035058163 -0.19622985 1.1938002 -0.01624389552 0.1322701126 0.9910805821
0.05290981 -0.1753244 1.1834 -0.02864667401 0.1457849145 0.9889014959
-0.10472587 -0.1254833 1.0761999 0.1249871925 0.03029225394 0.9916958213
-0.11462901 -0.14494795 1.08064 -0.04564358294 0.05264819786 0.9975694418
-0.095148943 -0.11493748 1.073138 0.1982033998 0.01856346615 0.9799851179
-0.044623643 -0.094829924 1.0604999 -0.1394885778 -0.194144994 0.9710049629
-0.088623106 -0.17248154 1.087 -0.3429057598 0.02357386239 0.9390739799
-0.035029732 -0.11451492 1.0602068 -0.404907465 -0.1530513018 0.9014573097
-0.12416586 -0.14550798 1.0760624 0.002750005107 0.02962261811 0.9995573759
-0.04569079 -0.11491287 1.0567598 -0.1108555272 -0.07534278184 0.990976572
-0.095180362 -0.13475665 1.0749199 0.002867364557 0.3015063107 0.9534598589
-0.086703055 -0.15510093 1.084826 -0.2395003438 0.2204429954 0.9455392361
-0.097209126 -0.18672933 1.0863076 -0.2972306013 0.02487061173 0.9544817805
0.044347931 -0.1648256 1.1950001 -0.02864667401 0.1457849145 0.9889014959
-0.10405124 -0.16419615 1.0845184 -0.2235562652 0.1274175793 0.9663267136
0.024282314 -0.23377568 1.1948184 -0.2870645225 0.07173102349 0.9552217722
-0.054696515 -0.095378518 1.0602307 0.1453967839 -0.1443837434 0.9787814617
-0.11490822 -0.1547955 1.0832798 -0.154443413 0.03581184521 0.9873523712
-0.062705681 -0.086519629 1.0612001 0.2241603136 -0.2019480914 0.9533987045
-0.0016573383 -0.10466919 1.0805 -0.5022718906 -0.02276689559 0.8644099832
-0.12179793 -0.17089477 1.077 -0.3260115087 -0.01826128364 0.9451894164
-0.03501448 -0.25455415 1.176579 -0.2328151464 -0.2579180896 0.9376968145
-0.024768598 -0.24696919 1.181 -0.2328151464 -0.2579180896 0.9376968145
-0.019198123 -0.077107213 1.077 -0.3946912885 -0.2133233398 0.8937068582
0.047346577 -0.16597359 1.1870002 -0.02864667401 0.1457849145 0.9889014959
-0.0104148 -0.091839597 1.08 -0.421628952 -0.1372077614 0.8963275552
0.025100719 -0.21440196 1.1930002 -0.1591536105 0.1282065958 0.9788938761
-0.035706434 -0.085532665 1.0656667 -0.3482819498 -0.1863145083 0.9186874032
-0.11485026 -0.11639716 1.0762726 0.1737817526 -0.01418211684 0.9846820831
-0.073274344 -0.10473531 1.0722631 0.3957108259 -0.02301254496 0.9180867672
-0.013407446 -0.075931519 1.0842222 -0.4275026917 -0.1579558104 0.8901075125
-0.025043366 -0.085051261 1.073423 -0.4237810671 -0.2262964249 0.8770402074
0.01569286 -0.22495054 1.1934803 -0.2909927368 0.05516748503 0.9551333785
0.0044997302 -0.095507286 1.0844998 -0.4702395797 -0.1067850739 0.876054585
-0.085663632 -0.12520124 1.0738 0.2151661515 0.1951464415 0.9568810463
0.034319121 -0.20477211 1.1931907 -0.04221454635 0.1216251776 0.9916779995
-0.078140803 -0.18391678 1.087 -0.3710681498 0.06593553722 0.9262617826
0.042545509 -0.21148093 1.1954 -0.09326102585 0.1675913781 0.9814354181
-0.064073682 -0.11499009 1.0625924 0.4688367844 -0.1539262831 0.8697693944
0.044540472 -0.18496419 1.1869047 -0.02864667401 0.1457849145 0.9889014959
-0.005607686 -0.25265935 1.1847335 -0.2573061585 -0.1870399117 0.9480556846
-0.10152092 -0.17374627 1.084 -0.3063928187 0.03232376277 0.9513561726
0.0035600506 -0.24541271 1.1864735 -0.2672527134 -0.06818813086 0.9612109065
0.050960924 -0.1924035 1.1863333 0.02589454874 0.1384716928 0.9900277853
-0.028888797 -0.12114657 1.0630001 -0.4354641438 -0.1783898026 0.882353723
-0.06522394 -0.12338476 1.0627859 0.4381476343 -0.198000446 0.8768252134
-0.12321419 -0.1633414 1.077 -0.1466859877 0.01679482497 0.989040494
-0.087619148 -0.14654787 1.0840666 -0.05962372944 0.2876175344 0.9558876157
0.0061257714 -0.23487103 1.193 -0.2909071147 0.02683801949 0.956374824
-0.076060511 -0.11485785 1.07216 0.3521164954 -0.05199145898 0.9345110059
-0.0065170606 -0.23785251 1.1857274 -0.2625134885 -0.1179093644 0.9576972723
0.04562638 -0.17596409 1.1855999 -0.02864667401 0.1457849145 0.9889014959
-0.1154248 -0.13525234 1.0769999 0.1056100279 0.04187460616 0.9935255647
-0.012069712 -0.084492661 1.0813333 -0.413764596 -0.1471288949 0.8984163404
-0.087287731 -0.13434412 1.0735 0.108807534 0.3534012437 0.929122448
0.014310219 -0.24302885 1.1943333 -0.2726611495 -0.004243053496 0.9621008039
-0.015819529 -0.24533859 1.1817273 -0.2328151464 -0.2579180896 0.9376968145
-0.028997503 -0.088863313 1.067 -0.4095411003 -0.2204704136 0.8852507472
-0.054859657 -0.10506593 1.0605999 0.3175084889 -0.1500026435 0.9363159537
-0.10183547 -0.14310919 1.077 -0.05793085694 0.2627035975 0.9631359577
-0.045937657 -0.12189622 1.053375 -0.07776857167 -0.07853333652 0.9938735366
0.044041596 -0.20459098 1.1961113 -0.03522919491 0.1326601952 0.9905353189
0.02512807 -0.22508888 1.1942002 -0.2101294547 0.07819826156 0.9745412469
-0.04226936 -0.25430086 1.1760001 -0.2328151464 -0.2579180896 0.9376968145
-0.1064809 -0.14570558 1.0823332 -0.1016732156 0.1214080453 0.9873816967
0.017720064 -0.23036082 1.189 -0.2909927368 0.05516748503 0.9551333785
0.053547889 -0.16565457 1.1840589 -0.02864667401 0.1457849145 0.9889014959
-0.017872604 -0.12134557 1.0730001 -0.4817360044 -0.08541864902 0.8721433878
-0.094055064 -0.1760973 1.09 -0.3941318095 0.02815518528 0.9186225533
-0.11231826 -0.17248701 1.0724615 -0.3062362969 -0.04008736461 0.9511110783
-0.019643471 -0.11505461 1.067 -0.4671248496 -0.09171102196 0.8794222474
-0.044651609 -0.084658653 1.0611998 -0.08398614079 -0.1823957562 0.9796316028
-0.094892487 -0.15467241 1.0824 -0.2468065321 0.2005630881 0.9480828047
0.011933666 -0.10373597 1.0929091 -0.4817740023 -0.08008209616 0.8726285696
-0.12269621 -0.12437242 1.0756668 0.1393661946 -0.003281257115 0.9902354479
-0.095256254 -0.14319912 1.0769999 -0.08718600869 0.2357621044 0.9678919315
0.010482303 -0.10768184 1.087 -0.4817740023 -0.08008209616 0.8726285696
-0.025625551 -0.078565121 1.074 -0.4147332013 -0.2237271965 0.8820105195
-0.05388188 -0.11619449 1.0556667 0.2334297001 -0.1119452491 0.965908289
-0.068476431 -0.1210063 1.0700001 0.4726498127 -0.1792094558 0.8628361225
0.038567197 -0.19075127 1.189 -0.02864667401 0.1457849145 0.9889014959
0.00095030665 -0.076974839 1.0840001 -0.4629305005 -0.1329372972 0.8763692379
-0.086353622 -0.16414046 1.0864444 -0.2947409451 0.1534989327 0.9431679845
-0.070155248 -0.10570057 1.067 0.4681093097 -0.07908898592 0.8801242113
-0.10696097 -0.16765761 1.077 -0.2469772398 0.08708813787 0.9650999308
-0.093721338 -0.18356565 1.0902354 -0.3450765908 0.07575085759 0.9355126619
-0.10454536 -0.13450128 1.0769998 0.06735549867 0.1722263992 0.9827519059
-0.026733952 -0.24285683 1.177 -0.2328151464 -0.2579180896 0.9376968145
-0.12673594 -0.13458586 1.0811428 0.002353133634 0.04635373503 0.9989222884
-0.040241629 -0.24660897 1.177 -0.2328151464 -0.2579180896 0.9376968145
0.045747876 -0.19190945 1.189 0.02589454874 0.1384716928 0.9900277853
-0.04725847 -0.10841649 1.057 -0.123607412 -0.1385113299 0.9826168418
0.0082174977 -0.2442838 1.193 -0.2937402129 -0.001875173184 0.9558834434
-0.10769851 -0.10556821 1.08 0.1732323617 -0.0242573712 0.9845821857
-0.083134301 -0.15384623 1.09 -0.1693907082 0.2158019394 0.9616321325
-0.0061648744 -0.10502502 1.0769999 -0.5078764558 -0.02485785633 0.8610711694
-0.10174794 -0.18371294 1.0847 -0.2958899438 0.03216078505 0.9546805024
-0.067225717 -0.10099492 1.0700001 0.4243988693 -0.04926419258 0.9041342139
-0.11447108 -0.11399373 1.081375 0.1721483767 -0.01243312564 0.9849925637
-0.041816998 -0.11244126 1.0600001 -0.2940126359 -0.2186153531 0.9304643273
-0.10307189 -0.10606176 1.0769999 0.1833402365 -0.0208934173 0.9828274846
-0.088867702 -0.19015777 1.09 -0.3427012265 0.05927925184 0.9375723004
-0.084886171 -0.17494832 1.09 -0.3429057598 0.02357386239 0.9390739799
-0.11416935 -0.16648896 1.0762727 -0.2543371618 0.07359205931 0.9643115997
-0.0309551 -0.092865296 1.0700001 -0.4254386425 -0.1789440662 0.887119472
-0.023295226 -0.25210613 1.1810001 -0.2328151464 -0.2579180896 0.9376968145
-0.108882 -0.1107756 1.08 0.1735512763 -0.01477715932 0.9847139716
-0.036080621 -0.078328595 1.0662 -0.3715973794 -0.1934176087 0.9080225825
-0.031783927 -0.084087111 1.0708572 -0.4108569026 -0.218123734 0.8852223754
-0.12292152 -0.1663177 1.0813334 -0.2590443194 0.05331176519 0.9643930197
-0.0063553075 -0.095462516 1.0767332 -0.4582190216 -0.1162764654 0.8812009692
-0.03836276 -0.11731219 1.057 -0.3058412075 -0.1216667295 0.9442766309
-0.11534992 -0.12425008 1.0764284 0.1393661946 -0.003281257115 0.9902354479
-0.12623999 -0.12708081 1.0808889 0.06436074525 -0.005002943333 0.9979141355
-0.00377668 -0.087807812 1.077 -0.453133285 -0.1213341877 0.8831467628
-0.02274731 -0.10552874 1.0700001 -0.4610657394 -0.1308490783 0.8776655793
0.0043132515 -0.10598275 1.0857058 -0.4817740023 -0.08008209616 0.8726285696
-0.022845641 -0.11736462 1.0710001 -0.4683337212 -0.0904507041 0.8789096475
-0.034988645 -0.24660899 1.177 -0.2328151464 -0.2579180896 0.9376968145
-0.055598199 -0.091737032 1.057 0.108194083 -0.1874694377 0.9762936234
-0.033637449 -0.12139829 1.0617143 -0.404907465 -0.1530513018 0.9014573097
0.0024055731 -0.085814625 1.0812308 -0.4642561674 -0.1171485633 0.8779193759
0.038150255 -0.18491407 1.189 -0.02864667401 0.1457849145 0.9889014959
-0.1199096 -0.15503272 1.077 -0.07381513715 0.01734784059 0.9971210361
-0.095033772 -0.17282806 1.087 -0.3941318095 0.02815518528 0.9186225533
-0.013873599 -0.23833604 1.1810001 -0.2325973213 -0.216513887 0.9481667876
