# .PCD v0.7 - Point Cloud Data file format
VERSION 0.7
FIELDS x y z normal_x normal_y normal_z
SIZE 4 4 4 4 4 4
TYPE F F F F F F
COUNT 1 1 1 1 1 1
WIDTH 206
HEIGHT 1
VIEWPOINT 0 0 0 1 0 0 0
POINTS 206
DATA ascii
-0.0042518335 -0.11539476 1.0669999 0.2145520747 -0.07051716 0.9741635919
-0.18168829 -0.018765926 0.97300005 0.1680998653 0.03550298139 0.9851304293
-0.036023054 -0.0077092424 0.96393752 -0.3551038206 -0.002760730684 0.9348227978
-0.12024097 -0.16062725 1.0470001 -0.3125627637 0.2314101905 0.9212783575
-0.13784146 -0.091490343 0.98640001 -0.02522261441 0.1823060513 0.9829182625
-0.10443872 -0.03218364 0.947375 0.1333604753 -0.1478595138 0.97997576
-0.055499136 -0.17026006 1.0730001 -0.06471911818 0.06700987369 0.9956511259
-0.18029176 -0.06383536 0.98400003 0.01321997121 0.1347018629 0.9907979965
-0.13748908 -0.0080767302 0.9754445 0.3473315835 -0.06685506552 0.9353561401
-0.076588161 0.0041981549 0.95761514 -0.2089146376 -0.2913182378 0.9335353971
-0.13507584 -0.054788847 0.97431433 0.1771150976 0.2715807557 0.9459778666
-0.066765286 -0.033211332 0.95694113 -0.4204141498 -0.003243887099 0.9073265195
-0.034200005 -0.1368558 1.0714117 0.06290314347 0.01408444159 0.9979202747
-0.09166953 -0.1711788 1.067 -0.3152398169 0.1779457033 0.9321798086
-0.11364739 0.0015062888 0.95740002 0.3682568073 -0.3263882399 0.8705502152
-0.15521437 -0.034966193 0.97279972 0.2155384272 0.161106497 0.9631136656
-0.038463749 -0.032480501 0.97500002 -0.4159574509 0.07012972236 0.9066759348
-0.16192056 -0.08652699 0.9772501 -0.0276900772 0.08542746305 0.9959595203
0.010861608 -0.09620744 1.0620002 0.2145520747 -0.07051716 0.9741635919
-0.12901159 -0.033419408 0.96500003 0.5025282502 0.07916740328 0.8609285355
-0.06989225 -0.15376295 1.0630001 -0.1393680125 0.08773437142 0.9863464236
-0.058009908 -0.0092479568 0.95900005 -0.2952168584 -0.165084675 0.9410600662
-0.086432323 -0.019114841 0.94800007 -0.1551839709 -0.2079332024 0.965754509
-0.16338673 -0.0065879952 0.97517651 0.1855264306 -0.06267023087 0.9806387424
-0.15910184 -0.059340689 0.98100007 0.07128993422 0.1996108741 0.977278471
-0.17485785 -0.044419996 0.97439992 0.08257605135 0.1375063211 0.9870527983
-0.031990793 -0.157709 1.067 0.03090183251 0.00633930508 0.9995023012
-0.13479918 -0.074211001 0.9780001 -0.03004277311 0.2054674625 0.9782027006
-0.014934639 -0.13520309 1.0703748 0.1790247858 -0.06236898899 0.9818657041
-0.095321916 0.0041833073 0.95383346 0.02554140799 -0.3413526118 0.9395882487
-0.1218572 -0.015125459 0.95862508 0.5081291199 -0.279717952 0.8145935535
-0.10438812 -0.15835957 1.0651001 -0.3125627637 0.2314101905 0.9212783575
-0.053936917 -0.14867829 1.0700001 -0.05510864779 0.01116765663 0.9984179139
-0.15004939 -0.017802469 0.96700007 0.229302004 -0.0626816228 0.9713349342
-0.064627871 0.0093540335 0.97000003 -0.2817829251 -0.2181457132 0.9343504906
-0.073896863 -0.1711788 1.067 -0.1771317571 0.1577078253 0.9714692831
-0.10499236 -0.013898253 0.95359272 0.1878336966 -0.2702356875 0.9442940354
-0.046512485 0.0040126205 0.96700007 -0.3413624167 -0.1491292268 0.9280259609
-0.055185102 -0.025153663 0.96355575 -0.379259795 0.1318001002 0.9158552289
-0.08348497 -0.15665157 1.0700001 -0.2115376443 0.1780081987 0.9610228539
-0.11922053 -0.03084727 0.95100003 0.4811303616 -0.1092096642 0.8698199987
-0.17343535 -0.077114224 0.98100007 -0.01775452681 0.049243249 0.998628974
-0.15505499 -0.074946061 0.98260009 -0.02904410288 0.1078589112 0.9937418699
-0.077234916 -0.035711307 0.9473334 -0.3067170978 -0.07139568776 0.9491192102
-0.00093803334 -0.097555466 1.0700001 0.2145520747 -0.07051716 0.9741635919
-0.14490497 -0.0449683 0.9713546 0.2199265808 0.2327961773 0.9473321438
-0.14270234 -0.031931415 0.96700007 0.3331961632 0.04474020377 0.9417954087
-0.14476953 -0.064434454 0.97634512 0.02408924699 0.193607077 0.9807833433
-0.034616645 -0.019295141 0.97100002 -0.3739475012 0.0328512229 0.9268679023
-0.108978 -0.16439208 1.0535001 -0.3144788146 0.2056355625 0.9267238379
-0.16482219 -0.025620002 0.97413343 0.1574883461 0.01252603531 0.9874414206
-0.1353281 -0.017611541 0.9663685 0.4466745853 -0.132445842 0.8848389387
-0.075223483 -0.015047325 0.95341682 -0.2920750976 -0.1904335022 0.9372444749
-0.021514276 -0.12440864 1.067 0.1843771935 -0.07477135211 0.9800072908
-0.046377767 -0.034740541 0.96472025 -0.397225678 0.09403908998 0.9128901362
-0.085402384 -0.0050216927 0.95505553 -0.1736182719 -0.2537772059 0.9515533447
-0.16781592 -0.0666705 0.97499996 0.02741740271 0.1255501211 0.9917083383
-0.025336683 -0.14544471 1.0703598 0.08696724474 0.004662760999 0.9962002635
-0.045623876 -0.015211431 0.96377796 -0.3903500736 0.02100621909 0.9204268456
-0.045999963 -0.16375832 1.0727391 -0.05015168339 0.008815948851 0.9987027049
-0.064157002 -0.16437641 1.0683999 -0.1167384684 0.1187853441 0.9860335588
-0.10471608 0.00581756 0.94800007 0.15287669 -0.3149661422 0.936709702
-0.10626252 -0.0050601196 0.96200007 0.2472725511 -0.2672589421 0.9313586354
-0.1545388 -0.092724711 0.98181826 -0.03459755331 0.1224611402 0.9918701053
-0.14471848 -0.0758022 0.98162526 -0.001595277456 0.1608022153 0.9869853854
-0.044156857 -0.14577201 1.0717307 -0.06612952054 0.05537644029 0.9962732196
-0.11172196 -0.018689219 0.94750011 0.3228534758 -0.2369049937 0.9163196087
-0.067442074 -0.0062381653 0.9563334 -0.3126703501 -0.1929255724 0.9300628901
-0.094273567 -0.032848619 0.94685698 -0.0661272034 -0.1917209774 0.9792191982
-0.075265951 -0.025090365 0.9539724 -0.3238791227 -0.1213883162 0.9382788539
-0.0060801213 -0.13189188 1.067 0.1985445619 -0.07235587388 0.9774173498
-0.095029347 -0.014842562 0.95332372 -0.03068500571 -0.2264492959 0.9735394716
-0.0061910199 -0.10599776 1.0700001 0.2145520747 -0.07051716 0.9741635919
-0.16498971 -0.04445425 0.9751336 0.1333925575 0.1820642352 0.9741966128
-0.14508398 -0.054621741 0.97349983 0.1524533182 0.2552759945 0.9547733665
-0.12115756 -0.0053245816 0.95900005 0.4682624936 -0.3069572747 0.8285574913
-0.17478204 -0.025483007 0.97474355 0.1723641306 0.07896646857 0.9818629622
-0.045897424 -0.0055481223 0.96509415 -0.3180947602 -0.09103414416 0.9436782002
-0.13526167 -0.044600543 0.97171408 0.3576087356 0.2261390686 0.9060778618
-0.095186584 -0.156958 1.063 -0.3125627637 0.2314101905 0.9212783575
-0.12816183 -0.024312198 0.9623636 0.5280937552 -0.09127464145 0.8442665339
-0.15534443 -0.044385094 0.97361112 0.1633064896 0.2106519639 0.9638240337
-0.013253624 -0.11745246 1.0650001 0.2145520747 -0.07051716 0.9741635919
-0.14513549 -0.084715515 0.98459977 -0.03552374616 0.169844836 0.9848303199
-0.17433237 -0.03503792 0.97480023 0.1453600824 0.1503871679 0.9778825045
-0.16481994 -0.035012979 0.97412002 0.1569103152 0.164290905 0.9738519788
-0.064337723 -0.15529859 1.0706817 -0.1363581717 0.09250111133 0.9863315821
-0.13524681 -0.06505926 0.97641701 0.0730240792 0.2419275045 0.9675425291
-0.095448501 -0.0050246138 0.95505577 -0.004252172075 -0.3307694793 0.9437019825
-0.15534428 -0.025765466 0.97202921 0.1785418242 -0.05572138354 0.9823532701
-0.025267288 -0.13526392 1.0702068 0.09591963887 -0.01478053909 0.9952793121
-0.065370455 -0.015089091 0.95605534 -0.3557169735 -0.09952434152 0.9292794466
-0.17500177 -0.056814302 0.98189992 0.03769721463 0.1883759946 0.9813732505
-0.16479138 -0.015467573 0.97465533 0.1638825685 -0.067502141 0.9841676354
-0.15452865 -0.083823338 0.98357117 -0.03459755331 0.1224611402 0.9918701053
0.0036969797 -0.1042504 1.0663042 0.2145520747 -0.07051716 0.9741635919
-0.046730336 -0.025652526 0.96640033 -0.3977506459 0.06129454076 0.9154438376
-0.083484955 -0.17259812 1.0700001 -0.2115376443 0.1780081987 0.9610228539
-0.085392207 0.0045128064 0.95731229 -0.1153252348 -0.3587824106 0.9262695312
-0.18035226 -0.051284999 0.97500002 0.05041392893 0.1515090019 0.9871694446
-0.111512 -0.1589046 1.0600001 -0.3125627637 0.2314101905 0.9212783575
-0.045134481 -0.15515283 1.0726 -0.05236591771 -0.006162452977 0.9986089468
-0.034780484 -0.14528042 1.0722222 0.03363672644 0.04321791232 0.9984992743
-0.15332936 -0.064511627 0.97759098 0.06228205189 0.2153522521 0.9745482802
-0.029609418 -0.016075436 0.96500009 -0.3739475012 0.0328512229 0.9268679023
-0.085209094 -0.16528116 1.0661666 -0.2115376443 0.1780081987 0.9610228539
-0.1641553 -0.052300178 0.97799999 0.07346589118 0.2022074312 0.976583302
-0.055250425 -0.033521604 0.96395236 -0.4395020306 0.09908453375 0.8927599192
-0.16528675 -0.075686365 0.98200017 0.01102555636 0.05908994749 0.9981917739
-0.15488526 -0.05446174 0.97573358 0.09585583955 0.2125264108 0.9724423885
-0.017463075 -0.14278896 1.0725714 0.1367805302 -0.03007253818 0.9901447892
-0.075261585 -0.0050146291 0.95388913 -0.2779138684 -0.2281523943 0.9331186414
-0.065669522 -0.025113843 0.95679384 -0.4020735621 -0.056194406 0.9138813019
-0.085025281 -0.033346567 0.94663626 -0.2219348848 -0.1455670744 0.9641343951
0.00093365001 -0.12137274 1.0650001 0.2145520747 -0.07051716 0.9741635919
-0.053592205 -0.015941123 0.9623158 -0.4010328948 0.01011954062 0.9160077572
-0.063220106 -0.0036560344 0.96276194 -0.2799928784 -0.2147006392 0.9356856346
-0.041698869 -0.0012762075 0.97075003 -0.3353430331 -0.06669475883 0.9397323132
-0.15530171 -0.015272585 0.97257125 0.1763233095 -0.07709658891 0.9813084006
-0.15543731 -0.0055220434 0.97600037 0.2152074426 -0.1263535023 0.9683597088
-0.054444101 0.0048369314 0.96682405 -0.2850608826 -0.2062364966 0.9360591769
-0.094648987 -0.024905466 0.94705528 -0.02747491188 -0.2503410876 0.9677677751
-0.037869956 -0.16118072 1.0710001 -0.06356553733 0.02746137418 0.9975997806
-0.11564112 -0.014698732 0.95383888 0.4073412418 -0.2519346774 0.8778394461
-0.095099501 -0.16503009 1.0635332 -0.3144788146 0.2056355625 0.9267238379
-0.14519607 -0.0075952443 0.9748891 0.3104777038 -0.06602782011 0.9482847452
-0.14424907 -0.024405887 0.96700019 0.3367744386 -0.04835323617 0.9403429627
-0.13533509 -0.025372365 0.9648059 0.4636810422 -0.04724590853 0.8847416043
-0.11191878 -0.026317531 0.94800001 0.3120577037 -0.2656572759 0.9121656418
-0.011972747 -0.11315103 1.071125 0.2145520747 -0.07051716 0.9741635919
-0.098898523 -0.01828376 0.94800007 -0.01390000992 -0.2102704197 0.9775444269
-0.041493449 -0.025918463 0.97164291 -0.4159574509 0.07012972236 0.9066759348
-0.12356146 -0.025733119 0.9567368 0.5239206553 -0.09557039291 0.8463884592
-0.14527136 -0.09206894 0.98520023 -0.04116085544 0.1697012782 0.9846355915
-0.085194193 -0.014805124 0.95385325 -0.1291603893 -0.2789223194 0.9515880942
-0.14476772 -0.013491148 0.9705714 0.3324591815 -0.07370345294 0.9402332902
-0.066413634 -0.1711788 1.067 -0.1167384684 0.1187853441 0.9860335588
-0.10461093 -0.02490712 0.94705552 0.1534117758 -0.2525942624 0.9553329349
-0.071758382 0.0050656716 0.96300006 -0.2729884684 -0.2389129996 0.931878686
-0.074883908 -0.033081859 0.95366687 -0.3266734183 -0.04979575053 0.9438245893
-0.029916249 -0.02307825 0.97500002 -0.3709076345 0.02785216458 0.9282519817
-0.14763504 -0.069087468 0.98100013 -0.01513617858 0.1455759257 0.9892312884
-0.13627787 -0.085181125 0.98352635 -0.01286666282 0.1805336624 0.9834846258
-0.062147781 -0.03402723 0.96233344 -0.4514223337 0.003885546001 0.8923019767
-0.024045464 -0.12801312 1.0725714 0.1790247858 -0.06236898899 0.9818657041
-0.16449913 -0.064856619 0.98100036 0.05826684088 0.1600976586 0.9853799939
-0.027226258 -0.15221713 1.0708573 0.05411944911 0.04285111278 0.9976145625
-0.13538399 -0.037709452 0.97025013 0.3939093649 0.159101665 0.90527457
-0.054898988 -0.0047645126 0.9634518 -0.3263611197 -0.1617462933 0.9313036799
-0.081825748 -0.024341607 0.95154554 -0.2398507446 -0.1402190626 0.9606301188
-0.17452945 -0.018507309 0.97433341 0.1411796361 -0.005950911902 0.9899660945
-0.014780266 -0.12415331 1.0653447 0.1833770424 -0.066309385 0.9808037281
-0.10456809 -0.1643246 1.061857 -0.3144788146 0.2056355625 0.9267238379
-0.026368927 -0.15469801 1.064625 0.04633692279 0.02144462056 0.9986956716
-0.055488098 -0.1551144 1.0712498 -0.05269312859 0.01044052094 0.9985561967
-0.074767709 -0.15718636 1.0660907 -0.1919390708 0.1560351849 0.9689233303
-0.11450056 -0.0050393902 0.95829391 0.4277224839 -0.3192989826 0.8456368446
-0.0047466774 -0.12460379 1.0662305 0.2145520747 -0.07051716 0.9741635919
-0.061564792 -0.026143953 0.96200007 -0.4391314089 0.01889699325 0.8982241154
-0.16496709 -0.082798883 0.98180008 -0.04464743286 0.04318505526 0.9980689883
-0.15812875 -0.091458246 0.97500002 -0.03459755331 0.1224611402 0.9918701053
-0.040448524 -0.13827752 1.0730001 -0.02025513537 0.09334176034 0.9954280853
-0.064485714 0.0043856278 0.96567678 -0.2817829251 -0.2181457132 0.9343504906
-0.035279259 -0.1547742 1.0717727 -0.02361933142 0.03606062382 0.9990704656
0.002055082 -0.11422284 1.0662 0.2145520747 -0.07051716 0.9741635919
-0.16815956 -0.07280454 0.97700006 0.02606967092 0.05133115873 0.9983413815
-0.12651582 -0.015316743 0.963 0.466570884 -0.2716988027 0.8417192698
-0.035726532 -0.014428735 0.96416694 -0.3903500736 0.02100621909 0.9204268456
-0.080869868 -0.031680979 0.95100003 -0.2839430869 -0.09889772534 0.9537271857
-0.11415482 -0.03251195 0.94787502 0.3857406676 -0.124058485 0.9142284393
0.005389357 -0.095835641 1.0647779 0.2145520747 -0.07051716 0.9741635919
-0.18102027 -0.045258794 0.97400004 0.05300631002 0.1347476393 0.9894611835
-0.036239021 -0.024445096 0.97433335 -0.3993401527 0.04274816811 0.9158056974
-0.10568119 -0.018367141 0.94755566 0.1386175752 -0.2273337096 0.9639006853
-0.17472687 -0.062831581 0.98180002 0.02404959314 0.1621725112 0.9864693284
-0.12383127 -0.03246332 0.95440006 0.5363408923 -0.09358583391 0.838796854
-0.074698634 -0.16529913 1.0669998 -0.1919390708 0.1560351849 0.9689233303
-0.086162932 -0.025220579 0.94760001 -0.1941754073 -0.1606904119 0.9677160978
-0.11705446 -0.15835178 1.0514001 -0.3125627637 0.2314101905 0.9212783575
-0.14478788 -0.036094058 0.97058046 0.3139565885 0.1258097887 0.9410648942
-0.13605382 -0.012783687 0.9723078 0.3588775992 -0.07649073005 0.9302451611
-0.11574447 -0.024761537 0.95210016 0.40530321 -0.2554471493 0.8777676821
-0.17499419 -0.051887639 0.97714287 0.07681401819 0.1533128768 0.9851877093
-0.1572385 -0.067080781 0.98100001 0.06271182746 0.1112085655 0.9918164611
-0.14318246 -0.071591228 0.97800004 -0.01422676817 0.1766316295 0.984174192
-0.13474548 -0.033202715 0.96523529 0.4899857044 0.04815652966 0.8703992963
-0.055499133 -0.16461609 1.0730001 -0.05833374336 0.0276192911 0.9979150295
-0.16549049 -0.056719705 0.98100019 0.06415947527 0.1920657605 0.979282558
-0.17209668 -0.081519485 0.98400003 -0.05395836756 0.03860494494 0.9977966547
-0.17292513 -0.06763088 0.97650003 0.02070361562 0.0906624943 0.9956664443
-0.015100083 -0.13109009 1.067 0.1843771935 -0.07477135211 0.9800072908
-0.085115083 -0.15795515 1.065154 -0.2115376443 0.1780081987 0.9610228539
-0.10478091 0.0029210094 0.95235014 0.15287669 -0.3149661422 0.936709702
-0.1051122 -0.0050364505 0.95699984 0.206411913 -0.275333643 0.9389278293
-0.14496297 -0.017802469 0.96700007 0.3212306499 -0.06146359071 0.9450042844
-0.05779013 -0.01428673 0.95864701 -0.3288667202 -0.07162539661 0.9416562319
-0.17349495 -0.072624378 0.97650009 -0.02978587896 0.07062440366 0.9970581532
-0.12450542 -0.0070860959 0.96219999 0.5049908757 -0.2585029006 0.8235049844
-0.14664958 -0.02728904 0.97000021 0.2961841524 -0.03436050937 0.9545125961
-0.1138527 0.00253006 0.96200007 0.3682568073 -0.3263882399 0.8705502152
-0.037523765 -0.0031183036 0.97033352 -0.3554905355 -0.05974949151 0.9327681661
-0.11775524 -0.16219023 1.0435715 -0.3125627637 0.2314101905 0.9212783575
-0.18136744 -0.023063639 0.97433335 0.1417114139 0.07069664448 0.9873803258
-0.076918736 -0.16978404 1.0700001 -0.1900869012 0.1621056348 0.9682916403
-0.0030263045 -0.10570057 1.0670002 0.2145520747 -0.07051716 0.9741635919
-0.0078169443 -0.11287668 1.0700001 0.2145520747 -0.07051716 0.9741635919
