# .PCD v0.7 - Point Cloud Data file format
VERSION 0.7
FIELDS x y z normal_x normal_y normal_z
SIZE 4 4 4 4 4 4
TYPE F F F F F F
COUNT 1 1 1 1 1 1
WIDTH 206
HEIGHT 1
VIEWPOINT 0 0 0 1 0 0 0
POINTS 206
DATA ascii
-0.044788022 -0.14484639 1.087 0.04552897811 0.1263374388 0.9909419417
-0.22105829 -0.078328632 0.99275005 0.1133837253 0.2063482702 0.9718871117
-0.11954139 -0.00430005 0.98100007 -0.3403639495 -0.3692680895 0.8647505045
-0.15852763 -0.10505973 1.0700001 0.8710852265 0.4461106658 -0.2054161727
-0.02513596 -0.049334768 1.0618001 0.6880657077 0.1594889313 0.7079045773
-0.19104978 -0.15186717 1.016 0.06445124 0.2915146649 0.954392612
-0.15535392 -0.063727811 0.96620625 0.04246335849 -0.1315805614 0.9903956056
-0.17497447 -0.10362181 0.99768418 -0.1128663346 0.3007326424 0.9470063448
-0.017523687 -0.10324749 1.0746 0.3720344603 0.1289203316 0.9192224741
-0.16154775 -0.019659249 0.97500002 0.1348378062 -0.4635083973 0.8757732511
-0.19335891 -0.046153869 0.98100001 0.5566782355 0.009818161838 0.8306701779
-0.11742169 -0.042662267 0.97509098 -0.4859623909 0.01255033631 0.8738896251
-0.21355528 -0.11402828 1.0046922 0.1817995757 0.4453708529 0.8766947985
-0.15740922 -0.1320994 1.013 -0.1209816113 0.309057653 0.9433169365
-0.071811981 -0.16400364 1.0864 0.04552897811 0.1263374388 0.9909419417
-0.033260733 -0.071272999 1.0840001 0.6880657077 0.1594889313 0.7079045773
-0.18301074 -0.092200354 1.057 0.3083299398 0.9337556362 -0.1817498952
-0.041736346 -0.11762237 1.082 0.1436040699 0.1843300611 0.9723169804
-0.19141841 -0.072758079 0.98800004 0.3298749626 0.4112419188 0.849742651
-0.13639893 -0.027481977 0.96560001 -0.1232614443 -0.2181452215 0.9681008458
-0.18556407 -0.12507677 1.0068235 0.04972323775 0.281498909 0.9582723975
-0.10580782 -0.027539022 0.99200004 -0.4868842363 -0.1688079834 0.8569992185
-0.20875713 -0.13528895 1.0220001 0.1583977044 0.3548263311 0.9214165211
-0.14276955 -0.0095179696 0.98700005 0.06566861272 -0.5199921727 0.8516429663
-0.018313918 -0.074936248 1.0658001 0.6966121197 0.18968153 0.6919193864
-0.16594444 -0.042810701 0.96700007 0.09762224555 -0.1471728384 0.9842814803
-0.20492508 -0.094846785 0.99473536 0.02207487263 0.1668718904 0.9857314229
-0.17850842 -0.064347938 0.9706924 0.4592235386 0.1153616458 0.880798161
-0.13655931 -0.053333696 0.96700031 -0.1169545203 -0.03922295943 0.9923624396
-0.027978159 -0.13229491 1.08175 0.1257897764 0.1716384739 0.9770963192
-0.034411792 -0.094077729 1.0803334 0.4858349562 0.06263486296 0.8718034625
-0.22334924 -0.097991168 1.0070001 0.02014935575 0.2744705677 0.961384356
-0.17442155 -0.11343324 1.0670002 0.05259716138 0.9030561447 -0.4262900054
-0.11908443 -0.024847584 0.9772501 -0.4975605011 -0.1767189354 0.8492372632
-0.20587167 -0.073889151 1.001 0.06860171258 0.2152240425 0.9741521478
-0.17627634 -0.14327931 1.0118002 0.02898570709 0.2527374029 0.9671006203
-0.061156265 -0.15097953 1.09 0.04552897811 0.1263374388 0.9909419417
-0.19613095 -0.10793784 1.001 -0.0257500466 0.3807494044 0.9243196249
-0.1869106 -0.08731667 0.99523073 -0.007669823244 0.1761521399 0.9843330979
-0.16671115 -0.11535767 1.0061667 -0.142029345 0.2812730372 0.9490590692
-0.15737745 -0.11386672 1.0560001 0.7730429769 0.5766189694 -0.2644146681
-0.20160791 -0.05883836 0.98700005 0.4568834901 0.2256129831 0.860439539
-0.031093964 -0.05559504 1.0748001 0.6880657077 0.1594889313 0.7079045773
-0.025576504 -0.11463125 1.08064 0.1989228576 0.1715438962 0.9648846388
-0.050505642 -0.12864645 1.087 0.08467115462 0.1465913653 0.9855667353
-0.20464702 -0.12536779 1.0116959 0.1420146972 0.41350618 0.8993577957
-0.15480207 -0.034941193 0.9721598 0.09237742424 -0.1420471221 0.9855399728
-0.17303763 -0.028127849 0.97233349 0.2556991279 -0.2215421051 0.9410297871
-0.18421954 -0.037300121 0.97433347 0.4012851417 -0.158966288 0.9020531774
-0.14527126 -0.016701948 0.97519249 0.04283159599 -0.4614381492 0.8861378431
-0.025570143 -0.085463732 1.0739999 0.6106467843 0.1368486434 0.7799890637
-0.10885702 -0.040605888 0.98550004 -0.5351304412 -0.05824511126 0.8427591324
-0.033444833 -0.083134301 1.09 0.6251494884 0.1099801138 0.7727175951
-0.22068769 -0.093334317 0.99500006 0.03843016177 0.215753451 0.9756913185
-0.16622664 -0.070963278 0.96528578 0.2308668345 -0.02080809511 0.9727628231
-0.14474319 -0.044156335 0.97137111 0.002490640152 -0.05764455721 0.9983340502
-0.1846229 -0.054649405 0.97668976 0.5215106606 0.01370585151 0.8531346321
-0.023948669 -0.063666493 1.0660001 0.6880657077 0.1594889313 0.7079045773
-0.056921441 -0.16200888 1.0857999 0.04552897811 0.1263374388 0.9909419417
-0.19611031 -0.1344161 1.0105456 0.1561405659 0.3374797404 0.9282928109
-0.16475436 -0.055691857 0.96500021 0.1308811307 -0.1083446443 0.9854601026
-0.21326964 -0.10291865 0.99535304 0.09395925701 0.2557857037 0.9621565938
-0.17546542 -0.044859152 0.97328568 0.3019524217 -0.09647426754 0.9484289289
-0.15381289 -0.053603139 0.9705767 0.002174169291 -0.1416781396 0.9899103642
-0.12814149 -0.01118013 0.98100013 -0.2689490914 -0.4001411498 0.8761012554
-0.17462634 -0.12416599 1.006875 -0.1171467006 0.2855473757 0.9511778951
-0.13294852 -0.043833334 0.97089994 -0.2138686776 -0.04613826796 0.9757722616
-0.18567084 -0.10523789 0.99791157 -0.04695515335 0.3491334915 0.9358958602
-0.12451166 -0.034562312 0.97463644 -0.4508086443 -0.02707979642 0.8922097683
-0.18443939 -0.13520385 1.0101202 0.08542431146 0.3023555875 0.9493596554
-0.18270454 -0.095125698 1.0010002 -0.01065662783 0.2348065823 0.9719836712
-0.034768775 -0.10448867 1.0806 0.2965189815 0.08602470905 0.9511446953
-0.034973741 -0.14314389 1.09 0.0755096525 0.1237167642 0.9894405007
-0.1350098 -0.017458567 0.97500008 -0.06544811279 -0.4430329502 0.894113183
-0.14531301 -0.061775066 0.96528572 -0.03480368853 -0.1365322173 0.9900240898
-0.16514821 -0.11284722 1.0626668 0.8473346233 0.4683899581 -0.2502696216
-0.18471107 -0.11576795 1.0026956 -0.0006555066211 0.2950385809 0.9554851055
-0.19147822 -0.14343825 1.0106667 0.0875749588 0.2988593876 0.9502703547
-0.16709703 -0.14316016 1.0156667 -0.06392844766 0.2912374735 0.9545123577
-0.1975503 -0.067464083 0.99366665 0.2525378764 0.3342349529 0.9080262184
-0.21476242 -0.085380293 0.99525744 0.09667430818 0.1945312023 0.9761207104
-0.19518527 -0.09494485 0.99553579 -0.02691314369 0.1934441179 0.9807420969
-0.025492592 -0.095361158 1.0769998 0.444226712 0.1029377803 0.8899811506
-0.031157609 -0.065147728 1.077 0.6880657077 0.1594889313 0.7079045773
-0.11603741 -0.015962653 0.97608709 -0.4286966622 -0.2549808323 0.8667201996
-0.035114918 -0.12431928 1.0824798 0.1436040699 0.1843300611 0.9723169804
-0.044911634 -0.12135696 1.09 0.1249174327 0.1683553159 0.97777915
-0.031433761 -0.075125359 1.0756667 0.6880657077 0.1594889313 0.7079045773
-0.1656152 -0.033569276 0.971421 0.1160377413 -0.1799497008 0.9768077135
-0.20560001 -0.085436776 0.99624139 0.05820016935 0.1755460352 0.9827493429
-0.14400476 -0.032613534 0.96625006 -0.006994548254 -0.1393873841 0.9902132154
-0.1632992 -0.12573153 1.0100001 -0.1616121083 0.2926966846 0.9424490333
-0.17583495 -0.054012038 0.97308004 0.3625386357 -0.02912462689 0.9315135479
-0.21135907 -0.13143337 1.013 0.2483545095 0.4106259048 0.8773291111
-0.15490389 -0.044712521 0.97233313 0.03850200772 -0.1245862022 0.9914614558
-0.11294798 -0.033827055 0.98100001 -0.5386223793 -0.06813251972 0.8397880197
-0.025724761 -0.1052694 1.0801667 0.3648209274 0.1024563462 0.9254233241
-0.053707514 -0.14549439 1.087 0.04552897811 0.1263374388 0.9909419417
-0.21206056 -0.12264961 1.0065 0.2261135429 0.4494507313 0.8642144799
-0.12722647 -0.05063561 0.97075003 -0.340965122 0.02967769653 0.9396073818
-0.036444958 -0.11254506 1.0769999 0.2048772424 0.1447439492 0.9680261016
-0.03524046 -0.1342916 1.0863999 0.09192682058 0.1328513473 0.9868637323
-0.17527926 -0.13475379 1.0100883 -0.1075681075 0.2834218442 0.9529434443
-0.12843211 -0.024160493 0.96700007 -0.2849216759 -0.2406227887 0.9278579354
-0.2049509 -0.11459397 1.0057585 0.1577455401 0.4262920916 0.8907251954
-0.13448589 -0.0062473025 0.98411977 -0.09314034879 -0.4782104492 0.8732924461
-0.19624145 -0.075834371 0.99525017 0.08015634865 0.3032913208 0.9495205879
-0.045804355 -0.15338983 1.0867692 0.04552897811 0.1263374388 0.9909419417
-0.19526687 -0.085359164 0.99500024 -0.02073409222 0.1557620764 0.9875769615
-0.15545902 -0.025622921 0.97433323 0.07164938003 -0.3866293132 0.9194477201
-0.19436097 -0.063812226 0.98669243 0.4881640673 0.2314166576 0.8415118456
-0.026390409 -0.12413249 1.0801739 0.155125469 0.188666746 0.9697117805
-0.19455406 -0.055593573 0.98389661 0.5400206447 0.1640752554 0.8255041242
-0.051140934 -0.13754052 1.087 0.04552897811 0.1263374388 0.9909419417
-0.17496793 -0.11472028 1.0051351 -0.1094497889 0.3022768497 0.9469157457
-0.20429105 -0.1063733 1.0017502 0.03832339495 0.3508883119 0.9356327653
-0.16564207 -0.10490672 1.0657498 0.8081377745 0.5446347594 -0.2242461443
-0.1456994 -0.024454115 0.97234607 0.03378075361 -0.4212343693 0.9063224792
-0.12457833 -0.015772643 0.97512138 -0.2449382395 -0.3747005463 0.8942062259
-0.1650276 -0.13443199 1.0107943 -0.1209816113 0.309057653 0.9433169365
-0.17439699 -0.10533932 1.0657824 0.06582071632 0.9312012196 -0.3585135341
-0.14577715 -0.052115325 0.97000021 -0.04777921736 -0.06646727771 0.9966440201
-0.13429387 -0.035928957 0.97119975 -0.1534253806 -0.09007227421 0.9840465784
-0.019569829 -0.057777591 1.0630001 0.6880657077 0.1594889313 0.7079045773
-0.018187406 -0.08649648 1.0713636 0.6436505318 0.1646954715 0.7473883629
-0.17541635 -0.035511166 0.97132349 0.2613759935 -0.1680508703 0.9504954219
-0.19551077 -0.11478139 1.004724 0.01932108402 0.3646957874 0.9309262633
-0.16899328 -0.10826132 1.0040001 -0.1328959763 0.2914623916 0.9473057985
-0.17209055 -0.057080936 0.96700007 0.2454260737 -0.08451666683 0.965724051
-0.19311322 -0.1252477 1.0070001 0.1222609729 0.3684875965 0.9215580225
-0.12489834 -0.044045933 0.97360599 -0.4356773198 0.003037107177 0.9000977874
-0.1650957 -0.02631218 0.97472429 0.146763429 -0.3249003887 0.9342913032
-0.018056078 -0.095262982 1.075857 0.4971637428 0.116158776 0.8598461151
-0.032806002 -0.086846031 1.0814999 0.5697119832 0.06939915568 0.818909049
-0.18506332 -0.044693291 0.97524261 0.4665249288 -0.05400864035 0.8828576207
-0.016796276 -0.082103997 1.06425 0.6721812487 0.1651919931 0.7217229009
-0.025497524 -0.075163409 1.0712221 0.6880657077 0.1594889313 0.7079045773
-0.15792501 -0.10832461 1.0634 0.7730429769 0.5766189694 -0.2644146681
-0.054457482 -0.1551165 1.086625 0.04552897811 0.1263374388 0.9909419417
-0.18491518 -0.063479222 0.97414273 0.532136023 0.1361589283 0.8356387019
-0.2136818 -0.10749905 1.001 0.1135196239 0.3585469723 0.9265837073
-0.10643309 -0.033884168 0.98628569 -0.504455328 -0.1240371987 0.8544820547
-0.044629205 -0.13452291 1.087 0.07654745877 0.123241283 0.9894200563
-0.15477958 -0.017529082 0.97545016 0.09342141449 -0.4825831652 0.8708535433
-0.21521914 -0.077872589 0.99676478 0.1034036502 0.2049413919 0.9732968211
-0.20478274 -0.13266064 1.0168182 0.1583977044 0.3548263311 0.9214165211
-0.064838752 -0.16426443 1.0858887 0.04552897811 0.1263374388 0.9909419417
-0.20389681 -0.067268647 0.99650002 0.1466841549 0.3102312386 0.9392765164
-0.16462924 -0.05147304 0.97050017 0.1308811307 -0.1083446443 0.9854601026
-0.019121854 -0.11351229 1.0828573 0.3041848242 0.100127846 0.9473362565
-0.16537303 -0.064234018 0.96408367 0.1707945168 -0.1148508713 0.9785900712
-0.16219299 -0.11906156 1.011 -0.1833783686 0.2574122548 0.9487419724
-0.062757686 -0.15682615 1.087 0.04552897811 0.1263374388 0.9909419417
-0.13548 -0.012652121 0.98238468 -0.02461674064 -0.4799906909 0.8769281507
-0.019409399 -0.1074618 1.08 0.3652746081 0.1096337736 0.92442137
-0.18496548 -0.14437014 1.0116668 0.07294148952 0.2795554399 0.9573548436
-0.10854799 -0.025705697 0.98627281 -0.4868842363 -0.1688079834 0.8569992185
-0.20593786 -0.10235914 0.99680007 0.04575131088 0.2781308889 0.9594529867
-0.13385402 -0.0246015 0.97081816 -0.1311761588 -0.3327454925 0.9338486195
-0.027637985 -0.066223793 1.0706668 0.6880657077 0.1594889313 0.7079045773
-0.17326434 -0.063710675 0.96700007 0.3311426044 0.05818114057 0.9417852759
-0.18705647 -0.11216389 0.99800003 -0.03676329926 0.3179895282 0.9473811984
-0.12476689 -0.025274046 0.97461301 -0.372747153 -0.1733569801 0.9115958214
-0.11610135 -0.01978023 0.98100007 -0.457562983 -0.2400058657 0.8561736345
-0.11848413 -0.0088499496 0.97700006 -0.3403639495 -0.3692680895 0.8647505045
-0.13944259 -0.060847677 0.96400005 -0.06755845994 -0.1221481487 0.9902099371
-0.2149539 -0.094809517 0.99361557 0.0518899709 0.2051257938 0.9773591161
-0.20453508 -0.1195335 1.01 0.1884860694 0.4244897366 0.8855966926
-0.15720378 -0.056458045 0.96645457 0.05945256725 -0.1341574043 0.9891750216
-0.18361399 -0.096923128 1.0606923 -0.4210110307 0.9067140222 -0.02488665842
-0.12587668 -0.0056790905 0.98145008 -0.2689490914 -0.4001411498 0.8761012554
-0.22191615 -0.084092498 0.99399996 0.09754680842 0.208450824 0.9731561542
-0.19461489 -0.10317753 0.99784207 -0.02760823257 0.3428158462 0.9389968514
-0.043513972 -0.12538764 1.0859411 0.1153178215 0.155832231 0.9810290933
-0.03210178 -0.10857955 1.077 0.306920588 0.07421854883 0.948836863
-0.0196987 -0.0787948 1.0700001 0.6966121197 0.18968153 0.6919193864
-0.17689466 -0.10693859 1.0020909 -0.05179675668 0.3218554556 0.9453709126
-0.21148795 -0.075468726 1.001 0.06860171258 0.2152240425 0.9741521478
-0.18252902 -0.10091748 1.001 -0.07053852826 0.302424401 0.9505597353
-0.17585757 -0.097990289 0.99800003 -0.09417377412 0.2776999474 0.9560407996
-0.19789435 -0.12514125 1.0100001 0.1282380074 0.3900620341 0.9118150473
-0.11636126 -0.034868773 0.97663647 -0.5351304412 -0.05824511126 0.8427591324
-0.18661614 -0.094811432 0.99695653 -0.04884558544 0.1916185915 0.9802532196
-0.15619549 -0.036664613 0.96700007 0.09148387611 -0.1414547712 0.9857084751
-0.018591469 -0.064944975 1.0651819 0.6966121197 0.18968153 0.6919193864
-0.19119574 -0.042011619 0.97800004 0.556165874 -0.03438961878 0.8303594589
-0.024254343 -0.055032887 1.0639499 0.6880657077 0.1594889313 0.7079045773
-0.18572307 -0.15210626 1.0173846 0.05128019676 0.2716240287 0.9610362649
-0.17744347 -0.14566255 1.0070001 -0.03404750675 0.279671818 0.9594917893
-0.14485121 -0.035858922 0.9705714 0.01274488028 -0.101463519 0.9947575927
-0.13592045 -0.04620165 0.96700007 -0.1180373281 -0.02949361131 0.9925710559
-0.15747729 -0.12671272 1.0123334 -0.175238207 0.3002924919 0.9376118779
-0.17039508 -0.039843623 0.96700007 0.1929120421 -0.1659355313 0.9670833945
-0.021715909 -0.10102619 1.077 0.3720344603 0.1289203316 0.9192224741
-0.15391636 -0.060376033 0.97000003 0.01731204242 -0.1225492656 0.9923114181
-0.11524884 -0.024950435 0.98142868 -0.4975605011 -0.1767189354 0.8492372632
-0.18662217 -0.052460611 0.98100007 0.5601602197 0.04780752584 0.8270035982
-0.16395147 -0.038033873 0.96664709 0.1077883169 -0.1519246697 0.9824970961
-0.18828936 -0.13380775 1.0070001 0.1218260825 0.3258335292 0.9375451803
-0.031157609 -0.084975302 1.077 0.6294142008 0.1052008197 0.7699159384
-0.11283094 -0.0413436 0.98250008 -0.5031678677 -0.04599918425 0.8629636168
-0.14436457 -0.055900753 0.96700007 -0.04832838848 -0.0971050635 0.9941000938
-0.033518035 -0.097721592 1.077 0.4521482289 0.07554227114 0.8887380362
-0.16454464 -0.045875609 0.97068179 0.09762224555 -0.1471728384 0.9842814803
-0.034021679 -0.11569896 1.08 0.1864735484 0.1621631533 0.9689843655
-0.14496297 -0.04832099 0.96700007 -0.0300882794 -0.0243332386 0.999251008
