# .PCD v0.7 - Point Cloud Data file format
VERSION 0.7
FIELDS x y z normal_x normal_y normal_z
SIZE 4 4 4 4 4 4
TYPE F F F F F F
COUNT 1 1 1 1 1 1
WIDTH 206
HEIGHT 1
VIEWPOINT 0 0 0 1 0 0 0
POINTS 206
DATA ascii
0.15643218 -0.0082143666 0.85174996 0.247046262 0.4713216722 0.8466545939
0.044523269 0.050772149 0.89100003 0.6048361659 0.227618739 0.7631270885
0.12905869 0.10464704 0.81900012 0.4250051379 -0.2630621791 0.8661229014
0.084830329 -0.045019411 0.93115401 0.1613888443 0.6291241646 0.7603660226
0.16619116 0.034213156 0.91210526 0.2831778526 0.9556242824 0.08119446784
0.20021401 0.05135601 0.84900004 -0.583398819 0.1457589418 0.7989994884
0.10604708 0.037114345 0.83212507 0.7118602395 0.1866949797 0.6770524383
0.15502328 0.054503709 0.80744874 -0.1750875711 0.08989389241 0.9804404378
0.21333158 -0.00075919338 0.866 -0.7043795586 0.4893957675 0.514141202
0.045479998 -0.0022823531 0.90133327 -0.4858659208 0.2402608991 0.8403624296
0.13228269 -0.051904272 0.92800009 0.6776246428 -0.5053337216 0.5342870951
0.15907994 0.037696667 0.86000001 0.5146020651 -0.4237439334 0.745403111
0.17676668 0.09018708 0.82300001 -0.2849479914 -0.4476135969 0.847612381
0.18516636 0.015142196 0.83308899 -0.06432718784 0.1828057766 0.9810423255
0.10551348 0.07511922 0.83353341 0.7041997313 -0.2684835792 0.6572817564
0.18448836 0.058039017 0.82140005 -0.6360498667 0.2800568044 0.7190332413
0.19105724 -0.014869144 0.84800005 -0.3692421317 0.6398278475 0.6740034223
0.12332371 0.054542553 0.81211114 0.5105478764 0.1177409813 0.851749897
0.10959297 0.10297327 0.83900005 0.5621140003 -0.2109904587 0.7996942401
0.038311962 0.023985596 0.88671434 0.6048361659 0.227618739 0.7631270885
0.14552775 0.083757997 0.81525016 0.0908152014 -0.4743277431 0.8756516576
0.15863967 0.015492512 0.84166658 0.6120448112 -0.01565049589 0.7906682491
0.22201657 0.022859521 0.86433339 -0.8097761869 0.02275723591 0.5862974524
0.16990589 0.040453784 0.83900005 -0.5593340993 0.7655124664 0.3180188835
0.13914962 0.037872523 0.80900002 0.1482915878 0.3256969452 0.9337725043
0.11491587 -0.037817772 0.92575014 0.06150425971 0.508996129 0.8585686684
0.17533475 -0.023187039 0.86072725 0.03477537259 0.5969383717 0.8015330434
0.195151 0.034574863 0.83646345 -0.3910151124 -0.09578660876 0.9153863192
0.12546495 0.085010394 0.82704878 0.4930790365 -0.1930342019 0.8482987881
0.15873715 0.097067602 0.8325001 -0.07456309348 -0.5136671066 0.8547434807
0.16657987 0.075604744 0.8112309 -0.2939188778 -0.2079895437 0.9329265952
0.096988261 0.052660994 0.84271431 0.7759377956 0.02250169031 0.630407989
0.17542231 -0.0011032849 0.83900011 0.06202333793 0.4555550814 0.8880442977
0.10708265 0.054985974 0.82535726 0.751771152 0.04313354194 0.6580119133
0.16115324 0.039393015 0.81700003 -0.4397177398 0.6697707772 0.598377347
0.2013493 0.01403105 0.84233338 -0.6932662725 0.2882007957 0.6605468988
0.1210347 0.035155736 0.82180005 0.5349348187 0.3722452521 0.7584709525
0.051444113 0.012712104 0.89250004 0.2177117467 0.5775707364 0.7867742181
0.185133 0.050690617 0.838 -0.4214947224 0.4667460024 0.7774897814
0.10515644 -0.052601289 0.92610538 0.1613888443 0.6291241646 0.7603660226
0.12978786 0.070213109 0.80900002 0.3751715422 -0.3631569147 0.85285604
0.16658017 0.017466882 0.90899998 0.2631882429 -0.7138662338 0.6489429474
0.20760167 0.016547961 0.85799992 -0.7492365837 0.2077637315 0.6288710237
0.051601145 0.03423997 0.88512516 0.6048361659 0.227618739 0.7631270885
0.18355493 0.075576209 0.81852007 -0.5577968955 -0.2451095581 0.7929589748
0.1010972 -0.030166101 0.93000007 0.1613888443 0.6291241646 0.7603660226
0.19770148 -0.00074604334 0.85100001 -0.6240618229 0.495485276 0.6041864157
0.14475524 0.065264121 0.80544913 0.04736213759 -0.1354358643 0.9896534681
0.11904193 0.07249219 0.81871432 0.5600765944 -0.4073603153 0.7213680148
0.174753 -0.013302248 0.8467502 0.03477537259 0.5969383717 0.8015330434
0.17515446 0.025450472 0.83205485 0.08827947825 0.06275695562 0.9941168427
0.1683577 0.051919077 0.81128567 -0.4342327118 0.2800129652 0.856174469
0.11730546 0.10137729 0.82600003 0.5100144148 -0.1914698035 0.8385848999
0.16293815 0.028753789 0.84100002 0.7464774847 -0.1348391473 0.6516054869
0.14209956 0.10283871 0.82175004 0.1308354437 -0.4753304124 0.8700247407
0.17575055 0.064958818 0.81425726 -0.4575215876 0.007989753969 0.8891626
0.15576713 -0.020690335 0.85600001 0.1593499333 0.5278024673 0.8342854381
0.13521649 0.054771192 0.80657667 0.2271492332 0.07249321043 0.9711580276
0.1894801 0.00073727668 0.84100002 -0.1865968555 0.4376579523 0.879566431
0.1550639 0.073639974 0.80766642 -0.05300554261 -0.3131856024 0.9482115507
0.11272394 0.044532642 0.82346141 0.6895841956 0.2025278062 0.6953101158
0.16476159 0.06427145 0.80795622 -0.2885192633 -0.0675181672 0.9550905228
0.16436659 -0.0058392519 0.84321278 0.1882472783 0.5114993453 0.8384100199
0.038100686 0.0061825034 0.89742869 -0.4858659208 0.2402608991 0.8403624296
0.096101619 -0.045206919 0.9275555 0.1613888443 0.6291241646 0.7603660226
0.11541635 0.083979361 0.83300012 0.5784063339 -0.2719353437 0.7690886259
0.099040836 0.063897312 0.84100002 0.7819675207 -0.0776264593 0.6184666157
0.20160747 0.025255343 0.83512497 -0.6689631343 -0.001750137308 0.7432935238
0.16604988 0.0053173997 0.8382861 0.2535381913 0.3106764257 0.9160777926
0.13461781 0.094594516 0.8221063 0.2571781576 -0.3727177978 0.8915945292
0.18478802 0.035130363 0.83265853 -0.2085297406 0.0970819667 0.9731857181
0.12451942 -0.045557581 0.92405885 0.6776246428 -0.5053337216 0.5342870951
0.079764396 -0.038648728 0.93800002 0.1609486789 0.6345350742 0.7559502125
0.15723805 0.092075177 0.8232857 -0.1137621701 -0.4984422922 0.85942626
0.18160544 -0.018683959 0.85250002 -0.001266988344 0.6025665998 0.7980676293
0.13546972 0.08174257 0.81646675 0.350849539 -0.4120148718 0.840921104
0.11155474 0.066268221 0.82162505 0.6689751148 -0.2568477094 0.6974966526
0.16577417 -0.020872029 0.85640001 0.05392869562 0.558363378 0.8278417587
0.14859413 0.040525671 0.81100005 0.01734054461 0.269004792 0.9629827142
0.17486902 0.015490455 0.83250958 0.1433379799 0.1368648708 0.9801644087
0.12476263 0.044855859 0.81383342 0.4592041671 0.2695252895 0.8464559317
0.12511897 0.094740018 0.82500046 0.5165883899 -0.2481135726 0.8194974661
0.11485308 -0.052588191 0.92452955 0.23108311 0.6841267943 0.6917883158
0.10232873 0.054818779 0.83378565 0.7853634953 -0.004253926687 0.6190202236
0.18520108 0.025517086 0.83171427 -0.02957276441 -0.04078771174 0.998730123
0.038875639 0.014605998 0.89283341 0.2177117467 0.5775707364 0.7867742181
0.21514972 0.015038486 0.86356771 -0.7678727508 0.1570432335 0.6210546494
0.1010069 0.0442366 0.84100002 0.7548006773 0.0833581686 0.6506361365
0.15495951 0.084628642 0.81473923 -0.06623922288 -0.5324748158 0.8438500762
0.1446496 0.054902609 0.80559266 0.03248289973 0.1091012433 0.9934997559
0.19450343 0.015747182 0.83602697 -0.4667338431 0.2405398786 0.8510581851
0.15492022 0.064373054 0.80691803 -0.1396735162 -0.09655477852 0.9854788184
0.17465857 0.034873158 0.83345467 -0.2006477416 0.528347373 0.8249785304
0.18467544 0.0053088637 0.83478254 -0.109957628 0.3398794234 0.9340189099
0.20870928 0.0070431405 0.86571425 -0.7218672037 0.3898591995 0.5717670918
0.17114286 0.027860465 0.90800005 0.2895763218 0.9562880993 0.04072654247
0.051612861 0.025303228 0.88628578 0.6048361659 0.227618739 0.7631270885
0.17506421 0.084463768 0.81627285 -0.2821884751 -0.4018833339 0.8711254001
0.17596643 0.054895453 0.815 -0.595948875 0.3658411205 0.7148462534
0.19291118 0.042977199 0.83836836 -0.3577156067 0.09974272549 0.928488493
0.16481398 0.084115252 0.81294864 -0.2045538127 -0.487185657 0.8490040302
0.11339641 0.097083665 0.83366674 0.5299978852 -0.2139475048 0.8205660582
0.17551909 0.075163029 0.81494874 -0.306452781 -0.2597264946 0.9157668352
0.16558938 0.015815858 0.83633333 0.3678553104 0.04759759828 0.9286640286
0.14568397 0.073655076 0.80758059 0.06482695043 -0.3479172885 0.9352812767
0.15825179 0.0050470401 0.84211999 0.3765462339 0.2747996747 0.8847022653
0.11575515 0.055327073 0.81616288 0.6300317049 0.0744329989 0.7729940414
0.12020415 0.091063753 0.83100003 0.5547074676 -0.213907361 0.8040791154
0.12392713 0.065207392 0.81256121 0.4960376024 -0.2289259434 0.837579608
0.045425359 0.01837055 0.889 0.4485321343 0.4948684573 0.744260788
0.085995063 -0.036048464 0.93292308 0.1613888443 0.6291241646 0.7603660226
0.10728336 0.082747214 0.83663636 0.659686029 -0.2496750951 0.7088558674
0.20981088 0.021965761 0.86400002 -0.8097761869 0.02275723591 0.5862974524
0.16522679 -0.013085263 0.84723097 0.122966826 0.5678944588 0.8138642907
0.18336964 0.065461062 0.81758338 -0.5991012454 0.1167872995 0.7921101451
0.16288495 0.046099514 0.80900002 -0.3782330155 0.3149620295 0.8704818487
0.099058948 0.071175687 0.83700001 0.7680052519 -0.1988429576 0.6087934375
0.1151118 0.075004466 0.82557148 0.5944670439 -0.3814976811 0.7078619003
0.052643474 0.0054963501 0.8962667 -0.4276680052 0.2737052441 0.8615018725
0.20110348 0.044996325 0.84399998 -0.6600424647 0.007319438271 0.7511926293
0.13631612 0.045411237 0.80799991 0.1489466429 0.2270242125 0.9624317884
0.094022505 -0.034111101 0.93000025 0.1613888443 0.6291241646 0.7603660226
0.19350722 0.0078492006 0.83730769 -0.4790721238 0.3393081427 0.8095430136
0.14212164 0.08819624 0.82100004 0.09513736516 -0.4943963587 0.8640145659
0.17597154 0.043355323 0.83462507 -0.336768508 0.7442738414 0.5767524242
0.13487224 0.06462577 0.80660844 0.2546192706 -0.1812725812 0.9498996139
0.11697391 0.045927811 0.81693345 0.5985121131 0.1780489236 0.7810773253
0.10432522 -0.036302023 0.92632329 0.1613888443 0.6291241646 0.7603660226
0.12275767 0.078234605 0.82249999 0.4945828021 -0.4402796626 0.7493608594
0.12548967 0.074220657 0.8140499 0.4442291856 -0.432908833 0.7843789458
0.15591732 0.042934906 0.81118768 -0.233255282 0.3132500648 0.9205793738
0.18532114 -0.0054324837 0.84269983 -0.1484226286 0.533243835 0.8328396082
0.12931505 0.048463594 0.80900002 0.3385933936 0.2022741884 0.9189339876
0.13493638 0.08685182 0.82251716 0.3317472339 -0.3252512515 0.885525465
0.18202426 0.083642431 0.81869251 -0.4286714196 -0.3216663599 0.8442580104
0.10457641 0.044300243 0.83455002 0.7561018467 0.1187059432 0.6435983777
0.03956835 0.031034 0.88500005 0.6048361659 0.227618739 0.7631270885
0.1149419 -0.045328919 0.92333347 0.2248391807 0.6959987283 0.6819333434
0.10236014 0.065200008 0.83425939 0.7702358961 -0.1096090972 0.6282694936
0.050544217 0.041212976 0.88700002 0.6048361659 0.227618739 0.7631270885
0.11510786 0.036198895 0.82585716 0.6607806683 0.2571709156 0.7051467896
0.19234258 -0.0038559306 0.8458001 -0.5187747478 0.5621569157 0.6440903544
0.16872904 0.033474013 0.83785713 0.5152953267 -0.1212964132 0.8483854532
0.10858906 0.071667872 0.82814294 0.6784204841 -0.2877203822 0.6759901047
0.1049049 -0.045599122 0.9254998 0.1613888443 0.6291241646 0.7603660226
0.11616235 0.064737491 0.81653857 0.6211125851 -0.1824205965 0.7621954083
0.12539539 0.037179369 0.81671435 0.4817878008 0.3158650994 0.8173797727
0.14479393 0.044817258 0.80704325 -0.00523077976 0.2111379653 0.9774422646
0.14275138 0.095099375 0.82155991 0.08697754145 -0.4694334865 0.8786734939
0.12264605 -0.038955439 0.92299998 0.6764662862 -0.5328351259 0.5084093809
0.13388725 0.076892085 0.8117826 0.3344685137 -0.44069314 0.8330188394
0.051455949 0.00079163001 0.90300006 -0.4858659208 0.2402608991 0.8403624296
0.12478247 -0.052104607 0.92625016 0.6776246428 -0.5053337216 0.5342870951
0.17511924 0.0052168597 0.83625013 0.1204277873 0.2939157486 0.9482144713
0.11132956 0.077971801 0.83122224 0.6557952166 -0.268409133 0.7056125998
0.16992342 0.067542784 0.81100005 -0.3428052068 -0.09653474391 0.934433341
0.045096338 0.034988798 0.8869046 0.6048361659 0.227618739 0.7631270885
0.078914024 -0.045558613 0.92800003 0.1609486789 0.6345350742 0.7559502125
0.19491139 0.02498538 0.83510226 -0.3766098619 0.002789807739 0.9263677597
0.1354557 0.1028657 0.82099986 0.2089419961 -0.4067185223 0.8893386722
0.22161473 0.016357657 0.86323082 -0.7993046045 0.04625929892 0.599142909
0.16625398 0.025580205 0.91177779 0.2772312462 0.9293310642 -0.2438988835
0.045112986 0.024887795 0.88722199 0.6048361659 0.227618739 0.7631270885
0.18465911 -0.014192208 0.8467142 -0.006918791216 0.5975509882 0.8018010855
0.16520607 0.024650179 0.83643597 0.6176949739 -0.05792878196 0.7842813134
0.1754891 -0.017701378 0.85456246 0.03477537259 0.5969383717 0.8015330434
0.15815747 -0.0040900884 0.84700006 0.2669571936 0.4641896784 0.844548285
0.09843915 -0.051253438 0.92800003 0.1613888443 0.6291241646 0.7603660226
0.044561259 0.0060271998 0.89700019 -0.4858659208 0.2402608991 0.8403624296
0.18196847 -0.001323942 0.83900005 -0.04943299294 0.4185498059 0.9068475366
0.20152487 0.033988316 0.83735293 -0.5937278271 -0.1398577541 0.7924185395
0.18771319 0.073027648 0.82274997 -0.6788216829 -0.009185344912 0.7342456579
0.14336054 0.077883802 0.8118571 0.1435481608 -0.4596162736 0.8764398694
0.12868375 0.063468151 0.80860007 0.3865149021 -0.1556662619 0.9090512991
0.1651582 0.034442477 0.84306657 0.5169922709 -0.2245922089 0.8260008097
0.044973966 0.012950266 0.89376676 0.2177117467 0.5775707364 0.7867742181
0.12937175 0.08154548 0.81833339 0.4567040205 -0.4075026512 0.7907989621
0.13387705 0.037412498 0.81252378 0.2776896954 0.3542694747 0.8929622173
0.10680851 0.064625822 0.82551855 0.7361941338 -0.1619377285 0.6571106315
0.051658165 0.017651392 0.88833332 0.4485321343 0.4948684573 0.744260788
0.20128822 0.019368781 0.83900005 -0.691554904 0.1603307575 0.7043052316
0.18488751 0.044626836 0.83634871 -0.4181375206 0.4103496969 0.8104160428
0.15448338 0.078782037 0.8112222 -0.02693678252 -0.408609122 0.9123119116
0.15960856 0.023536745 0.83900005 0.7074111104 -0.04327761382 0.7054761052
0.045421783 0.04440492 0.88861537 0.6048361659 0.227618739 0.7631270885
0.16696379 -0.00073552335 0.83900005 0.2242668271 0.3900019228 0.8930861354
0.12828919 0.055072028 0.80849999 0.4152936637 0.09440626204 0.9047754407
0.11812324 0.081089623 0.82833338 0.5648960471 -0.2986519039 0.7692200541
0.21574625 0.023138106 0.86472011 -0.8097761869 0.02275723591 0.5862974524
0.21452127 0.0055171223 0.86579555 -0.7218672037 0.3898591995 0.5717670918
0.12475994 0.10200921 0.82221746 0.5071557164 -0.2143802345 0.8347659111
0.10860247 0.046683509 0.82715386 0.7447639108 0.1393991113 0.6526060104
0.16453841 0.055143688 0.80821943 -0.277400583 0.09235497564 0.9563050866
0.11734731 0.095810853 0.82772017 0.5280705094 -0.213396728 0.8219509721
0.15677774 -0.015199272 0.85450017 0.1593499333 0.5278024673 0.8342854381
0.13223436 0.042839196 0.81144434 0.2917143404 0.2591381073 0.9207335114
0.135344 0.072548851 0.80831033 0.2975313067 -0.3954681456 0.8689534664
0.096782655 -0.038520813 0.92772734 0.1613888443 0.6291241646 0.7603660226
0.17143421 0.047791485 0.81366676 -0.5510048866 0.4293435812 0.7155820727
0.097008936 0.045568839 0.8447333 0.7759377956 0.02250169031 0.630407989
0.17472786 -0.0060879677 0.84149969 0.08789984882 0.5266221762 0.8455428481
0.038967833 0.01870456 0.88900006 0.4248076975 0.5246425867 0.7377591729
0.079367556 -0.04172641 0.9333334 0.1609486789 0.6345350742 0.7559502125
0.11093711 0.054664548 0.82130772 0.7059084773 0.09071949869 0.7024694085
0.16399699 -0.017109746 0.85282356 0.1445327699 0.5351416469 0.8323062658
0.091239482 -0.045879159 0.93000025 0.1613888443 0.6291241646 0.7603660226
