# .PCD v0.7 - Point Cloud Data file format
VERSION 0.7
FIELDS x y z normal_x normal_y normal_z
SIZE 4 4 4 4 4 4
TYPE F F F F F F
COUNT 1 1 1 1 1 1
WIDTH 206
HEIGHT 1
VIEWPOINT 0 0 0 1 0 0 0
POINTS 206
DATA ascii
-0.041934907 -0.27479115 1.1255001 0.2079970837 -0.1155497804 0.9712803364
-0.1230286 -0.097297899 1.0334001 0.02091269754 -0.04610959813 0.9987174869
-0.17570505 -0.25623652 1.1930001 0.4293791652 0.8928960562 0.1355366409
0.0021232867 -0.17077291 1.0380001 -0.618355453 0.1639170647 0.7686141133
-0.13890257 -0.26517764 1.108 -0.3404755592 0.01784017868 0.9400840998
-0.14247291 -0.17374098 1.0446428 0.1684120148 0.2994300425 0.9391373992
-0.048097439 -0.10866459 1.016 -0.007425897289 -0.2664487362 0.9638205171
-0.095100798 -0.29025558 1.13 -0.2672428787 -0.2428684682 0.9325214028
-0.10594195 -0.14195366 1.0270001 0.1275904328 0.02955708466 0.9913864136
-0.041724756 -0.16281892 1.0223336 -0.2473002076 0.3176457882 0.9153926969
-0.14802535 -0.1319634 1.041 0.1513931453 0.1143813804 0.9818335176
-0.014750246 -0.13731854 1.0356251 -0.6684886813 -0.1570438594 0.7269526124
-0.066210248 -0.14036573 1.0070001 0.143004939 -0.276868552 0.9502070546
-0.088406444 -0.10596594 1.033077 0.08801343292 -0.1604993492 0.9831040502
-0.017409431 -0.25783789 1.1240001 0.2195362151 -0.1912131459 0.9566825032
-0.06537208 -0.29207078 1.1314546 -0.0252160728 -0.1466212869 0.9888712764
-0.1079089 -0.26584828 1.1190001 -0.2431141883 0.1733873487 0.9543753266
-0.035378158 -0.13589674 1.0169379 -0.2657017708 -0.09063655138 0.9597851634
-0.12473036 -0.12473036 1.0309998 0.1353215426 0.01776452921 0.990642488
-0.080525339 -0.26941195 1.1340001 -0.1452016383 0.0185211692 0.9892287254
-0.11663767 -0.16298079 1.033643 0.2132953554 0.2765520215 0.9370293617
-0.15970674 -0.15301429 1.041 0.1059226915 0.23897627 0.9652309418
-0.083407946 -0.13408555 1.0245715 0.3041998744 -0.4152209759 0.8573529124
-0.018153012 -0.16389208 1.028 -0.4534658194 0.3053019941 0.8373526335
-0.12336813 -0.28184745 1.1158888 -0.2919845283 0.02731422335 0.9560329318
-0.064508639 -0.1209537 1.0220001 0.3126301169 -0.4264105558 0.8487852812
-0.13499813 -0.15294105 1.0372002 0.1390849352 0.3026280701 0.9429059625
-0.10528111 -0.11669123 1.0275999 -0.02332398295 -0.106232129 0.9940677881
0.00181996 -0.14832674 1.0380001 -0.7023311853 0.01114537381 0.7117630839
-0.086018533 -0.26685295 1.115 -0.2110314667 -0.06975975633 0.9749867916
-0.018370843 -0.14549278 1.0140001 -0.4917573631 0.06740990281 0.8681190014
-0.034095906 -0.25916547 1.1326667 0.2195362151 -0.1912131459 0.9566825032
-0.054150209 -0.15264267 1.0126472 -0.1839223802 0.1114774048 0.9765988588
-0.10500363 -0.098662257 1.0325 -0.03041048348 -0.1130644605 0.9931221604
-0.065150358 -0.27442119 1.126 -0.03054574132 0.197991848 0.9797276258
-0.14081879 -0.11695733 1.031 0.201988861 0.003399600508 0.9793819189
-0.08883132 -0.28894451 1.1135001 -0.2166230828 -0.05581886321 0.9746582508
-0.025865411 -0.27288458 1.123 0.2590831518 -0.1502738595 0.9540930986
-0.00092049997 -0.1813385 1.0500001 -0.5499421954 0.1506949812 0.8214953542
-0.078634366 -0.11840348 1.031 0.2578103542 -0.2634272873 0.9295912385
-0.025694976 -0.17754065 1.031 -0.3688212931 0.4373731017 0.8201680779
-0.1249849 -0.17331615 1.0423334 0.1335441917 0.3530819118 0.9260124564
-0.037331391 -0.11796719 1.0220002 -0.2857845128 -0.2517690659 0.9246293902
-0.12523435 -0.26474199 1.1133845 -0.2963029444 0.1282780468 0.9464403391
-0.018870249 -0.12849742 1.0250001 -0.6336897016 -0.2991501689 0.7134048939
-0.13485929 -0.13486098 1.0324401 0.2080788612 0.11886397 0.9708628058
-0.093207784 -0.27605617 1.1302667 -0.2010249943 -0.04166101292 0.9786998034
-0.010421112 -0.17424695 1.0428001 -0.5205150247 0.1927163005 0.8318200111
-0.1455968 -0.16197644 1.0380001 0.1513087302 0.2797824144 0.9480651021
-0.094917856 -0.12554161 1.0274285 0.07255154848 -0.1759400219 0.9817236662
-0.12495583 -0.1448721 1.0328336 0.2007592618 0.2181943953 0.9550324082
-0.14495546 -0.14495501 1.0334169 0.09549251944 0.2323636115 0.9679298997
-0.054956924 -0.1347422 1.0111667 -0.1430599988 -0.195130527 0.9702875614
-0.054484833 -0.26766914 1.13 0.1194942817 -0.03738000616 0.9921309352
-0.10660968 -0.28527957 1.1260002 -0.2428997308 -0.06621532142 0.9677888751
-0.11458284 -0.10647191 1.028 0.008920704946 -0.07635230571 0.997040987
-0.054632258 -0.28507495 1.1330402 0.107408531 -0.01948936656 0.9940239191
-0.036122393 -0.15264575 1.0174999 -0.2752580643 0.1780461818 0.9447394013
-0.082788646 -0.2911047 1.13 -0.1675823927 -0.2322692275 0.958106041
-0.073818512 -0.13538097 1.0152762 0.3029358387 -0.3414073288 0.8897588849
-0.11725313 -0.13434398 1.031 0.1457007974 0.05295706913 0.9879103303
-0.15628117 -0.14074314 1.0425 0.09361149371 0.2234332412 0.9702136517
-0.13229653 -0.10840668 1.0322001 0.1664116532 -0.006925281603 0.9860320687
-0.13807499 -0.163849 1.0500001 0.1838154495 0.2771041393 0.9430934191
-0.044258192 -0.12502185 1.0153637 -0.2203678042 -0.2442473322 0.9443417192
-0.045301959 -0.14478923 1.0132403 -0.2627421618 0.06417359412 0.9627296329
-0.13288739 -0.27353764 1.1141176 -0.3404755592 0.01784017868 0.9400840998
-0.10936505 -0.15184568 1.031 0.2139668614 0.1815092862 0.9598294497
-0.11485093 -0.27528939 1.1181666 -0.3089009225 0.09134269506 0.9466977715
-0.024875695 -0.1567739 1.0231053 -0.39875862 0.2326242626 0.8870611787
-0.022418996 -0.14080231 1.0230001 -0.61488235 -0.0874383226 0.7837564945
-0.11252292 -0.12501118 1.028 0.06570504606 -0.02262149565 0.9975826144
-0.074422911 -0.28479397 1.13192 -0.2192605138 0.04732469842 0.9745179415
-0.05500317 -0.12461 1.0142859 0.01313989051 -0.2665849328 0.9637218714
-0.026978368 -0.12560126 1.0190001 -0.5023079515 -0.2778284848 0.8188394308
-0.094722353 -0.1143374 1.033348 -0.006344400812 -0.1531273425 0.988186121
-0.10523372 -0.27474627 1.1236247 -0.1979391724 0.1173236519 0.9731676579
-0.01483183 -0.17362775 1.0335625 -0.4736618996 0.3349988163 0.8145061135
-0.033602383 -0.17187427 1.028 -0.3566111028 0.3688658476 0.8583510518
-0.13612407 -0.25700518 1.1133847 -0.2166421562 0.2646784782 0.9396868944
-0.033428393 -0.26668122 1.1256251 0.2195362151 -0.1912131459 0.9566825032
-0.16044578 -0.14412926 1.034 0.09762586653 0.236119017 0.9668076038
-0.044836644 -0.13483828 1.0137275 -0.2245387286 -0.1659794897 0.9602255821
-0.13477926 -0.12482749 1.0318002 0.2250778675 0.05507445335 0.9727829695
-0.1247429 -0.11479903 1.0311 0.1010972559 -0.03680722043 0.9941954613
-0.0054436126 -0.15465407 1.0357223 -0.6317617893 0.02028634585 0.7748970985
-0.1243727 -0.15462273 1.0343202 0.2038514167 0.2974676788 0.9327151775
-0.043523803 -0.26640055 1.1303078 0.2090611607 -0.1751196533 0.9620948434
-0.072316885 -0.12571575 1.01525 0.3417368531 -0.3999377787 0.8504502773
-0.15733345 -0.16208322 1.0422 0.1065371633 0.2288568467 0.9676127434
-0.0580054 -0.11434425 1.0224288 0.171818465 -0.4220328033 0.8901498318
-0.04189831 -0.28391373 1.1245 0.2083853781 -0.1071552411 0.9721590877
-0.13504346 -0.14462331 1.0333574 0.2012480497 0.2110119909 0.9565423131
-0.062865764 -0.15185182 1.01 -0.03028248809 0.01677073725 0.9994006753
-0.0045452705 -0.16458169 1.0372002 -0.5971670151 0.2037698776 0.7758024335
-0.0076050833 -0.13902093 1.041 -0.6808630228 -0.07633592188 0.7284218073
-0.015194484 -0.15545861 1.0263333 -0.5797983408 0.1252814829 0.8050704598
-0.076097809 -0.12492786 1.0252501 0.3155499995 -0.407433778 0.8569865227
-0.044723313 -0.15409195 1.0151113 -0.2471707165 0.1633099169 0.9551107287
-0.01471485 -0.26486731 1.1190001 0.2195362151 -0.1912131459 0.9566825032
-0.087620206 -0.27073658 1.123 -0.1746926606 -0.03249267116 0.9840867519
-0.12867801 -0.15879413 1.041 0.1546258926 0.3148509562 0.9364612699
-0.074349262 -0.2745972 1.1307998 -0.1735748351 0.1313150227 0.9760267138
-0.10400001 -0.12616986 1.028 0.03481889144 -0.08966825902 0.9953628778
-0.037072916 -0.12774524 1.0190001 -0.2623034716 -0.1708385348 0.9497426748
-0.11542077 -0.1459707 1.031 0.1670031846 0.1698848903 0.9712101221
-0.096711241 -0.09851893 1.031 -0.02581444569 -0.1194353625 0.9925063252
-0.0067543411 -0.14642462 1.0374287 -0.7019867301 -0.01141977776 0.7120984793
-0.016392242 -0.14618888 1.0246251 -0.6262707114 -0.03858746216 0.778650105
-0.086693294 -0.12587473 1.0274374 0.2228735536 -0.3610111773 0.9055375457
-0.095968701 -0.29083329 1.1170001 -0.1780600697 0.05462446436 0.9825022817
-0.073233724 -0.14329168 1.0134286 0.2534240484 -0.3212640285 0.9124503732
-0.12370547 -0.16423258 1.0375557 0.1646428853 0.3096303046 0.93649441
-0.017866466 -0.15186496 1.0190001 -0.52246207 0.09095939249 0.8477970362
-0.14387803 -0.13535058 1.0350002 0.1287833154 0.1389921755 0.9818839431
-0.13450345 -0.17384666 1.0437002 0.174571842 0.3246039152 0.9296004176
-0.085721031 -0.11535873 1.0331819 0.1391800642 -0.2550641596 0.9568548203
-0.053303737 -0.11508999 1.0160002 0.03427368775 -0.3659068942 0.9300201535
-0.024647661 -0.26519519 1.1245598 0.2195362151 -0.1912131459 0.9566825032
-0.14247218 -0.12525588 1.0336668 0.1955151111 0.04313849285 0.9797514677
-0.11556281 -0.096582122 1.031 -0.004351598211 -0.08905614167 0.9960170984
-0.11297876 -0.11505073 1.0276999 0.02014380693 -0.07698709518 0.9968285561
-0.035602663 -0.14509763 1.0154003 -0.2697558701 0.06599251181 0.9606647491
-0.055209041 -0.14500375 1.0113639 -0.1133399308 -0.02155152522 0.9933224916
-0.026466565 -0.25768855 1.1320001 0.2195362151 -0.1912131459 0.9566825032
-0.028119303 -0.13836189 1.01825 -0.3890691996 -0.08771401644 0.9170231223
-0.15014669 -0.13922694 1.0380001 0.1082888246 0.2060771883 0.9725254178
-0.12542912 -0.10488885 1.0314287 0.03719537333 -0.0351344347 0.9986901879
-0.07412868 -0.29253864 1.1317142 -0.1107473597 -0.2184053212 0.9695535898
-0.064771429 -0.12460332 1.0140347 0.3174128234 -0.3483844995 0.8819735646
-0.02530781 -0.16464774 1.0251933 -0.417091012 0.3454699814 0.8406459093
0.0017012341 -0.17626712 1.0448571 -0.5499421954 0.1506949812 0.8214953542
-0.12485346 -0.13480504 1.0320002 0.1736961454 0.07537449896 0.9819105268
-0.11542617 -0.26657802 1.1179445 -0.22041668 0.2140043676 0.9516399503
-0.096160084 -0.13298911 1.0266153 0.1781754196 -0.1618962735 0.9705890417
-0.1026013 -0.29138774 1.13 -0.2784275413 -0.1649043709 0.9461948276
-0.031358365 -0.13170514 1.0220001 -0.4085204005 -0.1590678543 0.8987816572
-0.030600926 -0.25961432 1.126 0.2195362151 -0.1912131459 0.9566825032
-0.14276996 -0.16532457 1.0443158 0.1513087302 0.2797824144 0.9480651021
-0.073808782 -0.11527046 1.0261738 0.3426993787 -0.2968242466 0.8913206458
-0.088841401 -0.28922811 1.126 -0.2184764743 -0.05231596529 0.9744388461
-0.018705437 -0.27073658 1.123 0.2590831518 -0.1502738595 0.9540930986
-0.12868065 -0.25833613 1.1120001 -0.2166421562 0.2646784782 0.9396868944
-0.064488642 -0.284756 1.1317602 -0.01510704961 0.01714468747 0.9997388721
-0.145385 -0.15509109 1.0353795 0.1238603145 0.2375780046 0.9634392858
-0.034887388 -0.16455854 1.0244229 -0.290581286 0.343504101 0.8930663466
-0.12412661 -0.27464363 1.1148798 -0.3404755592 0.01784017868 0.9400840998
-0.10500076 -0.134725 1.0275311 0.09528259933 -0.04016053677 0.9946398139
-0.046701282 -0.28402874 1.13 0.1810131073 -0.03507345915 0.9828550816
-0.11321712 -0.28467098 1.123 -0.2762120664 -0.1117586568 0.9545767903
-0.05496642 -0.27492279 1.1301903 0.1137928665 -0.003122069174 0.993499577
-0.13558525 -0.15752588 1.0426668 0.1483139992 0.3163781166 0.9369673729
-0.036653433 -0.27638668 1.13 0.2590831518 -0.1502738595 0.9540930986
-0.013763579 -0.16568044 1.0333002 -0.4960992038 0.2714970112 0.8247271776
-0.083942264 -0.27547452 1.1325456 -0.180300802 -0.04209154472 0.9827104807
-0.095291451 -0.10498291 1.0338622 -0.02078480087 -0.1411440074 0.9897708893
-0.013190765 -0.14408298 1.0348638 -0.6849502921 -0.04379848018 0.7272721529
-0.057660118 -0.29128301 1.1340001 0.02222015709 -0.07524678856 0.996917367
-0.099699795 -0.2852796 1.126 -0.1154358983 0.1114775985 0.9870396852
-0.096069351 -0.11877991 1.028 0.0187858548 -0.1865020394 0.9822749496
-0.018410502 -0.1754791 1.028 -0.3815391958 0.4189834893 0.8239421844
-0.025086364 -0.14471257 1.0150628 -0.4150949717 0.03756636009 0.9090021849
-0.11321712 -0.27073658 1.123 -0.2213894129 0.2273874283 0.9483046532
-0.13000529 -0.28053772 1.115 -0.2919845283 0.02731422335 0.9560329318
-0.084251232 -0.28447083 1.1306398 -0.1742054224 -0.03255909309 0.9841709137
-0.046956018 -0.27579233 1.13 0.1820337325 -0.08520017564 0.9795941114
-0.046641819 -0.11625697 1.0154003 -0.1619287878 -0.2796563506 0.9463463426
-0.064649783 -0.1346125 1.0102001 0.2359333485 -0.2721742392 0.9328754544
-0.033964779 -0.15711765 1.0220002 -0.2840018272 0.2476224899 0.9262969494
-0.098856971 -0.27486777 1.1253999 -0.1928368211 -0.02092741244 0.9810076356
-0.13448775 -0.11514534 1.0313914 0.1774255037 0.01018013433 0.9840815663
-0.10512208 -0.10512111 1.0337224 -0.03041048348 -0.1130644605 0.9931221604
-0.15242165 -0.16152145 1.0380001 0.1065371633 0.2288568467 0.9676127434
-0.025419109 -0.15178376 1.0190001 -0.4308938086 0.1615121067 0.8878312707
-0.11508008 -0.15459572 1.0322502 0.2324828506 0.2343813926 0.9439370036
-0.15467453 -0.15437032 1.0373335 0.1059226915 0.23897627 0.9652309418
-0.023568504 -0.25836381 1.1253333 0.2195362151 -0.1912131459 0.9566825032
-0.06460464 -0.11484844 1.0235 0.2748408318 -0.4339066446 0.8580137491
-0.14225787 -0.25814912 1.114 -0.3404755592 0.01784017868 0.9400840998
-0.024601398 -0.13494754 1.0232855 -0.5518994331 -0.2010190338 0.809319675
-0.082746409 -0.12403885 1.0318824 0.2227932215 -0.303281039 0.9264900088
-0.097465172 -0.29042652 1.123 -0.2789990604 -0.1646971554 0.9460625648
-0.012479876 -0.15717688 1.0316001 -0.6517092586 0.1012993827 0.751673758
-0.13429751 -0.16524291 1.0453849 0.1514203548 0.3353919685 0.9298301339
-0.0044323592 -0.17357212 1.0433078 -0.5499421954 0.1506949812 0.8214953542
-0.11248856 -0.13537636 1.0274706 0.1138875186 0.03324382007 0.9929373264
-0.01817742 -0.1342672 1.0265 -0.6529175639 -0.2656210363 0.7093265653
-0.0031298879 -0.14356926 1.0412143 -0.7019867301 -0.01141977776 0.7120984793
-0.10888989 -0.27565819 1.1190001 -0.1687486768 0.1870084554 0.9677560329
-0.13498011 -0.26419419 1.112375 -0.3404755592 0.01784017868 0.9400840998
-0.0063698604 -0.17016625 1.0380001 -0.5603758693 0.2171315253 0.799270153
-0.094149292 -0.28443086 1.1304799 -0.2046115845 -0.0710593462 0.9762605429
-0.034927413 -0.27447733 1.1247368 0.2590831518 -0.1502738595 0.9540930986
-0.10449998 -0.29179895 1.1245 -0.2830633223 -0.1700722426 0.9439017773
-0.15321504 -0.13586316 1.0416667 0.06905992329 0.2315656543 0.9703649282
-0.1177256 -0.11524003 1.031 0.01814144477 -0.07046145946 0.9973495007
-0.11790437 -0.2825143 1.1176667 -0.3285910189 -0.01182789449 0.9443982244
-0.12742725 -0.16629191 1.0414286 0.136678651 0.3326211274 0.9331035018
-0.064847209 -0.14475097 1.010414 0.04476645589 -0.1138329506 0.992490828
-0.10859032 -0.14500229 1.031 0.1446305662 0.105219081 0.9838754535
-0.11729105 -0.12507799 1.031 0.1267318279 0.01362559572 0.9918434024
-0.14145455 -0.15970674 1.041 0.1513087302 0.2797824144 0.9480651021
-0.052317712 -0.27244693 1.126 0.1241116673 -0.03870958835 0.9915128946
0.0013640934 -0.15363409 1.0370001 -0.6702279449 0.03702283651 0.7412312627
-0.15518095 -0.14443974 1.0351669 0.09762586653 0.236119017 0.9668076038
-0.045078781 -0.26915655 1.126 0.2079970837 -0.1155497804 0.9712803364
