# .PCD v0.7 - Point Cloud Data file format
VERSION 0.7
FIELDS x y z normal_x normal_y normal_z
SIZE 4 4 4 4 4 4
TYPE F F F F F F
COUNT 1 1 1 1 1 1
WIDTH 206
HEIGHT 1
VIEWPOINT 0 0 0 1 0 0 0
POINTS 206
DATA ascii
-0.20444743 -0.095066324 1.0147589 0.07855454832 0.4161833823 0.9058811069
-0.017606096 -0.080617391 1.057 0.1909378171 0.2165048867 0.9574279785
-0.10794704 0.0032145171 0.97725004 -0.1426686645 -0.2183542997 0.9653844237
-0.1130154 -0.16292998 1.0743001 0.03609156981 -0.05052350089 0.998070538
-0.18900013 -0.017420681 0.99350005 0.5854321122 -0.02781459317 0.810244143
-0.17328106 -0.049111743 1.057 -0.9321335554 -0.3339529335 0.1400087178
-0.047208499 -0.14068133 1.077 -0.006661523134 0.183730185 0.9829541445
-0.14522918 -0.033276808 0.96500003 0.01799708046 -0.01643293165 0.9997029901
-0.22490297 -0.044980045 1.00604 0.3139382303 0.09956976026 0.9442079663
-0.17725745 -0.062818781 0.99800003 0.1272032559 0.3624410331 0.9232853651
-0.16980594 -0.09270487 1.0470001 -0.8269505501 0.5588976145 -0.06153257936
-0.15375264 0.0014927441 0.97300005 0.0980213657 -0.2900185287 0.9519879818
-0.084356375 -0.020002026 0.99200004 -0.2259035259 -0.05489003286 0.9726020098
-0.077736653 -0.15893529 1.077 0.07411462069 -0.1018006504 0.9920401573
-0.027239786 -0.11084178 1.0715001 0.1959355026 0.2067541629 0.9585728645
-0.11466899 -0.031233553 0.97612506 -0.2720863521 -0.002895252546 0.9622684717
-0.1696201 -0.089694396 1.013 -0.4164254963 0.594235003 0.6880948544
-0.20486113 -0.065135926 1.0057999 0.1908293962 0.3111387193 0.9310085177
-0.18228672 -0.074013792 1.0670002 -0.9042851925 -0.2961586416 0.3075034022
-0.17171077 -0.032843616 0.97060001 0.5410925746 -0.03712991253 0.8401429653
-0.079736337 0.00085737999 0.97800004 -0.2041917592 -0.07726798207 0.9758767486
-0.19562 -0.045411631 0.99616688 0.2525509894 0.1648353189 0.9534397125
-0.21148795 -0.018428409 1.001 0.4124573469 -0.001733878627 0.9109752774
-0.22234589 -0.080933429 1.0145 0.1880265325 0.3074573278 0.9328001142
-0.18532412 -0.10463762 1.0226431 -0.2580802143 0.7984839678 0.5438914895
-0.17335662 -0.0067096557 0.98120004 0.5420199037 -0.215331763 0.812309444
-0.13454027 -0.015326766 0.97133321 -0.1753361076 -0.1608664691 0.9712771177
-0.071442194 -0.13816355 1.077 0.009230979718 0.02873315662 0.9995445013
-0.050041009 -0.11990959 1.077 0.05439370871 0.1896934807 0.9803355336
-0.18715431 -0.080335103 1.0070001 0.06852368265 0.399240762 0.9142818451
-0.092496514 -0.14856462 1.0840001 0.03609156981 -0.05052350089 0.998070538
-0.032115515 -0.092916727 1.067 0.1909378171 0.2165048867 0.9574279785
-0.10438868 -0.015405178 0.97605568 -0.2672207355 -0.03771981597 0.9628968239
-0.13503034 0.0025647371 0.9748888 -0.1400737911 -0.2157152444 0.9663572311
-0.22349638 -0.064738922 1.0070001 0.2693262398 0.2477190048 0.9306442142
-0.16640674 -0.081940904 1.0604286 -0.9896525741 0.006426420063 0.1433405131
-0.096044973 0.01124851 0.98700011 -0.1756974608 -0.1087871045 0.9784149528
-0.20938185 -0.03633029 1.001 0.293874681 0.03857139498 0.9550653696
-0.097181126 -0.030100349 0.98100007 -0.2776209414 0.08130203933 0.957244277
-0.15512514 -0.015208339 0.971457 0.2524370253 -0.1827950329 0.9501902461
-0.18199511 -0.030861296 0.98700005 0.6132554412 0.08653344959 0.7851303816
-0.094781131 -0.0043033971 0.98209095 -0.2041917592 -0.07726798207 0.9758767486
-0.15915912 -0.041285452 0.97433335 0.3393028677 0.1574312598 0.9274098277
-0.057510499 -0.15135942 1.0813333 -0.02953533456 0.0668142885 0.9973281622
-0.20585191 -0.082518935 1.0059286 0.1389607787 0.3293753266 0.9339174628
-0.036172256 -0.12441662 1.075125 0.08557280153 0.1847469211 0.9790535569
-0.10444081 -0.15645531 1.0844285 0.03609156981 -0.05052350089 0.998070538
-0.041075632 -0.10754917 1.0730001 0.1288664043 0.2158881277 0.9678769112
-0.19693394 -0.02405042 1.0031177 0.4235459864 0.05546163768 0.9041752219
-0.091584489 -0.16145307 1.077 0.03609156981 -0.05052350089 0.998070538
-0.061371051 -0.12935129 1.077 -0.02384561114 0.1653826386 0.9859411716
-0.13304617 -0.033311304 0.97046161 -0.1248454824 0.040143013 0.9913637638
-0.123905 0.0055935718 0.98149997 -0.1716817617 -0.2605369985 0.9500767589
-0.16806014 -0.094091929 1.034 -0.877442956 0.4527595639 0.1584381759
-0.21523903 -0.054787181 1.0056286 0.3006461263 0.2004697323 0.932428956
-0.12461976 -0.0051181507 0.97363877 -0.1707478613 -0.1635566056 0.9716451764
-0.16163515 -0.025855968 0.96700007 0.3628090322 -0.05158983544 0.9304343462
-0.19499013 -0.058795404 1.001 0.201632157 0.3172529936 0.9266579747
-0.019091388 -0.091728039 1.0622501 0.1959355026 0.2067541629 0.9585728645
-0.1747109 -0.098554865 1.0220001 -0.5181190372 0.7362155318 0.4353612363
-0.17671768 -0.075223014 1.0052353 0.0505714193 0.4377968907 0.8976504803
-0.12460674 -0.025605388 0.97355533 -0.2154926211 -0.08820414543 0.9725137353
-0.1851068 -0.054250915 0.99675006 0.2062937766 0.2654749751 0.9417886734
-0.1716601 -0.070352502 1.0700001 -0.9042851925 -0.2961586416 0.3075034022
-0.094566263 -0.015751164 0.98260719 -0.238818258 -0.01968413219 0.9708647728
-0.18514748 -0.095206007 1.0162072 -0.1343678236 0.5319112539 0.8360715508
-0.17312333 -0.017248854 0.97692853 0.586404562 -0.09618766606 0.8042870164
-0.14482173 -0.0051088482 0.97174984 -0.008784740232 -0.2400642037 0.9707172513
-0.19528359 -0.08529824 1.0128126 0.05736366659 0.4060092866 0.9120668173
-0.16509524 -0.0053697703 0.97428572 0.3685051799 -0.2584742308 0.8929697871
-0.08025445 -0.14445801 1.077 0.09753535688 -0.04723899439 0.9941103458
-0.088556044 0.00388977 0.98550004 -0.1666499972 -0.0891424045 0.9819782972
-0.11467542 -0.01518493 0.97352612 -0.2061245292 -0.1085623875 0.9724848866
-0.21331882 -0.086122297 1.0127273 0.1371955574 0.3450897336 0.9284882545
-0.18754238 -0.034896009 0.995 0.5056753159 0.1251310706 0.8536010385
-0.19455162 -0.10282931 1.0180001 -0.1237144396 0.5252246857 0.8419227004
-0.2149073 -0.069443271 1.0100001 0.2220494747 0.2872255743 0.9317700863
-0.20973285 -0.046509791 1.001 0.2744737566 0.1144206822 0.9547628164
-0.13839301 -0.025432099 0.96700007 -0.115760237 -0.04028291255 0.9924600124
-0.18311536 -0.06399288 1.0660001 -0.8537321091 -0.3715655804 0.3648020029
-0.11442386 -0.0051409975 0.97299981 -0.2110402584 -0.1703950018 0.9625110626
-0.18372741 -0.015550152 0.98518181 0.603634119 -0.1116498187 0.7894049883
-0.12461861 -0.015536622 0.97167635 -0.1865537465 -0.1419111192 0.9721414447
-0.08746738 -0.024042487 0.98355556 -0.2259035259 -0.05489003286 0.9726020098
-0.17352805 -0.088943712 1.0552858 -0.9602555633 -0.1258211434 0.2491552234
-0.10470087 -0.025158659 0.97696906 -0.28662166 0.002317693084 0.9580410719
-0.065164536 -0.14494273 1.08 0.01306315791 0.02371797897 0.9996333122
-0.084964857 -0.15436883 1.0826086 0.03609156981 -0.05052350089 0.998070538
-0.19484675 -0.074692816 1.0064783 0.1356201768 0.3670397401 0.9202657342
-0.10438 -0.0051022479 0.97448659 -0.1396210045 -0.1764220893 0.9743619561
-0.20640074 -0.055360913 1.0023333 0.2259658128 0.2532067895 0.9406517744
-0.086347498 -0.0083995629 0.98250002 -0.2317448556 -0.06044672057 0.9708967805
-0.055424213 -0.13728599 1.08 -0.02384561114 0.1653826386 0.9859411716
-0.16022223 -0.0016954733 0.96700007 0.2795014381 -0.2420401871 0.9291369319
-0.14626485 -0.015411334 0.96849996 -0.002000616398 -0.1640807241 0.9864448905
-0.15425406 -0.034750056 0.96678609 0.1278623044 -0.1078527644 0.9859102368
-0.18486738 -0.06525977 1.0027646 0.1241112575 0.3553855121 0.9264434576
-0.025136421 -0.084712513 1.0618398 0.1909378171 0.2165048867 0.9574279785
-0.10361945 0.005502359 0.98500019 -0.1829490364 -0.1397424489 0.9731401205
-0.20532215 -0.074474782 1.0100001 0.161300391 0.3251890838 0.9317908883
-0.22413582 -0.05422134 1.0067391 0.3166846633 0.195654273 0.9281326532
-0.17974208 -0.02236026 0.98100007 0.6247881651 -0.03736808896 0.7798995972
-0.22392321 -0.036173109 1.0064 0.2958587706 0.07608000189 0.9521971345
-0.20210499 -0.02887214 0.99800003 0.4128673673 0.01315610018 0.9106961489
-0.21501808 -0.02546598 1.004652 0.3757698536 0.003924583085 0.9267047048
-0.17468826 -0.025552979 0.97419238 0.6083360314 -0.002180268755 0.7936765552
-0.034792967 -0.11471815 1.0726 0.1294875443 0.2107881308 0.9689176083
-0.16491795 -0.015524077 0.97614294 0.4489690363 -0.1219917908 0.8851806521
-0.025828728 -0.10313056 1.0685 0.1959355026 0.2067541629 0.9585728645
-0.065672852 -0.15313028 1.0804445 0.006948012393 0.009883104824 0.9999270439
-0.18659747 -0.046255179 0.99704003 0.2701516151 0.1947235167 0.9429214597
-0.044375993 -0.1255746 1.0769998 0.06018477306 0.1744802594 0.9828196168
-0.17425056 -0.083377615 1.0611053 -0.9602555633 -0.1258211434 0.2491552234
-0.13472503 -0.0051156427 0.97266632 -0.1676154435 -0.1650183499 0.9719434381
-0.074834384 -0.15457861 1.0828332 0.07931299508 -0.04105656594 0.9960039258
-0.19524603 -0.035174496 0.9962728 0.395100832 0.09442834556 0.9137716293
-0.2038386 -0.086820818 1.0120001 0.1220507026 0.3821431994 0.9160077572
-0.15392388 -0.0057649584 0.97044426 0.2002526373 -0.2132789493 0.9562484026
-0.17575528 -0.085812904 1.0105002 -0.1706925333 0.5256398916 0.8334067464
-0.063198902 -0.1375227 1.08 -0.0301495865 0.09266129881 0.9952411056
-0.18826957 -0.02485832 0.99499995 0.5482884645 0.05766744539 0.8342986703
-0.043694824 -0.11591455 1.0756665 0.04787456989 0.2137780637 0.975708425
-0.18053284 -0.081380092 1.067 -0.8605327606 -0.3569191694 0.3634447455
-0.053637844 -0.12656376 1.0769999 0.004317258019 0.193325758 0.9811251163
-0.023927342 -0.077357143 1.0608182 0.1909378171 0.2165048867 0.9574279785
-0.03871097 -0.13123962 1.077 0.06018477306 0.1744802594 0.9828196168
-0.14478578 0.0022190772 0.97339988 0.02423360385 -0.3202614784 0.9470191598
-0.20550656 -0.024171233 1.0027499 0.4128673673 0.01315610018 0.9106961489
-0.09660095 -0.16150305 1.0824 0.03609156981 -0.05052350089 0.998070538
-0.19512473 -0.095572904 1.0173848 -0.03867504001 0.4944302738 0.8683564663
-0.086893536 -0.015370973 0.98695248 -0.2259035259 -0.05489003286 0.9726020098
-0.1660196 -0.075543329 1.0638999 -0.9896525741 0.006426420063 0.1433405131
-0.10669121 -0.16522975 1.077 0.03609156981 -0.05052350089 0.998070538
-0.034777928 -0.10433441 1.07216 0.1909378171 0.2165048867 0.9574279785
-0.14535971 -0.025595134 0.96567678 -0.01059590746 0.008269126527 0.999909699
-0.025060685 -0.094158672 1.0651666 0.1909378171 0.2165048867 0.9574279785
-0.15646747 -0.022109535 0.97000003 0.2287365049 -0.06787587702 0.9711191654
-0.17482962 -0.074894302 1.0656551 -0.9042851925 -0.2961586416 0.3075034022
-0.21196939 -0.09279006 1.0145 0.1242226437 0.3849004209 0.9145601988
-0.12549636 -0.032479141 0.97263646 -0.2010304034 -0.01591142081 0.9794557691
-0.098598696 -0.012003319 0.97800004 -0.2317448556 -0.06044672057 0.9708967805
-0.095082283 -0.15498455 1.0846069 0.03609156981 -0.05052350089 0.998070538
-0.17852645 -0.055541512 0.99500006 0.3544823825 0.3116253316 0.8816075325
-0.16090041 -0.033400826 0.96700013 0.3063131869 -0.02914886922 0.9514843822
-0.1751041 -0.094612129 1.0165004 -0.4124701023 0.5967674851 0.6882855296
-0.19496349 -0.064885281 1.003818 0.1804564148 0.3309604526 0.9262292981
-0.084611855 -0.0037138108 0.97771436 -0.2041917592 -0.07726798207 0.9758767486
-0.044585809 -0.13428195 1.0769999 0.02972816303 0.184147507 0.9824489355
-0.16681486 -0.025276663 0.97104341 0.479260534 -0.06401530653 0.8753350377
-0.21547362 -0.035178177 1.0031998 0.287527144 0.0327581279 0.9572121501
-0.20477882 -0.044999514 0.99703979 0.2524216175 0.06103608012 0.9656903744
-0.030791163 -0.086777426 1.0643334 0.1909378171 0.2165048867 0.9574279785
-0.16942197 -0.013760161 0.98100007 0.5728330016 -0.1186411828 0.8110404611
-0.18489932 -0.085513197 1.0102224 -0.01212294865 0.4523284733 0.8917689919
-0.055385198 -0.14522161 1.0816295 -0.0191077441 0.08753598481 0.9959780574
-0.1107756 -0.160956 1.08 0.03609156981 -0.05052350089 0.998070538
-0.11760636 0.006665078 0.98100001 -0.1800712794 -0.2256115675 0.9574308395
-0.16571032 -0.035042267 0.97099996 0.4172367752 -0.09131332487 0.9041987062
-0.13839301 -0.032849796 0.96700007 -0.0869999826 0.006111416034 0.9961895943
-0.074797191 -0.14580721 1.08 0.04680721462 -0.02234825678 0.9986538887
-0.21546455 -0.044851918 1.00316 0.2758663297 0.09115160257 0.9568642378
-0.095035426 0.0051859715 0.9854998 -0.1756974608 -0.1087871045 0.9784149528
-0.17355914 -0.081041351 1.0070001 -0.1308751106 0.5039691925 0.8537486196
-0.097526975 -0.024649676 0.9780001 -0.2776209414 0.08130203933 0.957244277
-0.13299976 -0.025514539 0.97011524 -0.1500427127 -0.1007584631 0.9835318327
-0.202105 -0.054244626 0.99800009 0.2244313061 0.2341319919 0.9459454417
-0.21548505 -0.064179465 1.0067858 0.2456005365 0.2553890347 0.93512398
-0.16611297 -0.08608111 1.0558462 -0.9896525741 0.006426420063 0.1433405131
-0.203252 -0.10100357 1.016 0.05571891367 0.4331152141 0.8996146917
-0.17955799 -0.10094553 1.0190001 -0.3732979894 0.7219009399 0.5826728344
-0.11409727 0.0030857793 0.97710001 -0.1640024036 -0.2288799882 0.9595400691
-0.084151715 -0.14737053 1.0807272 0.0720391795 -0.05847239494 0.9956863523
-0.21530031 -0.075314701 1.0116156 0.1795867234 0.3127209246 0.9327133894
-0.18358891 -0.025127508 0.9883334 0.6206042171 0.01119461656 0.7840440869
-0.18505542 -0.074907146 1.0051999 0.08998147398 0.4149492979 0.9053841233
-0.20436993 -0.034476198 0.99746424 0.3331489563 0.02712600864 0.942483902
-0.1759934 -0.014525955 0.98152947 0.6274291277 -0.1011452973 0.7720766664
-0.16816922 -0.091476656 1.054 -0.9602555633 -0.1258211434 0.2491552234
-0.10450121 -0.031178916 0.97710007 -0.2903110981 0.05818619952 0.9551616907
-0.18586367 -0.058444388 1.001 0.172390148 0.3190392554 0.931931138
-0.19745164 -0.078803569 1.01 0.1122200117 0.3293031156 0.9375319481
-0.02824918 -0.11468045 1.067 0.1924708486 0.1991930157 0.960873127
-0.19111815 -0.10587898 1.0235001 -0.2477506101 0.7948330641 0.5539494753
-0.11459059 -0.025404815 0.97547072 -0.2386029214 -0.03943877295 0.9703160524
-0.029079033 -0.098493502 1.0700001 0.1909378171 0.2165048867 0.9574279785
-0.20595793 -0.018483641 1.0040001 0.4326165617 0.01325876079 0.9014804959
-0.19556479 -0.05428433 0.99737501 0.2182600945 0.2573306561 0.9413519502
-0.15004939 -0.019497944 0.96700007 0.1302201748 -0.09673897177 0.9867544174
-0.10524956 -0.1621408 1.0816 0.03609156981 -0.05052350089 0.998070538
-0.19314441 -0.026000898 0.99772733 0.503289938 0.05845230445 0.8621383309
-0.22332115 -0.075591721 1.0130001 0.1916214824 0.2909307778 0.9373582602
-0.086231954 -0.16209011 1.0756667 0.05803662166 -0.1040019393 0.9928823709
-0.12600648 0.0023269861 0.97778571 -0.1693564802 -0.2616196275 0.9501965642
-0.20689625 -0.069358945 1.01 0.1881820261 0.3057886958 0.9333170652
-0.0195146 -0.084563263 1.0600001 0.1909378171 0.2165048867 0.9574279785
-0.15475994 -0.025680587 0.96648318 0.1684442312 -0.03974225 0.9849097133
-0.16415736 -0.040183552 0.97525001 0.4679687917 0.1830660403 0.8645762205
-0.10123659 0.01124851 0.98700005 -0.1706197113 -0.1277963072 0.9770143628
-0.093508527 -0.025189141 0.98114294 -0.2521726191 0.03052156232 0.9672008157
-0.18462014 -0.10124331 1.0190001 -0.3072084188 0.6757788658 0.6700342894
-0.079956383 -0.16085343 1.0730001 0.05803662166 -0.1040019393 0.9928823709
-0.0195146 -0.075270601 1.0600001 0.1909378171 0.2165048867 0.9574279785
-0.1581682 -0.039116867 0.97000003 0.2307922989 -0.09998105466 0.9678526521
-0.047655597 -0.13665479 1.08 0.003937618807 0.2046346515 0.9788305163
-0.054373082 -0.13357225 1.0769999 0.005317126866 0.2004578114 0.9796879292
-0.17322144 -0.091216281 1.0510001 -0.9602555633 -0.1258211434 0.2491552234
