# .PCD v0.7 - Point Cloud Data file format
VERSION 0.7
FIELDS x y z normal_x normal_y normal_z
SIZE 4 4 4 4 4 4
TYPE F F F F F F
COUNT 1 1 1 1 1 1
WIDTH 206
HEIGHT 1
VIEWPOINT 0 0 0 1 0 0 0
POINTS 206
DATA ascii
-0.2004507 0.059430111 1.149 0.1570254862 0.4209551811 0.893386662
-0.067236468 -0.014074708 1.2739999 0.03033067659 0.1458832026 0.9888367653
-0.19100375 -0.043657999 1.245 -0.2386286557 0.05860104039 0.9693411589
-0.084502593 0.087535001 1.153 -0.3866336048 0.1382753402 0.9118083119
-0.12430432 -0.051051807 1.2659999 -0.08889500052 -0.2192811072 0.9716035724
-0.14078303 0.10140315 1.123 0.06998945773 -0.1126522794 0.9911664724
-0.18829484 0.11094129 1.161 0.1289528161 -0.3501680195 0.9277680516
-0.12203375 0.059016325 1.141 -0.5140691996 0.2459155768 0.8217411041
-0.2217765 0.026393803 1.1730001 0.0597695671 0.4260233641 0.9027356505
-0.22166102 0.093850009 1.148 0.1775167733 -0.03145568073 0.9836149216
-0.16827403 0.085923478 1.1415714 0.5051954389 -0.01479509845 0.8628781438
-0.094765037 -0.032514688 1.2679999 0.0602837503 0.01097376831 0.9981209636
-0.15642768 -0.045051981 1.2589999 -0.1312964112 -0.2485147566 0.9596883059
-0.11103071 0.10102794 1.141 -0.4511915147 0.04702064022 0.8911875486
-0.088641524 0.056408241 1.149 -0.389610976 0.1795428693 0.9033092856
-0.23099349 0.056397427 1.1556667 0.0007948765415 0.2843548357 0.9587187767
-0.15312898 0.067197077 1.1245002 0.2341188639 0.03753677011 0.9714830518
-0.18894358 0.037788715 1.1650001 0.02128967457 0.4809319973 0.8764994144
-0.19573775 0.08532159 1.1450003 0.03645758331 -0.04924568534 0.9981210828
-0.10375541 0.07421165 1.1412354 -0.3782022893 0.1899064779 0.9060345292
-0.12307429 0.08339753 1.1315999 -0.4481435716 0.0523439236 0.8924278617
-0.18062139 -0.052081011 1.2640001 -0.2386286557 0.05860104039 0.9693411589
-0.18150945 0.060729329 1.161 -0.2326842695 0.3769570887 0.8965274096
-0.17811675 0.084478229 1.161 0.1050304845 -0.03874951601 0.9937137961
-0.067327119 0.0011037233 1.2590001 0.02935825288 0.1729766428 0.9844883084
-0.21458539 0.045449492 1.1634347 0.05687409639 0.3998582661 0.9148107767
-0.21678218 0.074866332 1.153 0.1905198544 0.2251625508 0.9555124044
-0.15949197 0.10005397 1.13 0.3936423063 -0.1861785203 0.9002129436
-0.1152665 -0.034914751 1.2730001 -0.1026808769 -0.01401352603 0.9946156144
-0.084539771 -0.014884396 1.2671999 0.02935825288 0.1729766428 0.9844883084
-0.20672305 0.10273042 1.1545 0.137954548 -0.3548130095 0.9247033596
-0.13227497 0.058240473 1.126 -0.3838711381 0.09564187378 0.918420136
-0.14451535 0.083905771 1.1260002 0.0971179232 -0.04065150768 0.9944423437
-0.20335422 0.027963037 1.169 0.0417079404 0.4739332199 0.8795725107
-0.10671487 -0.050022598 1.268 -0.0751087293 -0.01815888099 0.9970099926
-0.14842756 -0.039059885 1.273 -0.1190376729 -0.333968401 0.9350374937
-0.10576545 0.057415534 1.149 -0.465531975 0.2009155005 0.8619239926
-0.17967722 0.066249698 1.1450001 0.3087123632 0.1793958992 0.934084475
-0.18608056 0.10300934 1.1463336 0.1591594219 -0.3131550252 0.9362703562
-0.1447223 -0.053982161 1.2646154 -0.1101618558 -0.3484645784 0.9308258891
-0.13347892 -0.038454104 1.2653334 -0.09328268468 -0.2491520792 0.9639614224
-0.12635221 0.09772554 1.126 -0.4472073615 0.05572836846 0.8926925063
-0.23147243 0.071766563 1.153 0.08846918494 0.2201847881 0.9714380503
-0.2154849 0.062377211 1.1610001 0.1147243008 0.299921751 0.9470402598
-0.19597082 0.047249813 1.1559999 0.08262503147 0.419026643 0.9042066932
-0.17508084 -0.038783733 1.2640001 -0.2386286557 0.05860104039 0.9693411589
-0.095888406 0.093996465 1.1471177 -0.4344060719 0.1230337024 0.8922746778
-0.13464291 0.07522434 1.1241108 -0.2691329718 0.03955962136 0.9622902274
-0.22420366 0.037131548 1.1645 0.08549664915 0.4025736153 0.9113861918
-0.075829789 -0.024043815 1.2658666 0.03033067659 0.1458832026 0.9888367653
-0.16473794 0.078398548 1.132 0.533197403 -0.08033579588 0.8421678543
-0.20514528 0.07531631 1.1484287 0.220639348 0.2155078351 0.9512490034
-0.16843221 -0.054297227 1.2640001 -0.2386286557 0.05860104039 0.9693411589
-0.17898376 0.07843186 1.1470001 0.1770120859 0.2424204499 0.9538862705
-0.075089812 -0.005546378 1.2657777 0.02935825288 0.1729766428 0.9844883084
-0.097463787 -0.042909328 1.2737142 0.03258751705 0.04093325511 0.9986303449
-0.086239412 0.076275118 1.1487895 -0.368467629 0.1470699757 0.9179335833
-0.18315503 0.054869108 1.1472224 -0.1207130477 0.3896986842 0.9129968882
-0.15581249 0.086326614 1.13 0.4292008579 -0.131682381 0.8935582638
-0.17602064 0.093039609 1.1473335 0.497884661 -0.06434663385 0.8648527861
-0.18602587 -0.043587986 1.2576002 -0.2386286557 0.05860104039 0.9693411589
-0.11004972 -0.025567107 1.268 -0.04417068511 0.07644616067 0.9960948229
-0.21345194 0.03466941 1.1730002 0.06021739915 0.4185823202 0.9061802626
-0.11472936 0.076456018 1.1380001 -0.5195305943 0.1376955211 0.8432840109
-0.21367829 0.085481815 1.1484287 0.2201413214 0.0956851691 0.9707636833
-0.095565207 0.065612346 1.1485001 -0.3887277842 0.1853366345 0.9025192857
-0.10290284 0.08586248 1.1433334 -0.4451798499 0.1190067828 0.8874977827
-0.13281471 -0.053346623 1.2590001 -0.1211413965 -0.3635370135 0.9236696362
-0.22253814 0.048889417 1.1570001 0.08359064907 0.3227694631 0.9427791238
-0.12253644 -0.043077476 1.273 -0.06780464947 -0.1583435088 0.9850532413
-0.20570195 0.095501512 1.1467146 0.1361507326 -0.3487049341 0.9272906184
-0.20664296 0.065344721 1.1551175 0.2130528092 0.3034426272 0.928725481
-0.20729397 0.05258685 1.161 0.1390921623 0.4019427299 0.9050388932
-0.12600918 0.065037973 1.1334547 -0.4559137821 0.1379205734 0.879272759
-0.19560127 0.095293067 1.1442003 -0.01912216283 -0.3348862231 0.9420645237
-0.16510789 -0.038783733 1.2640001 -0.2386286557 0.05860104039 0.9693411589
-0.1347663 0.085786022 1.126 -0.1620119661 0.06475890428 0.9846615791
-0.19551463 0.075429417 1.144667 0.02056390047 0.1427717209 0.9895420074
-0.13505635 0.095431007 1.13 -0.2063133121 -0.02695099823 0.9781147242
-0.18572502 0.085334912 1.1451603 0.2710119784 -0.02679893374 0.962202847
-0.22372141 0.084567159 1.147182 0.2169601321 0.08924723417 0.9720922112
-0.18663181 0.04868656 1.1570001 0.05597260967 0.4613623619 0.8854444027
-0.093617037 -0.01750046 1.2675 0.04338347912 0.1156801432 0.9923386574
-0.085347205 -0.031989761 1.268 0.02727754042 0.05613737926 0.9980503917
-0.11730852 0.10040814 1.1340001 -0.4852563739 0.06549927592 0.8719152212
-0.19745514 0.10890567 1.161 0.002168949228 -0.3138813376 0.9494597316
-0.095383547 0.075308159 1.1453203 -0.3691539466 0.1639709622 0.9147889614
-0.22475095 0.0636594 1.1609998 0.0715553835 0.2637477517 0.9619339705
-0.11522369 0.065122902 1.1429201 -0.4977063835 0.1819198728 0.8480527997
-0.15421757 -0.038832828 1.2656001 -0.08709865808 -0.3226141334 0.9425147176
-0.10633854 -0.037146743 1.2729999 -0.04417068511 0.07644616067 0.9960948229
-0.083699748 -0.0078119766 1.273 0.02935825288 0.1729766428 0.9844883084
-0.21529968 0.098047279 1.153 0.1495204866 -0.2595389783 0.954087615
-0.074689828 -0.015297917 1.2679999 0.02935825288 0.1729766428 0.9844883084
-0.12365015 0.074464232 1.1325455 -0.4950181544 0.09041399509 0.8641656637
-0.19428591 0.065227091 1.1462177 0.1163161397 0.3369612098 0.9343059659
-0.21958308 0.029618183 1.1650001 0.0597695671 0.4260233641 0.9027356505
-0.20426473 0.035739072 1.1650002 0.06318878382 0.4809038043 0.8744934201
-0.15459162 0.075817429 1.1243198 0.2237953097 -0.08544320613 0.9708836675
-0.20513263 0.085470974 1.1470002 0.2124591917 0.007057444192 0.9771444798
-0.10474274 0.09517058 1.141696 -0.4500440955 0.09058564156 0.8884000182
-0.072254866 0.0022232267 1.268 0.02935825288 0.1729766428 0.9844883084
-0.14523488 -0.045453139 1.26464 -0.1003611088 -0.360871166 0.9271999002
-0.18525738 0.075103499 1.1422802 0.09255358577 0.2494944036 0.9639431238
-0.10546892 0.065287292 1.1458002 -0.4095647633 0.2072222531 0.8884343505
-0.095598154 0.08553873 1.1478802 -0.3866336048 0.1382753402 0.9118083119
-0.14396805 0.095090456 1.1276999 0.09880264103 -0.08682440221 0.991312027
-0.14478266 0.075840332 1.1234797 0.009600701742 0.02637626044 0.9996059537
-0.15314034 -0.053853981 1.2640001 -0.09562449902 -0.2748182714 0.9567292333
-0.23146403 0.048077978 1.1570001 -0.001944798394 0.3193733394 0.9476269484
-0.14476635 0.066217951 1.1246248 -0.1061555445 0.03615759686 0.9936919212
-0.11464758 0.084739506 1.1372004 -0.4654195905 0.1078393832 0.8784960508
-0.095285073 0.057654686 1.1538 -0.4037708938 0.1941364259 0.8940246701
-0.16474633 0.094736107 1.1335555 0.487056911 -0.1299980581 0.8636411428
-0.13513641 0.10086138 1.1170001 -0.1573597193 0.01054412406 0.9874850512
-0.20548944 0.044599719 1.1615334 0.09792888165 0.4375142753 0.8938630819
-0.1143642 -0.047540519 1.2665454 -0.1078402475 -0.05810805038 0.9924685955
-0.084935322 -0.024505988 1.2648 0.03033067659 0.1458832026 0.9888367653
-0.12605694 -0.037572525 1.268 -0.08437176794 -0.1615079939 0.9832581282
-0.1944657 0.10286106 1.1458002 -0.01287196577 -0.3746106625 0.9270928502
-0.22664024 0.077561334 1.149 0.1595913321 0.1519855261 0.9754132628
-0.18784489 0.056049045 1.1548181 0.003298698924 0.4337516427 0.9010264277
-0.19670559 0.027779812 1.1650001 0.0335569717 0.4690816998 0.8825170398
-0.08805985 0.092085503 1.1480001 -0.4006192088 0.1293291301 0.9070712328
-0.16287804 -0.052821044 1.2589999 -0.2386286557 0.05860104039 0.9693411589
-0.217399 0.054434281 1.1570001 0.1248241588 0.2861192822 0.9500287771
-0.095074393 -0.024601121 1.2654117 0.04549959302 0.0460873805 0.9979006648
-0.18511739 0.095609955 1.1454287 0.2977850735 -0.2340441346 0.9254984856
-0.088163733 -0.036827888 1.273 0.03517736867 0.01911843196 0.9991981983
-0.16399007 -0.044207029 1.2590002 -0.2386286557 0.05860104039 0.9693411589
-0.21934287 0.086423114 1.153 0.2201413214 0.0956851691 0.9707636833
-0.17486782 0.078842141 1.153 0.4598560929 0.1339741945 0.8778287172
-0.0666968 -0.010004519 1.268 0.02935825288 0.1729766428 0.9844883084
-0.20131408 0.066625044 1.149 0.2162133753 0.3442116976 0.913657546
-0.1046152 -0.044173162 1.2733572 -0.05704541504 0.04886801168 0.997174859
-0.11503454 0.058353171 1.1454445 -0.4914397597 0.193906799 0.8490507007
-0.11531966 -0.043151874 1.2729999 -0.1078402475 -0.05810805038 0.9924685955
-0.17508087 -0.045986421 1.2640001 -0.2386286557 0.05860104039 0.9693411589
-0.23135172 0.06495963 1.1552857 0.01049078535 0.27687186 0.9608495831
-0.13519917 0.06471587 1.1250768 -0.3518432379 0.06204327941 0.9340004921
-0.15557323 0.094136819 1.1303197 0.4099566042 -0.1717515439 0.8957884908
-0.12606187 0.086576819 1.1260002 -0.410192132 0.1085685864 0.905513823
-0.14339812 -0.038906466 1.268 -0.1106435806 -0.3798417747 0.9184107184
-0.10774585 0.083802313 1.138 -0.4590951204 0.1081283018 0.8817822337
-0.21446407 0.06776911 1.1566666 0.1816868335 0.267029494 0.946406424
-0.21689358 0.03704904 1.1674 0.0597695671 0.4260233641 0.9027356505
-0.10340283 -0.024785703 1.2659999 0.04775034636 0.0121531589 0.9987853765
-0.19276001 0.044117089 1.1613334 0.06227094308 0.4636546671 0.8838250041
-0.19513133 0.053891335 1.1540666 0.09038751572 0.4658532739 0.880233407
-0.10372209 -0.033091869 1.2679999 -0.001119280816 0.06957492977 0.9975761175
-0.17680399 0.086226769 1.1463336 0.4803177714 0.03123742715 0.8765380979
-0.13433398 -0.045271065 1.2646667 -0.1325980574 -0.3287036717 0.9350784421
-0.12794015 0.058516327 1.1313334 -0.4466539621 0.1789842248 0.8766213059
-0.21495834 0.026740616 1.1732002 0.06021739915 0.4185823202 0.9061802626
-0.1107908 -0.033718932 1.268 -0.05704541504 0.04886801168 0.997174859
-0.11514172 0.094579123 1.1367275 -0.5035582185 0.04952144623 0.8625409007
-0.19350635 0.10773152 1.1556667 -0.02419874072 -0.3583300412 0.9332813025
-0.22512205 0.074927337 1.1549999 0.1303650588 0.209610492 0.9690554142
-0.22717519 0.055368863 1.1610001 -0.01105319429 0.3187317848 0.9477804899
-0.13445465 0.10158375 1.125 -0.2063133121 -0.02695099823 0.9781147242
-0.16090165 0.076995879 1.126 0.4673837721 -0.06346584857 0.8817734718
-0.089102641 0.05974045 1.155 -0.389610976 0.1795428693 0.9033092856
-0.13395773 -0.052696873 1.2654999 -0.1211413965 -0.3635370135 0.9236696362
-0.12832646 0.07521905 1.1260002 -0.4410258234 0.04497588798 0.896366775
-0.087750085 0.084396549 1.1483334 -0.3866336048 0.1382753402 0.9118083119
-0.19474831 0.0356838 1.1630803 0.02086260356 0.4632187486 0.8859983683
-0.22597255 0.068631917 1.1559089 0.06885403395 0.2592193782 0.9633610249
-0.22538118 0.044994399 1.1611999 -0.0104765594 0.36630404 0.9304362535
-0.22136447 0.10006887 1.153 0.1492879242 -0.2252412587 0.962797761
-0.23307849 0.052926119 1.161 -0.01136874035 0.3306286335 0.9436924458
-0.10824466 0.077317618 1.138 -0.4501834512 0.1635163724 0.8778367043
-0.18663183 0.061872505 1.1570001 -0.1952920407 0.3603879213 0.9121302366
-0.21233673 0.07695695 1.149 0.2373024374 0.163763389 0.9575328231
-0.20319878 0.048348457 1.1570001 0.1024901792 0.4004825652 0.9105544686
-0.13831958 0.075536229 1.1190001 -0.1104623601 0.06349118799 0.9918502569
-0.20786956 0.026295867 1.1730002 0.06082587317 0.4639455378 0.8837730289
-0.12561229 -0.045171928 1.2679999 -0.08889500052 -0.2192811072 0.9716035724
-0.15279561 -0.045678619 1.2640001 -0.08709865808 -0.3226141334 0.9425147176
-0.19447237 0.057978522 1.1482002 0.1100383401 0.43424353 0.8940492868
-0.12467846 0.094931148 1.1312798 -0.4336793423 0.0945789963 0.8960898519
-0.16904676 0.092025451 1.141 0.5300904512 0.04130399972 0.846934557
-0.17107712 -0.051874995 1.2590001 -0.2386286557 0.05860104039 0.9693411589
-0.15672871 -0.052978717 1.2590001 -0.1312964112 -0.2485147566 0.9596883059
-0.11271566 -0.027899917 1.273 -0.04417068511 0.07644616067 0.9960948229
-0.17622782 -0.042677302 1.2589999 -0.2386286557 0.05860104039 0.9693411589
-0.18550648 0.066338748 1.1465558 -0.1389982402 0.3019692302 0.9431299567
-0.21504068 0.093790069 1.1487334 0.1641096026 -0.06767798215 0.9841177464
-0.16324966 0.084190108 1.1320001 0.5166475177 -0.08363640308 0.8521034718
-0.065757975 -0.0037062282 1.2558182 0.02935825288 0.1729766428 0.9844883084
-0.2167228 0.047672257 1.1570001 0.09055840969 0.3417263925 0.9354262352
-0.19177084 -0.040545832 1.25 -0.2386286557 0.05860104039 0.9693411589
-0.089648813 0.065473847 1.149 -0.3887277842 0.1853366345 0.9025192857
-0.15432079 0.082260557 1.126 0.3204452395 -0.05818682536 0.9454782605
-0.20506826 0.056264013 1.1569998 0.1560995281 0.368560195 0.9164040089
-0.16658537 -0.048756693 1.2640001 -0.2386286557 0.05860104039 0.9693411589
-0.22318311 0.054739658 1.1563333 0.09574377537 0.3159605563 0.9439290762
-0.081147775 -0.0066696797 1.268 0.02935825288 0.1729766428 0.9844883084
-0.12220163 -0.037385888 1.273 -0.06780464947 -0.1583435088 0.9850532413
-0.094859719 -0.037943888 1.2729999 0.04790140688 0.01040211786 0.9987978935
-0.17508084 -0.053189125 1.2640001 -0.2386286557 0.05860104039 0.9693411589
-0.1647397 0.10023105 1.132 0.4927572906 -0.06382710487 0.8678227663
-0.21350521 0.054883447 1.1610001 0.1509311795 0.3165624738 0.9364870191
-0.19100375 -0.038200751 1.245 -0.2386286557 0.05860104039 0.9693411589
-0.12198933 0.10017202 1.1313334 -0.4334748983 0.07654216141 0.8979091048
-0.13819335 0.086680412 1.13 -0.1274780929 0.03857414052 0.991091013
-0.068702608 0.0022162134 1.2640001 0.02935825288 0.1729766428 0.9844883084
