# .PCD v0.7 - Point Cloud Data file format
VERSION 0.7
FIELDS x y z normal_x normal_y normal_z
SIZE 4 4 4 4 4 4
TYPE F F F F F F
COUNT 1 1 1 1 1 1
WIDTH 206
HEIGHT 1
VIEWPOINT 0 0 0 1 0 0 0
POINTS 206
DATA ascii
-0.026645407 -0.25210655 1.169 0.1949670911 -0.718662858 0.6674664617
-0.085485302 -0.078493662 1.0627501 0.3014013171 0.02257575467 0.953230083
-0.13620166 -0.19169897 1.0831113 -0.1975300163 0.02108465135 0.9800700545
0.021815849 -0.166216 1.1850001 -0.2403089553 0.3024853468 0.9223634005
-0.017503001 -0.1121346 1.097 -0.3945302367 -0.1475088894 0.9069658518
-0.15193458 -0.11804545 1.0738001 0.2646941841 -0.3620116711 0.8938034177
0.0017679444 -0.22665048 1.21 -0.2448432893 0.08194544166 0.9660935402
-0.07240653 -0.25079942 1.197 0.06793739647 -0.6476300955 0.7589201331
-0.083484963 -0.13038664 1.0700001 0.1731321663 -0.1069291756 0.9790768027
-0.16149077 -0.15862407 1.09 0.2470310479 0.1414665282 0.9586254954
-0.11990959 -0.15012303 1.077 -0.04719869792 0.2770313323 0.959700942
-0.045332607 -0.085920438 1.0841999 -0.4026966393 -0.1857129782 0.8962957859
-0.046062637 -0.12274993 1.0723571 -0.4557523131 -0.1654454321 0.8745957017
-0.10625901 -0.093454428 1.09 0.4112956226 -0.3101929128 0.8570975661
0.020154567 -0.19624183 1.21 -0.2475898415 0.1875465512 0.9505395889
-0.030431731 -0.22981203 1.197 0.002606500871 -0.439922899 0.8980317712
-0.13995545 -0.10327747 1.1010001 0.1890304983 -0.498895824 0.8457957506
-0.11822078 -0.11897751 1.0754001 0.09359448403 -0.2041580975 0.9744534492
-0.10989016 -0.1777354 1.09 -0.2286678404 0.2716922462 0.9348231554
-0.070352502 -0.10224564 1.0700001 -0.1301774532 -0.1593733281 0.978597939
-0.01154307 -0.2067259 1.197 -0.2249618024 0.1069132462 0.9684842229
-0.048025846 -0.26154503 1.1823335 0.1539032012 -0.7954429984 0.5861606002
0.0061769933 -0.17433368 1.2031429 -0.2403089553 0.3024853468 0.9223634005
-0.14414097 -0.14388444 1.075909 0.08642434329 0.3120396733 0.9461300373
-0.15219931 -0.17590405 1.0730001 -0.02942034416 -0.02302025259 0.9993020296
-0.095045738 -0.10444882 1.07336 0.5978730917 -0.1423973441 0.7888414264
-0.13511696 -0.16461678 1.0853999 -0.1110760197 0.1524985582 0.9820418954
-0.024955951 -0.095193088 1.084793 -0.3730369806 -0.1276081949 0.9189991951
-0.065300755 -0.12373806 1.0624443 -0.1339699626 0.003784216009 0.9909781814
-0.072572514 -0.2538318 1.177 0.1539032012 -0.7954429984 0.5861606002
-0.03479014 -0.24706422 1.187 0.1873980016 -0.7201938033 0.6679841876
-0.042209163 -0.10576516 1.0819999 -0.4615901411 -0.1954757273 0.8652882576
0.011591286 -0.21180442 1.202 -0.2512329519 0.1714696437 0.9526175261
-0.027562773 -0.12233596 1.0841429 -0.4811222255 -0.06619738787 0.8741506338
-0.1358147 -0.10731938 1.0833637 0.1507071555 -0.4773094654 0.8657153249
-0.016890736 -0.24200797 1.1935713 0.1411534101 -0.7315480709 0.6670180559
-0.16085343 -0.13639618 1.0730001 0.1216915548 0.2573063374 0.9586368799
-0.13469228 -0.12527613 1.0744399 0.05875096843 -0.1509709358 0.9867908359
-0.10206196 -0.1232269 1.0730001 0.2569685876 -0.08375702798 0.9627833962
0.02203677 -0.18573849 1.197 -0.2122524828 0.2875984013 0.9339357615
0.0052707302 -0.19504677 1.2026398 -0.2036722451 0.117361933 0.97197932
-0.054687481 -0.24719621 1.1874616 0.06793739647 -0.6476300955 0.7589201331
-0.084756851 -0.11492267 1.0643333 0.2727876306 -0.05265359581 0.9606323242
-0.054613251 -0.09510725 1.0741667 -0.501658082 -0.1681159884 0.848573029
-0.084756255 -0.094429538 1.0664783 0.3083739281 -0.01228863653 0.9511858225
-0.011591286 -0.22444947 1.202 -0.240290314 0.01121725235 0.9706362486
-0.11606693 -0.13453501 1.0756665 0.02766004577 0.09576135874 0.9950199127
-0.067660838 -0.087616108 1.067 -0.205535531 -0.1351362616 0.9692746401
-0.12578765 -0.1816297 1.087 -0.3002773821 0.2285370529 0.9260692596
-0.11517614 -0.16467796 1.0857998 -0.1038970053 0.3061760962 0.9462883472
-0.093436204 -0.083176091 1.0741112 0.5105978251 -0.03071364947 0.8592709303
-0.16000921 -0.14864761 1.08 0.2157487422 0.2610108852 0.9409175515
-0.1050948 -0.11172239 1.08 0.3851062953 -0.32466048 0.8638800383
-0.060878363 -0.26105466 1.177 0.1539032012 -0.7954429984 0.5861606002
0.0093812095 -0.16886178 1.189 -0.2403089553 0.3024853468 0.9223634005
-0.14504085 -0.15490706 1.0829999 0.1623532474 0.2631969452 0.9509830475
-0.062379219 -0.112564 1.0700001 -0.3238061666 -0.09102198482 0.9417348504
-0.035426389 -0.25692734 1.177 0.1737446487 -0.7613218427 0.624661386
-0.13139305 -0.19085559 1.0940001 -0.2201887965 0.09682245553 0.9706401229
-0.13407214 -0.15012303 1.077 0.04030205682 0.290890485 0.955907166
-0.096474417 -0.09334971 1.0834285 0.6007245779 -0.08538082242 0.7948836684
-0.1452166 -0.18475579 1.0759565 -0.1899917424 -0.1720086783 0.9666002989
-0.035355963 -0.086956576 1.09 -0.4022400975 -0.1235991642 0.9071527719
-0.023182575 -0.22234195 1.202 -0.2879140377 -0.04062760249 0.9567940831
0.0038039663 -0.20554534 1.1970003 -0.2538899779 0.1759009957 0.9511039257
-0.064485326 -0.24860914 1.1826 0.112961404 -0.7073896527 0.6977388859
-0.017218612 -0.10300434 1.0845556 -0.3945302367 -0.1475088894 0.9069658518
-0.15449108 -0.16542263 1.0849999 0.1330427527 0.02970114909 0.9906651378
-0.0073876027 -0.23420824 1.2038461 -0.2372393161 -0.0417637974 0.9705531001
-0.035644896 -0.0963386 1.085 -0.3794525266 -0.1701518595 0.9094306827
0.014860844 -0.17659146 1.1938 -0.2403089553 0.3024853468 0.9223634005
-0.035030615 -0.11491695 1.0848749 -0.4341208339 -0.1337253153 0.8908740878
-0.14440954 -0.17461693 1.08 -0.06996840239 -0.004815394059 0.9975376129
-0.0031612599 -0.21812694 1.202 -0.2132733762 0.08436776698 0.9733429551
-0.04065191 -0.23869967 1.189 0.1916839927 -0.6994277835 0.6885187626
-0.09505824 -0.11481658 1.0735333 0.3977073133 -0.1221224293 0.9093486667
-0.075582765 -0.12438884 1.0621666 0.05669785291 -0.05322486907 0.9969716668
-0.14377451 -0.11343715 1.0813333 0.1662279665 -0.3445614874 0.9239294529
-0.046303216 -0.2465385 1.193 0.1062717959 -0.6469206214 0.7551159263
-0.083726965 -0.10508891 1.066238 0.2270218581 -0.04415239021 0.9728882909
-0.13531443 -0.17464831 1.0853939 -0.230397433 0.1032389179 0.9676046371
-0.14487958 -0.12512353 1.0731333 0.09322103858 -0.1704518199 0.9809464812
-0.074697599 -0.094312325 1.0651332 -0.03453692049 -0.0389910005 0.9986425042
-0.13468745 -0.11566759 1.0761999 0.08683943003 -0.3775761425 0.9218975902
-0.015030448 -0.21566108 1.1961113 -0.2485811561 0.06940604001 0.9661211967
-0.1243876 -0.16426687 1.0830798 -0.1127611846 0.2790482342 0.9536336064
-0.14521809 -0.16514531 1.0826665 0.1316023618 -0.04842398316 0.9901191592
-0.073923513 -0.26235598 1.1810001 0.1539032012 -0.7954429984 0.5861606002
-0.075198822 -0.11491436 1.0618888 0.03866718337 -0.05703679472 0.9976230264
-0.03871097 -0.11896542 1.077 -0.4860621095 -0.1184066162 0.865865767
-0.154644 -0.13791721 1.08 0.1598916203 0.2622082829 0.9516729712
-0.055023529 -0.10431388 1.071963 -0.4629294872 -0.2054088116 0.8622664809
0.020021314 -0.20126688 1.202 -0.2656736076 0.2172373086 0.939268589
-0.056392808 -0.12193328 1.0650002 -0.3492661417 0.000870927528 0.9370231628
-0.12525608 -0.12526026 1.07428 0.008736550808 -0.07336604595 0.997266829
-0.144264 -0.134488 1.073923 0.07256653905 0.1094727069 0.9913374186
-0.14204308 -0.10629085 1.0923333 0.15732795 -0.4765122831 0.8649762869
-0.054924555 -0.25493765 1.1821429 0.1539032012 -0.7954429984 0.5861606002
0.014120294 -0.18567133 1.202 -0.2122524828 0.2875984013 0.9339357615
-0.13453464 -0.13453434 1.0731601 0.04026944935 0.0687918961 0.9968179464
-0.12510823 -0.13451482 1.0730001 0.02537557483 0.07539223135 0.9968309999
-0.11555281 -0.15526691 1.0833807 -0.06167788804 0.2996315658 0.9520592093
-0.089113168 -0.1210063 1.0700001 0.3630647659 -0.04746801779 0.9305540323
-0.025638407 -0.24703617 1.1856667 0.2342938036 -0.7362796664 0.6348217726
-0.10102619 -0.098193675 1.077 0.651271224 -0.1568289697 0.7424624562
-0.06311512 -0.095024042 1.0705625 -0.3237315118 -0.1450179964 0.9349693656
-0.15462138 -0.154706 1.0843477 0.2490721941 0.1580324024 0.955504477
-0.12510823 -0.14392149 1.0730001 -0.01721410826 0.2193696946 0.9754899144
-0.11615656 -0.18414608 1.0909091 -0.3088528514 0.2640135884 0.9137322903
-0.045956749 -0.09609355 1.0761427 -0.4668186307 -0.1782309115 0.8662067056
-0.021978034 -0.10925312 1.09 -0.3945302367 -0.1475088894 0.9069658518
-0.056372494 -0.087030254 1.0769999 -0.5107444525 -0.1197273433 0.8513550758
-0.00104937 -0.19833092 1.197 -0.2153164893 0.1102157384 0.9703047276
-0.07568799 -0.085947089 1.0633 0.02006439678 -0.08934623748 0.9957985282
-0.10269987 -0.086650357 1.0861429 0.5526427031 -0.2232483327 0.8029609323
-0.12561658 -0.11612461 1.0727619 0.08774433285 -0.2809555829 0.955701232
-0.047129385 -0.10427851 1.0752499 -0.4737996459 -0.2312479168 0.8497283459
-0.027085688 -0.086354204 1.0904446 -0.3880916536 -0.1367777288 0.9114146829
-0.10857955 -0.13123962 1.077 0.1312032938 0.01890855469 0.9911751151
-0.13526718 -0.15521581 1.0834166 0.06011996418 0.3189032972 0.9458785653
0.014600374 -0.19511804 1.2030525 -0.2408532798 0.1735693812 0.9549153447
0.005889446 -0.18596832 1.2024704 -0.2571564615 0.2524552047 0.9328113198
0.0094443299 -0.16684982 1.197 -0.2403089553 0.3024853468 0.9223634005
-0.054785855 -0.11406549 1.0727037 -0.4627138376 -0.171249494 0.8698100448
-0.025144726 -0.23575075 1.1952002 0.2207789272 -0.640830934 0.735249877
-0.033220623 -0.23659402 1.1935 0.2265424132 -0.7089394331 0.6678947806
-0.025100721 -0.24368615 1.193 0.223204881 -0.7136784792 0.6639598012
-0.15495835 -0.12541629 1.0735217 0.1769710928 -0.09596774727 0.9795261025
-0.078058399 -0.078987665 1.0600001 0.06884630769 -0.0959457159 0.9930028319
-0.093807787 -0.096626557 1.0735832 0.6007245779 -0.08538082242 0.7948836684
-0.12469355 -0.15550359 1.0802667 -0.07925867289 0.2993606627 0.9508423805
-0.0073762732 -0.20232064 1.202 -0.2446187139 0.142874375 0.9590352178
-0.044559907 -0.2555511 1.1858276 0.1867000014 -0.7823358178 0.5942170024
0.018111758 -0.1725913 1.1874001 -0.2403089553 0.3024853468 0.9223634005
-0.11552956 -0.17337841 1.087 -0.2286678404 0.2716922462 0.9348231554
-0.035120312 -0.10536619 1.0850383 -0.3990558386 -0.1311399043 0.907500267
-0.065938517 -0.11533298 1.0638517 -0.1245394573 -0.05887403339 0.9904664159
-0.089113168 -0.11162597 1.0700001 0.3763974607 -0.09878430516 0.9211767316
-0.16085343 -0.14580281 1.0730001 0.2077991515 0.2438950241 0.9472775459
-0.017587997 -0.095647231 1.0828235 -0.3730369806 -0.1276081949 0.9189991951
-0.0186993 -0.24412623 1.1850001 0.2765106261 -0.7160737514 0.6409214139
0.0031665198 -0.22165813 1.2040001 -0.2351607829 0.08602348715 0.9681422114
-0.025676692 -0.10525069 1.0848333 -0.3945302367 -0.1475088894 0.9069658518
-0.055433821 -0.26268047 1.182 0.1539032012 -0.7954429984 0.5861606002
-0.13218379 -0.10857955 1.077 0.1189232096 -0.4612239599 0.8792779446
-0.042498462 -0.1131578 1.0826666 -0.4573849142 -0.1826668829 0.8703055978
-0.10647618 -0.10444631 1.0802858 0.3709586859 -0.2773187757 0.886275351
-0.12478103 -0.17431101 1.08652 -0.270290643 0.2605166733 0.9268624783
-0.046129264 -0.11612697 1.0756153 -0.4861601889 -0.1940311044 0.8520564437
-0.016789917 -0.22561455 1.1970003 -0.2879140377 -0.04062760249 0.9567940831
-0.035897456 -0.25348061 1.1834003 0.2033032179 -0.7308238745 0.6515859365
-0.042553026 -0.093780778 1.0821428 -0.3731277287 -0.19746463 0.9065226912
0.0028857675 -0.21275976 1.197 -0.2461739182 0.1309729069 0.9603356123
-0.026710974 -0.11541452 1.0861578 -0.4248853922 -0.138951689 0.8945193291
-0.025409305 -0.24824892 1.1750001 0.2075415999 -0.7431893945 0.6360786557
-0.13547041 -0.18472798 1.0848273 -0.260153681 0.1198650971 0.958098352
-0.11624732 -0.12584257 1.0757825 0.07434358448 -0.06708610803 0.9949735999
0.00824505 -0.17734352 1.1969999 -0.2403089553 0.3024853468 0.9223634005
-0.13457531 -0.14398758 1.07348 0.01067635231 0.2672843337 0.9635585546
-0.16141033 -0.16474429 1.0862499 0.2385864258 0.09515032172 0.9664486051
-0.065916859 -0.25533539 1.181 0.1539032012 -0.7954429984 0.5861606002
-0.11672702 -0.1439065 1.0763999 -0.03683431819 0.2578164637 0.9654915333
0.014334736 -0.20510463 1.2034117 -0.2506482303 0.1993750036 0.9473252296
-0.084862947 -0.12441027 1.0656666 0.2412954271 -0.07132364064 0.9678272009
-0.1024648 -0.11541557 1.0747499 0.3069025576 -0.225835681 0.9245588183
-0.075169884 -0.10489766 1.0657878 0.008897529915 -0.07739001513 0.9969611764
-0.0053573092 -0.21390578 1.1970003 -0.2152390331 0.1242548525 0.9686242342
-0.09509401 -0.12387091 1.0717368 0.3471100926 -0.08412528038 0.9340436459
-0.033548076 -0.24400797 1.193 0.2342938036 -0.7362796664 0.6348217726
-0.063678831 -0.08744511 1.0725454 -0.371065855 -0.1684858799 0.9131936431
-0.0022590447 -0.19572887 1.203143 -0.2153164893 0.1102157384 0.9703047276
-0.15388286 -0.14575149 1.08 0.1411705464 0.3232006729 0.9357415438
-0.15461841 -0.17149667 1.082 0.1389275789 0.07742766291 0.9872710109
-0.14425907 -0.11674538 1.0755454 0.1662279665 -0.3445614874 0.9239294529
0.0078446083 -0.20384271 1.202 -0.2577412426 0.1712371707 0.9509191513
-0.065640762 -0.26339135 1.181 0.1539032012 -0.7954429984 0.5861606002
-0.0046172272 -0.20546663 1.1970003 -0.2446187139 0.142874375 0.9590352178
-0.033933062 -0.12289148 1.08525 -0.4709127247 -0.08747160435 0.8778325319
-0.0052717119 -0.22472005 1.2034398 -0.2320024967 0.009498240426 0.9726688266
-0.14213747 -0.10790759 1.0845 0.128342241 -0.4047274292 0.9053860903
-0.10943649 -0.1674841 1.0855 -0.1648948044 0.3084327281 0.9368451834
0.020021314 -0.18229933 1.202 -0.2122524828 0.2875984013 0.9339357615
-0.16074999 -0.15314227 1.085 0.2937828004 0.154117614 0.9433659911
0.015844274 -0.16674392 1.1883682 -0.2403089553 0.3024853468 0.9223634005
-0.097117849 -0.086069457 1.0831817 0.614268899 -0.1052504703 0.7820460796
-0.10178206 -0.10513522 1.0761112 0.4492460191 -0.2904170156 0.8448881507
-0.089279734 -0.087401919 1.072 0.5105978251 -0.03071364947 0.8592709303
0.0066099074 -0.21563625 1.2019999 -0.2461739182 0.1309729069 0.9603356123
-0.090734124 -0.12627944 1.067 0.2925583422 -0.1190408245 0.9488092065
-0.016894825 -0.23627956 1.1961112 -0.1118522733 -0.4810766578 0.8695138097
-0.084343582 -0.08459606 1.0635909 0.3835193813 -0.001048818114 0.9235322475
-0.039070401 -0.082905486 1.087 -0.4008148909 -0.1712037325 0.9000204206
-0.024975004 -0.22687382 1.1970003 -0.2578192055 -0.1666859537 0.9517064095
-0.10328818 -0.095947966 1.0852143 0.4143196642 -0.2477207184 0.8757703304
-0.088487819 -0.1041217 1.0700001 0.448006928 -0.08237131685 0.8902273774
-0.1461228 -0.14801641 1.08 0.1475398988 0.3758140206 0.9148747325
-0.051591832 -0.12194434 1.0700001 -0.4119510055 -0.08225089312 0.9074862003
-0.13091263 -0.1863355 1.09 -0.260153681 0.1198650971 0.958098352
-0.028985521 -0.092052929 1.09 -0.3880916536 -0.1367777288 0.9114146829
-0.090734124 -0.094475739 1.067 0.4969809949 -0.04458108172 0.8666154742
-0.023570936 -0.24698243 1.169 0.2189173698 -0.7700182199 0.5992888212
-0.07350938 -0.24951774 1.1810001 0.112961404 -0.7073896527 0.6977388859
-0.01264504 -0.20969692 1.202 -0.2249618024 0.1069132462 0.9684842229
-0.051729713 -0.085125931 1.08 -0.4638059735 -0.1291988641 0.8764654398
-0.066295922 -0.10615923 1.0684999 -0.1999356449 -0.1569853872 0.967151165
-0.15621994 -0.14270671 1.0756665 0.1583631635 0.2882066667 0.9443823695
