# .PCD v0.7 - Point Cloud Data file format
VERSION 0.7
FIELDS x y z normal_x normal_y normal_z
SIZE 4 4 4 4 4 4
TYPE F F F F F F
COUNT 1 1 1 1 1 1
WIDTH 206
HEIGHT 1
VIEWPOINT 0 0 0 1 0 0 0
POINTS 206
DATA ascii
-0.17411554 -0.086128801 1.0639999 -0.9663412571 -0.1651336551 0.1972700059
-0.094535351 -0.19426495 1.1850001 -0.4766512215 0.8634502888 0.1650975198
-0.010289436 -0.072026059 1.067 -0.3407612145 -0.2026813328 -0.9180425406
-0.099148154 -0.013424615 0.98775005 0.3431596756 0.213976115 -0.9145795107
-0.056614544 -0.16347009 1.0904446 -0.05820429325 0.1486876607 -0.9871698022
-0.18278255 -0.042928785 0.98719996 -0.5743244886 -0.03333775699 -0.8179486394
-0.18268462 -0.14069842 1.0190001 -0.02164522372 -0.1740055084 -0.9845067859
-0.22247721 -0.085617073 1.0120625 -0.181946665 -0.1389242262 -0.9734451771
-0.018155767 -0.12231253 1.09 -0.09988115728 -0.0346962139 -0.9943942428
-0.13545881 -0.05311716 0.97333312 0.1507991105 0.04105064645 -0.9877117276
-0.16861543 -0.09622556 1.0070001 0.001416189712 -0.3662992418 -0.930496037
-0.10005835 -0.16866979 1.087 -0.02692780644 0.1257203966 -0.9917001724
-0.14138632 -0.0084176073 0.99349999 -0.02742932551 0.4825429916 -0.8754426837
-0.14896539 -0.12309978 1.0175 0.005364563782 -0.2900727391 -0.9569895864
-0.20741834 -0.1168291 1.0231252 -0.06708246469 -0.4498441517 -0.8905841708
-0.15571353 -0.11162597 1.0700001 -0.5632405877 -0.7427699566 0.3620121777
-0.19605134 -0.065376118 1.0036086 -0.2765307128 -0.3423969746 -0.8979393244
-0.028517967 -0.074067459 1.0916001 -0.3407612145 -0.2026813328 -0.9180425406
-0.16493799 -0.064848371 0.97551745 -0.4546105862 -0.1517105252 -0.8776748776
-0.044328518 -0.13586117 1.0944499 -0.130384028 0.0608677119 -0.9895933867
-0.10720246 -0.041922674 0.98690915 0.3851722181 0.02412824705 -0.9225292206
-0.15639897 -0.032557521 0.98100001 -0.1737031788 0.2080395222 -0.9625729918
-0.19745164 -0.095373809 1.0100001 -0.01485108212 -0.1982755959 -0.9800338149
-0.011275687 -0.096894458 1.09 -0.2382680029 -0.1997772753 -0.9504300952
-0.12750466 -0.023884157 0.9780001 0.2231889367 0.3317390978 -0.9165892601
-0.17695078 -0.11781786 1.0220001 -0.03208329529 -0.3048888147 -0.9518473744
-0.022555172 -0.055915847 1.077 -0.3407612145 -0.2026813328 -0.9180425406
-0.076445334 -0.17279832 1.09 -0.05974002555 0.177751109 -0.9822604656
-0.17845865 -0.072255738 0.99300003 -0.5390726328 -0.4119563103 -0.7346377969
-0.032576133 -0.10624164 1.09 -0.1116357297 -0.1039606035 -0.98829633
-0.10852285 -0.0014625723 1.001 0.2111353874 0.3545559049 -0.9108852744
-0.17258498 -0.10372389 1.0748461 -0.568646729 -0.6968622208 0.4370628893
-0.18151383 -0.080574431 1.01 -0.1771166176 -0.3563892543 -0.9173965454
-0.21262966 -0.068903662 1.012 -0.2385794371 -0.1249326319 -0.9630532861
-0.038117465 -0.15151693 1.087 -0.1473810524 0.136462152 -0.9796208143
-0.12462369 -0.0061845821 0.98837942 0.1003127471 0.4885074496 -0.8667743802
-0.16690378 -0.13413478 1.0232002 -0.04004831612 -0.2056812197 -0.9777992368
-0.15896334 -0.10923179 1.013 -0.04487007111 -0.3725368977 -0.9269319773
-0.18594101 -0.10802287 1.0100001 0.001742337481 -0.4281307757 -0.9037151337
-0.13818108 -0.031366255 0.96700007 0.03873641789 0.1891662627 -0.9811807275
-0.19322583 -0.12408261 1.0190003 -0.1011045054 -0.2850084901 -0.9531778693
-0.096237712 -0.032853555 0.995 0.4139667451 0.1308389604 -0.9008399844
-0.17147601 -0.027436161 0.97800004 -0.2559358478 0.1501081735 -0.9549682736
-0.21111581 -0.10269536 1.0055001 -0.1391472965 -0.350849092 -0.9260361195
-0.12485781 -0.044173237 0.98100019 0.3644441664 0.0065591163 -0.9312021732
-0.022345357 -0.073015809 1.077 -0.3407612145 -0.2026813328 -0.9180425406
-0.16666944 -0.044212624 0.98205894 -0.3763894737 0.05980672315 -0.9245291352
-0.15432085 -0.017364096 0.98140925 -0.1189759746 0.5881863832 -0.7999259233
-0.070839927 -0.15795779 1.092 -0.02692780644 0.1257203966 -0.9917001724
-0.18511555 -0.055008553 0.99600005 -0.5511575937 -0.2784003317 -0.7865866423
-0.10781901 -0.026045769 0.98813343 0.3859971166 0.166683957 -0.9073162079
-0.035355967 -0.12517925 1.09 -0.1455921233 0.03526132181 -0.9887161255
-0.016914155 -0.086098686 1.0803809 -0.3407612145 -0.2026813328 -0.9180425406
-0.15770268 -0.098161593 1.0746001 -0.6077631712 -0.7315590978 0.3089420795
-0.029541036 -0.14008169 1.087 -0.1484564245 0.06342879683 -0.9868826866
-0.20600474 -0.08448948 1.0070001 -0.1629275233 -0.03708904982 -0.9859406948
-0.14684431 -0.061524373 0.97322232 -0.08096003532 -0.008462291211 -0.9966814518
-0.17456684 -0.054919306 0.98440915 -0.5785656571 -0.106783092 -0.8086155653
-0.053460009 -0.14569639 1.094647 -0.09229247272 0.1064901873 -0.9900211692
-0.11530726 -0.015506226 0.98467737 0.2475461215 0.3290719092 -0.9112807512
-0.14534451 -0.044457752 0.97525012 -0.04985025525 0.1194220111 -0.9915913343
-0.13403244 -0.034789022 0.98157156 0.2122007161 0.1659445912 -0.9630333781
-0.18519078 -0.095242761 1.0059167 -0.02148871683 -0.291995436 -0.9561782479
-0.024440149 -0.094799846 1.0861666 -0.2542697489 -0.1889722198 -0.9484916329
-0.13482763 -0.015835365 0.98665619 0.01637732238 0.5076243877 -0.8614228368
-0.1942661 -0.08482068 1.0046521 -0.07842155546 -0.1360436678 -0.9875941277
-0.17481981 -0.10477798 1.0125715 -0.00811669603 -0.3312449455 -0.9435098767
-0.086717233 -0.16866979 1.087 -0.02692780644 0.1257203966 -0.9917001724
-0.11567149 -0.034526486 0.98466659 0.3746075332 0.05754509568 -0.9253960252
-0.15499993 -0.13170514 1.0220001 -0.02438632958 -0.2328836918 -0.9721987844
-0.14294447 -0.027153395 0.9763636 -0.01301188115 0.4049006402 -0.9142680764
-0.16520704 -0.12412933 1.0186403 -0.0007636680384 -0.2592355311 -0.9658138156
-0.047646832 -0.15723455 1.087 -0.09797712415 0.1479387581 -0.9841313958
-0.15538655 -0.054639917 0.97388893 -0.1725376844 0.03829160705 -0.9842583537
-0.21109432 -0.10955528 1.016 -0.1007384881 -0.4020303786 -0.9100677967
-0.015246987 -0.11244652 1.087 -0.1290788054 -0.1199758202 -0.9843497872
-0.015715193 -0.065313555 1.0737692 -0.3407612145 -0.2026813328 -0.9180425406
-0.19102478 -0.13362767 1.0230001 -0.05052388459 -0.208953619 -0.9766195416
-0.16585514 -0.11182091 1.0718751 -0.5676629543 -0.7256650925 0.3888045251
-0.19423744 -0.1144601 1.0165715 -0.03898727521 -0.4585329294 -0.8878217936
-0.18538103 -0.078978904 1.001 -0.25100106 -0.3705950677 -0.8942358494
-0.19540231 -0.075242795 1.002875 -0.2208995819 -0.2860264778 -0.9324120283
-0.15512055 -0.044684354 0.97556275 -0.213162899 0.1129659414 -0.9704639316
-0.144448 -0.015850006 0.98500001 -0.0321913138 0.5535053611 -0.8322232366
-0.18498789 -0.064724386 0.99614704 -0.4850639999 -0.4033360779 -0.7759078145
-0.19505292 -0.10471187 1.0109092 -0.02275910601 -0.422449559 -0.9061006308
-0.11499339 -0.0062695337 0.98804009 0.1599634588 0.3893780708 -0.9070812464
-0.18446684 -0.12652852 1.0219998 -0.06330984086 -0.2239549905 -0.9725410342
-0.067658506 -0.17057566 1.087 -0.05974002555 0.177751109 -0.9822604656
-0.16490115 -0.054678574 0.97460014 -0.4212149084 -0.0480726324 -0.9056859612
-0.025372798 -0.085004643 1.0846 -0.3407612145 -0.2026813328 -0.9180425406
-0.1758507 -0.06562563 0.9867143 -0.5887463689 -0.3096284866 -0.7466645241
-0.025279559 -0.065093085 1.0813334 -0.3407612145 -0.2026813328 -0.9180425406
-0.12473521 -0.015268506 0.98390335 0.06789536774 0.4233932793 -0.9033982158
-0.02484473 -0.11562356 1.09 -0.1058508977 -0.07025275379 -0.9918972254
-0.17525207 -0.03528659 0.98168188 -0.4457412064 0.05925867334 -0.8931983113
-0.20481037 -0.075118557 1.0070001 -0.1722886711 -0.08944527805 -0.980977118
-0.034718923 -0.11589657 1.09 -0.1199233532 -0.01105463319 -0.9927216172
-0.11831844 -0.023149259 0.97800004 0.3349231184 0.1430208981 -0.9313278198
-0.18511304 -0.11496502 1.0172858 -0.07761070132 -0.3562856615 -0.9311482906
-0.17722277 -0.088059627 1.0070001 -0.07810173184 -0.3524097204 -0.9325810671
-0.11572043 -0.043528911 0.9832499 0.409868598 0.06286802143 -0.9099754691
-0.035411231 -0.13493435 1.0916001 -0.1484564245 0.06342879683 -0.9868826866
-0.02313037 -0.10369683 1.087 -0.1314270645 -0.1306349635 -0.982680738
-0.12526026 -0.034491576 0.98359984 0.3339544237 0.1199839413 -0.9349215627
-0.18053284 -0.09166953 1.067 -0.9398362637 -0.04942632839 0.3380307853
-0.15596873 -0.063555896 0.97387993 -0.1974892616 -0.02081177756 -0.9800841212
-0.1653246 -0.035497602 0.98156255 -0.2682501674 0.1240813211 -0.9553248882
-0.054580104 -0.15511897 1.0922667 -0.09797712415 0.1479387581 -0.9841313958
-0.2146548 -0.094681822 1.005742 -0.1872368753 -0.2041546851 -0.9608658552
-0.12703425 -0.051230144 0.97628582 0.2958713472 -0.03166882694 -0.9547026753
-0.045019642 -0.14462802 1.0925599 -0.1281428635 0.1027138382 -0.9864224792
-0.1352056 -0.044577159 0.97525722 0.167112723 0.07815293968 -0.982835412
-0.16480005 -0.1149151 1.0161202 -0.02338079922 -0.3676163256 -0.9296835661
-0.17556418 -0.12641478 1.022 -0.01567662694 -0.2068723738 -0.9782423377
-0.10651196 -0.0079255383 0.98776937 0.2725820839 0.2877117395 -0.9181072712
-0.16386916 -0.0255224 0.98140007 -0.1980123073 0.2957806587 -0.9345078468
-0.22112776 -0.077261508 1.013 -0.2284464538 -0.1008668318 -0.9683171511
-0.16512166 -0.094823956 1.0725384 -0.8034580946 -0.5528023839 0.2210533321
-0.17437099 -0.095940225 1.0723809 -0.5641367435 -0.7296420336 0.3864870667
-0.17495309 -0.044717893 0.98541379 -0.5665891767 0.01635660417 -0.8238380551
-0.099707685 -0.037282005 0.98900002 0.4036002755 0.05083236098 -0.9135222435
-0.20379056 -0.066332646 1.0058334 -0.2229311615 -0.2591111362 -0.9397675991
-0.13494952 -0.024083935 0.9811666 0.04159814492 0.4875766337 -0.8720886707
-0.17486277 -0.13546601 1.02332 -0.04675655812 -0.151160419 -0.9874028563
-0.20502768 -0.10517082 1.0130004 -0.09791991115 -0.4004819691 -0.9110575914
-0.16757615 -0.087022319 1.0685 -0.912052393 -0.3837751746 0.1444889456
-0.15700339 -0.11657071 1.0162307 -0.00317517994 -0.3434752226 -0.9391563535
-0.11525249 -0.025387703 0.98495984 0.3062179089 0.07350498438 -0.9491193891
-0.063047886 -0.15727177 1.0908 -0.05820429325 0.1486876607 -0.9871698022
-0.14516442 -0.034748722 0.97633356 -0.03260980546 0.1807652265 -0.9829854965
-0.035515226 -0.14413129 1.09 -0.1265908778 0.08666835725 -0.9881616235
-0.093754306 -0.17321457 1.087 -0.02692780644 0.1257203966 -0.9917001724
-0.1654461 -0.10520312 1.0118003 -0.018818615 -0.3511106968 -0.9361448288
-0.073597483 -0.1650462 1.0928636 -0.02692780644 0.1257203966 -0.9917001724
-0.17061862 -0.05830184 0.97800004 -0.4889827967 -0.09510273486 -0.8670935631
-0.026504397 -0.13382964 1.09 -0.1455921233 0.03526132181 -0.9887161255
-0.19922251 -0.086772464 1.01 -0.03792175651 -0.03023469821 -0.9988232255
-0.015242784 -0.07451392 1.074931 -0.3407612145 -0.2026813328 -0.9180425406
-0.19254187 -0.056086592 0.99650002 -0.4574231803 -0.3153564036 -0.8314532042
-0.10292718 -0.023962844 0.99317402 0.3674363196 0.1800975204 -0.9124447703
-0.22158365 -0.09269435 1.0070001 -0.1729685813 -0.1627286077 -0.9713913798
-0.18487428 -0.085266106 1.0046773 -0.101673983 -0.2968248725 -0.9495037794
-0.024844732 -0.12517925 1.09 -0.1446922123 0.01916942559 -0.9892910123
-0.2118728 -0.076803893 1.0070001 -0.2553938329 -0.02427087352 -0.9665324092
-0.21319699 -0.085367098 1.0070001 -0.1819021851 -0.06898318231 -0.9808939099
-0.015999304 -0.10497349 1.087 -0.2353892475 -0.1398388445 -0.9617884159
-0.10620624 -0.015117691 0.98806453 0.3101784289 0.2542976439 -0.9160360694
-0.016065402 -0.094706878 1.085111 -0.3407612145 -0.2026813328 -0.9180425406
-0.097548455 -0.017420681 0.99350005 0.3431596756 0.213976115 -0.9145795107
-0.050830886 -0.13906564 1.0940001 -0.1258593649 0.09065811336 -0.9878970385
-0.10887104 -0.0043522115 0.99350005 0.2111353874 0.3545559049 -0.9108852744
-0.14519268 -0.054659586 0.97422218 -0.03084328957 0.03793459013 -0.9988040924
-0.064969368 -0.16540207 1.091077 -0.05974002555 0.177751109 -0.9822604656
-0.1642849 -0.10493191 1.0721428 -0.5676629543 -0.7256650925 0.3888045251
-0.15612434 -0.10469048 1.0712856 -0.6077631712 -0.7315590978 0.3089420795
-0.095818661 -0.025832867 0.99545014 0.4009539485 0.1492651105 -0.9038560987
-0.18479794 -0.048276987 0.9939999 -0.6041058302 -0.1300495416 -0.7862208486
-0.025308272 -0.076230623 1.0824167 -0.3407612145 -0.2026813328 -0.9180425406
-0.19672576 -0.11788186 1.0220002 -0.06375912577 -0.3756816387 -0.9245529175
-0.10586406 -0.034779318 0.98747075 0.3855548799 0.02879897133 -0.9222353697
-0.15506354 -0.024117675 0.98100024 -0.1204862148 0.4274538159 -0.8959722519
-0.16131368 -0.019840719 0.98400003 -0.1045728102 0.3975237906 -0.9116135836
-0.13438861 -0.0095372563 0.98900002 0.0086343484 0.480392307 -0.8770112395
-0.041930966 -0.12633893 1.0905715 -0.1379083246 0.03189419582 -0.989931345
-0.20803036 -0.095199428 1.0055 -0.1488672495 -0.1667346656 -0.9746989608
-0.084850036 -0.17416154 1.0902224 -0.02692780644 0.1257203966 -0.9917001724
-0.18098187 -0.037438579 0.98400003 -0.5365368724 0.02636922523 -0.8434647918
-0.16182478 -0.1131838 1.067 -0.5632405877 -0.7427699566 0.3620121777
-0.14577162 -0.023932381 0.9811765 -0.05719914287 0.4966711104 -0.8660520315
-0.18467121 -0.13467295 1.0229999 -0.03404636309 -0.1646128148 -0.9857704639
-0.16233806 -0.046112049 0.97770005 -0.3167093396 0.03238326311 -0.9479696751
-0.1551912 -0.12421632 1.0179356 -0.009578214027 -0.2697993517 -0.9628689289
-0.191606 -0.062118843 0.99799997 -0.4134937823 -0.3215269744 -0.851846993
-0.18569538 -0.073987007 0.99722201 -0.2940744162 -0.3669551611 -0.882532835
-0.20416214 -0.11441723 1.0183686 -0.03919120133 -0.4479077756 -0.8932204247
-0.12298143 -0.050740588 0.98100007 0.35987854 0.004007386044 -0.932990551
-0.20471042 -0.12242631 1.0226668 -0.03598826006 -0.3235857189 -0.9455142021
-0.17590815 -0.094152905 1.0070001 -0.03400277346 -0.3745551109 -0.9265809655
-0.20364967 -0.094741352 1.0100001 -0.1208033711 -0.2012549788 -0.9720612168
-0.13158153 -0.040420469 0.98100007 0.2465174496 0.08753709495 -0.9651768804
-0.21600592 -0.07445439 1.0110502 -0.2547872066 -0.07492417842 -0.9640901685
-0.1841184 -0.11871382 1.0220001 -0.07585577667 -0.2829346955 -0.9561348557
-0.17989638 -0.076346271 1.001 -0.2344515175 -0.390596807 -0.8902059197
-0.045230154 -0.15257214 1.09 -0.1272985637 0.1246171743 -0.9840049148
-0.19269784 -0.094143115 1.00675 0.02646871097 -0.1960886568 -0.9802289009
-0.017108053 -0.11635801 1.090889 -0.1058508977 -0.07025275379 -0.9918972254
-0.17432465 -0.11453336 1.0180002 -0.03659714758 -0.3982070088 -0.9165652394
-0.18450591 -0.10328797 1.0070001 0.01809244789 -0.3346242607 -0.9421779513
-0.17221288 -0.12278233 1.0190001 -0.002584210364 -0.2452408969 -0.9694586992
-0.01160331 -0.10279167 1.09 -0.2169272006 -0.1912776828 -0.9572645426
-0.028475886 -0.094983324 1.09 -0.2542697489 -0.1889722198 -0.9484916329
-0.13745455 -0.034969196 0.97718185 0.06993673742 0.1595471501 -0.9847098589
-0.013475881 -0.083344452 1.0769999 -0.3407612145 -0.2026813328 -0.9180425406
-0.20757087 -0.067925379 1.0100001 -0.1965073496 -0.1404822767 -0.9703863263
-0.17629115 -0.064230114 0.99200004 -0.5929183364 -0.3392855823 -0.7302965522
-0.15293846 -0.10803908 1.067 -0.6077631712 -0.7315590978 0.3089420795
-0.1732498 -0.097692817 1.0100001 0.005001819227 -0.3412569165 -0.9399567842
-0.10058991 -0.032756943 0.99200004 0.3959633112 0.1243433505 -0.9098086357
-0.21788159 -0.083785921 1.0103 -0.165223524 -0.09003950655 -0.9821375012
-0.027438411 -0.10688697 1.09 -0.1290788054 -0.1199758202 -0.9843497872
-0.17119022 -0.032580439 0.9780001 -0.348921895 0.1149032786 -0.9300810695
-0.01791022 -0.057151254 1.0751818 -0.3407612145 -0.2026813328 -0.9180425406
-0.022555171 -0.065357536 1.077 -0.3407612145 -0.2026813328 -0.9180425406
-0.095164798 -0.16843703 1.0855 -0.02692780644 0.1257203966 -0.9917001724
-0.11231029 -0.0019200754 0.99620008 0.2111353874 0.3545559049 -0.9108852744
