# .PCD v0.7 - Point Cloud Data file format
VERSION 0.7
FIELDS x y z normal_x normal_y normal_z
SIZE 4 4 4 4 4 4
TYPE F F F F F F
COUNT 1 1 1 1 1 1
WIDTH 206
HEIGHT 1
VIEWPOINT 0 0 0 1 0 0 0
POINTS 206
DATA ascii
-0.25139907 0.044783637 1.161 0.01776375249 0.427046597 0.9040551186
-0.11856741 0.0077567468 1.2640001 0.1322510839 0.06582772732 0.989027977
-0.1290357 0.095026284 1.141 -0.5148636699 0.1182761267 0.8490737081
-0.26672322 -0.01339196 1.273 0.004793273751 -0.04505225644 0.9989731312
-0.21262708 0.11312471 1.126 0.3884738386 -0.132749632 0.911847353
-0.18860343 -0.04352387 1.273 -0.08493985981 0.2256555557 0.970497191
-0.27135989 0.09876702 1.138 0.02085033432 0.2428470403 0.969840467
-0.17570601 0.074688427 1.1306955 -0.2449874878 0.3510588706 0.9037359953
-0.22582933 -0.02371208 1.2880001 -0.0006812764332 -0.0745055452 0.9972203374
-0.15546437 -0.014903527 1.2646667 0.001694378559 0.2833413482 0.9590176344
-0.23444697 0.077317618 1.138 0.03373124823 0.330616653 0.9431621432
-0.2415804 0.12634958 1.153 0.1058870181 -0.3604640663 0.926743567
-0.16571881 0.11378132 1.13 -0.4072840512 -0.06750012934 0.9108037353
-0.14554766 0.067251615 1.1450002 -0.4130156934 0.3485684097 0.8413786888
-0.27157679 0.065829776 1.1482002 0.2240134925 0.3964097798 0.890324235
-0.23067816 -0.034215424 1.2590001 0.006664261688 -0.1332170218 0.9910644889
-0.20175695 0.085346133 1.1190001 0.176193431 0.09976139665 0.9792872667
-0.24448115 0.10454061 1.1375004 -0.02712600678 -0.03953875229 0.9988497496
-0.18409386 -0.018852716 1.265 -0.08367720246 0.189972207 0.9782171249
-0.12707771 0.076652355 1.1570002 -0.4335620403 0.1562672257 0.8874708414
-0.17952117 0.098099001 1.1190001 -0.2606481612 0.1406267285 0.9551369548
-0.1589274 0.089828528 1.126 -0.3423698246 0.1726047248 0.9235748649
-0.20512809 -0.027718794 1.2648 -0.06828974187 0.1869505346 0.9799928665
-0.12964848 -0.012189173 1.2640001 0.1322510839 0.06582772732 0.989027977
-0.16443977 -0.033386093 1.274111 -0.03152031079 0.23662211 0.9710903168
-0.1441652 0.11112802 1.1420001 -0.4269662499 -0.1282890141 0.8951210976
-0.23686336 0.062332455 1.153 -0.0212570522 0.5268918276 0.8496664762
-0.22548775 0.095345803 1.1340002 0.3604663312 0.02489356697 0.9324399829
-0.25786248 0.084191643 1.1420909 0.1894397885 0.2967424095 0.9359788895
-0.19129305 0.11281385 1.1190001 0.05417419598 -0.1520097554 0.986893177
-0.17769946 -0.038630318 1.2590001 -0.0745818764 0.2175935954 0.9731857777
-0.21427137 -0.041291878 1.273 -0.01792961732 -0.03615120798 0.9991855025
-0.22906336 0.12103347 1.141 0.2477793694 -0.3169721067 0.9154966474
-0.1411749 0.0011116134 1.268 0.1322510839 0.06582772732 0.989027977
-0.25484437 0.059430111 1.149 0.0642625615 0.4855326414 0.8718534112
-0.14442937 0.084165938 1.1414444 -0.4784080088 0.2608849704 0.8384895921
-0.208033 0.097082071 1.13 0.4008220434 -0.06295789778 0.91399014
-0.26243967 0.11296551 1.1345714 -0.01976912096 -0.03805690631 0.9990800023
-0.26564839 0.054961741 1.161 0.03159122542 0.4267449379 0.9038200974
-0.15806825 0.068595663 1.1340001 -0.3151123524 0.3677180707 0.8749215007
-0.22431533 -0.025667923 1.273 -0.0006812764332 -0.0745055452 0.9972203374
-0.24606806 0.11903292 1.141 0.007371698972 -0.2825815976 0.9592149258
-0.18487051 0.086107008 1.1256086 -0.2059337944 0.2579268515 0.9439623952
-0.27221543 0.084837951 1.1430001 0.215129301 0.359143883 0.9081492424
-0.22585125 0.086325362 1.1450001 0.213755697 0.1874901801 0.9587262273
-0.2381006 0.049249083 1.1623334 0.02223983221 0.5037820935 0.8635444045
-0.14311613 -0.012140957 1.2590001 0.1315068454 0.0813678056 0.987970233
-0.1940961 0.096014194 1.1232998 0.1225357279 0.07936872542 0.9892854095
-0.15592703 0.10501831 1.1334482 -0.4174108505 -0.05598549545 0.906991601
-0.13189495 0.0038630315 1.2590001 0.1322510839 0.06582772732 0.989027977
-0.17137957 0.091138266 1.13 -0.2560227215 0.1991793364 0.9459280968
-0.19641541 -0.022319933 1.273 0.09459245205 -0.02452787198 0.9952138662
-0.14581381 -0.023922069 1.2640001 0.02021004632 0.2677045166 0.9632890821
-0.24595292 0.073084779 1.142 0.1441514343 0.4404246807 0.8861413598
-0.19518019 -0.03548922 1.265 -0.02339051105 0.1418187171 0.9896162748
-0.24441041 0.084906466 1.1371671 0.1049545109 0.2171414196 0.9704813957
-0.14437325 0.096693419 1.1409999 -0.4580851197 0.07176771015 0.8860064745
-0.25449491 0.095441535 1.1380002 0.08790197968 0.1862653643 0.9785593748
-0.13645419 0.075574808 1.1465241 -0.4798872471 0.2230578065 0.848500669
-0.26477543 0.075605452 1.147261 0.2652080953 0.3703404665 0.8902317882
-0.16521308 -0.023977354 1.2668234 -0.04699825123 0.3070813715 0.9505220652
-0.26157716 0.03867678 1.161 0.007730090525 0.4100908637 0.9120119214
-0.17952116 0.11281385 1.1190001 -0.1723921895 0.01720619202 0.9848781228
-0.19405463 0.078241684 1.123643 -0.01263532881 0.2222467065 0.9749085903
-0.15406962 -0.030458206 1.268 -0.08211594075 0.3446542621 0.9351312518
-0.20342524 -0.042241305 1.268 -0.08734281361 0.1861135066 0.978638351
-0.24470522 0.054959107 1.1551816 0.01918500848 0.4894494712 0.871820569
-0.20324703 0.1058169 1.1254376 0.3251924813 -0.07647571713 0.9425504208
-0.22383755 -0.040999945 1.2640001 -0.01792961732 -0.03615120798 0.9991855025
-0.13642488 0.10394844 1.1442503 -0.5323206186 0.02633497678 0.8461331129
-0.23557071 0.11407647 1.1360003 0.1883207709 -0.2823120058 0.9406567812
-0.17476737 0.1053868 1.1252499 -0.2380839139 0.08474002779 0.9675408006
-0.21546268 0.10465066 1.13176 0.4421044588 -0.0599501431 0.8949579
-0.22926061 0.066360161 1.1470001 -0.08825197816 0.5290739536 0.8439741135
-0.27315265 0.056655459 1.1539999 0.16004318 0.442602694 0.8823202848
-0.17485504 -0.033104334 1.2672 -0.06886983663 0.1982421577 0.9777305126
-0.15467986 0.084870644 1.1338464 -0.3827249706 0.223909393 0.8963181376
-0.26356283 0.10759681 1.126 -0.0134959789 0.03436795622 0.9993181229
-0.21510226 -0.035480671 1.26475 -0.01792961732 -0.03615120798 0.9991855025
-0.21138567 0.089092426 1.125 0.3716346622 0.04914553463 0.927077353
-0.1290357 0.085023515 1.141 -0.4866254032 0.1467699707 0.8611935377
-0.15235831 0.073551461 1.1415 -0.3649028242 0.3282342851 0.8712681532
-0.22172801 0.11436496 1.141 0.3803337216 -0.1239216775 0.9165095091
-0.24451019 0.094602935 1.1380004 0.07182894647 0.1381009668 0.9878100753
-0.17443269 -0.018109009 1.2646667 -0.05640120804 0.1917107552 0.9798295498
-0.16534913 0.10431637 1.1279999 -0.3637047708 0.04933261499 0.9302070141
-0.16517316 0.084178671 1.1325715 -0.3155878186 0.2881617248 0.9040836096
-0.25536013 0.075269528 1.144778 0.1995073259 0.3594050109 0.9116056561
-0.234816 0.094427779 1.1360955 0.0643357113 0.05746667087 0.9962723255
-0.13241436 0.069744967 1.153 -0.4798872471 0.2230578065 0.848500669
-0.18508345 -0.035465546 1.2642 -0.0886188373 0.2266916186 0.9699265957
-0.25507057 0.11603209 1.141 -0.02843574248 -0.150222823 0.9882431626
-0.25494292 0.10477529 1.1367589 -0.005658667069 0.03349426389 0.9994229078
-0.16476668 0.075193599 1.134308 -0.3210614622 0.2879471481 0.9022228122
-0.2257653 0.10442803 1.1344802 0.3541107178 -0.02657017671 0.9348259568
-0.23502798 0.10512095 1.134522 0.1961845756 -0.04234617949 0.9796521664
-0.13437831 -0.0046908241 1.2589999 0.1322510839 0.06582772732 0.989027977
-0.21514453 -0.026613845 1.265 -0.009433024563 -0.01012450736 0.9999042749
-0.19455056 -0.026673343 1.2642667 0.007688056212 0.1172415987 0.9930736423
-0.15794027 0.11253244 1.126 -0.4503926337 -0.09867572784 0.88736099
-0.18803886 0.10238765 1.123 -0.02583040856 -0.01241089869 0.999589324
-0.18529776 0.077418931 1.1260002 -0.1479873359 0.3241785169 0.9343490005
-0.14571086 -0.0058018831 1.2642354 0.06599270552 0.1461228132 0.9870628715
-0.24510743 0.065094873 1.1450002 0.1065517664 0.5495928526 0.8286099434
-0.22356303 -0.028994123 1.2651428 0.006664261688 -0.1332170218 0.9910644889
-0.26533151 0.093868963 1.1415333 0.1048202515 0.2403638959 0.9650067091
-0.27302 0.076090187 1.1454446 0.2677138746 0.372941792 0.8883938789
-0.15434815 0.094083287 1.1316664 -0.3922811747 0.09265246987 0.9151672125
-0.26360181 0.04815793 1.1565001 0.007730090525 0.4100908637 0.9120119214
-0.1643306 0.096270822 1.126 -0.3149968982 0.1163196117 0.9419377446
-0.17527561 0.083909884 1.1306955 -0.2043420821 0.256616652 0.944665134
-0.13716345 0.067478433 1.1454003 -0.4784080088 0.2608849704 0.8384895921
-0.2655144 0.065112665 1.1536154 0.1915690005 0.4240027368 0.885168314
-0.16456126 -0.015873237 1.2668234 -0.0449879542 0.2469261587 0.9679894447
-0.18473671 0.09413714 1.1247648 -0.2398621142 0.2152618021 0.9466406703
-0.26408961 0.10431044 1.133273 0.04366338253 0.1189321429 0.9919418693
-0.21521685 0.09574867 1.13325 0.4628812075 -0.007539770566 0.8863882422
-0.2452922 0.039694589 1.161 0.03179559112 0.4547203779 0.8900665045
-0.1975314 -0.04352387 1.273 -0.04968112707 0.1482275277 0.9877045751
-0.12572747 0.0046881433 1.2640001 0.1322510839 0.06582772732 0.989027977
-0.22806309 0.074020475 1.1409999 0.09367195517 0.4327291548 0.8966442943
-0.13582247 0.087365344 1.138 -0.4997372627 0.1555210352 0.8521008492
-0.1962731 0.093410298 1.1163332 0.1442724615 0.09325801581 0.9851337075
-0.25518963 0.055344202 1.1555452 0.008127057925 0.4241601825 0.9055507183
-0.20516226 -0.035489392 1.265 -0.06828974187 0.1869505346 0.9799928665
-0.12430783 0.01220846 1.266 0.1322510839 0.06582772732 0.989027977
-0.17476781 0.095850699 1.1252499 -0.2495616674 0.1506566703 0.9565675855
-0.1453616 0.075188786 1.1435603 -0.4784080088 0.2608849704 0.8384895921
-0.22806203 0.085199021 1.138 0.2252720296 0.1819806844 0.9571496844
-0.19488518 0.10491449 1.1243198 0.2045098692 -0.05855127051 0.9771118164
-0.15958752 -0.027899917 1.273 -0.04155952111 0.292091608 0.9554869533
-0.2524046 0.074823499 1.138 0.1848545521 0.3098165691 0.9326534867
-0.1958361 0.11221508 1.1248 0.1550106555 -0.1852003634 0.970398128
-0.12765388 -0.005097291 1.2640001 0.1322510839 0.06582772732 0.989027977
-0.15633568 0.075600229 1.1346666 -0.322591424 0.3196665049 0.8909254074
-0.25613278 0.038860004 1.1563333 0.01776375249 0.427046597 0.9040551186
-0.2084454 0.10493641 1.1304445 0.3580733836 -0.121196799 0.9257941246
-0.23587738 0.12211432 1.1427778 0.1450849175 -0.3753250837 0.9154678583
-0.15336816 -0.0081290379 1.2646667 0.001753605204 0.267220825 0.9636337161
-0.20420589 0.094778754 1.1245002 0.3002540469 -0.01531228982 0.9537363648
-0.13867289 0.093778782 1.138 -0.5230077505 0.103671968 0.8459994197
-0.24577875 0.059430111 1.149 0.06849235296 0.5395235419 0.8391800523
-0.15309405 0.11134017 1.1339999 -0.4174108505 -0.05598549545 0.906991601
-0.26381794 0.071766563 1.153 0.2423316538 0.4009128511 0.8834841847
-0.17952117 0.10496593 1.1190001 -0.210738048 0.08539263904 0.9738057256
-0.17484425 -0.024929816 1.2652631 -0.05175850168 0.211985305 0.9759012461
-0.25273713 0.08613015 1.1380001 0.1587738395 0.2578296065 0.953055501
-0.17137957 0.1099603 1.13 -0.3297074437 -0.04126729071 0.9431807995
-0.26453698 0.085169397 1.1430004 0.193952471 0.3170922101 0.928350687
-0.18463582 -0.04154839 1.2672001 -0.07852151245 0.2253671736 0.9711045027
-0.1454227 -0.016100137 1.2640001 0.02415442094 0.2478761077 0.9684906006
-0.18505378 -0.02548646 1.2640001 -0.07916902006 0.2203840166 0.9721950293
-0.17611095 0.11320063 1.1248001 -0.2286615968 1.645036718e-05 0.9735059738
-0.25977474 0.061658595 1.153 0.07155449688 0.4584840834 0.8858172894
-0.19008587 -0.018897427 1.268 -0.07076028734 0.203918919 0.9764271975
-0.16507457 -0.030569367 1.268 -0.03670084476 0.2138314247 0.9761809111
-0.13526206 0.0029555354 1.2646667 0.1322510839 0.06582772732 0.989027977
-0.19381298 0.084865786 1.1232725 -0.00770768337 0.1996893734 0.9798289537
-0.2049401 0.11221136 1.1252501 0.3686052561 -0.1183839366 0.9220170379
-0.17242149 -0.035153892 1.273 -0.06602751464 0.1981028169 0.9779548049
-0.25482771 0.065414324 1.1462003 0.1277800202 0.4868068695 0.8641130328
-0.22773492 -0.028328901 1.2590001 0.006664261688 -0.1332170218 0.9910644889
-0.23458077 0.084613711 1.1375388 0.1707450598 0.2925464511 0.9408839941
-0.15520997 -0.024203718 1.2663999 -0.0620803982 0.2918851078 0.9544365406
-0.2447394 0.11417667 1.136889 -0.01887349971 -0.2226856053 0.9747076035
-0.14469908 0.10465903 1.1419094 -0.4223024249 -0.02277643792 0.9061688185
-0.14864935 0.10874349 1.138 -0.414020896 -0.09511072189 0.905284822
-0.2456063 0.048831459 1.1570002 0.03179559112 0.4547203779 0.8900665045
-0.17603759 0.089170448 1.126 -0.2549407482 0.2357387841 0.9377806187
-0.25807136 0.091025174 1.141 0.1293914318 0.2462986261 0.9605180025
-0.15281908 0.067882352 1.1443334 -0.3697433174 0.3395130932 0.8648819327
-0.2716125 0.093355164 1.1423334 0.08787632734 0.3049519658 0.948304832
-0.20513813 0.087494582 1.1239002 0.2782104611 0.0736874938 0.9576894641
-0.1812859 0.082222566 1.13 -0.2217117399 0.2936948538 0.9298318624
-0.24335416 0.076795712 1.1376668 0.1079467461 0.3236063123 0.9400140643
-0.13462065 0.083575495 1.1431335 -0.4866254032 0.1467699707 0.8611935377
-0.19428532 -0.042117797 1.268 -0.0544190146 0.1975582838 0.9787794948
-0.26238108 0.097626857 1.138 0.0735681355 0.1618206501 0.9840740561
-0.21505451 -0.041086446 1.2666668 -0.01792961732 -0.03615120798 0.9991855025
-0.14061435 -0.0068430849 1.2590001 0.1322510839 0.06582772732 0.989027977
-0.18529664 0.11339828 1.1183333 -0.03920743987 -0.06642883271 0.9970205426
-0.23500852 0.065936573 1.1479567 -0.08408392966 0.5454660654 0.8339044452
-0.14399366 0.088790558 1.138 -0.4623250067 0.1417966485 0.8752995729
-0.13506587 -0.014159139 1.2640001 0.1322510839 0.06582772732 0.989027977
-0.12913562 -0.0011037233 1.2590001 0.1322510839 0.06582772732 0.989027977
-0.22846109 0.078814089 1.138 0.1947899312 0.3416296244 0.9194270372
-0.1812859 0.075288132 1.13 -0.2063135505 0.2984532416 0.9318585396
-0.24454729 0.04495468 1.1628001 0.03179559112 0.4547203779 0.8900665045
-0.20869137 -0.041291878 1.273 -0.01792961732 -0.03615120798 0.9991855025
-0.22609703 0.11331806 1.1376923 0.3377253711 -0.1228289902 0.933195889
-0.13154796 0.075232148 1.153 -0.4335620403 0.1562672257 0.8874708414
-0.12416887 0.0064383857 1.2589999 0.1322510839 0.06582772732 0.989027977
-0.21025796 0.10759681 1.126 0.3949317634 -0.1652477384 0.9037267566
-0.23688082 0.057353046 1.1551818 -0.05167407915 0.5544484258 0.8306122422
-0.1589274 0.095751286 1.126 -0.3957999051 0.04892103001 0.9170327783
-0.25494295 0.045731854 1.1569997 0.01776375249 0.427046597 0.9040551186
-0.26401991 0.045394324 1.161 0.007730090525 0.4100908637 0.9120119214
-0.1353737 -0.0060945866 1.2640001 0.1322510839 0.06582772732 0.989027977
-0.15703274 -0.032391079 1.2739999 -0.08248239756 0.343503952 0.9355221391
-0.1180984 0.0062544323 1.2590001 0.1322510839 0.06582772732 0.989027977
-0.13903846 0.11103071 1.141 -0.4396257997 -0.08276882768 0.894359231
-0.13796541 -0.012140957 1.2590001 0.1322510839 0.06582772732 0.989027977
-0.23489828 0.073186904 1.1409999 0.02468767017 0.4045915902 0.9141641855
-0.25139907 0.039694589 1.161 0.01776375249 0.427046597 0.9040551186
-0.27311724 0.065297462 1.153 0.2162893713 0.4069293737 0.8874837756
-0.18456626 0.098519422 1.1190001 -0.1979931593 0.1482719034 0.9689242244
