# .PCD v0.7 - Point Cloud Data file format
VERSION 0.7
FIELDS x y z normal_x normal_y normal_z
SIZE 4 4 4 4 4 4
TYPE F F F F F F
COUNT 1 1 1 1 1 1
WIDTH 206
HEIGHT 1
VIEWPOINT 0 0 0 1 0 0 0
POINTS 206
DATA ascii
0.14472976 0.075010344 0.73185712 -0.4369236529 0.4428251386 0.7829454541
0.079347096 -0.012846674 0.86200005 0.06339656562 0.512471199 0.8563609719
0.029121641 0.062689207 0.81820011 0.560457468 0.5090141296 0.6532931924
0.20358971 0.036555246 0.78088015 -0.6314960122 0.3385779858 0.6975512505
0.089479603 0.12601469 0.7486667 0.4214024544 -0.03026429936 0.9063686132
0.15481229 -0.015630091 0.84900004 0.105900012 -0.1973526478 0.9745959044
0.14672704 0.01862018 0.76775008 0.1563869566 0.5415661335 0.8259837627
0.18384752 0.095303312 0.77100003 -0.656298399 -0.002190391067 0.7544982433
0.090675391 0.064365372 0.75028574 0.7054146528 0.2450902611 0.6650721431
0.14584051 0.13014467 0.74600005 -0.09573096037 -0.5490239263 0.8303061128
0.040550217 0.019906471 0.84100002 -0.1196851656 0.460249126 0.8796852827
0.17615737 0.055261567 0.75116682 -0.3374778926 0.114024289 0.934401989
0.11199417 0.098682858 0.73000002 0.3715288043 -0.36284253 0.854582727
0.11544542 -0.020663384 0.85399997 0.1029884517 -0.1963465661 0.9751109481
0.16383253 0.10427369 0.73807538 -0.5896098614 -0.1198891625 0.7987408042
0.14647454 0.054759998 0.75522453 0.1512353271 0.249110043 0.9565939903
0.11489301 0.064981304 0.73320258 0.2885098159 0.4000084996 0.8699168563
0.086890526 0.096915387 0.75200003 0.7692703605 -0.184455812 0.6117181778
0.17437407 0.023678793 0.76431024 -0.308717072 0.5910124183 0.7452504039
0.11655962 0.13120697 0.74275017 0.2850372195 -0.05278424919 0.9570619464
0.13849229 0.11104912 0.72800004 -0.04383567721 -0.4570005238 0.8883855939
0.20527193 0.063634165 0.78050005 -0.6593233943 0.00044843668 0.7518593669
0.16590334 0.082698807 0.75323528 -0.562204659 0.2352993786 0.792817831
0.10504045 0.00075568672 0.86200005 0.1029080898 -0.1943508834 0.9755191803
0.043760456 0.045492511 0.82639998 0.2580757439 0.6535294056 0.7115449309
0.079332024 0.078258626 0.76560003 0.7713271379 0.02241314575 0.6360441446
0.1634282 0.010257 0.78000003 -0.2146947682 0.5564787388 0.8026441336
0.19035216 0.05280273 0.76725 -0.6439688206 0.2038199008 0.7374019027
0.1548506 0.035067588 0.75487489 0.1338314414 0.4131869376 0.9007583857
0.096177474 0.085418068 0.73714274 0.6751006842 0.008651662618 0.7376748919
0.1019125 0.1098025 0.75000006 0.5385007262 -0.1313612461 0.8323227763
0.1387087 -0.015843621 0.8605715 0.105900012 -0.1973526478 0.9745959044
0.18363406 0.074915566 0.7561999 -0.5557454824 -0.1506324261 0.8175920844
0.12509108 0.085200138 0.72474611 0.04034255072 0.03920789063 0.9984163642
0.16323358 0.12178809 0.74644446 -0.5782910585 -0.3251178563 0.7482498288
0.09589681 -0.020387759 0.86133337 0.1029080898 -0.1943508834 0.9755191803
0.15125656 0.096051104 0.72800004 -0.3216897547 -0.1260676086 0.9384149909
0.1397994 0.03477912 0.76300001 0.2203788012 0.4206083417 0.8800691962
0.12457147 -0.0065266611 0.85402799 0.1016413122 -0.2081792802 0.9727951884
0.21075329 0.049469423 0.77300006 -0.6439688206 0.2038199008 0.7374019027
0.1492525 0.070352502 0.75000006 -0.4223191142 0.4041162729 0.8113794327
0.16289164 0.087000281 0.73759085 -0.5554602146 0.255166471 0.7914253473
0.18421417 0.036829155 0.76377773 -0.5835411549 0.3938720226 0.7101721764
0.11817413 0.1113863 0.737625 0.3214277327 -0.3731200695 0.8703250289
0.051241167 0.030012684 0.83500004 -0.1196851656 0.460249126 0.8796852827
0.1610875 0.059832498 0.75000006 -0.02469544299 0.04461217299 0.998699069
0.029004866 0.048048873 0.82300007 0.4308605492 0.6127635837 0.6624801755
0.1037587 0.12310153 0.74115378 0.3905057013 0.008638868108 0.9205600023
0.1113542 0.081275769 0.73000002 0.3925034702 0.1567603648 0.9062930942
0.1029143 0.057835504 0.74405569 0.5377864838 0.2758365571 0.7966805696
0.036649454 0.032043993 0.83223087 -0.1196851656 0.460249126 0.8796852827
0.13495323 0.095422395 0.72489822 -0.07716686279 -0.09968890995 0.9920218587
0.1546403 0.11481126 0.73752195 -0.2747940123 -0.3636466265 0.890083909
0.17105038 0.070587017 0.74900001 -0.2913212776 -0.003596160095 0.9566184878
0.16478959 0.043618757 0.75062233 0.01007832494 0.2694970965 0.9629484415
0.083084665 0.083855331 0.75270826 0.7804778218 -0.02484401502 0.624689579
0.12650008 0.071036302 0.73000002 0.03967115656 0.3046066165 0.951651752
0.041977428 0.055967275 0.8185001 0.560457468 0.5090141296 0.6532931924
0.13476621 0.12393273 0.74241179 -0.01085490361 -0.4937514961 0.8695352674
0.09912207 0.069320664 0.73900002 0.5976624489 0.2407015413 0.764762938
0.09381073 -0.0055313762 0.86066663 0.1029080898 -0.1943508834 0.9755191803
0.1790954 0.088324167 0.76133341 -0.5752916336 -0.008016133681 0.8179090619
0.12486376 0.10273533 0.72729039 0.1730234027 -0.3695579469 0.912956655
0.16494979 0.027791852 0.75726664 -0.006196785253 0.5223249793 0.8527240157
0.17491107 0.035110377 0.75573915 -0.3510938883 0.4263529778 0.833640337
0.17100523 0.014194109 0.77100003 -0.1721959263 0.5841056108 0.7932018638
0.1048356 -0.015017917 0.85535169 0.1029080898 -0.1943508834 0.9755191803
0.19580059 0.044989258 0.77450007 -0.6411995292 0.2680890262 0.7190212011
0.14397252 0.086837664 0.72762167 -0.3490764797 0.1862117797 0.9184066653
0.09322343 0.095512591 0.74155998 0.6494656801 -0.2902845442 0.7028009892
0.088679865 0.075439401 0.74764991 0.7661571503 0.1225523949 0.6308598518
0.12876217 -0.015630091 0.84900004 0.105900012 -0.1973526478 0.9745959044
0.14508389 0.12176632 0.73881251 -0.08606870472 -0.5300484896 0.8435880542
0.18134412 0.046161059 0.75440007 -0.505114913 0.2020298243 0.8390726447
0.15454338 0.024462171 0.76287484 0.1105694547 0.5666498542 0.816506207
0.1390665 0.04458113 0.75900006 0.2044118792 0.3462120593 0.9156161547
0.19703189 0.06164664 0.77427286 -0.6359180808 0.1123284101 0.7635381818
0.18422201 0.064941719 0.7535435 -0.5746129751 -0.03092560917 0.817840755
0.12459738 0.12423107 0.74279255 0.06932162493 -0.4007175267 0.9135754108
0.15414143 0.013755139 0.77273083 0.1105694547 0.5666498542 0.816506207
0.10534545 0.10264937 0.73640639 0.5449311733 -0.3718694448 0.7515072227
0.13459276 0.076019645 0.7268039 -0.1668988913 0.2561335266 0.9521241188
0.15511186 0.1051818 0.73326182 -0.3363093138 -0.2753834724 0.9005886912
0.15506563 0.044896543 0.75115156 0.1936728358 0.2595433295 0.9461120963
0.11496508 -0.0062864665 0.85569245 0.1029080898 -0.1943508834 0.9755191803
0.13476488 0.066246063 0.73166686 -0.285680294 0.5798873305 0.7629662156
0.10479596 0.074869022 0.73344445 0.4768131077 0.2603311241 0.839569509
0.15594804 0.077153236 0.74900001 -0.404001981 0.3834098577 0.830529511
0.15491517 0.084801771 0.73283339 -0.5296763182 0.2845068276 0.7990612388
0.13519897 0.085028723 0.72449118 -0.1152356267 0.08956620097 0.989291966
0.097714819 0.11855655 0.74653846 0.4976028502 -0.001873872476 0.8674029708
0.15493213 0.123104 0.74160874 -0.1535218954 -0.4868761301 0.8598736525
0.1483857 -0.020930637 0.85275 0.105900012 -0.1973526478 0.9745959044
0.18401822 0.055397473 0.75548381 -0.5824540854 0.09022139758 0.8078411818
0.089354247 0.11980088 0.75500005 0.5046618581 -0.08644040674 0.8589787483
0.1543709 0.054563064 0.7502501 0.03201133758 0.1803370714 0.9830838442
0.14493272 0.10178132 0.72781491 -0.2707388997 -0.222613126 0.9365595579
0.14609469 0.035766892 0.75741047 0.2235941887 0.4067356288 0.8857605457
0.16489904 0.035113852 0.75316644 -0.01993538812 0.4265826046 0.9042288661
0.10898326 0.091458254 0.72700012 0.4315741062 -0.1721302867 0.8855026364
0.10539283 0.11531945 0.74482781 0.4450747371 -0.03908609971 0.8946400285
0.14226049 0.067656368 0.73500007 -0.3713979423 0.5151449442 0.7724565864
0.16407691 0.095115319 0.7362327 -0.6825216413 0.016467968 0.73067981
0.10723329 0.13063034 0.74133343 0.3147099912 -0.06636948138 0.9468646646
0.10385541 0.084334783 0.7317273 0.5084770322 0.07311628014 0.8579657078
0.12499513 0.094921224 0.72456902 0.1248893067 -0.1788795292 0.9759122729
0.11726529 0.076029725 0.72761303 0.2735472322 0.2186670154 0.9366731644
0.084307082 0.074809439 0.75459093 0.7801555395 0.08555553854 0.6197077036
0.18622342 0.044739351 0.7646957 -0.6264323592 0.2562933564 0.7361360192
0.095845424 0.11470938 0.75353491 0.500882566 -0.06144662946 0.8633313179
0.1074504 0.058008816 0.73725009 0.4184648693 0.357953459 0.8347194195
0.12360561 -0.020600352 0.85450006 0.105900012 -0.1973526478 0.9745959044
0.14511016 0.11523236 0.73391128 -0.1360366046 -0.4950060844 0.8581742048
0.044712041 0.024922963 0.83614284 -0.1196851656 0.460249126 0.8796852827
0.08600235 -0.0071540088 0.86206669 0.05365578085 0.4818554521 0.8746064305
0.16513127 0.017514225 0.76653349 0.01446415111 0.5773866773 0.8163427114
0.19428638 0.037462011 0.77700007 -0.6314960122 0.3385779858 0.6975512505
0.12545112 0.11368031 0.73517245 0.1818019599 -0.4379596412 0.8804200292
0.13541403 0.10374262 0.72715801 -0.03611769155 -0.3569549024 0.9334231019
0.040845476 0.063776277 0.81739998 0.560457468 0.5090141296 0.6532931924
0.11233117 0.10894968 0.74240005 0.437030673 -0.2817184925 0.8541890383
0.20503512 0.054870781 0.77377748 -0.6442707181 0.1618371308 0.7474784255
0.17483321 0.083949856 0.7563169 -0.5282588005 -0.009480708279 0.8490304947
0.16497998 0.075222895 0.75091225 -0.4062426984 0.04861207679 0.9124712348
0.10483841 0.095205463 0.73249149 0.4939321876 -0.3042142987 0.814545691
0.16209458 0.11259597 0.73846155 -0.4428235888 -0.2677199244 0.8557063341
0.034829319 0.052854192 0.82099992 0.560457468 0.5090141296 0.6532931924
0.11646222 0.12354801 0.74135464 0.2753813863 -0.1398677528 0.9511057138
0.046624638 0.040068049 0.83100003 -0.1196851656 0.460249126 0.8796852827
0.16774508 0.063353457 0.74864697 -0.1292923838 -0.04374542832 0.9906411171
0.11493349 0.10529692 0.73246515 0.3228209615 -0.4120872021 0.8520391583
0.15507379 0.065506086 0.75012255 -0.255096823 0.2800629139 0.92546767
0.10558432 0.065306388 0.7368598 0.5060321689 0.2986903787 0.8091449142
0.10536183 -0.007606341 0.85660887 0.1029080898 -0.1943508834 0.9755191803
0.18353947 0.081991881 0.75873333 -0.6330066919 -0.08189926296 0.7698019743
0.091423534 0.10227315 0.75460005 0.7120839953 -0.1525561959 0.6853196025
0.096291989 0.059174318 0.7472223 0.675545752 0.2354685217 0.6987077594
0.087455079 0.085399829 0.74688566 0.777048707 0.01614185981 0.6292334795
0.14547411 0.044807777 0.75533348 0.2564915717 0.2672783434 0.928856492
0.044829272 0.033524431 0.83414996 -0.1196851656 0.460249126 0.8796852827
0.17720124 0.065020218 0.7514075 -0.3229123056 -0.0286842864 0.9459941387
0.20494179 0.045820035 0.77553988 -0.6411995292 0.2680890262 0.7190212011
0.14499883 0.024839109 0.76433969 0.1563869566 0.5415661335 0.8259837627
0.035452452 0.045576233 0.82528585 0.333376199 0.6512671709 0.6816974282
0.087767482 0.092534795 0.74557149 0.7719389796 -0.1974694133 0.6042483449
0.15287337 0.077985957 0.73409098 -0.5047722459 0.3866557479 0.771817565
0.096859589 -0.014394344 0.85748142 0.1029080898 -0.1943508834 0.9755191803
0.17496161 0.075300939 0.75275528 -0.4169098437 -0.04941880703 0.9076034427
0.036585566 0.025951892 0.83599997 -0.1196851656 0.460249126 0.8796852827
0.13105494 -0.0092012016 0.85100001 0.1016413122 -0.2081792802 0.9727951884
0.13455525 0.11487593 0.73249 0.03837002069 -0.52923733 0.8476057649
0.17485869 0.044954054 0.75187927 -0.3699120879 0.2516666055 0.8943315744
0.11263034 -0.001508159 0.86033338 0.1029080898 -0.1943508834 0.9755191803
0.14971276 0.02994255 0.75900006 0.1638453454 0.4856695831 0.8586499691
0.15556015 0.017984856 0.7673043 0.1105694547 0.5666498542 0.816506207
0.16439007 0.013139099 0.77368748 -0.141791746 0.5621708632 0.8147754669
0.035190564 0.037294962 0.82790321 -0.1196851656 0.460249126 0.8796852827
0.15746585 0.028894862 0.75838459 0.1106921136 0.5324357152 0.8392016888
0.12325597 0.11757819 0.74142104 0.1142892465 -0.415936023 0.9021835923
0.14674273 0.064219952 0.75189197 -0.3460314274 0.3780075908 0.8587039709
0.093254484 0.074627273 0.74256408 0.6814852953 0.193288371 0.7058451772
0.094948396 0.12416873 0.74372333 0.3919157982 0.03005005978 0.9195101857
0.17377156 0.028739547 0.75800002 -0.2170506865 0.4726205468 0.8541187048
0.14670631 -0.015403423 0.85637939 0.105900012 -0.1973526478 0.9745959044
0.027985316 0.054488808 0.82100004 0.560457468 0.5090141296 0.6532931924
0.1193459 0.069565251 0.72800004 0.1889240742 0.330919832 0.9245538116
0.10605354 0.10806907 0.745 0.538205564 -0.1976762265 0.8193038702
0.21075241 0.060702153 0.77800006 -0.6425085068 0.06360531598 0.7636342049
0.086411782 0.068475567 0.75414288 0.7421550155 0.1860995144 0.6438733339
0.19659151 0.055141427 0.77283889 -0.6442707181 0.1618371308 0.7474784255
0.095586523 0.065322243 0.74505079 0.6697534323 0.2474759817 0.7001327872
0.14773169 0.01307636 0.77352381 0.1105694547 0.5666498542 0.816506207
0.12243571 0.13136367 0.74550003 0.1029180512 -0.2819862664 0.9538823962
0.11428176 0.11507354 0.74243158 0.3234757185 -0.2796191573 0.9039782286
0.11477841 0.085496426 0.72659713 0.293374896 0.04078314081 0.9551271796
0.18262713 0.091707148 0.76541668 -0.6588123441 -0.04413663596 0.7510114908
0.08562164 -0.013850807 0.86180001 0.05365578085 0.4818554521 0.8746064305
0.16465484 0.054997981 0.74796379 -0.01641184278 0.08713725209 0.9960611463
0.16482499 0.022645911 0.7628333 0.01446415111 0.5773866773 0.8163427114
0.091182411 0.0843703 0.74199998 0.747820735 -0.002386465436 0.6638963819
0.1803207 0.035931058 0.75900006 -0.5274510384 0.3907503188 0.754393518
0.096861854 0.093556397 0.73693758 0.6424598098 -0.3110631406 0.7003464103
0.11718578 0.10137773 0.72800004 0.3248717487 -0.3815827668 0.8653628826
0.080724344 0.082058631 0.76099998 0.7629956007 -0.0323484838 0.6455937624
0.15850484 0.11822902 0.74100006 -0.2061003298 -0.3922480047 0.8964731693
0.11506948 0.094663888 0.72664016 0.326574713 -0.2319815159 0.9162606001
0.13998263 0.028800253 0.76400006 0.1582345068 0.5263428688 0.8354190588
0.097543836 0.0759091 0.73850012 0.6180039048 0.2114837021 0.7571960092
0.1453639 0.094995737 0.7272501 -0.2620007694 -0.06537310034 0.9628509283
0.12473065 0.075616866 0.72655189 0.0673732087 0.2220197022 0.9727117419
0.11330216 0.05907594 0.73650002 0.3040917516 0.4085353911 0.8605968952
0.14488633 0.1072236 0.73032343 -0.2159744203 -0.3534241021 0.9101903439
0.18771432 0.0517058 0.76200008 -0.6166071892 0.2151664197 0.7572971582
0.18505311 0.086843155 0.76295829 -0.6485469937 -0.1058966815 0.7537723184
0.17062826 0.055719186 0.74899995 -0.2729150653 0.09883075207 0.9569482207
0.12491485 0.1077745 0.73042303 0.2173138112 -0.4742131233 0.8531686068
0.10430756 -0.020886878 0.85600001 0.1029080898 -0.1943508834 0.9755191803
0.13312086 -0.01421681 0.85331577 0.105900012 -0.1973526478 0.9745959044
0.13919494 0.12171508 0.7385 -0.04231161252 -0.5681979656 0.821803391
0.13363397 0.10848188 0.73017639 0.03505650163 -0.4471960366 0.8937487006
0.0980855 0.12555461 0.73900002 0.3905057013 0.008638868108 0.9205600023
0.198302 0.040344201 0.78000003 -0.6360142827 0.2977200747 0.7119329572
0.11451817 -0.014968896 0.85378581 0.1029080898 -0.1943508834 0.9755191803
0.14698981 0.082940914 0.73058319 -0.4570881426 0.3124631345 0.8327288032
0.035247285 0.064456508 0.81807327 0.560457468 0.5090141296 0.6532931924
0.1728774 0.017953794 0.7673077 -0.1995072216 0.5864735246 0.7850131392
