# .PCD v0.7 - Point Cloud Data file format
VERSION 0.7
FIELDS x y z normal_x normal_y normal_z
SIZE 4 4 4 4 4 4
TYPE F F F F F F
COUNT 1 1 1 1 1 1
WIDTH 206
HEIGHT 1
VIEWPOINT 0 0 0 1 0 0 0
POINTS 206
DATA ascii
0.12631023 0.10436921 0.72345942 0.7681908011 0.3701553345 0.5223676562
0.18232706 0.025397472 0.81600022 0.01998031139 0.9205360413 0.3901464343
0.25072053 0.097826362 0.73900002 -0.7180532813 0.2775796354 0.6382390261
0.078823835 0.057262499 0.80200005 -0.1132429838 0.3679161668 0.922937572
0.19477516 0.16474544 0.71033335 -0.1997642815 -0.5775600076 0.7915292978
0.1893841 0.057015769 0.74750006 0.05291629583 0.727331996 0.6842426658
0.13322553 0.16269128 0.7110334 0.5911457539 -0.1519550532 0.7921214104
0.19477725 0.10521921 0.71441686 0.03980550542 0.06222198904 0.9972682595
0.13595621 0.018418122 0.82286668 -0.02062324807 0.4529460669 0.891299367
0.16493474 0.13466416 0.69149286 0.1098467633 -0.1004124582 0.9888635278
0.2227084 0.13375303 0.73000002 -0.5010233521 -0.008352796547 0.8653934598
0.23085965 0.06278336 0.74600005 -0.6289356947 0.6113035679 0.4803622067
0.076736756 0.093318909 0.78799993 0.6299270391 0.4096848071 0.6598107815
0.21746156 0.078790419 0.71900004 -0.2264001071 0.4545392096 0.8614737988
0.16402826 0.17332746 0.72169578 0.1029727012 -0.6928624511 0.7136793733
0.15378746 0.10558998 0.70171744 0.374346137 0.3350323439 0.8646492362
0.20157021 0.1333559 0.70100003 -0.6988392472 0.1499153674 0.6993919015
0.12972212 0.13220485 0.708 0.6750152111 -0.1788066626 0.7158090472
0.12323821 0.14732896 0.73338455 0.8172032237 -0.1288507879 0.5617618561
0.18734092 0.076004878 0.7270909 0.3909967542 0.4918865263 0.7779262066
0.22723258 0.10391948 0.72133332 -0.6187885404 -0.0664158389 0.7827449441
0.11249584 0.11834846 0.74175006 0.8798840642 0.1024352685 0.4640161693
0.16466545 0.15790835 0.70107704 0.1596177518 -0.621552825 0.7669382095
0.18239026 0.11762026 0.69613343 -0.4729780257 0.4434206784 0.7613605857
0.15554054 0.032844458 0.82491666 0.2099081129 0.78448838 0.5835379958
0.23994541 0.083947845 0.75400001 -0.7218210101 0.39020136 0.5715919733
0.20505872 0.063090235 0.73176467 0.05329493806 0.7209826112 0.6909006834
0.19965644 0.1312028 0.72300005 -0.5263926387 0.2706418335 0.80601722
0.18488975 0.14548604 0.69667208 -0.2759445608 -0.2894453704 0.9165565968
0.14735487 0.12500456 0.69730794 0.4427210987 0.06815736741 0.8940652013
0.091109045 0.071634181 0.79333335 0.248416096 0.6874791384 0.6823942065
0.14480704 0.14561549 0.7053501 0.5305129886 -0.3130420148 0.787756741
0.17987008 0.094701916 0.72500002 0.009536640719 0.2745706141 0.9615196586
0.11863415 0.12439904 0.72368193 0.8655448556 0.0355415903 0.499568671
0.16452429 0.017667703 0.81500012 0.2204315215 0.8427300453 0.4911374748
0.06917163 0.073365599 0.79700005 0.2594368458 0.6861481071 0.6796273589
0.1360904 0.11560566 0.7065928 0.5914532542 0.2486898005 0.7670309544
0.21695349 0.11759848 0.72033352 -0.2363327593 -0.1842108369 0.9540509582
0.122008 0.16403869 0.72362512 0.6014990807 -0.2022404373 0.7728503346
0.15332004 0.16432077 0.71230954 0.2399445772 -0.6145786047 0.751478374
0.20019647 0.14875281 0.70700002 -0.6991227865 -0.0669478029 0.7118604779
0.21123183 0.053759456 0.74400002 -0.07366842777 0.7650571465 0.6397346854
0.1961842 0.085187323 0.71684384 0.2167378664 0.3122569025 0.9249434471
0.23452412 0.097178504 0.73900002 -0.71122998 0.2361726761 0.6620984674
0.16411898 0.11526428 0.69427949 0.1359477043 0.2524711192 0.9580065608
0.21488276 0.095500007 0.71598327 -0.1356705427 0.1075962484 0.9848941565
0.22699787 0.072629258 0.7348125 -0.6591845155 0.4994317591 0.5621775985
0.14182588 0.10127879 0.71000004 0.5511831045 0.4383711815 0.709949255
0.1912536 0.1192968 0.72000003 -0.4772037566 0.4729056954 0.7407001853
0.17336309 0.16810684 0.71171439 -0.03302693367 -0.6942594647 0.7189666629
0.13110963 0.15247503 0.72110003 0.6101087928 -0.2270305306 0.7590944171
0.11920299 0.10707537 0.73580003 0.7925772071 0.3307495713 0.5122753978
0.24555257 0.11108331 0.74100006 -0.6896175146 0.01117827464 0.7240875363
0.1554324 0.1449513 0.69643086 0.3663183749 -0.3548570871 0.8601670265
0.17150669 0.031707279 0.82200003 0.1891471744 0.8624538779 0.4694642723
0.20509134 0.07451652 0.72337031 0.07452230901 0.5480436683 0.8331233859
0.13858698 0.031481098 0.82550001 -0.02062324807 0.4529460669 0.891299367
0.22659205 0.090763055 0.72399998 -0.6332679987 0.2292382121 0.7392032743
0.12543499 0.11503285 0.71561551 0.7466586232 0.3088534772 0.5891607404
0.091836333 0.055645593 0.80238903 -0.1132429838 0.3679161668 0.922937572
0.20504406 0.11525092 0.71616954 -0.0009647360421 -0.1153493971 0.9933245182
0.086570829 0.083108 0.79000002 0.6299270391 0.4096848071 0.6598107815
0.1465285 0.022402726 0.81844455 -0.02062324807 0.4529460669 0.891299367
0.18568113 0.15662491 0.70139998 -0.214626506 -0.4986335039 0.8398214579
0.12925902 0.14181069 0.71575004 0.7246403098 -0.2380773723 0.6466958523
0.14423086 0.15561627 0.71201724 0.5298683643 -0.2487602085 0.8107760549
0.19178103 0.12747505 0.69764286 -0.6162976623 0.2750635445 0.737914145
0.17325164 0.10844953 0.6973334 -0.2770605683 0.6213701367 0.7328960299
0.19785292 0.056991443 0.73874998 0.02542034909 0.7314114571 0.6814624667
0.17469886 0.15369202 0.69700003 -0.02846541442 -0.4717442989 0.881275773
0.18765123 0.066889524 0.73423076 0.2999132276 0.6316421628 0.7148987651
0.14195077 0.1354522 0.70070839 0.5229454637 -0.1973725408 0.8291996717
0.074145943 0.082461014 0.79044449 0.6299270391 0.4096848071 0.6598107815
0.21422191 0.06934195 0.72757149 -0.2496053576 0.6375793815 0.7288275957
0.18466628 0.10456611 0.72353709 -0.3480469286 0.1878691167 0.9184598923
0.19638824 0.068071812 0.7275455 0.1791754216 0.6337758303 0.752478838
0.13009119 0.09804903 0.73100001 0.7175362706 0.4239794016 0.5526148081
0.1752838 0.1248992 0.69409102 -0.07904350013 0.03246872872 0.9963422418
0.07700514 0.066687353 0.79611111 0.2185422331 0.6653161049 0.713858366
0.1350684 0.099482007 0.71757144 0.6390513778 0.4326139092 0.6359705329
0.22282209 0.12488642 0.72444451 -0.5295484066 -0.2281727493 0.8170163035
0.14675489 0.17196469 0.71100003 0.2754684389 -0.5884083509 0.7601925731
0.12477455 0.12503439 0.71425706 0.7593280673 0.03043991327 0.649995625
0.15575026 0.1550893 0.7048108 0.2741960287 -0.521366179 0.8080803752
0.15521571 0.13512112 0.69465762 0.3477261662 -0.1398482621 0.9271078706
0.18558121 0.13518929 0.69629401 -0.496306926 0.06088056788 0.8660098314
0.20513341 0.10534258 0.71496546 0.03023968823 -0.07707861811 0.9965663552
0.19504833 0.095305137 0.71536136 0.204633981 0.1064326912 0.9730349779
0.20509288 0.095119804 0.71454257 0.03985957056 0.1243727803 0.9914346337
0.18646954 0.085688792 0.72536844 0.3416618705 0.305501312 0.8887835145
0.17477833 0.13472538 0.69223487 -0.1061559096 -0.07277207077 0.9916830063
0.15546152 0.016775016 0.81862515 0.2311584055 0.812841475 0.5346536636
0.16489193 0.12487821 0.69150037 0.09218080342 0.05495330691 0.9942247272
0.21480824 0.10540952 0.71598363 -0.1134602278 -0.05648363009 0.9919356704
0.16475365 0.14480124 0.69370449 0.1367977709 -0.3187014759 0.9379316568
0.13554671 0.12501888 0.70495784 0.5957632661 0.04575515166 0.8018557429
0.23772809 0.088270433 0.74585724 -0.7352748513 0.3684396744 0.5688788295
0.14409102 0.11433762 0.70178789 0.4843124747 0.2735368311 0.8310348988
0.18463932 0.16469374 0.70599997 -0.139763698 -0.66734761 0.7315143943
0.17498949 0.14475298 0.69440734 -0.08620974422 -0.2728455663 0.9581874609
0.20535146 0.085089661 0.71670002 0.05884536728 0.3164345622 0.9467874169
0.1205592 0.132552 0.72000003 0.856695652 -0.1554820985 0.4918311536
0.17562068 0.16348451 0.70427793 -0.04657978937 -0.6760801673 0.7353542447
0.22166196 0.075021133 0.72606254 -0.2926492393 0.5691441298 0.7683953643
0.15436347 0.10207906 0.71000004 0.2625212073 0.6191515326 0.740090549
0.15559749 0.1154672 0.69677973 0.2891180515 0.2402789444 0.92664814
0.17323782 0.017928123 0.81366676 0.1886440814 0.8651095033 0.464756906
0.14278121 0.16472845 0.70800012 0.3729129732 -0.4697591364 0.8001639247
0.19480088 0.15516289 0.70485377 -0.3735309243 -0.3785960972 0.8468409777
0.087508857 0.04869445 0.80500007 -0.1132429838 0.3679161668 0.922937572
0.2149287 0.13415596 0.72662497 -0.4630250633 0.03459847346 0.8856696486
0.22103834 0.087951578 0.71833342 -0.3867248595 0.2619452178 0.8842107058
0.11698426 0.11539227 0.7353574 0.8671822548 0.1645381302 0.4700235724
0.15511897 0.12489539 0.6942727 0.3106421828 0.08528443426 0.946693182
0.22233219 0.065788195 0.73547828 -0.3774912655 0.6587458849 0.6508104205
0.12070684 0.1153846 0.72240001 0.8020603061 0.3105643094 0.5101461411
0.24417752 0.094181865 0.74246287 -0.7239810824 0.3182315826 0.6120294333
0.084994353 0.065101042 0.79496133 0.1551100314 0.6058794856 0.7802889943
0.12797524 0.1463716 0.72563642 0.7149984241 -0.1895527393 0.6729391217
0.20470953 0.12320726 0.71769208 -0.4076139033 0.1431096643 0.9018705487
0.16391969 0.028881306 0.82172734 0.2449269146 0.8273081183 0.5055413246
0.13807063 0.14179353 0.7076667 0.5781526566 -0.3080385029 0.7555473447
0.12724929 0.15852769 0.71739995 0.6014990807 -0.2022404373 0.7728503346
0.19876195 0.077949993 0.71900004 0.1648157686 0.4310452044 0.8871503472
0.21345276 0.057455856 0.73733342 -0.1147789285 0.7828523517 0.6115292311
0.16348295 0.10748237 0.69562513 0.06703817099 0.4036625922 0.912448585
0.19584082 0.14483006 0.70170283 -0.6844258308 -0.06129230931 0.7265015841
0.13866559 0.10832589 0.70788896 0.5536401868 0.3276789486 0.7655776143
0.13062207 0.12173019 0.71000004 0.6604648232 0.1290497482 0.7396839857
0.23772384 0.10354953 0.74208331 -0.6727067232 0.157063067 0.7230469584
0.14797662 0.14308581 0.69749999 0.475971818 -0.3184075058 0.8197972178
0.21474384 0.064100482 0.73323071 -0.1878506094 0.7092793584 0.6794372201
0.222579 0.095338382 0.71668559 -0.3657693565 0.1570478529 0.9173596501
0.075442575 0.074878477 0.79277974 0.3474834561 0.6725440025 0.6534062624
0.1355236 0.15547162 0.71557742 0.5922685266 -0.1948549598 0.7818244696
0.12138035 0.11156753 0.73000002 0.7925772071 0.3307495713 0.5122753978
0.22215991 0.11265312 0.71788889 -0.3739184439 -0.1780369878 0.9102130532
0.21495011 0.12474401 0.7215305 -0.2295604944 -0.1453152746 0.9623852968
0.18708053 0.11380135 0.72296876 -0.5502643585 0.3376418352 0.7636799812
0.16749398 0.16776714 0.71635711 0.05628919974 -0.683070004 0.7281805277
0.14138281 0.14803758 0.71149999 0.5534463525 -0.2917393446 0.7801187634
0.1912536 0.090892799 0.72000003 0.3132254481 0.2311486155 0.9211189747
0.18484107 0.12510541 0.69638443 -0.5448169708 0.3461091816 0.7637950778
0.1749355 0.025274986 0.81587523 0.1886440814 0.8651095033 0.464756906
0.082311109 0.077238716 0.78900003 0.3855396509 0.6476307511 0.6572165489
0.20092674 0.16337034 0.71400005 -0.6285455823 -0.5216705799 0.5768797398
0.15784054 0.15172607 0.69755554 0.2773779333 -0.3905338049 0.8778068423
0.1998011 0.15623076 0.71000004 -0.6832703948 -0.2869220078 0.6714292765
0.15906094 0.16133122 0.70600003 0.1840301305 -0.6189588308 0.7635593414
0.19440702 0.063611381 0.73276353 0.1922516823 0.6822456121 0.7053936124
0.18972732 0.098330438 0.71900004 0.3088957071 0.107663691 0.9449825287
0.19532101 0.11486188 0.7161935 -0.4737170935 0.3371778727 0.8135743141
0.19444299 0.07463254 0.72356057 0.2692593038 0.5033485889 0.8210600615
0.13559483 0.13433003 0.70466679 0.5970121622 -0.2004210353 0.7767933011
0.14559977 0.032085452 0.82474995 -0.02062324807 0.4529460669 0.891299367
0.19688149 0.12324286 0.71854836 -0.4800689518 0.445345521 0.7557785511
0.20635045 0.13309184 0.72388005 -0.4249845147 0.2411435544 0.872489512
0.15251322 0.15757254 0.71076483 0.3063010275 -0.5941020846 0.743789196
0.15134585 0.14848001 0.70083332 0.4136054218 -0.3388295472 0.845059216
0.20446806 0.058071367 0.73696303 -0.02176600136 0.7572478652 0.6527648568
0.12551893 0.1551917 0.7240783 0.6238815188 -0.1932354718 0.757252872
0.1846485 0.074051932 0.73311549 0.4350093603 0.5559972525 0.7082611918
0.12727773 0.1083249 0.71794444 0.7270341516 0.3642697036 0.5820042491
0.24429277 0.086558312 0.74675006 -0.7352748513 0.3684396744 0.5688788295
0.18876842 0.10566106 0.71817642 -0.2900808752 0.1505140215 0.9450918436
0.14777957 0.15149865 0.70700008 0.4922599494 -0.3321662247 0.8045780063
0.14526236 0.10529118 0.70581448 0.4682661295 0.3796003461 0.7978911996
0.13484496 0.14523135 0.71424484 0.643517375 -0.2486150116 0.7239309549
0.21490636 0.085305899 0.71760619 -0.1478094459 0.3337985277 0.9309838414
0.16521822 0.15289955 0.69664717 0.1923007667 -0.516841948 0.834203124
0.22245048 0.10529646 0.71686214 -0.348654598 -0.08157420903 0.9336946011
0.1920765 0.13431974 0.6976251 -0.6502625942 0.1718303561 0.7400222421
0.20466568 0.068016432 0.72727996 0.07765541971 0.6473016143 0.7582679391
0.17380275 0.17317729 0.71602911 -0.03212842345 -0.7268351912 0.6860600114
0.085200571 0.054956574 0.80247301 -0.1132429838 0.3679161668 0.922937572
0.165664 0.024185389 0.81734991 0.2204315215 0.8427300453 0.4911374748
0.17518878 0.11462744 0.69628757 -0.3260219097 0.5301074982 0.7827488184
0.14831629 0.11692694 0.69749999 0.4436959624 0.2234806269 0.8678653836
0.13168798 0.11374503 0.71104354 0.6477640867 0.2838610113 0.7069827914
0.12927298 0.098906994 0.72166675 0.6773726344 0.4172408581 0.6058682799
0.21477604 0.075027034 0.72455001 -0.2150633782 0.5506840944 0.8065325618
0.19140357 0.08348424 0.72083354 0.2799856365 0.3440274596 0.8962439299
0.15558596 0.023212243 0.81835502 0.2372910082 0.8092413545 0.5374211073
0.12589848 0.13384855 0.7128334 0.7055843472 -0.2089799643 0.677110076
0.13566329 0.024738831 0.8226999 -0.02062324807 0.4529460669 0.891299367
0.13105093 0.13759744 0.71100003 0.657415688 -0.288128376 0.6962661743
0.14501381 0.016856819 0.81587505 -0.02062324807 0.4529460669 0.891299367
0.18324493 0.15215877 0.69770586 -0.2548329234 -0.3633125722 0.8961384892
0.24741647 0.103074 0.73900014 -0.6992046237 0.141542539 0.7007700205
0.13453299 0.10489572 0.7146439 0.6099108458 0.4195303917 0.6723117232
0.19097638 0.14470428 0.69793749 -0.3201734424 -0.249894008 0.9138063192
0.15228434 0.11132534 0.7001819 0.3572224081 0.2914574444 0.8873808384
0.19084726 0.060901597 0.74300003 0.113166973 0.7098870873 0.6951644421
0.205309 0.053663727 0.74248272 -0.06185333803 0.759999454 0.6469737291
0.091002673 0.064044982 0.79511118 -0.1409722567 0.3469257355 0.9272375107
0.14389087 0.026483705 0.82178754 -0.02062324807 0.4529460669 0.891299367
0.18540823 0.095006146 0.7231527 0.3740002811 0.1730311215 0.9111443162
0.17573376 0.15844716 0.70008326 -0.04526614398 -0.5884349346 0.8072764874
0.14261104 0.12493164 0.70054561 0.4801911712 0.07699943334 0.8737777472
0.14678343 0.13491996 0.69769835 0.4798357487 -0.1424762458 0.8657125235
0.12256495 0.10455798 0.73200005 0.7869768739 0.3488672674 0.508880198
0.15444799 0.028108826 0.82210004 0.2099081129 0.78448838 0.5835379958
0.20492961 0.0805832 0.72000003 0.06396996975 0.4297334254 0.9006869793
0.19413874 0.056525718 0.74369693 0.05291629583 0.727331996 0.6842426658
0.22439754 0.0847122 0.72125715 -0.5917240381 0.3349002302 0.7332834005
0.17504565 0.031240771 0.81785721 0.1886440814 0.8651095033 0.464756906
