# .PCD v0.7 - Point Cloud Data file format
VERSION 0.7
FIELDS x y z normal_x normal_y normal_z
SIZE 4 4 4 4 4 4
TYPE F F F F F F
COUNT 1 1 1 1 1 1
WIDTH 206
HEIGHT 1
VIEWPOINT 0 0 0 1 0 0 0
POINTS 206
DATA ascii
-0.20287625 -0.13736331 1.0322001 -0.6985552907 0.3465207219 0.6260542274
-0.057688173 -0.076171808 1.0906668 0.5796331167 -0.02350916527 0.8145383596
-0.14528348 -0.007863082 0.99658829 -0.1843658388 -0.1623127759 0.9693625569
-0.1156242 -0.17523508 1.0954075 0.1255530566 -0.6311379075 0.7654419541
-0.2243448 -0.055367604 0.99396175 0.6194119453 0.2061084211 0.7575276494
-0.22085951 -0.079211213 1.0630001 -0.812666297 -0.5528312325 0.1842582971
-0.068529911 -0.13705982 1.1010001 0.4216557145 -0.1665653288 0.8913262486
-0.25134176 -0.10454305 1.0148749 0.1505191624 0.316623807 0.9365326166
-0.17431597 -0.054176476 0.98257905 -0.1472062021 -0.07427410036 0.9863131642
-0.20897615 -0.095182478 1.0115 -0.1855259538 0.406542629 0.8945966959
-0.19765107 -0.11354367 1.066 -0.9666587114 -0.2556918561 0.01387873292
-0.20469016 -0.029424548 0.972875 0.06224449724 -0.1153421849 0.9913737178
-0.13738532 -0.044803552 0.98828584 -0.3198333383 -0.0374940522 0.9467316866
-0.25028482 -0.061457839 1.016 0.4298528433 -0.07680267096 0.8996265531
-0.23073487 -0.13087785 1.011 0.02116921358 0.3608569801 0.9323808551
-0.17569639 -0.016376324 0.98769569 -0.04385679215 -0.2847281694 0.9576045275
-0.068529911 -0.1061731 1.1010001 0.5796331167 -0.02350916527 0.8145383596
-0.087515004 -0.16060446 1.097 -0.03026161157 -0.03080380149 0.9990672469
-0.25696677 -0.083035238 0.99700004 0.2455164939 0.09699389338 0.9645277858
-0.20319906 -0.062098809 0.9780001 0.3480154574 0.2315036505 0.9084554315
-0.19807415 -0.11523871 1.0190001 -0.3339596987 0.3258668184 0.8844669461
-0.2349786 -0.074806191 1.0038799 0.3393848836 -0.03262638673 0.9400815964
-0.12812133 -0.027203843 1.001 -0.2882620692 -0.116496779 0.9504385591
-0.15486687 -0.025218388 0.98444432 -0.1273931861 -0.2231201679 0.9664307237
-0.22743471 -0.10638633 1.0103334 0.01723800786 0.2832832634 0.9588813782
-0.18530066 -0.034644734 0.98399973 -0.1314892769 -0.2271034271 0.9649531841
-0.21499811 -0.078101359 1.001 0.3525238037 0.3865883648 0.8522185087
-0.10713376 -0.1556036 1.097 -0.03747917339 -0.3241782784 0.945253253
-0.12179793 -0.18033648 1.077 0.1255530566 -0.6311379075 0.7654419541
-0.13464826 -0.17580308 1.0918335 0.1255530566 -0.6311379075 0.7654419541
-0.1549447 -0.051071621 0.98740005 -0.2646999955 -0.0268017333 0.9639582634
-0.056378435 -0.098423369 1.09 0.5796331167 -0.02350916527 0.8145383596
-0.21501628 -0.12490951 1.0177003 -0.2498787194 0.3783176839 0.8913115859
-0.21091636 -0.10592734 1.0756668 -0.9627969861 -0.2689198256 0.02653563209
-0.20521344 -0.044581223 0.98255163 0.3140692413 0.03415826336 0.9487854242
-0.16890386 -0.036867339 0.97800004 -0.1532223374 -0.2087723911 0.9658866525
-0.16200143 -0.0078387149 0.99350005 -0.1005670205 -0.3099785149 0.9454097748
-0.058343038 -0.11477583 1.0910001 0.5904311538 -0.03560901061 0.8063020706
-0.24424227 -0.092105813 1.0070001 0.1409773082 0.2656655312 0.9537018538
-0.24089952 -0.12119419 1.0190001 0.1205997765 0.3328688145 0.9352294207
-0.083668195 -0.13367677 1.097 0.2152957171 -0.1193063408 0.9692335725
-0.18522225 -0.065597832 0.9827143 -0.0395636037 -0.06600474566 0.9970346689
-0.14088383 -0.02869856 0.99200004 -0.2997607589 -0.1362514645 0.9442346096
-0.094268836 -0.14703366 1.101 0.004945368506 0.0003158671898 0.9999877214
-0.19558784 -0.11631806 1.0514001 -0.994116962 -0.09715089202 0.0478872098
-0.25117326 -0.067156173 1.0022857 0.3701673746 -0.06606504321 0.9266129136
-0.18694012 -0.047710828 0.97766674 -0.05878723413 -0.09746115655 0.9935016036
-0.20847133 -0.099742748 1.0250001 -0.1522251517 0.3670209944 0.9176726341
-0.12292883 -0.16676392 1.087 0.1255530566 -0.6311379075 0.7654419541
-0.072402522 -0.12474667 1.097 0.4960252643 -0.1192517504 0.8600801826
-0.076895066 -0.14703365 1.101 0.06631039083 -0.02648394182 0.9974474907
-0.22529995 -0.085462898 1.0034443 0.1247573495 0.3004381359 0.9456069469
-0.14566784 -0.017145881 0.98787993 -0.2004663944 -0.182481125 0.9625558853
-0.21424511 -0.13608831 1.0235 -0.1995314658 0.3839010894 0.9015581608
-0.21303409 -0.054331031 0.98381257 0.4876835048 0.1942914575 0.8511260748
-0.23799066 -0.059273843 1.0167501 0.4201321006 -0.01636654139 0.9073153734
-0.21628681 -0.11035042 1.0070001 -0.1248484477 0.3403898478 0.931959033
-0.22650367 -0.066400774 1.001 0.5127860904 0.2025669068 0.8342763782
-0.21981978 -0.090734124 1.067 -0.4976598024 -0.8389971256 0.2200421244
-0.194094 -0.026358444 0.98400009 -0.08742764592 -0.2548092306 0.9630309939
-0.064437702 -0.085808069 1.0915834 0.5796331167 -0.02350916527 0.8145383596
-0.20914783 -0.088046849 1.001 -0.1411060989 0.3551194966 0.9241099358
-0.10617311 -0.17337584 1.101 0.1255530566 -0.6311379075 0.7654419541
-0.2056213 -0.12901728 1.0220002 -0.2855288088 0.3177120388 0.9041749835
-0.21707922 -0.064962357 0.99533343 0.5404341817 0.3247544765 0.7761864662
-0.11697586 -0.16432573 1.0961819 0.1255530566 -0.6311379075 0.7654419541
-0.20582239 -0.10649347 1.0167202 -0.224650681 0.3171674311 0.9213777184
-0.19489932 -0.054708317 0.97508347 -0.01725764759 -0.01275019627 0.9997697473
-0.12997022 -0.040997315 0.99500006 -0.2956521213 -0.06727977097 0.9529235363
-0.1948407 -0.042982437 0.98321742 -0.04089538381 -0.08749747276 0.9953249693
-0.24520077 -0.074969493 1.0060999 0.2961455584 -0.0719274357 0.9524307251
-0.16490272 -0.025030527 0.98696554 -0.107480526 -0.2500342131 0.9622529745
-0.096521005 -0.16372374 1.101 -0.06536713243 -0.1857927442 0.9804122448
-0.21170361 -0.14264624 1.0319999 -0.378025502 0.3252813816 0.866769135
-0.23526664 -0.084796481 1.0058386 0.1517852396 0.1966586262 0.9686519504
-0.072129019 -0.11533817 1.1035557 0.5823168159 -0.07202387601 0.8097651601
-0.16535452 -0.044734765 0.98327589 -0.1726484597 -0.123284243 0.9772377014
-0.22487158 -0.095239572 1.0058999 0.1146489084 0.3502910137 0.9295976758
-0.21285248 -0.038270444 0.98100007 0.3430022001 -0.0009466641932 0.9393341541
-0.25424737 -0.091517277 1.0070001 0.1228861362 0.1783481985 0.9762637615
-0.19823687 -0.10657436 1.0731429 -0.9666587114 -0.2556918561 0.01387873292
-0.23700099 -0.09798795 1.0100001 0.1309283525 0.3432899415 0.9300590158
-0.22473049 -0.12485303 1.0172502 -0.05465852842 0.3122318685 0.9484322071
-0.15530059 -0.034773517 0.98579407 -0.1824542433 -0.1526082009 0.9712986946
-0.055985034 -0.085049599 1.087 0.5796331167 -0.02350916527 0.8145383596
-0.15521486 -0.015896345 0.98792851 -0.1296060383 -0.2656878531 0.9553074241
-0.17489755 -0.044586863 0.98346424 -0.1158807129 -0.161895901 0.9799802899
-0.18451345 -0.025142526 0.98431015 -0.1210413128 -0.2341108024 0.9646456242
-0.1378345 -0.012476428 0.99300003 -0.267714262 -0.1771160215 0.9470791817
-0.19554183 -0.12364156 1.0220002 -0.6059151888 0.2732451558 0.747130394
-0.2231029 -0.074805088 0.99800003 0.4033135474 0.3053997159 0.8625944853
-0.17790635 -0.061302669 0.97800004 -0.08809329569 -0.0678666383 0.9937976003
-0.063321665 -0.10483519 1.0936087 0.5796331167 -0.02350916527 0.8145383596
-0.16749522 -0.014958037 0.99199998 -0.0940785408 -0.3276402056 0.940106988
-0.22473681 -0.11459174 1.0132401 -0.08285855502 0.217327714 0.9725754857
-0.064644761 -0.095003732 1.0916364 0.5796331167 -0.02350916527 0.8145383596
-0.11895271 -0.17890355 1.0855 0.1255530566 -0.6311379075 0.7654419541
-0.21569026 -0.094724514 1.0055482 -0.1147355065 0.4296830297 0.895660758
-0.082469434 -0.15321083 1.0964 0.01235623099 0.0224314779 0.9996719956
-0.17471778 -0.024939597 0.98579299 -0.06551068276 -0.2468571514 0.9668349624
-0.14631142 -0.03460104 0.98833346 -0.3126929402 -0.07208347321 0.9471151233
-0.20483945 -0.11212992 1.0706923 -0.9666587114 -0.2556918561 0.01387873292
-0.23480652 -0.11517254 1.0184003 0.08435674012 0.2925152481 0.9525328279
-0.23537691 -0.10529147 1.0141616 0.09960901737 0.2830388248 0.9539219141
-0.23438838 -0.06630256 1.0045713 0.3995482326 0.02651415765 0.9163286686
-0.21127577 -0.06220739 0.98100013 0.4730169475 0.2432202995 0.8468168974
-0.20340224 -0.036291588 0.98175001 0.1453808248 -0.09995311499 0.9843138456
-0.085283197 -0.14595355 1.101 0.05975184962 -0.02397701889 0.9979252815
-0.21254306 -0.10455953 1.0120002 -0.1216648594 0.372217983 0.9201366305
-0.19292891 -0.068514131 0.98100013 0.1623146087 0.3698099852 0.9148194194
-0.10520789 -0.16505089 1.101 0.1255530566 -0.6311379075 0.7654419541
-0.095555782 -0.15539883 1.101 -0.1145319864 0.0195315145 0.9932275414
-0.19470292 -0.034708574 0.98399979 -0.02012782916 -0.1588181704 0.9871026874
-0.17598352 -0.033986319 0.98100036 -0.09907800704 -0.2308024019 0.9679430723
-0.14557007 -0.045055743 0.98838878 -0.3193790615 0.03837025911 0.9468498826
-0.1332491 -0.026119195 0.99471426 -0.2882620692 -0.116496779 0.9504385591
-0.25331819 -0.075478926 1.0055001 0.3403251469 -0.01912623271 0.940113306
-0.07058832 -0.098632015 1.103 0.5796331167 -0.02350916527 0.8145383596
-0.23349348 -0.12387918 1.0173502 0.06222867593 0.3471578658 0.9357398152
-0.20124233 -0.028380331 0.98100007 0.007566797547 -0.1857536882 0.9825671911
-0.13474548 -0.034639739 0.99406278 -0.2955415249 -0.1051302627 0.9495276809
-0.21414371 -0.045249477 0.98462492 0.4583705664 0.07758523524 0.885368228
-0.16644317 -0.052532934 0.98437512 -0.1870790869 -0.05025898665 0.9810583591
-0.11292958 -0.15925965 1.1010001 0.1255530566 -0.6311379075 0.7654419541
-0.25028482 -0.11222736 1.016 0.1523501426 0.340233773 0.9279172421
-0.12473132 -0.17342348 1.0905335 0.1255530566 -0.6311379075 0.7654419541
-0.14551869 -0.024974721 0.98703444 -0.2883687913 -0.1464251131 0.9462574124
-0.080755897 -0.12772946 1.1010001 0.4216557145 -0.1665653288 0.8913262486
-0.24501456 -0.084610909 1.0053333 0.2282020748 0.1356859058 0.9641126394
-0.076130942 -0.13597396 1.101 0.3084590435 -0.1360948682 0.9414516687
-0.18471949 -0.054730877 0.97550011 0.003692305414 -0.08782870322 0.9961287379
-0.23010221 -0.060369018 0.99800003 0.5449187756 0.1603590399 0.8230118752
-0.1647107 -0.034186516 0.98370963 -0.1498987079 -0.1612028033 0.9754711986
-0.21469499 -0.11480498 1.0128931 -0.2153846025 0.2029732317 0.9552022815
-0.18277206 -0.018003885 0.98575014 -0.1041530296 -0.2711012065 0.9568992853
-0.15465376 -0.0076226164 0.99387485 -0.1382213533 -0.21504803 0.9667725563
-0.20387243 -0.055066001 0.97596025 0.2694680393 0.1715925336 0.9475985169
-0.13701294 -0.023402618 0.9886924 -0.2968194485 -0.1425857246 0.9442285299
-0.25409108 -0.084633812 1.0044444 0.2273414433 0.04065772146 0.9729660153
-0.19486172 -0.047857892 0.97775 -0.02717941441 -0.02831676789 0.9992294312
-0.25242329 -0.095783234 1.0126667 0.1290037334 0.2322289199 0.9640683532
-0.065126404 -0.1248956 1.0962858 0.5352081656 -0.1199605912 0.8361588717
-0.20530041 -0.11514927 1.0182004 -0.3481663465 0.2897724509 0.8915223479
-0.22488411 -0.13319997 1.0146251 -0.0898726657 0.4283476472 0.899133563
-0.11331566 -0.17122826 1.1010001 0.1255530566 -0.6311379075 0.7654419541
-0.24401683 -0.11459997 1.0184003 0.14207986 0.3132906258 0.9389687181
-0.127598 -0.034443408 0.99616677 -0.3002592921 -0.1114598587 0.9473230839
-0.060035009 -0.092434853 1.087 0.5796331167 -0.02350916527 0.8145383596
-0.18396348 -0.043709073 0.98250026 -0.08708273619 -0.1350271255 0.9870077372
-0.2059138 -0.13482386 1.0264999 -0.4621421397 0.3289093971 0.8235552311
-0.22135307 -0.081366941 0.99800003 0.1370837986 0.2900493145 0.9471427798
-0.08737988 -0.15528524 1.101 0.004945368506 0.0003158671898 0.9999877214
-0.2217616 -0.04957024 0.99200004 0.6231912374 0.1545515507 0.766646266
-0.21761522 -0.084676102 1.0647142 -0.7914199829 -0.5953480005 0.138618663
-0.071166046 -0.11828951 1.097 0.5823168159 -0.07202387601 0.8097651601
-0.06388405 -0.11568803 1.094375 0.5729923248 -0.04861637577 0.8181174994
-0.24495839 -0.064418897 1.0136253 0.4018142819 -0.09801793844 0.9104601741
-0.21656708 -0.13208422 1.0190001 -0.1746982187 0.4288670719 0.8863145709
-0.19862461 -0.10955528 1.016 -0.2984812558 0.3096321225 0.9027939439
-0.070812315 -0.10864224 1.1065 0.5884793997 -0.04000525177 0.8075218797
-0.075782225 -0.14213976 1.097 0.2152957171 -0.1193063408 0.9692335725
-0.2113037 -0.034793291 0.97583336 0.2369932532 -0.1032462716 0.9660095572
-0.20405644 -0.04887066 0.97800004 0.1814394742 0.01721701212 0.9832513928
-0.19521168 -0.064055882 0.97711134 0.2084522694 0.04876181856 0.976816237
-0.15557319 -0.04494467 0.98591644 -0.2483544946 -0.0198351685 0.9684661031
-0.1713217 -0.020002026 0.99200004 -0.03049721755 -0.2930780053 0.9556019902
-0.21475114 -0.085649714 1.0026957 -0.04974300787 0.3684359193 0.9283213615
-0.24497987 -0.058830071 1.0181818 0.4193952084 -0.09019615501 0.9033118486
-0.14127915 -0.035339549 0.99199998 -0.2926142812 -0.09208405763 0.9517864585
-0.067639798 -0.13239449 1.097 0.4535937607 -0.1689201444 0.875053525
-0.24516238 -0.10475162 1.0149095 0.1515854597 0.331246376 0.9312881827
-0.15779825 -0.0095372563 0.98900002 -0.1150379851 -0.2220129371 0.9682337046
-0.18615781 -0.062768072 0.97743756 0.003692305414 -0.08782870322 0.9961287379
-0.24605472 -0.096574783 1.010643 0.1257368475 0.3222449124 0.9382688403
-0.21833014 -0.055935364 0.99380004 0.5754596591 0.1806746572 0.7976232171
-0.24719557 -0.06782528 1.0067693 0.3701673746 -0.06606504321 0.9266129136
-0.20552577 -0.12400574 1.0186789 -0.3338809311 0.313996315 0.8887799382
-0.22333908 -0.062541179 0.9977501 0.5370207429 0.2504511178 0.8055326939
-0.13150525 -0.17724621 1.087 0.1255530566 -0.6311379075 0.7654419541
-0.13671808 -0.017491098 0.98888254 -0.2926529646 -0.1701975167 0.9409500957
-0.20512061 -0.10562713 1.07468 -0.9627969861 -0.2689198256 0.02653563209
-0.056998845 -0.10421667 1.0906155 0.6246016026 -0.04200334474 0.7798131704
-0.14446962 -0.012183693 0.99274993 -0.189454183 -0.1480783671 0.9706594944
-0.23429604 -0.093894981 1.0070001 0.142089203 0.3522906005 0.925041616
-0.20993099 -0.13131852 1.0190001 -0.2791130245 0.3215433061 0.9048236609
-0.20596527 -0.14184433 1.0338751 -0.6022539139 0.4059681594 0.68737185
-0.12439936 -0.17764165 1.0845833 0.1255530566 -0.6311379075 0.7654419541
-0.23888692 -0.063402459 1.0129999 0.3771061003 -0.06749045849 0.9237077832
-0.22360148 -0.10404468 1.0070001 -0.0490783453 0.4091081023 0.9111651182
-0.072608605 -0.13463846 1.097 0.4216557145 -0.1665653288 0.8913262486
-0.11657913 -0.1806021 1.09 0.1255530566 -0.6311379075 0.7654419541
-0.20863843 -0.053492624 0.98100007 0.4010592997 0.1822259277 0.8977444768
-0.20235892 -0.11567821 1.067 -0.9666587114 -0.2556918561 0.01387873292
-0.21763697 -0.10536515 1.0070001 -0.1263852417 0.4179682136 0.8996273279
-0.21666668 -0.075214379 0.99708688 0.415584594 0.4038024843 0.8150048852
-0.1344986 -0.041674204 0.99266666 -0.2956521213 -0.06727977097 0.9529235363
-0.10395879 -0.15573947 1.101 -0.1494612545 -0.05959996209 0.9869697094
-0.16381724 -0.015867261 0.9886924 -0.09586349875 -0.3414323032 0.93500489
-0.068529911 -0.11292956 1.1010001 0.5877113342 -0.03840869665 0.8081585169
-0.075360619 -0.12540305 1.101 0.4352927506 -0.1294602752 0.8909322619
-0.055232517 -0.093324997 1.0862499 0.5796331167 -0.02350916527 0.8145383596
-0.11383042 -0.16633783 1.101 0.1255530566 -0.6311379075 0.7654419541
-0.16300039 -0.0095372563 0.98900002 -0.09586349875 -0.3414323032 0.93500489
-0.19777074 -0.11099862 1.0712 -0.9666587114 -0.2556918561 0.01387873292
-0.15218933 -0.011305493 0.99200004 -0.14695701 -0.1933184713 0.9700678587
-0.20579103 -0.0336207 0.97494453 0.1453808248 -0.09995311499 0.9843138456
