# .PCD v0.7 - Point Cloud Data file format
VERSION 0.7
FIELDS x y z normal_x normal_y normal_z
SIZE 4 4 4 4 4 4
TYPE F F F F F F
COUNT 1 1 1 1 1 1
WIDTH 206
HEIGHT 1
VIEWPOINT 0 0 0 1 0 0 0
POINTS 206
DATA ascii
-0.10266205 -0.10454338 1.0743333 0.3515805304 -0.02238230221 0.9358900189
-0.0094443299 -0.24030572 1.197 0.2334927619 -0.6738437414 0.7010105252
-0.13319898 -0.1940072 1.1010001 0.0800723657 0.3408510983 0.9367011189
-0.016915577 -0.11287708 1.0922222 -0.4833953381 -0.07983805239 0.8717538714
-0.073260404 -0.26105466 1.177 0.1731988639 -0.6589944959 0.7319346666
0.015059143 -0.17661907 1.1882728 0.1211817935 0.1004071161 0.987539053
-0.16100335 -0.13464372 1.074 -0.01530756615 0.2563108206 0.9664732218
-0.056608774 -0.086802937 1.07625 -0.4156749845 -0.3086089194 0.8555552959
-0.11836459 -0.15475805 1.0769999 0.0575224869 0.3044745624 0.950782001
-0.064864568 -0.12787585 1.057 -0.270600915 0.07010129839 0.9601358771
-0.035082448 -0.2558955 1.177 0.1830760837 -0.706114471 0.6840215921
-0.15554661 -0.1676015 1.0912001 0.02446021512 0.2269435674 0.9736006856
-0.0045662648 -0.20513065 1.2019999 0.05537874624 0.05177238584 0.9971222878
-0.13677579 -0.10800665 1.076 -0.1303870827 -0.03623775393 0.9908006787
-0.042944144 -0.12260459 1.0817144 -0.53018713 0.02167034149 0.8476036787
-0.032298155 -0.086574338 1.09 -0.4736209214 -0.2556684911 0.8428029418
-0.083042838 -0.088641226 1.0643334 0.0257775262 -0.2231252939 0.9744488597
-0.13451485 -0.13451482 1.0730001 -0.08611269295 0.1900541782 0.9779897928
-0.10754917 -0.13137931 1.0730001 0.1817078441 -0.001588524668 0.9833512902
-0.1147608 -0.18214703 1.087 -0.0672506988 0.4134032428 0.9080611467
-0.084493905 -0.11477526 1.0609599 0.2157112062 0.01671716757 0.9763140678
-0.14372423 -0.19068551 1.08 0.08212850243 0.3169510067 0.944879353
-0.037521333 -0.098493502 1.0700001 -0.4728501737 -0.2135778815 0.8548667431
-0.0313759 -0.23636509 1.193 -0.003720024368 -0.6967771053 0.7172780633
-0.054675076 -0.24744879 1.18225 0.1731988639 -0.6589944959 0.7319346666
0.016440129 -0.20182882 1.197 0.1211817935 0.1004071161 0.987539053
-0.065227099 -0.10533559 1.0639333 -0.2759898901 -0.2197006792 0.9357142448
-0.14559101 -0.15257786 1.0769999 0.1140235737 0.3522719145 0.9289258122
-0.15153533 -0.11786082 1.067 -0.06565053761 0.08674285561 0.9940652251
-0.018509939 -0.24577087 1.1730001 0.1549653262 -0.7673456669 0.6222269535
0.001888866 -0.22309606 1.197 0.02883367054 -0.1646800339 0.9859254956
-0.13592634 -0.17384006 1.08655 0.0746023953 0.2533065677 0.9645051956
-0.04883121 -0.12160798 1.0643334 -0.4686172307 -0.04032815993 0.8824803233
-0.083484963 -0.13038664 1.0700001 0.2702896297 0.02283320948 0.9625082612
-0.023182575 -0.22444946 1.202 -0.2421360165 -0.1562231779 0.957582593
-0.108882 -0.1685304 1.08 0.07277917862 0.3025225401 0.9503595829
-0.033819169 -0.10593594 1.0840586 -0.5036324859 -0.101332821 0.8579545617
-0.017404638 -0.093138821 1.0908 -0.5012696981 -0.1428668648 0.8534153104
-0.056063127 -0.26243046 1.177 0.1637767851 -0.6502674818 0.7418419123
-0.1114068 -0.1164564 1.08 0.1643727422 -0.009001204744 0.9863572121
-0.16145307 -0.15012303 1.077 0.08683732897 0.3335267901 0.9387327433
-0.024844734 -0.1261348 1.09 -0.5412020087 0.003713402664 0.8408843875
-0.040378388 -0.23916431 1.1810001 0.1791850328 -0.6951295137 0.6961951256
-0.068284445 -0.087927908 1.067 -0.2614425421 -0.3268668354 0.9081882238
-0.043609347 -0.092203856 1.0815001 -0.4912459552 -0.2416714877 0.8368227482
-0.095939904 -0.12326682 1.0720769 0.3816092014 -0.02071652189 0.9240915775
0.0075067505 -0.18642171 1.1946667 0.1211817935 0.1004071161 0.987539053
-0.12486848 -0.12487164 1.0709598 -0.1540513337 -0.09824849665 0.983166039
-0.014677735 -0.21585201 1.1958891 -0.03080448881 -0.1516297609 0.9879572392
-0.12598225 -0.16485496 1.0814999 0.1112942174 0.3422068357 0.9330102205
-0.017412135 -0.24355049 1.186 0.02710939571 -0.7503451109 0.6604901552
-0.092112467 -0.098173298 1.0640001 0.3397927582 -0.1995635778 0.9190839529
0.0094837798 -0.21180442 1.202 0.1653062552 0.03291913122 0.9856927395
-0.14541957 -0.16442949 1.0841597 0.08377015591 0.3463711739 0.9343498349
-0.12497848 -0.14469996 1.0730001 -0.03515179455 0.1415644437 0.9893047214
-0.054430921 -0.10511015 1.0704999 -0.3978638649 -0.2229656428 0.8899385929
-0.12626162 -0.18579012 1.0905335 -0.01911805943 0.4098264575 0.9119631648
-0.0087812776 -0.22725947 1.202 -0.05600615591 -0.1992454529 0.9783478975
0.0021075066 -0.19494437 1.202 0.1211817935 0.1004071161 0.987539053
-0.064665563 -0.25377986 1.1815714 0.1731988639 -0.6589944959 0.7319346666
-0.075357296 -0.12559551 1.0612 0.05445327982 -0.004260122776 0.9985072613
-0.045011643 -0.25453153 1.1826667 0.1731988639 -0.6589944959 0.7319346666
-0.14464249 -0.12519009 1.0725862 -0.05269308016 0.06872241944 0.9962432981
-0.15136993 -0.18302989 1.0836667 -0.01219650079 0.2871373594 0.9578117728
-0.13569455 -0.15581737 1.0815555 0.1112675965 0.3638752699 0.9247779846
-0.027670231 -0.25313136 1.169 0.2164581716 -0.7358244658 0.6416449547
-0.045427319 -0.11424062 1.0751666 -0.5256046057 -0.08908442408 0.8460518718
-0.025494061 -0.11573663 1.0867599 -0.5148265958 -0.04888186604 0.855899632
-0.13612992 -0.18442777 1.0835768 0.07434035093 0.3624564409 0.9290311337
-0.12486473 -0.17458774 1.084857 0.05852085724 0.345529139 0.9365814924
-0.065650806 -0.11563127 1.0629696 -0.2016761154 -0.07914669812 0.976249218
0.021845305 -0.18412051 1.1866 0.1211817935 0.1004071161 0.987539053
-0.033922225 -0.24515255 1.1858886 0.1953017116 -0.7083770633 0.6782765985
-0.092337675 -0.1131838 1.067 0.406544745 0.02453540452 0.9133013487
-0.075147435 -0.10447954 1.0650643 -0.0957769379 -0.1370031238 0.9859294891
-0.11507253 -0.12545002 1.0759332 0.1031424478 -0.0600688681 0.9928511381
-0.15515763 -0.15593816 1.0818822 0.08979274333 0.3249701858 0.9414519072
-0.12574437 -0.11520747 1.0726399 -0.1021893546 -0.07135900855 0.9922022223
-0.025361747 -0.096807986 1.086625 -0.4804849029 -0.1548381895 0.8632261753
-0.11990959 -0.17089477 1.077 0.0886266157 0.3015658855 0.9493172765
-0.075026713 -0.09464585 1.0653998 -0.1683539748 -0.1826625019 0.9686543941
-0.084759362 -0.10525197 1.0624799 0.1880714893 -0.09624631703 0.9774281383
-0.15401608 -0.12635536 1.0707999 -0.03425107151 0.1337069422 0.990428865
-0.0349494 -0.094641298 1.0854999 -0.4465715289 -0.2149204016 0.8685522676
0.0048271017 -0.20504689 1.197 0.1211817935 0.1004071161 0.987539053
-0.091207519 -0.12440689 1.0638001 0.3788795471 0.04639867321 0.9242821336
-0.045134049 -0.10438017 1.0726333 -0.5212385058 -0.1932778656 0.8312364817
-0.0052468493 -0.21512085 1.1970004 0.04599187896 -0.1138255894 0.9924356341
-0.13459283 -0.14400733 1.07364 0.01053345483 0.243693307 0.9697951674
-0.054537326 -0.11447509 1.071963 -0.471513927 -0.1144427434 0.8744012117
-0.12508026 -0.1344856 1.07276 -0.1235117093 0.07167828828 0.9897510409
-0.13448559 -0.12508045 1.07276 -0.189676255 -0.04707136005 0.9807177186
-0.057326861 -0.096881054 1.067 -0.3588793874 -0.2702508271 0.8934036493
-0.14486215 -0.13451484 1.0730001 0.01057650987 0.221522525 0.9750978947
-0.033682518 -0.12216887 1.082375 -0.540278852 0.06233249232 0.8391742706
-0.14283855 -0.11610315 1.0730526 -0.1219678074 0.02212738991 0.9922873974
-0.14506884 -0.17498545 1.086129 0.05504346639 0.31382218 0.9478849173
-0.075313568 -0.11529183 1.0605999 -0.02339112759 -0.03893838078 0.9989677668
-0.13513279 -0.16456622 1.0842067 0.1370505393 0.311839968 0.9401983619
-0.10341792 -0.11562911 1.0756667 0.3363184631 0.005077273585 0.941734612
0.021987677 -0.19509776 1.1943334 0.1211817935 0.1004071161 0.987539053
-0.017470507 -0.10132893 1.087 -0.4904621243 -0.1241479144 0.8625741601
-0.14446768 -0.14464973 1.0730002 0.05431966111 0.310744822 0.9489399791
-0.042305302 -0.26105466 1.177 0.1637767851 -0.6502674818 0.7418419123
-0.1619028 -0.1410732 1.08 0.05277932808 0.344968915 0.9371290207
-0.11667353 -0.14431714 1.0759563 -0.05052275956 0.1199394763 0.9914948344
-0.016340714 -0.23539717 1.1950002 -0.1073045135 -0.4263085425 0.8981907964
-0.1290804 -0.1082508 1.08 -0.1330466717 -0.1133655608 0.9846048951
-0.016310858 -0.22529469 1.1968185 -0.1258199513 -0.1934977919 0.9729994535
-0.115174 -0.13467687 1.0753447 0.05459963903 0.04689253494 0.9974066019
-0.051268518 -0.086393207 1.0829999 -0.4543436468 -0.3366580307 0.8247625232
-0.064529471 -0.26280084 1.177 0.1731988639 -0.6589944959 0.7319346666
-0.10938609 -0.17597067 1.085 0.1093880236 0.3693249524 0.9228398204
-0.037748825 -0.1038118 1.0765001 -0.5397968292 -0.1224156171 0.8328468204
-0.025100719 -0.24159443 1.1930001 0.05896585807 -0.7622485757 0.64459306
-0.1552806 -0.14416921 1.0764073 0.07999539375 0.3482493162 0.9339824319
-0.012118163 -0.20811629 1.202 -0.003284810809 0.009668974206 0.9999478459
0.0038476901 -0.21477109 1.1970003 0.06595172733 -0.001152975834 0.9978221655
-0.045188494 -0.096325956 1.0727618 -0.48338902 -0.223579973 0.8463729024
-0.025241736 -0.24483609 1.1855716 0.07087439299 -0.7480387092 0.6598597765
-0.054873195 -0.25572979 1.1809999 0.1731988639 -0.6589944959 0.7319346666
-0.038002841 -0.11589687 1.077 -0.5334087014 -0.02402833104 0.845516324
-0.044729944 -0.12195595 1.0742501 -0.546218574 0.01658194885 0.8374785781
-0.12869334 -0.19111729 1.0955 0.02800874598 0.4156434536 0.909096241
-0.15409616 -0.16257641 1.0856364 0.04949196428 0.2710075378 0.961304009
-0.01250828 -0.23869967 1.189 0.05508628115 -0.7097085714 0.7023383975
-0.073509373 -0.25469446 1.1810001 0.1731988639 -0.6589944959 0.7319346666
-0.025703669 -0.10426708 1.0859998 -0.5047078133 -0.1050520241 0.8568746448
-0.13461921 -0.11484741 1.0738333 -0.1714387089 -0.07760392874 0.9821335673
-0.11555943 -0.16559033 1.08 0.1307754517 0.3496408761 0.9277117252
-0.044563595 -0.24500136 1.1822001 0.1707982123 -0.6937796474 0.6996411681
-0.025158202 -0.24818872 1.1747143 0.1812936813 -0.7284151912 0.6607146859
-0.064471297 -0.096795917 1.0658 -0.3190805018 -0.2291746438 0.9196013212
-0.054401826 -0.09400446 1.0728947 -0.417413801 -0.2515000403 0.8732201457
-0.034122776 -0.11476854 1.0828947 -0.5283695459 -0.01315373555 0.8489125967
-0.084457539 -0.095233023 1.0620354 0.1293670386 -0.1548891813 0.9794250727
0.01306654 -0.20569265 1.2019999 0.1211817935 0.1004071161 0.987539053
0.0070227063 -0.19526353 1.1970003 0.1211817935 0.1004071161 0.987539053
-0.1290804 -0.1574844 1.08 0.1097143441 0.3491567671 0.9306192994
-0.13663025 -0.19082788 1.0807999 0.07461086661 0.3780353069 0.9227797985
-0.060972165 -0.112564 1.0700001 -0.4032740593 -0.1679672599 0.8995315433
-0.10476301 -0.12506388 1.0740434 0.2574941814 -0.06124771386 0.9643368125
-0.15408854 -0.1510672 1.0769999 0.1184586287 0.3670749068 0.9226177931
-0.035965838 -0.25312203 1.1833334 0.189947933 -0.7196012139 0.6679025888
-0.057527304 -0.11832852 1.067 -0.3614699543 -0.04970774427 0.9310578108
-0.13474655 -0.15066256 1.077 0.08209026605 0.2667266428 0.9602698088
-0.092601873 -0.10507781 1.06425 0.3638795316 -0.03039361537 0.930949986
-0.018105797 -0.11721121 1.087 -0.5148265958 -0.04888186604 0.855899632
-0.021022467 -0.10726236 1.09 -0.4648901224 -0.08829870075 0.8809543252
-0.1290015 -0.17295757 1.09 0.06110024825 0.3453165293 0.9364951849
-0.14488199 -0.18423277 1.0822592 0.05681755766 0.2903039157 0.9552462697
-0.094741367 -0.09661743 1.0700001 0.3723891079 -0.1651341766 0.9132672548
-0.15151693 -0.17534035 1.087 -0.02064742893 0.2909981608 0.9565007687
-0.0044306731 -0.22456516 1.1970003 -0.04548017308 -0.1705741286 0.9842947125
-0.13497733 -0.1066849 1.0821818 -0.1308536232 -0.07071892917 0.9888762236
-0.15537418 -0.17399682 1.0921818 -0.03154098243 0.2891285121 0.9567705393
-0.016395127 -0.24172826 1.1936666 0.03549395502 -0.6739501357 0.7379236817
-0.11648257 -0.11918121 1.0752858 0.07913115621 -0.08613080531 0.9931363463
-0.063650317 -0.08706177 1.0713845 -0.3214343488 -0.2988605797 0.8985334039
-0.023650421 -0.22684304 1.1961112 -0.1370933205 -0.39213866 0.9096332788
-0.11880878 -0.18601699 1.09 -0.09260322899 0.4212990701 0.902181685
-0.12179793 -0.1633414 1.077 0.1108882278 0.3489533961 0.9305564761
-0.0057715345 -0.20882463 1.197 0.09294561297 -0.04924099147 0.9944528341
-0.12492639 -0.15484235 1.0760475 0.09090637416 0.3241526186 0.9416268468
-0.024548184 -0.092397057 1.0910667 -0.472227037 -0.1976923347 0.8590223193
-0.050180398 -0.091839597 1.08 -0.4540009201 -0.2878591418 0.8432201743
0.015709516 -0.19482562 1.1948003 0.1211817935 0.1004071161 0.987539053
-0.011591286 -0.23287947 1.202 -0.03574248776 -0.3567002714 0.9335348606
-0.034788765 -0.23853767 1.1882 0.1477850974 -0.72895509 0.6684190631
-0.025100719 -0.23531926 1.1930002 -0.02191168815 -0.660069108 0.7508852482
-0.044778962 -0.086238444 1.0829999 -0.4265859425 -0.4062571526 0.8080714941
-0.085039444 -0.12421563 1.0639998 0.2518213689 0.07343005389 0.9649839401
-0.022546113 -0.24800724 1.169 0.1812936813 -0.7284151912 0.6607146859
-0.095830232 -0.1158914 1.0711051 0.3852745295 0.0340542011 0.9221734405
-0.084323935 -0.11026976 1.057 0.2147751153 -0.04612264782 0.9755738378
0.016097356 -0.18390919 1.1882725 0.1211817935 0.1004071161 0.987539053
-0.055232536 -0.12298225 1.0640526 -0.3694993854 0.09635822475 0.9242214561
-0.12331001 -0.18201092 1.087 -0.04774805903 0.3954794407 0.9172328711
-0.097665928 -0.10517703 1.0712 0.3783840239 0.0177675169 0.9254781604
-0.046590451 -0.26194185 1.1810001 0.1637767851 -0.6502674818 0.7418419123
-0.037766799 -0.12179793 1.077 -0.5352783799 0.01857031696 0.8444715738
-0.036847647 -0.085928962 1.0863076 -0.4521321356 -0.3002380431 0.8399009705
-0.006820905 -0.23505887 1.197 -0.008767609484 -0.4399181604 0.8979950547
-0.073753096 -0.088229045 1.0650001 -0.1618095636 -0.2748261988 0.9477806687
-0.11497197 -0.17483726 1.0838499 0.0443210192 0.3931668699 0.9183983207
-0.10278945 -0.099015117 1.0756668 0.3651498258 -0.03374075517 0.930337131
-0.15534747 -0.13463801 1.0739599 0.01707385853 0.2412146032 0.9703215957
-0.1550431 -0.12230399 1.067 -0.06501597911 0.09031366557 0.993788898
-0.14400068 -0.15647681 1.0806667 0.1230310276 0.4022420645 0.9072291255
-0.13159594 -0.18434773 1.0911429 0.02576801926 0.3916423917 0.9197565913
-0.057761159 -0.10242668 1.067 -0.3482007086 -0.2591440082 0.9008888006
0.012201739 -0.18860401 1.1930001 0.1211817935 0.1004071161 0.987539053
-0.028628251 -0.2522831 1.1746 0.1979151964 -0.7476658225 0.6338969469
-0.0245439 -0.12214402 1.0865384 -0.5596516728 -0.02052198164 0.8284738064
-0.031533699 -0.091734402 1.09 -0.4736209214 -0.2556684911 0.8428029418
-0.065331832 -0.24890144 1.1830001 0.1731988639 -0.6589944959 0.7319346666
0.005374142 -0.20537654 1.2019999 0.1211817935 0.1004071161 0.987539053
-0.064307399 -0.091823034 1.0700001 -0.3116540313 -0.2631590366 0.9130274057
-0.02121358 -0.1133302 1.09 -0.5148265958 -0.04888186604 0.855899632
-0.027349547 -0.088550694 1.0908 -0.4736209214 -0.2556684911 0.8428029418
-0.041659199 -0.11835 1.08 -0.5334087014 -0.02402833104 0.845516324
-0.070352502 -0.090989232 1.0700001 -0.2664198875 -0.2846649885 0.920861721
-0.001896756 -0.19747338 1.202 0.03308771923 0.1578905582 0.9869021177
-0.16145307 -0.14540218 1.077 0.06680136919 0.3547748029 0.9325622916
-0.065173857 -0.12451214 1.0602399 -0.2584654391 0.04094863683 0.965152204
-0.065890141 -0.25840139 1.177 0.1731988639 -0.6589944959 0.7319346666
