# .PCD v0.7 - Point Cloud Data file format
VERSION 0.7
FIELDS x y z
SIZE 4 4 4
TYPE F F F
COUNT 1 1 1
WIDTH 1477
HEIGHT 1
VIEWPOINT 0 0 0 1 0 0 0
POINTS 1477
DATA ascii
-0.11533076 -0.4658756 1.7310003
-0.10470819 -0.46587563 1.7310001
-0.096470289 -0.46544197 1.7310001
-0.08498057 -0.46587563 1.7310003
-0.074357986 -0.46587557 1.7310001
-0.064978182 -0.4654811 1.7318001
-0.054753967 -0.46542498 1.7350005
-0.044211179 -0.46497962 1.7390002
-0.15299071 -0.45523611 1.7354445
-0.14394939 -0.45502844 1.7317275
-0.13505839 -0.45525301 1.7310003
-0.12595333 -0.45525298 1.7310003
-0.11533076 -0.45525295 1.7310004
-0.10470819 -0.45525298 1.7310003
-0.095603131 -0.45525298 1.7310003
-0.084980555 -0.45525295 1.7310004
-0.074357986 -0.45525298 1.7310003
-0.065607257 -0.45541105 1.7331821
-0.055899188 -0.45786515 1.7390002
-0.15322819 -0.4447484 1.7374003
-0.14473906 -0.44484264 1.7342001
-0.13505837 -0.44463041 1.7310001
-0.12595333 -0.44463041 1.7310001
-0.11504547 -0.44434437 1.7332859
-0.10465097 -0.44445193 1.7346364
-0.095603123 -0.44463041 1.7310001
-0.08498057 -0.44463047 1.7310003
-0.074087456 -0.44422612 1.7318001
-0.065774307 -0.44492453 1.7375455
-0.056407362 -0.4436363 1.739
-0.16007495 -0.43296462 1.7390001
-0.15397686 -0.43448913 1.7390002
-0.14443268 -0.43522939 1.7375457
-0.13562058 -0.43532899 1.7346364
-0.12595335 -0.43552539 1.7310001
-0.11550375 -0.43467414 1.7336669
-0.10529923 -0.43429524 1.7358001
-0.095749237 -0.43467066 1.7336668
-0.084627636 -0.43508455 1.7327147
-0.074851312 -0.43486345 1.7360909
-0.066518247 -0.43517002 1.7376667
-0.056407362 -0.43753821 1.7390001
-0.15296051 -0.42737469 1.739
-0.14482972 -0.4268665 1.7390002
-0.13525563 -0.42555624 1.7374003
-0.12600301 -0.42506468 1.7316669
-0.11583848 -0.4245339 1.7321432
-0.10497391 -0.42447549 1.7354445
-0.096044973 -0.42534202 1.7390002
-0.086131625 -0.42620939 1.7377695
-0.074701644 -0.42686653 1.7390002
-0.068603553 -0.42534199 1.739
-0.15092781 -0.41314581 1.7390001
-0.14432155 -0.41314581 1.7390002
-0.13568258 -0.41467035 1.7390002
-0.12580094 -0.4134348 1.7353078
-0.11513245 -0.41344357 1.7326003
-0.10490749 -0.41355464 1.7343335
-0.09604498 -0.41467032 1.7390002
-0.087914184 -0.41517851 1.7390002
-0.074701644 -0.4192439 1.7390001
-0.14395857 -0.40399867 1.7390002
-0.13568257 -0.4039987 1.7390002
-0.12501091 -0.40399864 1.7390002
-0.11433926 -0.40399867 1.7390002
-0.1051921 -0.4039987 1.7390002
-0.096044973 -0.40628546 1.7390001
-0.15092781 -0.39180249 1.7390001
-0.14395857 -0.39441594 1.7390002
-0.13655373 -0.39528713 1.7390002
-0.12305081 -0.3952871 1.7390002
-0.11433925 -0.39485157 1.7390002
-0.10519211 -0.39485157 1.7390002
-0.098331764 -0.39561379 1.7390001
-0.14381337 -0.38672075 1.739
-0.13669893 -0.38672075 1.739
-0.12043734 -0.3857044 1.7390001
-0.11586377 -0.38722891 1.7390001
-0.1051921 -0.38722894 1.7390002
-0.15550138 -0.19056542 1.7390001
-0.17364649 -0.18318513 1.7310001
-0.16486306 -0.18572271 1.7344286
-0.15433605 -0.1851659 1.7332858
-0.144961 -0.1837732 1.7360002
-0.13568258 -0.18141825 1.739
-0.13354087 -0.17754866 1.7310001
-0.1254148 -0.17671683 1.7355716
-0.11559516 -0.17431271 1.7350003
-0.10671663 -0.17227113 1.7390001
-0.11229574 -0.16844361 1.7310001
-0.10419516 -0.1673853 1.7326
-0.096835725 -0.16477914 1.7350001
-0.085373305 -0.16159947 1.7390001
-0.07775069 -0.16007495 1.7390001
-0.092568107 -0.15933855 1.7310001
-0.084980555 -0.15630352 1.7310001
-0.074071698 -0.15444525 1.7344286
-0.06598337 -0.15173084 1.7342001
-0.057931885 -0.15092781 1.7390001
-0.053151425 -0.14579433 1.7323333
-0.044063896 -0.14348866 1.7332858
-0.035638779 -0.14286985 1.7374001
-0.028965943 -0.14178067 1.7390001
-0.040972769 -0.13809341 1.7310001
-0.034143977 -0.13733466 1.7310001
-0.025835073 -0.13577463 1.7336668
-0.019818803 -0.13263352 1.7390001
-0.013673954 -0.12918706 1.7336668
-0.0045677256 -0.12491623 1.737667
0.0045735701 -0.12399456 1.7390002
0.01372071 -0.12043735 1.739
-0.0030350201 -0.11988329 1.7310001
0.0045525301 -0.11836578 1.7310001
0.015858524 -0.11577899 1.7344286
0.025877154 -0.11467444 1.7363335
0.03402314 -0.11323758 1.737667
0.042686652 -0.1112902 1.7390001
0.044007789 -0.10774321 1.7310001
0.055424992 -0.10672702 1.7355716
0.065403715 -0.10647467 1.7350001
0.075171188 -0.10378454 1.7358
0.084295005 -0.1030811 1.737667
0.099094018 -0.10214306 1.7390001
0.10824116 -0.10214306 1.7390001
0.1112902 -0.10214306 1.7390001
0.087187827 -0.097515322 1.7326
0.095699757 -0.095704429 1.732778
0.1048695 -0.095755085 1.7336668
0.11463206 -0.095480576 1.7342001
0.12501091 -0.095282711 1.7390002
0.13644484 -0.093758181 1.7390001
0.14482972 -0.093758181 1.7390001
0.15092781 -0.092995919 1.7390001
0.11988329 -0.089533091 1.7310001
0.1263327 -0.08687745 1.7310001
0.13543776 -0.08687745 1.7310001
0.14378408 -0.086877458 1.7310001
0.15434004 -0.087917015 1.7332859
0.16497424 -0.088468805 1.7355716
0.17481609 -0.087032616 1.7340001
0.18390392 -0.08308579 1.7336668
0.19513899 -0.080799736 1.7390001
0.20581065 -0.080799736 1.739
0.21343327 -0.080799736 1.7390001
0.18817124 -0.075875498 1.7310001
0.19454052 -0.076500565 1.7336668
0.20533724 -0.076054335 1.7350001
0.2148263 -0.075378425 1.7344286
0.22323152 -0.073687211 1.7355716
0.23477659 -0.073177122 1.7390002
0.24544828 -0.073177122 1.7390002
0.2545954 -0.074701637 1.7390002
0.26272619 -0.073685296 1.7390002
0.22610898 -0.068287946 1.7310001
0.23521405 -0.068287946 1.7310001
0.2448837 -0.066928238 1.7350001
0.25452903 -0.066298418 1.7355716
0.26365212 -0.064995691 1.7355715
-0.14251444 -0.49650192 1.748
-0.024825096 -0.4937436 1.7479999
-0.017732212 -0.49496952 1.748
-0.14251444 -0.48424262 1.748
-0.04137516 -0.48577502 1.748
-0.035245504 -0.48577499 1.748
-0.027276957 -0.48577505 1.7479999
-0.15324134 -0.47504812 1.748
-0.14557926 -0.47862375 1.748
-0.034904972 -0.47385624 1.748
-0.027276957 -0.4771935 1.7479999
-0.15783857 -0.46432123 1.748
-0.044439986 -0.46432126 1.748
-0.035245508 -0.46393812 1.748
-0.028094245 -0.46227801 1.748
-0.054553915 -0.45451385 1.7479999
-0.045206193 -0.4566592 1.748
-0.036267117 -0.45614836 1.748
-0.062828943 -0.44593227 1.748
-0.054656073 -0.44593227 1.748
-0.044439986 -0.44593233 1.748
-0.035245504 -0.44593227 1.748
-0.029115854 -0.44899711 1.748
-0.16090339 -0.43060815 1.748
-0.15783857 -0.43060815 1.748
-0.064054869 -0.43305999 1.7479999
-0.055284761 -0.43532327 1.7479998
-0.044439986 -0.43469462 1.748
-0.03639482 -0.4363547 1.748
-0.029115854 -0.43980262 1.748
-0.16396822 -0.42345691 1.748
-0.15477374 -0.42409539 1.748
-0.14557926 -0.42325258 1.7479999
-0.081217907 -0.4229461 1.748
-0.075088248 -0.42325258 1.7479999
-0.065018103 -0.4240407 1.748
-0.058538191 -0.42509145 1.7479999
-0.1648439 -0.41528398 1.748
-0.15515685 -0.41528401 1.748
-0.14634547 -0.41681641 1.748
-0.08275032 -0.41528401 1.748
-0.075088255 -0.41528401 1.748
-0.066276878 -0.41528401 1.748
-0.056358762 -0.41460291 1.748
-0.15389809 -0.40608954 1.748
-0.14864409 -0.40608954 1.748
-0.094243415 -0.40494022 1.748
-0.084282726 -0.40608954 1.748
-0.075854458 -0.40838814 1.748
-0.064361356 -0.40915436 1.748
-0.058742512 -0.40813276 1.748
-0.16353038 -0.39470583 1.748
-0.15505236 -0.39550191 1.7479999
-0.14711168 -0.39459643 1.748
-0.13288212 -0.39339235 1.748
-0.1256579 -0.39383021 1.748
-0.11186618 -0.3907654 1.748
-0.093732618 -0.39459646 1.7479998
-0.085815139 -0.39689505 1.748
-0.078153081 -0.39995989 1.748
-0.16090339 -0.38616815 1.748
-0.15433589 -0.3855114 1.748
-0.14601709 -0.38376006 1.748
-0.13423941 -0.38402274 1.7479999
-0.12450858 -0.38425264 1.748
-0.11449317 -0.38376006 1.748
-0.10573652 -0.38310328 1.748
-0.096925147 -0.38463572 1.748
-0.08734756 -0.38157091 1.748
-0.14519617 -0.37582439 1.748
-0.13485236 -0.37544128 1.7479998
-0.12412548 -0.37544128 1.748
-0.11554398 -0.37728018 1.7479999
-0.10573652 -0.37850609 1.748
-0.098074451 -0.37850609 1.748
-0.08734756 -0.37850609 1.748
-0.14251444 -0.3693116 1.748
-0.13536318 -0.36828998 1.748
-0.12719031 -0.3693116 1.748
-0.17009787 -0.19155167 1.748
-0.16396822 -0.19155167 1.748
-0.15170892 -0.19155167 1.748
-0.14496629 -0.1927776 1.7479999
-0.13944961 -0.19155167 1.748
-0.14251444 -0.18848684 1.748
-0.13577183 -0.18542202 1.7479999
-0.12412548 -0.18235719 1.748
-0.11186618 -0.17929237 1.748
-0.10573652 -0.17673834 1.748
-0.096542038 -0.1711195 1.748
-0.091944799 -0.16703305 1.748
-0.084282734 -0.16550064 1.748
-0.074322045 -0.1624358 1.748
-0.065893769 -0.15630615 1.748
-0.052102052 -0.15170892 1.748
-0.044439986 -0.15170892 1.748
-0.044439986 -0.14864409 1.748
-0.035245508 -0.14711168 1.748
-0.026051028 -0.14353605 1.748
-0.0229862 -0.13944961 1.748
-0.016345741 -0.13536318 1.748
-0.0045972401 -0.13025513 1.748
0.0076620667 -0.12719031 1.748
0.014302525 -0.12463629 1.748
0.024518613 -0.12106065 1.748
0.029115854 -0.11799583 1.748
0.036777921 -0.11646342 1.748
0.044439986 -0.11339859 1.748
0.052102052 -0.11186618 1.748
0.073555842 -0.10880134 1.748
0.084282734 -0.10726893 1.748
0.095009625 -0.1047149 1.748
0.10512356 -0.10451058 1.7479999
0.11646342 -0.10267169 1.748
0.12106065 -0.10267169 1.748
0.12565789 -0.099606864 1.748
0.13485236 -0.098585255 1.748
0.14481306 -0.098074451 1.748
0.15477374 -0.095009625 1.748
0.16396822 -0.093477212 1.748
0.17469512 -0.093477212 1.748
0.18235719 -0.091944799 1.748
0.18695444 -0.08734756 1.748
0.19400354 -0.085508659 1.7479999
0.20442393 -0.0848957 1.7479999
0.21683648 -0.083516523 1.748
0.22526474 -0.081217907 1.748
0.24671854 -0.081217907 1.748
0.25591302 -0.082750313 1.748
0.22679716 -0.078153081 1.748
0.23445924 -0.078153081 1.748
0.24518612 -0.078153081 1.748
0.26817232 -0.06742619 1.748
0.27123716 -0.065893769 1.748
-0.14509657 -0.49382123 1.7570002
-0.021564247 -0.49135676 1.7570001
-0.012835861 -0.4934105 1.7570001
-0.15249003 -0.48211494 1.7570001
-0.14735569 -0.48519555 1.7570001
-0.022664463 -0.48563567 1.7570001
-0.01386273 -0.48519558 1.7570001
-0.15865125 -0.47287312 1.7570001
-0.02378913 -0.47526917 1.7570001
-0.01386273 -0.47595373 1.7570001
-0.033886675 -0.46517161 1.7570001
-0.023815461 -0.46529013 1.7570001
-0.01386273 -0.46517166 1.7570001
-0.044052675 -0.45623785 1.7570002
-0.035426978 -0.45623785 1.7570002
-0.024224771 -0.45466951 1.7570001
-0.01386273 -0.45438951 1.7570001
-0.044668797 -0.44206706 1.7570001
-0.024224771 -0.44542772 1.7570001
-0.014247806 -0.44476262 1.7570001
-0.053910617 -0.43436554 1.7570001
-0.044668797 -0.43713808 1.7570002
-0.033116523 -0.43513569 1.7570001
-0.024644854 -0.43590584 1.7570001
-0.015916469 -0.43795958 1.7570001
-0.17097367 -0.42050281 1.7570001
-0.16173185 -0.42358342 1.7570001
-0.052883748 -0.42495263 1.7570001
-0.044668797 -0.42512378 1.7570001
-0.035426978 -0.42512372 1.7570001
-0.025304984 -0.42534381 1.7570001
-0.17174383 -0.41357145 1.7570001
-0.16404231 -0.41203114 1.7570001
-0.15865125 -0.41126099 1.7570001
-0.066233046 -0.4143416 1.7570001
-0.051856879 -0.41331473 1.7570001
-0.044668797 -0.41434163 1.7570001
-0.035426978 -0.41434163 1.7570001
-0.026185157 -0.41434163 1.7570001
-0.17097367 -0.40509978 1.7570001
-0.16481246 -0.40509981 1.7570001
-0.15865125 -0.40509978 1.7570001
-0.074594691 -0.40509981 1.7570001
-0.065112822 -0.40481976 1.7570001
-0.053910617 -0.40509981 1.7570001
-0.044668797 -0.40509981 1.7570001
-0.035426978 -0.40509981 1.7570001
-0.027212026 -0.40612665 1.7570001
-0.17097367 -0.39585796 1.7570001
-0.16635276 -0.39277735 1.7570001
-0.083176382 -0.39585796 1.7570001
-0.075474866 -0.39585799 1.7570001
-0.064692743 -0.39585796 1.7570001
-0.054680768 -0.39816841 1.7570001
-0.044052675 -0.39770633 1.7570002
-0.035426978 -0.39893857 1.7570001
-0.02772546 -0.39893857 1.7570001
-0.17158979 -0.38415164 1.7570002
-0.16542858 -0.38445976 1.7570002
-0.15618676 -0.38168716 1.7570002
-0.091904767 -0.3845624 1.7570001
-0.084100559 -0.385692 1.7570002
-0.075474866 -0.38507584 1.7570001
-0.064692743 -0.38507584 1.7570001
-0.056991223 -0.38199523 1.7570001
-0.17405428 -0.37737432 1.7570001
-0.16327216 -0.37429371 1.7570001
-0.15557064 -0.37429374 1.7570001
-0.14838256 -0.37223998 1.7570001
-0.12322427 -0.37121311 1.7570001
-0.11508267 -0.37341356 1.7570001
-0.10474063 -0.37429371 1.7570001
-0.093958504 -0.37429374 1.7570001
-0.084716685 -0.37429374 1.7570001
-0.075474866 -0.37429374 1.7570001
-0.065112822 -0.3745738 1.7570001
-0.16393229 -0.36505193 1.7570001
-0.15557064 -0.36505193 1.7570001
-0.1452086 -0.36477187 1.7570001
-0.1340064 -0.36466685 1.7570001
-0.12476458 -0.36505193 1.7570001
-0.11552276 -0.36505193 1.7570001
-0.10474063 -0.36505195 1.7570001
-0.093958504 -0.36505193 1.7570001
-0.084716685 -0.36505193 1.7570001
-0.075474866 -0.36505193 1.7570001
-0.068286784 -0.36710563 1.7570001
-0.16327216 -0.35735038 1.7570001
-0.15557064 -0.35735038 1.7570001
-0.14495966 -0.35683697 1.7570001
-0.1340064 -0.35619518 1.7570001
-0.12514965 -0.35619518 1.7570001
-0.11552275 -0.3562502 1.7570001
-0.10474063 -0.35581014 1.7570001
-0.093958504 -0.35581011 1.7570001
-0.085101761 -0.35619518 1.7570001
-0.075474866 -0.35735038 1.7570001
-0.069313653 -0.35889068 1.7570001
-0.14478852 -0.34656826 1.7570001
-0.13297953 -0.34759513 1.7570001
-0.12661293 -0.34718436 1.7570002
-0.11244214 -0.34964886 1.7570001
-0.10435555 -0.34618321 1.7570001
-0.094985373 -0.34759513 1.7570001
-0.10011972 -0.33578613 1.7570001
-0.16327216 -0.19561853 1.7570001
-0.15480049 -0.19638868 1.7570001
-0.14478852 -0.19767226 1.7570001
-0.13585475 -0.19500241 1.7570002
-0.13323624 -0.18868716 1.7570001
-0.12476457 -0.18637671 1.7570001
-0.1162929 -0.18406625 1.7570001
-0.10474063 -0.1817558 1.7570001
-0.10011972 -0.17713489 1.7570001
-0.094728656 -0.17405428 1.7570001
-0.086256988 -0.17097367 1.7570001
-0.081636079 -0.16789307 1.7570001
-0.075474866 -0.16712292 1.7570001
-0.067003198 -0.16250201 1.7570001
-0.06315244 -0.15762438 1.7570001
-0.053910617 -0.15557064 1.7570001
-0.044668797 -0.15249003 1.7570001
-0.038507584 -0.15249003 1.7570001
-0.033886675 -0.14940943 1.7570001
-0.02310455 -0.14530195 1.7570001
-0.015916469 -0.14119448 1.7570001
-0.012322427 -0.137087 1.7570001
-0.0061612134 -0.13246609 1.7570001
0.0046209102 -0.13092579 1.7570001
0.016943337 -0.12784518 1.7570001
0.02372067 -0.12476458 1.7570002
0.035426978 -0.12168396 1.7570001
0.038507584 -0.11860336 1.7570001
0.044668797 -0.11654962 1.7570001
0.054680768 -0.1147526 1.7570001
0.064692743 -0.11244214 1.7570001
0.075474866 -0.11244214 1.7570001
0.081636079 -0.11244214 1.7570001
0.078555472 -0.10936154 1.7570001
0.086256988 -0.10936154 1.7570001
0.093958504 -0.10936154 1.7570001
0.10166002 -0.10936154 1.7570001
0.11398245 -0.10628093 1.7570001
0.12630488 -0.10320032 1.7570001
0.1340064 -0.10320032 1.7570001
0.14530195 -0.10217346 1.7570001
0.15557064 -0.10011972 1.7570001
0.16481246 -0.10011972 1.7570001
0.17405428 -0.10088987 1.7570001
0.1817558 -0.10011972 1.7570001
0.15865125 -0.097039111 1.7570001
0.16481246 -0.097039111 1.7570001
0.17405428 -0.097039111 1.7570001
0.1848364 -0.093958504 1.7570001
0.19253792 -0.090877898 1.7570001
0.20486034 -0.090877898 1.7570001
0.25723067 -0.090877898 1.7570001
0.19869913 -0.087797292 1.7570001
0.20640065 -0.087797292 1.7570001
0.21410216 -0.087797292 1.7570001
0.22488429 -0.085486837 1.7570001
0.23643656 -0.08240623 1.7570001
0.24490823 -0.083689816 1.7570001
0.25415006 -0.086770423 1.7570001
-0.15017475 -0.49387369 1.7660002
-0.0046445802 -0.49387372 1.7659999
0.0046445802 -0.49387366 1.7659999
0.01393374 -0.49387366 1.7659999
0.021365067 -0.49449292 1.766
-0.15017475 -0.48768088 1.766
-0.0046445797 -0.48458454 1.7659999
0.0046445802 -0.48458454 1.7659999
0.013546692 -0.48497155 1.7659999
0.020126512 -0.48458454 1.7660002
-0.0046445802 -0.47529534 1.7659999
0.0046445802 -0.47529534 1.7659999
0.01161145 -0.47452128 1.766
-0.0050316285 -0.46639326 1.7659999
0.0046445797 -0.46755442 1.7659999
0.011869482 -0.46807048 1.7660002
-0.010837353 -0.45052427 1.766
-0.0056767091 -0.45465279 1.7659999
-0.010837353 -0.4412351 1.766
-0.0042022392 -0.44521618 1.7659999
0.0015481933 -0.44742787 1.766
-0.16565669 -0.43349415 1.766
-0.013546691 -0.43465531 1.7659999
-0.020126512 -0.42575318 1.766
-0.01393374 -0.42575318 1.7659999
-0.020126512 -0.4149158 1.766
-0.013933738 -0.41491583 1.7660002
-0.022338215 -0.40407848 1.7659999
-0.013933741 -0.40407845 1.7659999
-0.053799722 -0.39440227 1.7659999
-0.045339946 -0.39390463 1.7659999
-0.035608448 -0.39478928 1.7659999
-0.024771092 -0.39478934 1.7660002
-0.01393374 -0.39478931 1.7659999
-0.053302083 -0.38594246 1.7659999
-0.044897605 -0.38550013 1.7659999
-0.035608452 -0.38550013 1.7659999
-0.024771092 -0.38550016 1.7660002
-0.01393374 -0.38550016 1.7659999
-0.1731765 -0.37399927 1.7659999
-0.16875307 -0.37466279 1.766
-0.061411668 -0.37105036 1.7660002
-0.054186765 -0.37466273 1.7660002
-0.044897605 -0.37466279 1.7660002
-0.035889938 -0.375085 1.766
-0.024992261 -0.37532625 1.7660002
-0.014449805 -0.37724313 1.7659999
-0.17494583 -0.36382544 1.7659999
-0.16875307 -0.36227724 1.766
-0.064508058 -0.36416948 1.7659999
-0.054186769 -0.36568326 1.766
-0.044278327 -0.36568326 1.766
-0.037156641 -0.36537364 1.766
-0.029415673 -0.36692181 1.766
-0.18113862 -0.35453627 1.7660002
-0.17494583 -0.35453629 1.7659999
-0.16609904 -0.35365158 1.7659999
-0.15481932 -0.35298809 1.7659999
-0.14336272 -0.35267845 1.766
-0.13572495 -0.35247198 1.7660002
-0.12230727 -0.35298806 1.766
-0.1168886 -0.35376221 1.766
-0.10372895 -0.35143989 1.766
-0.084376529 -0.35221398 1.766
-0.075861476 -0.35298809 1.7659999
-0.067810878 -0.35577482 1.766
-0.18113862 -0.34834349 1.766
-0.17450352 -0.3461318 1.7659999
-0.16565669 -0.34524712 1.7659999
-0.15481932 -0.34524706 1.7660002
-0.14353965 -0.34436241 1.7659999
-0.13469282 -0.34436241 1.7659999
-0.12437153 -0.34421495 1.7659999
-0.1161145 -0.34524706 1.7659999
-0.10594066 -0.34480476 1.7659999
-0.093407661 -0.34421501 1.7659999
-0.085150629 -0.34524709 1.7659999
-0.076248527 -0.34563413 1.7659999
-0.069668703 -0.34834349 1.766
-0.16526964 -0.33634502 1.7659999
-0.15481932 -0.33595797 1.7660002
-0.14398198 -0.33595794 1.7659999
-0.13469282 -0.33595794 1.7659999
-0.12540367 -0.33595797 1.7659999
-0.1161145 -0.33595797 1.7659999
-0.10620606 -0.33564833 1.766
-0.09443979 -0.33595794 1.7659999
-0.085150629 -0.33595794 1.7659999
-0.078957863 -0.33595797 1.7660002
-0.16410848 -0.328217 1.766
-0.15415582 -0.32843813 1.7659999
-0.14398198 -0.328217 1.7659999
-0.13469283 -0.32666877 1.7659999
-0.12540366 -0.32512057 1.7660002
-0.1161145 -0.32512057 1.7660002
-0.10527714 -0.32512057 1.7660003
-0.095471919 -0.32770088 1.7659999
-0.087214887 -0.32873306 1.7660002
-0.11301811 -0.31737962 1.766
-0.10682534 -0.31737962 1.766
-0.15172294 -0.20281333 1.766
-0.14707837 -0.20281333 1.766
-0.17184946 -0.19662055 1.766
-0.16565669 -0.19816875 1.766
-0.15791571 -0.19971694 1.766
-0.13237053 -0.19739464 1.766
-0.12628834 -0.19308184 1.7659999
-0.11766269 -0.19042778 1.766
-0.1145663 -0.18733139 1.766
-0.10527714 -0.18578319 1.766
-0.095987983 -0.18113862 1.766
-0.092375539 -0.1770101 1.7660002
-0.08592473 -0.17494585 1.766
-0.07740967 -0.17184946 1.766
-0.065024123 -0.16565669 1.766
-0.055734958 -0.1625603 1.766
-0.060379539 -0.15946391 1.766
-0.054186765 -0.15946391 1.7660002
-0.045671701 -0.15714163 1.766
-0.034060255 -0.15327114 1.766
-0.025700008 -0.15079401 1.766
-0.020126512 -0.14707837 1.766
-0.013314463 -0.14460126 1.766
-0.0030963868 -0.13469282 1.766
0.0046445802 -0.13469282 1.7660002
0.013933741 -0.13159643 1.7660002
0.027093383 -0.12772594 1.766
0.034834351 -0.12617776 1.766
0.044123508 -0.12308136 1.766
0.052638572 -0.12230727 1.766
0.046445798 -0.11921088 1.766
0.054186765 -0.11921088 1.7660002
0.064095207 -0.11673377 1.766
0.075861476 -0.1161145 1.7660002
0.085769907 -0.11487594 1.766
0.093665697 -0.11379221 1.766
0.10218076 -0.11301811 1.766
0.10837353 -0.10992172 1.766
0.1168886 -0.10914762 1.766
0.12540366 -0.10682533 1.7660002
0.13469283 -0.10682533 1.7660002
0.14398198 -0.10605124 1.766
0.15481932 -0.10527715 1.7659999
0.16565669 -0.10527715 1.7659999
0.17494585 -0.10558679 1.766
0.18268681 -0.10527714 1.766
0.18733139 -0.095987983 1.766
0.19507235 -0.09443979 1.7659999
0.20590971 -0.093665689 1.766
0.21442477 -0.092117503 1.766
0.22139165 -0.091343403 1.766
0.22603622 -0.088247016 1.766
0.2353254 -0.085150629 1.766
0.24616274 -0.086698823 1.766
0.25235552 -0.088247016 1.766
0.20797396 0.30396196 1.7660002
0.2074579 0.31273505 1.766
-0.15413904 -0.49511325 1.7760001
0.027091105 -0.49449053 1.7760003
0.035810083 -0.49511325 1.7760004
0.045151833 -0.49511325 1.7760004
0.054493606 -0.4960475 1.7760003
0.016088588 -0.48213863 1.7760001
0.025845533 -0.48390317 1.7760003
0.035365231 -0.48510423 1.7760001
0.043075893 -0.48629048 1.7760001
0.016348081 -0.47565126 1.7760001
0.024911359 -0.47487274 1.7760004
0.032696161 -0.4748728 1.7760001
-0.0025949331 -0.46345511 1.7760001
0.0046708803 -0.46397412 1.7760001
0.01440188 -0.46514177 1.7760001
0.023977187 -0.46584243 1.7760003
-0.0038923998 -0.45618927 1.7760001
0.0046708803 -0.45618927 1.7760001
0.014012639 -0.45618927 1.7760001
0.021486048 -0.45681205 1.7760003
-0.0052936636 -0.44186527 1.7760003
0.0049539632 -0.44486597 1.7760003
0.014012639 -0.44529048 1.7760004
0.021575019 -0.44462332 1.7760001
-0.0046708798 -0.43439183 1.7760001
0.0046708798 -0.43439183 1.7760001
0.014012641 -0.43439183 1.7760001
0.021486048 -0.43501464 1.7760003
-0.0046708803 -0.42505008 1.7760001
0.0042816396 -0.42505008 1.7760001
-0.0046708798 -0.4157083 1.7760001
0.0046708798 -0.41570827 1.7760001
-0.0046708798 -0.40480959 1.7760004
0.0031139194 -0.40480959 1.7760001
-0.0065392316 -0.39453369 1.7760003
-0.0070063202 -0.38456911 1.7760001
-0.032696161 -0.37211344 1.7760001
-0.0233544 -0.37211344 1.7760001
-0.013493653 -0.37418938 1.7760001
-0.060721438 -0.36277169 1.7760001
-0.054493599 -0.36355016 1.7760001
-0.045930319 -0.36355016 1.7760001
-0.035031602 -0.36510712 1.7760001
-0.024244091 -0.36722013 1.7760001
-0.0155696 -0.36899951 1.7760001
-0.063523971 -0.35405266 1.7760003
-0.054493606 -0.35498688 1.7760004
-0.044840444 -0.355921 1.7760003
-0.037367042 -0.35654387 1.7760001
-0.18372127 -0.34564513 1.7760001
-0.17655925 -0.3422198 1.7760003
-0.072139151 -0.34305021 1.7760001
-0.064725049 -0.344533 1.7760001
-0.055739172 -0.34533373 1.7760003
-0.048265759 -0.34720209 1.7760001
-0.17406812 -0.33536917 1.7760003
-0.16970864 -0.33318943 1.7760001
-0.082518883 -0.33163247 1.7760001
-0.073799893 -0.33443496 1.7760003
-0.065703705 -0.33412358 1.7760003
-0.17360103 -0.32618314 1.7760001
-0.16555674 -0.32505867 1.7760001
-0.15413904 -0.32415906 1.7760003
-0.14479728 -0.32384768 1.7760001
-0.13545552 -0.32229072 1.7760001
-0.094351783 -0.32478184 1.7760003
-0.08524356 -0.3250154 1.7760001
-0.074561082 -0.32609662 1.7760001
-0.066949278 -0.32540464 1.7760001
-0.17386055 -0.31813881 1.7760001
-0.1673732 -0.3183983 1.7760001
-0.14324032 -0.31917679 1.7760001
-0.13545552 -0.31917679 1.7760001
-0.12611376 -0.31761983 1.7760001
-0.11583783 -0.31544012 1.7760003
-0.10476116 -0.31606287 1.7760001
-0.096531525 -0.31917679 1.7760001
-0.071620159 -0.31917679 1.7760001
-0.066949278 -0.3160629 1.7760001
-0.11158213 -0.30879709 1.7760001
-0.1049391 -0.30796671 1.7760003
-0.16555674 -0.20188582 1.7760001
-0.15725295 -0.20396176 1.7760001
-0.12767072 -0.20084783 1.7760001
-0.12299984 -0.19617696 1.7760001
-0.11459225 -0.19524279 1.7760003
-0.10743024 -0.19150607 1.7760001
-0.10275936 -0.18839216 1.7760001
-0.096012533 -0.18527824 1.7760001
-0.088746719 -0.18216431 1.7760001
-0.083556853 -0.17801243 1.7760001
-0.074734077 -0.17437953 1.7760001
-0.06383536 -0.16867065 1.7760001
-0.053715117 -0.16581623 1.7760001
-0.045151841 -0.16140485 1.7760001
-0.037367038 -0.15725295 1.7760001
-0.023354402 -0.15413904 1.7760001
-0.0155696 -0.15102512 1.7760001
-0.01089872 -0.14791121 1.7760001
-0.0054493602 -0.14246184 1.7760001
-0.0046708803 -0.13856944 1.7760001
0.0031139199 -0.13856944 1.7760001
0.014012639 -0.13545552 1.7760001
0.023873387 -0.13337956 1.7760001
0.032696161 -0.13234159 1.7760001
0.037367038 -0.12922768 1.7760001
0.045151841 -0.12767072 1.7760001
0.05527208 -0.12533528 1.7760001
0.063212574 -0.12424541 1.7760003
0.074734077 -0.12299984 1.7760001
0.084075838 -0.12299984 1.7760001
0.065392315 -0.11988592 1.7760001
0.074734084 -0.11988592 1.7760001
0.085632801 -0.11988592 1.7760001
0.094974563 -0.11832896 1.7760001
0.10431632 -0.11573402 1.7760001
0.11521504 -0.11365808 1.7760001
0.12611376 -0.11178973 1.7760003
0.1354555 -0.11210112 1.7760001
0.14479728 -0.11054417 1.7760001
0.15413904 -0.11054417 1.7760001
0.16597195 -0.11116694 1.7760003
0.17593648 -0.11054417 1.7760001
0.18372127 -0.11054416 1.7760001
0.18839216 -0.10275936 1.7760001
0.19462 -0.10275935 1.7760001
0.20396176 -0.10198088 1.7760001
0.21174656 -0.1012024 1.7760001
0.19773392 -0.098088481 1.7760001
0.20396177 -0.098088481 1.7760001
0.21589844 -0.09705051 1.7760001
0.22575919 -0.0934176 1.7760001
0.23354399 -0.091860637 1.7760001
0.25534144 -0.091860637 1.7760001
0.23510094 -0.088746719 1.7760001
0.24444272 -0.088746719 1.7760001
0.21953136 0.2880376 1.7760001
0.22575919 0.28648064 1.7760001
0.23302501 0.28596166 1.7760001
0.21607143 0.29495743 1.7760001
0.22575919 0.29426545 1.7760001
0.23198704 0.29426545 1.7760001
0.21552773 0.30516416 1.7760004
0.22264528 0.30516416 1.7760001
0.23198704 0.30049327 1.7760001
0.20707569 0.31917679 1.7760001
0.21579464 0.31637427 1.7760003
0.22264528 0.31761983 1.7760001
0.20707569 0.32229072 1.7760001
0.21486048 0.32229072 1.7760001
0.22264528 0.32229072 1.7760001
0.054769747 -0.49292776 1.7850001
0.063264653 -0.49650458 1.785
0.11736375 -0.49918714 1.7850001
0.17213351 -0.49918714 1.7850001
0.037556402 -0.4819738 1.7850001
0.045380648 -0.48510349 1.785
0.055082716 -0.48604241 1.7850001
0.062594004 -0.48353863 1.785
0.073547944 -0.48166084 1.7850001
0.14866075 -0.48353863 1.7850002
0.15179045 -0.48666835 1.7850001
0.16430925 -0.48756257 1.785
0.17056865 -0.48979804 1.7850001
0.036513168 -0.4741495 1.785
0.04225095 -0.47571439 1.7850001
0.054769747 -0.47602734 1.7850001
0.064158849 -0.47414955 1.7850001
0.070418246 -0.47258469 1.7850001
0.14866075 -0.47414955 1.7850002
0.028949726 -0.46397802 1.7850001
0.033644274 -0.46397802 1.7850001
0.14866075 -0.46789014 1.7850001
0.026993664 -0.45498016 1.785
0.034113728 -0.45537132 1.7850001
0.0281673 -0.44598222 1.785
0.0344267 -0.44754708 1.7850001
0.01408365 -0.43033373 1.7850002
0.026254706 -0.43485439 1.7850001
0.032861851 -0.43815798 1.7850001
0.067288548 -0.43033373 1.7850001
0.0078242496 -0.42720404 1.7850001
0.01408365 -0.42407438 1.7850001
0.02034305 -0.42407432 1.7850002
0.057899449 -0.42407435 1.7850001
0.061029151 -0.42250949 1.7850001
0.0078242496 -0.41155556 1.7850001
0.013692438 -0.41507646 1.785
0.061029151 -0.41781494 1.7850001
0.0078242496 -0.40529612 1.7850002
0.013692437 -0.40529612 1.785
-0.0023472749 -0.39512464 1.7850001
0.0046945494 -0.39590704 1.7850001
-0.003520912 -0.38417068 1.785
0.0039121248 -0.38730034 1.7850001
-0.01095395 -0.37086946 1.7850001
-0.0078242496 -0.37556398 1.7850001
-0.032861851 -0.36304522 1.7850001
-0.028688917 -0.36356679 1.7850002
-0.01470959 -0.36648786 1.7850001
-0.046945497 -0.35209125 1.7850001
-0.034739673 -0.35396904 1.7850001
-0.0281673 -0.3567858 1.7850001
-0.18621714 -0.34270215 1.7850002
-0.061029151 -0.34426701 1.7850001
-0.053204902 -0.34426701 1.7850001
-0.044989441 -0.34544066 1.785
-0.036617491 -0.34770969 1.7850001
-0.1846523 -0.33487788 1.785
-0.17933181 -0.33456492 1.7850001
-0.062072385 -0.33487794 1.785
-0.055465236 -0.33609498 1.7850001
-0.04851035 -0.33957246 1.7850001
-0.18413068 -0.32601041 1.7850002
-0.17839289 -0.32548881 1.7850001
-0.16117954 -0.32235909 1.7850001
-0.15492015 -0.32157665 1.7850001
-0.14866075 -0.32079425 1.7850001
-0.092326149 -0.32235909 1.7850001
-0.086066753 -0.32079425 1.7850002
-0.076677643 -0.32329801 1.7850001
-0.062906966 -0.32329801 1.7850001
-0.057899449 -0.32079425 1.7850001
-0.17369835 -0.31453484 1.7850001
-0.16587409 -0.31766453 1.7850001
-0.15492015 -0.31766453 1.7850002
-0.14553104 -0.31609967 1.785
-0.13575074 -0.31492606 1.785
-0.12585865 -0.31274647 1.785
-0.11736375 -0.31140515 1.7850001
-0.10171525 -0.31296998 1.7850001
-0.096499085 -0.3155781 1.785
-0.086066745 -0.31641263 1.7850001
-0.074686021 -0.31481937 1.785
-0.063264646 -0.31408778 1.785
-0.12049345 -0.30827546 1.7850001
-0.11423405 -0.3067106 1.7850001
-0.10484495 -0.30514574 1.7850002
-0.098585546 -0.3067106 1.7850001
-0.074799828 -0.30764952 1.7850001
-0.064158849 -0.30827546 1.7850001
-0.17369835 -0.20186564 1.7850001
-0.16430925 -0.20499535 1.7850001
-0.15179045 -0.20812505 1.7850001
-0.10484496 -0.1940414 1.7850001
-0.098585546 -0.19247656 1.7850001
-0.094412617 -0.18726037 1.7850002
-0.0845019 -0.18308745 1.7850001
-0.074799828 -0.17870586 1.7850001
-0.064158849 -0.17265512 1.7850002
-0.0563346 -0.17056865 1.7850001
-0.045380648 -0.16587411 1.7850001
-0.037556402 -0.16117954 1.7850001
-0.032861851 -0.15804985 1.7850001
-0.026602451 -0.15804985 1.7850001
-0.013301225 -0.15413772 1.7850001
-0.0046945498 -0.14657427 1.7850002
0.0026080832 -0.14344458 1.7850002
0.0078242496 -0.13927165 1.7850001
0.01408365 -0.13927165 1.7850002
0.026602449 -0.13718519 1.7850002
0.035991549 -0.13405548 1.7850002
0.043815799 -0.13301225 1.7850001
0.04851035 -0.12988254 1.7850001
0.054769751 -0.12988254 1.7850002
0.064941272 -0.12910011 1.7850001
0.075112797 -0.12675285 1.7850001
0.086066745 -0.12570961 1.7850002
0.095455848 -0.12257991 1.7850002
0.1032801 -0.12049345 1.7850001
0.10797465 -0.11736375 1.7850001
0.11423405 -0.11736375 1.7850002
0.12550096 -0.11673781 1.7850001
0.13614196 -0.11736375 1.7850002
0.14474863 -0.11501648 1.7850001
0.15492015 -0.11423405 1.7850002
0.16430925 -0.11423405 1.7850002
0.17682804 -0.11423405 1.7850002
0.1846523 -0.11423405 1.7850001
0.19247656 -0.11110435 1.7850001
0.18934685 -0.10797465 1.7850001
0.19560625 -0.10797465 1.7850002
0.20499535 -0.10672277 1.7850001
0.21438444 -0.10484495 1.7850001
0.22377354 -0.10171524 1.7850002
0.2347275 -0.10171525 1.7850001
0.24568145 -0.10171524 1.7850002
0.25194085 -0.10171525 1.7850001
0.2253384 -0.098585546 1.7850001
0.2352491 -0.096499078 1.7850001
0.24523436 -0.094561644 1.785
0.25194085 -0.092326149 1.7850001
0.22612083 0.30436331 1.7850001
0.23128483 0.30577168 1.7850001
0.2253384 0.31296998 1.7850001
0.23003295 0.31140515 1.7850001
0.20656019 0.32705364 1.7850001
0.21438445 0.32705364 1.7850002
0.22220871 0.32705364 1.7850001
0.20656021 0.33435628 1.785
0.21407148 0.3358168 1.7850001
0.19873595 0.34896156 1.7850001
0.21281961 0.34583184 1.7850001
0.19873595 0.35365611 1.7850001
0.20499535 0.35334313 1.7850001
0.21229798 0.35313448 1.7850002
0.065740533 -0.49415487 1.794
0.073918782 -0.49541309 1.794
0.083984315 -0.49572763 1.794
0.096985638 -0.49488881 1.794
0.10537358 -0.49541309 1.794
0.11481003 -0.49541304 1.794
0.12346008 -0.49698585 1.794
0.1347314 -0.4964616 1.794
0.146658 -0.49541306 1.7939999
0.15570126 -0.49541309 1.794
0.16513769 -0.49698582 1.794
0.17496732 -0.49580625 1.7939999
0.18356122 -0.49541309 1.7939999
0.047706444 -0.48387969 1.794
0.05347316 -0.48283118 1.794
0.067627817 -0.48597667 1.794
0.075176977 -0.48723483 1.794
0.084927954 -0.48597664 1.794
0.095937133 -0.48597664 1.794
0.10537358 -0.48597664 1.794
0.11481002 -0.48597664 1.794
0.13682838 -0.48361754 1.794
0.14469208 -0.48597667 1.794
0.15609445 -0.48558348 1.7939999
0.16513769 -0.48408937 1.794
0.17457414 -0.48597664 1.794
0.18212329 -0.48534757 1.794
0.038270008 -0.47129774 1.794
0.046238553 -0.47433838 1.794
0.054521654 -0.4728705 1.794
0.064482331 -0.47482452 1.7940001
0.074547879 -0.47496742 1.794
0.085032806 -0.47486264 1.7940003
0.095937133 -0.47496745 1.7940001
0.10537358 -0.47496748 1.7940001
0.11481001 -0.47496748 1.7940001
0.1355702 -0.47465295 1.7940003
0.14469208 -0.47496754 1.7939999
0.15570126 -0.47496748 1.7940001
0.16513769 -0.47496748 1.7940001
0.17457415 -0.47549173 1.794
0.18369603 -0.47591108 1.794
0.03853213 -0.46474466 1.794
0.045609459 -0.46395826 1.794
0.055045903 -0.46395826 1.794
0.064482339 -0.46395832 1.794
0.073918782 -0.46395832 1.794
0.083984315 -0.46458739 1.794
0.096461393 -0.46500674 1.794
0.10432509 -0.46605527 1.794
0.11323728 -0.46710378 1.794
0.1361993 -0.46395826 1.794
0.14626482 -0.46395832 1.794
0.15570126 -0.46395826 1.794
0.16387951 -0.46521649 1.794
0.17771964 -0.46395829 1.794
0.18401058 -0.46395829 1.794
0.03853213 -0.45530823 1.794
0.045609456 -0.45452186 1.794
0.055045903 -0.45452186 1.794
0.064482346 -0.45452186 1.794
0.073918782 -0.45452186 1.794
0.083984315 -0.45389277 1.794
0.13840112 -0.45530826 1.794
0.14626482 -0.45452186 1.794
0.15570126 -0.45491508 1.7939999
0.16461344 -0.45504615 1.794
0.17583235 -0.45452189 1.794
0.18243784 -0.45452186 1.794
0.037221514 -0.44456121 1.794
0.045609463 -0.44553477 1.7939999
0.055045899 -0.44508541 1.794
0.064482339 -0.44508541 1.794
0.073918782 -0.44508541 1.794
0.08020974 -0.44508541 1.794
0.1377271 -0.44553474 1.7939999
0.14581548 -0.4459841 1.7939999
0.16513769 -0.44823089 1.794
0.028309319 -0.43250349 1.794
0.036566205 -0.43525577 1.7939999
0.047182202 -0.43643534 1.794
0.055045903 -0.43564895 1.794
0.064089149 -0.43604213 1.7939999
0.073918782 -0.43564898 1.794
0.083879471 -0.43512473 1.794
0.09593714 -0.43564901 1.794
0.13682838 -0.43407622 1.794
0.14311934 -0.43407625 1.794
0.17771962 -0.43879446 1.794
0.02673658 -0.42621255 1.794
0.036802117 -0.42621255 1.794
0.04686765 -0.42495435 1.794
0.054652713 -0.42621255 1.7939999
0.065381043 -0.42666191 1.7939999
0.073525593 -0.42660573 1.7939999
0.08020974 -0.42621255 1.794
0.01730014 -0.4136306 1.794
0.023276551 -0.41614699 1.794
0.03617302 -0.41992158 1.794
0.04686765 -0.41803426 1.794
0.054731358 -0.41614705 1.794
0.064482339 -0.41677609 1.7939999
0.073020078 -0.41722542 1.7939999
0.08125823 -0.41887307 1.794
0.014941029 -0.40262142 1.794
0.021703813 -0.40482324 1.794
0.0062909601 -0.39161226 1.794
0.012581919 -0.39475775 1.794
0.0047182203 -0.38374853 1.794
0.012581919 -0.38532129 1.794
-0.0038195115 -0.3754355 1.7939999
0.0031454801 -0.37745759 1.794
-0.022692392 -0.36330295 1.7939999
-0.013705306 -0.36240426 1.7939999
-0.0047182203 -0.36599904 1.7939999
-0.024534743 -0.35323745 1.794
-0.014154661 -0.35386652 1.794
-0.19030154 -0.34128457 1.794
-0.04403672 -0.34128457 1.794
-0.035723664 -0.34353134 1.7939999
-0.025163842 -0.34443009 1.7940001
-0.01415466 -0.34443006 1.794
-0.1910879 -0.33499363 1.794
-0.052948911 -0.33289662 1.794
-0.045609459 -0.3349936 1.794
-0.03617302 -0.33499363 1.794
-0.025163839 -0.3349936 1.7940001
-0.015053368 -0.33544299 1.7939999
-0.06133686 -0.32870266 1.794
-0.054652713 -0.32595038 1.7939999
-0.045609459 -0.32555717 1.794
-0.03617302 -0.32555717 1.794
-0.025792938 -0.32618627 1.794
-0.015727401 -0.32870266 1.794
-0.17142867 -0.31612074 1.794
-0.16513769 -0.31612074 1.794
-0.15507217 -0.31486255 1.794
-0.14626481 -0.31297526 1.794
-0.13997386 -0.31297526 1.794
-0.093840159 -0.31402376 1.794
-0.08524251 -0.31360438 1.794
-0.055045899 -0.31612074 1.794
-0.046508167 -0.3165701 1.7939999
-0.035386652 -0.3176935 1.794
-0.02988206 -0.31297526 1.794
-0.16828318 -0.30982977 1.794
-0.15255578 -0.30982977 1.794
-0.14626481 -0.30825701 1.794
-0.1347314 -0.30642214 1.7940001
-0.12456101 -0.30511153 1.794
-0.11525937 -0.30264011 1.7939999
-0.10537358 -0.30196607 1.794
-0.095308043 -0.30448246 1.794
-0.08524251 -0.30479699 1.7940003
-0.074368134 -0.3035388 1.7939999
-0.064482346 -0.3045873 1.794
-0.055045899 -0.30668429 1.794
-0.046395827 -0.30747065 1.794
-0.11391132 -0.29365301 1.7939999
-0.10537358 -0.2941024 1.794
-0.095937148 -0.29410237 1.794
-0.086500704 -0.29567513 1.794
-0.077064261 -0.29724786 1.794
-0.11166454 -0.28781143 1.794
-0.10492422 -0.28556463 1.7939999
-0.09633033 -0.28505912 1.7939999
-0.095038429 -0.27567884 1.7939999
-0.15570126 -0.2123199 1.794
-0.17142867 -0.20602894 1.794
-0.16671044 -0.20760168 1.794
-0.15727401 -0.20917442 1.794
-0.1022281 -0.19659249 1.794
-0.095150776 -0.19344702 1.794
-0.085871607 -0.19093063 1.794
-0.073918782 -0.19187428 1.794
-0.083984315 -0.18652697 1.794
-0.073469423 -0.1849093 1.7939999
-0.06526871 -0.18322422 1.794
-0.063695967 -0.17693326 1.794
-0.055045903 -0.17352565 1.794
-0.045609459 -0.17142867 1.794
-0.042463981 -0.16828318 1.794
-0.03617302 -0.16566195 1.794
-0.026107484 -0.1626213 1.794
-0.023591101 -0.15884674 1.794
-0.014154661 -0.15884674 1.794
-0.0078637004 -0.15412852 1.794
-0.0031454801 -0.14941029 1.794
0.00550459 -0.14626482 1.794
0.014154661 -0.14311934 1.794
0.02201836 -0.14311934 1.794
0.025688088 -0.13997386 1.794
0.03617302 -0.13787687 1.794
0.045609459 -0.13577987 1.794
0.055832267 -0.13446926 1.794
0.064482339 -0.13368289 1.794
0.074547879 -0.13179561 1.794
0.083355218 -0.13053742 1.794
0.089646183 -0.12739193 1.794
0.096723512 -0.12660557 1.794
0.10537358 -0.12319797 1.794
0.11481002 -0.12110098 1.794
0.12424646 -0.12110098 1.794
0.13525563 -0.12110098 1.794
0.14469208 -0.12110098 1.794
0.14783755 -0.1179555 1.794
0.15570126 -0.1179555 1.794
0.16513769 -0.1179555 1.794
0.17457414 -0.1179555 1.794
0.18401058 -0.1179555 1.794
0.195544 -0.11166454 1.794
0.20602894 -0.11166454 1.794
0.23433825 -0.11166454 1.794
0.21703812 -0.10851906 1.794
0.22490181 -0.10694632 1.794
0.23370917 -0.10663177 1.794
0.2437747 -0.10537358 1.794
0.25006565 -0.10537358 1.794
0.24692018 -0.099082619 1.794
0.25545791 -0.097734556 1.7939999
0.2642203 -0.099082619 1.794
0.20760168 0.33813909 1.794
0.21703812 0.33184814 1.794
0.22175634 0.33184814 1.794
0.20665804 0.34631735 1.794
0.21546538 0.34443006 1.794
0.20602894 0.35229376 1.794
0.21389264 0.35072103 1.794
0.19973798 0.36173022 1.794
0.20602894 0.36290976 1.7939999
0.2135781 0.36393204 1.794
0.09204369 -0.4962768 1.8040001
0.12533441 -0.49501157 1.804
0.1340327 -0.4950116 1.804
0.14154483 -0.49580234 1.8040001
0.18714495 -0.4929029 1.8040003
0.20717737 -0.49817461 1.8040001
0.21666642 -0.49636716 1.804
0.22615546 -0.4950116 1.804
0.2352491 -0.49540699 1.804
0.24197052 -0.49501157 1.8040003
0.12493902 -0.48552254 1.804
0.1320558 -0.48631331 1.8040001
0.14075409 -0.48868555 1.8040001
0.1881993 -0.48710406 1.8040001
0.19768833 -0.48235953 1.8040001
0.20559588 -0.48473179 1.8040001
0.21508491 -0.4855226 1.8040003
0.22615544 -0.48552254 1.804
0.23406298 -0.48868555 1.8040001
0.058515746 -0.4728705 1.8040001
0.083819851 -0.47919652 1.8040001
0.12493903 -0.47603348 1.804
0.17554724 -0.47603354 1.8040003
0.18661779 -0.4728705 1.8040001
0.19452532 -0.47603354 1.804
0.20401435 -0.47558165 1.804
0.2150849 -0.47603348 1.8040003
0.22615544 -0.47603348 1.804
0.23248148 -0.47603351 1.8040001
0.085401364 -0.46496293 1.804
0.094495021 -0.46219531 1.804
0.10631239 -0.46373287 1.804
0.11576629 -0.46401405 1.8040001
0.12493902 -0.46496293 1.8040003
0.13284656 -0.46338144 1.8040001
0.16795601 -0.46401405 1.8040001
0.17396574 -0.46496296 1.804
0.1856689 -0.46401405 1.8040001
0.19452535 -0.46496296 1.8040003
0.2035625 -0.4674482 1.804
0.21508491 -0.46812594 1.804
0.2253647 -0.46891671 1.8040001
0.23248148 -0.46970749 1.8040001
0.085401356 -0.45389238 1.804
0.095839307 -0.45357615 1.8040001
0.10596094 -0.45389238 1.804
0.11544999 -0.45389238 1.804
0.12493902 -0.45389244 1.804
0.13397621 -0.45479614 1.804
0.15656915 -0.45152014 1.8040001
0.1660582 -0.45231089 1.8040001
0.17491464 -0.4519946 1.8040001
0.18556345 -0.45283806 1.804
0.2269462 -0.45468318 1.8040001
0.23248148 -0.45389238 1.8040003
0.045863692 -0.44440338 1.8040003
0.085401364 -0.44440338 1.804
0.094746634 -0.44469091 1.8040001
0.10596095 -0.44440335 1.804
0.11544999 -0.44440335 1.804
0.12493903 -0.44440341 1.804
0.13352434 -0.44395158 1.804
0.14470786 -0.44203115 1.8040001
0.15541898 -0.44411582 1.8040001
0.1660582 -0.44440335 1.804
0.17515187 -0.44479877 1.804
0.18503627 -0.44440338 1.804
0.2269462 -0.44282186 1.8040001
0.23327222 -0.44361264 1.8040001
0.036374655 -0.43175131 1.8040001
0.044282183 -0.43491432 1.804
0.084610611 -0.43412358 1.8040001
0.09506613 -0.4342114 1.804
0.10596094 -0.43491432 1.804
0.11544999 -0.43491432 1.804
0.12493903 -0.43491432 1.804
0.13316286 -0.43364912 1.8040001
0.14518231 -0.43364906 1.8040001
0.15498765 -0.43491435 1.8040003
0.1660582 -0.43491432 1.804
0.17554724 -0.43491435 1.804
0.18503626 -0.43491429 1.804
0.21587566 -0.43412355 1.8040001
0.22615544 -0.43536621 1.804
0.23327222 -0.43570507 1.8040001
0.035583902 -0.42621604 1.8040001
0.044282183 -0.4285883 1.8040001
0.077493824 -0.42542529 1.8040001
0.085717663 -0.4260579 1.8040001
0.094890393 -0.42542538 1.8040003
0.10596094 -0.42542529 1.804
0.11544999 -0.42542532 1.804
0.12493902 -0.42542532 1.804
0.13442807 -0.42542526 1.804
0.14391711 -0.42542532 1.804
0.15498766 -0.42542529 1.8040003
0.1660582 -0.42542532 1.804
0.17554724 -0.42542529 1.804
0.18413256 -0.42587712 1.804
0.026885614 -0.41593626 1.8040003
0.03479315 -0.41593626 1.8040003
0.04495997 -0.41548437 1.804
0.056934237 -0.41277325 1.8040001
0.06563253 -0.413564 1.8040001
0.075596012 -0.41467103 1.8040001
0.084215224 -0.41554087 1.804
0.094890393 -0.41593626 1.8040003
0.10556557 -0.41633165 1.804
0.11544999 -0.41593626 1.804
0.12454364 -0.41633162 1.804
0.13482344 -0.41633165 1.804
0.1439171 -0.41593626 1.804
0.15498765 -0.41593626 1.8040003
0.16605818 -0.41593626 1.804
0.17554724 -0.41593626 1.804
0.18398194 -0.41488194 1.804
0.017396573 -0.40012118 1.8040001
0.025078177 -0.40328416 1.804
0.03479315 -0.40486574 1.8040004
0.045863688 -0.40486571 1.8040003
0.055352729 -0.40486565 1.8040003
0.06484177 -0.40486571 1.8040003
0.074330814 -0.40486565 1.8040003
0.083819859 -0.40486571 1.8040003
0.093883984 -0.40644723 1.8040001
0.10437944 -0.40802872 1.8040001
0.11680556 -0.4064472 1.804
0.12465148 -0.40443438 1.8040001
0.13506067 -0.40423307 1.8040001
0.14420466 -0.40472192 1.8040001
0.15498765 -0.40486568 1.8040004
0.1660582 -0.40486571 1.8040003
0.17554724 -0.40486571 1.8040003
0.18503629 -0.40486571 1.8040003
0.017396573 -0.39379516 1.8040003
0.023722598 -0.39379513 1.804
0.03479315 -0.39379516 1.8040003
0.045863692 -0.39379519 1.804
0.055352733 -0.39379516 1.804
0.064841777 -0.39379513 1.804
0.074330807 -0.39379513 1.804
0.083819851 -0.39379513 1.804
0.090145878 -0.39379516 1.8040003
0.118613 -0.39379516 1.8040003
0.12493903 -0.39379513 1.804
0.13442807 -0.39379516 1.804
0.14352173 -0.39419055 1.804
0.15340614 -0.39537668 1.804
0.16526745 -0.3961674 1.8040001
0.17599909 -0.39469886 1.804
0.18503627 -0.39379516 1.804
0.0079075331 -0.38114309 1.8040001
0.015498765 -0.3830409 1.8040001
0.023722598 -0.3843061 1.804
0.03479315 -0.38430607 1.8040003
0.045863688 -0.3843061 1.804
0.055352733 -0.38430607 1.804
0.064314611 -0.38536048 1.804
0.074330807 -0.38588762 1.804
0.084215224 -0.38470149 1.804
0.090145878 -0.38746914 1.8040001
0.118613 -0.3843061 1.8040003
0.12493902 -0.38470149 1.804
0.13352434 -0.38475797 1.804
0.14075409 -0.3843061 1.8040003
0.17871025 -0.38746914 1.8040001
0.18566887 -0.38620394 1.8040001
0.005196379 -0.37391332 1.804
0.014233561 -0.37481704 1.804
0.0237226 -0.37481704 1.804
0.03479315 -0.3748171 1.8040003
0.046259068 -0.37521243 1.804
0.054087527 -0.37608227 1.8040001
0.14075409 -0.37798008 1.8040001
-0.0047445199 -0.36532807 1.8040001
0.0047445199 -0.36532804 1.804
0.013838183 -0.36532801 1.804
0.022141093 -0.36849105 1.8040001
0.034793146 -0.36690956 1.8040001
0.049026705 -0.36849105 1.8040001
0.052189719 -0.36849105 1.8040001
-0.0047445199 -0.35583895 1.804
0.0047445199 -0.35583895 1.804
0.013329842 -0.35629085 1.804
-0.0053771222 -0.34540111 1.8040001
0.0034793145 -0.34761518 1.8040001
-0.011070547 -0.33369792 1.8040003
-0.030048626 -0.32104585 1.8040001
-0.023089999 -0.32231107 1.8040001
-0.014233559 -0.32420886 1.804
-0.17238423 -0.31313831 1.8040001
-0.16447669 -0.31313831 1.8040001
-0.15867783 -0.31261113 1.8040003
-0.042700678 -0.31471983 1.8040003
-0.035425752 -0.3147198 1.8040001
-0.023722598 -0.31471986 1.804
-0.014233561 -0.3147198 1.804
-0.17317498 -0.30602154 1.8040001
-0.16651006 -0.30613452 1.804
-0.15541898 -0.30494323 1.8040001
-0.1439171 -0.30364931 1.804
-0.13442807 -0.30206776 1.8040001
-0.12493902 -0.30206776 1.8040001
-0.071167797 -0.30206776 1.8040001
-0.06484177 -0.30206776 1.8040001
-0.055352733 -0.30206776 1.8040003
-0.045863688 -0.3047789 1.804
-0.03479315 -0.3052308 1.8040003
-0.0237226 -0.3052308 1.804
-0.015498765 -0.30649599 1.8040001
-0.17396575 -0.29416025 1.8040001
-0.16922121 -0.29416025 1.8040001
-0.15815067 -0.29257873 1.8040001
-0.13126506 -0.29890475 1.8040001
-0.12493902 -0.29890475 1.8040003
-0.118613 -0.29732323 1.8040001
-0.083819859 -0.29416022 1.804
-0.073935442 -0.29534638 1.804
-0.064841777 -0.29574174 1.804
-0.055352729 -0.29574174 1.804
-0.045863688 -0.29574171 1.804
-0.03479315 -0.29574171 1.8040003
-0.023722598 -0.29574174 1.804
-0.017396573 -0.29890475 1.8040001
-0.17238423 -0.28941572 1.8040001
-0.090936631 -0.28546196 1.8040001
-0.083819851 -0.28625271 1.804
-0.074330807 -0.28625271 1.804
-0.064841777 -0.28625271 1.804
-0.055748112 -0.28664809 1.804
-0.045863688 -0.28941572 1.8040003
-0.036374655 -0.28941572 1.8040003
-0.17791951 -0.27360064 1.8040001
-0.090145878 -0.27518216 1.8040001
-0.084522747 -0.2757093 1.804
-0.075385146 -0.2762365 1.804
-0.063260265 -0.27992669 1.8040001
-0.18187326 -0.26569313 1.8040001
-0.17765592 -0.26516595 1.8040003
-0.1747565 -0.21113114 1.8040001
-0.16605821 -0.21223819 1.8040001
-0.15973218 -0.21824792 1.8040001
-0.18187326 -0.20717737 1.8040001
-0.17712875 -0.20717737 1.8040001
-0.093308896 -0.19768833 1.8040003
-0.083819844 -0.19452532 1.8040003
-0.064841777 -0.19136231 1.8040003
-0.064209178 -0.18566887 1.8040001
-0.058515746 -0.18345477 1.8040001
-0.055352733 -0.17765592 1.8040003
-0.045863692 -0.17554724 1.8040003
-0.035742052 -0.17301683 1.8040001
-0.025304107 -0.17238423 1.8040001
-0.031630132 -0.16922121 1.8040001
-0.023722598 -0.16763969 1.804
-0.014233559 -0.16289519 1.8040003
-0.003840802 -0.15702102 1.804
0.0047445195 -0.15340614 1.804
0.013442806 -0.15103388 1.8040001
0.022141093 -0.15024313 1.8040001
0.014233559 -0.14708012 1.8040003
0.024513355 -0.14628936 1.8040001
0.035019077 -0.14346524 1.804
0.045863692 -0.14075409 1.8040003
0.055985339 -0.1420193 1.8040001
0.062733091 -0.14180844 1.8040003
0.049026705 -0.13759108 1.8040001
0.053771228 -0.13759108 1.8040001
0.06484177 -0.13759108 1.8040003
0.073540054 -0.13680033 1.8040001
0.083819844 -0.13442807 1.8040003
0.094212614 -0.13262063 1.804
0.12493902 -0.13126506 1.8040001
0.1067517 -0.12731129 1.8040001
0.11544999 -0.12652053 1.804
0.12493902 -0.12652053 1.804
0.13442807 -0.12652053 1.804
0.1439171 -0.12652053 1.804
0.15498765 -0.12335752 1.804
0.1660582 -0.12256677 1.8040001
0.17554724 -0.12177601 1.8040003
0.18503626 -0.12177601 1.8040003
0.19452532 -0.11544999 1.8040003
0.20401436 -0.11544999 1.8040003
0.2157627 -0.11409441 1.804
0.22660731 -0.11454628 1.804
0.23501189 -0.11481738 1.8040001
0.24197052 -0.11228697 1.8040001
0.2388075 -0.10912396 1.8040001
0.24513353 -0.10912397 1.8040003
0.25145957 -0.10912396 1.8040001
0.20401436 0.36849105 1.8040001
0.20591216 0.37418446 1.8040001
0.2119219 0.37323558 1.8040001
0.1881993 0.41593626 1.8040001
0.19549578 -0.49430239 1.813
0.20463482 -0.49469966 1.813
0.2139328 -0.49557391 1.8130001
0.23999889 -0.49271297 1.8130001
0.24726471 -0.49384826 1.813
0.25430346 -0.49430236 1.8130001
0.194966 -0.48582563 1.8130001
0.20423748 -0.48556066 1.8130001
0.23682009 -0.48476601 1.813
0.24635649 -0.48476601 1.813
0.25430346 -0.48476601 1.8130001
0.19549578 -0.47681898 1.8130001
0.20503217 -0.4784084 1.8130001
0.23772833 -0.47522956 1.813
0.24635649 -0.47522959 1.813
0.25589284 -0.47522959 1.813
0.26542923 -0.4736402 1.8130001
0.27178684 -0.4736402 1.8130001
0.20566793 -0.46378595 1.8130001
0.21456856 -0.46410382 1.8130001
0.22455904 -0.46478501 1.813
0.2352307 -0.46569315 1.8129998
0.24635649 -0.46569321 1.813
0.25589287 -0.46569321 1.813
0.26542923 -0.46569321 1.813
0.27178684 -0.46569324 1.8130001
0.19549577 -0.45615685 1.813
0.20503217 -0.45615685 1.813
0.21456856 -0.45615685 1.813
0.22365081 -0.45615679 1.813
0.23727421 -0.45570272 1.813
0.24635649 -0.45615685 1.813
