# .PCD v0.7 - Point Cloud Data file format
VERSION 0.7
FIELDS x y z
SIZE 4 4 4
TYPE F F F
COUNT 1 1 1
WIDTH 1435
HEIGHT 1
VIEWPOINT 0 0 0 1 0 0 0
POINTS 1435
DATA ascii
-0.15585224 0.058923304 0.95866668
-0.2254997 0.062282786 0.95150012
-0.21726482 0.061194312 0.95100003
-0.20481475 0.066418894 0.95100003
-0.19508815 0.060860831 0.95100003
-0.18480571 0.061416641 0.95100009
-0.17475845 0.06188694 0.95100015
-0.1647788 0.063992895 0.95313817
-0.15459377 0.065117463 0.95659453
-0.14763592 0.067140199 0.95866668
-0.21092863 0.070865348 0.95100003
-0.20482667 0.071374431 0.95142871
-0.093992867 0.076169536 0.95899999
0.27879086 -0.30207795 0.96587509
0.28181314 -0.3031705 0.96462506
0.27796054 -0.29489756 0.96589488
0.28210172 -0.2950331 0.96199995
0.27634889 -0.28526518 0.96469265
0.28168002 -0.28927019 0.96200007
0.26873252 -0.270428 0.96700007
0.27518043 -0.27469799 0.96457154
0.26779372 -0.26402891 0.96633339
0.27313265 -0.26493242 0.96437061
0.26701039 -0.25438157 0.96486664
0.27255622 -0.25508404 0.96454185
0.26709828 -0.24504015 0.96456534
0.2726025 -0.24479173 0.96305883
0.26674333 -0.23495854 0.96507174
0.27277952 -0.23477715 0.96333337
0.26691058 -0.22501612 0.96508026
0.2726551 -0.22439174 0.96321058
0.26691061 -0.21486408 0.96508026
0.2735875 -0.21478124 0.96380013
0.26708475 -0.20518008 0.96542877
0.27308151 -0.20631838 0.96479994
0.26703703 -0.19879423 0.96700007
-0.23466232 0.039250996 0.96633339
-0.22634567 0.039278466 0.96700013
-0.21440193 0.037611969 0.96538895
-0.20762987 0.038232069 0.96527284
-0.25008231 0.043234568 0.96700007
-0.24367115 0.045419417 0.9649567
-0.23503461 0.044686452 0.96306902
-0.22443762 0.043917336 0.96260875
-0.21507898 0.043725729 0.96210527
-0.20507532 0.044580642 0.96355557
-0.19496873 0.047172371 0.96335709
-0.18481524 0.048174497 0.96411109
-0.17541844 0.048881989 0.96523088
-0.16746196 0.049476217 0.96475005
-0.15763548 0.049347859 0.96500009
-0.24204242 0.051444549 0.96200007
-0.23866899 0.051444553 0.96200007
-0.1832888 0.052006792 0.96200007
-0.17488492 0.05243738 0.96216661
-0.16501555 0.053290613 0.9637695
-0.15458335 0.054012448 0.96322602
-0.14563625 0.056195337 0.96422607
-0.13616657 0.057429627 0.96575004
-0.14404616 0.064481281 0.96223998
-0.13598731 0.062338967 0.96404773
-0.12885597 0.061884776 0.96700007
-0.10088066 0.068666667 0.96700007
-0.093768857 0.067500852 0.96650004
-0.084012091 0.065797158 0.96637529
-0.075413875 0.064519897 0.96657163
-0.068666667 0.066971198 0.96700007
-0.11342289 0.076272689 0.96599996
-0.10476243 0.074733339 0.96552986
-0.095286407 0.073093489 0.96460015
-0.08592853 0.071955055 0.96413326
-0.12122634 0.087316871 0.96700007
-0.11468134 0.085057251 0.96540666
-0.10522269 0.084104493 0.96356279
-0.12122633 0.094098769 0.96700013
-0.11564842 0.093419597 0.96628028
-0.10766255 0.091676667 0.96700007
-0.12224363 0.10325432 0.96700013
-0.11953087 0.10257614 0.96700007
0.28122064 -0.3215175 0.97800004
0.27652171 -0.31392157 0.97688895
0.28157485 -0.31539011 0.97457141
0.26924625 -0.30343625 0.97500002
0.27426243 -0.30500785 0.97397304
0.28147137 -0.3086831 0.97000003
0.26832882 -0.29486477 0.97633344
0.27310047 -0.29503 0.97213626
0.26630473 -0.28485084 0.97507703
0.27182454 -0.28517497 0.972
0.26579216 -0.27495462 0.97375757
0.27190474 -0.27573138 0.97000015
0.25892878 -0.2615009 0.97800004
0.26431993 -0.26485285 0.97337919
0.25833443 -0.2547884 0.97714293
0.26294288 -0.25515887 0.97286952
0.25826645 -0.24458341 0.97550005
0.26265219 -0.24517252 0.97274995
0.25833365 -0.23434725 0.97714287
0.26195827 -0.23525053 0.97227764
0.25797322 -0.22519253 0.97719991
0.26253805 -0.22524197 0.9727391
0.25823122 -0.21410505 0.97661549
0.26245052 -0.21461596 0.97286361
0.25677073 -0.20444438 0.97535008
0.26234135 -0.20512867 0.97204763
0.2729677 -0.20267074 0.97000003
0.25711474 -0.19525167 0.97623807
0.26340514 -0.19513215 0.97199976
0.25668985 -0.18508682 0.97643495
0.26156488 -0.18683214 0.97425002
0.25585535 -0.17771068 0.97740012
-0.2615009 0.028293541 0.97800004
-0.25525498 0.0279362 0.97561115
-0.2451847 0.02802985 0.97521037
-0.23566915 0.028579919 0.97613335
-0.22502361 0.028353099 0.97643745
-0.21522464 0.028660508 0.97500014
-0.20941375 0.029916249 0.97500002
-0.25358024 0.034994863 0.97142857
-0.24526553 0.035625409 0.97094268
-0.23524141 0.034379963 0.97115362
-0.22473672 0.034535497 0.97144419
-0.21529554 0.032976802 0.97120005
-0.20479405 0.034653179 0.97406894
-0.19551381 0.035961248 0.97573936
-0.18498845 0.036170874 0.97609115
-0.17490304 0.036913443 0.97658819
-0.16604592 0.038296308 0.9780001
-0.2529521 0.040879406 0.97150004
-0.24830706 0.041667968 0.97000003
-0.20184726 0.040879406 0.97150004
-0.19498295 0.042428989 0.97124988
-0.18537274 0.042758707 0.97199994
-0.17518151 0.043221328 0.97293538
-0.1649325 0.044300411 0.9730292
-0.15518123 0.044997659 0.97451609
-0.14573276 0.046964839 0.97617656
-0.13543032 0.048000786 0.97775
-0.12517747 0.048870657 0.9780001
-0.083408877 0.048468791 0.97680008
-0.075480126 0.047410313 0.97620004
-0.065310791 0.047780827 0.97730762
-0.057873145 0.047155898 0.9780001
-0.1505149 0.050171632 0.97000003
-0.14375748 0.051170316 0.97136378
-0.13434096 0.053410079 0.97285187
-0.12466329 0.054644972 0.97399986
-0.11534769 0.05527848 0.97610021
-0.10469049 0.05725231 0.97647071
-0.094242476 0.055772666 0.97508341
-0.085142478 0.054847565 0.97405881
-0.075134061 0.054640215 0.97391671
-0.064968184 0.054709636 0.97513896
-0.057254404 0.05508839 0.97784215
-0.048013277 0.057444461 0.97800004
-0.13010611 0.060376033 0.97000003
-0.12424742 0.061390903 0.97381818
-0.11404072 0.06492319 0.97570997
-0.10496356 0.064630263 0.97231042
-0.095918536 0.063140191 0.97112495
-0.086545117 0.061856434 0.97100013
-0.072848074 0.061509863 0.97000015
-0.065092579 0.062846079 0.97236353
-0.057103544 0.061809279 0.97587496
-0.13050848 0.079328686 0.97300005
-0.12426598 0.076294467 0.97408694
-0.11633475 0.073764242 0.97111779
-0.10884693 0.07058043 0.97000003
-0.13356102 0.086007401 0.97469586
-0.12568547 0.084956892 0.97233307
-0.11905133 0.081635199 0.97000003
-0.13353588 0.094234288 0.97673684
-0.12588902 0.095563993 0.97155982
-0.11401624 0.098694652 0.97115386
-0.10672876 0.095789723 0.97266674
-0.13201176 0.10375329 0.97675008
-0.12643617 0.10458562 0.97176474
-0.11511447 0.1014768 0.9727143
-0.10684375 0.10086051 0.97499996
-0.13117914 0.11060202 0.97800004
-0.12946437 0.11060202 0.97800004
0.27644062 -0.33276862 0.9885
0.28086033 -0.33284175 0.98820001
0.26964426 -0.32253265 0.98900002
0.27533689 -0.32490379 0.98648268
0.28183153 -0.32730123 0.98657143
0.26870272 -0.31430399 0.98766667
0.27227008 -0.31571278 0.98362511
0.26804516 -0.3048175 0.98393756
0.26437166 -0.29502335 0.98539144
0.25923997 -0.28351662 0.98900002
0.26224762 -0.28520375 0.98542869
0.2592217 -0.27394822 0.98783332
0.2616832 -0.27523863 0.98515403
0.25745454 -0.26447749 0.98550016
0.26092702 -0.26711911 0.98100007
0.25421306 -0.25408292 0.98530775
0.254527 -0.24486764 0.98651737
0.25419885 -0.23518418 0.98617256
0.2488357 -0.22542606 0.98900002
0.25347707 -0.22463819 0.98521215
0.2488357 -0.21588881 0.98900002
0.25379899 -0.21506022 0.98545456
0.24834025 -0.20424592 0.98899996
0.25233942 -0.20502883 0.98454547
0.24777299 -0.19533704 0.98790914
0.25227985 -0.19498616 0.98366672
0.2472807 -0.1852439 0.98833346
0.25167394 -0.1847185 0.98360872
0.2480475 -0.1755328 0.98900008
0.25384992 -0.17442322 0.98540008
0.2488357 -0.16646847 0.98900002
0.25217491 -0.16746679 0.98849994
-0.25143677 0.0095372563 0.98900002
-0.2453676 0.0095372563 0.98900002
-0.27186486 0.017333746 0.98866671
-0.26498482 0.017018436 0.98725015
-0.25469241 0.015571888 0.98705548
-0.24471258 0.015542772 0.98519981
-0.2355352 0.01613191 0.98554826
-0.22477709 0.017864661 0.98616672
-0.21615912 0.018537058 0.98813349
-0.26434532 0.02377025 0.98294121
-0.25475886 0.023236707 0.98175007
-0.24485715 0.023097409 0.98100001
-0.23529875 0.023822276 0.98100013
-0.22558911 0.023514247 0.98133332
-0.21464606 0.023758983 0.98404562
-0.20494752 0.025898281 0.98642856
-0.19536139 0.026068371 0.98699999
-0.18519913 0.026207989 0.98759097
-0.17549187 0.027198233 0.98806679
-0.16733551 0.02861177 0.98900002
-0.20230661 0.030704373 0.98200005
-0.19437127 0.031368386 0.98228568
-0.18441516 0.031308834 0.98300004
-0.17485541 0.032015137 0.9841668
-0.16485205 0.033901356 0.98453569
-0.15500227 0.035422496 0.98565382
-0.14594041 0.036927272 0.98689491
-0.13511889 0.038109574 0.98800009
-0.12745243 0.039016049 0.98900002
-0.054374751 0.038520608 0.98899996
-0.046299048 0.038669243 0.98900002
-0.15365513 0.041280478 0.98100001
-0.14418325 0.042517666 0.98276484
-0.13477662 0.043021418 0.9841305
-0.12519179 0.044089478 0.9848929
-0.11560852 0.046240076 0.986
-0.10579589 0.048447229 0.98845464
-0.071599118 0.045719918 0.98400003
-0.064133957 0.044426311 0.98600006
-0.053794131 0.044247929 0.98482615
-0.044743773 0.044744547 0.98605883
-0.036273003 0.046259068 0.98852396
-0.02861177 0.049420331 0.98900002
-0.11169715 0.052835651 0.98159999
-0.10500933 0.05255682 0.98487508
-0.097005218 0.052096501 0.98499995
-0.052359432 0.054787699 0.98100001
-0.045161258 0.053407542 0.98178941
-0.034581918 0.052742366 0.98627788
-0.027357135 0.052856863 0.98842859
-0.11885338 0.06587676 0.98100007
-0.12571838 0.073696986 0.98900002
-0.14069608 0.095472686 0.98460007
-0.13792245 0.09618108 0.98175007
-0.14261541 0.10491347 0.98776937
-0.13716035 0.10579321 0.98466671
-0.14394146 0.11341953 0.98844463
-0.13520983 0.11542975 0.98559254
-0.12855439 0.11453424 0.9822858
-0.13459751 0.12300415 0.98670006
0.27664763 -0.35189015 0.99800003
0.27615768 -0.34301752 0.99687499
0.28042507 -0.34419906 0.99650002
0.27358189 -0.33558032 0.99539137
0.26840648 -0.32439443 0.99469995
0.27129871 -0.3284542 0.99380004
0.26690152 -0.31496435 0.99559999
0.26441115 -0.30497238 0.99542844
0.25889796 -0.29426172 0.99733341
0.26124567 -0.29581484 0.99285716
0.25701991 -0.28453156 0.99620008
0.26002634 -0.28542021 0.99199998
0.25613877 -0.27468839 0.99550027
0.25370866 -0.26555878 0.99630445
0.24842091 -0.25503811 0.99628574
0.25159067 -0.25707588 0.995
0.24790725 -0.24483424 0.99557149
0.25132981 -0.24350293 0.99200004
0.2468227 -0.23518835 0.9956668
0.25083756 -0.238644 0.99350005
0.24529274 -0.22473738 0.99499995
0.24533114 -0.21472169 0.99500018
0.24396178 -0.20506465 0.99538726
0.23885134 -0.19335584 0.99800003
0.2435749 -0.19510125 0.99510729
0.23885132 -0.18548162 0.99800009
0.24289313 -0.18476546 0.9946667
0.23885134 -0.17848232 0.99800003
0.24339546 -0.17449664 0.99490011
0.23835137 -0.16285886 0.99800009
0.24421266 -0.16484411 0.99491197
0.25216118 -0.16568796 0.99300003
0.23850138 -0.15625951 0.99800003
0.24361575 -0.1566256 0.99752629
0.2360516 -0.14506063 0.99800003
-0.27457362 0.0078598429 0.99640006
-0.26449087 0.0062315082 0.99522245
-0.25555527 0.0056800283 0.99464005
-0.24521869 0.0066478723 0.995
-0.23525962 0.008662614 0.99592304
-0.22474019 0.0077586034 0.99658823
-0.21733344 0.008526789 0.99762511
-0.27479467 0.013060204 0.99328566
-0.26524428 0.012078519 0.99200004
-0.23289429 0.012406039 0.99312502
-0.22472405 0.012952544 0.99288225
-0.21380462 0.014277508 0.9936958
-0.20506234 0.015948089 0.99626321
-0.1954634 0.016805096 0.99593753
-0.18541029 0.017928818 0.99762505
-0.17644085 0.018081544 0.99800009
-0.21022028 0.020062517 0.99500006
-0.20519668 0.021171646 0.99250001
-0.19460198 0.021086328 0.99269223
-0.18446909 0.021297742 0.99457133
-0.17425722 0.022453545 0.995682
-0.16494663 0.025380528 0.99552172
-0.15522832 0.027180221 0.99641174
-0.14651176 0.027230617 0.99707693
-0.16175553 0.030437866 0.99200004
-0.15424211 0.03069949 0.9924286
-0.14408581 0.032521836 0.99421048
-0.1352257 0.033633564 0.99516654
-0.12538289 0.036295146 0.99530011
-0.11631168 0.037813205 0.99650002
-0.10673942 0.039371099 0.99800003
-0.051309545 0.037395094 0.99200004
-0.043800022 0.037419055 0.99266666
-0.034370672 0.036832038 0.99609083
-0.026232935 0.036437046 0.99750012
-0.01837318 0.039371099 0.99800003
-0.12088181 0.040873706 0.99200004
-0.11339603 0.042396989 0.99374992
-0.10430186 0.044207849 0.99512017
-0.095744088 0.047215864 0.99739993
-0.086616419 0.048120234 0.99799997
-0.061929483 0.041866973 0.995
-0.032576934 0.043609023 0.99359989
-0.024270691 0.045179192 0.99388593
-0.016280061 0.046484534 0.99605888
-0.008749133 0.049870059 0.99800003
-0.022238279 0.052054968 0.99200004
-0.017699607 0.051941037 0.99300003
-0.13036208 0.068243235 0.99800003
-0.12603472 0.067079157 0.99569225
-0.13036208 0.070867978 0.99800003
-0.12579948 0.07134299 0.99650007
-0.1476666 0.10704087 0.995
-0.15143697 0.11615781 0.99620008
-0.14684179 0.1161725 0.99292302
-0.14410545 0.12469807 0.99524003
-0.13731495 0.12861314 0.99260008
-0.14255039 0.13205518 0.99757147
-0.13771753 0.13248777 0.99425006
0.27484018 -0.35378581 1.0040001
0.26925501 -0.34252769 1.0070001
0.27280813 -0.3457481 1.0032002
0.26763228 -0.33511668 1.0049
0.2711609 -0.33960927 1.001
0.26641458 -0.32495239 1.0045294
0.26327106 -0.31494522 1.0040001
0.25767362 -0.30441105 1.0058333
0.26145318 -0.3065787 1.0026668
0.25559509 -0.29470983 1.0038333
0.24983335 -0.28161427 1.0070001
0.25325057 -0.28528103 1.004375
0.2488278 -0.27561286 1.0061818
0.25198892 -0.27592596 1.0026155
0.24798374 -0.26481238 1.0053636
0.25009984 -0.26589566 1.001
0.24529508 -0.2543003 1.0045
0.23923971 -0.2410053 1.0070001
0.24332519 -0.24508946 1.0043159
0.23923971 -0.23482569 1.0070001
0.24210885 -0.23529147 1.0038126
0.23873524 -0.22435816 1.0070001
0.24116664 -0.22532217 1.0039999
0.23747036 -0.21490975 1.0055001
0.24102591 -0.2159811 1.0025001
0.23738873 -0.20479545 1.0037391
0.23649141 -0.19523865 1.0045768
0.23481213 -0.18484642 1.0046999
0.23562041 -0.17499657 1.0048823
0.2350278 -0.16532861 1.0035384
0.22864605 -0.15095937 1.0070001
0.23435695 -0.15422505 1.0029713
0.24272847 -0.15111296 1.001
0.22864605 -0.14742815 1.0070001
0.23339011 -0.14524476 1.0031923
0.24132441 -0.14830482 1.001
0.23312145 -0.13708806 1.006
-0.29044229 -0.0052968198 1.0070001
-0.28423667 -0.0040909657 1.0057727
-0.27555537 -0.0040853 1.0058889
-0.26459524 -0.0038464947 1.0045453
-0.25533676 -0.003774822 1.00532
-0.24538213 -0.0038686285 1.0057307
-0.23531456 -0.0029582859 1.0057648
-0.22590245 -0.002293535 1.0058
-0.21981803 -0.00088280335 1.0070001
-0.28319874 0.0030786339 1.00375
-0.27563035 0.0029440532 1.0022353
-0.26729971 0.0012285607 1.001
-0.25369388 0.0014628645 1.0013335
-0.24412081 0.0022835413 1.0024002
-0.2351336 0.003672715 1.0024998
-0.22501832 0.0025321746 1.0024118
-0.21525736 0.0058928221 1.00385
-0.20496155 0.0078362646 1.0064707
-0.19600831 0.0087451478 1.0067273
-0.18671291 0.0097108362 1.0070001
-0.21148795 0.011408064 1.001
-0.20485762 0.011993092 1.001
-0.19472875 0.012679542 1.0025001
-0.18532616 0.013781367 1.0037142
-0.17516319 0.014688243 1.0035501
-0.16574435 0.016749592 1.0056666
-0.15625618 0.017575812 1.0070001
-0.16384637 0.021073138 1.0016
-0.15470392 0.021972775 1.0026667
-0.14439309 0.023575781 1.0040001
-0.13588026 0.026963811 1.0052
-0.12624086 0.028691111 1.0070001
-0.11741284 0.02913251 1.0070001
-0.13309833 0.031120265 1.0028001
-0.12401763 0.032000694 1.0033076
-0.11445072 0.033761311 1.0038421
-0.10477544 0.034983013 1.0031427
-0.095827967 0.036656026 1.0036249
-0.087015592 0.039098162 1.006
-0.078569494 0.039726149 1.0070001
-0.022473197 0.033838611 1.0018824
-0.015037631 0.036404502 1.0035714
-0.0054957401 0.03737969 1.005
0.0032902097 0.03811029 1.0067273
-0.10091748 0.041244537 1.001
-0.093129292 0.043438394 1.0010002
-0.084627964 0.043862414 1.0033478
-0.07499288 0.043231238 1.0064
-0.067828953 0.042407122 1.0048572
-0.013028143 0.044214681 1.0010002
-0.0052678897 0.044798188 1.002
0.004004614 0.044738129 1.0042726
-0.014918237 0.051775057 1.001
-0.15433347 0.12664559 1.0048571
-0.14830482 0.12812133 1.001
-0.15210535 0.13393064 1.0064
-0.14620744 0.13594021 1.0040001
-0.15095937 0.14301413 1.0070001
-0.14683962 0.14301413 1.0070001
0.26889032 -0.37787578 1.0190001
0.27067697 -0.37608913 1.0190001
0.26855227 -0.36265436 1.0184
0.2721155 -0.36409825 1.014091
0.26669049 -0.35413221 1.0168751
0.27132991 -0.35557389 1.0105456
0.25995708 -0.3403562 1.0190001
0.26503435 -0.34491447 1.0156667
0.27049989 -0.348418 1.01
0.25899297 -0.33438179 1.0183333
0.26301259 -0.334741 1.0125501
0.25803402 -0.32513621 1.0173846
0.2621161 -0.32551262 1.011737
0.25658712 -0.31520438 1.0143044
0.26135695 -0.31805834 1.0106001
0.24923721 -0.30194327 1.0190001
0.25304365 -0.30484161 1.0140436
0.24898197 -0.29415864 1.0190001
0.25173485 -0.29499099 1.0130001
0.24711561 -0.28414461 1.0152001
0.25087324 -0.28739938 1.0112
0.24560924 -0.27466595 1.0145003
0.23851733 -0.26174372 1.0190001
0.24359843 -0.2649433 1.0141541
0.23834431 -0.25413772 1.0166428
0.24188867 -0.25622255 1.0118463
0.23749089 -0.24484788 1.0139548
0.2417233 -0.24792133 1.01
0.23512918 -0.23495768 1.0147002
0.2295841 -0.22065087 1.0190001
0.23418601 -0.22548495 1.0137002
0.22897707 -0.21443617 1.0185715
0.23242939 -0.21493968 1.0121429
0.22811477 -0.20478259 1.0181428
0.23254716 -0.20567435 1.0122858
0.2265517 -0.19442563 1.0180001
0.23117508 -0.19549136 1.0113127
0.22597088 -0.18505587 1.0148463
0.23103 -0.18730743 1.011
0.22570476 -0.17485742 1.0130858
0.2310981 -0.17443037 1.01
0.22573654 -0.16481653 1.0143718
0.2310981 -0.1646906 1.0100001
0.21841756 -0.15231162 1.0190001
0.22492027 -0.15520664 1.0154326
0.2310981 -0.15849257 1.01
0.21814957 -0.14543304 1.0190001
0.22461346 -0.14490825 1.0140834
0.2310981 -0.14078391 1.01
0.21886423 -0.13489182 1.0190001
0.22478974 -0.13520536 1.014154
0.23078676 -0.13431761 1.0108572
0.21886422 -0.12506527 1.0190001
0.22407591 -0.12591743 1.0165558
0.23000841 -0.12876919 1.013
0.21886422 -0.11613204 1.0190001
-0.29410082 -0.021937268 1.0183572
-0.28447443 -0.022188185 1.0181428
-0.27547857 -0.022221418 1.0190001
-0.26531705 -0.021340502 1.0190001
-0.25727713 -0.020993099 1.0190001
-0.30104995 -0.017866466 1.0190001
-0.29470992 -0.01529407 1.0161252
-0.28485924 -0.015310672 1.0142859
-0.27522114 -0.015145592 1.0160003
-0.26513603 -0.014956462 1.0161074
-0.25512445 -0.015282689 1.0169313
-0.24494302 -0.014907213 1.0170716
-0.23522446 -0.013492878 1.0179412
-0.22668079 -0.012283196 1.0190001
-0.29200786 -0.0090429913 1.0112
-0.28738198 -0.0084789945 1.0104285
-0.27445126 -0.0089479778 1.0113637
-0.26540196 -0.0089623583 1.011
-0.25538442 -0.0091526918 1.0103334
-0.24445088 -0.0090343142 1.0103
-0.23488325 -0.0080883214 1.0123334
-0.2239164 -0.0071183145 1.0142502
-0.21590775 -0.0035259952 1.0167143
-0.20622638 -0.0022965532 1.0183572
-0.21364124 0.0023866913 1.0118463
-0.20517558 0.0026606312 1.0131766
-0.19491042 0.004275504 1.0135455
-0.18481484 0.0057941703 1.01492
-0.17517611 0.0066035977 1.0168278
-0.16520616 0.0076004933 1.0167059
-0.15766442 0.0092213638 1.018
-0.17354494 0.011510633 1.01
-0.16453798 0.012613549 1.0111541
-0.15428978 0.013614402 1.0142634
-0.1454006 0.01568535 1.0161158
-0.13547248 0.016733132 1.0166668
-0.12626487 0.018069087 1.0178751
-0.14255476 0.020807683 1.01
-0.13402557 0.022153622 1.0108825
-0.12440761 0.023628926 1.0123335
-0.11524663 0.025433959 1.0146801
-0.10534125 0.026726134 1.0149567
-0.095277123 0.027754974 1.017
-0.086076833 0.028989613 1.0175
-0.078612454 0.029479669 1.0190001
-0.014451412 0.028681464 1.0145
-0.0050715171 0.027643412 1.0133531
0.0051633921 0.026435111 1.0146803
0.013581418 0.028052066 1.0176667
-0.11245003 0.030990167 1.01
-0.1035957 0.030990167 1.01
-0.093503192 0.032616783 1.0105456
-0.084687784 0.034710713 1.0119002
-0.074879855 0.03512916 1.0130938
-0.065782204 0.036686882 1.0135558
-0.059141397 0.037741963 1.0170001
-0.014403086 0.031688761 1.0111251
-0.0050209626 0.032419134 1.0104002
0.0062097106 0.034236118 1.0118003
0.015117592 0.035561979 1.0142003
0.022714484 0.036139343 1.0172353
0.0093855942 0.04374041 1.01
0.014791412 0.044077918 1.0123335
0.022414126 0.042159975 1.0136667
-0.16078994 0.13545351 1.0117142
-0.15654801 0.13623472 1.0104002
-0.16309303 0.14578965 1.0183077
-0.15588714 0.14498223 1.0140436
-0.14904796 0.14727707 1.01
-0.16322292 0.15224782 1.0190001
-0.15488468 0.15493424 1.0170592
-0.14874579 0.15052718 1.016
-0.15443251 0.16201918 1.01825
0.26315427 -0.39022538 1.028
0.2655459 -0.38404801 1.0259376
0.26644048 -0.37442341 1.0245713
0.27219063 -0.37217903 1.0220001
0.2591694 -0.36085922 1.0265
0.26372027 -0.36497822 1.0239199
0.2588895 -0.354922 1.0263637
0.26191702 -0.35479751 1.0220002
0.25788987 -0.34535375 1.0250001
0.26072243 -0.34583798 1.0220001
0.25629187 -0.33546907 1.0250001
0.25460541 -0.32516187 1.0247999
0.2496361 -0.31272101 1.028
0.25258091 -0.31505647 1.0247693
0.24785346 -0.30409893 1.0237502
0.2517629 -0.30910391 1.0220001
0.24595638 -0.29500693 1.0246999
0.24320547 -0.28506812 1.0232002
0.2391974 -0.2715714 1.02575
0.24196674 -0.27623093 1.0243078
0.2371788 -0.26469564 1.0248126
0.24101144 -0.26878601 1.0220001
0.23503014 -0.25544319 1.0253528
0.2298094 -0.24152517 1.028
0.23330909 -0.24556777 1.0242941
0.22857288 -0.23487346 1.0265
0.23080567 -0.23567392 1.0232859
0.22801104 -0.22469197 1.0261538
0.23026 -0.22578025 1.0220001
0.22613968 -0.21536106 1.0250001
0.22358656 -0.20537519 1.0242857
0.21871945 -0.19300582 1.0267143
0.22205521 -0.19620626 1.0230589
0.21899483 -0.18474874 1.028
0.22137234 -0.18438719 1.024
0.21790084 -0.17342301 1.0271
0.22107799 -0.17556964 1.0246667
0.21700582 -0.16461769 1.0247598
0.22130047 -0.16575137 1.0220001
0.21529825 -0.15513372 1.0243748
0.21444684 -0.14476253 1.0239091
0.20998271 -0.13157713 1.028
0.21432407 -0.13513961 1.0238888
0.20998271 -0.12526865 1.028
0.21459067 -0.12526959 1.0232856
0.22219643 -0.1209537 1.0220001
0.20926175 -0.11481458 1.028
0.21429797 -0.11477216 1.0227998
0.22201721 -0.11772827 1.0220001
0.20902023 -0.10541014 1.0276999
0.21258815 -0.10674258 1.0232
-0.30010405 -0.03244368 1.028
-0.29469675 -0.03244368 1.028
-0.28488356 -0.032143276 1.028
-0.27487007 -0.031542465 1.028
-0.26045066 -0.031542465 1.028
-0.3109186 -0.027036399 1.028
-0.30398124 -0.025635814 1.025875
-0.29452586 -0.027431829 1.0248234
-0.2850821 -0.027724376 1.0239412
-0.2749894 -0.027270978 1.0242105
-0.26530662 -0.026798503 1.0256
-0.25508696 -0.025460739 1.0247999
-0.24546094 -0.024496609 1.0249032
-0.23567189 -0.022599347 1.0265
-0.22845757 -0.021178514 1.028
-0.30372816 -0.01881502 1.0220001
-0.24190739 -0.01881502 1.0220001
-0.23416342 -0.017783551 1.02275
-0.22427073 -0.016220888 1.0252606
-0.21680948 -0.012956433 1.0262001
-0.2090815 -0.011715773 1.028
-0.21409985 -0.0082015293 1.0230715
-0.20451923 -0.0073937229 1.0234286
-0.19530576 -0.0048752492 1.0240908
-0.18532801 -0.0034351386 1.0248636
-0.1750295 -0.0019475882 1.0247501
-0.16762567 -0.00090121332 1.028
-0.19352591 0.00089595333 1.0220001
-0.18456638 0.00089595333 1.0220002
-0.17394294 0.0014079268 1.0220002
-0.16476326 0.0026954408 1.0257059
-0.15444317 0.0055373181 1.0252498
-0.145548 0.0070676855 1.0251303
-0.13664643 0.0085850367 1.026091
-0.14335254 0.011647393 1.0220001
-0.13396199 0.012637707 1.0230911
-0.12538895 0.015270093 1.0247858
-0.11560185 0.017595766 1.025643
-0.10481051 0.018081091 1.0266362
-0.098232254 0.018925481 1.028
0.01622184 0.018925481 1.028
0.020667417 0.018870249 1.0250001
-0.11306433 0.021383528 1.0224286
-0.1043148 0.021937625 1.0233636
-0.095092595 0.022930462 1.0248421
-0.08493828 0.024948373 1.0246665
-0.075207971 0.027227219 1.024
-0.065299384 0.028241288 1.0259999
-0.054909844 0.028804112 1.0267999
-0.047764305 0.029740041 1.028
0.0094351256 0.022461955 1.0250001
0.015943646 0.023806673 1.0239999
0.025170706 0.025165593 1.0253332
0.034098964 0.026035752 1.027842
-0.062677667 0.032384556 1.0230001
-0.054796487 0.034135643 1.0246999
-0.046901476 0.034180548 1.0260713
0.027438615 0.034131207 1.0228002
0.035069682 0.035062738 1.0255998
0.040554598 0.036048532 1.028
0.028670507 0.0403179 1.0220001
0.035048954 0.040436249 1.0250001
0.043708846 0.044610061 1.028
-0.16664732 0.14604039 1.0220001
-0.17032932 0.15951476 1.028
-0.16428566 0.15746906 1.0229001
-0.16364823 0.16412255 1.0259473
-0.15774029 0.16635618 1.0235001
-0.16275913 0.1732132 1.028
-0.15951476 0.17213175 1.028
0.25934431 -0.39311135 1.0380001
0.26101771 -0.39288515 1.0322858
0.25823793 -0.38508639 1.036
0.26169011 -0.38484624 1.032059
0.25764617 -0.373974 1.0366668
0.26114684 -0.37556157 1.0322858
0.25631273 -0.36496666 1.0351365
0.26121071 -0.36967191 1.031
0.25489333 -0.35524738 1.0340871
0.24842454 -0.34124249 1.0380001
0.2532008 -0.3452127 1.0335456
0.2487172 -0.33533663 1.035091
0.25231797 -0.33552206 1.0316001
0.24707739 -0.32503507 1.0353335
0.25147697 -0.32559222 1.031
0.24609241 -0.31489405 1.0346925
0.25066587 -0.31544134 1.031
0.2437311 -0.30444187 1.0335501
0.23914027 -0.29551837 1.0372001
0.24178861 -0.29451543 1.0325001
0.23683271 -0.2841239 1.0335716
0.24110404 -0.28451481 1.0316001
0.2369988 -0.27554333 1.0331668
0.2329704 -0.26461485 1.0345001
0.22831148 -0.2533561 1.0366666
0.23137829 -0.25519732 1.0325387
0.22685032 -0.24470535 1.0344212
0.23048003 -0.24674922 1.031
0.2242846 -0.23421182 1.0332611
0.22342567 -0.22524174 1.0335835
0.21930517 -0.21111536 1.0380001
0.22204891 -0.21513641 1.0343752
0.21737964 -0.20407505 1.0352002
0.2210184 -0.20743182 1.0332501
0.21555752 -0.19480333 1.0335456
0.20838542 -0.18108602 1.0380001
0.2140822 -0.18497273 1.0332144
0.20852709 -0.17438057 1.036
0.21387301 -0.17595731 1.0317309
0.20707838 -0.16448987 1.0348423
0.21195126 -0.16585527 1.031
0.20545699 -0.15474379 1.034345
0.21131857 -0.15618414 1.031
0.20642263 -0.14524402 1.0345002
0.21104741 -0.1448409 1.031
0.20674069 -0.13465711 1.0343502
0.21059549 -0.13648035 1.031
0.2055984 -0.12452382 1.0331725
0.19928561 -0.11465748 1.0380001
0.20399554 -0.11497388 1.0338891
0.19928561 -0.10373772 1.0380001
0.2041955 -0.10481904 1.0337002
0.19928561 -0.09736786 1.0380001
0.20405836 -0.095638566 1.0349169
0.19600104 -0.078462251 1.0366668
-0.32577282 -0.05277884 1.0380001
-0.31030318 -0.040949099 1.0380001
-0.30614328 -0.041729085 1.0380001
-0.2911936 -0.040949099 1.0380001
-0.28510541 -0.041740444 1.0375557
-0.27416396 -0.041209098 1.0380001
-0.26480418 -0.040949099 1.0380001
-0.31232622 -0.035478994 1.0376668
-0.30467197 -0.03539608 1.0327145
-0.29499039 -0.037136167 1.0331178
-0.28458801 -0.03665036 1.0322001
-0.2747457 -0.035878763 1.0331305
-0.26491135 -0.035650153 1.0324233
-0.25526768 -0.034789708 1.0336925
-0.24537681 -0.033339851 1.0347501
-0.23436904 -0.031633444 1.0375557
-0.22704002 -0.03048433 1.0380001
-0.3113758 -0.029870223 1.0325
-0.30549905 -0.029826829 1.031
-0.24349539 -0.029465292 1.031
-0.23493375 -0.027831689 1.0318824
-0.22484733 -0.024817942 1.0330402
-0.21737126 -0.021687761 1.0355556
-0.21422057 -0.01671616 1.0330456
-0.20482171 -0.01450515 1.0338001
-0.19511402 -0.013992477 1.0346843
-0.1865816 -0.013122424 1.0354546
-0.17835608 -0.01000978 1.0380001
-0.19342248 -0.0099422764 1.031
-0.18387948 -0.008697073 1.0316924
-0.17459683 -0.0061485502 1.0343336
-0.16463047 -0.0039614569 1.0344093
-0.15542611 -0.0027251479 1.0352001
-0.14894742 -0.00090822665 1.036
-0.15546106 0.00090384338 1.031
-0.14379007 0.0021122554 1.0337502
-0.13429311 0.0048136846 1.0339475
-0.12490416 0.0069040214 1.0347694
-0.11545262 0.0071202866 1.0370001
-0.10898545 0.0090805134 1.036
-0.12314865 0.012427846 1.031
-0.1147315 0.012687997 1.0341113
-0.10508018 0.013265043 1.0341367
-0.094737023 0.015507686 1.0357918
-0.085375905 0.01655372 1.035524
-0.075666055 0.01811018 1.0376365
-0.066428542 0.019109581 1.0380001
-0.091288179 0.020788396 1.031
-0.084086701 0.021247879 1.0313751
-0.074390613 0.022250867 1.0330716
-0.064646579 0.023297986 1.0342501
-0.055483196 0.02439188 1.0354376
-0.044475231 0.026863519 1.0354002
-0.035354134 0.026741914 1.0364349
0.0081345895 0.020788396 1.031
0.038563985 0.026512736 1.031
0.044953197 0.026659235 1.0354816
0.050048899 0.024569459 1.0380001
-0.042514451 0.033212516 1.0318573
-0.035355426 0.032566141 1.0341539
-0.02727047 0.030453647 1.0370001
0.045794748 0.03500621 1.0323201
0.051128954 0.037215669 1.0353333
0.045565698 0.042997211 1.0325834
-0.17263408 0.15998027 1.031
-0.17401212 0.16628653 1.0335264
-0.16841614 0.16690974 1.031
-0.17440601 0.17485748 1.0356002
-0.1661756 0.17476396 1.0313001
-0.15998027 0.17444175 1.031
-0.17132346 0.1803882 1.034
-0.16806015 0.18147597 1.034
0.25675324 -0.40361249 1.0470001
0.26159295 -0.40386277 1.0470001
0.25599369 -0.39537823 1.0454403
0.26100647 -0.39881057 1.041
0.25536323 -0.38454857 1.0437274
0.24874277 -0.37357309 1.0470001
0.25354865 -0.37557611 1.0434785
0.24902223 -0.36505055 1.04625
0.25176665 -0.365365 1.0437858
0.24852186 -0.35433847 1.0460769
0.25155622 -0.35597509 1.0425
0.24649942 -0.34451711 1.0449002
0.25096774 -0.34952962 1.041
0.24483596 -0.33482787 1.0446523
0.23903957 -0.32322136 1.0470001
0.24254732 -0.32496265 1.0430626
0.2378104 -0.31463423 1.0467857
0.24159929 -0.31526801 1.0423846
0.23700151 -0.3045975 1.0452353
0.24074012 -0.30617628 1.0415
0.23561791 -0.29469779 1.0443915
0.23271818 -0.28471687 1.045125
0.22836961 -0.27389488 1.0461818
0.23279491 -0.27562553 1.0432941
0.22741361 -0.2647869 1.0447501
0.23172052 -0.26887015 1.0419999
0.22460055 -0.25546202 1.04445
0.22327685 -0.24486165 1.0444286
0.21814378 -0.23410681 1.0464
0.22118637 -0.2360985 1.0444286
0.21748996 -0.22454467 1.0446001
0.22057284 -0.22972524 1.044
0.21584639 -0.21524166 1.0436003
0.21278891 -0.20519193 1.0444502
0.2083597 -0.19368954 1.046
0.21177395 -0.19654186 1.04275
0.20641984 -0.18502313 1.0448184
0.21081291 -0.18799767 1.041
0.20503888 -0.17529306 1.0441502
0.19917779 -0.16154513 1.0470001
0.20298752 -0.16557312 1.0441874
0.1989495 -0.1549454 1.0458
0.20099279 -0.15569481 1.0426668
0.19748092 -0.14430653 1.0458
0.20178396 -0.14396769 1.0426875
0.19689888 -0.13478191 1.045875
0.20224026 -0.13471402 1.0426875
0.19704103 -0.12495463 1.0445457
0.20143697 -0.12656191 1.0416
0.18999909 -0.11106227 1.0470001
0.19585419 -0.11504869 1.043348
0.18762898 -0.10458245 1.0453124
0.19500867 -0.10518403 1.0440001
0.18788892 -0.094995447 1.0448824
0.19541238 -0.094707698 1.0431564
0.20370929 -0.090435185 1.0419999
0.1871904 -0.085010879 1.044
0.19487402 -0.084855832 1.0425003
0.20210165 -0.086282171 1.0439999
0.18809673 -0.075640373 1.0446
0.19257909 -0.076880164 1.0429091
-0.32462004 -0.06149729 1.0470001
0.18816335 -0.06884025 1.0470001
-0.32386863 -0.055628207 1.0449313
-0.31421024 -0.053198531 1.0452633
-0.30478844 -0.054767542 1.0450647
-0.29529595 -0.053877708 1.0453931
-0.28553972 -0.052707672 1.0461178
-0.27610925 -0.051894218 1.0463572
-0.26544282 -0.050764699 1.0465001
-0.32205987 -0.045835055 1.0433334
-0.31549469 -0.044943091 1.0426252
-0.30451798 -0.045650281 1.0423046
-0.29498476 -0.04520905 1.0417502
-0.28436765 -0.04610654 1.0419474
-0.27509603 -0.045811284 1.0417897
-0.26493123 -0.045529932 1.0428002
-0.25512555 -0.044931531 1.0442309
-0.24608895 -0.043256626 1.0448334
-0.23474854 -0.042182565 1.0459999
-0.22708103 -0.042038444 1.0470001
-0.32032612 -0.03924223 1.041
-0.31667566 -0.03832962 1.041
-0.25370556 -0.03924223 1.041
-0.24417131 -0.037804663 1.0416
-0.23487791 -0.036559366 1.0425001
-0.22508937 -0.03505246 1.0435864
-0.2164862 -0.030814204 1.0470001
-0.22116853 -0.028331675 1.0425
-0.2147329 -0.025578011 1.0434785
-0.20531122 -0.024170203 1.0448079
-0.19639993 -0.022117425 1.0463334
-0.18816335 -0.02111101 1.0470001
-0.20472886 -0.018860606 1.041
-0.19509995 -0.01845129 1.0419
-0.18407053 -0.016613711 1.0435264
-0.17515056 -0.013496127 1.0441306
-0.16531163 -0.01258467 1.0455003
-0.15608934 -0.011113212 1.0466666
-0.17430851 -0.0082134902 1.041
-0.1642698 -0.0082134902 1.041
-0.15448394 -0.0067917868 1.0427144
-0.14505324 -0.004437861 1.0448402
-0.13546209 -0.0023577951 1.0450714
-0.12538446 -0.0016508509 1.0455
-0.13415366 0.00091260998 1.041
-0.12580277 0.0015977249 1.04175
-0.11533126 0.0036542208 1.0430626
-0.10502007 0.0067150476 1.04475
-0.094991542 0.0074220998 1.0464545
-0.086018421 0.007569469 1.046625
-0.07985469 0.0082608303 1.0470001
-0.10221232 0.01003871 1.041
-0.094728798 0.010659975 1.0423334
-0.084173627 0.011382402 1.0426364
-0.074859761 0.013328042 1.0441306
-0.064930193 0.015214175 1.0445715
-0.055372812 0.017051343 1.0458001
-0.044925828 0.017418141 1.0457999
-0.03592556 0.018253874 1.045909
-0.0275361 0.01927527 1.0470001
-0.053103831 0.021528807 1.0418571
-0.045292806 0.02209726 1.0416
-0.033632681 0.02200808 1.0420909
-0.024714425 0.024712531 1.0442402
-0.018051442 0.025802346 1.0470001
-0.021902639 0.03011613 1.041
0.052018769 0.03924223 1.041
0.048368331 0.042892668 1.041
0.051959265 0.043263834 1.0443751
-0.18073797 0.17403674 1.0430001
-0.1784718 0.1784718 1.044
-0.17505117 0.18603128 1.0438573
-0.16883285 0.18525983 1.041
-0.17531316 0.19367057 1.0470001
0.24926527 -0.41235331 1.057
0.25458968 -0.41497564 1.0556501
0.26038489 -0.41605985 1.057
0.24926527 -0.40494022 1.057
0.25227875 -0.40513527 1.0516843
0.2605015 -0.40778151 1.0500001
0.2486347 -0.39419112 1.0565716
0.25131199 -0.39441526 1.052
0.24798489 -0.38493249 1.0555
0.25107878 -0.38537827 1.0516667
0.2470056 -0.37467134 1.0543529
0.2456075 -0.36536756 1.0540501
0.24424747 -0.35494217 1.0522106
0.23953557 -0.34146559 1.057
0.2421611 -0.34548992 1.0509232
0.23808539 -0.33447069 1.0551001
0.24090722 -0.33564037 1.0505716
0.23633119 -0.32576746 1.0530626
0.2346798 -0.31525332 1.0536155
0.22887926 -0.3030102 1.057
0.23244439 -0.30463585 1.0528421
0.22841594 -0.29467046 1.057
0.23115988 -0.29509643 1.0528182
0.22738437 -0.28452507 1.0533125
0.23072289 -0.289096 1.0513334
0.22570901 -0.27667183 1.05375
0.22295107 -0.26471007 1.052091
0.21949455 -0.25430918 1.052
0.22150619 -0.25407144 1.0513334
0.21861589 -0.24391559 1.0531
0.22143933 -0.24762221 1.0516001
0.21541281 -0.23463428 1.0523334
0.21301906 -0.22522901 1.0526154
0.2097495 -0.21529356 1.054
0.21110134 -0.215397 1.0500001
0.20883104 -0.20492929 1.0545555
0.21079449 -0.2089535 1.0500001
0.20541678 -0.19514725 1.0514287
0.19922689 -0.18162078 1.057
0.20188171 -0.18496965 1.0523334
0.19922689 -0.17513433 1.057
0.20116839 -0.17483936 1.0521818
0.19722806 -0.16411613 1.0534285
0.20158949 -0.1684515 1.0500001
0.19528207 -0.15511307 1.0539999
0.18960108 -0.14335866 1.0549999
0.19336264 -0.14488554 1.0526667
0.18876432 -0.13509697 1.0555
0.1923577 -0.13538863 1.0505716
0.18816797 -0.12436721 1.0547501
0.1920163 -0.12549484 1.0500001
0.18640152 -0.11522284 1.0538572
0.19172758 -0.11557135 1.050889
0.18405664 -0.10524223 1.0530626
0.18307346 -0.094872624 1.0529445
0.17884088 -0.083397299 1.057
0.18252462 -0.084929399 1.053
-0.31690973 -0.071351022 1.057
-0.3057901 -0.071351022 1.057
-0.29930365 -0.071351022 1.057
0.178532 -0.074439809 1.057
0.18330982 -0.07450562 1.0526087
-0.33161345 -0.06374038 1.0536667
-0.32464638 -0.065211162 1.05355
-0.31504631 -0.065787189 1.0545771
-0.30508187 -0.065537736 1.0539629
-0.29486927 -0.065024115 1.0556296
-0.28504854 -0.06247253 1.0556874
-0.27493438 -0.062114358 1.0555
-0.26603538 -0.061761528 1.0567502
-0.25482509 -0.060231384 1.057
0.17884088 -0.066717841 1.057
0.18303891 -0.06612096 1.05345
-0.31658122 -0.057991501 1.0500001
-0.30652651 -0.059832498 1.0500001
-0.29437593 -0.059096098 1.0500001
-0.28516036 -0.057365559 1.052
-0.27448457 -0.056375142 1.052
-0.26505047 -0.05507103 1.052762
-0.25497949 -0.054314665 1.0541154
-0.24573244 -0.054244325 1.0554762
-0.23581539 -0.052473247 1.0562501
-0.22795263 -0.050965015 1.057
-0.2531375 -0.048786499 1.0500001
-0.24364926 -0.047370348 1.0500001
-0.23433743 -0.047108047 1.0511765
-0.22506168 -0.045477416 1.0532501
-0.21837735 -0.042934164 1.057
-0.22180104 -0.038276143 1.052
-0.21514435 -0.035811476 1.0532962
-0.20591113 -0.033208765 1.0553889
-0.19521146 -0.030887889 1.057
-0.18810725 -0.031196767 1.057
-0.20343049 -0.0285355 1.0500001
-0.19479989 -0.026194938 1.0531054
-0.18506154 -0.025134193 1.0545454
-0.17563976 -0.022660477 1.057
-0.16580847 -0.022000058 1.056625
-0.15752822 -0.021312643 1.057
-0.1813385 -0.0193305 1.0500001
-0.17426749 -0.018749563 1.0517778
-0.16450582 -0.017990589 1.05225
-0.15454482 -0.015452247 1.0533181
-0.14532973 -0.012790308 1.0551177
-0.1361549 -0.011756707 1.0565385
-0.12787586 -0.010193003 1.057
-0.1426775 -0.0082844999 1.0500001
-0.13455093 -0.0068897912 1.0529231
-0.12483301 -0.0059278137 1.0538824
-0.11532193 -0.0034732989 1.0555625
-0.10755105 -0.0016668939 1.0558001
-0.1132215 0.00092049997 1.0500001
-0.10504308 0.0026350096 1.0524286
-0.095553242 0.003073374 1.0530833
-0.084917724 0.0034464072 1.0534737
-0.074769281 0.0055332123 1.0529499
-0.065441459 0.006058692 1.0547223
-0.054936316 0.0075454698 1.057
-0.045405198 0.0083397301 1.057
-0.038918741 0.0083397301 1.057
-0.071798995 0.0101255 1.0500001
-0.064073063 0.010394012 1.0505716
-0.054632116 0.011977521 1.0511429
-0.045184683 0.011985435 1.0518667
-0.034862321 0.013493695 1.0531906
-0.024830844 0.015980577 1.0531052
-0.015396655 0.017141415 1.0539445
-0.0055522583 0.017817702 1.0558751
0.0018532733 0.019459371 1.057
-0.01340114 0.023497656 1.0523529
-0.0048840344 0.023232168 1.054
0.0024071513 0.022027651 1.0558001
0.054874364 0.047785927 1.0549999
0.060060434 0.048972353 1.054
-0.1844141 0.18718033 1.0526668
-0.18353537 0.19447866 1.0527858
-0.1783929 0.19661878 1.0500001
-0.18230869 0.20452008 1.0556154
-0.17867167 0.20521247 1.0560001
-0.18069415 0.21127316 1.057
0.24627723 -0.42504799 1.065591
0.25211456 -0.42412508 1.0625001
0.24616916 -0.41544291 1.0633332
0.24543542 -0.40528834 1.0635599
0.24377532 -0.3950952 1.0632665
0.23852785 -0.38070914 1.067
0.24346946 -0.38474336 1.0628461
0.23889145 -0.37456942 1.0655
0.24244761 -0.37577209 1.0613573
0.23817286 -0.36451161 1.0648668
0.24158679 -0.36478749 1.0602729
0.23738602 -0.35398203 1.0640001
0.24121107 -0.35537815 1.0600001
0.22917381 -0.3414222 1.067
0.23529339 -0.3449094 1.0633333
0.24068007 -0.34754574 1.0600001
0.22917382 -0.33768061 1.067
0.23340788 -0.33540988 1.0616
0.22917381 -0.32177874 1.067
0.23263521 -0.32527301 1.062
0.22728553 -0.31365651 1.0645455
0.23158726 -0.31586841 1.0609232
0.22628596 -0.30480966 1.0626667
0.22613069 -0.29534069 1.062
0.22297797 -0.28577363 1.0631251
0.21981978 -0.27407318 1.067
0.22297032 -0.27512124 1.0622224
0.21847233 -0.26422122 1.0650001
0.22085626 -0.26574609 1.0604285
0.21461639 -0.25512028 1.0670556
0.2202362 -0.25740686 1.0600001
0.21502283 -0.2448525 1.0632
0.2086796 -0.23215023 1.0647143
0.21229489 -0.23578495 1.0617694
0.20758829 -0.22449404 1.0641178
0.21131524 -0.22729862 1.0600001
0.20654227 -0.21482155 1.0639999
0.20491484 -0.20518471 1.0631905
0.19799371 -0.19238128 1.067
0.20213664 -0.19548702 1.0625714
0.19635312 -0.18469819 1.06405
0.20100433 -0.18890807 1.0615001
0.19491421 -0.17482175 1.0627499
0.1890851 -0.16423009 1.067
0.19378409 -0.16555825 1.0616112
0.18760906 -0.15434015 1.0647058
0.19049966 -0.15518753 1.0600001
0.18651053 -0.14454967 1.0637778
0.19049966 -0.14868267 1.0600001
0.18489985 -0.13449898 1.0646999
0.18337947 -0.12513818 1.0638181
0.17876549 -0.11376099 1.0654
0.18217698 -0.11567194 1.0617274
0.17784274 -0.10469416 1.0652223
0.18151677 -0.10562664 1.0600001
0.17735384 -0.094699241 1.0637727
0.181207 -0.097572997 1.0600001
-0.33339351 -0.084401086 1.0667502
-0.32554242 -0.082835585 1.0664668
-0.31803712 -0.081380092 1.067
0.17588398 -0.084925331 1.0635216
-0.34329298 -0.074832261 1.0670002
-0.3352873 -0.075770594 1.0648332
-0.32549059 -0.075550094 1.0638517
-0.31505725 -0.075908363 1.0636399
-0.30490178 -0.075492516 1.0630435
-0.29511821 -0.07507392 1.0639999
-0.28580162 -0.07432542 1.0650499
-0.27486029 -0.072655633 1.0664288
-0.26471913 -0.071090661 1.0670002
-0.25349429 -0.070155248 1.067
0.17437904 -0.075023495 1.0642083
-0.33468026 -0.069010451 1.0617144
-0.32679209 -0.069694996 1.0600001
-0.29147997 -0.069075488 1.0600001
-0.28505847 -0.068276986 1.060643
-0.2755591 -0.067790754 1.0612
-0.2643373 -0.066000454 1.0621877
-0.25545961 -0.064681724 1.0630399
-0.24518245 -0.064195238 1.0642332
-0.23572582 -0.063166372 1.0665556
-0.227303 -0.060801215 1.067
0.17574596 -0.06562075 1.0628572
0.18086992 -0.060601775 1.0635
-0.24216691 -0.05780039 1.0600001
-0.23444304 -0.056929182 1.0624706
-0.2257113 -0.054530971 1.0636841
-0.21919619 -0.052070785 1.067
-0.2213213 -0.048356712 1.0607501
-0.21442728 -0.046137359 1.0630833
-0.20498814 -0.043140449 1.0636315
-0.19713625 -0.0413916 1.067
-0.18801607 -0.040222343 1.067
-0.21094353 -0.039958466 1.0600001
-0.2042885 -0.037950583 1.0605454
-0.19538103 -0.035482295 1.0610477
-0.18537734 -0.034310371 1.0626087
-0.17568849 -0.032301839 1.0648665
-0.16930801 -0.03086831 1.067
-0.18213627 -0.028807266 1.0600001
-0.17440568 -0.026963117 1.0605295
-0.16463318 -0.026264265 1.0631176
-0.15479136 -0.025416465 1.0636666
-0.14545566 -0.024017701 1.0632856
-0.13643526 -0.022048796 1.067
-0.15239973 -0.0195146 1.0600001
-0.14446296 -0.018191023 1.0602145
-0.13426377 -0.016950261 1.0620999
-0.12509164 -0.014693239 1.062423
-0.11563326 -0.012653307 1.0633333
-0.10627091 -0.01080091 1.0647143
-0.1142998 -0.0074341325 1.0600002
-0.10437204 -0.0055434974 1.0616667
-0.095100269 -0.0044012731 1.0635357
-0.085014962 -0.0039561875 1.0634286
-0.075421341 -0.0036404016 1.06345
-0.06558045 -0.002430412 1.0656667
-0.055145316 -0.0018701054 1.0662001
-0.047705572 -0.00093540334 1.067
-0.092926666 0.00092926668 1.0600001
-0.080846198 0.00092926668 1.0600001
-0.075270601 0.00092926668 1.0600001
-0.063800558 0.0018593224 1.0609002
-0.05457085 0.0032272676 1.0614119
-0.044927906 0.0036020703 1.0629131
-0.034659754 0.0057898471 1.0621667
-0.025419386 0.0062939199 1.0641252
-0.016942335 0.0076033296 1.0652858
-0.0306658 0.010221933 1.0600001
-0.024393251 0.010918884 1.0600001
-0.014204191 0.011991264 1.0626252
-0.004444133 0.013328066 1.0639411
0.0047627916 0.016246295 1.0641054
0.012465616 0.01807219 1.0663333
0.028997503 0.019643471 1.067
0.0065048668 0.021373134 1.0600001
0.056124635 0.053462204 1.0645001
0.06141372 0.055411663 1.0632223
-0.19134028 0.19533184 1.0617144
-0.18826942 0.19607526 1.0600001
-0.1927121 0.20457102 1.0641428
-0.18777947 0.2054535 1.0612501
-0.19257326 0.2131393 1.0663333
-0.18648687 0.21475574 1.0630002
-0.18895146 0.2216906 1.067
0.23509833 -0.44375989 1.077
0.24175048 -0.44117111 1.0730001
0.23776291 -0.43511835 1.0753999
0.24302016 -0.43478459 1.0722307
0.23568299 -0.42473227 1.0737585
0.24177809 -0.42469457 1.0700001
0.23613349 -0.41488636 1.073148
0.24190839 -0.41513187 1.0700001
0.23648381 -0.40501654 1.0729582
0.24107456 -0.40616846 1.0700001
0.23560075 -0.39516327 1.072793
0.24107456 -0.39678809 1.0700001
0.235773 -0.38528705 1.0728799
0.23537834 -0.37531263 1.0726999
0.22943331 -0.36350545 1.077
0.23342869 -0.36547965 1.072238
0.22821532 -0.35536611 1.0752223
0.2329839 -0.35615245 1.0706666
0.22780474 -0.34500259 1.0726874
0.23169424 -0.34801039 1.0700001
0.22703837 -0.33431652 1.073409
0.23169424 -0.33550325 1.0700001
0.22613421 -0.32530466 1.0735908
0.23169424 -0.32924971 1.0700001
0.21999161 -0.31063193 1.077
0.22382811 -0.31559837 1.0717778
0.21999161 -0.30496693 1.077
0.22208729 -0.30488396 1.0714999
0.21837167 -0.29478163 1.076
0.22224876 -0.29533243 1.0715001
0.21625476 -0.28468424 1.0740951
0.22043781 -0.28516212 1.0700001
0.21471879 -0.27505788 1.0729284
0.21354589 -0.26564133 1.0724072
0.20906639 -0.25408325 1.0747778
0.20776968 -0.24471426 1.073625
0.21186154 -0.24616674 1.0700001
0.20546646 -0.2352562 1.0729443
0.20286112 -0.22563 1.0726315
0.19784652 -0.21501325 1.0769999
0.20164749 -0.21552134 1.0713845
0.19651443 -0.20449126 1.0730475
0.20111322 -0.20701845 1.0712858
0.19566445 -0.19527741 1.0722083
0.18903124 -0.18368562 1.0763334
0.19209304 -0.18594681 1.0717273
0.18723528 -0.17469239 1.0732666
0.19042076 -0.17541222 1.0700001
0.18570784 -0.16513239 1.0727646
0.19042076 -0.16978404 1.0700001
0.18365289 -0.15504293 1.0735999
0.1785862 -0.14254184 1.075
0.18218713 -0.14584781 1.0721667
0.17696199 -0.13429683 1.072842
0.18150944 -0.13601483 1.0700001
0.17656781 -0.12489506 1.0727142
0.17468017 -0.11548547 1.0726666
0.17297865 -0.10476971 1.0723889
-0.34367788 -0.093850501 1.0769999
-0.33520052 -0.094296381 1.0745908
-0.32529405 -0.091805659 1.0764287
-0.31063193 -0.091584489 1.077
-0.30402273 -0.091584489 1.077
-0.29601789 -0.09202683 1.0758573
-0.28986019 -0.091584489 1.077
0.16900642 -0.094416998 1.077
0.17189316 -0.094872862 1.0714666
-0.35193694 -0.086378366 1.0762727
-0.3448973 -0.085523047 1.0730952
-0.33757615 -0.087033823 1.0703751
-0.32445124 -0.088022776 1.0719333
-0.315036 -0.085675798 1.0729614
-0.30471665 -0.085608818 1.0721852
-0.29508975 -0.085525207 1.0719999
-0.28601274 -0.084680341 1.0732082
-0.27456665 -0.083117314 1.0762727
-0.26554781 -0.082142785 1.077
-0.25492591 -0.08025445 1.077
-0.24642837 -0.08025445 1.077
0.16764148 -0.084345467 1.0743333
0.17142676 -0.086028032 1.0705
-0.34650952 -0.078982405 1.0700001
-0.30486083 -0.079732835 1.0700001
-0.29360443 -0.079732835 1.0700001
-0.28380719 -0.078899026 1.0700001
-0.27491853 -0.077678151 1.0707499
-0.26527241 -0.076807879 1.0719999
-0.25526556 -0.074731424 1.0735199
-0.24508025 -0.074301742 1.0727599
-0.23679107 -0.072951466 1.0741175
0.16762045 -0.074972942 1.0721903
0.1716601 -0.0787948 1.0700001
-0.24107456 -0.068476431 1.0700001
-0.23328722 -0.067433469 1.0713
-0.22583909 -0.064152934 1.0729499
-0.21787083 -0.062384982 1.0758573
0.16850974 -0.067377217 1.0738572
0.17270422 -0.063397728 1.073
-0.22231388 -0.057220034 1.0700001
-0.21472868 -0.055839445 1.0724999
-0.20692123 -0.053106125 1.0753334
-0.19502355 -0.051090091 1.077
-0.18836191 -0.050513092 1.077
0.17700689 -0.059317023 1.074
-0.2110575 -0.049715765 1.0700001
-0.20436709 -0.048354309 1.071
-0.19436671 -0.045179013 1.0715455
-0.18524118 -0.044074375 1.0735651
-0.17564048 -0.042292923 1.0749999
-0.16759017 -0.041071393 1.077
-0.18244746 -0.03799035 1.0700001
-0.17437768 -0.037157077 1.0710714
-0.16480455 -0.034690976 1.0715184
-0.15542452 -0.033532888 1.0723332
-0.14584114 -0.031845707 1.0747001
-0.1660319 -0.029079033 1.0700001
-0.15665156 -0.029079033 1.0700001
-0.1433638 -0.028566306 1.0708572
-0.1345294 -0.026226642 1.0717727
-0.12535231 -0.025076138 1.0729998
-0.11849333 -0.022187995 1.077
-0.12428942 -0.0196987 1.0700001
-0.11434755 -0.018255882 1.0732666
-0.10441218 -0.015864126 1.0737307
-0.09512461 -0.014729879 1.0735713
-0.085869774 -0.012937387 1.0738947
-0.075613372 -0.010983173 1.0736668
-0.065693021 -0.010687735 1.0756668
-0.05759437 -0.01038587 1.077
-0.090989232 -0.0084423004 1.0700001
-0.084422998 -0.0084423004 1.0700001
-0.074154601 -0.0079792012 1.0707501
-0.064379416 -0.0070508108 1.0720832
-0.055134058 -0.0067040343 1.0728124
-0.044887323 -0.0043650027 1.072818
-0.035097402 -0.0030653195 1.0748125
-0.02590489 -0.0025411865 1.0760769
-0.01793923 -0.00094416999 1.077
-0.034451623 0.0014744281 1.0704286
-0.024949444 0.001773302 1.0716667
-0.014736891 0.004073035 1.0730951
-0.0050394926 0.0061460524 1.0743529
0.0043762396 0.0072901202 1.0762726
0.014702076 0.0082277665 1.077
0.02549259 0.0084975297 1.077
-0.0018760667 0.010318367 1.0700001
0.0051140841 0.011165032 1.0713333
0.015321335 0.013583105 1.0717307
0.025442492 0.01450987 1.0719259
0.034641169 0.01539696 1.0741427
0.043852326 0.017803991 1.0764667
0.05098518 0.0188834 1.077
0.036685869 0.021635257 1.0730001
0.045151841 0.021635257 1.0730001
0.051736481 0.021635257 1.0730001
0.036994297 0.056907699 1.0769999
0.045143474 0.055082958 1.0749394
0.054019962 0.057434812 1.0708182
0.037032444 0.063259386 1.077
0.04503151 0.063968949 1.0750868
0.055247314 0.064208254 1.0754498
0.061238091 0.06312643 1.0746666
-0.19604896 0.1998011 1.0700001
-0.19712573 0.20745067 1.0707501
-0.20261888 0.21545959 1.0769999
-0.19721141 0.216647 1.0755384
-0.2011082 0.22471246 1.077
-0.19541389 0.22542818 1.0763332
-0.18916143 0.22586747 1.0735
0.22608177 -0.44510505 1.0857368
0.23414442 -0.4434391 1.0813333
0.22589718 -0.43540347 1.0854999
0.23236248 -0.43512014 1.08075
0.22557509 -0.42510778 1.0860356
0.23061343 -0.4256542 1.08
