# .PCD v0.7 - Point Cloud Data file format
VERSION 0.7
FIELDS x y z
SIZE 4 4 4
TYPE F F F
COUNT 1 1 1
WIDTH 1432
HEIGHT 1
VIEWPOINT 0 0 0 1 0 0 0
POINTS 1432
DATA ascii
-0.20935939 -0.052739389 1.8230001
-0.14223653 -0.049543064 1.8230001
-0.13584387 -0.046346739 1.8230002
-0.12785307 -0.04315041 1.8230001
-0.12305857 -0.039954085 1.8230001
-0.11826409 -0.039954085 1.8230001
-0.10228245 -0.035159595 1.8230001
-0.095357083 -0.032495987 1.8230001
-0.09269347 -0.025570612 1.8230001
-0.08550173 -0.02397245 1.8230001
-0.075113676 -0.020776123 1.8230001
-0.073515512 -0.017579796 1.8230001
-0.065524697 -0.015981633 1.8230001
-0.059132043 -0.01438347 1.8230001
-0.046346739 -0.011187144 1.8230001
-0.04315041 -0.0079908166 1.8230001
-0.036225036 -0.0058599319 1.8230001
-0.023972452 -0.0031963263 1.8230001
-0.015981633 -0.0015981633 1.8230001
-0.012785306 0.0015981633 1.8230001
-0.0031963266 0.0079908166 1.8230001
0.0047944901 0.0079908166 1.8230001
0.015981633 0.011187144 1.8230001
0.02397245 0.012785306 1.8230001
0.0479449 0.017579796 1.8230001
0.054337554 0.017579796 1.8230001
0.049543064 0.020776123 1.8230001
0.059132043 0.020776123 1.8230001
0.063926533 0.020776123 1.8230001
0.075113676 0.022374287 1.8230001
0.084702648 0.02397245 1.8230001
0.095090717 0.024771532 1.8230001
0.10388061 0.027168775 1.8230001
0.10547878 0.030365104 1.8230001
0.11474814 0.032922164 1.8230002
0.1390402 0.036757756 1.8230001
0.14543286 0.035692316 1.8230001
0.15821818 0.039954085 1.8230001
0.16301265 0.039954085 1.8230001
0.16461082 0.04315041 1.8230001
0.1741998 0.044748574 1.8230001
0.18442805 0.045068208 1.8230002
0.1946563 0.046986002 1.8230002
0.20616306 0.049543064 1.8230001
0.21575205 0.049543064 1.8230001
0.22534104 0.049543064 1.8230001
0.19817226 0.052739389 1.8230001
0.20616306 0.052739393 1.8230001
0.21575205 0.05401792 1.8230002
0.22488442 0.055022478 1.8230001
0.23492999 0.05433755 1.8230001
0.24451898 0.057533879 1.8230001
0.25250983 0.059132043 1.8230001
0.244519 0.063127451 1.8230001
0.25410801 0.065068081 1.8230001
0.26324031 0.066437937 1.8230001
0.27381864 0.067655586 1.8230001
0.28527218 0.067921944 1.8230001
0.26529509 0.071917348 1.8230001
0.27584299 0.072556615 1.8230002
0.28561464 0.075570293 1.8230001
0.2924639 0.076711841 1.8230001
-0.056242544 -0.45154729 1.8330001
-0.046600971 -0.45154732 1.8330001
-0.056242548 -0.44833347 1.8330001
-0.045432296 -0.44482744 1.8330001
-0.034388304 -0.44383407 1.8329999
-0.042985383 -0.43587974 1.8330001
-0.033745535 -0.435478 1.8329999
-0.027317809 -0.43387109 1.8330001
-0.041780178 -0.42583647 1.8330001
-0.033745531 -0.42583644 1.8329999
-0.025710879 -0.42583644 1.8330001
-0.017676231 -0.42262259 1.8330001
-0.041780178 -0.41619489 1.8330001
-0.032827284 -0.41665402 1.8330001
-0.025022196 -0.41573575 1.8330001
-0.017676231 -0.41619489 1.8330001
-0.041550618 -0.40563506 1.8330001
-0.03345336 -0.40538457 1.8330001
-0.024746722 -0.40558916 1.8329999
-0.016390685 -0.40591049 1.8329999
-0.031817216 -0.39369786 1.8329999
-0.025710881 -0.39369786 1.8330001
-0.041244537 -0.38191369 1.8330001
-0.033745535 -0.3840563 1.8329999
-0.026246523 -0.38619885 1.8330001
-0.053028688 -0.37280774 1.8330001
-0.044555787 -0.37470683 1.8330001
-0.035352461 -0.37762854 1.8330001
-0.054635618 -0.36316615 1.8330001
-0.045958199 -0.36509445 1.8329999
-0.054635618 -0.35513151 1.8330001
-0.047002703 -0.3555333 1.8330001
-0.055840816 -0.34508824 1.8330001
-0.049011368 -0.34629339 1.8330001
-0.062670268 -0.33424145 1.8330001
-0.056242544 -0.33584836 1.8329999
-0.049814831 -0.33906221 1.8330001
-0.063473731 -0.3262068 1.8330001
-0.05752809 -0.32749233 1.8329999
-0.065591961 -0.31452003 1.8330001
-0.059456408 -0.31977907 1.8330001
-0.072311848 -0.30692363 1.8330001
-0.066285864 -0.30330801 1.8330001
-0.065884136 -0.29406816 1.8329999
-0.072311848 -0.28121275 1.8330001
-0.065884128 -0.28442663 1.8329999
-0.074607454 -0.27432591 1.8330001
-0.066802375 -0.27524418 1.8330001
-0.081953429 -0.26514345 1.8330001
-0.075525708 -0.26514345 1.8329999
-0.069097988 -0.26514345 1.8330001
-0.083238974 -0.25485909 1.8329999
-0.077132642 -0.25550187 1.8330001
-0.091595009 -0.24907415 1.8330001
-0.084765561 -0.24586028 1.8330001
-0.076443955 -0.24540116 1.8330001
-0.091595009 -0.23943257 1.8330001
-0.084765553 -0.23581696 1.8330001
-0.075525716 -0.23621869 1.8329999
-0.093737572 -0.22443455 1.8329999
-0.085167289 -0.22497021 1.8330001
-0.077936105 -0.2273806 1.8330001
-0.095210597 -0.21412343 1.8330001
-0.088381149 -0.21693555 1.8330001
-0.10230788 -0.20193754 1.8330001
-0.096737191 -0.20472288 1.8329999
-0.10284352 -0.19443853 1.8330001
-0.098022729 -0.19283161 1.8330001
-0.11087817 -0.18158309 1.8330001
-0.10404872 -0.18439522 1.8330001
-0.098022729 -0.18640387 1.8330001
-0.11168163 -0.17515536 1.8330001
-0.10445044 -0.17515537 1.8329999
-0.098022729 -0.17515536 1.8330001
-0.12159104 -0.16337122 1.8330001
-0.1136903 -0.16511205 1.8330001
-0.10552173 -0.16658507 1.8330001
-0.13016133 -0.15265834 1.8330001
-0.12333189 -0.15547049 1.8330001
-0.11516332 -0.15694349 1.8330001
-0.10659302 -0.15801477 1.8330001
-0.16229993 -0.14301677 1.8330001
-0.15522943 -0.14430231 1.8329999
-0.1457715 -0.14531238 1.8330001
-0.13542037 -0.14652279 1.8330001
-0.12453707 -0.14864102 1.8330001
-0.11730589 -0.14944449 1.8330001
-0.16551378 -0.1398029 1.8330001
-0.15587221 -0.13658904 1.8330001
-0.14751616 -0.13787457 1.8329999
-0.14623062 -0.12694746 1.8330001
-0.21050783 -0.062670268 1.8330001
-0.21050783 -0.057849478 1.8330001
-0.20729397 -0.053028688 1.8330001
-0.1446237 -0.053028688 1.8330001
-0.1398029 -0.053028688 1.8330001
-0.13337518 -0.048743546 1.8330001
-0.12373361 -0.0444584 1.8330001
-0.11409203 -0.040173251 1.8330001
-0.10123659 -0.036959391 1.8330001
-0.09373758 -0.033745531 1.8330001
-0.086774215 -0.030531669 1.8330001
-0.083024718 -0.026246523 1.8330001
-0.076168478 -0.024103949 1.8329999
-0.068026699 -0.021961376 1.8330001
-0.064277202 -0.017676231 1.8330001
-0.056242548 -0.0160693 1.8330001
-0.044029884 -0.013819598 1.8329999
-0.034816816 -0.012319797 1.8330001
-0.032138601 -0.0080346502 1.8330001
-0.024103949 -0.0080346502 1.8330001
-0.014462369 -0.0048207901 1.8329999
-0.005463562 0.003535246 1.8329999
0.0032138601 0.0048207901 1.8330001
0.01446237 0.0080346502 1.8330001
0.033745531 0.014462369 1.8330001
0.0444584 0.014462369 1.8330001
0.056242544 0.015533657 1.8330001
0.064277202 0.017676231 1.8330001
0.069097988 0.020890091 1.8330001
0.077132642 0.020890091 1.8330001
0.085167289 0.020890092 1.8330001
0.094808877 0.020890092 1.8330001
0.10380767 0.022818407 1.8329999
0.11328857 0.026514344 1.8330001
0.11730589 0.030531669 1.8330001
0.12309084 0.032459985 1.8329999
0.13391083 0.032674242 1.8330001
0.14623062 0.032674242 1.8330001
0.15506874 0.036155924 1.8330001
0.16390686 0.036959391 1.8330001
0.19443853 0.036959391 1.8330001
0.16872765 0.040173251 1.8330001
0.17595883 0.040976718 1.8330001
0.18399349 0.040976714 1.8330001
0.19363506 0.042583644 1.8330001
0.20472288 0.04531543 1.8329999
0.21372168 0.046600971 1.8330001
0.22497021 0.045529682 1.8330001
0.23300485 0.048207901 1.8330001
0.24264643 0.053028688 1.8330001
0.25550187 0.057313833 1.8330001
0.26407218 0.058385123 1.8330001
0.2667504 0.062670268 1.8330001
0.27558851 0.063473731 1.8330001
0.28362316 0.064277202 1.8330001
0.027466843 -0.46047354 1.8430001
-0.050086595 -0.45401075 1.8430001
-0.042008113 -0.45239508 1.8430001
-0.033929631 -0.45239508 1.8430001
-0.016156968 -0.45077938 1.8430001
0.027466843 -0.45724216 1.8430001
-0.030698236 -0.44431657 1.8430001
-0.02423545 -0.44431654 1.8430002
-0.01454127 -0.4443166 1.8430002
-0.022296615 -0.4352687 1.8430001
-0.01454127 -0.43462241 1.8430002
-0.021004057 -0.42492822 1.8430001
-0.013618015 -0.42538986 1.8430002
-0.021004057 -0.41846544 1.8430001
-0.012925573 -0.41523406 1.8430001
-0.021004057 -0.40392417 1.8430001
-0.013248712 -0.40424728 1.8430001
-0.021004057 -0.39584568 1.8430001
-0.01454127 -0.39584568 1.8430002
-0.023158317 -0.38507438 1.8430001
-0.014945194 -0.38655543 1.8430002
-0.033468004 -0.37553406 1.8430002
-0.02423545 -0.37807301 1.8430001
-0.017772663 -0.37968871 1.8430001
-0.040392417 -0.36353174 1.8430001
-0.033929631 -0.36514747 1.8430003
-0.041684974 -0.35319129 1.8430001
-0.033929631 -0.35383761 1.8430002
-0.043623812 -0.34414333 1.8430002
-0.033929631 -0.34414339 1.8430002
-0.050086599 -0.3344492 1.8430001
-0.043623812 -0.3344492 1.8430002
-0.034575909 -0.33509549 1.8430001
-0.053317986 -0.32475507 1.8430002
-0.044700939 -0.32583216 1.8430001
-0.037161022 -0.32798642 1.8430001
-0.054933682 -0.31506088 1.8430003
-0.046855204 -0.31829223 1.8430001
-0.063012168 -0.30859807 1.8430001
-0.05557996 -0.30472037 1.8430002
-0.058165077 -0.29567251 1.8430001
-0.057472639 -0.28551668 1.8430002
-0.063012168 -0.27466843 1.8430001
-0.058165077 -0.27628413 1.8430001
-0.072706349 -0.26012716 1.8430001
-0.065435708 -0.26497427 1.8430002
-0.058165077 -0.26658997 1.8430001
-0.072706349 -0.25366437 1.8430001
-0.067859262 -0.25366437 1.8430001
-0.072706349 -0.24720159 1.8430001
-0.067859262 -0.2439702 1.8430001
-0.072706349 -0.23104462 1.8430001
-0.069474958 -0.23427601 1.8430001
-0.075014487 -0.22412021 1.8430002
-0.069474958 -0.22619754 1.8430001
-0.092094712 -0.21165626 1.8430001
-0.085228004 -0.21448372 1.8430002
-0.076399371 -0.21581091 1.8430002
-0.092902564 -0.20438562 1.8430001
-0.086035848 -0.2055974 1.8430002
-0.079169139 -0.20842487 1.8430001
-0.09440285 -0.19596092 1.8430002
-0.087570749 -0.1954993 1.8430001
-0.09440285 -0.18534347 1.8430002
-0.088863313 -0.18580513 1.8430001
-0.093710415 -0.17611094 1.8430001
-0.086035848 -0.17570703 1.8430002
-0.079169139 -0.17449525 1.8430001
-0.10286602 -0.16426249 1.8430001
-0.095326103 -0.16641676 1.8430002
-0.088055462 -0.1672246 1.8430001
-0.11277562 -0.15284491 1.8430001
-0.1043022 -0.15385021 1.8430002
-0.096618667 -0.15801513 1.8430001
-0.088863313 -0.15995397 1.8430001
-0.1405656 -0.1405656 1.8430001
-0.13329497 -0.14137346 1.8430001
-0.12400472 -0.14339308 1.8430002
-0.11552232 -0.14622055 1.8430001
-0.10502028 -0.1470284 1.8430001
-0.16480106 -0.13410282 1.8430001
-0.15607628 -0.13216397 1.8430001
-0.14339308 -0.13410282 1.8430002
-0.13450675 -0.13410282 1.8430002
-0.12505493 -0.13345654 1.8430001
-0.15510689 -0.12764004 1.8430001
-0.143797 -0.12764004 1.8430001
-0.13410282 -0.12764004 1.8430001
-0.12376235 -0.1257012 1.8430001
-0.11633016 -0.12440864 1.8430001
-0.13410282 -0.051702291 1.8430001
-0.12279294 -0.046855204 1.8430001
-0.1157916 -0.043623809 1.8430001
-0.10502028 -0.040392417 1.8430001
-0.093710408 -0.037161022 1.8430001
-0.085631922 -0.033929631 1.8430001
-0.077553436 -0.030698236 1.8430001
-0.074322045 -0.027466843 1.8430001
-0.065166436 -0.02531258 1.8430001
-0.056549381 -0.022850569 1.8430002
-0.045239508 -0.021004057 1.8430001
-0.037161022 -0.021004057 1.8430001
-0.051702291 -0.017772663 1.8430001
-0.043623809 -0.017772663 1.8430001
-0.033929631 -0.015187549 1.8430001
-0.024881728 -0.012602434 1.8430001
-0.014541271 -0.011309877 1.8430001
-0.012925574 -0.0080784829 1.8430001
-0.0048470893 -0.0032313934 1.8430001
0.0016156967 -0.0016156967 1.8430001
-0.0016156967 0.0016156967 1.8430001
0.0048470898 0.0026928277 1.8430001
0.014541269 0.0032313932 1.8430001
0.023427602 0.0072706351 1.8430001
0.032313935 0.0080784829 1.8430001
0.025851145 0.011309877 1.8430001
0.033929631 0.011309877 1.8430001
0.043623809 0.012387007 1.8430001
0.055903107 0.011956155 1.8430001
0.067051411 0.015349119 1.8430001
0.075291462 0.016480107 1.8430001
0.085631929 0.017772663 1.8430001
0.095326103 0.017772663 1.8430001
0.10502028 0.017772663 1.8430001
0.11309877 0.017772663 1.8430001
0.10825168 0.021004057 1.8430001
0.11536075 0.022296615 1.8430001
0.12440864 0.025851145 1.8430001
0.13410282 0.025851147 1.8430001
0.14379701 0.026658993 1.8430001
0.15478376 0.026820565 1.8430001
0.12764004 0.030698236 1.8430001
0.13733421 0.030698236 1.8430001
0.14379701 0.030698236 1.8430001
0.15618402 0.031775367 1.8430001
0.16641676 0.033391066 1.8430001
0.17564932 0.034852885 1.8430002
0.18499728 0.036353175 1.8430001
0.19226789 0.037161022 1.8430001
0.19873069 0.043623809 1.8430001
0.20438562 0.041200265 1.8430001
0.21424136 0.042331252 1.8430001
0.22458184 0.041469548 1.8430001
0.23427601 0.045239508 1.8430001
0.24073881 0.046855204 1.8430001
0.2375074 0.050086595 1.8430001
0.24477805 0.050894439 1.8430001
0.25301808 0.05202543 1.8430001
0.26497424 0.056549381 1.8430001
0.27520701 0.058703646 1.8430001
-0.040611584 -0.45647418 1.853
-0.024366949 -0.45452482 1.853
-0.01462017 -0.45484972 1.853
0.027615877 -0.45484972 1.853
-0.0081223166 -0.44022956 1.853
-0.0061729606 -0.43243212 1.853
-0.0048733898 -0.42398494 1.853
-0.0052795061 -0.41423818 1.8529999
-0.0048733898 -0.40449139 1.853
-0.0068227453 -0.39539438 1.853
-0.012454219 -0.38283184 1.853
-0.024366951 -0.37362656 1.853
-0.014156037 -0.37617928 1.8529999
-0.024366949 -0.36550426 1.853
-0.025295213 -0.35622162 1.8529999
-0.026316306 -0.34601068 1.853
-0.033301499 -0.33545166 1.853
-0.026532901 -0.33842984 1.853
-0.041911151 -0.32261842 1.853
-0.034519847 -0.3257049 1.8529999
-0.051982827 -0.31027249 1.853
-0.044788778 -0.31398556 1.8529999
-0.037362657 -0.31677034 1.853
-0.051982827 -0.30052572 1.853
-0.045484971 -0.30377463 1.853
-0.051982824 -0.29402784 1.853
-0.046026465 -0.29511085 1.853
-0.051982824 -0.28509331 1.853
-0.053607289 -0.27453431 1.853
-0.061729603 -0.26153859 1.853
-0.054419521 -0.26397529 1.853
-0.061729606 -0.25504074 1.853
-0.05523175 -0.25504074 1.853
-0.061729606 -0.24529396 1.853
-0.05523175 -0.24529396 1.853
-0.063354068 -0.23554717 1.853
-0.065674737 -0.22533628 1.8529999
-0.074725315 -0.21280469 1.853
-0.06562832 -0.21670341 1.853
-0.082847632 -0.20305791 1.853
-0.075943664 -0.20590071 1.8529999
-0.068227462 -0.20630683 1.853
-0.083930604 -0.19439411 1.853
-0.076755896 -0.19615392 1.8529999
-0.068227455 -0.19980898 1.853
-0.0841472 -0.18421414 1.853
-0.079598702 -0.1819399 1.853
-0.082847632 -0.17056865 1.853
-0.077162005 -0.17300534 1.853
-0.08447209 -0.1640708 1.853
-0.079598702 -0.16569525 1.853
-0.09519355 -0.15497379 1.853
-0.088262506 -0.15648997 1.853
-0.11468711 -0.14262788 1.853
-0.10559011 -0.14295278 1.853
-0.09909226 -0.14782616 1.853
-0.14782616 -0.13483046 1.853
-0.13158153 -0.13483046 1.853
-0.12427144 -0.13564269 1.853
-0.11641987 -0.13537194 1.853
-0.10559011 -0.13807938 1.853
-0.15594848 -0.12508367 1.853
-0.14132831 -0.1283326 1.853
-0.1283326 -0.1283326 1.853
-0.11696136 -0.1283326 1.853
-0.11533689 -0.045484975 1.853
-0.10396565 -0.04386051 1.853
-0.095031105 -0.041423816 1.853
-0.08447209 -0.037362657 1.853
-0.07634978 -0.032489266 1.853
-0.064978532 -0.030864803 1.853
-0.053607289 -0.025991414 1.853
-0.04386051 -0.023283975 1.853
-0.034113731 -0.021118023 1.853
-0.030864803 -0.017869096 1.853
-0.024366951 -0.016786121 1.853
-0.016244633 -0.01462017 1.853
-0.0081223166 -0.011371243 1.853
-0.0048733898 -0.0081223166 1.853
0.0042236047 -0.0042236047 1.853
0.013970384 -0.0029240339 1.853
0.024366951 -0.0016244635 1.853
0.032489266 -0.0016244634 1.853
0.0081223166 0.0016244634 1.853
0.025016734 0.0029240339 1.853
0.034577865 0.0039451248 1.8529999
0.043048281 0.007310085 1.853
0.053607285 0.0081223166 1.853
0.061729603 0.0081223166 1.853
0.047109436 0.011371243 1.853
0.066602997 0.011371243 1.853
0.077162012 0.012183475 1.853
0.086096555 0.012995708 1.853
0.095843337 0.012995706 1.853
0.10559011 0.013807938 1.853
0.11598668 0.01462017 1.853
0.12508367 0.016244633 1.853
0.13483046 0.017869096 1.853
0.14295277 0.017869096 1.853
0.12508367 0.021118023 1.853
0.13483046 0.021118023 1.853
0.143765 0.022742486 1.853
0.155407 0.023283973 1.853
0.1640708 0.024366949 1.8529999
0.17381757 0.025991412 1.853
0.1819399 0.027615877 1.853
0.25612369 0.023283973 1.853
0.17381757 0.030864803 1.853
0.18437658 0.031677034 1.853
0.19385262 0.033572245 1.853
0.20630686 0.037362657 1.853
0.21605362 0.037362657 1.853
0.2258004 0.037362657 1.853
0.23229825 0.037362657 1.853
0.24204503 0.037362657 1.853
0.25504074 0.030864803 1.853
0.19980898 0.040611584 1.853
0.21930255 0.040611584 1.853
0.22255148 0.040611584 1.853
0.23619696 0.041911155 1.853
0.24570008 0.043454394 1.8529999
0.25411248 0.044324644 1.8529999
0.26478752 0.047109436 1.853
0.25828966 0.050358362 1.853
0.26532903 0.052524313 1.853
0.27290985 0.053607285 1.853
0.28265661 0.060105141 1.853
-0.02449845 -0.4622041 1.863
-0.02449845 -0.45893762 1.863
-0.0057163052 -0.45322132 1.863
0.016876709 -0.45784879 1.863
0.023845159 -0.45632443 1.8630002
-0.0044913827 -0.44628006 1.863
0.00163323 -0.44260532 1.863
-0.00326646 -0.43770564 1.863
0.00163323 -0.43607244 1.863
0.00163323 -0.42627302 1.863
-0.00163323 -0.41647366 1.863
0.002939814 -0.41647369 1.8630002
-0.00163323 -0.40014136 1.863
0.0030331414 -0.40574101 1.863
-0.0038108702 -0.39251959 1.863
0.00163323 -0.39687487 1.863
-0.0065329201 -0.38380906 1.863
-0.015352361 -0.37204975 1.8630002
-0.0065329196 -0.3756429 1.863
-0.014699068 -0.36421031 1.863
-0.021231988 -0.35441089 1.863
-0.015107377 -0.35481921 1.863
-0.022048604 -0.34542814 1.863
-0.017965529 -0.34461153 1.863
-0.02504286 -0.33481216 1.863
-0.032120191 -0.32283512 1.863
-0.02613168 -0.32501277 1.863
-0.04083075 -0.31358016 1.863
-0.034297828 -0.31521338 1.863
-0.027764909 -0.31847984 1.863
-0.04083075 -0.30541399 1.863
-0.035231106 -0.30494738 1.863
-0.027764909 -0.30214754 1.863
-0.043008391 -0.2950702 1.863
-0.035931062 -0.29561463 1.863
-0.05063013 -0.28254879 1.863
-0.044097211 -0.28581524 1.863
-0.035931058 -0.28581524 1.863
-0.050630134 -0.27601588 1.863
-0.045030486 -0.27554923 1.863
-0.037564289 -0.27601588 1.863
-0.050630134 -0.26621649 1.863
-0.044097211 -0.26621649 1.863
-0.037564289 -0.26621649 1.863
-0.050630134 -0.2564171 1.863
-0.044097211 -0.2564171 1.863
-0.037564289 -0.25805032 1.863
-0.05226336 -0.24335127 1.863
-0.045186032 -0.24770653 1.863
-0.06042951 -0.23028544 1.863
-0.053896591 -0.23355187 1.863
-0.046274852 -0.23572953 1.863
-0.06042951 -0.22538574 1.863
-0.054829862 -0.22328587 1.863
-0.06206274 -0.2123199 1.863
-0.055203177 -0.21460643 1.8630002
-0.06206274 -0.20415376 1.863
-0.053896591 -0.20415375 1.863
-0.073495351 -0.19388774 1.863
-0.065655842 -0.19500765 1.8630002
-0.080028273 -0.18782145 1.863
-0.073495351 -0.18455499 1.863
-0.071862124 -0.17475562 1.863
-0.080028273 -0.16168977 1.863
-0.075128585 -0.16495623 1.863
-0.094727337 -0.15189038 1.863
-0.084228016 -0.15515685 1.863
-0.097177185 -0.14617409 1.863
-0.089827649 -0.14862393 1.863
-0.11378169 -0.13446927 1.863
-0.10615995 -0.13392486 1.863
-0.099627033 -0.13882455 1.863
-0.11269287 -0.12739193 1.863
-0.10656825 -0.12616701 1.863
-0.11269287 -0.044097211 1.863
-0.10942641 -0.044097211 1.863
-0.089827649 -0.042463981 1.863
-0.080028273 -0.037564289 1.863
-0.073495351 -0.034297831 1.863
-0.066962428 -0.034297831 1.863
-0.055529818 -0.03103137 1.863
-0.05063013 -0.027764909 1.863
-0.044097211 -0.026676089 1.863
-0.034297828 -0.023409629 1.863
-0.026131678 -0.02123199 1.863
-0.02123199 -0.017965529 1.863
-0.01143261 -0.01469907 1.863
-0.0048996899 -0.01143261 1.863
0.0070773303 -0.0070773303 1.863
0.014699069 -0.0070773303 1.863
0.023681834 -0.0057163048 1.863
0.034297831 -0.0038108702 1.863
0.044097211 0.0038108702 1.863
0.053896591 0.0040830751 1.863
0.066962428 0.0081661502 1.863
0.074311972 0.0073495354 1.863
0.084927954 0.0070773293 1.863
0.096360572 0.0081661502 1.863
0.10615995 0.01143261 1.863
0.11595933 0.01143261 1.863
0.12575871 0.01143261 1.863
0.13555808 0.014699069 1.863
0.14862393 0.017965529 1.863
0.15515685 0.017965529 1.863
0.163323 0.017965529 1.863
0.14862393 0.02123199 1.863
0.15352362 0.02123199 1.863
0.1682227 0.02123199 1.863
0.17475562 0.021231988 1.863
0.18373838 0.02449845 1.863
0.19272113 0.027764909 1.863
0.24661772 0.024498452 1.863
0.2551105 0.025805032 1.8630002
0.26458326 0.027764909 1.863
0.19762082 0.03103137 1.863
0.20633139 0.033209011 1.863
0.21395314 0.032991249 1.8630002
0.2244058 0.032991249 1.8630002
0.23401852 0.033364557 1.863
0.24513298 0.034000877 1.8630002
0.2564171 0.034706134 1.863
0.26512769 0.034297831 1.863
0.27274939 0.03103137 1.863
0.25968358 0.042463981 1.863
0.26621649 0.042463977 1.863
0.27438265 0.047363669 1.863
0.2776491 0.05226336 1.863
0.28363761 0.056074228 1.863
0.0027366609 -0.45264375 1.8730001
0.018061964 -0.45483306 1.8730001
0.022987954 -0.45483306 1.8730001
0.0041049914 -0.44580209 1.8730001
0.0057469881 -0.43430811 1.8730001
0.0068963855 -0.42593393 1.8730001
0.0073889848 -0.41624615 1.8730001
0.0073889848 -0.40475219 1.8730001
0.011493976 -0.40557316 1.8730001
0.0053364886 -0.3953107 1.8730001
-0.0016419967 -0.38586918 1.8730001
0.0032839933 -0.38586923 1.8730001
-0.0036123923 -0.37470365 1.8730001
-0.006239587 -0.36747888 1.8730001
-0.011493976 -0.35302928 1.8730001
-0.0082099829 -0.35959727 1.8730001
-0.013135972 -0.3464613 1.8730001
-0.021345956 -0.33332533 1.8730001
-0.014777971 -0.33496734 1.8730005
-0.022166954 -0.32265234 1.8730001
-0.01477797 -0.32347333 1.8730003
-0.031197937 -0.31197935 1.8730001
-0.024629951 -0.31362137 1.8730003
-0.015716253 -0.31362137 1.8730001
-0.031197937 -0.30376941 1.8730001
-0.024219451 -0.30376938 1.8730001
-0.016419968 -0.30376938 1.8730001
-0.031197937 -0.29391739 1.8730001
-0.024629951 -0.29391739 1.8730003
-0.016419968 -0.29391739 1.8730001
-0.041049916 -0.28078142 1.8730001
-0.032018937 -0.28324443 1.8730001
-0.024629951 -0.28406546 1.8730003
-0.016967298 -0.28625473 1.8730001
-0.041049916 -0.27749744 1.8730001
-0.032839935 -0.27421343 1.8730001
-0.024629951 -0.27421343 1.8730003
-0.032839935 -0.26436147 1.8730001
-0.024629951 -0.26436147 1.8730003
-0.034071431 -0.25409898 1.8730001
-0.025724614 -0.25505683 1.8730001
-0.043239247 -0.24356286 1.8730001
-0.035420213 -0.24512665 1.8730001
-0.043239247 -0.23371084 1.8730001
-0.036452327 -0.23546234 1.8730001
-0.050901897 -0.22659555 1.8730001
-0.044333912 -0.22495355 1.8730003
-0.037765924 -0.22495355 1.8730001
-0.052543893 -0.21428056 1.8730001
-0.044333916 -0.21510155 1.8730003
-0.037765924 -0.21510155 1.8730001
-0.05418589 -0.20524956 1.8730001
-0.045428574 -0.20470224 1.8730001
-0.037765924 -0.20524958 1.8730001
-0.061574869 -0.19457662 1.8730001
-0.054185886 -0.1953976 1.8730003
-0.047617901 -0.1953976 1.8730001
-0.064037874 -0.18554562 1.8730003
-0.05418589 -0.18554562 1.8730003
-0.047617905 -0.18882962 1.8730001
-0.064037867 -0.17569365 1.8730003
-0.05664888 -0.17651463 1.8730001
-0.070605859 -0.16584165 1.8730001
-0.064976148 -0.1663108 1.8730001
-0.057469882 -0.16912566 1.8730001
-0.082099833 -0.15270568 1.8730001
-0.073889852 -0.15598968 1.8730003
-0.067321859 -0.15763167 1.8730001
-0.093593813 -0.14449571 1.8730001
-0.083741821 -0.1461377 1.8730003
-0.074828133 -0.14660685 1.8730001
-0.1001618 -0.13464373 1.8730001
-0.093593813 -0.13792773 1.8730001
-0.083741821 -0.13956971 1.8730001
-0.075531848 -0.13956971 1.8730001
-0.11329777 -0.12314975 1.8730001
-0.1009828 -0.12561275 1.8730001
-0.096877806 -0.12643375 1.8730001
-0.080457836 -0.11986575 1.8730001
-0.077173844 -0.11822376 1.8730001
-0.08593116 -0.042144582 1.8730001
-0.073889852 -0.037765924 1.8730001
-0.062395871 -0.034481931 1.8730001
-0.050901897 -0.031197937 1.8730001
-0.045975909 -0.031197937 1.8730001
-0.041049916 -0.027913943 1.8730001
-0.034481931 -0.026819279 1.8730001
-0.024629951 -0.023535287 1.8730001
-0.01477797 -0.018061964 1.8730001
-0.00492599 -0.013683305 1.8730001
0.00492599 -0.011493976 1.8730001
0.01477797 -0.011493976 1.8730001
0.021345956 -0.011493976 1.8730001
0.018061964 -0.0082099829 1.8730001
0.031197937 -0.0082099829 1.8730001
0.045975909 0.0016419967 1.8730001
0.050901897 0.0016419967 1.8730001
0.064037867 0.0032839933 1.8730001
0.073233053 0.0029555939 1.8730001
0.082647167 0.0027366609 1.8730001
0.095783137 0.0060206545 1.8730001
0.10410259 0.0062395874 1.8730001
0.11423605 0.0068025566 1.8730001
0.12643375 0.0082099829 1.8730001
0.13300173 0.0082099829 1.8730001
0.13628572 0.011493976 1.8730001
0.1461377 0.01477797 1.8730001
0.15598969 0.01477797 1.8730001
0.16912566 0.018061964 1.8730001
0.17569363 0.018061964 1.8730001
0.18226163 0.018061964 1.8730001
0.24794149 0.018061964 1.8730001
0.25450948 0.018061964 1.8730001
0.18773495 0.022440622 1.8730001
0.19457659 0.024629951 1.8730001
0.20853357 0.027913943 1.8730001
0.21592256 0.027092945 1.8730001
0.22385888 0.026819279 1.8730001
0.23644751 0.027913943 1.8730001
0.2430155 0.026271947 1.8730001
0.2512255 0.024629951 1.8730001
0.20306025 0.032292601 1.8730001
0.21510155 0.031197937 1.8730001
0.22166955 0.031197937 1.8730001
0.27585542 0.044333909 1.8730001
0.28078142 0.047617905 1.8730001
0.28242344 0.050901897 1.8730001
0.0082538165 -0.46056297 1.8830001
0.01485687 -0.46056297 1.8830001
0.0074284347 -0.45478529 1.8830001
0.01485687 -0.45230913 1.8830003
0.024761451 -0.45230913 1.8830003
0.0082538165 -0.44405532 1.883
0.01485687 -0.44405535 1.8830003
0.023818156 -0.44452697 1.8830003
0.0082538165 -0.43745229 1.8830001
0.01485687 -0.43415079 1.8830003
0.02476145 -0.43415076 1.8830003
0.032465011 -0.43194973 1.883
0.01485687 -0.42424616 1.8830003
0.024761451 -0.42424616 1.8830003
0.032189887 -0.42507157 1.8830001
0.041269083 -0.42094466 1.8830001
0.01485687 -0.4143416 1.8830003
0.024761448 -0.4143416 1.8830003
0.034194384 -0.4133983 1.8830003
0.042919844 -0.41351619 1.8830001
0.051173665 -0.41104007 1.8830001
0.015269561 -0.40402433 1.8830003
0.024761451 -0.40443698 1.8830003
0.034666032 -0.40443698 1.8830003
0.04457061 -0.40443698 1.8830003
0.053374682 -0.40388677 1.8830003
0.0082538165 -0.39123091 1.8830001
0.01485687 -0.39453244 1.8830003
0.024761451 -0.3945325 1.8830003
0.035766538 -0.39508271 1.8830003
0.045395989 -0.39700857 1.8830001
0.051173665 -0.39618319 1.8830001
0.0062729008 -0.38330725 1.8830001
0.014856868 -0.38462788 1.8830003
0.024761451 -0.38462788 1.8830003
0.034666032 -0.38792935 1.883
0.0049522901 -0.37472332 1.8830003
0.01485687 -0.37472329 1.8830003
0.024761451 -0.37472326 1.8830003
0.031364504 -0.37472329 1.8830001
-0.0033015271 -0.36481869 1.8830003
0.0049522896 -0.36481869 1.8830003
0.014856869 -0.36523139 1.8830003
0.023936069 -0.36729482 1.8830001
-0.0049522892 -0.3549141 1.8830003
0.0049522901 -0.3549141 1.8830003
-0.0049522896 -0.34500948 1.8830003
0.0049522901 -0.34500951 1.8830003
-0.0049522892 -0.33510494 1.8830003
0.0049522901 -0.335105 1.8830003
0.011555343 -0.33675569 1.8830001
-0.0049522896 -0.32520038 1.8830003
0.0042919847 -0.32718128 1.8830001
-0.011555343 -0.31529579 1.8830001
-0.0055025443 -0.31584606 1.8830003
-0.011555343 -0.30539122 1.883
-0.011555343 -0.29548663 1.883
-0.013756361 -0.28448156 1.8830003
-0.01485687 -0.27567747 1.8830003
-0.01485687 -0.26577294 1.8830003
-0.022560433 -0.25476781 1.883
-0.01485687 -0.25586832 1.8830003
-0.031364504 -0.24431297 1.8830001
-0.024761451 -0.24596374 1.8830003
-0.015269561 -0.24637641 1.8830003
-0.032189887 -0.23523377 1.8830001
-0.025174141 -0.23647186 1.8830003
-0.018158397 -0.23936068 1.8830001
-0.033015266 -0.22615457 1.8830003
-0.026082059 -0.22681487 1.8830001
-0.033015266 -0.21625 1.8830003
-0.026082063 -0.21558969 1.8830001
-0.042369589 -0.20744592 1.883
-0.03425334 -0.20634542 1.8830003
-0.025586832 -0.20634541 1.8830001
-0.042919844 -0.19644083 1.8830003
-0.034666028 -0.19644082 1.8830003
-0.026742365 -0.19644085 1.8830001
-0.044157919 -0.18612355 1.8830003
-0.035766542 -0.18763678 1.8830003
-0.028062977 -0.18983778 1.8830001
-0.052588601 -0.17427345 1.8830003
-0.044570606 -0.17498092 1.883
-0.037967555 -0.17828244 1.8830001
-0.061903622 -0.16260019 1.8830001
-0.054475188 -0.16342556 1.8830003
-0.047046758 -0.16425095 1.8830001
-0.063967079 -0.15310828 1.8830003
-0.055135496 -0.15550192 1.8830001
-0.047872137 -0.15517175 1.8830001
-0.070982821 -0.14361641 1.883
-0.065323062 -0.14408806 1.8830003
-0.094093509 -0.13206106 1.8830003
-0.084188923 -0.13371183 1.8830003
-0.074284345 -0.13371184 1.8830003
-0.067681298 -0.13371183 1.883
-0.093680814 -0.12339457 1.8830003
-0.084601611 -0.12421995 1.8830003
-0.073871657 -0.12421995 1.8830003
-0.066855915 -0.12380725 1.8830001
-0.090791985 -0.1172042 1.8830001
-0.082538165 -0.1172042 1.8830001
-0.072633587 -0.1172042 1.8830001
-0.064379767 -0.1172042 1.883
-0.082208015 -0.045230918 1.8830001
-0.07593511 -0.042919844 1.8830001
-0.064379767 -0.037967555 1.883
-0.056125954 -0.034666032 1.8830001
-0.041269083 -0.031364504 1.8830001
-0.036316793 -0.031364504 1.8830001
-0.031364504 -0.028062977 1.8830001
-0.02476145 -0.026412213 1.8830001
-0.01485687 -0.021459924 1.883
-0.0041269083 -0.017333016 1.8830001
0.0049522901 -0.016507633 1.8830003
0.01485687 -0.01485687 1.883
0.02476145 -0.013206107 1.8830001
0.031364504 -0.011555343 1.8830001
0.026412213 -0.0082538165 1.8830001
0.036867049 -0.0071533076 1.883
0.04457061 -0.0033015267 1.8830003
0.054475188 -0.0033015267 1.8830003
0.064379774 -0.0033015267 1.8830003
0.073812701 -0.0040089968 1.8830003
0.08198791 -0.0027512722 1.883
0.095744267 -0.0016507633 1.8830001
0.10399809 -0.0016507633 1.883
0.11225191 -0.0016507633 1.8830001
0.057776716 0.0016507633 1.8830001
0.084188931 0.0016507633 1.8830001
0.093268126 0.002476145 1.8830001
0.10399809 0.0016507633 1.883
0.11390267 0.0016507633 1.883
0.12314694 0.0036316793 1.8830001
0.13437214 0.0049522901 1.8830001
0.14229581 0.0062729008 1.8830001
0.15187022 0.0082538165 1.8830001
0.14526717 0.011555343 1.8830001
0.15352099 0.011555343 1.883
0.16408588 0.012875954 1.8830001
0.17498091 0.013206107 1.8830003
0.18719655 0.016177479 1.8830001
0.19644083 0.018158397 1.883
0.2476145 0.01485687 1.8830001
0.19864185 0.022560433 1.883
0.20700571 0.025421757 1.8830001
0.21558969 0.022780534 1.8830001
0.22697997 0.02476145 1.8830001
0.23605914 0.025861958 1.883
0.24266221 0.023110688 1.8830001
0.28558207 0.047872137 1.8830001
0.011622846 -0.46491387 1.8940001
0.013283253 -0.45993266 1.8940001
0.033208132 -0.45495144 1.8940001
0.028226914 -0.444989 1.8940001
0.034868538 -0.444989 1.8940004
0.044830978 -0.44399276 1.8940003
0.054793421 -0.44000778 1.8940001
0.062099211 -0.44532108 1.8940001
0.037359148 -0.43419635 1.8940001
0.044830978 -0.43336612 1.8940002
0.054793421 -0.43336615 1.8940002
0.061435048 -0.43336615 1.8940001
0.036528945 -0.42340371 1.8940001
0.045779783 -0.4238781 1.8940001
0.054793421 -0.42340371 1.8940002
0.064755857 -0.42340368 1.8940002
0.072227687 -0.42257351 1.8940001
0.045937914 -0.41565514 1.8940001
0.055742227 -0.41391566 1.8940001
0.064755857 -0.4134413 1.8940002
0.07305789 -0.41344127 1.8940001
0.057007298 -0.40126494 1.8940001
0.064755857 -0.4034788 1.8940002
0.074303195 -0.40389389 1.8940001
0.085787676 -0.40458575 1.8940001
0.032654662 -0.39573026 1.8940001
0.044415876 -0.3931013 1.8940001
0.055208523 -0.3931013 1.8940001
0.064755857 -0.39550889 1.8940001
0.07305789 -0.3968372 1.8940001
0.034868538 -0.38355392 1.8940002
0.044830978 -0.38355392 1.8940002
0.053133015 -0.38521436 1.8940001
0.03528364 -0.3731764 1.8940001
0.014943659 -0.3611384 1.8940001
0.0253212 -0.36321396 1.8940001
0.034868538 -0.36362901 1.8940002
0.014943659 -0.3536666 1.8940002
0.024906099 -0.35366663 1.8940002
0.034394138 -0.35461542 1.8940001
0.015358761 -0.34411925 1.8940001
0.024906099 -0.34370413 1.8940002
0.031547725 -0.34370413 1.8940001
0.015358761 -0.33332664 1.8940001
0.024906099 -0.33374175 1.8940002
0.031547725 -0.33706254 1.8940001
-0.0049812198 -0.32045847 1.8940001
0.0054556215 -0.3228305 1.8940001
0.014943659 -0.32377926 1.8940002
0.022415489 -0.32460949 1.8940001
-0.0043170573 -0.31182438 1.8940001
0.0049812198 -0.31381688 1.8940002
0.014528558 -0.31423196 1.8940001
-0.0049812198 -0.30385438 1.8940002
0.0049812198 -0.30385441 1.8940002
0.012951171 -0.30451855 1.8940001
-0.0049812198 -0.293892 1.8940002
0.0045661181 -0.29430708 1.8940001
-0.0049812198 -0.28392953 1.8940002
0.0049812198 -0.2839295 1.8940002
-0.0049812198 -0.27396709 1.8940002
0.0049812198 -0.27396709 1.8940002
0.012729784 -0.27175322 1.8940001
-0.0049812198 -0.26400465 1.8940002
0.0049812198 -0.26441973 1.8940001
0.012729784 -0.26621851 1.8940001
-0.0049812198 -0.25404224 1.8940001
0.0016604067 -0.25736302 1.8940001
-0.012729784 -0.24186592 1.8940001
-0.021585286 -0.23245694 1.8940001
-0.015358761 -0.23453246 1.8940001
-0.024241935 -0.22349074 1.8940001
-0.015418061 -0.22415492 1.8940001
-0.023245692 -0.21336226 1.8940001
-0.015358761 -0.21460758 1.8940001
-0.023245692 -0.20423003 1.8940001
-0.017434269 -0.20506023 1.8940001
-0.022913611 -0.19426759 1.8940001
-0.018264472 -0.19592799 1.8940001
-0.032876052 -0.18364097 1.8940001
-0.035422008 -0.17434269 1.8940001
-0.042838491 -0.16371609 1.8940001
-0.035817344 -0.16390586 1.8940001
-0.053963218 -0.1519272 1.8940001
-0.043882173 -0.1539434 1.8940001
-0.035817344 -0.15489221 1.8940001
-0.061435048 -0.14279497 1.8940001
-0.055742227 -0.14492978 1.8940001
-0.045305379 -0.14540417 1.8940001
-0.037082415 -0.14666925 1.8940001
-0.06309545 -0.13449293 1.8940001
-0.056453828 -0.13781375 1.8940001
-0.062763371 -0.12453049 1.8940001
-0.058114234 -0.1228701 1.8940001
-0.075382456 -0.044830978 1.8940001
-0.054793421 -0.037082415 1.8940001
-0.044830978 -0.034868538 1.8940001
-0.034038335 -0.034038335 1.8940001
-0.028226914 -0.031547725 1.8940001
-0.023245692 -0.028226914 1.8940001
-0.014943659 -0.025736304 1.8940001
-0.0049812198 -0.021585286 1.8940001
0.0049812198 -0.021585286 1.8940001
0.014943659 -0.018264472 1.8940001
0.024906099 -0.016604066 1.8940001
0.034868538 -0.012729784 1.8940001
0.044166815 -0.012951171 1.8940001
0.055623624 -0.012453049 1.8940001
0.064755857 -0.011622846 1.8940001
0.074718297 -0.011622846 1.8940001
0.044830978 -0.0083020329 1.8940001
0.054793421 -0.0083020329 1.8940001
0.064755857 -0.0083020329 1.8940001
0.076378703 -0.0083020329 1.8940001
0.085344896 -0.0056453822 1.8940001
0.094168775 -0.0059300237 1.8940001
0.10460562 -0.0066416264 1.8940001
0.11504246 -0.0059300237 1.8940001
0.12411539 -0.0045661181 1.8940001
0.13449293 -0.0024906099 1.8940001
0.14445537 -0.0016604067 1.8940001
0.12785131 0.0016604067 1.8940001
0.13449293 0.0016604067 1.8940001
0.14611578 0.0033208132 1.8940001
0.15489221 0.0040324158 1.8940001
0.16371609 0.0069737076 1.8940001
0.17386828 0.0059300237 1.8940001
0.18496929 0.0069737076 1.8940001
0.19426759 0.0083020329 1.8940001
0.20090921 0.0083020329 1.8940001
0.24075897 0.0083020329 1.8940001
0.18596554 0.011622846 1.8940001
0.19493175 0.012951171 1.8940001
0.20423003 0.015607822 1.8940001
0.21419246 0.017434269 1.8940001
0.2241549 0.016604066 1.8940001
0.23411734 0.016604066 1.8940001
0.24241938 0.016604066 1.8940001
0.20533697 0.022692224 1.8940001
0.2241549 0.021585286 1.8940001
0.23411734 0.022415489 1.8940001
0.24075897 0.021585286 1.8940001
0.28725034 0.043170571 1.8940001
0.048406027 -0.4556843 1.904
0.054248132 -0.45318055 1.904
0.056751896 -0.44733846 1.904
0.068436109 -0.4440001 1.904
0.072887234 -0.44344369 1.9039999
0.068436109 -0.43565425 1.9039999
0.074695513 -0.4352369 1.9040002
0.078451149 -0.42730838 1.904
0.084460169 -0.4236362 1.904
0.091804534 -0.42230085 1.904
0.085127838 -0.41562414 1.9040002
0.093473703 -0.41562414 1.9040002
0.085127838 -0.40227076 1.9039999
0.093807541 -0.40560913 1.904
0.066766933 -0.39225572 1.904
0.075780466 -0.39359108 1.904
0.085127838 -0.39559409 1.9040002
0.093473703 -0.39559409 1.9040002
0.064430088 -0.38758206 1.904
0.075112797 -0.38891736 1.9039999
0.085127838 -0.38891736 1.9039999
0.091804534 -0.38891739 1.904
0.046736855 -0.37556401 1.9040002
0.053413544 -0.37556401 1.9040002
0.065097757 -0.37890235 1.904
0.046736851 -0.36554897 1.9040002
0.054526325 -0.36499259 1.9040002
0.063428581 -0.36554897 1.904
0.038390987 -0.35219556 1.904
0.045624066 -0.35553393 1.9040002
0.051744372 -0.35386473 1.904
0.038390987 -0.34551892 1.9039999
0.044650383 -0.34551886 1.9040002
0.05257896 -0.3446843 1.904
0.037055649 -0.33483616 1.904
0.043954898 -0.3360602 1.9040002
0.055639114 -0.33661664 1.9040002
0.028375946 -0.32381964 1.904
0.035052642 -0.32548881 1.9040002
0.041729335 -0.32548881 1.904
0.024203014 -0.31463915 1.904
0.018360907 -0.30212036 1.904
0.024083788 -0.3049818 1.9040002
0.015976373 -0.29496676 1.9040002
0.025037598 -0.29744667 1.904
0.016691733 -0.28542864 1.9040002
0.045067679 -0.28876698 1.904
0.017248124 -0.27763915 1.9039999
0.022812037 -0.27318802 1.9039999
0.017248126 -0.26317301 1.9039999
0.023368428 -0.26539853 1.9040002
-0.0033383467 -0.25538352 1.904
0.0061203018 -0.25482711 1.9040002
0.015022559 -0.25538352 1.9040002
0.021699255 -0.25538352 1.9039999
-0.003338347 -0.24536848 1.9040002
0.0044511287 -0.24592488 1.9040002
0.013909779 -0.24648125 1.9039999
-0.0050075199 -0.23646623 1.9039999
0.0050075199 -0.23869179 1.904
-0.011684213 -0.2253384 1.904
-0.0083458666 -0.2253384 1.904
-0.0083458666 -0.21198501 1.904
-0.011684213 -0.20363915 1.904
-0.0083458666 -0.20530832 1.9039999
-0.0125188 -0.19445868 1.904
-0.0083458666 -0.19696245 1.904
-0.023368426 -0.18527824 1.9040002
-0.017025568 -0.1859459 1.904
-0.024620306 -0.1748459 1.9040002
-0.016691733 -0.17693236 1.904
-0.024620308 -0.16566545 1.9040002
-0.025037602 -0.15523313 1.9040002
-0.041729335 -0.14187974 1.904
-0.034218054 -0.14271432 1.904
-0.027263165 -0.14744364 1.9039999
-0.053413548 -0.13353387 1.904
-0.045735348 -0.13720605 1.904
-0.036721811 -0.13854139 1.904
-0.05257896 -0.12602258 1.904
-0.065932348 -0.044233095 1.904
-0.05508272 -0.041729335 1.9039999
-0.045067679 -0.038390987 1.9039999
-0.035052639 -0.038390987 1.9039999
-0.023924815 -0.03616542 1.9040002
-0.015022559 -0.033049632 1.904
-0.0083458666 -0.033383466 1.904
0.0050075199 -0.031714294 1.904
-0.0050075199 -0.026150381 1.9039999
0.0050075199 -0.025872188 1.904
0.015022561 -0.022812033 1.9039999
0.021699253 -0.021699253 1.904
0.028375946 -0.018360907 1.904
0.038390987 -0.01502256 1.904
0.046736851 -0.018360907 1.904
0.054415047 -0.017025568 1.904
0.065765426 -0.017025568 1.904
0.074278213 -0.015857147 1.904
0.085795507 -0.013687221 1.904
0.095142879 -0.011684213 1.9039999
0.1059925 -0.0125188 1.904
0.11450529 -0.013019552 1.904
0.12518799 -0.011684213 1.9039999
0.1318647 -0.011684213 1.904
0.13520305 -0.0083458666 1.9039999
0.14521807 -0.0050075199 1.9039999
0.15523313 -0.0027819555 1.9039999
0.16858651 -0.0016691734 1.904
0.18527824 -0.0016691735 1.9039999
0.19529329 -0.0016691735 1.9039999
0.20196997 -0.0016691734 1.904
0.16691732 0.0016691734 1.904
0.17860155 0.0016691734 1.904
0.18527824 0.0016691735 1.9039999
0.19596095 0.0030045118 1.904
0.20464066 0.0043398505 1.904
0.21532334 0.0083458666 1.9039999
0.2253384 0.0083458666 1.9039999
0.23535343 0.0083458666 1.9039999
0.24870682 0.0066766934 1.904
0.25204518 0.0066766934 1.904
0.20864667 0.011684213 1.904
0.21532337 0.011684213 1.9039999
0.2253384 0.011684213 1.9039999
0.23535343 0.011684213 1.9039999
0.24536848 0.011684213 1.9039999
0.28542864 0.038390987 1.904
0.28542864 0.041729335 1.904
0.055400949 -0.45831695 1.9150001
0.078904383 -0.44320759 1.9150001
0.084500439 -0.43369427 1.9150001
0.088977285 -0.42809826 1.9150001
0.096364081 -0.42541212 1.9150002
0.10240781 -0.42306179 1.9150001
0.13934179 -0.42809826 1.9150001
0.14269942 -0.42474061 1.9150001
0.099050187 -0.41466773 1.9150001
0.10240781 -0.41466773 1.9150001
0.099050187 -0.40459481 1.9150001
0.10240781 -0.40459481 1.9150001
0.099050187 -0.39452192 1.9150001
0.10240781 -0.39452192 1.9150001
0.057639372 -0.38332978 1.9150001
0.066033453 -0.38388941 1.9150001
0.07512705 -0.3840293 1.9150001
0.088977285 -0.38780665 1.9150001
0.057079766 -0.37353671 1.9150001
0.065473847 -0.37437609 1.9150001
0.07512705 -0.37437609 1.9150001
0.056240357 -0.36178499 1.9150001
0.064802319 -0.3636317 1.9150002
0.076218277 -0.36631781 1.9150002
0.048685685 -0.35423031 1.9150001
0.057079766 -0.35423031 1.9150001
0.063459262 -0.35423031 1.9150002
0.048685685 -0.34751505 1.9150001
0.057639372 -0.34639585 1.9150001
0.063795038 -0.34415743 1.9150001
0.046447262 -0.33352491 1.9150001
0.054841343 -0.33296528 1.9150001
0.065473847 -0.33408451 1.9150001
0.072189115 -0.33576334 1.9150001
0.028539883 -0.32065398 1.9150001
0.035255149 -0.32065398 1.9150001
0.045747753 -0.32359189 1.9150001
0.055400949 -0.32401159 1.9150001
0.06379503 -0.32401159 1.9150001
0.028539883 -0.31393874 1.9150001
0.035255149 -0.31393874 1.9150001
0.045328051 -0.31729636 1.9150001
0.055400949 -0.31645694 1.9150001
0.062116217 -0.31729636 1.9150001
0.028539883 -0.30722344 1.9150001
0.035255149 -0.30386582 1.9150001
0.044908348 -0.30344611 1.9150001
0.025182249 -0.2928336 1.9150001
0.035255149 -0.29379293 1.9150001
0.045328047 -0.29421264 1.9150001
0.052043315 -0.29043528 1.9150001
0.025182249 -0.28372002 1.9150001
0.035255149 -0.28539884 1.9150001
0.044908348 -0.28413972 1.9150001
0.027700474 -0.27448654 1.9150001
0.033912096 -0.27297559 1.9150002
0.027700474 -0.26273483 1.9150001
0.033576332 -0.26357424 1.9150001
0.018466983 -0.25014368 1.9150001
0.025741855 -0.2535013 1.9150001
0.033576332 -0.25518012 1.9150001
0.0058758585 -0.24426782 1.9150001
0.015109351 -0.24342844 1.9150001
0.022664025 -0.24342841 1.9150001
-0.0033576335 -0.23503433 1.9150001
0.00503645 -0.23503435 1.9150001
0.014437824 -0.23537008 1.9150002
0.021824617 -0.23671314 1.9150001
-0.0033576332 -0.22664024 1.9150001
0.00503645 -0.22664025 1.9150001
0.011751717 -0.22999789 1.9150001
-0.0033576332 -0.21656735 1.9150001
0.0040771263 -0.21704701 1.9150001
-0.0036933967 -0.20716599 1.9150002
0.002518225 -0.20733386 1.9150001
-0.008394083 -0.19306391 1.9150001
-0.012591125 -0.18550923 1.9150001
-0.008394083 -0.18634863 1.9150001
-0.013766296 -0.17493269 1.9150002
-0.008394083 -0.17627575 1.9150001
-0.01510935 -0.16620284 1.9150001
-0.008394083 -0.16620284 1.9150001
-0.021824617 -0.15277232 1.9150001
-0.01510935 -0.15612996 1.9150001
-0.008394083 -0.15612994 1.9150001
-0.024063038 -0.14493786 1.9150001
-0.015529053 -0.14647675 1.9150001
-0.008394083 -0.14941469 1.9150001
-0.044488642 -0.13346592 1.9150001
-0.034775488 -0.13502483 1.9150001
-0.02630146 -0.13710336 1.9150001
-0.016788166 -0.13766298 1.9150001
-0.045328055 -0.12591125 1.9150001
-0.036933966 -0.12759006 1.9150001
-0.033576332 -0.055400949 1.9150001
-0.026021658 -0.052882724 1.9150001
0.031897515 -0.058758583 1.9150001
-0.06379503 -0.047006868 1.9150001
-0.055400949 -0.047006864 1.9150001
-0.04484839 -0.044368725 1.9150001
-0.035674851 -0.044908352 1.9150001
-0.025182249 -0.045328055 1.9150001
-0.01510935 -0.045328055 1.9150001
-0.008394083 -0.045328051 1.9150001
-0.01510935 -0.037773374 1.9150001
-0.00503645 -0.034135938 1.9150001
0.0067152665 -0.033576332 1.9150001
0.011751717 -0.031897515 1.9150001
-0.0033576332 -0.028539883 1.9150001
0.00503645 -0.028539883 1.9150001
0.01510935 -0.02630146 1.9150001
0.023503434 -0.023503434 1.9150001
0.038612783 -0.021824617 1.9150001
0.045328051 -0.021824619 1.9150001
0.055400949 -0.021824619 1.9150001
0.062116217 -0.021824617 1.9150001
0.035255149 -0.018466983 1.9150001
0.041970417 -0.018466983 1.9150001
0.077225566 -0.018466983 1.9150001
0.085619651 -0.018466983 1.9150001
0.095021024 -0.016452404 1.9150002
0.10576544 -0.016228562 1.9150001
0.11919598 -0.01510935 1.9150001
0.12591125 -0.01510935 1.9150001
0.13598414 -0.012870927 1.9150001
0.14605705 -0.011751717 1.9150001
0.20649445 -0.011751717 1.9150001
0.14605705 -0.008394083 1.9150001
0.15680149 -0.0070510297 1.9150002
0.16572319 -0.0050364505 1.9150001
0.17585604 -0.0046167462 1.9150001
0.18634866 -0.0067152665 1.9150001
0.19726095 -0.0058758585 1.9150001
0.20649445 -0.0016788166 1.9150001
0.22580084 -0.0041970415 1.9150001
0.23503433 -0.0016788166 1.9150001
0.24007078 -0.0016788166 1.9150001
0.21992499 0.00503645 1.9150001
0.22664024 0.0033576332 1.9150001
0.23503433 0.0033576335 1.9150001
0.242589 0.0041970415 1.9150001
0.08273454 -0.45081881 1.9260001
0.084760681 -0.44474038 1.9260002
0.08948838 -0.43731114 1.9260001
0.096724637 -0.43489906 1.9260004
0.10468452 -0.43308997 1.9260001
0.10806144 -0.42380348 1.9260002
0.11312682 -0.42380345 1.9260001
0.13676526 -0.42718038 1.9260001
0.14267486 -0.42464769 1.9260001
0.15027294 -0.42380345 1.9260001
0.10806144 -0.41367269 1.9260002
0.11312682 -0.41367269 1.9260001
0.10806143 -0.40354195 1.9260002
0.11608162 -0.4031198 1.9260004
0.12494604 -0.40016502 1.9260001
0.079357617 -0.39003426 1.9260001
0.084422998 -0.39003426 1.9260001
0.096242219 -0.3908785 1.9260001
0.10733782 -0.39292875 1.9260004
0.11537809 -0.39453682 1.9260002
0.12494604 -0.39509964 1.9260001
0.086111456 -0.38496888 1.9260002
0.096242219 -0.38496888 1.9260002
0.10637298 -0.38496888 1.9260002
0.11312682 -0.38665733 1.9260001
0.079357617 -0.37652656 1.9260001
0.086111456 -0.37652659 1.9260004
0.096242219 -0.37652659 1.9260004
0.10637297 -0.37652659 1.9260004
0.11608163 -0.37610447 1.9260004
0.12325758 -0.37314966 1.9260001
0.069226861 -0.36470735 1.9260001
0.075136468 -0.36386311 1.9260001
0.086111464 -0.36639583 1.9260004
0.096242219 -0.3663958 1.9260004
0.10589056 -0.36736065 1.9260004
0.11582836 -0.36842197 1.9260002
0.068382628 -0.35626507 1.9260001
0.075980693 -0.35626504 1.9260004
0.086111456 -0.35626507 1.9260004
0.096242219 -0.35626507 1.9260004
0.10299606 -0.35795352 1.9260001
0.069226861 -0.34613428 1.9260001
0.075980701 -0.34613431 1.9260004
0.086111464 -0.34613431 1.9260004
0.096242219 -0.34613431 1.9260004
0.076945536 -0.33552113 1.9260004
0.086111456 -0.33600354 1.9260004
0.096242219 -0.33600354 1.9260004
0.069226861 -0.32587278 1.9260001
0.075980701 -0.32587275 1.9260004
0.086111456 -0.32587278 1.9260004
0.092865296 -0.32587278 1.9260001
0.045588419 -0.31405357 1.9260002
0.055719178 -0.31371588 1.9260002
0.06627205 -0.3153199 1.9260004
0.07555858 -0.31616414 1.9260004
0.086111456 -0.31911895 1.9260001
0.092865296 -0.31574202 1.9260001
0.048965339 -0.30898818 1.9260001
0.055719178 -0.30561125 1.9260004
0.065427825 -0.30603337 1.9260004
0.073729418 -0.30786255 1.9260001
0.056141291 -0.29590261 1.9260004
0.062473018 -0.29548052 1.9260001
0.096242219 -0.29716897 1.9260001
0.03545766 -0.28197283 1.9260001
0.048965339 -0.28197283 1.9260001
0.055719178 -0.28534973 1.9260004
0.063823789 -0.28467435 1.9260002
0.037146121 -0.2760632 1.9260001
0.045588419 -0.27521896 1.9260004
0.055719178 -0.27521896 1.9260004
0.064161479 -0.27521899 1.9260002
0.038834579 -0.2650882 1.9260001
0.045588419 -0.26508823 1.9260004
0.055719178 -0.26508823 1.9260004
0.064161479 -0.26508823 1.9260002
0.02870382 -0.25158054 1.9260001
0.036808427 -0.25360671 1.9260002
0.045588419 -0.25495744 1.9260004
0.05403072 -0.25495744 1.9260002
0.027353054 -0.2448267 1.9260002
0.03545766 -0.24482672 1.9260004
0.045588419 -0.24482669 1.9260004
0.05403072 -0.24651515 1.9260001
0.017447421 -0.23244466 1.9260001
0.025749015 -0.23427382 1.9260004
0.034975242 -0.23566078 1.9260004
0.045588419 -0.23638441 1.9260002
0.01519614 -0.22456519 1.9260004
0.024904786 -0.22498728 1.9260004
0.0084423004 -0.21443443 1.9260001
0.01519614 -0.21443444 1.9260004
0.022794211 -0.21359017 1.9260001
-0.0028141001 -0.20205237 1.9260001
0.0060302145 -0.20382123 1.9260004
0.01519614 -0.20430365 1.9260004
0.023300746 -0.20362827 1.9260002
0.03208074 -0.20092674 1.9260001
-0.00337692 -0.1941729 1.9260002
0.0050653806 -0.19417292 1.9260004
0.01519614 -0.19417292 1.9260004
0.022794209 -0.19501713 1.9260001
-0.00337692 -0.18404214 1.9260002
0.0050653806 -0.18404216 1.9260004
0.015196141 -0.18404214 1.9260004
0.021949982 -0.18404214 1.9260001
-0.00337692 -0.17391138 1.9260002
0.0050653806 -0.17391139 1.9260004
0.01266345 -0.1747556 1.9260001
-0.00337692 -0.16378063 1.9260002
0.0050653806 -0.16378063 1.9260004
-0.0037146122 -0.15432525 1.9260002
0.00337692 -0.15702678 1.9260001
-0.012944859 -0.14126782 1.9260001
-0.0084423004 -0.14351909 1.9260001
-0.03208074 -0.13001142 1.9260001
-0.024201259 -0.13226271 1.9260002
-0.01519614 -0.13296622 1.9260004
-0.0084423004 -0.13338834 1.9260001
-0.034613431 -0.1241018 1.9260001
-0.0253269 -0.12494604 1.9260002
-0.01519614 -0.12494604 1.9260002
-0.0084423004 -0.12494604 1.9260001
-0.03208074 -0.11988066 1.9260001
-0.025326898 -0.1181922 1.9260002
-0.018573061 -0.11988066 1.9260001
-0.055719178 -0.052342255 1.9260001
