# .PCD v0.7 - Point Cloud Data file format
VERSION 0.7
FIELDS x y z
SIZE 4 4 4
TYPE F F F
COUNT 1 1 1
WIDTH 1500
HEIGHT 1
VIEWPOINT 0 0 0 1 0 0 0
POINTS 1500
DATA ascii
0.0655545 -0.36436111 1.7390002
0.071652599 -0.36588562 1.7390001
0.0062868265 -0.3557477 1.7310001
0.0151751 -0.35509738 1.7310004
0.025816372 -0.35536733 1.7323335
0.034971114 -0.35577586 1.7343335
0.0438684 -0.35549277 1.7374003
0.054273032 -0.35582373 1.7390001
0.062505454 -0.35673845 1.7390001
-0.0055642035 -0.34346309 1.7310001
0.0068287947 -0.343716 1.7310001
0.015175099 -0.34447479 1.7310003
0.025853777 -0.34517923 1.7345557
0.034148801 -0.3460435 1.7367145
0.041162129 -0.34911585 1.7390001
-0.0045525301 -0.33536971 1.7310001
0.0045525301 -0.33536971 1.7310001
0.015220685 -0.33481032 1.7360002
0.025154635 -0.33691967 1.7390002
0.033031341 -0.33895233 1.739
-0.0045554521 -0.32511827 1.7330002
0.0045659724 -0.32561621 1.7356669
0.013720708 -0.32548571 1.7390002
-0.01214008 -0.31108955 1.7310001
-0.0045735701 -0.31557631 1.7390002
0.0041924389 -0.31595746 1.7390002
0.010671663 -0.31710082 1.7390001
-0.013657589 -0.3050195 1.7310001
-0.0048507559 -0.30532044 1.7390002
0.0030490467 -0.30947822 1.7390001
-0.022762651 -0.29287943 1.7310001
-0.014420436 -0.29526728 1.7316669
-0.033385217 -0.28073934 1.7310001
-0.025123222 -0.28411162 1.7310001
-0.015501044 -0.28551298 1.7342002
-0.06221791 -0.27163428 1.7310001
-0.053719856 -0.27224129 1.7310002
-0.043140642 -0.27423576 1.7310001
-0.034902733 -0.27466932 1.7310001
-0.025821045 -0.27494985 1.732778
-0.016420843 -0.27613491 1.7381114
-0.083968885 -0.26354089 1.7310001
-0.074357986 -0.26556423 1.7310001
-0.065252922 -0.26556426 1.7310001
-0.054823697 -0.26546952 1.7334619
-0.044528533 -0.26695541 1.7344286
-0.035007928 -0.26790231 1.7363335
-0.026679158 -0.26907834 1.7390001
-0.019818803 -0.26984063 1.7390001
-0.08346305 -0.25949422 1.7310001
-0.073885642 -0.25875431 1.7342001
-0.065355793 -0.25837177 1.7336668
-0.058625765 -0.25734463 1.7370002
-0.15782103 -0.24280159 1.7310001
-0.14416344 -0.24128409 1.7310001
-0.17299613 -0.23369654 1.7310001
-0.16439691 -0.23420238 1.7310001
-0.15668291 -0.23483467 1.7310001
-0.14568095 -0.23521405 1.7310001
-0.17208563 -0.22550197 1.7310002
-0.16480157 -0.22459146 1.7310002
-0.15508954 -0.224288 1.7310004
-0.14719847 -0.2276265 1.7310001
-0.17147863 -0.21396892 1.7310001
-0.16540858 -0.21396892 1.7310001
-0.15478602 -0.21396889 1.7310003
-0.14719847 -0.21548641 1.7310001
-0.17364649 -0.20443027 1.7310001
-0.16487521 -0.20465359 1.7318001
-0.15534659 -0.20572551 1.7354445
-0.14787877 -0.20276161 1.7390001
-0.1724903 -0.19778214 1.7310001
-0.16492531 -0.19677494 1.7375455
-0.15397687 -0.19605371 1.7390001
-0.14787877 -0.19056542 1.7390001
-0.16251418 -0.18568692 1.7390001
-0.15420786 -0.18611063 1.733
-0.072840482 -0.18058369 1.7310001
-0.066369802 -0.18187356 1.7336668
-0.072840482 -0.17754866 1.7310001
-0.064494178 -0.17678991 1.7310001
-0.044070911 -0.1717428 1.7336668
-0.036588561 -0.17227113 1.7390001
-0.044007789 -0.16844361 1.7310001
-0.034357447 -0.16632417 1.7342001
-0.026645845 -0.16369864 1.7370002
-0.016769756 -0.16159947 1.7390001
-0.025038915 -0.15857978 1.7310001
-0.014974343 -0.15607634 1.7332859
-0.0045655551 -0.15290733 1.7367145
0.0045735701 -0.15092781 1.739
0.012196187 -0.15092781 1.7390001
-0.0045525301 -0.14719847 1.7310001
0.0045618811 -0.14590771 1.7336668
0.014807776 -0.14431408 1.7360909
0.025154635 -0.14254293 1.7390001
0.01821012 -0.13809341 1.7310001
0.026589738 -0.13749421 1.733
0.035405435 -0.13619907 1.7344285
0.043753777 -0.13507263 1.7360002
0.055416204 -0.13488971 1.7366002
0.064538151 -0.13466622 1.7390002
0.074701644 -0.13263352 1.739
0.047042809 -0.12898836 1.7310001
0.054630361 -0.12898836 1.7310001
0.065731585 -0.12690563 1.7321428
0.074866235 -0.12655626 1.7340001
0.085058101 -0.12599875 1.7353638
0.095824055 -0.12472686 1.7350001
0.1051921 -0.12348639 1.739
0.11433925 -0.12196187 1.7390002
0.12501091 -0.12196187 1.7390002
0.13568258 -0.12196186 1.7390002
0.14482974 -0.12196187 1.7390002
0.15397686 -0.12196186 1.7390002
0.098638147 -0.11988329 1.7310001
0.10470819 -0.11866929 1.7310002
0.1158366 -0.1158366 1.7310001
0.12656035 -0.11563426 1.7310002
0.13429964 -0.11608952 1.7310001
0.14416344 -0.11533076 1.7310001
0.15496488 -0.11470702 1.733
0.16497426 -0.11585613 1.7355716
0.17491691 -0.11560077 1.7350001
0.18368778 -0.11362704 1.7374003
0.19361447 -0.11129019 1.739
0.27746326 -0.11281472 1.7390001
0.28203681 -0.1112902 1.7390001
0.18817124 -0.10774321 1.7310001
0.19674723 -0.10710894 1.733
0.20533724 -0.10647467 1.7350001
0.21471912 -0.10527429 1.7340002
0.22399028 -0.10485758 1.7334001
0.23514196 -0.10565772 1.7354445
0.2448837 -0.10343265 1.7350001
0.2545954 -0.10214307 1.739
0.26526707 -0.10214306 1.7390001
0.27695507 -0.10468393 1.7390002
0.25645921 -0.097120643 1.7310001
0.26652384 -0.096665658 1.7344286
0.27530405 -0.097348571 1.7350001
0.28469449 -0.095128171 1.7345557
0.30033109 -0.092995919 1.7390001
0.29743195 -0.089533091 1.7310001
0.18848686 -0.49496949 1.748
0.1946165 -0.49496952 1.748
0.20534338 -0.49496952 1.7479998
0.21607028 -0.49496949 1.748
0.22488165 -0.49458644 1.748
0.23489705 -0.49409389 1.748
0.18848684 -0.48730743 1.748
0.19499961 -0.4861581 1.748
0.20534338 -0.48577502 1.7479998
0.21607028 -0.48577499 1.748
0.22526476 -0.48577499 1.748
0.23292683 -0.48577502 1.748
0.18542202 -0.47504812 1.748
0.19636783 -0.4743914 1.748
0.2053434 -0.47504809 1.7479997
0.21607025 -0.47504809 1.7479998
0.22395125 -0.47614267 1.748
0.17163029 -0.46125641 1.748
0.18772063 -0.46355501 1.748
0.19499961 -0.46393815 1.748
0.20548271 -0.46432123 1.7479999
0.21607026 -0.4643212 1.748
0.16703305 -0.45359433 1.748
0.17163031 -0.45512676 1.748
0.18664794 -0.45390081 1.7479999
0.19499959 -0.45550987 1.748
0.2053434 -0.4566592 1.748
0.21453786 -0.4566592 1.748
0.16703303 -0.44593227 1.748
0.17455581 -0.44565365 1.7479999
0.18454635 -0.44637012 1.748
0.1946165 -0.44899711 1.748
0.15477374 -0.43060815 1.748
0.16464931 -0.43401352 1.748
0.17469512 -0.43520543 1.7479997
0.18388961 -0.43520537 1.748
0.14557926 -0.42141366 1.748
0.15477374 -0.42447853 1.748
0.16396824 -0.4244785 1.748
0.17469512 -0.42447853 1.7479998
0.1846558 -0.42524469 1.748
0.14645493 -0.41484621 1.748
0.15477376 -0.41528401 1.748
0.16396822 -0.41528398 1.748
0.1731627 -0.41566712 1.748
0.18542202 -0.41834885 1.748
0.12719031 -0.4030247 1.748
0.13570371 -0.40540847 1.748
0.14557928 -0.40608954 1.748
0.15477376 -0.40608951 1.748
0.16396822 -0.40608954 1.748
0.17163028 -0.40685576 1.748
0.10880134 -0.3907654 1.748
0.11615694 -0.39260429 1.7479999
0.12412547 -0.3949447 1.7479999
0.13387719 -0.39661643 1.7479999
0.14481306 -0.3991937 1.748
0.15661263 -0.39750803 1.7479999
0.16335526 -0.39873394 1.7479999
0.17009787 -0.39995989 1.748
0.085815147 -0.38157091 1.748
0.095860966 -0.38395464 1.748
0.10535342 -0.38501883 1.748
0.114931 -0.38463572 1.748
0.12374238 -0.38501886 1.748
0.13025513 -0.38770056 1.748
0.094591692 -0.3757199 1.7479999
0.10389762 -0.37605423 1.7479999
0.11339859 -0.37850609 1.748
0.12259307 -0.37850609 1.748
0.06742619 -0.36011714 1.748
0.075701222 -0.36410141 1.7479999
0.083976254 -0.36563379 1.7479999
0.090412386 -0.3693116 1.748
0.06742619 -0.3570523 1.748
0.038310334 -0.34479299 1.748
0.04137516 -0.34479299 1.748
0.027583439 -0.33406612 1.748
0.034734704 -0.3355985 1.748
0.04137516 -0.33866334 1.748
0.017732212 -0.3229014 1.748
0.024737531 -0.32640404 1.748
0.033713095 -0.32946888 1.748
0.0076620667 -0.31261232 1.748
0.014813329 -0.31414473 1.748
-0.0015324133 -0.30188543 1.748
0.0045972401 -0.30495024 1.748
0.010726893 -0.30648267 1.748
-0.0045972397 -0.29575574 1.748
0.0027583439 -0.29636872 1.7479999
-0.0061296532 -0.28962612 1.748
-0.012770112 -0.27379116 1.748
-0.052102052 -0.26204267 1.748
-0.04367378 -0.26357508 1.748
-0.035245508 -0.26510751 1.748
-0.025438061 -0.26633343 1.7479999
-0.015324134 -0.26663989 1.748
-0.053021502 -0.25713897 1.7479999
-0.047504812 -0.25591302 1.748
-0.15324134 -0.20381097 1.748
-0.14864409 -0.2068758 1.748
-0.16320202 -0.19231789 1.748
-0.15538672 -0.19339058 1.7479999
-0.16703305 -0.18848684 1.748
-0.032180678 -0.17009787 1.748
-0.026051026 -0.17009787 1.748
-0.024518613 -0.16703305 1.748
-0.015324133 -0.16396822 1.748
-0.0045972401 -0.16090339 1.748
-0.0045972401 -0.15783857 1.748
0.0045972401 -0.15477374 1.748
0.01379172 -0.15375213 1.748
0.019921374 -0.14864409 1.748
0.026051026 -0.14711168 1.748
0.035245508 -0.14251444 1.748
0.042907573 -0.14251444 1.748
0.055166878 -0.14251444 1.748
0.062828943 -0.14251444 1.748
0.047504812 -0.13944961 1.748
0.052102052 -0.13944961 1.748
0.067936994 -0.13842799 1.748
0.073045038 -0.13740639 1.748
0.085048944 -0.13255376 1.748
0.096542038 -0.13025513 1.748
0.1042041 -0.13025513 1.748
0.10573652 -0.12719031 1.748
0.11493101 -0.12719031 1.748
0.12412548 -0.12719031 1.748
0.13485236 -0.12719031 1.748
0.14557926 -0.12719031 1.748
0.15477374 -0.12719031 1.748
0.16396822 -0.12259307 1.748
0.17469512 -0.12106065 1.748
0.18695444 -0.11646342 1.748
0.19385029 -0.11569721 1.748
0.20556231 -0.11317967 1.748
0.21607029 -0.11339859 1.748
0.22526474 -0.11339859 1.748
0.23445924 -0.11186618 1.748
0.24212131 -0.11186618 1.748
0.27430198 -0.11186618 1.748
0.24671854 -0.10880134 1.748
0.25591305 -0.10726892 1.748
0.26587373 -0.10650273 1.748
0.27368903 -0.10696244 1.7479999
0.28451809 -0.1036933 1.748
0.28962612 -0.099606864 1.748
0.23874702 -0.49135676 1.7570001
0.24182762 -0.49443737 1.7570001
0.18945731 -0.48365524 1.7570001
0.19356479 -0.48314181 1.7570001
0.23689866 -0.48396331 1.7570002
0.18945731 -0.47595373 1.7570001
0.19253792 -0.47595373 1.7570001
0.22827296 -0.47595373 1.7570002
0.23412611 -0.47749403 1.7570001
0.19253792 -0.46979252 1.7570001
0.20486034 -0.46671191 1.7570001
0.22591119 -0.46517158 1.7570001
0.19459166 -0.45233575 1.7570001
0.20486034 -0.45284918 1.7570001
0.21410216 -0.45284918 1.7570001
0.22526936 -0.45554474 1.7570001
0.18945731 -0.44514766 1.7570001
0.19561853 -0.44514766 1.7570001
0.20486034 -0.44514766 1.7570001
0.21410216 -0.44514766 1.7570001
0.2295052 -0.44514766 1.7570001
0.23522632 -0.44426751 1.7570001
0.24490823 -0.44360736 1.7570001
0.18945731 -0.43590584 1.7570001
0.19561853 -0.43590587 1.7570001
0.20442025 -0.43678603 1.7570001
0.2295052 -0.43436554 1.7570001
0.23412611 -0.43436554 1.7570001
0.1848364 -0.42461029 1.7570001
0.19438627 -0.42789626 1.7570002
0.20486034 -0.42974463 1.7570001
0.2295052 -0.42974463 1.7570001
0.23412611 -0.42974463 1.7570001
0.17405428 -0.4128013 1.7570001
0.1832961 -0.41434163 1.7570001
0.15249003 -0.40201917 1.7570001
0.17559458 -0.40509978 1.7570001
0.18373619 -0.40509981 1.7570001
0.13606013 -0.39483109 1.7570001
0.14540464 -0.39524189 1.7570002
0.15454377 -0.39483109 1.7570001
0.16525255 -0.39497781 1.7570001
0.17405428 -0.39585799 1.7570001
0.10936154 -0.38199523 1.7570001
0.11860336 -0.38045493 1.7570001
0.12784518 -0.38199523 1.7570001
0.13428645 -0.38465577 1.7570001
0.14478853 -0.38507581 1.7570001
0.15557064 -0.38661617 1.7570001
0.16481246 -0.38700125 1.7570001
0.17405428 -0.38969675 1.7570001
0.095498808 -0.37121311 1.7570001
0.10551078 -0.37313852 1.7570001
0.11552276 -0.37429374 1.7570001
0.12476458 -0.37429374 1.7570001
0.13362132 -0.37390867 1.7570001
0.14386433 -0.37429374 1.7570002
0.15249003 -0.37429371 1.7570001
0.086256988 -0.36197129 1.7570001
0.093958504 -0.36505193 1.7570001
0.10364041 -0.36637217 1.7570001
0.11429051 -0.3650519 1.7570002
0.12322427 -0.3681325 1.7570001
0.14324822 -0.3681325 1.7570001
0.046209101 -0.35272947 1.7570001
0.054680768 -0.35349962 1.7570001
0.064692743 -0.3542698 1.7570001
0.072394259 -0.35581008 1.7570001
0.087797292 -0.35889068 1.7570001
0.093958504 -0.35889068 1.7570001
0.046209101 -0.34502798 1.7570001
0.053568326 -0.34622601 1.7570001
0.064179309 -0.34631157 1.7570001
0.072394259 -0.34964886 1.7570001
0.038507584 -0.33424583 1.7570001
0.044668797 -0.33424583 1.7570001
0.053910617 -0.33732644 1.7570001
0.06315244 -0.33732644 1.7570001
0.075474866 -0.33732644 1.7570001
0.028033521 -0.32438788 1.7570002
0.035426978 -0.32500401 1.7570001
0.044283722 -0.32538909 1.7570001
0.025064938 -0.31548217 1.7570001
0.034400109 -0.31678906 1.7570001
0.044052675 -0.31761056 1.7570002
0.0077015166 -0.30035916 1.7570001
0.01420502 -0.30480894 1.7570001
0.022334399 -0.30883083 1.7570001
-0.0015403033 -0.29111734 1.7570001
0.005647779 -0.29317108 1.7570001
0.011552275 -0.2949681 1.7570001
-0.0046209102 -0.28495613 1.7570001
0.0037407367 -0.28495613 1.7570001
0.010782124 -0.28495613 1.7570001
-0.0050609969 -0.27659446 1.7570001
0.0015403033 -0.27725461 1.7570001
-0.043641929 -0.26133814 1.7570001
-0.035426978 -0.26185158 1.7570001
-0.024644854 -0.26185158 1.7570001
-0.01386273 -0.26185158 1.7570001
-0.06315244 -0.25723067 1.7570001
-0.052370314 -0.25415006 1.7570001
-0.043128494 -0.25415006 1.7570001
-0.035812054 -0.25453514 1.7570001
-0.024644854 -0.25569037 1.7570001
-0.013092579 -0.25646052 1.7570001
-0.032346372 -0.17405428 1.7570001
-0.024131419 -0.17302741 1.7570001
-0.016943337 -0.17097367 1.7570001
-0.013246609 -0.16666082 1.7570002
-0.0077015166 -0.16173185 1.7570001
0.0046209102 -0.15865125 1.7570001
0.013862731 -0.15711094 1.7570001
0.02310455 -0.15249003 1.7570001
0.029265763 -0.14940943 1.7570001
0.034656826 -0.14709897 1.7570001
0.044668797 -0.14530195 1.7570001
0.053910617 -0.14632882 1.7570001
0.065206178 -0.14427508 1.7570001
0.075474866 -0.14016761 1.7570001
0.078555472 -0.137087 1.7570001
0.083176382 -0.137087 1.7570001
0.094728656 -0.13477655 1.7570001
0.10381645 -0.1340064 1.7570002
0.11552275 -0.13092579 1.7570001
0.12476457 -0.13092579 1.7570001
0.1340064 -0.13092579 1.7570001
0.14478852 -0.13092579 1.7570001
0.15557064 -0.13092579 1.7570001
0.16481246 -0.13092579 1.7570001
0.17097367 -0.13092579 1.7570001
0.16481246 -0.12784518 1.7570001
0.17405428 -0.12630488 1.7570001
0.1832961 -0.12322427 1.7570001
0.26801279 -0.12168396 1.7570001
0.18945731 -0.11860336 1.7570001
0.19561853 -0.11860336 1.7570001
0.20486034 -0.11757649 1.7570001
0.21410216 -0.11860336 1.7570001
0.22488429 -0.11860336 1.7570001
0.2325858 -0.11552275 1.7570001
0.24490823 -0.11398245 1.7570001
0.25337991 -0.11321229 1.7570001
0.26515222 -0.11464258 1.7570001
0.27340385 -0.11552275 1.7570001
0.26493219 -0.10936154 1.7570001
-0.1832961 0.35272947 1.7570001
0.24704742 -0.49343133 1.7659999
0.25235552 -0.49542186 1.766
0.23996997 -0.48148814 1.766
0.24513061 -0.48561665 1.7659999
0.23731592 -0.47441068 1.7659999
0.24461454 -0.47839174 1.766
0.22758442 -0.46290982 1.766
0.23687357 -0.46600622 1.7659999
0.24616274 -0.46512154 1.7659999
0.25235552 -0.46445799 1.766
0.21519887 -0.45052427 1.766
0.22493036 -0.45273596 1.7659999
0.23715509 -0.45559102 1.766
0.24616273 -0.45516884 1.7660002
0.25235552 -0.45516884 1.766
0.21519887 -0.44309291 1.766
0.22448802 -0.4443315 1.7659999
0.2353254 -0.4412351 1.766
0.24616274 -0.44388914 1.7659999
0.25235552 -0.4443315 1.7660002
0.20694184 -0.43401018 1.7660002
0.21519887 -0.43504235 1.7659999
0.22448802 -0.43504235 1.7659999
0.23996997 -0.43504229 1.7660002
0.24616273 -0.43504238 1.7659999
0.19593246 -0.42506507 1.7659999
0.20590973 -0.42575315 1.7659999
0.21519886 -0.42575315 1.7659999
0.22448802 -0.42575315 1.7659999
0.23466189 -0.42752251 1.7659999
0.19558842 -0.41749614 1.7659999
0.20707086 -0.41607696 1.7659999
0.21519887 -0.41734871 1.7659999
0.22493036 -0.41734868 1.7659999
0.18361573 -0.40345922 1.766
0.2074579 -0.40407845 1.7659999
0.18423502 -0.39478928 1.7659999
0.19662055 -0.39169291 1.766
0.15636753 -0.38240376 1.7660002
0.16565669 -0.38317785 1.766
0.17494586 -0.38550016 1.7659999
0.18423501 -0.38550013 1.7659999
0.11921088 -0.37001821 1.766
0.12850004 -0.37001821 1.766
0.1354669 -0.3723405 1.766
0.14398198 -0.37001821 1.766
0.15526167 -0.37444156 1.7660002
0.16565669 -0.37466279 1.7660002
0.17494583 -0.37466273 1.7660002
0.18423502 -0.37466276 1.7660002
0.07740967 -0.36072904 1.766
0.083602436 -0.36072904 1.766
0.10613725 -0.36313736 1.7659999
0.11663056 -0.36330935 1.7659999
0.12540367 -0.36382544 1.7659999
0.13469283 -0.36382541 1.7659999
0.14398198 -0.36382541 1.7659999
0.15481932 -0.36382544 1.7660002
0.1656567 -0.36382544 1.7659999
0.17494586 -0.36382544 1.7659999
0.18423502 -0.36382544 1.7659999
0.07740967 -0.35453629 1.7659999
0.085150629 -0.35453629 1.7659999
0.09443979 -0.35453629 1.7659999
0.10527714 -0.35453629 1.7660002
0.11572745 -0.35492331 1.7659999
0.12540367 -0.35453629 1.7659999
0.13469282 -0.35492331 1.7659999
0.14398198 -0.35453629 1.7659999
0.15430327 -0.35556841 1.7659999
0.16565669 -0.35608447 1.7659999
0.17494583 -0.35608447 1.7659999
0.18423502 -0.35608447 1.7659999
0.055218894 -0.34318283 1.7660002
0.066572316 -0.34292483 1.766
0.075861476 -0.34524712 1.7659999
0.085150629 -0.34524706 1.7659999
0.094439782 -0.34524712 1.7659999
0.10527713 -0.34524706 1.7660002
0.1161145 -0.34524709 1.7659999
0.12540364 -0.34524709 1.7659999
0.13469282 -0.34486005 1.7659999
0.14398199 -0.34524712 1.7659999
0.15172294 -0.34602121 1.766
0.054186769 -0.33557093 1.7659999
0.065540187 -0.33492583 1.7659999
0.075861476 -0.33557093 1.7659999
0.085150629 -0.33595797 1.7659999
0.094439782 -0.33595794 1.7659999
0.10620606 -0.33626762 1.766
0.1161145 -0.33595794 1.7659999
0.1250166 -0.33634499 1.7659999
0.13159643 -0.33750615 1.766
0.14398198 -0.33905435 1.766
0.047993992 -0.3235724 1.766
0.054186765 -0.32512057 1.7660002
0.065024123 -0.3251206 1.7660003
0.075579986 -0.32554281 1.766
0.085150629 -0.328217 1.7659999
0.092375539 -0.32873306 1.7660002
0.10785747 -0.32873306 1.7660002
0.1161145 -0.32976517 1.7660002
0.12385546 -0.32976517 1.766
0.029415673 -0.31118685 1.766
0.036640581 -0.31325111 1.7659999
0.045339946 -0.31339857 1.7659999
0.054186769 -0.31428322 1.7659999
0.063819975 -0.31497133 1.7659999
0.074313283 -0.31737962 1.766
0.017030127 -0.3018977 1.766
0.025193326 -0.30471262 1.766
0.035608448 -0.30499411 1.7659999
0.044897605 -0.30499411 1.7659999
0.054186769 -0.30499411 1.7659999
0.061618097 -0.30561337 1.766
0.015791573 -0.29508564 1.766
0.024348855 -0.29598638 1.766
0.034369893 -0.29694349 1.766
0.044897605 -0.2988013 1.7660002
0.054186765 -0.2988013 1.766
0.0069668703 -0.28331938 1.766
0.014965869 -0.2843515 1.7659999
0.021158641 -0.2858997 1.7659999
-0.0040253028 -0.27217239 1.766
0.0050316285 -0.27364317 1.7659999
0.013049058 -0.27447253 1.7659999
0.020126512 -0.27712661 1.766
-0.0046445802 -0.26474106 1.7659999
0.0046445802 -0.26474106 1.7659999
0.010837353 -0.26474103 1.7660002
-0.032512061 -0.25235552 1.766
-0.024771092 -0.25235552 1.766
-0.014553018 -0.25359407 1.766
-0.0046445797 -0.25700009 1.7659999
0.0046445802 -0.25777417 1.766
-0.024771092 -0.24925913 1.766
-0.013933741 -0.24771093 1.7659999
-0.0046445802 -0.24771094 1.7659999
0.0050316285 -0.2465498 1.7659999
0.010837353 -0.24616273 1.7660002
0.010837353 -0.23996997 1.766
-0.013314463 -0.17370729 1.766
-0.0046445797 -0.16462456 1.7660002
0.0046445802 -0.1625603 1.7660002
0.010837353 -0.1625603 1.766
0.01393374 -0.15946391 1.766
0.024771092 -0.15559343 1.766
0.036227725 -0.15203258 1.766
0.044278327 -0.15141329 1.766
0.054186765 -0.15017475 1.7660002
0.060379539 -0.15017475 1.766
0.047993992 -0.14707837 1.766
0.066572316 -0.14707837 1.7660002
0.076635577 -0.14320788 1.766
0.085150629 -0.14088559 1.7660002
0.094439782 -0.14088559 1.7660002
0.10218076 -0.14088559 1.766
0.11766269 -0.14088559 1.766
0.088247016 -0.1377892 1.766
0.092891596 -0.1377892 1.766
0.10759943 -0.1370151 1.766
0.1161145 -0.136241 1.7659999
0.12540366 -0.136241 1.7659999
0.13469282 -0.136241 1.7659999
0.14320788 -0.13546692 1.766
0.15481932 -0.136241 1.7659999
0.16565669 -0.136241 1.7659999
0.17494585 -0.13417676 1.7659999
0.18423502 -0.13314463 1.7659999
0.25854829 -0.13159643 1.766
0.18500911 -0.12772594 1.766
0.19352417 -0.12230727 1.7660002
0.20281333 -0.12230727 1.766
0.21519887 -0.12230727 1.7660002
0.22448802 -0.12230727 1.7660002
0.25854829 -0.12540366 1.766
0.26319286 -0.12462956 1.766
0.19971694 -0.11921088 1.766
0.20590971 -0.11921088 1.766
0.23749284 -0.11797234 1.766
0.24678202 -0.11797234 1.766
0.25607118 -0.11797234 1.766
0.26474106 -0.11766269 1.766
0.27093384 -0.1161145 1.766
0.25586042 -0.4940753 1.7760001
0.26437181 -0.49542469 1.7760005
0.27433634 -0.4979158 1.7760003
0.24755664 -0.48421454 1.7760001
0.25378448 -0.48421451 1.7760001
0.26312622 -0.48421457 1.7760001
0.24568829 -0.47549558 1.7760003
0.25378445 -0.4748728 1.7760001
0.26374903 -0.47456139 1.7760003
0.29737934 -0.47175887 1.7760001
0.2568984 -0.46553102 1.7760001
0.26468322 -0.46553108 1.7760004
0.272468 -0.46397409 1.7760001
0.29737934 -0.46553105 1.7760001
0.30049327 -0.46708798 1.7760001
0.2568984 -0.45618927 1.7760001
0.26468319 -0.45618936 1.7760004
0.25627559 -0.44435638 1.7760003
0.26390472 -0.44658804 1.7760004
0.24599968 -0.43127793 1.7760001
0.25467414 -0.43394703 1.7760001
0.26001233 -0.43750575 1.7760001
0.23510097 -0.42349306 1.7760001
0.24444273 -0.42505008 1.7760001
0.25456297 -0.42660704 1.7760001
0.26208827 -0.42297411 1.7760001
0.19462 -0.41415134 1.7760001
0.20396176 -0.41446275 1.7760003
0.21641743 -0.41383997 1.7760003
0.22513643 -0.41383997 1.7760003
0.23510095 -0.4157083 1.7760001
0.24399789 -0.41659799 1.7760001
0.25440726 -0.41633111 1.7760003
0.26312625 -0.41531909 1.7760001
0.19462 -0.40480962 1.7760004
0.20292379 -0.40429056 1.7760001
0.21593836 -0.40445027 1.7760004
0.22575916 -0.40480959 1.7760004
0.23481788 -0.40523422 1.7760003
0.24132881 -0.40325263 1.7760001
0.19423075 -0.39391091 1.7760001
0.20396177 -0.39391088 1.7760001
0.21486045 -0.39391088 1.7760004
0.22575919 -0.39391088 1.7760001
0.23302501 -0.39598683 1.7760001
0.19461998 -0.38456911 1.7760001
0.20396177 -0.38456911 1.7760001
0.21486048 -0.38456908 1.7760004
0.19461998 -0.37522739 1.7760001
0.20396177 -0.37522733 1.7760001
0.21434149 -0.37626535 1.7760001
0.19423075 -0.36627486 1.7760001
0.20396177 -0.36627483 1.7760001
0.2138225 -0.36484766 1.7760001
0.22264528 -0.36277169 1.7760001
0.11988592 -0.35342991 1.7760001
0.13545552 -0.35187295 1.7760001
0.15517701 -0.35239196 1.7760001
0.16503775 -0.35187298 1.7760001
0.17593648 -0.35187292 1.7760001
0.18527824 -0.35187295 1.7760001
0.19358201 -0.35861978 1.7760001
0.13701248 -0.34097424 1.7760001
0.14479728 -0.34097424 1.7760001
0.15502873 -0.34364337 1.7760001
0.16503775 -0.34408817 1.7760004
0.17593649 -0.34408817 1.7760001
0.18527824 -0.34408817 1.7760001
0.098088481 -0.33163247 1.7760001
0.10198088 -0.33396789 1.7760001
0.12922768 -0.33318943 1.7760001
0.13584477 -0.33435714 1.7760001
0.14479728 -0.33474636 1.7760001
0.15413903 -0.33474639 1.7760001
0.16503777 -0.33474636 1.7760004
0.17554724 -0.33513564 1.7760001
0.18652381 -0.33599198 1.7760003
0.079404958 -0.32229072 1.7760001
0.085632801 -0.32384768 1.7760001
0.095363803 -0.3250154 1.7760001
0.10392707 -0.3250154 1.7760001
0.11521503 -0.32540461 1.7760004
0.12611376 -0.32540464 1.7760001
0.13545553 -0.32540464 1.7760001
0.14479728 -0.32540461 1.7760001
0.15413904 -0.32540461 1.7760001
0.16392565 -0.32673916 1.7760001
0.17282256 -0.32696161 1.7760001
0.18839216 -0.32540464 1.7760001
0.066949278 -0.31294897 1.7760001
0.075253054 -0.31502491 1.7760001
0.085632801 -0.31606287 1.7760001
0.09497457 -0.31606287 1.7760001
0.10431632 -0.31606287 1.7760001
0.11521504 -0.3160629 1.7760004
0.12611376 -0.31606287 1.7760001
0.13545553 -0.31606284 1.7760001
0.14479728 -0.31606287 1.7760001
0.15206309 -0.31813881 1.7760001
0.18839216 -0.31761983 1.7760001
0.054493599 -0.30049327 1.7760001
0.065169893 -0.3036072 1.7760001
0.074734077 -0.30516416 1.7760005
0.085632801 -0.30516419 1.7760004
0.094585329 -0.30711034 1.7760001
0.10431632 -0.30609831 1.7760003
0.11490365 -0.30485275 1.7760005
0.12583067 -0.30558881 1.7760003
0.13510953 -0.30568314 1.7760001
0.14451419 -0.30558875 1.7760003
0.15102512 -0.30672112 1.7760001
0.028544268 -0.29218951 1.7760001
0.036699772 -0.29382059 1.7760001
0.045151837 -0.29426542 1.7760001
0.054493602 -0.29426542 1.7760001
0.063835353 -0.29426545 1.7760001
0.072787873 -0.29465467 1.7760001
0.10431632 -0.29426545 1.7760001
0.12611376 -0.29737934 1.7760001
0.026857559 -0.28453442 1.7760001
0.035810079 -0.28492367 1.7760001
0.045151837 -0.28492367 1.7760001
0.054104362 -0.28531292 1.7760001
0.063056879 -0.2872591 1.7760001
0.070063196 -0.2880376 1.7760001
0.01712656 -0.27402496 1.7760001
0.025335986 -0.27529883 1.7760003
0.035810079 -0.27558193 1.7760001
0.045151837 -0.27558193 1.7760001
0.051379681 -0.27558193 1.7760001
0.091860637 -0.27402496 1.7760001
0.015050615 -0.26416424 1.7760001
0.024911359 -0.26468322 1.7760005
0.035810083 -0.26510784 1.7760003
0.044840444 -0.26561737 1.7760003
0.051379681 -0.26779711 1.7760001
-0.0046708798 -0.25378448 1.7760001
0.0046708798 -0.25503007 1.7760003
0.01440188 -0.2541737 1.7760001
0.022108832 -0.25503004 1.7760003
0.0155696 -0.24444272 1.7760001
0.021486048 -0.24381995 1.7760003
-0.0077848001 -0.17437953 1.7760001
-0.0046708798 -0.16867065 1.7760001
0.0062278397 -0.16659471 1.7760001
0.0155696 -0.16192384 1.7760001
0.023354402 -0.16036688 1.7760001
0.035810079 -0.16036688 1.7760001
0.02958224 -0.15725295 1.7760001
0.035810079 -0.15725295 1.7760001
0.045930319 -0.15647447 1.7760001
0.053715121 -0.15491752 1.7760001
0.06383536 -0.15206309 1.7760001
0.070063196 -0.15102512 1.7760001
0.076291032 -0.14791121 1.7760001
0.085632801 -0.14635424 1.7760001
0.094974555 -0.14635424 1.7760001
0.10509481 -0.1440188 1.7760001
0.11417707 -0.1437593 1.7760001
0.12611376 -0.14324032 1.7760001
0.13545552 -0.14168335 1.7760001
0.14479728 -0.14168335 1.7760001
0.15413904 -0.14168335 1.7760001
0.16451879 -0.14272133 1.7760001
0.17593648 -0.14168335 1.7760001
0.18527824 -0.14168335 1.7760001
0.14635424 -0.13856944 1.7760001
0.17749344 -0.13856944 1.7760001
0.18527824 -0.13856944 1.7760001
0.25378448 -0.13456582 1.7760001
0.19462 -0.12767072 1.7760001
0.20351692 -0.12611376 1.7760001
0.21486047 -0.12689224 1.7760001
0.22498073 -0.12689224 1.7760001
0.23432249 -0.12377832 1.7760001
0.2450655 -0.12424541 1.7760003
0.25378451 -0.12611376 1.7760001
0.26156926 -0.12611376 1.7760001
0.27510065 -0.49480557 1.7850001
0.28437594 -0.49577293 1.785
0.27384877 -0.48510352 1.785
0.28480271 -0.48510349 1.785
0.29665083 -0.48309153 1.785
0.27474299 -0.47459659 1.785
0.28480271 -0.4741495 1.785
0.29536542 -0.47414953 1.785
0.27619603 -0.46397802 1.7850001
0.28480271 -0.46476051 1.785
0.29536542 -0.46436927 1.785
0.2754136 -0.45537135 1.785
0.28480271 -0.45537138 1.785
0.29340938 -0.45615378 1.7850001
0.2660245 -0.44285256 1.7850001
0.27423999 -0.44559103 1.785
0.28323781 -0.44598225 1.7850001
0.26474416 -0.43460149 1.785
0.27384877 -0.43502828 1.785
0.28219464 -0.43554989 1.7850001
0.25454894 -0.42511758 1.785
0.26524207 -0.42485678 1.7850001
0.27384877 -0.42407435 1.7850001
0.28362906 -0.42368314 1.785
0.3067106 -0.42563921 1.7850001
0.24630737 -0.4128074 1.7850001
0.25454894 -0.41364202 1.785
0.26445964 -0.41155556 1.7850002
0.27384877 -0.41468525 1.7850001
0.28089058 -0.41546768 1.7850001
0.23942205 -0.40216646 1.7850001
0.24657564 -0.40529615 1.785
0.25507057 -0.40529615 1.7850001
0.26445964 -0.40529612 1.7850001
0.27340168 -0.40619034 1.785
0.28010815 -0.40842584 1.7850001
0.23733558 -0.39486381 1.785
0.24568145 -0.39590707 1.7850001
0.25507057 -0.39629823 1.785
0.26289481 -0.39903674 1.7850001
0.2253384 -0.38495314 1.785
0.2347275 -0.38495308 1.785
0.24568146 -0.38495311 1.785
0.25437504 -0.38617024 1.7850001
0.2159493 -0.37243432 1.7850001
0.22416477 -0.37360793 1.785
0.2347275 -0.37399915 1.785
0.24489902 -0.37634641 1.7850001
0.19873595 -0.36304522 1.7850001
0.20499533 -0.36226279 1.7850001
0.21438444 -0.36335817 1.7850001
0.22422063 -0.36461005 1.785
0.2347275 -0.36460999 1.785
0.19560625 -0.35482976 1.785
0.20499536 -0.35522094 1.7850001
0.21438444 -0.35522097 1.7850001
0.22338235 -0.35522097 1.785
0.2315978 -0.35835063 1.7850001
0.19560625 -0.34583184 1.7850001
0.20538658 -0.34622309 1.785
0.21438444 -0.34583187 1.7850001
0.22377355 -0.34583184 1.7850001
0.23003295 -0.3473967 1.7850001
0.1789145 -0.33122659 1.7850002
0.18465231 -0.33331302 1.785
0.19560625 -0.33957246 1.7850002
0.20656019 -0.33957246 1.7850001
0.21438444 -0.33957246 1.7850002
0.22377355 -0.33879003 1.7850001
0.15804985 -0.32079425 1.7850001
0.16483086 -0.32288072 1.785
0.17540546 -0.32363942 1.785
0.18465228 -0.32392395 1.785
0.12049345 -0.31140515 1.7850001
0.13927165 -0.31140515 1.7850001
0.15531136 -0.31414366 1.785
0.16430925 -0.31453487 1.7850001
0.17526318 -0.31453487 1.785
0.18582594 -0.31414366 1.785
0.09623827 -0.30279848 1.7850001
0.10484495 -0.30201605 1.7850001
0.12988254 -0.30201605 1.7850001
0.13614196 -0.30201605 1.7850001
0.14866075 -0.30201605 1.7850001
0.15531136 -0.30475453 1.785
0.16430925 -0.30514574 1.7850001
0.17483641 -0.30543026 1.785
0.18621714 -0.3067106 1.785
0.079024926 -0.29497424 1.7850001
0.086066753 -0.29575664 1.7850001
0.095455855 -0.29575664 1.7850001
0.10484495 -0.29575664 1.785
0.11423405 -0.29575661 1.7850001
0.12504573 -0.29547209 1.785
0.13614194 -0.29575661 1.7850001
0.14553106 -0.29575664 1.7850001
0.15447305 -0.29665086 1.785
0.16509168 -0.29810393 1.7850001
0.17056865 -0.2973215 1.7850001
0.056856215 -0.28115138 1.7850002
0.064158849 -0.28323784 1.785
0.075112797 -0.28558514 1.785
0.086414494 -0.28567207 1.7850001
0.095455848 -0.28480271 1.785
0.10484495 -0.28480271 1.785
0.11289275 -0.28502625 1.785
0.12362316 -0.28636754 1.7850002
0.1371852 -0.28741077 1.785
0.14474863 -0.28714997 1.7850001
0.15179045 -0.28949726 1.7850001
0.055663951 -0.27429587 1.785
0.061029151 -0.27384874 1.7850001
0.079807349 -0.2754136 1.7850001
0.086513862 -0.27474299 1.785
0.096350051 -0.27340168 1.785
0.10484495 -0.27384877 1.7850001
0.11188677 -0.27384874 1.7850001
0.035991549 -0.26132995 1.7850001
0.046945497 -0.26132995 1.7850001
0.054769754 -0.26445964 1.785
0.089196451 -0.26758936 1.7850001
0.095455848 -0.26758936 1.7850002
0.10562737 -0.26680693 1.7850001
0.11110435 -0.2660245 1.7850001
0.026602453 -0.25454894 1.785
0.035991549 -0.2566354 1.785
0.04329418 -0.257157 1.7850002
0.026602451 -0.24568145 1.7850001
0.0344267 -0.24255174 1.7850001
0.0281673 -0.23942205 1.7850001
-0.0026080832 -0.17265512 1.7850002
0.0053204894 -0.17182052 1.7850001
0.00156485 -0.16743895 1.7850001
0.0125188 -0.16743895 1.7850001
0.025976513 -0.16368333 1.7850001
0.035991553 -0.16305737 1.7850001
0.044754706 -0.16243143 1.7850001
0.051640049 -0.16117954 1.7850001
0.054769751 -0.15804985 1.7850001
0.065723702 -0.15492015 1.7850001
0.076051705 -0.15304233 1.7850001
0.086066753 -0.15179045 1.7850002
0.095455848 -0.15179045 1.7850002
0.10484495 -0.14866075 1.7850002
0.11423405 -0.14866075 1.7850002
0.12362314 -0.14866075 1.7850002
0.13614196 -0.14553104 1.7850002
0.14553104 -0.14553104 1.7850002
0.1555461 -0.14678292 1.7850001
0.16430925 -0.14787832 1.7850001
0.17526321 -0.14657427 1.785
0.18699957 -0.14631347 1.7850001
0.21751414 -0.14240135 1.7850001
0.19521503 -0.13575074 1.785
0.20499535 -0.1345771 1.785
0.21490605 -0.13509871 1.785
0.2231476 -0.13426413 1.7850001
0.2315978 -0.13301225 1.7850001
0.2472463 -0.1345771 1.7850001
0.20812505 -0.12988254 1.7850001
0.21125475 -0.12988254 1.7850001
0.22690324 -0.12988254 1.7850001
0.23577075 -0.12883931 1.785
0.24489902 -0.12910011 1.7850001
0.26289481 0.37712884 1.7850001
0.25820026 0.38025856 1.7850001
0.26258183 0.38338822 1.7850001
0.2956751 -0.49384034 1.794
0.30039334 -0.49384034 1.794
0.29410237 -0.48754939 1.794
0.30039334 -0.46081281 1.794
0.29536057 -0.45326367 1.794
0.30144182 -0.45661888 1.794
0.2941024 -0.44508541 1.794
0.30196607 -0.44429904 1.794
0.28781143 -0.43564901 1.794
0.29370919 -0.43604213 1.7939999
0.30039334 -0.43564898 1.794
0.28781143 -0.42621255 1.794
0.29500109 -0.42666191 1.7939999
0.30196607 -0.42621255 1.794
0.28646332 -0.41452932 1.7939999
0.29158598 -0.41614699 1.794
0.30353883 -0.41834885 1.794
0.26893854 -0.40104869 1.794
0.27585858 -0.40230688 1.794
0.28361747 -0.40524268 1.794
0.29095688 -0.40733966 1.794
0.25635663 -0.39475775 1.794
0.26579306 -0.39475775 1.794
0.27418101 -0.39580622 1.794
0.25845364 -0.38322428 1.794
0.26474455 -0.38636979 1.794
0.24587168 -0.37378788 1.794
0.2547839 -0.37588483 1.794
0.23748374 -0.36015746 1.794
0.2437747 -0.36487567 1.794
0.25321114 -0.36959389 1.794
0.2280473 -0.35701197 1.794
0.23473145 -0.3542597 1.7939999
0.24141558 -0.35465285 1.794
0.20288345 -0.3428573 1.794
0.23473145 -0.34403685 1.7939999
0.24062921 -0.34757555 1.794
0.19659249 -0.3349936 1.794
0.20602894 -0.3349936 1.794
0.21546538 -0.33499363 1.794
0.22490181 -0.33460042 1.7939999
0.23224127 -0.33709061 1.794
0.19659249 -0.32555717 1.794
0.20563574 -0.32595038 1.7939999
0.21441688 -0.32765415 1.794
0.22490183 -0.32791629 1.794
0.19659251 -0.31612074 1.794
0.20414166 -0.31674984 1.794
0.17614688 -0.30039334 1.794
0.18401057 -0.30196607 1.794
0.19266066 -0.30589792 1.794
0.20288345 -0.30982977 1.794
0.11638276 -0.29095688 1.794
0.12424646 -0.29095688 1.794
0.13053742 -0.29095688 1.794
0.14941029 -0.29095688 1.794
0.15727401 -0.29252961 1.794
0.16474451 -0.29370922 1.7939999
0.17496732 -0.29370922 1.7939999
0.18401058 -0.29598969 1.794
0.19030154 -0.29724786 1.794
0.067627817 -0.28152046 1.794
0.075491518 -0.28152046 1.794
0.08414159 -0.28309318 1.794
0.11690701 -0.28256896 1.794
0.12424646 -0.28421658 1.7939999
0.1340324 -0.28396693 1.794
0.14626481 -0.28421658 1.7939999
0.15530808 -0.28505912 1.7939999
0.16435133 -0.28702503 1.794
0.17300141 -0.28781143 1.794
0.064875528 -0.27522948 1.7939999
0.073918782 -0.27522948 1.794
0.083355218 -0.27208403 1.794
0.11669731 -0.27522951 1.794
0.12424646 -0.27522948 1.794
0.13525563 -0.27522948 1.7940001
0.14587164 -0.27522948 1.7939999
0.15255578 -0.27522948 1.794
0.058191381 -0.26264757 1.794
0.064089157 -0.26618624 1.7939999
0.07339453 -0.26684156 1.794
0.084499031 -0.2655071 1.7940001
0.095937133 -0.26422033 1.794
0.10474448 -0.26390576 1.794
0.11570873 -0.2653437 1.7939999
0.12424646 -0.26669177 1.7939999
0.13525563 -0.26736581 1.794
0.14563572 -0.26768035 1.794
0.15255578 -0.26893854 1.794
0.02988206 -0.25163841 1.794
0.03617302 -0.25163841 1.794
0.04665795 -0.25530812 1.794
0.055045903 -0.25635663 1.794
0.06133686 -0.25635663 1.794
0.092791662 -0.25950211 1.794
0.10537358 -0.25950211 1.794
0.11166454 -0.25950211 1.794
0.02988206 -0.24692018 1.794
0.036959391 -0.2461338 1.794
0.042463981 -0.24534744 1.794
-0.0031454801 -0.17771962 1.794
0.0047182203 -0.17667113 1.794
0.012581919 -0.17300141 1.794
0.02280473 -0.17378777 1.794
0.01730014 -0.16671044 1.794
0.025163841 -0.16828318 1.794
0.03617302 -0.16828318 1.794
0.045609459 -0.16671044 1.794
0.05347316 -0.16356495 1.794
0.081782475 -0.16199222 1.794
0.058191381 -0.15884674 1.794
0.064482339 -0.15884674 1.794
0.074547872 -0.15758856 1.794
0.085601993 -0.15749869 1.7939999
0.095150769 -0.15648764 1.794
0.10458721 -0.15334214 1.794
0.11481002 -0.15255578 1.794
0.12424646 -0.15255578 1.794
0.13368291 -0.15255578 1.794
0.14783755 -0.15255578 1.794
0.15507217 -0.15381397 1.794
0.16513769 -0.15255578 1.794
0.13525563 -0.14941029 1.794
0.14626481 -0.14941029 1.794
0.15255578 -0.14941029 1.794
0.17142867 -0.14941029 1.794
0.18401057 -0.14941029 1.794
0.19619931 -0.14587164 1.7939999
0.20602894 -0.14311934 1.794
0.21546538 -0.14469208 1.794
0.22385333 -0.14416783 1.794
0.19973798 -0.13997386 1.794
0.20602894 -0.13997386 1.794
0.21441688 -0.13892537 1.794
0.22490181 -0.13892537 1.794
0.23433825 -0.13682838 1.794
0.24298833 -0.13604201 1.794
0.25163841 -0.13997386 1.794
0.25761479 0.38595039 1.794
0.26789007 0.38427278 1.794
0.25792938 0.39161226 1.794
0.26264757 0.39161226 1.794
0.30575797 -0.45336524 1.804
0.30575797 -0.44387627 1.804
0.29890475 -0.43491432 1.8040001
0.30586338 -0.43617955 1.8040001
0.29890475 -0.42226228 1.8040001
0.30206776 -0.42226228 1.8040001
0.29732326 -0.41593626 1.804
0.30206776 -0.41593626 1.8040003
0.28730705 -0.40222988 1.804
0.29363307 -0.4064472 1.8040003
0.30364928 -0.40961021 1.8040001
0.27781799 -0.39274082 1.804
0.28625271 -0.39537665 1.804
0.2662203 -0.38219741 1.8040003
0.27360064 -0.38430613 1.804
0.30733946 -0.38536045 1.8040003
0.25462258 -0.37165406 1.8040001
0.264507 -0.37442169 1.804
0.27201912 -0.3748171 1.804
0.30839381 -0.37481707 1.8040001
0.24829654 -0.36532804 1.8040003
0.25462258 -0.36532804 1.804
0.2622138 -0.36596066 1.8040001
0.27280989 -0.36611879 1.8040001
0.24618787 -0.35583901 1.8040003
0.25462258 -0.35900202 1.8040003
0.2609486 -0.35900202 1.8040001
0.2388075 -0.34002393 1.8040001
0.24323574 -0.34508473 1.8040001
0.21666642 -0.33053491 1.8040001
0.23603988 -0.33330256 1.804
0.21571751 -0.32357621 1.8040001
0.22615546 -0.3238135 1.804
0.23406298 -0.32737187 1.8040001
0.20506871 -0.31261113 1.8040003
0.21508491 -0.31471983 1.8040003
0.22615544 -0.31471983 1.8040001
0.19610684 -0.30523083 1.804
0.20401436 -0.30681232 1.804
0.214136 -0.30776122 1.8040001
0.18503627 -0.29336947 1.8040001
0.19347097 -0.29363307 1.8040003
0.20401436 -0.29574174 1.8040001
0.15973218 -0.2830897 1.8040001
0.1666908 -0.2843549 1.8040001
0.17599909 -0.28534898 1.804
0.18503627 -0.28625271 1.804
0.19136231 -0.28625271 1.8040003
0.13600957 -0.27043763 1.8040001
0.15727206 -0.27535787 1.804
0.1660582 -0.27518216 1.8040003
0.17554724 -0.27518216 1.8040003
0.18503626 -0.27518216 1.8040003
0.19136231 -0.27518213 1.8040001
0.066950448 -0.26200292 1.8040003
0.074857973 -0.26305726 1.804
0.083819859 -0.2609486 1.8040003
0.095417567 -0.2609486 1.8040003
0.11703149 -0.2609486 1.8040001
0.12493902 -0.2622138 1.8040001
0.13482344 -0.26371625 1.804
0.1439171 -0.26253012 1.804
0.15498766 -0.26411158 1.8040003
0.1660582 -0.26411161 1.804
0.17554724 -0.26450697 1.804
0.18458441 -0.26501533 1.804
0.19136231 -0.26569313 1.8040001
0.045863692 -0.25145957 1.8040003
0.055352733 -0.25145957 1.8040003
0.065745495 -0.25417072 1.804
0.074330807 -0.25501797 1.804
0.083819859 -0.2562041 1.804
0.095417574 -0.2556769 1.804
0.10596094 -0.25462258 1.804
0.11544999 -0.25462258 1.804
0.12430642 -0.25652036 1.8040001
0.13442807 -0.25778559 1.8040003
0.14497145 -0.2556769 1.804
0.15182464 -0.25778559 1.8040001
0.0477615 -0.24576613 1.8040001
0.054720126 -0.24703136 1.8040001
0.064841777 -0.24829654 1.8040003
0.071167797 -0.24829654 1.8040001
0.099634923 -0.24829654 1.8040001
0.10596095 -0.24603724 1.804
0.11386848 -0.24671504 1.8040001
0.16922121 -0.2388075 1.8040001
0.17238423 -0.2388075 1.8040001
0.0047445199 -0.18187326 1.8040001
0.0015815067 -0.17871025 1.8040001
0.015498767 -0.17681244 1.8040001
0.024355203 -0.17617984 1.8040001
0.033844244 -0.17301683 1.8040001
0.0474452 -0.16922121 1.8040001
0.058515746 -0.16289519 1.8040001
0.06484177 -0.16289519 1.8040003
0.074330807 -0.16447668 1.804
0.084610604 -0.16526745 1.8040001
0.092676297 -0.1641604 1.8040001
0.1454986 -0.16289519 1.8040001
0.15735991 -0.16526744 1.8040001
0.1660582 -0.16922121 1.8040001
0.098053411 -0.15973218 1.8040001
0.10659355 -0.15846696 1.8040001
0.11544999 -0.15815066 1.804
0.12493902 -0.15815066 1.804
0.13442807 -0.15747288 1.804
0.14352173 -0.15696453 1.804
0.15498765 -0.15867783 1.804
0.1660582 -0.15815066 1.804
0.17599909 -0.15566544 1.804
0.18503627 -0.15467134 1.8040001
0.19347097 -0.15446047 1.8040003
0.20085135 -0.15024313 1.8040001
0.22457394 -0.15024313 1.8040001
0.2388075 -0.15024313 1.8040001
0.20401436 -0.14708012 1.8040001
0.22773698 -0.14470786 1.8040001
0.23603988 -0.14431249 1.804
0.24276127 -0.14312635 1.8040001
0.24513353 -0.13759108 1.8040001
0.25778559 0.39695817 1.8040001
0.2609486 0.39695817 1.8040001
0.25778559 0.4017027 1.8040001
0.2609486 0.4017027 1.8040001
0.30039597 -0.41165373 1.8130001
0.29642245 -0.40450144 1.8130001
0.30516416 -0.40847495 1.8130001
0.28609139 -0.39258099 1.8130001
0.29494661 -0.39530566 1.813
0.30516416 -0.39575973 1.8130001
0.284502 -0.38622344 1.813
0.29403836 -0.38622338 1.813
0.30493709 -0.38576931 1.813
0.26860803 -0.37032941 1.8130001
0.27814442 -0.3750976 1.8130001
0.28421304 -0.37553111 1.8129998
0.292449 -0.37668702 1.8130001
0.30516416 -0.37615719 1.8130001
0.31311116 -0.3798658 1.8130001
0.26733652 -0.36333612 1.8130001
0.27496561 -0.36351773 1.813
0.284502 -0.36436915 1.813
0.29509798 -0.36344203 1.8130001
0.30145559 -0.36609104 1.8130001
0.24953528 -0.35443544 1.8130001
0.25589287 -0.35443544 1.813
0.26542923 -0.35443544 1.813
0.27496564 -0.35443544 1.813
0.28132319 -0.35443544 1.8130001
0.29721716 -0.35284606 1.8130001
0.30357477 -0.35443544 1.8130001
0.24826375 -0.34426332 1.8130001
0.25589284 -0.34489909 1.813
0.26542926 -0.34489909 1.813
0.27405742 -0.34535319 1.813
0.28132319 -0.34807786 1.8130001
0.24635649 -0.33536267 1.813
0.25589287 -0.3353627 1.813
0.26542926 -0.3353627 1.813
0.27305835 -0.33599845 1.8130001
0.2372742 -0.32491809 1.813
0.24635649 -0.32582632 1.813
0.25589287 -0.32582635 1.813
0.26542926 -0.32582635 1.813
0.22537646 -0.31628996 1.8130001
0.23523073 -0.31628993 1.8129998
0.24635649 -0.31628993 1.813
0.25589287 -0.31946874 1.8130001
0.26225045 -0.31946874 1.8130001
0.19708519 -0.30039597 1.8130001
0.20503217 -0.30198538 1.8130001
0.21496589 -0.30317742 1.813
0.2243939 -0.30473071 1.8129998
0.23364134 -0.30617559 1.8129998
0.24317768 -0.30993235 1.8130001
0.1967673 -0.29403836 1.8130001
0.20503217 -0.29364103 1.813
0.21456854 -0.29403841 1.813
0.22365081 -0.29494661 1.813
0.23205191 -0.29562777 1.8130001
0.19708519 -0.284502 1.8130001
0.20503217 -0.284502 1.813
0.21456856 -0.284502 1.813
0.22357512 -0.28503183 1.8130001
0.19708519 -0.27496561 1.8130001
0.20503217 -0.27496561 1.813
0.21456856 -0.27536297 1.813
0.22092614 -0.276555 1.8130001
0.17642303 -0.26225045 1.8130001
0.18754882 -0.26225045 1.8130001
0.19549578 -0.26622391 1.8130001
0.20185338 -0.26860803 1.8130001
0.074701644 -0.25271407 1.8130001
0.084238023 -0.25271407 1.8130001
0.093774401 -0.25271407 1.8130001
0.12635703 -0.25350878 1.8130001
0.13509871 -0.25430346 1.8130001
0.1425159 -0.25377366 1.8130001
0.15462558 -0.25498465 1.813
0.16370785 -0.25589287 1.813
0.17483361 -0.25589284 1.8129998
0.1859594 -0.25589287 1.813
0.19231699 -0.25589287 1.8130001
0.056423578 -0.24397239 1.8130001
0.065165266 -0.24476707 1.8130001
0.075098991 -0.24595912 1.813
0.083840668 -0.24675384 1.813
0.093774408 -0.24635649 1.813
0.10331079 -0.24397239 1.8130001
0.11729747 -0.24508496 1.8130001
0.12510823 -0.24726471 1.813
0.13509871 -0.24794589 1.8130001
0.14503245 -0.24675384 1.813
0.15417148 -0.24635649 1.813
0.16416195 -0.24726471 1.813
0.17483364 -0.24635649 1.8129998
0.1859594 -0.24635649 1.813
0.19231699 -0.24635649 1.8130001
0.094569102 -0.2392042 1.8130001
0.10421901 -0.23863657 1.813
0.11602595 -0.23999889 1.8130001
0.12238354 -0.23999889 1.8130001
0.0015893966 -0.18278061 1.8130001
0.012715174 -0.18278061 1.8130001
0.032317732 -0.17854221 1.8130001
0.052450091 -0.17006545 1.8130001
0.068344057 -0.17006545 1.8130001
0.074701644 -0.17006545 1.8130001
0.093774401 -0.17006545 1.8130001
0.16370785 -0.17006545 1.8130001
0.17596892 -0.17188191 1.813
0.18278061 -0.17006545 1.8130001
0.055628885 -0.16688664 1.8130001
0.065165259 -0.16688664 1.8130001
0.096953198 -0.16688664 1.8130001
0.10490018 -0.16529724 1.813
0.1153902 -0.16497937 1.8130001
0.12556233 -0.16529725 1.8130001
0.13509871 -0.16529724 1.8130001
0.1438404 -0.16609193 1.8130001
0.15480724 -0.16561511 1.8130001
0.16529724 -0.16529724 1.8130001
0.17483363 -0.16434361 1.813
0.18489982 -0.16264826 1.8130001
0.18595941 -0.15735027 1.8130001
0.19655538 -0.15629068 1.8130001
0.20344278 -0.15576088 1.8130001
0.22410493 -0.15311188 1.8130001
0.23300555 -0.15226419 1.8130001
0.20821096 -0.14781389 1.8130001
0.21297915 -0.14781389 1.8130001
0.24794587 -0.1446351 1.8130001
0.25589287 0.39734918 1.8130001
0.26542923 0.39893857 1.8130001
0.30479255 -0.40524858 1.8230001
0.30205286 -0.3947463 1.8230001
0.29885653 -0.38196105 1.8230001
0.30418375 -0.38302648 1.8230001
0.28926757 -0.37237206 1.8230001
0.29693872 -0.37428984 1.8230002
0.30205286 -0.37556839 1.8230001
0.28607124 -0.36278307 1.8230001
0.29352936 -0.36704484 1.8230001
0.30205286 -0.36278307 1.8230001
0.28766942 -0.35639039 1.8230001
0.29474702 -0.35684705 1.8230001
0.30285195 -0.35559133 1.8230001
0.27967858 -0.34360513 1.8230001
0.28571609 -0.34538087 1.8230002
0.29459479 -0.34786689 1.8230001
0.30365103 -0.34999776 1.8230001
0.27754769 -0.33295071 1.8230001
0.28447309 -0.33401611 1.8230001
0.25730428 -0.32123083 1.8230001
0.26689327 -0.32123083 1.8230001
0.27584299 -0.3241075 1.8230002
0.28415343 -0.32506642 1.8230002
0.24771531 -0.31164184 1.8230001
0.25502121 -0.31438157 1.8230001
0.26369694 -0.31483814 1.8230002
0.27392519 -0.3148382 1.8230002
0.23812634 -0.30365103 1.8230001
0.24451897 -0.30524915 1.8230002
0.25410795 -0.30524915 1.8230002
0.26369694 -0.30524915 1.8230002
0.22693919 -0.2924639 1.8230001
0.23620853 -0.29438168 1.8230002
0.244519 -0.29566023 1.8230002
0.25410801 -0.2956602 1.8230002
0.26209879 -0.29566023 1.8230001
0.22640646 -0.28500581 1.8230001
0.23492998 -0.28607124 1.8230002
0.24451897 -0.28607121 1.8230002
0.25370842 -0.2864708 1.8230001
0.26050061 -0.28766942 1.8230001
0.20776123 -0.2700896 1.8230001
0.21575205 -0.27088869 1.8230001
0.22598028 -0.27424482 1.8230002
0.23463942 -0.27531993 1.8230001
0.24451897 -0.27648222 1.8230002
0.25319475 -0.27648225 1.8230001
0.26050061 -0.2748841 1.8230001
0.1984919 -0.26305765 1.8230002
0.20616306 -0.26369694 1.8230002
0.21575205 -0.26369694 1.8230002
0.22470176 -0.26561472 1.8230002
0.23173368 -0.26689327 1.8230001
0.19817227 -0.25410795 1.8230001
0.20509762 -0.25517341 1.8230001
0.21415389 -0.25730428 1.8230001
0.087898985 -0.244519 1.8230001
0.12785307 -0.24292082 1.8230001
0.13584387 -0.24292082 1.8230001
0.14223653 -0.244519 1.8230001
0.19817226 -0.24771531 1.8230001
0.20296673 -0.24771531 1.8230001
0.03835592 -0.17739613 1.8230001
0.057533883 -0.17100348 1.8230001
0.063926533 -0.17100348 1.8230001
0.059132043 -0.16780715 1.8230001
0.20829396 -0.15289097 1.8230001
0.21575205 -0.15182552 1.8230001
0.22214471 -0.15502185 1.8230001
0.29326475 -0.34388304 1.8330001
0.30156723 -0.34763253 1.8330001
0.29366645 -0.3362501 1.8330001
0.28764048 -0.32299292 1.8330001
0.27478504 -0.31013748 1.8330001
0.28471878 -0.31481221 1.8330001
0.26835731 -0.30049592 1.8330001
0.27438331 -0.30411151 1.8330001
0.28121275 -0.30692363 1.8330001
0.26755384 -0.29326475 1.8330001
0.25871572 -0.28281969 1.8330001
0.2638579 -0.28378385 1.8329999
0.23943257 -0.27157116 1.8330001
0.24586029 -0.27157116 1.8330001
0.25630534 -0.27237463 1.8330001
0.26407215 -0.27478504 1.8330001
0.2273806 -0.26273307 1.8330001
0.23662043 -0.26474172 1.8330001
0.24393198 -0.26578623 1.8329999
0.25389493 -0.26835731 1.8330001
0.2619296 -0.26835731 1.8330001
0.20729397 -0.25228801 1.8330001
0.21307893 -0.25421631 1.8329999
0.22336327 -0.25871572 1.8330001
0.20729397 -0.24907415 1.8330001
0.21532862 -0.15587221 1.8330001
0.22014941 -0.15587221 1.8330001
0.29890388 -0.34414339 1.8430001
0.30213529 -0.34252769 1.8430001
0.2924411 -0.33121783 1.8430001
0.2924411 -0.32152364 1.8430001
0.27951553 -0.30213529 1.8430001
0.28274691 -0.30375099 1.8430001
0.27536085 -0.29613408 1.8430002
0.26982135 -0.28597832 1.8430001
0.26658994 -0.27305272 1.8430001
0.23427601 -0.26012716 1.8430001
0.24477805 -0.26093501 1.8430001
0.25258723 -0.26605138 1.8430001
0.26228142 -0.2687442 1.8430001
0.21811906 -0.25366437 1.8430001
0.22296613 -0.25689578 1.8430001
0.2439702 -0.25689578 1.8430001
0.143797 -0.2439702 1.8430001
0.28274691 0.37968871 1.8430001
0.28753 -0.31027249 1.853
0.29077893 -0.31027249 1.853
0.28644702 -0.30377465 1.853
0.29077893 -0.30702356 1.853
0.27615875 -0.29077893 1.853
0.28211513 -0.29619381 1.853
0.27453431 -0.28753 1.853
0.25341627 -0.26153859 1.853
0.21930255 -0.25179181 1.853
0.2258004 -0.25449926 1.853
0.23554718 -0.2566652 1.853
0.243128 -0.25612369 1.853
0.28753 0.37849995 1.853
0.28908172 -0.30214754 1.863
0.2335519 -0.25315064 1.863
0.24171804 -0.25315064 1.863
0.2237525 -0.24988419 1.863
0.23137426 -0.24879538 1.863
0.22484134 -0.23246308 1.863
0.22375251 -0.22620235 1.863
0.23028544 -0.22701897 1.863
