# .PCD v0.7 - Point Cloud Data file format
VERSION 0.7
FIELDS x y z
SIZE 4 4 4
TYPE F F F
COUNT 1 1 1
WIDTH 1461
HEIGHT 1
VIEWPOINT 0 0 0 1 0 0 0
POINTS 1461
DATA ascii
-0.047130544 0.15571056 1.0113846
-0.051574122 0.16292937 1.0178001
-0.0467024 0.16229036 1.0127001
0.36033192 -0.39088374 1.0250001
0.3589192 -0.38388667 1.0275713
0.36283708 -0.3841528 1.0236248
0.35780203 -0.37399617 1.0259999
0.36163151 -0.37553057 1.0227503
0.3564938 -0.36454573 1.0245199
0.3610692 -0.36465302 1.0220001
0.35470393 -0.3551726 1.0243331
0.34876955 -0.34155986 1.028
0.35361445 -0.34487942 1.0242997
0.34883654 -0.333083 1.026875
0.35357806 -0.33557108 1.0232692
0.34773001 -0.32513842 1.0267999
0.35263881 -0.32597169 1.0225627
0.34767145 -0.31494156 1.0262855
0.35091504 -0.31627151 1.0220002
0.34605038 -0.30422011 1.0250001
0.34396079 -0.29478297 1.0244285
0.33885622 -0.28207979 1.028
0.34214452 -0.28504711 1.0236877
0.33876261 -0.27496484 1.0250001
0.34135821 -0.27684957 1.0220001
0.33791584 -0.26508021 1.0250001
0.33369693 -0.25480765 1.0253531
0.32927775 -0.24250284 1.0268
0.3320879 -0.24639079 1.0240002
0.32717884 -0.23456745 1.0251579
0.33060679 -0.23742764 1.0220001
0.32583532 -0.22528097 1.0251667
0.32341918 -0.21497251 1.0247859
0.31935403 -0.20345297 1.026875
0.32146725 -0.20623857 1.0233334
0.31830266 -0.19526786 1.025
0.31586769 -0.18452522 1.0248572
0.31360367 -0.17448026 1.0253333
0.31303099 -0.16538309 1.0252727
0.30765945 -0.15345179 1.0263845
0.31098291 -0.15602316 1.0233638
0.30739695 -0.14490774 1.024857
0.3108958 -0.14514445 1.0220002
0.3062996 -0.13491115 1.025375
0.30490422 -0.12458088 1.0244642
0.29861048 -0.11404148 1.027
0.30377054 -0.11500237 1.0237141
0.29830161 -0.10484115 1.028
0.30271918 -0.10500973 1.0244443
0.29800969 -0.094535336 1.027
0.30343556 -0.094925679 1.0234399
0.29791531 -0.085199244 1.0270624
0.30492827 -0.08512105 1.0235515
0.3108958 -0.081531756 1.0220001
0.29789391 -0.076116376 1.0270768
0.30394375 -0.075564213 1.0246248
0.3103061 -0.078098729 1.024
0.29830161 -0.069393426 1.028
0.30136871 -0.068631954 1.0274
-0.18414794 0.0099133467 1.028
-0.17339346 0.0088318912 1.028
-0.16472916 0.0080996985 1.0267999
-0.15492851 0.008208436 1.0271177
-0.14520161 0.008229332 1.0269285
-0.13639376 0.0091058398 1.0273334
-0.19105724 0.014419413 1.028
-0.18461414 0.015449404 1.0240356
-0.17508957 0.01420666 1.0231053
-0.16493693 0.012549044 1.0225002
-0.1543285 0.013233393 1.0235001
-0.14504634 0.014260384 1.0231998
-0.13461766 0.013810436 1.0230501
-0.12533616 0.015456234 1.0246843
-0.11564993 0.01760328 1.0260714
-0.10473771 0.017855654 1.027
-0.098232254 0.018925481 1.028
-0.18546236 0.020606926 1.0220001
-0.11300058 0.022418996 1.0230002
-0.10466068 0.022321522 1.0236877
-0.0952105 0.023594964 1.024591
-0.084771581 0.024817374 1.0246842
-0.075077116 0.026937773 1.0243999
-0.065027893 0.027988717 1.0260587
-0.054901097 0.028553592 1.0266362
-0.04718959 0.028930377 1.0267143
-0.06300877 0.032064851 1.0231252
-0.054703329 0.032902919 1.0229232
-0.044237524 0.033472519 1.0232631
-0.035040017 0.03503539 1.0248798
-0.025358308 0.03606157 1.0251303
-0.016020557 0.037626535 1.0267999
-0.0045060664 0.038451765 1.028
-0.036734086 0.0403179 1.0220001
-0.022996135 0.0403179 1.0220001
-0.014271257 0.041838754 1.0233638
-0.0050315401 0.042576276 1.0247
0.0052478188 0.043830749 1.0248421
0.015459833 0.046187002 1.0246843
0.025161428 0.046722382 1.0249999
0.034824643 0.047801562 1.0260713
0.04522898 0.048413038 1.0270768
0.053686563 0.048794266 1.028
0.11916179 0.042109806 1.0220001
0.12991323 0.041213855 1.0220001
0.13640891 0.044797659 1.0220002
0.1439081 0.046232682 1.0256314
0.028670507 0.051069338 1.0220001
0.034964271 0.051995277 1.0226002
0.045214083 0.052253183 1.0236156
0.054783955 0.052983277 1.0244
0.061848454 0.053617813 1.0267142
0.13708086 0.052562594 1.0220002
0.14406501 0.053766165 1.0251764
0.12632942 0.060028873 1.0220001
-0.060924828 0.1496242 1.0220001
-0.070988081 0.15904924 1.0250001
-0.062839411 0.15646777 1.0230001
-0.05778899 0.1554479 1.0220001
-0.070988081 0.16084641 1.0250001
-0.062557906 0.16298197 1.026091
-0.0554621 0.16566005 1.0236501
-0.049277432 0.16843922 1.0220001
-0.054583021 0.17311275 1.0273999
0.35616618 -0.40239316 1.0380001
0.35619715 -0.39485747 1.0362415
0.36142051 -0.39493501 1.0332501
0.35484058 -0.38494912 1.033893
0.35320905 -0.3753415 1.0350647
0.34863979 -0.36273223 1.0370001
0.35206851 -0.3657842 1.0340626
0.34851542 -0.35453254 1.0356251
0.35129881 -0.35627788 1.032125
0.34752461 -0.34497368 1.0338184
0.34527677 -0.33558926 1.0339617
0.34306198 -0.32527876 1.0340954
0.33942252 -0.31394309 1.0380001
0.34321764 -0.31499729 1.0337859
0.33938861 -0.30384743 1.0366668
0.34240481 -0.30559084 1.0327334
0.33850923 -0.2947093 1.0355626
0.34120089 -0.29555675 1.031
0.33657321 -0.28475079 1.0342633
0.34074894 -0.28742218 1.031
0.33397177 -0.27456659 1.0338711
0.3329972 -0.26510465 1.0341853
0.32868603 -0.25352281 1.0355334
0.33178648 -0.25780037 1.0328572
0.32665083 -0.24459906 1.0347729
0.32310492 -0.23510969 1.0343335
0.32249776 -0.22503911 1.0344212
0.31863853 -0.21363927 1.0370001
0.32166517 -0.21625857 1.0330001
0.31711406 -0.20487833 1.0350001
0.31522268 -0.19454403 1.0350502
0.30910739 -0.18129466 1.034
0.31238663 -0.18608074 1.0340668
0.30841187 -0.17471673 1.0355455
0.31083995 -0.17575645 1.031
0.30699959 -0.1646985 1.0349475
0.31001827 -0.16540334 1.031
0.30427215 -0.15504694 1.0347918
0.29860345 -0.14338684 1.0380001
0.303002 -0.14466165 1.0342729
0.29792231 -0.134028 1.0376668
0.30195162 -0.13523531 1.0335627
0.29727677 -0.1242718 1.0346844
0.30085436 -0.12735501 1.0321251
0.29661995 -0.11505289 1.034353
0.29676738 -0.10458582 1.0349547
0.28787595 -0.091837145 1.0372001
0.29332173 -0.09525843 1.0356401
0.28804514 -0.085114948 1.0361178
0.29383594 -0.085017845 1.0340872
0.28766429 -0.074691609 1.0362223
0.29385194 -0.074926786 1.0342729
0.28825888 -0.065114245 1.0364002
0.29518628 -0.065199681 1.0338752
0.30051124 -0.064263612 1.0325
0.28811476 -0.054637622 1.0362858
0.29432148 -0.055787973 1.035143
0.28782645 -0.048121739 1.0357143
0.29097793 -0.049856033 1.034
-0.19321908 -0.0012133067 1.0380001
-0.18437281 -0.0018175055 1.036
-0.17457329 -0.0033966221 1.035737
-0.16482578 -0.0034698464 1.0356364
-0.15526243 -0.0024664388 1.0357144
-0.1454051 -0.00090881111 1.0366668
-0.13922694 -0.00090997998 1.0380001
-0.20129344 0.0055763521 1.0362858
-0.19496317 0.0054351287 1.0343668
-0.18537059 0.0047796182 1.0321788
-0.17576404 0.0042300913 1.0311201
-0.1650935 0.0025987141 1.0311875
-0.15515977 0.0030128111 1.031
-0.14438355 0.0030744264 1.0319501
-0.13430536 0.0040929108 1.0343202
-0.12476503 0.0061086137 1.0344517
-0.11511895 0.0066632023 1.0367223
-0.10722115 0.0084028505 1.0365
-0.19486859 0.01355765 1.031
-0.12232014 0.012352526 1.031
-0.11486889 0.012842547 1.0336472
-0.10453302 0.013154715 1.0334764
-0.094748981 0.015509768 1.0359168
-0.085289784 0.016427141 1.0360001
-0.074965768 0.017799089 1.0374287
-0.066064551 0.01874559 1.0380001
-0.091288179 0.020788396 1.031
-0.084315673 0.021046638 1.031
-0.074808441 0.021972215 1.0326365
-0.064969718 0.022830758 1.0331055
-0.055365365 0.023862304 1.0353531
-0.044247556 0.025181374 1.0353335
-0.035307746 0.025505742 1.0344669
-0.025551004 0.02793932 1.0352106
-0.018164534 0.0290615 1.036
-0.024670651 0.031905908 1.0314287
-0.014408746 0.033357993 1.0347224
-0.0052769748 0.034720939 1.0350002
0.0048075086 0.036724396 1.0344502
0.014698193 0.037726469 1.0370001
0.024569461 0.038219161 1.0380001
0.032986775 0.038446654 1.0380001
0.0077730529 0.04103449 1.031
0.015375271 0.041502669 1.0316668
0.025333477 0.041616246 1.0320001
0.035562143 0.042804401 1.0334376
0.04476586 0.043553393 1.0340954
0.055311237 0.04513197 1.0343335
0.064191677 0.046926513 1.0361112
0.072448894 0.046832412 1.0373334
0.066548936 0.051644038 1.0335555
0.071888417 0.050048899 1.0380001
-0.073119149 0.16593207 1.0328749
-0.06642314 0.16650952 1.0319475
-0.073007263 0.17490092 1.0377501
-0.064449102 0.17513341 1.0342965
-0.058147259 0.17624944 1.031
-0.070675105 0.18411928 1.0380001
-0.064651497 0.18456073 1.0362085
-0.058806803 0.18365991 1.0320001
-0.06096866 0.1910958 1.0380001
0.34970847 -0.41395935 1.0470001
0.35200316 -0.41166466 1.0470001
0.34902006 -0.40455121 1.0470001
0.35308149 -0.40450144 1.0429412
0.34810221 -0.39514303 1.0470001
0.35109797 -0.39542401 1.0425
0.34674549 -0.38443995 1.0461001
0.35094586 -0.38636014 1.0425
0.34705609 -0.37502015 1.0443463
0.3462669 -0.36518928 1.0442502
0.3450067 -0.35499015 1.04445
0.34241608 -0.34533226 1.0438638
0.33867303 -0.33384001 1.045909
0.34151217 -0.33553252 1.0423636
0.33780885 -0.32451978 1.0456874
0.34056172 -0.32568493 1.0422857
0.33742052 -0.31453368 1.0443335
0.33618605 -0.30472672 1.0444093
0.33467928 -0.29466534 1.0438638
0.3294901 -0.28260666 1.0446
0.33270133 -0.28565553 1.0428001
0.32896453 -0.27455172 1.0444286
0.33127743 -0.27560821 1.041
0.32770228 -0.26498228 1.0448573
0.32526189 -0.25536948 1.045143
0.3227706 -0.24578524 1.0438
0.31839889 -0.2336293 1.046
0.32101846 -0.23613454 1.044
0.31769285 -0.22510664 1.0450587
0.32032612 -0.22541466 1.041
0.31570211 -0.21521683 1.0441668
0.32032612 -0.21993901 1.041
0.30932218 -0.20101354 1.0470001
0.31305808 -0.20504545 1.0441667
0.30914491 -0.19539638 1.0464
0.31185979 -0.19586556 1.0423999
0.30795985 -0.18445832 1.0455
0.31049976 -0.18794572 1.0432501
0.30625001 -0.17482235 1.04475
0.30264255 -0.1652246 1.0444094
0.29864585 -0.15446691 1.0453334
0.30094153 -0.15600516 1.0420001
0.29530701 -0.14412776 1.0454351
0.30024868 -0.14875543 1.041
0.28912905 -0.13400902 1.0470001
0.29395759 -0.1351089 1.0448753
0.28867009 -0.12391244 1.0470001
0.29287496 -0.12538996 1.044
0.28779545 -0.11378602 1.0455
0.29243568 -0.11538193 1.0415457
0.28580365 -0.10429445 1.0452275
0.29238439 -0.10570204 1.0420589
0.28557709 -0.095583543 1.0431602
0.28407052 -0.084825546 1.0441668
0.27995035 -0.072511733 1.0470001
0.28356555 -0.075080439 1.0438697
0.27995035 -0.065168768 1.0470001
0.28389913 -0.064799316 1.0438573
0.27995035 -0.0550722 1.0470001
0.28404033 -0.055189226 1.0438849
0.28396553 -0.047082525 1.0448999
-0.20305924 -0.010703661 1.0465
-0.19525474 -0.012836109 1.0456501
-0.18545961 -0.013344624 1.0455558
-0.17512332 -0.013250417 1.0453638
-0.16503069 -0.013186212 1.0453849
-0.15533878 -0.012357443 1.0462942
-0.14594132 -0.010708484 1.0470001
-0.13676263 -0.01009657 1.0470001
-0.21132991 -0.0053745927 1.0461428
-0.20537241 -0.0045013544 1.0438752
-0.19569178 -0.0052848132 1.0420436
-0.18543778 -0.00639616 1.0419999
-0.17572814 -0.0076050833 1.041
-0.16518241 -0.0082134902 1.041
-0.15483212 -0.006764886 1.0426002
-0.14482439 -0.0056152786 1.0441306
-0.13475089 -0.0045110565 1.0440003
-0.12515733 -0.0035370986 1.0450001
-0.11740123 -0.00091721246 1.04625
-0.20545769 0.000913136 1.0416
-0.1268528 0.00091260998 1.041
-0.11450025 0.0026087721 1.0424999
-0.10500522 0.0045760358 1.0449375
-0.095169179 0.0069364375 1.0452857
-0.08615043 0.0069214432 1.0464545
-0.077407032 0.0082608303 1.0470001
-0.094637923 0.010650332 1.0413334
-0.084214434 0.011142522 1.0419
-0.074828163 0.012564349 1.0444093
-0.064918697 0.014124701 1.0442611
-0.055479165 0.016525207 1.0449133
-0.044882879 0.017400432 1.0448
-0.035144892 0.018099256 1.0444615
-0.026234776 0.018897075 1.0464001
-0.05293138 0.020990029 1.041
-0.04654311 0.020990029 1.041
-0.030724535 0.021598436 1.041
-0.024433265 0.022733534 1.0433573
-0.014652278 0.025027188 1.0446252
-0.0052370806 0.026583666 1.0457143
0.0040648533 0.027929474 1.0470001
0.01376805 0.02845397 1.0470001
-0.011863929 0.030116132 1.041
-0.0045630499 0.03011613 1.041
0.0050228615 0.031499512 1.0415001
0.014950114 0.032636866 1.0420909
0.02470517 0.03293496 1.0437001
0.03532891 0.034577444 1.0430456
0.04444332 0.036482565 1.0431001
0.054969333 0.037557855 1.045
0.064708188 0.037218768 1.045125
0.07347168 0.038895451 1.0457143
0.055408467 0.041328195 1.041
0.064795308 0.041980058 1.0410001
0.076176569 0.043642357 1.0428948
0.081963949 0.04565417 1.0458
0.07665924 0.050193548 1.041
-0.074442908 0.175873 1.041
-0.081573397 0.18697853 1.0455
-0.075191915 0.18528716 1.0426668
-0.072674789 0.19454969 1.0457999
-0.066106603 0.19391626 1.0413531
-0.070675991 0.20284927 1.0470001
-0.068642996 0.20043756 1.044
0.34609881 -0.42208302 1.057
0.34649625 -0.41470376 1.0530002
0.35053983 -0.41444767 1.0513334
0.34468946 -0.40490994 1.0509598
0.34387615 -0.39424428 1.0516316
0.33911043 -0.38253874 1.054
0.34235018 -0.38501665 1.05225
0.33911043 -0.37884271 1.054
0.34231305 -0.37499872 1.0528234
0.34232914 -0.36515784 1.0538824
0.33924893 -0.35402167 1.053
0.34173223 -0.35689044 1.0513333
0.33836791 -0.3447198 1.0535001
0.33570293 -0.33537993 1.0525293
0.3347418 -0.32563856 1.0526668
0.32987037 -0.31139025 1.054
0.33362845 -0.31518063 1.0523685
0.32964179 -0.30467585 1.05475
0.33215496 -0.30543765 1.0510001
0.32956555 -0.29318538 1.0549999
0.33123088 -0.29604569 1.0507001
0.32817259 -0.2846148 1.0535001
0.33045951 -0.28903699 1.0500001
0.32607159 -0.2753422 1.0521876
0.32320878 -0.26536542 1.0515001
0.31968966 -0.25111854 1.057
0.32130125 -0.25584349 1.0516667
0.31906617 -0.24456622 1.0527273
0.32112965 -0.24669716 1.0508001
0.31600073 -0.23499697 1.0518461
0.31420609 -0.22514215 1.0515386
0.31234002 -0.21542582 1.0514287
0.30873045 -0.20376946 1.0533333
0.31057674 -0.20637611 1.0500001
0.30747211 -0.19484062 1.0516667
0.30436334 -0.18473202 1.0518668
0.29845417 -0.17094123 1.054
0.30223206 -0.17522246 1.0516472
0.29722625 -0.16495645 1.052421
0.30100349 -0.1684515 1.0500001
0.29543886 -0.15437302 1.0520475
0.28945702 -0.14322881 1.0523751
0.29249367 -0.14684255 1.0515715
0.28821588 -0.13495094 1.0539411
0.28653097 -0.12522556 1.0514287
0.28500193 -0.11485544 1.0527272
0.27997401 -0.10164073 1.054
0.28219143 -0.10615425 1.0529287
0.27934021 -0.09755598 1.0558001
0.28163815 -0.094441324 1.0527501
0.27891695 -0.083722323 1.05525
0.28152016 -0.086192794 1.0521111
0.27859178 -0.075321384 1.0546923
0.28075251 -0.075787835 1.0500001
0.27769721 -0.063902915 1.0547223
0.28075251 -0.065355502 1.0500001
0.27622247 -0.054792836 1.054074
0.27851906 -0.047383722 1.054625
0.28148013 -0.046528205 1.0510001
-0.20346294 -0.022106901 1.057
-0.19492272 -0.022862187 1.056077
-0.18595071 -0.023029219 1.0567858
-0.17387956 -0.023579635 1.0563078
-0.16533078 -0.023966091 1.0553501
-0.15502903 -0.023153815 1.0564001
-0.14632435 -0.022660475 1.057
-0.13992214 -0.021312643 1.057
-0.21435559 -0.01328605 1.0539376
-0.2055299 -0.015530737 1.0535715
-0.19522139 -0.018417364 1.0504
-0.18433012 -0.018640125 1.0500001
-0.1745268 -0.018594101 1.0500001
-0.16430925 -0.018640125 1.0500001
-0.15443951 -0.01740534 1.0517501
-0.14490403 -0.015956888 1.0534091
-0.135094 -0.015222588 1.0540335
-0.12528977 -0.013803673 1.0558181
-0.11737398 -0.012046277 1.057
-0.2144765 -0.0073640002 1.0500001
-0.12438322 -0.0078321397 1.0510001
-0.11463332 -0.0051251529 1.053
-0.10623875 -0.0038480593 1.0547894
-0.095443577 -0.00092663674 1.057
-0.086177208 -0.00092663674 1.057
-0.10281171 0.0017105018 1.0511429
-0.094950423 0.0024796177 1.0515385
-0.083975747 0.0030903528 1.0526472
-0.074926361 0.0045205103 1.0526668
-0.06516023 0.0059730522 1.0531578
-0.055771016 0.0071725575 1.0558751
-0.046463508 0.0075889528 1.0558001
-0.038918741 0.0083397301 1.057
-0.062593997 0.0101255 1.0500001
-0.054355629 0.011408939 1.0509232
-0.045172296 0.011982395 1.0516001
-0.034862317 0.012965861 1.0531905
-0.02504291 0.014874839 1.0536112
-0.015157672 0.017332114 1.0537648
-0.0049335142 0.017729197 1.05525
0.0044011953 0.01852583 1.0566251
0.012046278 0.019459371 1.057
-0.012886999 0.021171499 1.0500001
-0.0037660005 0.022517741 1.0503637
0.0048150434 0.023658313 1.0515556
0.014993303 0.024290055 1.052375
0.025104813 0.026123792 1.0518889
0.034750108 0.026014842 1.0531819
0.044734403 0.026951833 1.0546154
0.054191932 0.027659902 1.0556667
0.063011296 0.028725736 1.057
0.034979001 0.0303765 1.0500001
0.045859486 0.031492673 1.0504001
0.055020113 0.032359827 1.0511765
0.065489508 0.032279994 1.052143
0.07488545 0.034072779 1.0533335
0.084306121 0.036032677 1.0540768
0.095198445 0.037806455 1.0558462
0.10437299 0.038666021 1.057
0.11257905 0.039171074 1.0555
0.086618878 0.045016304 1.0522002
0.094996691 0.04457232 1.0540003
0.10462394 0.043144185 1.0561001
0.11026976 0.04169865 1.057
0.14548197 0.04169865 1.057
0.084084608 0.050820366 1.054
-0.083765499 0.18870249 1.0500001
-0.082438 0.19538717 1.0545833
-0.076876849 0.19705148 1.050889
-0.080617391 0.20200679 1.057
-0.07522735 0.20382486 1.0528334
0.3358098 -0.44057497 1.067
0.33692595 -0.43465906 1.0658001
0.34076354 -0.43208942 1.0630001
0.33733034 -0.42487445 1.063381
0.34296334 -0.42475569 1.0602002
0.33617374 -0.41536382 1.0643042
0.34203199 -0.41532901 1.0607061
0.33595702 -0.40532684 1.0638095
0.34142074 -0.40515527 1.0608002
0.33607179 -0.39493316 1.064423
0.341052 -0.3960211 1.0610911
0.3360301 -0.38423058 1.0630713
0.34104085 -0.38843346 1.0600001
0.33550689 -0.37503046 1.0627929
0.34104085 -0.37449446 1.0600001
0.33550501 -0.36533493 1.0631818
0.34104085 -0.3679896 1.0600001
0.33511421 -0.35486108 1.0627812
0.33299127 -0.34526801 1.0627584
0.32833004 -0.33253413 1.0655
0.33206126 -0.33524284 1.0624118
0.3271842 -0.32438982 1.0644091
0.33253592 -0.32538569 1.0606924
0.32805133 -0.315007 1.0630908
0.33174819 -0.31780919 1.0600001
0.32769635 -0.30459243 1.06285
0.32623887 -0.29465243 1.0626087
0.31897253 -0.28529802 1.067
0.32341975 -0.28542486 1.0627497
0.3190839 -0.27452323 1.0663333
0.32241789 -0.2752817 1.06265
0.31818259 -0.26475933 1.0648462
0.32140738 -0.26563296 1.060375
0.3179791 -0.25550422 1.0636876
0.32059699 -0.25647759 1.0600001
0.31599596 -0.24562037 1.063
0.31407768 -0.23486008 1.0631112
0.30892211 -0.22492933 1.0646001
0.31161022 -0.22453682 1.0615001
0.30875233 -0.21451144 1.0658572
0.31081295 -0.21496436 1.0615001
0.30732307 -0.20504679 1.0628824
0.30433461 -0.19496427 1.0640832
0.29857996 -0.18270041 1.066
0.30174029 -0.1861302 1.0635626
0.29687539 -0.17419906 1.0639412
0.30103454 -0.17741963 1.0618001
0.29356226 -0.16495699 1.0630668
0.28942975 -0.1512513 1.0650001
0.29236072 -0.15643443 1.0629376
0.28665063 -0.14420766 1.0635556
0.29086047 -0.14961194 1.0600001
0.28413862 -0.13488758 1.0626843
0.27968559 -0.12066703 1.067
0.28310826 -0.12503362 1.062476
0.27968955 -0.1143093 1.0658333
0.28251934 -0.11579777 1.0607061
0.27828622 -0.1047905 1.0633531
0.27690485 -0.09438391 1.0632173
0.2737923 -0.085241564 1.0665555
0.27413481 -0.074807867 1.0633333
0.26931813 -0.060573284 1.0630001
0.27315369 -0.065729089 1.0617691
0.26808071 -0.056979392 1.0655
0.27122802 -0.054504473 1.0610001
0.27611688 -0.045661099 1.063
-0.2266794 -0.031491909 1.067
-0.21233656 -0.03086831 1.067
-0.20477724 -0.031792141 1.0666001
-0.19468427 -0.034120381 1.0648637
-0.18548346 -0.034049045 1.0646086
-0.17476876 -0.03326983 1.0639046
-0.16503076 -0.033569448 1.06355
-0.1551723 -0.033326838 1.0639545
-0.14738901 -0.032096229 1.0663333
-0.224185 -0.027126694 1.067
-0.21487172 -0.025018604 1.0633334
-0.2055608 -0.026252849 1.061
-0.19544624 -0.027390165 1.0604616
-0.18437028 -0.027116779 1.0609231
-0.17625089 -0.027258486 1.0600002
-0.16368368 -0.028276255 1.0600001
-0.15518753 -0.027877998 1.0600002
-0.14433323 -0.026780896 1.0614445
-0.13471738 -0.024422659 1.0638181
-0.12480879 -0.023772962 1.0632499
-0.11786082 -0.021514276 1.067
-0.22085951 -0.019569829 1.0630001
-0.21466061 -0.018585335 1.0600002
-0.209085 -0.0195146 1.0600001
-0.1310266 -0.0195146 1.0600001
-0.12483148 -0.019204844 1.0600001
-0.11521792 -0.015173035 1.0623571
-0.10525725 -0.012870081 1.0634999
-0.094692387 -0.012028853 1.0655
-0.085784711 -0.010807422 1.0652858
-0.077638477 -0.010289436 1.067
-0.10257686 -0.0071283225 1.0605
-0.094907604 -0.005585352 1.0613749
-0.08454819 -0.0053677452 1.0620476
-0.075490974 -0.0044323164 1.0631249
-0.065396085 -0.0033330028 1.0635238
-0.055351101 -0.0026698257 1.0650001
-0.046770167 -0.00093540334 1.067
-0.071553536 0.00092926668 1.0600001
-0.064140767 0.0013942285 1.0603751
-0.054274049 0.0031367678 1.0605626
-0.044564974 0.0033228167 1.0622855
-0.034913041 0.0051849401 1.0626667
-0.025424428 0.0062954538 1.064375
-0.016942335 0.0076033301 1.0652858
-0.023231668 0.011151201 1.0600001
-0.01451657 0.012105838 1.0624706
-0.0046632234 0.012492909 1.0638001
0.0046646912 0.01398902 1.0641178
0.015315117 0.016375216 1.0633333
0.025193209 0.016790709 1.0643001
0.034528833 0.017494978 1.0644999
0.044053525 0.018522065 1.0653335
0.052382588 0.019643471 1.067
0.025090199 0.021373134 1.0600001
0.035341937 0.021703055 1.061
0.045465101 0.022498481 1.0620002
0.054994702 0.023299342 1.0632001
0.065035872 0.024923829 1.0639545
0.075165555 0.025753565 1.0642608
0.084674105 0.026822003 1.0643125
0.093852133 0.028685704 1.067
0.10429747 0.028997503 1.067
0.078987665 0.0306658 1.0600001
0.085492529 0.0306658 1.0600001
0.094696663 0.032694463 1.0620588
0.10520983 0.033263456 1.063
0.11490509 0.034186035 1.0640869
0.12458566 0.034372129 1.0677143
0.13469809 0.03741613 1.067
0.14436392 0.038039733 1.067
0.15059994 0.038351536 1.067
0.14444399 0.040071558 1.0630001
0.15247074 0.041157745 1.067
0.15995397 0.066413634 1.067
0.16244839 0.067660838 1.067
0.15674688 0.076703072 1.0670002
0.16400738 0.074416548 1.067
0.14578412 0.085363805 1.0685
0.15535006 0.085326776 1.0685
0.16244838 0.084186293 1.067
-0.083324246 0.19855331 1.0600001
-0.083009072 0.20584235 1.060231
-0.077872545 0.20796987 1.0600001
-0.082987025 0.21539174 1.0636001
-0.076144986 0.21446915 1.0618
-0.082627147 0.22267465 1.0650001
-0.078262083 0.22231419 1.067
0.327627 -0.44281572 1.077
0.33262148 -0.44276825 1.0738333
0.32649532 -0.43497673 1.076
0.33283338 -0.43540975 1.0713043
0.32607263 -0.42502812 1.0749999
0.33224502 -0.42543069 1.0714999
0.32679975 -0.41512832 1.0756665
0.33143348 -0.41531003 1.0709999
0.32684368 -0.40499219 1.0765998
0.3317261 -0.40555403 1.0715882
0.32692951 -0.39583957 1.0767777
0.33141267 -0.39504442 1.0713124
0.32750517 -0.38517734 1.0756315
0.33121508 -0.38566625 1.0709
0.32734591 -0.37518787 1.0753124
0.33074456 -0.3748816 1.0712
0.32569841 -0.36451805 1.0746399
0.33112034 -0.36543849 1.0710909
0.32542017 -0.35482994 1.0741613
0.33080813 -0.35835004 1.0710001
0.32604292 -0.34506169 1.0733101
0.3239643 -0.33519828 1.0735172
0.32198673 -0.32460889 1.0740869
0.3181853 -0.31063193 1.077
0.32304019 -0.31486088 1.0738461
0.3181853 -0.30119023 1.077
0.32340878 -0.30485058 1.0732727
0.31751511 -0.29487193 1.0763333
0.32163557 -0.29661363 1.0725385
0.31730199 -0.28484026 1.0734999
0.31484991 -0.27474719 1.0735768
0.31364381 -0.26535422 1.0736537
0.3087436 -0.25020504 1.077
0.31344482 -0.25508937 1.0737199
0.30691704 -0.24377012 1.0760587
0.31218669 -0.24490136 1.071
0.307861 -0.23572159 1.0753157
0.31132281 -0.23586328 1.0700001
0.30651635 -0.22424233 1.0738499
0.30447385 -0.21564284 1.0731428
0.29860353 -0.20423865 1.0764287
0.3025153 -0.20560679 1.0713636
0.29736453 -0.19449998 1.0728947
0.30204675 -0.19886306 1.0700001
0.29532927 -0.18486796 1.0731666
0.28986019 -0.17372727 1.077
0.29303014 -0.17590341 1.0717221
0.28874338 -0.16416366 1.0733333
0.29172838 -0.16603191 1.0700001
0.2862781 -0.15482783 1.0736248
0.27937701 -0.14015883 1.0730001
0.28247151 -0.14616211 1.0727369
0.27905944 -0.13399477 1.0745001
0.28130099 -0.1358659 1.0703
0.27778611 -0.12524107 1.0741333
0.28047195 -0.12569647 1.0700001
0.27576303 -0.11476793 1.0727199
0.26908845 -0.10102619 1.077
0.27377117 -0.10470559 1.0724999
0.26863229 -0.094174005 1.0751818
0.27255276 -0.095329426 1.0720714
0.26850697 -0.085961297 1.0741428
0.26852515 -0.074838787 1.0738125
0.27109164 -0.075980701 1.0700001
0.2662459 -0.064722948 1.0725416
-0.19355485 -0.050041009 1.077
-0.18788983 -0.050041009 1.077
0.26687929 -0.055124577 1.0719166
0.27103421 -0.05081642 1.0735
-0.23321 -0.041354645 1.077
-0.22550456 -0.042562351 1.0756665
-0.21507028 -0.043175504 1.0742631
-0.20520687 -0.043534465 1.0743914
-0.19486438 -0.044056538 1.0726153
-0.18516445 -0.0443069 1.0734229
-0.17519806 -0.043507632 1.0736955
-0.16537006 -0.042680271 1.0738332
-0.15481444 -0.042517256 1.0748823
-0.14470971 -0.042341363 1.07625
-0.13540307 -0.041990433 1.0763332
-0.12746294 -0.040599309 1.077
0.26934046 -0.043522619 1.0758573
0.27336887 -0.043792129 1.0723683
-0.23137836 -0.037988011 1.0743333
-0.22404905 -0.035181198 1.0713636
-0.21507773 -0.035052262 1.0705216
-0.20550714 -0.03659768 1.0704
-0.196987 -0.03799035 1.0700001
-0.18291649 -0.03799035 1.0700001
-0.17603759 -0.03814669 1.0700001
-0.16509388 -0.038459364 1.0700001
-0.15397146 -0.037923347 1.0700001
-0.14410889 -0.035688184 1.0712272
-0.13488027 -0.034584556 1.0725926
-0.12561361 -0.03440243 1.0736817
-0.11586314 -0.031427376 1.077
-0.10669121 -0.031157607 1.077
0.26867947 -0.035686906 1.0759999
0.27486157 -0.035004575 1.0742173
-0.22293925 -0.027828321 1.0700001
-0.21856177 -0.029079033 1.0700001
-0.13507681 -0.029079033 1.0700001
-0.12395441 -0.028543012 1.0700001
-0.11458195 -0.02569185 1.0738571
-0.10456932 -0.025439993 1.0746
-0.095897198 -0.024396367 1.0747777
-0.085882455 -0.022336394 1.0765556
0.27192095 -0.029269271 1.077
-0.112564 -0.0196987 1.0700001
-0.10430445 -0.01808382 1.0706
-0.094882682 -0.017851036 1.0716
-0.084737822 -0.016503755 1.0731153
-0.075533643 -0.013364265 1.0745908
-0.065183237 -0.012123488 1.0753571
-0.056333944 -0.011079533 1.0755001
-0.04815267 -0.01038587 1.077
-0.072228573 -0.0084423004 1.0700001
-0.063920274 -0.0079062814 1.0700001
-0.054625977 -0.0073580095 1.0713333
-0.044681918 -0.0051629697 1.0734799
-0.035092961 -0.0043867631 1.0743477
-0.025973102 -0.0035637473 1.0752223
-0.018175272 -0.002596467 1.077
-0.03283117 0.0014070499 1.0700001
-0.024931911 0.0017727175 1.071
-0.014432221 0.0037993211 1.0728695
-0.0048865816 0.0054195118 1.0740476
0.0047133695 0.0065922407 1.0747333
0.014563939 0.0071464614 1.0767142
0.024751589 0.007777567 1.0755
0.033045951 0.0084975297 1.077
-0.00093803334 0.010318367 1.0700001
0.0056282002 0.010318367 1.0700001
0.015029575 0.011270865 1.0714999
0.025341626 0.011262187 1.0706
0.034762029 0.012076271 1.0716428
0.045163583 0.014110095 1.0732777
0.055507906 0.015988018 1.0731905
0.064979061 0.016945964 1.0741999
0.074915983 0.017784497 1.0741667
0.085027456 0.018386768 1.0756665
0.064724296 0.021574767 1.0700001
0.074479841 0.021574767 1.0700001
0.085805692 0.022415297 1.0703334
0.095012084 0.024807531 1.0730624
0.10491314 0.025910364 1.0727777
0.11505097 0.026304254 1.073619
0.12521739 0.027299924 1.0739334
0.13446151 0.027455196 1.0747142
0.14374147 0.028936429 1.0763334
0.1538997 0.029269272 1.077
0.13491991 0.034414012 1.0702399
0.14542288 0.033513825 1.0708998
0.15527844 0.034623988 1.0723749
0.16133314 0.034908339 1.0762001
0.13789089 0.040335432 1.0700001
0.15571353 0.040335432 1.0700001
0.16227977 0.040335432 1.0700001
0.1482347 0.068924412 1.077
0.15513627 0.067061208 1.0734
0.1604037 0.068476431 1.0700001
0.1383872 0.07672181 1.0738751
0.14559869 0.075553156 1.0728999
0.15452763 0.074024692 1.0701427
0.16353047 0.076606058 1.0700001
0.16509387 0.081608899 1.0700001
0.15604162 0.091180563 1.07225
-0.087237097 0.21856177 1.0700001
-0.085573122 0.22636414 1.0725999
-0.079732835 0.22606604 1.0700001
-0.08518599 0.23250321 1.0756667
0.31802094 -0.44467488 1.087
0.32256004 -0.44399944 1.0821874
0.31732795 -0.43549207 1.087
0.32186058 -0.43523109 1.0826665
0.31732795 -0.42500973 1.087
0.32188308 -0.42482454 1.0834999
0.31762117 -0.41496724 1.087
0.32258114 -0.41516602 1.0828235
0.31851912 -0.40452161 1.087
0.32199824 -0.40563786 1.0827776
0.31792843 -0.39503318 1.0857999
0.32218701 -0.39448524 1.0821052
0.31787246 -0.38553095 1.087
0.32252404 -0.38497874 1.0825237
0.31828088 -0.37450409 1.087
0.32293177 -0.37552351 1.0827999
0.31746408 -0.36497474 1.087
0.32086617 -0.36514714 1.0823334
0.31716159 -0.35523248 1.0856249
0.32064885 -0.35436738 1.0817778
0.31709331 -0.34515429 1.0862
0.32105064 -0.34552976 1.0814545
0.31735036 -0.33506563 1.0841362
0.3209652 -0.33990121 1.08
0.3173562 -0.32513097 1.0845652
0.30589268 -0.31161028 1.087
0.31635654 -0.31462476 1.0842608
0.30741739 -0.30417737 1.087
0.31489757 -0.30521032 1.0834137
0.3209652 -0.3067632 1.08
0.30779856 -0.29636329 1.087
0.31368464 -0.29514894 1.0842998
0.30827498 -0.28302217 1.087
0.31283161 -0.28563643 1.0838125
0.30709383 -0.27506894 1.0856956
0.31178388 -0.27861604 1.0810001
0.30706924 -0.2652429 1.0844443
0.31149721 -0.2622636 1.08
0.30619943 -0.2552669 1.0836922
0.29826918 -0.24109298 1.087
0.30335295 -0.24565235 1.0836841
0.29792741 -0.23458077 1.086625
0.30302098 -0.23466776 1.0829998
0.29782388 -0.2247379 1.0862499
0.30246031 -0.2264289 1.0820769
0.29657209 -0.2142853 1.0848421
0.30013561 -0.21492359 1.08
0.29539639 -0.20484716 1.0834761
0.29323316 -0.19468267 1.0832777
0.28887111 -0.18445255 1.0858461
0.29136243 -0.18553723 1.0805714
0.28733003 -0.17457706 1.0848888
0.29066759 -0.1789452 1.08
0.27921045 -0.1610463 1.087
0.28469273 -0.16489241 1.0838181
0.27921045 -0.15437575 1.087
0.28192714 -0.15592429 1.0834166
0.27834371 -0.14453295 1.0836428
0.27702785 -0.13569039 1.0841764
0.27467993 -0.12485393 1.0836428
0.26968107 -0.11339947 1.087
0.27196726 -0.11533982 1.0828333
0.26853234 -0.10476787 1.0841539
0.2714335 -0.10775402 1.0813333
0.26587564 -0.094959646 1.0839332
0.26524982 -0.084319174 1.083263
0.25732645 -0.072531141 1.0865715
0.26371244 -0.075213507 1.0837082
-0.23156361 -0.060987946 1.087
-0.22489305 -0.060352657 1.087
-0.21359396 -0.060579546 1.087
-0.20445786 -0.060882065 1.087
-0.19630495 -0.060035009 1.087
-0.18391678 -0.060035009 1.087
-0.17343447 -0.060035009 1.087
-0.16485804 -0.060035009 1.087
0.25771558 -0.067999035 1.0856667
0.26206177 -0.066703029 1.0817778
-0.24252751 -0.052312255 1.0848889
-0.23446056 -0.053836931 1.0839128
-0.22511151 -0.054617587 1.0847856
-0.21467598 -0.054029435 1.0852499
-0.20469517 -0.054388627 1.0851666
-0.19523041 -0.054338116 1.0841249
-0.18474728 -0.054741956 1.0847199
-0.17467043 -0.054016352 1.0849642
-0.16454308 -0.054216966 1.0849199
-0.15525563 -0.053687274 1.0846817
-0.14521843 -0.052674383 1.0858332
-0.13561571 -0.050738085 1.0861428
0.26526472 -0.050211374 1.0806667
-0.24221306 -0.047053039 1.0806667
-0.23491161 -0.046077602 1.08
-0.22428605 -0.047168531 1.0804
-0.21555479 -0.0479712 1.08
-0.205929 -0.048286799 1.08
-0.18083879 -0.048286799 1.08
-0.17421119 -0.048286799 1.08
-0.16404644 -0.047547244 1.0804
-0.15432839 -0.047339998 1.08
-0.14501926 -0.047393657 1.0812
-0.13431168 -0.046750225 1.08275
-0.12512393 -0.044701692 1.0848094
-0.11625827 -0.040976275 1.087
0.25824583 -0.042882148 1.087
0.26446423 -0.044551969 1.0829999
-0.12165445 -0.037603155 1.0813333
-0.11495441 -0.036106564 1.0836999
-0.10495529 -0.035597086 1.0845217
-0.09609767 -0.031875707 1.085375
-0.088623106 -0.031446911 1.087
0.24473575 -0.031900369 1.0862501
0.26425529 -0.034961589 1.0833808
0.27930599 -0.031244399 1.08
-0.093135886 -0.028375752 1.082889
-0.084587954 -0.026867386 1.0841578
-0.075326033 -0.024961872 1.0850475
-0.065358661 -0.022294683 1.0868
-0.05584209 -0.020392844 1.087
0.24363415 -0.028905744 1.087
0.26544461 -0.025193315 1.0845625
0.27378812 -0.025880821 1.0812308
-0.073687337 -0.018564645 1.0804
-0.065750822 -0.017297305 1.0821538
-0.054510728 -0.015381754 1.0839999
-0.044694383 -0.014096879 1.0847272
-0.035356525 -0.013750597 1.0847272
-0.025117289 -0.01275287 1.0853999
-0.017470507 -0.011117593 1.087
0.26691243 -0.018355146 1.0857142
0.2708374 -0.01995644 1.0840001
-0.032191198 -0.0085212002 1.08
-0.024235073 -0.0077186744 1.0811429
-0.014345405 -0.0050524608 1.0833683
-0.0050243018 -0.0027195453 1.0847142
0.0049329237 -0.0021650477 1.0861818
0.01443183 -0.0020633813 1.0855
0.024284104 -0.0016669817 1.0862499
-0.0037872002 0.00094679999 1.08
0.0047403122 0.0018950027 1.0816
0.015622199 0.0026036999 1.08
0.025946032 0.0032904912 1.0818822
0.035174016 0.0045584473 1.0843499
0.044143677 0.0060949991 1.084941
0.054348275 0.0072403899 1.0846921
0.065150358 0.0075261039 1.0856363
0.074517325 0.0078558102 1.0862501
0.082905486 0.0085764304 1.087
0.0454464 0.0104148 1.08
0.055230003 0.011046001 1.08
0.065426685 0.011377031 1.0816
0.075052187 0.012190176 1.0817143
0.08509443 0.01313671 1.0829474
0.095040008 0.015931629 1.0841153
0.10481277 0.016585616 1.0842272
0.11510507 0.017419949 1.084111
0.12434094 0.018207926 1.0850714
0.13322704 0.019031119 1.0855
0.14643461 0.018105797 1.087
0.15515614 0.018846054 1.0858001
0.096889198 0.021776401 1.08
0.10509481 0.021776401 1.08
0.11456279 0.021776401 1.08
0.12497759 0.0227232 1.08
0.13606648 0.022754103 1.0815834
0.14518076 0.023424597 1.0829599
0.15462454 0.024052719 1.0826521
0.16465493 0.024923198 1.0833124
0.17434385 0.025206303 1.0843599
0.1804862 0.025348116 1.087
0.16642426 0.034739573 1.0806667
0.17433101 0.035359059 1.0843809
0.17724621 0.042882148 1.087
0.18137562 0.043517441 1.087
0.13704079 0.066882104 1.0815384
0.14495492 0.065369442 1.0806956
0.15254632 0.063671246 1.0808001
0.1370136 0.072777733 1.0821428
0.1424934 0.071483396 1.08
-0.10069364 0.22902246 1.087
-0.09509702 0.22746074 1.0847
-0.089946002 0.22723201 1.08
-0.10291716 0.23442243 1.087
-0.094421029 0.23519075 1.0856999
-0.088098995 0.23696101 1.0805714
-0.093394317 0.2447637 1.0859499
-0.087638617 0.24297927 1.0826668
-0.09338779 0.25252819 1.087
0.29844859 -0.45232114 1.097
0.30419576 -0.45150077 1.0946251
0.31371078 -0.45048481 1.0910001
0.29908973 -0.44526863 1.097
0.30524442 -0.44503629 1.0944244
0.31329733 -0.44492954 1.0906668
0.29908973 -0.4385367 1.097
0.30534339 -0.43502802 1.0949677
0.31256455 -0.43472108 1.0907501
0.29812801 -0.42795798 1.097
0.30521196 -0.42490125 1.0961819
0.31271145 -0.42540631 1.0916876
0.30625555 -0.41496417 1.0954
0.31332263 -0.415308 1.0914118
0.30648509 -0.40516272 1.0959412
0.31371686 -0.40558937 1.0923667
0.30585694 -0.39512736 1.0961001
0.31311694 -0.39530328 1.09308
0.3064374 -0.38575062 1.096625
0.31296149 -0.3849434 1.0922917
0.30678335 -0.37506425 1.097
0.31308815 -0.37542981 1.0926924
0.30736038 -0.36448559 1.097
0.31256735 -0.36503315 1.0923914
0.30657232 -0.35450503 1.0962501
0.31232822 -0.35448629 1.0928637
0.30671507 -0.34514937 1.0960001
0.31290689 -0.34457809 1.0929474
0.30704844 -0.33522651 1.0956666
0.31255391 -0.33528808 1.0925333
0.30612475 -0.32480958 1.0949231
0.31254154 -0.32460949 1.0902501
0.30486184 -0.31504732 1.0938462
0.31183323 -0.3156555 1.09
0.29908973 -0.30437911 1.097
0.30421826 -0.30525765 1.0936539
0.31055915 -0.30864802 1.09
0.29908973 -0.29716635 1.097
0.30459091 -0.29494703 1.0933
0.31055915 -0.29463303 1.09
0.29826543 -0.28425202 1.097
0.30421826 -0.28614026 1.0932175
0.31055915 -0.28953668 1.09
0.29805985 -0.27498513 1.0967501
0.30169865 -0.27545577 1.0921177
0.29746225 -0.26461637 1.097
0.30173758 -0.26533952 1.0926666
0.29780743 -0.25442398 1.097
0.3012619 -0.25556198 1.0930769
0.29636219 -0.24430901 1.0948824
0.30080009 -0.24771881 1.0910001
0.29518914 -0.23517287 1.0938824
0.29383567 -0.22493748 1.0947896
0.2894727 -0.21445985 1.097
0.29245022 -0.21517636 1.0933125
0.28875139 -0.20412152 1.097
0.2917985 -0.20536427 1.0932727
0.28780758 -0.19437174 1.0950667
0.2911084 -0.19770902 1.0916001
0.28553224 -0.18488483 1.0940589
0.27985567 -0.17214489 1.097
0.28296804 -0.17562962 1.09325
0.27890936 -0.16451256 1.0944616
0.28167126 -0.16785714 1.0910001
0.27782565 -0.15447129 1.0944287
0.2753188 -0.14515901 1.09475
0.2727738 -0.13515159 1.095
0.26851261 -0.12368349 1.0965
0.27178109 -0.12614432 1.0939333
0.26733252 -0.1145113 1.0956111
0.27042538 -0.11849026 1.09
0.26514354 -0.10491711 1.0947895
0.26260594 -0.094953693 1.0940667
0.25781992 -0.083912931 1.0960001
0.26169363 -0.08607544 1.0920001
-0.24427265 -0.07020434 1.097
-0.23518988 -0.071059197 1.097
-0.22325255 -0.070753887 1.097
-0.21418509 -0.071990356 1.097
-0.20532365 -0.071646892 1.097
-0.19522576 -0.07020434 1.097
-0.18560874 -0.071059197 1.097
-0.17839597 -0.070685193 1.097
0.25520927 -0.077452958 1.092375
0.26086971 -0.079312034 1.09
-0.24434622 -0.065171167 1.0957369
-0.23549284 -0.064539522 1.0927727
-0.22493155 -0.065308332 1.0931429
-0.21487145 -0.065447047 1.0918947
-0.2049581 -0.065848619 1.0925001
-0.19473688 -0.064599223 1.0929166
-0.18514286 -0.064438649 1.0942501
-0.17515092 -0.06481126 1.0941601
-0.16487032 -0.064263411 1.094
-0.15536965 -0.063252456 1.0946364
-0.14563055 -0.062002253 1.0965
-0.1362413 -0.060907882 1.097
-0.24381854 -0.057369646 1.0906668
-0.23889166 -0.058289565 1.09
-0.15289067 -0.058289565 1.09
-0.14450167 -0.057419561 1.0916001
-0.1349674 -0.055757973 1.0935264
-0.1259934 -0.053644545 1.0946
-0.1154044 -0.050970275 1.097
-0.12165386 -0.046939656 1.0926667
-0.11497003 -0.045880537 1.0921251
-0.10528701 -0.044387314 1.0926667
-0.095388912 -0.043098498 1.0959285
-0.086745635 -0.041737922 1.097
0.25847465 -0.04116476 1.092
0.26086971 -0.041089367 1.09
-0.10129007 -0.039178234 1.09
-0.094435371 -0.03647754 1.0904212
-0.084995173 -0.035565563 1.0914167
-0.07545387 -0.034695067 1.094125
-0.06544219 -0.032775834 1.0960001
-0.058663905 -0.03173621 1.097
0.2494029 -0.031533699 1.09
0.25712413 -0.0347366 1.0939443
0.26125264 -0.035406463 1.0916001
-0.073629834 -0.029644307 1.0908
-0.063874334 -0.027210362 1.0911112
-0.054519556 -0.025454096 1.0927392
-0.045061499 -0.023642099 1.0936522
-0.035722081 -0.022300428 1.0938751
-0.025336342 -0.021349261 1.0953846
-0.01731066 -0.020195769 1.097
0.24690869 -0.026104016 1.0940001
0.25587103 -0.02523073 1.0953939
0.26086971 -0.025418073 1.09
-0.043000501 -0.018155767 1.09
-0.034081876 -0.018155767 1.09
-0.02409571 -0.017404638 1.0908
-0.014093084 -0.014646469 1.0927143
-0.0051194411 -0.013121363 1.095
0.0040362612 -0.011724101 1.0961001
0.01154044 -0.010578737 1.097
0.25764641 -0.015598059 1.0963078
0.26292491 -0.01381503 1.0938824
-0.012422367 -0.0086000999 1.09
-0.0044303546 -0.0073839244 1.09
0.0046498398 -0.006838501 1.0917143
0.014644154 -0.006845451 1.0927857
0.024968805 -0.0059049032 1.0932106
0.035359472 -0.0033308177 1.0935295
0.044846572 -0.0027445308 1.0950714
0.054581854 -0.0024025051 1.0955001
0.064346023 -0.0019220918 1.0955
0.074298501 -0.0012361 1.0965716
0.082706481 -0.00096170331 1.097
0.038222667 0.00095556665 1.09
0.046128444 0.0019115717 1.0905001
0.054838195 0.0025740287 1.0915385
0.064497903 0.0029892144 1.092
0.075387567 0.0031739487 1.0928947
0.085572034 0.0042643864 1.0934091
0.0944582 0.0057083457 1.0953158
0.10449566 0.0064841006 1.0960625
0.11358102 0.0074941851 1.0961001
0.12502143 0.0086553311 1.097
0.13560016 0.0079340525 1.097
0.14560188 0.0082706492 1.097
0.15483424 0.0086553302 1.097
0.182952 0.0081626428 1.0955
0.095556669 0.010511233 1.09
0.1055724 0.011856742 1.0908
0.11522973 0.011852129 1.0918462
0.12564826 0.01268186 1.092
0.13534121 0.01364352 1.0934286
0.14463913 0.014037146 1.093261
0.15491095 0.013963698 1.094
0.1648805 0.014707579 1.0945417
0.17565645 0.014634562 1.0949167
0.18482061 0.013761244 1.0950476
0.19015777 0.0114668 1.09
0.17582425 0.0200669 1.09
0.18313693 0.025068406 1.0937144
0.17869097 0.0372671 1.09
0.18499844 0.035637885 1.0938333
0.1927561 0.037492953 1.0966251
0.16817974 0.041089367 1.09
0.1745957 0.041635402 1.09
0.18410586 0.041407891 1.09
0.19085559 0.041240152 1.0940001
-0.1003345 0.22455816 1.09
-0.10253966 0.23675998 1.09
-0.098423369 0.23793609 1.09
-0.10398606 0.245427 1.0926112
-0.09804114 0.24710953 1.09
-0.10171037 0.25411713 1.0956668
-0.097078159 0.25588888 1.0924546
-0.10097885 0.26062161 1.097
-0.098414302 0.26190388 1.097
0.28872123 -0.45415029 1.1073999
0.29379004 -0.45308033 1.1038499
0.28895247 -0.44439498 1.1067998
0.29469717 -0.44493398 1.1030397
0.28887537 -0.43606219 1.107
0.2942085 -0.43489879 1.1033447
0.30018032 -0.4343445 1.1010001
0.29438135 -0.425439 1.1042413
0.30018032 -0.42469239 1.1010001
0.29564178 -0.4155075 1.1046294
0.30151674 -0.41407511 1.101
0.29728881 -0.40550199 1.1060498
0.3020654 -0.40520912 1.101923
0.29739684 -0.39486697 1.1044167
0.30140877 -0.39512187 1.101
0.29851627 -0.38514534 1.1061665
0.30211073 -0.38511878 1.101
0.29780269 -0.37486595 1.106941
0.30211073 -0.37546667 1.101
0.29711431 -0.36441126 1.1071665
0.30295008 -0.36497536 1.101
0.29787895 -0.35496131 1.1062857
0.30197284 -0.35436997 1.101
0.29762658 -0.34481046 1.1058666
0.30197284 -0.34444213 1.101
0.29780653 -0.33531609 1.1065333
0.30211073 -0.33492789 1.101
0.29690993 -0.32491231 1.1056111
0.30114549 -0.32527575 1.101
0.29710075 -0.31562549 1.1048124
0.30018032 -0.31562367 1.1010001
0.29634336 -0.30482894 1.1041902
0.30018032 -0.30790198 1.1010001
0.29601231 -0.29454058 1.1043332
0.30018032 -0.29390642 1.1010001
0.29512355 -0.28499413 1.1037645
0.29434299 -0.27478701 1.1038946
0.29330567 -0.26498219 1.1042104
0.29376936 -0.25545076 1.1039199
0.28872123 -0.24484055 1.1073999
0.29261464 -0.24567288 1.1035262
0.28783938 -0.23383087 1.1067499
0.29173502 -0.23562032 1.1037499
0.28768784 -0.22505026 1.1049331
0.29084992 -0.2255374 1.101
0.28656048 -0.21460836 1.1046999
0.28398883 -0.20489679 1.1035198
0.28312829 -0.19519287 1.1039129
0.2793678 -0.18430601 1.1065
0.28202972 -0.18596214 1.1025
0.27744392 -0.17492281 1.1045294
0.2808761 -0.17759864 1.1010001
0.27514267 -0.16482975 1.1038332
0.26906303 -0.15055872 1.108
0.27337658 -0.15521194 1.1040453
0.26767886 -0.1438376 1.1071
0.27155015 -0.1456003 1.1023332
0.26724502 -0.13480088 1.1039522
0.27122402 -0.13995545 1.1010001
0.26537263 -0.1244669 1.1034443
0.25934955 -0.11170486 1.108
0.26259613 -0.11545442 1.1034117
0.25857839 -0.10401641 1.1065555
0.26137012 -0.10613436 1.1025999
0.25695565 -0.094265595 1.1039999
0.26157191 -0.098451421 1.1010001
-0.25324395 -0.082009412 1.1079999
-0.24565117 -0.08350306 1.1075499
-0.23636103 -0.08331994 1.1079999
-0.22472312 -0.082131103 1.1065
-0.21502367 -0.083109356 1.1048498
-0.20556931 -0.081260607 1.1060998
-0.19469327 -0.081436686 1.1073333
-0.18508869 -0.081388175 1.1066666
-0.17872779 -0.080621772 1.108
0.24987163 -0.084155321 1.1033334
0.25441968 -0.086500086 1.1024374
-0.2542491 -0.075744219 1.1058749
-0.24504627 -0.075125463 1.1024543
-0.23444104 -0.07579954 1.1026468
-0.22539878 -0.075670861 1.1018888
-0.2155928 -0.076953553 1.101
-0.20486662 -0.076705821 1.1015713
-0.19513355 -0.07535062 1.1019089
-0.18468463 -0.076098613 1.10225
-0.17500754 -0.074900955 1.1045216
-0.16528766 -0.073677398 1.1050475
-0.15521349 -0.072281867 1.1051999
-0.14473066 -0.071879655 1.1079999
-0.16601612 -0.068529911 1.1010001
-0.15385446 -0.06814383 1.1010001
-0.14510599 -0.067102067 1.1024284
-0.1347695 -0.065561265 1.1032172
-0.12641762 -0.063324332 1.1059998
-0.11850429 -0.061194841 1.108
-0.12314449 -0.057224594 1.1025999
-0.11516687 -0.055750169 1.1039499
-0.10555691 -0.05398158 1.104684
-0.095081568 -0.053332321 1.1060586
-0.086086184 -0.052105706 1.1075
-0.10199052 -0.048582237 1.1010001
-0.094806381 -0.048129439 1.1016666
-0.084460877 -0.046024084 1.1032082
-0.07516627 -0.044371322 1.1055553
-0.064981766 -0.043888513 1.1063124
-0.05666405 -0.043276295 1.1067998
-0.07275515 -0.038954098 1.1016666
-0.06410943 -0.037308194 1.1017499
-0.054969013 -0.035952505 1.1032914
-0.045994479 -0.035204217 1.1050951
-0.034692138 -0.033429511 1.1059128
-0.024851473 -0.03237053 1.1063123
-0.01767851 -0.031665899 1.108
-0.052121341 -0.029921509 1.1010001
-0.045364875 -0.02936996 1.101
-0.035712775 -0.027640102 1.101
-0.02483736 -0.026204132 1.1021763
-0.014437625 -0.024394644 1.1048634
-0.0048523503 -0.022322565 1.107
0.0046893628 -0.021832287 1.1067499
0.014570201 -0.021369625 1.1079999
0.0218553 -0.020883953 1.108
0.24763417 -0.021107255 1.1015714
0.25191981 -0.02219983 1.1010001
-0.01061731 -0.018338989 1.1010001
-0.0040032356 -0.017815996 1.1027143
0.0053543877 -0.016321486 1.1036665
0.014768362 -0.014857099 1.1038694
0.024214832 -0.014532506 1.1047598
0.034758158 -0.013322944 1.1069089
0.045604203 -0.012615585 1.1067998
0.054831993 -0.01213219 1.107
0.064648516 -0.011548232 1.1079999
0.074793696 -0.010684813 1.108
0.082564466 -0.010684813 1.108
0.24638082 -0.01452918 1.1050414
0.25348115 -0.0135182 1.1014999
0.0289563 -0.0086868899 1.1010001
0.036005355 -0.0079748174 1.1025
0.045790769 -0.0074727861 1.1028181
0.055258803 -0.0070674843 1.1028461
0.064825699 -0.006775172 1.1036664
0.074767254 -0.005967102 1.1045789
0.084944613 -0.0050883936 1.1042498
0.094139837 -0.0041359751 1.105842
0.10459388 -0.0024649168 1.1070768
0.11510459 -0.0016998565 1.1079999
0.12530372 -0.00097134674 1.108
0.13501719 -0.00097134674 1.108
0.14278796 -0.00097134669 1.108
0.24626619 -0.0050363676 1.1069999
0.25505903 -0.004830258 1.1020665
0.26221538 -0.0080434168 1.1010001
0.097546406 0.0019310043 1.1016666
0.10563686 0.0018231744 1.101
0.11567027 0.0030291171 1.1037999
0.1248899 0.0038676343 1.1043499
0.13474476 0.0036106671 1.1032629
0.14481081 0.003917085 1.1039472
0.15480831 0.0039172811 1.1053331
0.16516499 0.0052600005 1.1051302
0.1755466 0.0059656706 1.1056839
0.18093143 0.0067704967 1.1036667
0.24623653 0.0050198697 1.1067824
0.25411233 0.0040034032 1.1021427
0.16794655 0.01061731 1.1010001
0.17277259 0.010617311 1.1010001
0.18725073 0.018338989 1.1010001
0.19287682 0.015645118 1.1055715
0.23846561 0.017969914 1.108
0.2451617 0.013914372 1.1074284
0.25089762 0.010655884 1.105
0.18789543 0.024729731 1.1042727
0.1941262 0.026188565 1.1065555
0.20204009 0.026226358 1.1079999
0.23603724 0.02039828 1.108
0.18821596 0.031851929 1.1010001
0.19693814 0.034218103 1.1020525
0.20369613 0.034696251 1.1048822
0.21596275 0.033997133 1.1079999
0.22049569 0.032054439 1.108
-0.11099915 0.24998939 1.1010001
-0.11267095 0.25707924 1.1065714
-0.10680906 0.255705 1.1018571
-0.10534342 0.2646319 1.1047646
-0.098773159 0.26607621 1.1010001
-0.10217792 0.27166215 1.10475
-0.099597223 0.27074799 1.103
0.27663171 -0.46072999 1.1170001
0.28151518 -0.46039465 1.115
0.27633741 -0.45397168 1.1169999
0.28401589 -0.4550145 1.1133199
0.27698001 -0.44495791 1.1178236
0.28398529 -0.44520673 1.1131999
0.27958214 -0.43654051 1.1190001
0.28459403 -0.43547457 1.1150689
0.27958214 -0.42280668 1.1190001
0.28559619 -0.42512992 1.1151211
0.29148114 -0.42211151 1.1120001
0.28535303 -0.41535106 1.1161071
0.29165474 -0.41325951 1.1126667
0.28583458 -0.40587595 1.1167824
0.29267323 -0.40443316 1.1128334
0.28604725 -0.39527148 1.1176087
0.29338944 -0.39456874 1.1138461
0.28720838 -0.38593295 1.118143
0.29377544 -0.3849476 1.1146086
0.28776732 -0.37558624 1.1175456
0.29285884 -0.37467083 1.1137367
0.28839323 -0.36547092 1.1176667
0.29252988 -0.36479461 1.1139444
0.28939205 -0.35511839 1.1190001
0.29338369 -0.35465366 1.1147391
0.28778675 -0.34414911 1.1190002
0.29331183 -0.34460643 1.1138947
0.28643295 -0.33435547 1.1167368
0.29285714 -0.33476329 1.1129473
0.28748953 -0.32536566 1.1173334
0.29196894 -0.32514358 1.1129376
0.28896397 -0.31501427 1.1184286
0.2926732 -0.31548586 1.1134211
0.28804946 -0.30463329 1.1186365
0.29205656 -0.30549741 1.1137648
0.28725499 -0.29463881 1.1171539
0.29162088 -0.2952455 1.1130716
0.28648329 -0.28487372 1.1171178
0.29162082 -0.28520903 1.1130716
0.28723532 -0.27448121 1.1150526
0.29157877 -0.27573347 1.112375
0.28680438 -0.26470453 1.1152608
0.29148114 -0.26321042 1.1120001
0.2867727 -0.2548489 1.114875
0.29148114 -0.25833613 1.1120001
0.28635022 -0.24444766 1.1153573
0.28387114 -0.2355437 1.1143684
0.27958214 -0.22660869 1.1190001
0.28308618 -0.22549489 1.1135
0.27958214 -0.21483681 1.1190001
0.28211066 -0.21585509 1.1135001
0.27865586 -0.2043485 1.1153078
0.28173262 -0.20959346 1.1120001
0.27737716 -0.19430973 1.1148181
0.27528444 -0.18481171 1.1141579
0.27363926 -0.17493489 1.1147858
0.26945081 -0.16363247 1.1176667
0.27208439 -0.16559874 1.1144167
0.26708955 -0.15472205 1.1160001
0.27003437 -0.15597653 1.1120001
0.26401946 -0.14530671 1.1147895
0.26301286 -0.1349286 1.1153126
0.25977647 -0.12449946 1.1182001
0.26229087 -0.12577616 1.1139001
0.25844342 -0.11369698 1.115625
0.26028582 -0.11698239 1.1120001
-0.24328551 -0.10104197 1.1190001
0.25611335 -0.10459743 1.1150715
-0.25387001 -0.093298621 1.1168573
