# .PCD v0.7 - Point Cloud Data file format
VERSION 0.7
FIELDS x y z
SIZE 4 4 4
TYPE F F F
COUNT 1 1 1
WIDTH 1468
HEIGHT 1
VIEWPOINT 0 0 0 1 0 0 0
POINTS 1468
DATA ascii
-0.035799999 -0.12075821 1.2190001
-0.073799051 -0.1189574 1.21
-0.064706765 -0.11880586 1.21
-0.054141175 -0.11704685 1.2110001
-0.04513168 -0.11593011 1.2113334
-0.035099979 -0.11594559 1.2133335
-0.024475615 -0.11493359 1.2138501
-0.01522626 -0.1146717 1.2159287
-0.0053432835 -0.11356907 1.219
0.0050379527 -0.1106823 1.219
0.014604974 -0.11007164 1.2190001
0.024044774 -0.11007164 1.2190001
0.03455323 -0.11007164 1.2190001
0.042746268 -0.11007164 1.2190001
-0.012738843 -0.1082885 1.2110001
-0.0053155217 -0.10737588 1.2126667
0.0053165453 -0.10633274 1.2129
0.015458803 -0.10477562 1.212846
0.024479296 -0.10429858 1.2139499
0.035186987 -0.10449626 1.2162502
0.044597376 -0.1043469 1.2170001
0.053596161 -0.10333446 1.217077
0.06518805 -0.10259104 1.219
0.074449748 -0.10294726 1.219
0.084423877 -0.10259104 1.219
0.094635479 -0.1024723 1.219
0.10259104 -0.10152239 1.2190001
0.13678806 -0.10152239 1.2190001
0.025104811 -0.098297708 1.21
0.035566367 -0.097141683 1.2110001
0.045017641 -0.096654668 1.2115384
0.054669902 -0.09788958 1.2122223
0.065239981 -0.096268311 1.2129412
0.075468726 -0.095671065 1.2125002
0.085223101 -0.095853209 1.2121334
0.094338097 -0.096466213 1.2125001
0.10513251 -0.094504118 1.212875
0.11503623 -0.094148248 1.21615
0.12460765 -0.094675928 1.2158183
0.13540764 -0.094900042 1.2162
0.14234297 -0.094039403 1.2130001
0.10925896 -0.08804363 1.21
0.11562357 -0.08804363 1.21
0.12623124 -0.08804363 1.21
0.13542454 -0.087690048 1.21
0.14108196 -0.086982861 1.21
0.17431933 0.097236939 1.21
0.17721693 0.10233347 1.2134001
0.18346079 0.10703499 1.2157143
0.19156919 0.1074916 1.2140001
0.18594626 0.11007164 1.2190001
0.19200198 0.11078408 1.2190001
-0.10186253 0.37633371 1.2135
-0.097019292 0.37618536 1.2108001
-0.10374439 0.38558516 1.2149999
-0.095108204 0.38515216 1.2128891
-0.08804363 0.38505828 1.21
-0.10416895 0.39214095 1.2175
-0.095368661 0.39225319 1.2162223
0.11664531 -0.49615058 1.2263335
0.1251611 -0.49507123 1.2233998
0.13230497 -0.4946962 1.223
0.11939937 -0.48942986 1.2270001
0.12650619 -0.48621365 1.224818
0.13402043 -0.48492423 1.2229998
0.14098948 -0.48300958 1.223
0.12973176 -0.47925702 1.223
0.13417724 -0.47494552 1.2244544
0.14357665 -0.47362396 1.2232221
0.13723691 -0.46853536 1.223
0.14617026 -0.46627596 1.2247144
0.15117502 -0.46317455 1.223
0.14834534 -0.45577872 1.2252223
0.15395005 -0.45503873 1.2229998
0.14590141 -0.44466609 1.2253529
0.15509076 -0.44466814 1.2229997
0.14700693 -0.43564677 1.2262501
0.15538685 -0.43490559 1.2238694
0.16377294 -0.43395805 1.223
0.15614469 -0.42827621 1.2250001
0.16416675 -0.42499977 1.2245997
0.15740637 -0.4177185 1.2270001
0.1645494 -0.41489497 1.2246362
0.17047396 -0.41063854 1.223
0.16555494 -0.40627602 1.2258235
0.17315437 -0.40438429 1.2229999
0.16888019 -0.39907357 1.2270001
0.17429663 -0.3951638 1.2239597
0.17490152 -0.38472944 1.2247142
0.17497279 -0.37543839 1.2251817
0.18173169 -0.374185 1.223
0.17705208 -0.36556634 1.2256665
0.18348287 -0.36532179 1.2229998
0.17891979 -0.35532966 1.2270001
0.18441206 -0.35488605 1.2229998
0.17856124 -0.34529006 1.2270001
0.18441208 -0.34523657 1.2229998
0.17909905 -0.33722255 1.2270001
0.18519647 -0.33489031 1.2243843
0.19277498 -0.33301395 1.223
0.18785666 -0.32539275 1.2256666
0.19389227 -0.32474488 1.2234443
0.18791123 -0.31518412 1.2258574
0.1933468 -0.31533515 1.223
0.18758486 -0.30496329 1.2246001
0.1932818 -0.30517668 1.2229999
0.1882062 -0.29681098 1.2252223
0.19389224 -0.29435527 1.2234442
0.19302817 -0.2850132 1.2247777
0.19495532 -0.27570003 1.2241427
0.20049454 -0.27769029 1.223
0.19608106 -0.26574028 1.2247499
0.20120931 -0.26125047 1.223
0.19819891 -0.25561532 1.2258574
0.2015667 -0.25517488 1.223
0.19899894 -0.24525276 1.2270001
0.20210278 -0.24570407 1.2229999
0.19899894 -0.23557174 1.2270001
0.20322056 -0.23464058 1.2234703
0.19899894 -0.22696637 1.2270001
0.20379266 -0.2251416 1.2246469
-0.28720388 -0.21190698 1.2270001
0.20297937 -0.21539889 1.2241428
-0.29055625 -0.20907184 1.223
-0.28477418 -0.20634291 1.2234998
-0.27550107 -0.2046839 1.224
-0.26628202 -0.20349382 1.2251539
-0.25869861 -0.20276378 1.2270001
0.20333628 -0.20460178 1.2241765
-0.26053569 -0.19727805 1.223
-0.25362125 -0.19634981 1.2250001
-0.24531539 -0.19511092 1.2243333
-0.23558776 -0.19513321 1.2252221
-0.22572626 -0.19405247 1.2266365
-0.21534912 -0.19125411 1.2270001
0.20476359 -0.19478971 1.2244118
-0.24445324 -0.1897729 1.223
-0.23458934 -0.1882719 1.2229999
-0.22496513 -0.18624103 1.2229998
-0.21546286 -0.18567154 1.2234442
-0.20546854 -0.18398535 1.2255
-0.19604084 -0.18286391 1.2270001
0.20450507 -0.18541743 1.2240524
-0.20211987 -0.17729692 1.2235715
-0.19459872 -0.17596257 1.224263
-0.18564557 -0.17461559 1.2253635
-0.17589891 -0.17375003 1.2265294
-0.16780452 -0.17103153 1.2270001
0.19899894 -0.17856123 1.2270001
0.20346361 -0.17608221 1.2229998
-0.18456526 -0.16771697 1.2230002
-0.17442343 -0.16701514 1.2233635
-0.1646487 -0.16594 1.2243333
-0.15580034 -0.16511697 1.2256666
-0.14619334 -0.16242617 1.2270001
-0.13768576 -0.16027483 1.2270001
-0.16189666 -0.15975234 1.223
-0.15423834 -0.15883335 1.2230002
-0.14461242 -0.15632807 1.2233075
-0.13544425 -0.15379398 1.2254617
-0.12585339 -0.15166947 1.2270001
-0.13316393 -0.14855963 1.2250001
-0.12475656 -0.14685656 1.2252858
-0.11496502 -0.14483777 1.2256
-0.10431916 -0.14330432 1.22675
-0.094952323 -0.14286855 1.2270001
-0.085695051 -0.14127134 1.2270001
-0.077448241 -0.14091277 1.2270001
-0.11043283 -0.13830908 1.223
-0.10507201 -0.13830908 1.223
-0.094707757 -0.13795169 1.223
-0.084579594 -0.13706788 1.2240907
-0.074967913 -0.1355464 1.2251333
-0.066116303 -0.13384904 1.2263335
-0.055054747 -0.13191627 1.2270001
-0.047329478 -0.13015607 1.2270001
-0.065401964 -0.12973176 1.223
-0.053965557 -0.12758744 1.223
-0.045122471 -0.12677521 1.2255001
-0.035319693 -0.12543368 1.2255
-0.025376102 -0.12393118 1.22525
-0.016121024 -0.12306516 1.2260002
-0.0053783501 -0.12190926 1.2270001
0.00107567 -0.12155071 1.2270001
-0.012865961 -0.11901013 1.223
-0.0053623747 -0.1181436 1.2238889
0.0048735249 -0.1153922 1.2248464
0.01540547 -0.11382046 1.2261113
0.024711605 -0.11435103 1.2255715
0.035131413 -0.11383794 1.225
0.045215443 -0.11298139 1.2247778
0.0534725 -0.11177938 1.2260002
0.06561587 -0.11079401 1.2270001
0.072069891 -0.11079401 1.2270001
0.13445875 -0.11079401 1.2270001
0.048247349 -0.1082885 1.223
0.056211989 -0.1073695 1.2230002
0.065401956 -0.10721634 1.2229999
0.075583063 -0.1074707 1.2241429
0.084216982 -0.10679203 1.2263335
0.095593579 -0.1068159 1.2252223
0.10487057 -0.10553361 1.2254617
0.11460124 -0.10401875 1.2249998
0.12468523 -0.10375759 1.2243333
0.13382271 -0.1054268 1.2242308
0.10721633 -0.099711187 1.223
0.11364932 -0.099711187 1.223
0.12865961 -0.099711187 1.223
0.17690694 0.10721634 1.223
0.17814679 0.11312397 1.2260001
0.18523562 0.11548086 1.2241999
0.19360657 0.11569598 1.2242
0.18618262 0.12297739 1.2262001
0.19146925 0.12370205 1.2270001
-0.10442871 0.39820144 1.223
-0.097566865 0.39777258 1.223
-0.10218865 0.40402165 1.2270001
-0.096810304 0.40337625 1.2270001
0.089935482 -0.49952117 1.2360001
0.095337339 -0.49510607 1.2358
0.10497863 -0.49476388 1.2345002
0.11408283 -0.49377686 1.2335001
0.095817663 -0.48775682 1.2360001
0.10490192 -0.48675638 1.2354287
0.11576269 -0.4850437 1.2351305
0.1231118 -0.48287779 1.2334287
0.11767461 -0.47524944 1.2360001
0.12474846 -0.47476861 1.2346089
0.13140649 -0.47270334 1.2320001
0.12677652 -0.46562123 1.2360001
0.13518901 -0.46574995 1.2350346
0.14383964 -0.46504912 1.2336668
0.12851021 -0.45574537 1.2360001
0.13558677 -0.45514262 1.2354287
0.14397453 -0.45488739 1.2325002
0.12677652 -0.44859385 1.2360001
0.1353907 -0.44516936 1.2355201
0.14148699 -0.44282186 1.2320001
0.13761213 -0.43797493 1.2360001
0.14368917 -0.43394816 1.2336003
0.15012741 -0.43094128 1.2320001
0.14593722 -0.4252753 1.2357143
0.15389708 -0.42451987 1.2328002
0.14772534 -0.41789296 1.2360001
0.15432963 -0.414359 1.2340871
0.15533097 -0.40544397 1.2356001
0.16326807 -0.40339994 1.2320002
0.15639383 -0.39586055 1.2360001
0.1652884 -0.39537364 1.2344348
0.15847065 -0.38547647 1.2360001
0.16554439 -0.38498011 1.2342402
0.15928333 -0.37491176 1.2360001
0.16590565 -0.37501618 1.2347274
0.17172848 -0.37153834 1.2320001
0.16600141 -0.36689341 1.2360001
0.17247462 -0.36475068 1.2351429
0.16795179 -0.35324055 1.2360001
0.17460854 -0.35517389 1.2342502
0.16751836 -0.34695593 1.2360001
0.17319848 -0.34531972 1.2348001
0.1748049 -0.33467808 1.2358261
0.18056411 -0.3319329 1.2333335
0.17553672 -0.325068 1.2360001
0.18301995 -0.32538864 1.234286
0.17634939 -0.31558681 1.2360001
0.18271135 -0.31518722 1.234286
0.1787874 -0.30448037 1.2360001
0.18267925 -0.30485693 1.2341539
0.1787874 -0.29508951 1.2360001
0.18431814 -0.29444635 1.2341055
0.1787874 -0.28714338 1.2360001
0.18496838 -0.28513217 1.2345456
0.18634154 -0.27542758 1.2342224
0.19116944 -0.2732535 1.2320001
0.18778928 -0.26597229 1.2360001
0.19279686 -0.26390442 1.2323638
0.18926181 -0.25535896 1.2360001
0.19446689 -0.25436074 1.2346667
0.189623 -0.24488455 1.2360001
0.19500594 -0.24492314 1.2345884
-0.27197355 -0.23296539 1.2360001
-0.26980644 -0.23513252 1.2360001
0.19505465 -0.23463626 1.2344763
0.1965044 -0.22519812 1.2350001
-0.28460878 -0.21405184 1.2344002
-0.27479523 -0.21376522 1.2344
-0.26481327 -0.21471037 1.2348572
-0.25897083 -0.21562843 1.2360001
0.19724651 -0.21610081 1.2350589
0.2004586 -0.2112942 1.2360001
-0.26337871 -0.20721595 1.2320002
-0.25435957 -0.20601664 1.2346667
-0.24555434 -0.20459054 1.2347693
-0.23606126 -0.20324491 1.2360001
-0.22538048 -0.20100038 1.2360001
0.19809188 -0.20492125 1.2347693
0.2004586 -0.2004586 1.2360001
-0.23221147 -0.19980986 1.2320001
-0.22414681 -0.19777811 1.2328001
-0.21463148 -0.19494367 1.2340001
-0.20459262 -0.19268747 1.2348001
-0.19612436 -0.19179012 1.2360001
0.19772831 -0.19448254 1.2352002
0.20121428 -0.19688882 1.2340001
-0.20521012 -0.18900934 1.2320001
-0.19474594 -0.18736207 1.2330002
-0.18591721 -0.18452854 1.2340002
-0.17583679 -0.18171597 1.2348573
0.19805621 -0.18566303 1.2345456
0.20121428 -0.18931617 1.2340001
-0.17186612 -0.17781343 1.233
-0.1648317 -0.17539625 1.2336472
-0.15504126 -0.17405839 1.234286
-0.1462806 -0.17084129 1.2360001
-0.13977924 -0.17011891 1.2360001
-0.15120746 -0.16956837 1.2320001
-0.14446999 -0.16656901 1.2328891
-0.13572933 -0.16385107 1.2336668
-0.12677652 -0.16145045 1.2360001
-0.13284656 -0.15722491 1.2320002
-0.12475393 -0.15656389 1.2328573
-0.11549484 -0.1542062 1.2336843
-0.10534473 -0.15177236 1.2341819
-0.095273502 -0.150493 1.2350001
-0.089935482 -0.15061484 1.2360001
-0.10476518 -0.14796731 1.2320001
-0.094396666 -0.14753528 1.2320001
-0.085093781 -0.14609875 1.233143
-0.074633665 -0.14386101 1.2338183
-0.065619551 -0.14228791 1.2352002
-0.05526156 -0.14194636 1.2360001
-0.070203468 -0.13932689 1.2320001
-0.064340316 -0.13840112 1.2320002
-0.054625507 -0.13760348 1.2329234
-0.044826496 -0.13532501 1.233778
-0.035271145 -0.13338943 1.2332501
-0.02499201 -0.13348456 1.2331766
-0.016947133 -0.13234217 1.2340001
-0.0065013599 -0.13111076 1.2360001
-0.022141095 -0.12798631 1.2320001
-0.014056036 -0.12706187 1.2335001
-0.0054067792 -0.1266989 1.2337143
0.0054100077 -0.12551528 1.2342224
0.015262925 -0.12437636 1.2356365
0.025236128 -0.12418456 1.235077
0.034289356 -0.12379897 1.2351112
0.044592656 -0.12277568 1.2360001
0.055261564 -0.12244226 1.2360001
0.065013602 -0.12135872 1.2360001
0.07383687 -0.12089434 1.2360001
0.085601248 -0.12027516 1.2360001
0.095136568 -0.12070858 1.2360001
0.0071283518 -0.11945389 1.2320001
0.014850733 -0.11853585 1.2320002
0.025149813 -0.11926875 1.2320002
0.035950344 -0.11896016 1.2320002
0.045207951 -0.11803439 1.2320002
0.055982765 -0.11592572 1.2320002
0.064803198 -0.11556569 1.2320002
0.074953251 -0.11495105 1.2331114
0.085476235 -0.11469344 1.2342002
0.095179915 -0.11465157 1.2337502
0.10416772 -0.11417882 1.2345002
0.11485736 -0.11269025 1.2360001
0.12491897 -0.11361901 1.2360001
0.13154791 -0.11208826 1.2333335
0.086404264 -0.10908539 1.2320001
0.096124746 -0.10908539 1.2320001
0.10800533 -0.10908539 1.2320001
0.11628574 -0.10872537 1.2320002
0.12601767 -0.1087242 1.2328001
0.13068645 -0.10908539 1.2320001
0.17669334 0.11719456 1.2340001
0.1803689 0.11988592 1.2320001
0.17770383 0.12135872 1.2360001
0.18245256 0.12488291 1.2344
-0.11160668 0.40416789 1.2360001
-0.10728384 0.4069697 1.2330002
-0.097204804 0.4093402 1.2320001
-0.10410526 0.41451937 1.2337501
-0.098284863 0.41366044 1.2320001
-0.10223337 0.42136282 1.2340001
-0.098284855 0.42014074 1.2320001
0.087437272 -0.49491194 1.245
0.090777457 -0.49405187 1.2432858
0.096136644 -0.48504755 1.2441429
0.1052308 -0.48320034 1.243
0.11114731 -0.48164415 1.243
0.10605256 -0.47496268 1.245
0.11440524 -0.47486788 1.2428825
0.12076171 -0.47107947 1.2410001
0.097502865 -0.46350241 1.245
0.10527532 -0.46466005 1.245
0.11598153 -0.4648751 1.2442
0.12263279 -0.46416378 1.2413077
0.10696211 -0.45649901 1.245
0.11736357 -0.4548429 1.2442
0.1237147 -0.45522657 1.2410001
0.10805355 -0.44749451 1.245
0.11845503 -0.44742316 1.2442
0.12492389 -0.44476461 1.2420909
0.13272908 -0.44061705 1.2410001
0.12683526 -0.43538249 1.2436668
0.13445383 -0.43456468 1.2415333
0.14034469 -0.43408939 1.2410001
0.1363281 -0.42604619 1.2440591
0.14180301 -0.42413983 1.2426667
0.1375227 -0.41475102 1.245
0.14489882 -0.41431493 1.2419089
0.13861415 -0.40492791 1.245
0.14468543 -0.40501505 1.2427143
0.15122412 -0.40362698 1.2410001
0.14640732 -0.39599091 1.2432225
0.15243295 -0.39371461 1.2410001
0.14789148 -0.38910189 1.245
0.15435269 -0.38510677 1.2424287
0.15574011 -0.37436834 1.2432001
0.15693347 -0.36455911 1.2426472
0.16443487 -0.36352852 1.2410001
0.17080711 -0.36119717 1.2410001
0.15846969 -0.35529777 1.2435454
0.16431625 -0.3545945 1.2412857
0.17080711 -0.35793334 1.2410001
0.15826026 -0.34708109 1.245
0.16415513 -0.34477198 1.2426842
0.16539136 -0.33521107 1.2426471
0.17080711 -0.33726245 1.2410001
0.16590537 -0.32564378 1.2423333
0.17080711 -0.32529503 1.2410001
0.16801536 -0.31666496 1.2445
0.17280386 -0.31402695 1.2423334
0.16855107 -0.30357903 1.245
0.17410646 -0.30470741 1.2426472
0.16844712 -0.29651058 1.245
0.17469987 -0.29494625 1.2423999
0.17481826 -0.28426874 1.242818
0.18168654 -0.28395322 1.2410001
0.17687188 -0.27603671 1.2445555
0.18132378 -0.27482009 1.243
0.18334346 -0.26488152 1.2434001
0.18439969 -0.25483885 1.2431053
-0.26522234 -0.24121045 1.245
-0.25503549 -0.24539433 1.245
-0.24557623 -0.24339335 1.2450001
-0.23465787 -0.24367352 1.2442
-0.2284738 -0.24265389 1.244
0.18524531 -0.24518032 1.2430003
0.19039007 -0.24406195 1.2410001
-0.27447644 -0.23087032 1.2434001
-0.26422983 -0.23501933 1.241421
-0.25509572 -0.23477249 1.2443686
-0.24713545 -0.23590909 1.245
-0.23490107 -0.23653531 1.2443333
0.18747333 -0.23570456 1.2441112
0.19039008 -0.23499575 1.2410001
-0.28050265 -0.2248387 1.245
-0.27465013 -0.22525197 1.2428666
-0.26466694 -0.22579771 1.2409997
-0.25508896 -0.22511309 1.2435
-0.24847735 -0.224204 1.2444999
0.18882085 -0.22593015 1.245
0.1915617 -0.22496036 1.2423334
-0.2834731 -0.21842122 1.2436668
-0.27633762 -0.21867661 1.2410001
-0.25349078 -0.21541278 1.2410001
-0.24561872 -0.21548 1.2427778
-0.23444346 -0.21261445 1.245
-0.2248387 -0.21064985 1.245
0.18882085 -0.21501565 1.245
0.19225352 -0.21511786 1.2418001
-0.24206738 -0.20942909 1.2410001
-0.23499575 -0.20779717 1.2410001
-0.2247569 -0.20600756 1.2413077
-0.21518485 -0.20464741 1.2438891
-0.20534852 -0.20472482 1.245
-0.19692875 -0.20285378 1.245
0.18882085 -0.2051926 1.245
0.19287632 -0.20566183 1.2412499
-0.21432483 -0.19909362 1.2410001
-0.20513776 -0.19812655 1.2410001
-0.19441037 -0.19702844 1.2426001
-0.18464036 -0.19459151 1.2435
-0.17536913 -0.19242395 1.2439091
-0.16562752 -0.19182234 1.245
0.19297744 -0.19516031 1.2436668
-0.18241183 -0.18748891 1.2410001
-0.17476326 -0.18682952 1.2410001
-0.16520315 -0.18532079 1.2421765
-0.15558255 -0.18506375 1.2428948
-0.14513083 -0.1826697 1.2447335
-0.137741 -0.18183556 1.245
0.19407435 -0.18660815 1.2427143
-0.15448795 -0.17951065 1.2410001
-0.14426447 -0.1759163 1.2416154
-0.13599238 -0.17391595 1.243
-0.13283516 -0.16767915 1.2420001
-0.12497497 -0.16637644 1.2427145
-0.11478087 -0.16495077 1.2440002
-0.10507686 -0.1624276 1.245
-0.095501877 -0.16126172 1.245
-0.086224549 -0.16044314 1.245
-0.11314611 -0.15992767 1.2410001
-0.10471454 -0.1572078 1.2410001
-0.094513059 -0.15602036 1.2432855
-0.084805392 -0.15500782 1.2434001
-0.076071374 -0.15385965 1.2447144
-0.064395547 -0.15171155 1.245
-0.0545725 -0.15171155 1.245
-0.049115248 -0.15171155 1.245
-0.073372968 -0.14870915 1.2418001
-0.064517491 -0.14777021 1.2435454
-0.055248909 -0.14692183 1.2427143
-0.044168759 -0.14569329 1.2432859
-0.035353336 -0.14359751 1.2435714
-0.025581202 -0.14250495 1.2437692
-0.016371749 -0.1418885 1.245
-0.033726241 -0.1381688 1.2410001
-0.020670922 -0.1381688 1.2410001
-0.014512339 -0.13679127 1.2416667
-0.004521721 -0.13487203 1.245
0.0056318529 -0.13352583 1.2433333
0.015272847 -0.13310386 1.2444999
0.024364613 -0.13235855 1.2443334
0.034271531 -0.13250203 1.245
0.044203721 -0.13288403 1.245
0.0545725 -0.13206545 1.245
0.061121199 -0.13206545 1.245
0.015231207 -0.12946525 1.2410001
0.025022697 -0.12946525 1.2410001
0.035579223 -0.12887906 1.2423333
0.044635132 -0.12846076 1.2418001
0.055079505 -0.1284419 1.2427778
0.065216549 -0.12789427 1.2433333
0.075197592 -0.12663877 1.2431333
0.084996335 -0.12531744 1.243
0.09464851 -0.12566806 1.2431538
0.10417466 -0.12335612 1.243
0.11532988 -0.12151477 1.245
0.12430394 -0.12252557 1.2428182
0.10988227 -0.11749788 1.2410001
0.11532199 -0.11749788 1.2410001
0.12438819 -0.11822317 1.2410001
0.18478058 0.12814908 1.2423334
0.19147801 0.12946525 1.2410001
0.18882085 0.1331569 1.245
0.19100375 0.1331569 1.245
-0.11241935 0.41693389 1.245
-0.10915697 0.41813287 1.2410001
-0.11117198 0.42426223 1.245
-0.10624718 0.4260723 1.243
-0.11023645 0.43112275 1.245
-0.1047792 0.43112275 1.245
0.075600639 -0.49542376 1.2571335
0.082662463 -0.49504957 1.2524999
0.076073915 -0.48475483 1.2576668
0.084542878 -0.48532385 1.2525004
0.093743563 -0.48306325 1.25
0.10410417 -0.48107082 1.25
0.11067916 -0.48107082 1.25
0.077698097 -0.47517151 1.2584286
0.084873088 -0.47501716 1.2529548
0.095337495 -0.4744958 1.25
0.10386065 -0.47449583 1.25
0.11161844 -0.47324347 1.25
0.077536568 -0.4649435 1.2589999
0.084646389 -0.46501878 1.2540004
0.094241671 -0.46432021 1.25
0.10246041 -0.46463332 1.25
0.11287083 -0.46416369 1.25
0.078364357 -0.45583773 1.2590001
0.084482893 -0.45536575 1.2560458
0.095396407 -0.45505983 1.2508
0.10394762 -0.45445776 1.25
0.11271428 -0.45492738 1.25
0.086172298 -0.44585356 1.2570002
0.095468998 -0.44547451 1.2541671
0.10467701 -0.44447026 1.2503126
0.11458597 -0.44450563 1.2516667
0.1216375 -0.44162083 1.25
0.088080548 -0.43575194 1.2576667
0.094662644 -0.43479156 1.2556003
0.1044692 -0.43465298 1.2525865
0.11571762 -0.43519875 1.2553709
0.12340362 -0.4331007 1.25125
0.13040416 -0.43066248 1.25
0.095992722 -0.42700452 1.2586
0.1048419 -0.42432579 1.256667
0.11560404 -0.42512646 1.2580911
0.12497891 -0.42447698 1.2555912
0.13214037 -0.42474699 1.2513636
0.1075517 -0.41585839 1.2589999
0.11633243 -0.41544145 1.2589999
0.12487351 -0.4150213 1.2575457
0.13316309 -0.41500366 1.2529414
0.11809839 -0.40506643 1.2590001
0.12440148 -0.40481949 1.2576669
0.13422984 -0.40476918 1.2527779
0.12663214 -0.39584827 1.2577692
0.13548547 -0.39520472 1.2549236
0.14215589 -0.39430761 1.2505555
0.12825266 -0.38784838 1.2590001
0.13537283 -0.38482043 1.2571669
0.14512432 -0.38521385 1.2526318
0.15085973 -0.38354167 1.25
0.1363807 -0.3755568 1.2575884
0.14477423 -0.37514299 1.2549003
0.15106846 -0.37524462 1.25
0.13573177 -0.36500445 1.2587649
0.14449413 -0.3650994 1.2566253
0.15172313 -0.36391631 1.25
0.13541836 -0.35565364 1.2589999
0.14457491 -0.35512438 1.2570956
0.15342227 -0.35481694 1.2530558
0.13638867 -0.34641144 1.2589999
0.14489026 -0.34556028 1.2583046
0.15464006 -0.34487578 1.2543185
0.1610875 -0.34189999 1.25
0.14645559 -0.3356168 1.2589999
0.15524785 -0.33495048 1.2560004
0.1610875 -0.335325 1.25
0.14900266 -0.32670212 1.2590001
0.15571547 -0.32480821 1.2574351
0.16179651 -0.32413873 1.25125
0.15618551 -0.31458133 1.2582002
0.16466333 -0.31457436 1.2522225
0.15661974 -0.30536404 1.2581427
0.1635512 -0.30481732 1.2531177
0.15783243 -0.29910901 1.2590001
0.16436285 -0.29457822 1.2540003
0.15783243 -0.28255317 1.2590001
0.16528319 -0.28502637 1.2560372
0.17053358 -0.28055525 1.2550001
0.15783243 -0.27482709 1.2590001
0.16411522 -0.27475491 1.2578336
0.17330411 -0.27443585 1.2521877
0.16528681 -0.26514938 1.2578892
0.17437014 -0.26512039 1.2530438
0.18081249 -0.26409584 1.25
-0.25144774 -0.25254795 1.2525001
-0.24431856 -0.25396797 1.2540771
-0.23478191 -0.25544396 1.2547224
-0.2260595 -0.25457102 1.2570666
0.16749154 -0.25553995 1.2586
0.1747757 -0.25512365 1.2532177
0.18081249 -0.25532916 1.25
-0.26300001 -0.243275 1.25
-0.25569442 -0.24510139 1.25
-0.24546666 -0.24875416 1.25
-0.23615208 -0.24875416 1.25
-0.22442056 -0.24582003 1.2518127
-0.21853721 -0.2461303 1.2590001
0.16886967 -0.24502659 1.2590001
0.17519474 -0.24527644 1.2555836
0.18095714 -0.24456282 1.251
-0.24457008 -0.23401022 1.25
-0.23691486 -0.23252054 1.2538183
-0.21346009 -0.23862498 1.2590001
0.17577672 -0.23543948 1.2580478
0.18392846 -0.23501711 1.2523333
-0.28493127 -0.2253121 1.2516667
-0.2437938 -0.22610317 1.252353
-0.23527633 -0.22496162 1.2573185
-0.22552745 -0.22332004 1.2589999
-0.21632978 -0.22184838 1.2590001
0.17658919 -0.22523047 1.2575883
0.18488376 -0.22518331 1.2535719
-0.24217917 -0.21807083 1.25
-0.23505625 -0.21724898 1.25
-0.22485189 -0.21607298 1.2526876
-0.21471849 -0.21576811 1.2546843
-0.20507568 -0.21557558 1.255706
-0.19517522 -0.21372974 1.2578236
-0.18542552 -0.21301861 1.2589999
-0.17598253 -0.21179226 1.2589999
-0.1655585 -0.21081115 1.2590001
0.17815606 -0.2156622 1.2583333
0.18434303 -0.21474582 1.2533336
-0.21259166 -0.20930417 1.25
-0.20272917 -0.20875625 1.25
-0.19375251 -0.20648348 1.2515
-0.18504366 -0.204313 1.2533529
-0.17511399 -0.20485695 1.2563003
-0.16463104 -0.20505072 1.2585791
-0.15452126 -0.20308509 1.2589999
-0.14789893 -0.20198137 1.2590001
0.1799069 -0.20529254 1.2590001
0.18511185 -0.20477778 1.2533686
-0.18190834 -0.19834583 1.25
-0.17402147 -0.19783297 1.2507143
-0.16477229 -0.19691248 1.2522727
-0.15493041 -0.19559388 1.2534004
-0.14447246 -0.19580165 1.2570956
-0.13807522 -0.19375099 1.2575001
0.1788853 -0.19688822 1.2570001
0.18552522 -0.1954114 1.2522501
-0.15012917 -0.18957916 1.25
-0.14538056 -0.18811804 1.25
-0.13405706 -0.185224 1.2541335
-0.12512195 -0.18480046 1.2578237
-0.11526024 -0.18306039 1.2589999
0.18793541 -0.18903124 1.25
0.19177084 -0.1873875 1.25
-0.13210879 -0.17618565 1.25
-0.12504773 -0.17551087 1.25125
-0.11546222 -0.17594837 1.2543504
-0.10460415 -0.17600448 1.2560003
-0.094864845 -0.17438944 1.2571539
-0.085362226 -0.17243244 1.2586364
-0.078364357 -0.17107712 1.2590001
-0.1216375 -0.16985416 1.25
-0.11396667 -0.16985416 1.25
-0.10483471 -0.16839306 1.25
-0.095337503 -0.16678585 1.25
-0.084943995 -0.16550592 1.2514286
-0.075617753 -0.16473211 1.2540002
-0.06543579 -0.16479182 1.2575884
-0.055438865 -0.16356255 1.2585
-0.044516843 -0.16187942 1.2589999
-0.035161473 -0.16193198 1.2589999
-0.029800531 -0.16003989 1.2590001
-0.07378611 -0.15816529 1.25
-0.064670242 -0.15674655 1.2503334
-0.054864723 -0.15691604 1.2516667
-0.044999052 -0.15585405 1.2519444
-0.035181664 -0.15447691 1.2517648
-0.025291 -0.1539689 1.2544502
-0.015974473 -0.15331949 1.2566667
-0.0053147515 -0.15252748 1.2582726
0.0028696808 -0.15209308 1.2590001
-0.033970833 -0.14793751 1.25
-0.024264881 -0.14731131 1.25
-0.01469381 -0.14608249 1.251
-0.0054956046 -0.14508723 1.2537504
0.0055073518 -0.14531797 1.2557504
0.015171796 -0.14468215 1.2568462
0.025345311 -0.14325786 1.2570001
0.035319149 -0.14238031 1.2590001
0.04598847 -0.14274821 1.2589999
0.055098496 -0.14325786 1.2570001
0.064117521 -0.14256641 1.2578572
0.075053185 -0.14017287 1.2590001
0.084986702 -0.14017287 1.2590001
0.094920203 -0.14017287 1.2590001
0.10352925 -0.14061436 1.2590001
-0.012054167 -0.13917083 1.25
-0.0063010422 -0.13834895 1.25
0.0052052089 -0.13834895 1.25
0.0153592 -0.13821417 1.25125
0.025553267 -0.13733451 1.2517859
0.035416536 -0.13738085 1.2518182
0.045369327 -0.13775903 1.2520834
0.05486472 -0.13716471 1.2516667
0.064921558 -0.13636783 1.2526474
0.075313173 -0.13447189 1.2528572
0.084818557 -0.13420174 1.2531054
0.095017999 -0.1336897 1.2522225
0.10489342 -0.13432556 1.2536112
0.11438692 -0.13280392 1.2557274
0.10673417 -0.12733583 1.25
0.11497641 -0.12643191 1.2524999
0.17787932 0.12627579 1.2525001
0.18190834 0.1282125 1.25
0.17879118 0.13363557 1.2563334
0.18489057 0.13464965 1.2568667
0.19094414 0.13796541 1.2590001
0.18652923 0.14311613 1.2590001
0.19138563 0.14370477 1.2590001
-0.11396667 0.41641667 1.25
-0.11694222 0.42530024 1.2525001
-0.11490568 0.43471906 1.2522223
-0.1054417 0.43583769 1.2529
0.06598451 -0.49522921 1.2668332
0.072026931 -0.49532366 1.2640001
0.06773477 -0.48489252 1.2666665
0.071627878 -0.48454627 1.2648
0.0666968 -0.47465891 1.2679999
0.072626784 -0.47538516 1.2654117
0.066855602 -0.46513078 1.268
0.072723255 -0.46519038 1.2651428
0.074492469 -0.45547539 1.266476
0.077262394 -0.444893 1.2672726
0.081818864 -0.44487548 1.2654999
0.077971734 -0.43622884 1.268
0.084262744 -0.43397909 1.2663999
0.085744694 -0.42671445 1.2672726
0.093270309 -0.42390409 1.2656
0.10083771 -0.42218864 1.2640001
0.11191877 -0.42218864 1.2640001
0.095269419 -0.41524458 1.2673331
0.10377409 -0.41410446 1.2656841
0.11322486 -0.4136773 1.2650908
0.09630613 -0.40573883 1.2679999
0.10557822 -0.40482643 1.266476
0.11447258 -0.40395725 1.2661332
0.12078363 -0.4000265 1.2640001
0.098933585 -0.39906919 1.268
0.10473979 -0.39477453 1.2678094
0.11481819 -0.39440441 1.2673042
0.12281644 -0.39394563 1.2644
0.10597592 -0.38561791 1.2676363
0.11497257 -0.38509458 1.2679999
0.12483494 -0.38439491 1.2652726
0.10560326 -0.37906015 1.268
0.11538546 -0.37728158 1.268
0.12570864 -0.37491822 1.2654736
0.1318647 -0.37454003 1.2640001
0.12732902 -0.36479351 1.2657499
0.1318647 -0.36678329 1.2640001
0.12770928 -0.35494345 1.2667692
0.13198292 -0.35285184 1.265143
0.13492477 -0.34468961 1.2659999
0.1412836 -0.34185091 1.2640001
0.13717309 -0.33815277 1.268
0.14322822 -0.33312568 1.2647272
0.14535649 -0.32479629 1.2657142
0.15181062 -0.32024282 1.2640001
0.1455545 -0.31553975 1.2662499
0.15181062 -0.31433293 1.2640001
0.14645243 -0.30759156 1.2666667
0.15244463 -0.3033379 1.2656
0.15551585 -0.29466698 1.2659999
0.15411645 -0.2846899 1.2657777
0.15357405 -0.2748284 1.2659999
-0.24378347 -0.26262128 1.2640001
-0.23602672 -0.26262128 1.2640001
-0.22162133 -0.26040506 1.2640001
-0.21676458 -0.26345235 1.268
0.15732658 -0.2658383 1.2656
0.16111872 -0.26306453 1.2640001
-0.22148459 -0.25587443 1.2653334
-0.21671268 -0.2555736 1.2664
0.1589607 -0.2590059 1.268
0.16385576 -0.25474709 1.2665713
-0.22051322 -0.24932399 1.2640001
-0.21718889 -0.24932399 1.2640001
0.16692117 -0.24438977 1.266
-0.23159429 -0.23159429 1.2640001
-0.22477692 -0.23290774 1.2644445
-0.21391183 -0.2342376 1.2656841
-0.20509265 -0.23065975 1.268
0.16820821 -0.23593774 1.2665
0.17133659 -0.23343967 1.265
-0.22405915 -0.22804835 1.2640001
-0.21497269 -0.2266078 1.2640001
-0.20484388 -0.2248034 1.26475
-0.1946843 -0.22440213 1.2657777
-0.18517748 -0.22320893 1.2658666
-0.17461622 -0.22276215 1.2673333
-0.16785361 -0.22121105 1.268
0.16841584 -0.22615661 1.2666668
0.17141499 -0.22448274 1.2664
-0.19391868 -0.218297 1.2640001
-0.18431509 -0.21792763 1.2640001
-0.17471148 -0.21681952 1.2640001
-0.16528018 -0.21586642 1.2653333
-0.15460674 -0.21234488 1.2665
-0.14450973 -0.21009491 1.268
0.16785361 -0.21676461 1.268
0.17291763 -0.21439022 1.2671111
-0.16067547 -0.20943215 1.2640001
-0.15513495 -0.20832403 1.2640001
-0.14475495 -0.20549202 1.2649231
-0.13488501 -0.20339933 1.2667692
-0.12709445 -0.20194308 1.268
0.16785361 -0.20787169 1.268
0.17514616 -0.20579839 1.2654999
-0.13356103 -0.19563313 1.2643334
-0.12548462 -0.19465961 1.2654117
-0.11490329 -0.19269308 1.2675999
-0.10401525 -0.1913563 1.268
-0.096265718 -0.19053052 1.268
-0.12226111 -0.18874751 1.2640001
-0.11524308 -0.18782409 1.2640001
-0.1054005 -0.18505378 1.2640001
-0.094608761 -0.18414022 1.2665262
-0.084785782 -0.1832141 1.2679999
-0.07447809 -0.18119298 1.268
-0.09197285 -0.17840517 1.2640001
-0.084831722 -0.17742018 1.2640001
-0.074914679 -0.17577738 1.2659999
-0.065230645 -0.17514215 1.2656841
-0.054602306 -0.17381045 1.2674285
-0.044909183 -0.17185542 1.2679999
-0.034864232 -0.17149162 1.2679999
-0.025567107 -0.17007683 1.268
-0.063162081 -0.16954033 1.2640001
-0.055128306 -0.16815518 1.2640001
-0.045432378 -0.16621599 1.2640001
-0.034403905 -0.16675776 1.266
-0.025023768 -0.16420454 1.2655555
-0.016306808 -0.1640254 1.2661538
-0.013081971 -0.1581163 1.2648001
-0.0052705198 -0.15760186 1.2659999
0.005887154 -0.15592393 1.2655385
0.014594045 -0.15519081 1.2674664
0.024455493 -0.15451424 1.2679999
0.034329232 -0.1532065 1.2679999
0.04446454 -0.15229104 1.2679999
0.054064833 -0.1514826 1.2679999
0.064473577 -0.15117942 1.268
0.074231066 -0.1510559 1.268
0.08448261 -0.15117942 1.268
0.094145097 -0.15229104 1.2679999
0.016621599 -0.1495944 1.2640001
0.025486451 -0.1484863 1.2640001
0.035474755 -0.14632839 1.2645
0.044985469 -0.14654867 1.2653333
0.055405334 -0.14737819 1.2640001
0.06575501 -0.14624502 1.265143
0.074711278 -0.14561808 1.2665714
0.084823504 -0.14491875 1.2659999
0.09461011 -0.14548634 1.2654285
0.10128095 -0.14604846 1.2640001
0.18708962 0.14349008 1.2644445
0.055972125 -0.49588788 1.2753333
0.061379816 -0.49327052 1.273
0.057010897 -0.48517123 1.2751875
0.062495809 -0.48545855 1.2729999
0.05706194 -0.47516561 1.2763332
0.062495813 -0.4754146 1.2729999
0.058083646 -0.4670383 1.2768888
0.063705884 -0.46504009 1.2749231
0.066020824 -0.45544237 1.2764615
0.070865788 -0.45365262 1.273
0.05938014 -0.44479087 1.2780001
0.06511718 -0.44486853 1.2772106
0.072196402 -0.44511092 1.2729999
0.067258157 -0.43475854 1.2763333
0.073581383 -0.43471783 1.273
0.067222796 -0.424624 1.278
0.07491938 -0.4250654 1.2741113
0.084511384 -0.42275983 1.2729999
0.076122887 -0.41549492 1.2756667
0.084835738 -0.41525298 1.2733124
0.090395726 -0.41403475 1.273
0.078911178 -0.40741614 1.2767501
0.08507847 -0.40575767 1.2743158
0.092971101 -0.40356156 1.2729999
0.088061869 -0.39728671 1.2780001
0.094840825 -0.39483836 1.2752917
0.097146437 -0.38524279 1.2758571
0.10353969 -0.38353086 1.2729999
0.11420366 -0.38353086 1.2729999
0.086269259 -0.37196615 1.2780001
0.097201541 -0.37522665 1.2765714
0.1049037 -0.37497491 1.273
0.11488116 -0.37425816 1.27475
0.12164363 -0.37385884 1.273
0.096240878 -0.36593154 1.2774117
0.10496352 -0.3651455 1.2737501
0.11515208 -0.36497173 1.2752727
0.12263563 -0.36517891 1.2729999
0.099713817 -0.35964197 1.2780001
0.10619454 -0.35706961 1.2775455
0.11557996 -0.35508507 1.2766364
0.12313163 -0.35451493 1.2729999
0.11808805 -0.34530112 1.278
0.12506506 -0.34504387 1.2737501
0.1313156 -0.34298301 1.2729999
0.11876029 -0.3349936 1.278
0.12514922 -0.33481333 1.2764211
0.1346636 -0.334427 1.2730001
0.11898436 -0.32647875 1.2780001
0.12559131 -0.32501304 1.2771177
0.13507663 -0.32485598 1.2734003
0.14173158 -0.32252303 1.273
0.12692304 -0.31770775 1.278
0.13523741 -0.31522733 1.2760001
0.14431107 -0.31374791 1.2736249
0.13619584 -0.30483201 1.2757778
0.14444651 -0.3029601 1.2733333
0.15065955 -0.30355108 1.273
0.13556598 -0.29465991 1.278
0.14390798 -0.29468679 1.2744287
0.15140355 -0.29499513 1.2729999
0.13652632 -0.28569689 1.278
0.14426409 -0.28462455 1.2740419
0.15065955 -0.28904313 1.273
-0.21287221 -0.27001157 1.2780001
-0.20727029 -0.27001157 1.2780001
-0.1960665 -0.27001157 1.2780001
0.14530014 -0.27494344 1.2760557
0.15065955 -0.27341917 1.273
-0.21241134 -0.2639952 1.2729999
-0.2050765 -0.26396093 1.2752223
-0.195684 -0.26352867 1.2764374
0.1472749 -0.26513508 1.2770909
0.15338401 -0.26392192 1.273625
-0.21417551 -0.25813273 1.2746667
-0.20614992 -0.25880778 1.2780001
-0.19864741 -0.25779521 1.273
0.14811423 -0.25701517 1.2780001
0.15551521 -0.2550953 1.2762501
0.16181952 -0.25221527 1.273
-0.20353569 -0.2408817 1.2780001
0.15632828 -0.24609368 1.2776428
0.16202845 -0.24509381 1.2746665
-0.21092337 -0.23770729 1.273
-0.20484422 -0.23626615 1.27425
-0.19590789 -0.23409465 1.2759999
-0.1848627 -0.23191866 1.2780001
-0.17477928 -0.23191866 1.2780001
0.15701325 -0.23479964 1.278
0.1635628 -0.23537242 1.2756317
-0.18413945 -0.22877932 1.273
-0.17510124 -0.22816697 1.2742499
-0.16469066 -0.22507723 1.2754999
-0.15461245 -0.22239541 1.278
-0.14732997 -0.22127503 1.2780001
0.15618098 -0.22542048 1.278
0.16380075 -0.2257764 1.2749445
-0.16181952 -0.21985134 1.273
-0.15524276 -0.21756712 1.2739999
-0.14464466 -0.21577367 1.2762144
-0.13654938 -0.21154471 1.2767501
0.15742412 -0.21722855 1.2750832
0.16457668 -0.21499346 1.273
-0.13326107 -0.20808399 1.2738333
-0.12495425 -0.20588794 1.2757272
-0.11602447 -0.2022613 1.2774999
-0.10867686 -0.20166841 1.2780001
0.16426337 -0.2089646 1.2746667
-0.12275963 -0.1997634 1.273
-0.1141649 -0.19707039 1.2736249
-0.10510971 -0.19680333 1.2754999
-0.094725907 -0.19536595 1.2755001
-0.085333295 -0.19334947 1.2761817
-0.090395726 -0.18860343 1.273
-0.084146149 -0.18815704 1.273
-0.075260334 -0.18663283 1.2758571
-0.064897291 -0.18462455 1.2763332
-0.054865431 -0.18251988 1.2772857
-0.044815198 -0.18094137 1.2780001
-0.038092919 -0.18038118 1.2780001
-0.02576874 -0.18038118 1.2780001
-0.054311842 -0.17893147 1.2729999
-0.044480439 -0.1771246 1.2729999
-0.034127172 -0.17660636 1.274111
-0.024508797 -0.17455043 1.2746665
-0.015751308 -0.1728833 1.2752726
-0.00784266 -0.17141815 1.2780001
0.02576874 -0.17141815 1.2780001
-0.011000538 -0.16564579 1.2729999
-0.0044708359 -0.16545545 1.2751876
0.0042121811 -0.16464677 1.2749231
0.014809419 -0.16457598 1.274875
0.024581242 -0.16537382 1.2745625
0.034393679 -0.16501468 1.2746667
0.04474324 -0.16443031 1.2759166
0.054164588 -0.16316073 1.2765
0.064982042 -0.16133471 1.278
0.074225172 -0.16273519 1.278
0.082908124 -0.1624551 1.2780001
0.01673995 -0.15958752 1.273
0.024551926 -0.15958752 1.273
0.035552464 -0.15894981 1.2729999
0.044639867 -0.15847152 1.2729999
0.054683838 -0.15735552 1.2729999
0.064727813 -0.15623954 1.2729999
0.075069383 -0.15690915 1.273
0.084815741 -0.15735552 1.2729999
0.090953723 -0.15735553 1.273
0.18885036 0.15532956 1.2746667
0.19147314 0.15608011 1.2729999
0.18934421 0.1624551 1.2780001
0.19158497 0.1624551 1.2780001
0.047179483 -0.49459791 1.2875001
0.051482577 -0.49400944 1.2836251
0.045947585 -0.48579365 1.2880001
0.051929832 -0.48489988 1.2846667
0.046295021 -0.47537079 1.2880001
0.051739112 -0.47465014 1.2830001
0.046295013 -0.4652085 1.2880001
0.054253917 -0.46421224 1.2840003
0.061861981 -0.46227774 1.2830001
0.048553307 -0.45730439 1.2880001
0.054954343 -0.45482287 1.2862611
0.061861984 -0.45440441 1.2830001
0.055006724 -0.44501707 1.2861581
0.058021244 -0.43596789 1.2869288
0.063293509 -0.43487442 1.2830001
0.059092011 -0.42493555 1.2880001
0.064186364 -0.42471391 1.2845385
0.058715627 -0.41552594 1.2880001
0.065595314 -0.41525471 1.2852224
0.072905116 -0.41360614 1.2830001
0.058876932 -0.4069767 1.2880001
0.065613411 -0.40526727 1.2869476
0.07468988 -0.40434337 1.284429
0.082857564 -0.40229034 1.2830001
0.067184217 -0.3957659 1.2880001
0.075657882 -0.39538532 1.2863336
0.084678315 -0.39450553 1.2841114
0.092230588 -0.39029288 1.2830001
0.068313368 -0.3872973 1.2880001
0.074583113 -0.38527668 1.2880001
0.08419396 -0.38483718 1.285273
0.092069909 -0.38418698 1.2830001
0.071136236 -0.37826413 1.2880001
0.084615916 -0.37491691 1.2853811
0.092230588 -0.37567094 1.2830001
0.086273417 -0.36563274 1.2870001
0.093144864 -0.36245409 1.2835555
0.089202583 -0.35681033 1.2880001
0.09494815 -0.35515007 1.2869476
0.10303251 -0.3541238 1.284
0.1136011 -0.35430047 1.2830001
0.097106606 -0.34551886 1.2880001
0.10521391 -0.34596014 1.2869133
0.11328907 -0.3450591 1.2833848
0.10599069 -0.3354097 1.2877223
0.11360109 -0.33517945 1.2830001
0.10688557 -0.32597926 1.2872858
0.114499 -0.32510006 1.2846669
0.12109951 -0.32130739 1.2830001
0.10823677 -0.31729022 1.2880001
0.11420728 -0.31676689 1.2875456
0.12506051 -0.31434074 1.2851877
0.13159731 -0.31268421 1.2830001
0.11178552 -0.30712789 1.2880001
0.12775992 -0.30512741 1.2859167
0.13159731 -0.30537322 1.2830001
-0.17727602 -0.2901907 1.2880001
0.12806943 -0.29492542 1.286
0.13159731 -0.29468802 1.2830001
-0.20316489 -0.28294879 1.2844286
-0.19458407 -0.28231561 1.2830002
-0.18426269 -0.28377116 1.2830002
-0.17765799 -0.2848857 1.2875001
0.12968384 -0.28755689 1.2863334
0.13408622 -0.28386027 1.2853078
-0.21115042 -0.27889922 1.2880001
-0.20511203 -0.27531272 1.286
-0.19446567 -0.27461985 1.2830003
-0.18446119 -0.27444229 1.2830002
-0.17836735 -0.27569011 1.2865715
0.13804241 -0.2760841 1.2871667
0.14134526 -0.2736924 1.2830001
-0.19143471 -0.26746875 1.2830001
-0.18557158 -0.26780424 1.284875
0.13850865 -0.26610222 1.2880001
0.14243068 -0.26489687 1.2848183
0.13888504 -0.25857458 1.2880001
0.14520545 -0.25563389 1.2853334
0.15184306 -0.25082222 1.2830001
-0.21145549 -0.24407364 1.2830001
-0.20358215 -0.24519841 1.2830001
-0.19469519 -0.2453424 1.2837503
-0.18656012 -0.24477389 1.2880001
0.14791821 -0.24841227 1.2880001
0.1515729 -0.24436033 1.2855
-0.19158469 -0.2380749 1.2830001
-0.18491647 -0.23667796 1.2835556
-0.17521566 -0.23683909 1.2857778
-0.16540268 -0.2335813 1.2846668
-0.15592535 -0.23287618 1.2870001
-0.14520827 -0.23192672 1.2880001
0.15276079 -0.23508112 1.2849233
-0.16084115 -0.22832696 1.2830001
-0.15473531 -0.22736287 1.2830001
-0.14453176 -0.22587807 1.2842503
-0.13580553 -0.22223659 1.2880001
-0.12533526 -0.22131273 1.2880001
-0.1163021 -0.2201836 1.2880001
0.15240955 -0.2276051 1.2840002
-0.14059542 -0.21932885 1.2830001
-0.13471161 -0.21576765 1.2841111
-0.12460848 -0.21431445 1.2843891
-0.11505955 -0.21433239 1.2867501
-0.10549907 -0.21299823 1.2876155
-0.097482987 -0.2119032 1.2880001
-0.12034968 -0.20808122 1.2830001
-0.11388228 -0.20667526 1.2830001
-0.10414693 -0.20504695 1.2835559
-0.094617106 -0.20500992 1.2848753
-0.08539547 -0.20415072 1.2865715
-0.074749507 -0.20256892 1.2880001
-0.066619642 -0.20211725 1.2880001
-0.091105826 -0.1990831 1.2830001
-0.084871151 -0.19878836 1.284
-0.075213157 -0.19562533 1.2841909
-0.065376751 -0.19500637 1.2857502
-0.05549087 -0.19430524 1.2868097
-0.045867275 -0.19301675 1.2875456
-0.035971384 -0.19147101 1.2880001
-0.024841227 -0.19082579 1.2880001
-0.0169372 -0.19082579 1.2880001
-0.054613508 -0.18683569 1.2830001
-0.044683781 -0.18579045 1.2830001
-0.034559708 -0.18520015 1.2855002
-0.02471452 -0.18502598 1.2853334
-0.01585703 -0.18436906 1.2860001
-0.0045165867 -0.18179262 1.2880001
0.019195493 -0.18179262 1.2880001
0.021453787 -0.18179262 1.2880001
-0.01313198 -0.17749257 1.2841113
-0.0042881272 -0.1762386 1.2870001
0.0045141215 -0.17602114 1.2870628
0.014662908 -0.17597881 1.2867501
0.024721241 -0.1760574 1.2856668
0.034116089 -0.17474085 1.2872308
0.044488378 -0.1732111 1.2880001
0.056582794 -0.17225759 1.2880001
0.065813109 -0.17340468 1.2880001
0.073394537 -0.17179158 1.2880001
0.005623816 -0.16983926 1.2830001
0.013497161 -0.16983926 1.2830001
0.037117191 -0.16983926 1.2830001
0.044990532 -0.16983926 1.2830001
0.055703726 -0.16767137 1.283625
0.065268598 -0.16654661 1.2836251
0.075402342 -0.16671894 1.2837143
0.082211457 -0.16630776 1.2846667
0.19421323 0.16598456 1.2880001
0.044173479 -0.49723482 1.2920001
0.038887765 -0.4840205 1.2919999
0.041908175 -0.4847756 1.2920001
0.037426714 -0.47442731 1.2937857
0.041908175 -0.47458178 1.2920001
0.035700016 -0.46474636 1.2947273
0.043040827 -0.4632552 1.2919999
0.037847076 -0.45660141 1.2970001
0.044637356 -0.45476303 1.2923332
0.045557067 -0.44516632 1.2946192
0.0509694 -0.44060215 1.2920001
0.046745181 -0.43454495 1.2953333
0.053234708 -0.43493891 1.2919999
0.047268242 -0.4241147 1.2970001
0.053802524 -0.42503509 1.2928823
0.046411768 -0.416879 1.2970001
0.053251144 -0.41468522 1.2924166
0.048892576 -0.40592209 1.2970001
0.053727217 -0.40512148 1.293
0.06116328 -0.40209192 1.2920001
0.054778386 -0.39514786 1.29375
0.062862262 -0.39472967 1.2919999
0.05583052 -0.38495716 1.2953333
0.063693188 -0.38442859 1.2922777
0.073622465 -0.38170418 1.2920001
0.057988871 -0.37522212 1.2970001
0.064819224 -0.37514082 1.2934583
0.074933954 -0.37466982 1.2919999
0.065265909 -0.36817247 1.2970001
0.075326033 -0.36489397 1.2953334
0.08245717 -0.3640348 1.2919999
0.077887014 -0.35646102 1.2970001
0.084234387 -0.35520154 1.29325
0.085874639 -0.34604788 1.2946191
0.093632676 -0.34470415 1.2919999
0.10307145 -0.34092864 1.2920001
0.087027043 -0.3371751 1.2970001
0.09495084 -0.33484921 1.2928333
0.10125921 -0.33594498 1.2920001
0.095637135 -0.32540387 1.2953334
0.10206464 -0.32406473 1.2919999
0.097893111 -0.31608266 1.2962857
0.10422928 -0.31442937 1.2931765
0.1166633 -0.31374496 1.2919999
0.12176023 -0.31317866 1.2920001
0.098922193 -0.30699992 1.2970001
0.1062649 -0.30551019 1.294143
0.11595738 -0.3044357 1.2925555
0.12289289 -0.30411744 1.2919999
0.10619922 -0.29767621 1.2970001
0.11476257 -0.29562724 1.2961179
0.12342464 -0.29459301 1.2938181
-0.17310765 -0.28450778 1.2939999
-0.16941847 -0.2819851 1.2970001
0.1143534 -0.28572106 1.2970001
0.12460318 -0.28541058 1.2947779
0.13025513 -0.28316331 1.2920001
-0.18009187 -0.27070415 1.2920001
-0.17468011 -0.27733427 1.293875
0.11142959 -0.27175176 1.2970001
0.12527215 -0.27567428 1.2964447
0.13305344 -0.27510154 1.2919999
-0.18235719 -0.26843885 1.2920001
0.11029255 -0.26265547 1.2970001
0.12605947 -0.26553595 1.2970002
0.13354191 -0.26469338 1.2933888
-0.18413979 -0.25180548 1.2950001
-0.17624068 -0.25128511 1.2970001
0.12791662 -0.25640178 1.2970001
0.13545418 -0.25507009 1.2953335
0.14352337 -0.25193447 1.2919999
-0.18315656 -0.24553652 1.2936666
-0.17515105 -0.24512358 1.2956668
-0.16463338 -0.24494484 1.2963334
-0.1560106 -0.24270515 1.2962857
-0.1489518 -0.24218881 1.2970001
0.13723157 -0.24586232 1.2970001
0.14486328 -0.2446139 1.2929999
-0.16423473 -0.23898984 1.2920001
-0.15399185 -0.2376816 1.2934999
-0.14497596 -0.23743334 1.2947272
-0.13592757 -0.23288578 1.2970001
-0.1273481 -0.23081844 1.2970001
0.13909748 -0.23915671 1.2970001
0.14538997 -0.23612437 1.2936667
0.15064289 -0.23672454 1.2920001
-0.13456559 -0.22749031 1.292625
-0.12477103 -0.22686107 1.293875
-0.11575419 -0.22413409 1.2945
-0.10677515 -0.22150847 1.29575
0.14837758 -0.22992863 1.2920001
-0.10447863 -0.21819656 1.2934285
-0.095001742 -0.21568924 1.2942727
-0.085789286 -0.21343677 1.2961667
-0.07663627 -0.21126142 1.2970001
-0.065379605 -0.2109203 1.2970001
-0.08381635 -0.20840821 1.2920001
-0.074632764 -0.20641932 1.2927142
-0.064056642 -0.20577711 1.29325
-0.054419965 -0.20407815 1.29325
-0.045974374 -0.20339434 1.2949166
-0.037143197 -0.20201351 1.2970001
-0.043720417 -0.19730821 1.2920001
-0.034608372 -0.19641556 1.2927692
-0.02527908 -0.19615832 1.2947272
-0.015778538 -0.19426768 1.2958889
-0.0079592569 -0.19215919 1.2970001
0.014023453 -0.19215919 1.2970001
0.048892576 -0.19215919 1.2970001
-0.011107893 -0.18748727 1.293
-0.0045356229 -0.18644974 1.2934285
0.0045359358 -0.18552928 1.2937857
0.014504958 -0.18616472 1.2935789
0.024445372 -0.18556985 1.2942727
0.035771359 -0.18264033 1.2953333
0.046017382 -0.18435352 1.2960627
0.053924695 -0.18404029 1.2925882
0.061389811 -0.18145105 1.2920001
0.037377562 -0.17782657 1.2920001
0.045791555 -0.17685573 1.2919999
0.054367356 -0.17669392 1.2919999
0.062295932 -0.17782657 1.2920001
0.188263 0.16671775 1.2936667
0.19255106 0.16876535 1.2920001
0.18988512 0.17169254 1.2970001
0.19378354 0.17429148 1.2970001
0.035384018 -0.48053783 1.302
0.027499281 -0.46290454 1.307
0.031418636 -0.46271673 1.3032501
0.019478656 -0.45030069 1.307
0.025388589 -0.45464274 1.3069998
0.034587421 -0.45391697 1.3048569
0.017950919 -0.44571748 1.307
0.025398642 -0.44552651 1.307
0.035351772 -0.44469619 1.3054209
0.04223254 -0.44172955 1.302
0.028645083 -0.43655109 1.307
0.036001444 -0.43539801 1.304857
0.043659315 -0.43345422 1.302
0.028645083 -0.42050982 1.307
0.036075436 -0.42482024 1.3054209
0.044134904 -0.4265106 1.302
0.028645083 -0.4147808 1.307
0.03536785 -0.41518241 1.30575
0.043713149 -0.41399977 1.3029091
0.035519905 -0.40653101 1.307
0.04415695 -0.40539864 1.3043809
0.03781151 -0.39530215 1.307
0.044283584 -0.39516944 1.3044999
0.0513639 -0.39264846 1.302
0.03781151 -0.38842732 1.307
0.046132728 -0.38547572 1.3047777
0.052815333 -0.38284352 1.3026251
0.04812374 -0.37467772 1.307
0.053866159 -0.37414306 1.3034286
0.04796005 -0.36518386 1.307
0.055077277 -0.36460406 1.3046315
0.064467005 -0.36370903 1.3028334
0.071909457 -0.36297154 1.302
0.056144364 -0.35691777 1.307
0.065971971 -0.35597757 1.3064997
0.074724987 -0.35477668 1.303875
0.06795495 -0.34541562 1.307
0.075189412 -0.34458536 1.3039445
0.081040822 -0.3435674 1.302
0.068519041 -0.3343454 1.307
0.075810924 -0.3349233 1.3058887
0.083323658 -0.33443609 1.302
0.090172179 -0.33215323 1.302
0.076768823 -0.32629931 1.307
0.084690824 -0.32617527 1.3054998
0.09055265 -0.32454374 1.302
0.085171372 -0.31547785 1.3069998
0.093381763 -0.31452981 1.3025556
0.088226855 -0.3047837 1.307
0.09484978 -0.30471978 1.3050951
0.10249952 -0.30201972 1.302
-0.17229497 -0.29310769 1.3050001
-0.16728729 -0.29217985 1.307
-0.14093381 -0.29217985 1.307
-0.13864221 -0.29217985 1.307
0.08765395 -0.29447144 1.307
0.095007211 -0.29533345 1.3057499
0.10474723 -0.29369617 1.302
0.11573999 -0.29380149 1.302
-0.17039813 -0.28819233 1.3045001
-0.16471986 -0.28534847 1.303
-0.15452228 -0.28448051 1.3067222
-0.14093381 -0.28988823 1.307
-0.13864221 -0.28988823 1.307
0.086917363 -0.28759664 1.307
0.095120765 -0.28568161 1.3058634
0.10498991 -0.28514665 1.3025882
0.11579071 -0.28497452 1.302
-0.17309278 -0.27705845 1.3032501
-0.16512543 -0.27888694 1.302
-0.15533467 -0.27830353 1.3028334
-0.14952601 -0.27736506 1.302
0.097073928 -0.27751723 1.3027143
0.10542135 -0.27549016 1.3039445
0.11558119 -0.27528071 1.302
-0.16155827 -0.26009735 1.307
-0.15812087 -0.26009735 1.307
0.10827841 -0.26754507 1.307
0.11594311 -0.26466781 1.303
0.1225885 -0.26412457 1.302
-0.18324292 -0.25562635 1.3036667
-0.17392908 -0.25471595 1.3029091
-0.16427667 -0.25488785 1.302
-0.15538587 -0.25472561 1.3049167
-0.14551701 -0.25093094 1.307
0.11893342 -0.25845402 1.3045001
0.12445313 -0.25557002 1.3024167
0.1312633 -0.25225383 1.302
-0.17083251 -0.24921004 1.302
-0.16436449 -0.24997097 1.302
-0.15477654 -0.2481447 1.302
-0.14506933 -0.24559376 1.303
-0.13530871 -0.2441234 1.3054616
-0.12751153 -0.24340138 1.307
0.12838461 -0.2495271 1.3036667
0.13227725 -0.24742007 1.3030001
-0.14039466 -0.23855677 1.302
-0.13354613 -0.23725231 1.302
-0.12479305 -0.23601478 1.3044999
-0.11498562 -0.23464496 1.3066154
-0.10541391 -0.23259808 1.307
-0.096083798 -0.23096122 1.307
-0.087081052 -0.23030646 1.307
-0.076768823 -0.23030646 1.307
-0.11385664 -0.228284 1.302
-0.10463016 -0.22562069 1.302
-0.094396345 -0.22419569 1.3025556
-0.084706709 -0.22436538 1.30575
-0.075623021 -0.22457747 1.3069999
-0.067602396 -0.22343166 1.307
-0.082867093 -0.21709809 1.302
-0.074632473 -0.21580449 1.3024546
-0.065010861 -0.21561375 1.303875
-0.054881029 -0.21495162 1.3041875
-0.044408195 -0.2150594 1.3059473
-0.035061583 -0.21403608 1.307
-0.02692638 -0.21254651 1.307
-0.043944672 -0.20830914 1.302
-0.034595959 -0.2067689 1.3030714
-0.025157813 -0.20585394 1.3045
-0.015742468 -0.20495331 1.3060623
-0.0052706958 -0.2009739 1.307
0.0045832135 -0.20051558 1.307
0.01374964 -0.20051558 1.307
-0.021686981 -0.1997485 1.302
-0.0138601 -0.19779179 1.302
-0.0042607593 -0.19566609 1.3038182
0.0045731948 -0.19485433 1.3041428
