# .PCD v0.7 - Point Cloud Data file format
VERSION 0.7
FIELDS x y z
SIZE 4 4 4
TYPE F F F
COUNT 1 1 1
WIDTH 1426
HEIGHT 1
VIEWPOINT 0 0 0 1 0 0 0
POINTS 1426
DATA ascii
0.01256614 -0.031779166 1.6860001
0.016789919 -0.026804959 1.6800001
0.025079681 -0.026554817 1.6826667
0.035912942 -0.02607869 1.6835556
0.045731608 -0.023604542 1.6826668
0.053951818 -0.022910807 1.6860001
0.065111786 -0.0221972 1.6880001
0.072510853 -0.0221972 1.6880001
0.0559664 -0.0191464 1.6800001
0.064803198 -0.0191464 1.6800001
0.075236708 -0.01917679 1.6826668
0.084962524 -0.017502273 1.6834285
0.094964035 -0.017370272 1.686
0.10481777 -0.017719185 1.684
0.11540139 -0.015826087 1.6845715
0.12483452 -0.014464298 1.6832001
0.13513993 -0.011599051 1.6834286
0.14594124 -0.012973109 1.6853333
0.15463932 -0.012315414 1.6853333
0.16425927 -0.010358693 1.6880001
0.17017853 -0.010358693 1.6880001
0.14875279 -0.0073639997 1.6800001
0.1575896 -0.0073639997 1.6800001
0.16481474 -0.0067818933 1.6816002
0.17568047 -0.0049245288 1.684
0.18601114 -0.003447054 1.6840001
0.19588239 -0.0014728 1.6799999
0.20570107 -0.003436533 1.6800002
0.1782088 0.0014728 1.6800001
0.19588239 0.0014728 1.6799999
0.20530832 0.00265104 1.6800001
0.21178862 0.0050075199 1.6800001
0.21355599 0.0103096 1.6800001
0.11967552 0.44767043 1.6853334
0.12294795 0.4455052 1.6816002
0.11870242 0.45637336 1.682
0.12312432 0.45563698 1.6820002
0.11726994 0.46593282 1.681143
0.12371519 0.46982321 1.6800001
0.11739852 0.47502005 1.6880001
0.12485236 0.47603798 1.6811429
0.1310792 0.47865999 1.6800001
0.11838506 0.48093933 1.6880001
0.12578413 0.48093933 1.6880001
-0.12489344 -0.49213964 1.6960001
-0.093245275 -0.49426368 1.6960001
-0.087722771 -0.49511328 1.6960001
-0.13232757 -0.48619232 1.6960001
-0.12464564 -0.48396206 1.6960001
-0.11448564 -0.48381338 1.6960001
-0.10556469 -0.48321867 1.6960001
-0.095156908 -0.48470551 1.6959999
-0.084749125 -0.48457032 1.6960002
-0.077810593 -0.48371431 1.6960001
-0.15016949 -0.47132406 1.6960001
-0.13232757 -0.47429767 1.6960001
-0.12489343 -0.47429764 1.6960001
-0.11448565 -0.47429767 1.6960001
-0.10556468 -0.47429767 1.6960001
-0.095292069 -0.47456798 1.6960002
-0.084749125 -0.47429767 1.6960001
-0.075828157 -0.47429767 1.6960001
-0.15462998 -0.46612018 1.6960001
-0.14273536 -0.46240309 1.6960001
-0.13411176 -0.46418729 1.6960001
-0.12489343 -0.46537676 1.6960001
-0.11448565 -0.46537673 1.6960001
-0.10556469 -0.46537673 1.6960001
-0.095156908 -0.46537685 1.6960001
-0.084749125 -0.46537673 1.6960001
-0.075828157 -0.46537673 1.6960001
-0.065420374 -0.46388993 1.6960001
-0.055607319 -0.46359259 1.6960001
-0.046686359 -0.46359253 1.6960001
-0.16325358 -0.45288739 1.6960001
-0.15422449 -0.45456344 1.6960002
-0.14395185 -0.45456344 1.6960002
-0.13530123 -0.45496893 1.6960001
-0.12489346 -0.45496893 1.6959999
-0.11448564 -0.45496896 1.6960001
-0.10655591 -0.45397773 1.6960001
-0.095957503 -0.45416835 1.696
-0.084749125 -0.45496896 1.6960001
-0.075828157 -0.45496902 1.6960001
-0.065420374 -0.45496896 1.6959999
-0.055607319 -0.45496899 1.6960001
-0.048321865 -0.45645577 1.6960001
-0.03122336 -0.45050848 1.6960001
-0.16444305 -0.44634539 1.6960001
-0.15449482 -0.44429085 1.6960002
-0.14422219 -0.44456115 1.6960001
-0.13530122 -0.44456115 1.6960001
-0.12529893 -0.44483146 1.6960002
-0.11448565 -0.44493288 1.6960001
-0.10655591 -0.4465436 1.6960001
-0.095156901 -0.44456115 1.6960001
-0.084377408 -0.44493288 1.6960001
-0.075828165 -0.44456115 1.6960001
-0.065420367 -0.44456121 1.6960001
-0.056499414 -0.44604799 1.6960001
-0.15422449 -0.43591058 1.6960002
-0.14422219 -0.43564022 1.6960001
-0.13530123 -0.43564022 1.6960001
-0.12638026 -0.43564025 1.6960001
-0.11448565 -0.43564022 1.6960001
-0.10556469 -0.43526852 1.6960001
-0.095156901 -0.43564022 1.6960001
-0.084377408 -0.43526852 1.6960001
-0.075828165 -0.43564022 1.6960001
-0.065825872 -0.43591058 1.6960002
-0.055012587 -0.43266657 1.6960001
-0.15433261 -0.42493507 1.6959999
-0.14422219 -0.42523241 1.6960001
-0.13530123 -0.42523241 1.6960001
-0.12749539 -0.42634758 1.6960001
-0.11299883 -0.42671925 1.6960001
-0.10556469 -0.42523241 1.6960001
-0.095156901 -0.42523241 1.6959999
-0.084749125 -0.42523244 1.6960001
-0.075828157 -0.42523241 1.6960001
-0.066609837 -0.42612451 1.6960001
-0.055012587 -0.42820609 1.6960001
-0.18585333 -0.41482463 1.6960001
-0.16206411 -0.41185099 1.6960001
-0.15462998 -0.41482463 1.6960001
-0.14459389 -0.41482463 1.6960001
-0.13567294 -0.41445294 1.6960001
-0.12756974 -0.41363516 1.6960001
-0.11448565 -0.41482463 1.6960001
-0.10556469 -0.4148246 1.6960001
-0.095156908 -0.41482458 1.6960001
-0.084749125 -0.41482463 1.6960001
-0.078058399 -0.41408122 1.6960001
-0.16325358 -0.40649843 1.6960001
-0.15462999 -0.40590367 1.6960001
-0.1442222 -0.40590367 1.6960001
-0.13530123 -0.40590367 1.6960001
-0.12529893 -0.40563336 1.6960002
-0.11448565 -0.4059037 1.6960001
-0.10556469 -0.40590367 1.6960001
-0.095156908 -0.40590367 1.6960001
-0.084749117 -0.40590367 1.6960001
-0.075828157 -0.4059037 1.6960001
-0.066482387 -0.40547889 1.6960001
-0.057986241 -0.40293002 1.6960001
-0.16305532 -0.3945047 1.6960001
-0.15462999 -0.39549595 1.6959999
-0.14422219 -0.39549589 1.6960001
-0.13530123 -0.39549589 1.6960001
-0.12489343 -0.39549592 1.6959999
-0.11448564 -0.39549589 1.6960001
-0.10556469 -0.39549589 1.6960001
-0.095156908 -0.39549589 1.6959999
-0.085019454 -0.39590138 1.6960002
-0.075233422 -0.39876691 1.6960001
-0.065420374 -0.39995638 1.6960001
-0.057986241 -0.39846957 1.6960001
-0.16325358 -0.38568282 1.6960001
-0.15462998 -0.38508812 1.6960001
-0.1442222 -0.38508809 1.6960001
-0.13530123 -0.38508809 1.6960001
-0.12489343 -0.38508812 1.6960001
-0.11448565 -0.38508809 1.6960001
-0.10556469 -0.38508809 1.6960001
-0.095156908 -0.38508809 1.6960001
-0.086979359 -0.38583151 1.6960001
-0.16355093 -0.37468031 1.6960001
-0.15487778 -0.37542376 1.6960001
-0.14422219 -0.37468037 1.6960001
-0.13530123 -0.37468037 1.6960001
-0.12489344 -0.37468034 1.6959999
-0.11448564 -0.37468037 1.6960001
-0.10589509 -0.37550628 1.6960001
-0.097139336 -0.37666273 1.6960001
-0.17395873 -0.36248836 1.6960001
-0.16540946 -0.36464426 1.6960001
-0.15373787 -0.36486727 1.6960001
-0.1442222 -0.36427253 1.6960001
-0.13530123 -0.36427248 1.6960001
-0.12578553 -0.36456987 1.6960001
-0.1174593 -0.36724618 1.6960001
-0.17353392 -0.35620117 1.6960001
-0.16503775 -0.35535157 1.6960001
-0.15909046 -0.35535157 1.6960001
-0.14124854 -0.35832521 1.6960001
-0.13530122 -0.35832521 1.6960001
-0.1278671 -0.35832521 1.6960001
-0.17098507 -0.3464306 1.6960001
-0.1670202 -0.3474218 1.6960001
-0.15909046 -0.34494379 1.6960001
-0.22153717 -0.12043296 1.6960001
-0.21707669 -0.12043296 1.6960001
-0.2017128 -0.12241539 1.6960001
-0.19626111 -0.12340661 1.6960001
-0.19328746 -0.11448565 1.6960001
-0.19180064 -0.10853834 1.6960001
-0.1852586 -0.10734888 1.6960001
-0.17544556 -0.10407786 1.6960001
-0.16652459 -0.10259104 1.6960001
-0.16503777 -0.099617384 1.6960001
-0.15562119 -0.097634949 1.6960001
-0.1449656 -0.095156908 1.6960001
-0.13678806 -0.090696424 1.6960001
-0.13232757 -0.087722771 1.6960001
-0.12638028 -0.085740328 1.6960001
-0.11448565 -0.081775464 1.6960001
-0.111512 -0.078801811 1.6960001
-0.10482128 -0.075828165 1.6960001
-0.098130554 -0.072854504 1.6960001
-0.094859533 -0.068691388 1.6960001
-0.084154382 -0.065717742 1.6960001
-0.076422885 -0.065123007 1.6960001
-0.066057585 -0.062234316 1.6960001
-0.057986241 -0.060959894 1.6960001
-0.060959894 -0.057986241 1.6960001
-0.056499414 -0.057986241 1.6960001
-0.044604801 -0.054269176 1.6960001
-0.037170667 -0.052038934 1.6960001
-0.034197014 -0.049065281 1.6960001
-0.025276056 -0.048074063 1.6960001
-0.014868267 -0.046091627 1.6960001
-0.0052038934 -0.040887736 1.6960001
0.0029736534 -0.040144321 1.6960001
0.0074341334 -0.037170667 1.6960001
0.01550548 -0.03504663 1.6960001
0.025276056 -0.031223362 1.6960001
0.034197014 -0.031223362 1.6960001
0.040144321 -0.03122336 1.6960001
0.046091627 -0.028249705 1.6960001
0.055607319 -0.027060244 1.6960001
0.064528279 -0.025870781 1.6960001
0.075828157 -0.023789227 1.6960001
0.08474911 -0.022302398 1.6960001
0.096048996 -0.02289713 1.6960001
0.10482127 -0.023045816 1.6960001
0.11448565 -0.022302398 1.6960001
0.11597247 -0.019328747 1.6960001
0.12489344 -0.018585334 1.6960001
0.13604465 -0.017098507 1.6960001
0.1442222 -0.017346311 1.6960001
0.15537339 -0.016355094 1.6960001
0.16355094 -0.01338144 1.6960001
0.17470214 -0.011894614 1.6960001
0.17990603 -0.0074341334 1.6960001
0.18585332 -0.0074341334 1.6960001
0.19477428 -0.0044604801 1.6960001
0.11448565 0.47727135 1.6960001
0.11567511 0.48500285 1.6960001
0.12281188 0.48738179 1.6960001
0.11533527 0.49553809 1.6960001
0.12117638 0.49436986 1.6960001
-0.13004035 -0.49176177 1.705
-0.12181941 -0.49400386 1.705
-0.11509319 -0.49512488 1.705
-0.10522805 -0.49475121 1.7050002
-0.084600963 -0.49594697 1.7050002
-0.076977909 -0.49400386 1.705
-0.1320333 -0.48478642 1.705
-0.085198849 -0.48877233 1.705
-0.072742872 -0.48578289 1.705
-0.065468587 -0.48518506 1.7050002
-0.043346781 -0.48279348 1.705
-0.14461383 -0.47382516 1.705
-0.13751394 -0.47531992 1.705
-0.070251681 -0.47531992 1.705
-0.064272821 -0.47531989 1.705
-0.056300994 -0.47282872 1.705
-0.045268562 -0.47510633 1.705
-0.035374958 -0.47432339 1.705
-0.028399616 -0.47083575 1.705
-0.16292411 -0.46336216 1.705
-0.15545052 -0.46485689 1.705
-0.14618328 -0.46605262 1.7050002
-0.13751394 -0.4678463 1.705
-0.052315082 -0.4678463 1.705
-0.041553121 -0.46485686 1.7050002
-0.034378484 -0.46485683 1.705
-0.025783861 -0.46485686 1.705
-0.019431317 -0.46186745 1.705
-0.15694524 -0.4558886 1.705
-0.052315082 -0.45738328 1.705
-0.043944672 -0.45588857 1.7050002
-0.03475216 -0.45626226 1.705
-0.025410181 -0.4558886 1.705
-0.019431317 -0.4558886 1.705
-0.17189242 -0.44393083 1.705
-0.16591354 -0.4434326 1.705
-0.15694524 -0.44990972 1.705
-0.05455716 -0.44393083 1.705
-0.045646343 -0.44600052 1.705
-0.034378484 -0.44542554 1.705
-0.025681948 -0.44583321 1.705
-0.019431317 -0.44692028 1.705
-0.16411988 -0.43556041 1.7050002
-0.15993468 -0.43346781 1.705
-0.061283384 -0.43346781 1.705
-0.055304516 -0.43538961 1.705
-0.045738328 -0.43466359 1.7050002
-0.034378484 -0.43496254 1.705
-0.027403139 -0.43695548 1.705
-0.17488185 -0.42449954 1.705
-0.16591357 -0.42449954 1.705
-0.072493754 -0.42076278 1.705
-0.063418694 -0.42300481 1.705
-0.055304516 -0.42409185 1.705
-0.044841502 -0.42449954 1.705
-0.034976367 -0.42509741 1.7050002
-0.18434839 -0.41353825 1.705
-0.17525552 -0.41366279 1.705
-0.16691004 -0.41503298 1.705
-0.072643228 -0.41583019 1.7050002
-0.064272813 -0.4144102 1.705
-0.055304516 -0.41403645 1.705
-0.046336215 -0.41446355 1.705
-0.037367918 -0.41702595 1.705
-0.1862417 -0.40447035 1.7050002
-0.17428395 -0.40566611 1.7050002
-0.1677072 -0.40447035 1.7050002
-0.0648707 -0.40506822 1.7050002
-0.054450393 -0.40549526 1.705
-0.17338713 -0.39460519 1.705
-0.16830508 -0.39550203 1.7050002
-0.082209416 -0.39161575 1.705
-0.075080767 -0.39426026 1.705
-0.064272813 -0.39647359 1.705
-0.055802759 -0.39609993 1.705
-0.17450817 -0.3837685 1.705
-0.16815563 -0.38414219 1.705
-0.091177717 -0.38115275 1.705
-0.084700607 -0.38414216 1.705
-0.077227026 -0.38613513 1.705
-0.18086071 -0.37367916 1.705
-0.17488183 -0.3751739 1.705
-0.16890298 -0.3751739 1.705
-0.15470317 -0.37442654 1.705
-0.10313544 -0.37397814 1.7050002
-0.093313023 -0.37517387 1.705
-0.08699251 -0.3751739 1.7050002
-0.18185718 -0.36371437 1.705
-0.17488185 -0.36844763 1.705
-0.16292411 -0.36321616 1.705
-0.15545054 -0.36411297 1.7050002
-0.14648223 -0.36022672 1.705
-0.12181941 -0.36246881 1.705
-0.11509317 -0.36471087 1.7050002
-0.10612488 -0.36620557 1.7050002
-0.094914503 -0.36844763 1.705
-0.18086071 -0.35424784 1.705
-0.17547973 -0.35245419 1.7050002
-0.16441883 -0.35125843 1.705
-0.1539558 -0.35424787 1.705
-0.14498751 -0.35424787 1.705
-0.13502274 -0.35524434 1.705
-0.12465937 -0.35604152 1.7050002
-0.18086071 -0.34677428 1.705
-0.17547973 -0.34647533 1.7050002
-0.16471776 -0.34527954 1.7050002
-0.15545052 -0.34587744 1.7050002
-0.1455854 -0.34587747 1.7050002
-0.22271279 -0.12406148 1.705
-0.21673392 -0.12406149 1.705
-0.19281845 -0.11658789 1.705
-0.1862417 -0.11270164 1.7050002
-0.18086071 -0.10911432 1.705
-0.17488185 -0.10761961 1.705
-0.16516618 -0.10537753 1.705
-0.15545052 -0.10164073 1.705
-0.14199808 -0.097156584 1.705
-0.13601921 -0.093170673 1.705
-0.12406149 -0.087191813 1.705
-0.11509318 -0.084202372 1.705
-0.10911432 -0.082209416 1.705
-0.10313544 -0.078223504 1.705
-0.094167151 -0.073241115 1.705
-0.085198849 -0.070251681 1.705
-0.077725261 -0.070251681 1.705
-0.071746394 -0.067262247 1.705
-0.064272813 -0.066265769 1.705
-0.056799233 -0.0627781 1.705
-0.052315082 -0.05829395 1.705
-0.045339737 -0.057297472 1.705
-0.034378484 -0.05331156 1.705
-0.0269049 -0.052315082 1.705
-0.022420749 -0.049325649 1.705
-0.016441884 -0.049325649 1.705
-0.0044841501 -0.044343259 1.705
0.0044841501 -0.042350303 1.705
0.013452451 -0.040357351 1.705
0.019431317 -0.037367918 1.705
0.025410183 -0.035873201 1.705
0.033780597 -0.035574257 1.7050002
0.045482092 -0.033097301 1.705
0.055304516 -0.03138905 1.705
0.064272813 -0.03138905 1.705
0.073241115 -0.03138905 1.705
0.065767527 -0.028399616 1.705
0.075632669 -0.027801728 1.7050002
0.085198849 -0.026904901 1.705
0.094167151 -0.026904901 1.705
0.10463016 -0.0269049 1.705
0.11509318 -0.025410183 1.705
0.12406149 -0.023616523 1.7050002
0.13452451 -0.023915466 1.705
0.14498751 -0.022420749 1.705
0.15096638 -0.022420749 1.705
0.13302977 -0.019431317 1.705
0.14349279 -0.019431317 1.705
0.15694524 -0.019431317 1.705
0.16591355 -0.016441884 1.7050002
0.17488185 -0.015694525 1.705
0.18534487 -0.010463017 1.705
0.19580789 -0.0064771059 1.705
0.20328146 -0.0044841501 1.705
0.11210375 0.47980404 1.705
0.11210375 0.48578295 1.705
0.10911432 0.49624592 1.705
0.11285111 0.49400386 1.705
0.12605445 0.49475121 1.705
-0.13765858 -0.49206686 1.7129999
-0.072383389 -0.49527055 1.7130001
-0.064574391 -0.49444458 1.7130002
-0.055564009 -0.49369377 1.7130002
-0.04655363 -0.49278197 1.7130002
-0.036041521 -0.49106571 1.7130001
-0.13815916 -0.48656052 1.7130001
-0.061570931 -0.48656052 1.7130001
-0.055564005 -0.48505878 1.7130002
-0.045266431 -0.48677501 1.7130002
-0.034539789 -0.48555937 1.7130002
-0.02703114 -0.48205534 1.7130001
-0.14266434 -0.47905186 1.7130001
-0.053561702 -0.47805071 1.7129999
-0.042048439 -0.47905186 1.7130001
-0.033939097 -0.4778505 1.7130001
-0.025529413 -0.47554782 1.7130002
-0.014850441 -0.47204378 1.7130002
-0.022525949 -0.46703804 1.7130001
-0.014116262 -0.46433491 1.7130001
-0.01351557 -0.45502412 1.7130002
-0.17510171 -0.44120827 1.7130001
-0.16969548 -0.44150862 1.7130001
-0.041297577 -0.4437612 1.7130001
-0.022525949 -0.44150862 1.7130001
-0.014373702 -0.44408298 1.7129999
-0.18170933 -0.43099651 1.7130001
-0.17570242 -0.43437538 1.7130002
-0.16869433 -0.43500113 1.7129999
-0.040546712 -0.43700343 1.7130001
-0.025153978 -0.43362454 1.7130002
-0.016948095 -0.43485811 1.7130002
-0.1824602 -0.42423874 1.7130001
-0.17570241 -0.42536503 1.7130002
-0.03153633 -0.42348784 1.7130001
-0.026387542 -0.42541865 1.7130002
-0.18170933 -0.41597921 1.7130001
-0.17269894 -0.41898265 1.7130001
-0.042949479 -0.41537851 1.7130001
-0.034164358 -0.41560379 1.7130002
-0.027031144 -0.41597924 1.7130002
-0.19071971 -0.40396535 1.7130001
-0.18396193 -0.40471622 1.7130002
-0.1769038 -0.40516672 1.7130001
-0.045051903 -0.40546712 1.7129998
-0.034539789 -0.40546706 1.7129999
-0.026530564 -0.40596765 1.7130002
-0.18471278 -0.39795846 1.7130001
-0.17870587 -0.39495501 1.7129999
-0.070581309 -0.39195153 1.7130001
-0.064574391 -0.3927024 1.7130001
-0.054362625 -0.39375362 1.7130001
-0.044551324 -0.39595613 1.7130002
-0.034039211 -0.39595616 1.7130002
-0.026387542 -0.39538407 1.7130002
-0.18291071 -0.38534391 1.7130001
-0.17870587 -0.38894805 1.7130001
-0.082595147 -0.38294116 1.7130001
-0.074252211 -0.38527718 1.7130002
-0.064145319 -0.3868027 1.7130002
-0.05593944 -0.38632002 1.7130002
-0.044751551 -0.38534391 1.7130001
-0.03153633 -0.38894805 1.7130001
-0.02853287 -0.38894805 1.7130001
-0.19672664 -0.37393078 1.7129999
-0.18546364 -0.37543249 1.7130002
-0.084311411 -0.37435985 1.7130002
-0.075837366 -0.37468162 1.7129999
-0.065775767 -0.37272936 1.7130001
-0.19672664 -0.36642212 1.7130001
-0.18696538 -0.36567125 1.7130001
-0.11262975 -0.36191693 1.7130001
-0.10261822 -0.36391923 1.7130002
-0.094233558 -0.36454493 1.7130002
-0.08559861 -0.36492035 1.7130002
-0.075587071 -0.36492035 1.7130002
-0.065775767 -0.36612177 1.7130001
-0.20874047 -0.35290655 1.7130001
-0.19672664 -0.35591 1.7130001
-0.18546364 -0.35666087 1.7130001
-0.13365395 -0.35290655 1.7129999
-0.12389272 -0.35365742 1.7130001
-0.11600864 -0.35628542 1.7130002
-0.10628911 -0.35657743 1.7130002
-0.094608985 -0.35633904 1.7130002
-0.08559861 -0.35590997 1.7130002
-0.0770173 -0.35591 1.7130002
-0.20874047 -0.34689963 1.7130001
-0.19672664 -0.34389615 1.7130001
-0.18591416 -0.34750032 1.7130001
-0.17570241 -0.34314531 1.7130001
-0.16619144 -0.34189388 1.7130002
-0.15392733 -0.34164357 1.7130001
-0.14523874 -0.34389615 1.7130002
-0.13665743 -0.34635356 1.7130001
-0.12464359 -0.34990308 1.7130001
-0.11863667 -0.34840137 1.7130001
-0.10361937 -0.3408927 1.7130001
-0.087600917 -0.34790078 1.7129999
-0.07808996 -0.34990308 1.7130001
-0.20273355 -0.33488578 1.7130001
-0.19822836 -0.33488581 1.7130002
-0.16168626 -0.33688807 1.7129999
-0.1546782 -0.33488578 1.7130002
-0.14566781 -0.33488581 1.7130002
-0.13865973 -0.33688807 1.7129999
-0.10361937 -0.33788925 1.7130001
-0.21174394 -0.3258754 1.7130001
-0.20348442 -0.3258754 1.7130001
-0.19822836 -0.3258754 1.7130002
-0.1546782 -0.32887888 1.7130001
-0.14491695 -0.32812801 1.7130001
-0.12164013 -0.32287195 1.7130001
-0.11413148 -0.32437366 1.7130001
-0.10962629 -0.32437366 1.7130001
-0.21174394 -0.31536332 1.7130001
-0.20333424 -0.31626433 1.7130001
-0.19822836 -0.31536329 1.7130002
-0.11463206 -0.31636444 1.7130002
-0.10962629 -0.31986848 1.7130001
-0.21324566 -0.30785465 1.7130001
-0.20273355 -0.30785465 1.7130001
-0.19772778 -0.3068535 1.7129999
-0.21324566 -0.12614532 1.7130001
-0.20874047 -0.12464359 1.7130001
-0.19372317 -0.12314186 1.7130001
-0.19071971 -0.11863667 1.7130001
-0.18471278 -0.11713494 1.7130002
-0.17720413 -0.11262975 1.7130001
-0.17269894 -0.10962629 1.7130001
-0.16519029 -0.10887542 1.7130001
-0.15467818 -0.10462052 1.7129999
-0.14566781 -0.10061591 1.7129999
-0.13515571 -0.095359854 1.7130001
-0.12764704 -0.091605529 1.7130001
-0.12164013 -0.088602066 1.7130001
-0.11563321 -0.087600917 1.7129999
-0.10512111 -0.083346017 1.7130001
-0.10061591 -0.079591691 1.7130001
-0.09385813 -0.076588228 1.7130001
-0.08559861 -0.073584773 1.7129999
-0.075086504 -0.072083041 1.7130001
-0.066076115 -0.070581309 1.7130001
-0.061570931 -0.067577846 1.7130001
-0.055564005 -0.064574391 1.7129999
-0.048055358 -0.061570931 1.7130001
-0.042048439 -0.058567468 1.7130001
-0.034539789 -0.056565166 1.7129999
-0.025529409 -0.054562856 1.7129999
-0.01802076 -0.052560549 1.7130001
-0.01051211 -0.04955709 1.7130001
0.00750865 -0.043550171 1.7130001
0.0150173 -0.042048439 1.7130001
0.025529409 -0.040546712 1.7129999
0.033038057 -0.040546712 1.7130001
0.037543248 -0.037543248 1.7130001
0.043550167 -0.037543248 1.7129999
0.055564012 -0.034539789 1.7129999
0.064574391 -0.034539789 1.7129999
0.07598754 -0.033939097 1.7130001
0.08559861 -0.033038057 1.7130002
0.093858123 -0.032287192 1.7130001
0.10061591 -0.03153633 1.7130001
0.12464359 -0.03153633 1.7130001
0.13515569 -0.03153633 1.7130001
0.10812455 -0.02853287 1.7130001
0.11563321 -0.02853287 1.7129999
0.12464359 -0.027531719 1.7129999
0.13515569 -0.02853287 1.7130001
0.14491694 -0.026280276 1.7130001
0.16819376 -0.01952249 1.7130001
0.17570241 -0.01952249 1.7129999
0.18471278 -0.0150173 1.7130002
0.19563445 -0.013788612 1.7130001
0.20530795 -0.01265744 1.7130002
0.21174394 -0.01051211 1.7130001
0.19973008 -0.00750865 1.7130001
0.20573701 -0.00750865 1.7129999
0.10962629 0.48656052 1.7130001
0.10962629 0.49256742 1.7130001
-0.055855941 -0.49968421 1.7220001
-0.043175127 -0.49847651 1.7220001
-0.034289934 -0.49623367 1.7220001
-0.026094859 -0.49278307 1.7220001
-0.016605821 -0.49213612 1.7220001
-0.024657125 -0.48509121 1.7220001
-0.0150962 -0.48458812 1.7220001
-0.015599407 -0.47854957 1.7220001
0.098125301 -0.4755303 1.7220001
0.10114454 -0.4755303 1.7220001
0.0050320667 -0.46244693 1.7220001
0.012378884 -0.46224564 1.7220001
-0.00301924 -0.45741487 1.7220001
0.0053915004 -0.45482698 1.7220001
0.013586579 -0.45439562 1.7220001
0.0049062651 -0.44496047 1.7220001
0.013209175 -0.44571531 1.7220001
-0.18266402 -0.43628019 1.7220001
-0.013586579 -0.43292543 1.7220001
0.0045288601 -0.43552536 1.7220001
0.01358658 -0.43628019 1.7220001
-0.022644302 -0.42420325 1.7220001
-0.0150962 -0.42420325 1.7220001
0.00603848 -0.42118397 1.7220001
0.01056734 -0.42118397 1.7220001
-0.0226443 -0.41665512 1.7220001
-0.0150962 -0.41514543 1.7220001
0.0045288601 -0.41816473 1.7220001
0.01056734 -0.41816473 1.7220001
-0.19172174 -0.4000493 1.7220001
-0.18568325 -0.4000493 1.7220001
-0.022644302 -0.40608779 1.7220001
-0.015096201 -0.40457818 1.7220001
0.0045288601 -0.40910703 1.7220001
0.01056734 -0.40910703 1.7220001
0.16379377 -0.40457818 1.7220001
-0.19247654 -0.39325598 1.7220001
-0.18606067 -0.39438823 1.7220001
-0.045935579 -0.39228553 1.7220001
-0.035928953 -0.39340696 1.7220001
-0.023399111 -0.39325601 1.7220001
-0.0150962 -0.39401081 1.7220001
0.1585101 -0.39401081 1.7220001
0.16368593 -0.39444211 1.7220001
-0.19323136 -0.38495311 1.7220001
-0.18870251 -0.38495311 1.7220001
-0.072461754 -0.38193387 1.7220001
-0.065517507 -0.38314158 1.7220001
-0.05510113 -0.3826887 1.7220001
-0.045504261 -0.3832278 1.7220001
-0.034721255 -0.38495314 1.7220001
-0.02566354 -0.38495311 1.7220001
-0.0150962 -0.38495311 1.7220001
-0.20077945 -0.37287614 1.7220001
-0.19323134 -0.37589538 1.7220001
-0.073971376 -0.37740499 1.7220001
-0.063404039 -0.37740499 1.7220001
-0.055855945 -0.37589538 1.7220001
-0.045288604 -0.37589541 1.7220001
-0.034721259 -0.37589538 1.7220001
-0.02566354 -0.37589538 1.7220001
-0.0150962 -0.37589541 1.7220001
-0.20207341 -0.36468101 1.7220001
-0.19413713 -0.36472416 1.7220001
-0.073367529 -0.36442226 1.7220001
-0.064051017 -0.36338708 1.7220001
-0.055855934 -0.36532804 1.7220001
-0.0452886 -0.36532801 1.7220001
-0.034721259 -0.36532798 1.7220001
-0.02566354 -0.36721504 1.7220001
-0.014592993 -0.36658606 1.7220001
-0.20379868 -0.35476071 1.7220001
-0.19436356 -0.35438329 1.7220001
-0.18870249 -0.35627031 1.7220001
-0.12529846 -0.35174146 1.7220001
-0.1132215 -0.35249627 1.7220001
-0.10315737 -0.35375428 1.7220001
-0.095106065 -0.353553 1.7220001
-0.084538721 -0.35174146 1.7220001
-0.072763681 -0.35415685 1.7220001
-0.06491366 -0.35476071 1.7220001
-0.055855945 -0.35476071 1.7220001
-0.044684753 -0.35536459 1.7220001
-0.035098661 -0.35513812 1.7220001
-0.2048966 -0.34570301 1.7220001
-0.19387834 -0.34570298 1.7220001
-0.18568325 -0.34389144 1.7220001
-0.17662555 -0.34268373 1.7220001
-0.13254464 -0.34509915 1.7220001
-0.12529846 -0.34570298 1.7220001
-0.11431941 -0.3454285 1.7220001
-0.10416378 -0.34608039 1.7220001
-0.095106058 -0.34570301 1.7220001
-0.083934873 -0.34509915 1.7220001
-0.073971368 -0.34570298 1.7220001
-0.065291062 -0.34608039 1.7220001
-0.055855941 -0.34872222 1.7220001
-0.036734086 -0.3467094 1.7220001
-0.21285641 -0.33362603 1.7220001
-0.20782436 -0.33530337 1.7220001
-0.19323137 -0.33513564 1.7220001
-0.18568325 -0.33513561 1.7220001
-0.17511593 -0.33513558 1.7220001
-0.16521952 -0.33396149 1.7220001
-0.15549086 -0.33060679 1.7220001
-0.14039466 -0.33211643 1.7220001
-0.13408171 -0.33472389 1.7220001
-0.12529846 -0.33513561 1.7220001
-0.11473113 -0.33513564 1.7220001
-0.10416377 -0.33472389 1.7220001
-0.095106058 -0.33513561 1.7220001
-0.084754385 -0.33535126 1.7220001
-0.073971383 -0.33966449 1.7220001
-0.066423282 -0.33966449 1.7220001
-0.21285641 -0.3245683 1.7220001
-0.20908237 -0.3245683 1.7220001
-0.19323134 -0.3245683 1.7220001
-0.18568325 -0.3245683 1.7220001
-0.17511593 -0.32456827 1.7220001
-0.16454856 -0.3245683 1.7220001
-0.15549086 -0.32456833 1.7220001
-0.14506076 -0.32429382 1.7220001
-0.13435619 -0.32456833 1.7220001
-0.12567586 -0.32456833 1.7220001
-0.11925998 -0.3245683 1.7220001
-0.10416379 -0.3245683 1.7220001
-0.095483467 -0.32494569 1.7220001
-0.086048342 -0.32637984 1.7220001
-0.20832755 -0.31551057 1.7220001
-0.19323139 -0.31551057 1.7220001
-0.18568325 -0.3155106 1.7220001
-0.17511593 -0.3155106 1.7220001
-0.16454858 -0.31551057 1.7220001
-0.15549086 -0.31551057 1.7220001
-0.14492351 -0.3155106 1.7220001
-0.13435619 -0.3155106 1.7220001
-0.12529846 -0.31551057 1.7220001
-0.11435371 -0.31513318 1.7220001
-0.10416379 -0.31551057 1.7220001
-0.09737049 -0.3162654 1.7220001
-0.21501301 -0.30300233 1.7220001
-0.20573963 -0.30429626 1.7220001
-0.19413714 -0.30433938 1.7220001
-0.18568325 -0.30494323 1.7220001
-0.17511591 -0.30494323 1.7220001
-0.16454858 -0.30494323 1.7220001
-0.15582633 -0.30611739 1.7220001
-0.14517511 -0.30620125 1.7220001
-0.13405426 -0.30584899 1.7220001
-0.12486714 -0.30559021 1.7220001
-0.11483176 -0.30524513 1.7220001
-0.10416379 -0.30494323 1.7220001
-0.098125301 -0.30494323 1.7220001
-0.21386282 -0.29638872 1.7220001
-0.20530832 -0.29437593 1.7220001
-0.19474098 -0.29475331 1.7220001
-0.18568325 -0.2943759 1.7220001
-0.17511593 -0.29437587 1.7220001
-0.16454858 -0.29437587 1.7220001
-0.15669855 -0.29316819 1.7220001
-0.14600182 -0.29308194 1.7220001
-0.13314848 -0.2943759 1.7220001
-0.1132215 -0.29739514 1.7220001
-0.10416379 -0.29739514 1.7220001
-0.20293605 -0.28574952 1.7220001
-0.19776022 -0.28531817 1.7220001
-0.18367045 -0.28733099 1.7220001
-0.17360631 -0.28833741 1.7220001
-0.16454856 -0.2868278 1.7220001
-0.15549086 -0.28833741 1.7220001
-0.14492351 -0.28833741 1.7220001
-0.13133694 -0.28531817 1.7220001
-0.20466134 -0.27431953 1.7220001
-0.19776022 -0.27475083 1.7220001
-0.15247162 -0.2777701 1.7220001
-0.13133694 -0.27927971 1.7220001
-0.21285641 -0.26569313 1.7220001
-0.20514059 -0.26485443 1.7220001
-0.19776022 -0.26418349 1.7220001
-0.19474097 -0.13133694 1.7220001
-0.2188949 -0.1283177 1.7220001
-0.20530832 -0.1283177 1.7220001
-0.19353329 -0.12650615 1.7220001
-0.18611456 -0.12486714 1.7220001
-0.17602168 -0.11563689 1.7220001
-0.16454858 -0.11221508 1.7220001
-0.15700048 -0.11020226 1.7220001
-0.15398124 -0.10718302 1.7220001
-0.14513919 -0.1045951 1.7220001
-0.13737541 -0.10114454 1.7220001
-0.13234335 -0.097118884 1.7220001
-0.12469461 -0.093898371 1.7220001
-0.11775036 -0.092086822 1.7220001
-0.1132215 -0.089067578 1.7220001
-0.10476764 -0.087256029 1.7220001
-0.095106065 -0.083029099 1.7220001
-0.084538713 -0.076990619 1.7220001
-0.073971376 -0.074977793 1.7220001
-0.06491366 -0.072461754 1.7220001
-0.054346323 -0.066423282 1.7220001
-0.044986673 -0.063705966 1.7220001
-0.034721259 -0.061894421 1.7220001
-0.033211641 -0.058875181 1.7220001
-0.024908729 -0.05812037 1.7220001
-0.015096201 -0.054346323 1.7220001
-0.0045288601 -0.047804635 1.7220001
0.0045288601 -0.046798218 1.7220001
0.015743179 -0.045504261 1.7220001
0.02566354 -0.045288596 1.7220001
0.034721255 -0.044282183 1.7220001
0.040759739 -0.040759739 1.7220001
0.049817462 -0.037740499 1.7220001
0.055855941 -0.037740499 1.7220001
0.06491366 -0.037740499 1.7220001
0.073971383 -0.037740499 1.7220001
0.09661568 -0.034721259 1.7220001
0.10416378 -0.033211637 1.7220001
0.1156369 -0.032305866 1.7220001
0.12529846 -0.033966452 1.7220001
0.13435619 -0.034721259 1.7220001
0.14190428 -0.033211641 1.7220001
0.12529846 -0.02868278 1.7220001
0.14643314 -0.02868278 1.7220001
0.15549086 -0.02415392 1.7220001
0.16515243 -0.023851996 1.7220001
0.17421015 -0.023248147 1.7220001
0.18417364 -0.01962506 1.7220001
0.19474097 -0.01962506 1.7220001
0.20077945 -0.01962506 1.7220001
0.13133694 0.496665 1.7220001
-0.024280161 -0.49926078 1.7310001
-0.014416344 -0.49698454 1.7310001
-0.0045665563 -0.49471495 1.7363335
0.0045727906 -0.49521834 1.7381114
0.014829453 -0.49519292 1.7390002
0.026358442 -0.49331403 1.7350001
0.034646086 -0.49451911 1.7370001
0.04319483 -0.4944537 1.7390002
0.053358316 -0.49242103 1.7390001
0.064029977 -0.49242103 1.7390001
-0.0045525301 -0.48408568 1.7310001
0.0045525301 -0.48408568 1.7310001
0.015198478 -0.48483607 1.7336668
0.025865465 -0.48533329 1.7354445
0.035064038 -0.486323 1.7390002
0.044516083 -0.48571315 1.7390001
0.054882847 -0.48479837 1.7390002
0.064029977 -0.48327389 1.7390002
0.07775069 -0.48174936 1.7390001
0.086026669 -0.48196718 1.7390002
0.092995919 -0.48327389 1.7390001
-0.0045525301 -0.47498062 1.7310001
0.0045525301 -0.47498062 1.7310001
0.0151751 -0.47498068 1.7310003
0.025797671 -0.47498062 1.7310001
0.034922212 -0.47522455 1.731889
0.043881074 -0.47463557 1.7368183
0.054882843 -0.47412679 1.7390002
0.0655545 -0.47412676 1.7390002
0.074701644 -0.47412676 1.7390002
0.084611043 -0.47298336 1.7390002
0.095688723 -0.47483388 1.7375455
0.1051921 -0.47412676 1.7390002
0.1131895 -0.47248739 1.733
0.12653543 -0.47107771 1.7390001
-0.0045525301 -0.46587557 1.7310001
0.0035408568 -0.46789894 1.7310001
0.017126186 -0.46674272 1.7310001
0.025797671 -0.46587563 1.7310001
0.034902733 -0.46587557 1.7310001
0.044179618 -0.46614766 1.7376667
0.055492651 -0.46558937 1.7390001
0.065935627 -0.4653607 1.7390002
0.074701644 -0.46497959 1.7390002
0.085373305 -0.46497962 1.7390002
0.096044973 -0.46497959 1.7390002
0.1051921 -0.46497959 1.7390002
0.1139677 -0.46569434 1.7375457
0.12459514 -0.46470243 1.7390002
0.13568257 -0.46345508 1.7390002
0.14264594 -0.46284056 1.7310001
-0.0048560319 -0.45434251 1.7310002
0.00151751 -0.4537355 1.7310001
0.019727631 -0.45525301 1.7310001
0.025797671 -0.45525298 1.7310003
0.034902733 -0.45525298 1.7310003
0.044007789 -0.45525298 1.7310003
0.054311004 -0.45550135 1.7344288
0.065009736 -0.45476189 1.7326
0.074513838 -0.45466593 1.7345557
0.085311353 -0.45548412 1.7376667
0.096044973 -0.45583248 1.7390002
0.1051921 -0.45583248 1.7390002
0.11433925 -0.45583248 1.7390002
0.12501091 -0.45583239 1.7390002
0.13526489 -0.45443761 1.7336667
0.14416344 -0.45525298 1.7310003
0.15303585 -0.45455074 1.7318001
0.16399515 -0.45409018 1.7390002
0.17227113 -0.45278344 1.7390001
-0.0045525301 -0.44463041 1.7310001
0.0030350201 -0.44159541 1.7310001
0.01669261 -0.44332972 1.7310001
0.025797673 -0.44463041 1.7310001
0.034902733 -0.44463041 1.7310001
0.044007793 -0.44463041 1.7310001
0.054674778 -0.44497526 1.7323335
0.065286428 -0.44486031 1.7318889
0.074472539 -0.44532007 1.7336668
0.085176937 -0.44566259 1.7350003
0.095948339 -0.44623178 1.7372223
0.1051921 -0.44668537 1.7390002
0.11489365 -0.44617635 1.7382002
0.12510663 -0.44584426 1.7346367
0.13505837 -0.44463041 1.7310001
0.14416344 -0.44463041 1.7310001
0.15472378 -0.44431937 1.7316157
0.16534068 -0.44482937 1.7360911
0.17523213 -0.44645855 1.7381113
0.18324769 -0.44424611 1.7390001
-0.0045525301 -0.43552536 1.7310001
0.0050583668 -0.43501952 1.7310001
0.015313056 -0.43524945 1.7310002
0.025797673 -0.43552539 1.7310001
0.03497228 -0.43483838 1.7343335
0.044109482 -0.43500379 1.7350001
0.054630369 -0.43552542 1.7310003
0.06525293 -0.43552542 1.7310001
0.074357986 -0.43552539 1.7310001
0.084923163 -0.4353649 1.732231
0.095603131 -0.43552536 1.7310001
0.10470819 -0.43552539 1.7310001
0.11533076 -0.43552539 1.7310003
0.12595333 -0.43552539 1.7310001
0.13505837 -0.43552539 1.7310001
0.14416344 -0.43552539 1.7310001
0.15455337 -0.43511969 1.7318001
0.16540858 -0.43514603 1.7310001
0.17451365 -0.43552539 1.7310001
0.18418913 -0.4348346 1.7363335
0.1954439 -0.4347941 1.7390001
0.20276161 -0.43296462 1.7390001
-0.0045525301 -0.4249028 1.7310003
0.0042153057 -0.42574584 1.7310001
0.015825462 -0.42533633 1.7310003
0.025797671 -0.42490277 1.7310003
0.0349565 -0.4240422 1.7336668
0.044169098 -0.42490873 1.7372223
0.054659292 -0.42514822 1.7320004
0.065252922 -0.42490283 1.7310003
0.074357986 -0.42490277 1.7310003
0.085158862 -0.42499062 1.7326005
0.095603131 -0.4249028 1.7310003
0.10470819 -0.42490277 1.7310003
0.11533076 -0.42490277 1.7310004
0.12595333 -0.4249028 1.7310003
0.13505839 -0.4249028 1.7310003
0.14416344 -0.4249028 1.7310003
0.15478602 -0.42490277 1.7310004
0.16540858 -0.42490277 1.7310003
0.17451364 -0.4249028 1.7310003
0.18382858 -0.42516631 1.7358001
0.19361447 -0.42585015 1.7390002
0.20542952 -0.42534202 1.7390002
-0.0045525301 -0.41428021 1.7310001
0.0045525301 -0.41465956 1.7310001
0.015588965 -0.41455615 1.7310002
0.025797671 -0.41428021 1.7310001
0.034902733 -0.41428021 1.7310001
0.044154368 -0.41501063 1.7366002
0.054848649 -0.41443014 1.7380002
0.065475605 -0.41419172 1.7370003
0.074733026 -0.41405195 1.7326
0.085441157 -0.4138265 1.7342002
0.095860869 -0.41387025 1.7356669
0.10470819 -0.41428021 1.7310001
0.11533076 -0.41428021 1.7310003
0.12595335 -0.41428021 1.7310001
0.1350584 -0.41428021 1.7310001
0.14416344 -0.41428018 1.7310001
0.15478604 -0.41428027 1.7310003
0.16540858 -0.41514736 1.7310001
0.17451365 -0.41428024 1.7310001
0.18377322 -0.415858 1.7360002
0.19513899 -0.41771936 1.7390002
0.20581065 -0.41467032 1.7390002
0.21468061 -0.41425455 1.7390002
0.22323377 -0.41271019 1.7390002
0.23935015 -0.41009676 1.7390001
-0.0045525301 -0.40517521 1.7310001
0.0045525301 -0.40517518 1.7310001
0.0151751 -0.40517518 1.7310003
0.026096534 -0.40440691 1.7324547
0.034943055 -0.40411881 1.7330003
0.044120006 -0.404255 1.7353638
0.054863553 -0.40384266 1.7383336
0.065487489 -0.40358254 1.7372223
0.074428126 -0.40402657 1.7326
0.084876373 -0.40374863 1.7359233
0.095997438 -0.4037922 1.7381113
0.1048695 -0.40579939 1.7336668
0.11533076 -0.40517521 1.7310003
0.12631646 -0.40475264 1.7318001
0.13505837 -0.40517515 1.7310001
0.14416343 -0.40517521 1.7310001
0.15478602 -0.40517518 1.7310003
0.16584216 -0.40604234 1.7310001
0.17451364 -0.40517515 1.7310001
0.18213713 -0.40470457 1.7342001
0.19767988 -0.40298232 1.7390002
0.20581067 -0.40399867 1.7390002
0.21495779 -0.4039987 1.7390002
0.22410491 -0.40399867 1.7390002
0.23020302 -0.40094963 1.7390001
-0.19575879 -0.39607009 1.7310001
-0.0045525297 -0.39455259 1.7310003
0.0045525297 -0.39455259 1.7310003
0.0151751 -0.39455256 1.7310004
0.025590952 -0.39509526 1.7374003
0.035064038 -0.39485157 1.7390002
0.044211179 -0.39485154 1.7390002
0.054882839 -0.39485154 1.7390002
0.0655545 -0.39485154 1.7390002
0.074363783 -0.3952769 1.7382002
0.085373312 -0.39485154 1.7390002
0.096044973 -0.39485157 1.7390002
0.10495015 -0.3954573 1.7350001
0.11483168 -0.39550212 1.7332859
0.12523054 -0.39513057 1.737154
0.13536932 -0.39545846 1.7350003
0.14416344 -0.39455259 1.7310003
0.15373543 -0.39420238 1.7310003
0.16662261 -0.39182109 1.7310002
0.17451365 -0.39455259 1.7310003
0.18341883 -0.39437988 1.7354445
0.19555478 -0.39457434 1.7390002
0.20581065 -0.39485154 1.7390002
0.21495779 -0.39485157 1.7390002
0.22410491 -0.39485157 1.7390002
0.23359084 -0.39417398 1.7390002
-0.0045525301 -0.38393006 1.7310001
0.0045525301 -0.38393003 1.7310001
0.015210751 -0.38466814 1.7343335
0.025916897 -0.3857044 1.7390002
0.035064038 -0.3857044 1.7390002
0.044211175 -0.3857044 1.7390002
0.054882839 -0.3857044 1.7390002
0.0655545 -0.3857044 1.7390002
0.074623719 -0.38531318 1.7372223
0.085373305 -0.3857044 1.7390002
0.096044973 -0.3857044 1.7390002
0.1051921 -0.3857044 1.7390002
0.11433925 -0.3857044 1.7390002
0.12481454 -0.3851153 1.7363335
0.13519555 -0.38432744 1.732778
0.14416344 -0.38393003 1.7310001
0.15478604 -0.38393006 1.7310003
0.16540857 -0.38393003 1.7310001
0.17451364 -0.38393003 1.7310001
0.18418913 -0.38511294 1.7363334
0.19513898 -0.38570437 1.7390002
0.20581065 -0.3857044 1.7390002
0.21495777 -0.3857044 1.7390002
0.22410491 -0.3857044 1.7390002
0.23325206 -0.38613996 1.7390002
-0.0042497292 -0.3743884 1.7318001
0.0045677256 -0.37445179 1.7363335
0.015245231 -0.37503272 1.7390002
0.025916899 -0.37503275 1.7390002
0.035064038 -0.37503275 1.7390002
0.044211179 -0.37503275 1.7390002
0.054882839 -0.37503275 1.7390002
0.065554507 -0.37503275 1.7390002
0.074701644 -0.37503275 1.7390002
0.085373305 -0.37503272 1.7390002
0.09604498 -0.37503275 1.7390002
0.1051921 -0.37503275 1.7390002
0.11433924 -0.37503269 1.7390002
0.12428229 -0.37481996 1.7350003
0.13505837 -0.37482497 1.7310001
0.14416344 -0.374825 1.7310001
0.15478604 -0.37482497 1.7310003
0.16540857 -0.37482497 1.7310001
0.17451364 -0.37482497 1.7310001
0.18451689 -0.37497607 1.7368183
0.19513899 -0.37503275 1.7390002
0.20581065 -0.37503275 1.7390002
0.21434799 -0.37564257 1.7390001
0.22366937 -0.37742838 1.7390002
0.23447168 -0.37716708 1.7390001
-0.025797671 -0.36344361 1.7310001
-0.01669261 -0.36344361 1.7310001
-0.0048424676 -0.36500627 1.7368183
0.0045735706 -0.36436108 1.7390002
0.015245232 -0.36436108 1.7390002
0.025916897 -0.36436108 1.7390002
0.035064038 -0.36436108 1.7390002
0.044211179 -0.36436111 1.7390002
0.054882843 -0.36436105 1.7390002
0.065554507 -0.36436108 1.7390002
0.074701644 -0.36436111 1.7390002
0.085373312 -0.36436114 1.7390002
0.096044973 -0.36436108 1.7390002
0.1051921 -0.36436105 1.7390002
0.11433925 -0.36436108 1.7390002
0.12523559 -0.36462855 1.7361431
0.13512081 -0.36527914 1.7318001
0.14416344 -0.36571991 1.7310001
0.15478604 -0.36571991 1.7310003
0.16540858 -0.36571991 1.7310001
0.17451365 -0.36571991 1.7310001
0.18418913 -0.36481401 1.7363334
0.19513899 -0.36436105 1.7390002
0.20581065 -0.36436108 1.7390002
0.21495779 -0.36436111 1.7390002
0.22288533 -0.36314148 1.7390001
0.23264225 -0.36253163 1.7390001
-0.052101176 -0.35155645 1.7310001
-0.044766545 -0.35130355 1.7310001
-0.032879382 -0.35155645 1.7310001
-0.025806434 -0.35523236 1.7316669
-0.015186935 -0.35540107 1.7325003
-0.0041924389 -0.35559508 1.7390002
0.0045735696 -0.35564953 1.7390002
0.015550135 -0.35582373 1.7390001
0.026679158 -0.35750073 1.7390001
0.035064034 -0.35704336 1.7390001
0.043775599 -0.35608509 1.7390002
0.054229472 -0.35652065 1.7390002
0.07775069 -0.35826299 1.7390001
0.085881479 -0.35623029 1.7390002
0.09604498 -0.35521397 1.7390002
0.10417575 -0.3557221 1.7390002
0.11433925 -0.35608509 1.7390002
0.12501091 -0.35521397 1.7390002
0.13551107 -0.35587192 1.7368184
0.14416344 -0.35509732 1.7310003
0.15478602 -0.35509738 1.7310004
0.16540858 -0.35509732 1.7310003
0.17451364 -0.35509732 1.7310003
0.18382858 -0.35516733 1.7358001
0.19513899 -0.35521397 1.7390002
0.20581065 -0.35521394 1.7390002
0.21495779 -0.35521397 1.7390002
0.22410494 -0.35521394 1.7390002
0.23172754 -0.35521391 1.7390002
-0.06221791 -0.34295726 1.7310001
-0.054630365 -0.34447479 1.7310003
-0.044007789 -0.34447479 1.7310001
-0.034469154 -0.34360763 1.7310001
-0.025797671 -0.34447479 1.7310001
-0.015203153 -0.34527078 1.7350003
-0.0030490467 -0.34759134 1.7390001
0.0015245234 -0.34759134 1.7390001
0.016769756 -0.34759134 1.7390001
0.025916897 -0.34454226 1.7390001
0.032014988 -0.34301776 1.7390001
0.089946873 -0.34911585 1.7390001
0.095663846 -0.3460668 1.7390002
0.10442986 -0.34682906 1.7390001
0.11205247 -0.34530455 1.7390001
0.12501092 -0.3460668 1.7390002
0.13568258 -0.34606683 1.7390002
0.14475726 -0.34588835 1.7381113
0.15444219 -0.34605047 1.7374003
0.16506432 -0.34578961 1.7390002
0.17532018 -0.3460668 1.7390002
0.18141825 -0.3460668 1.739
0.20657291 -0.34835359 1.7390001
0.21582894 -0.3460668 1.7390002
0.22181813 -0.3460668 1.7390001
0.23020302 -0.34759134 1.7390001
-0.08346305 -0.33536971 1.7310001
-0.074357986 -0.33536971 1.7310001
-0.06525293 -0.33536971 1.7310001
-0.054630358 -0.33536971 1.7310003
-0.044007793 -0.33536971 1.7310001
-0.034932058 -0.33454278 1.7324548
-0.025827477 -0.33423269 1.7330002
-0.015228137 -0.33510447 1.7375003
0.099094018 -0.33996871 1.7390001
0.1072248 -0.33590332 1.739
0.1134681 -0.3369197 1.7390002
0.12501091 -0.33539516 1.7390002
0.13568257 -0.33539513 1.7390002
0.14482974 -0.3353951 1.7390002
0.15397687 -0.33539519 1.7390002
0.16464852 -0.33539513 1.7390002
0.17532016 -0.33539513 1.7390002
0.18141827 -0.33539516 1.7390001
0.20711739 -0.33561292 1.7390002
0.21444963 -0.33691967 1.7390002
0.22105588 -0.33539516 1.7390001
-0.092568107 -0.32171214 1.7310001
-0.08429078 -0.32322967 1.7310002
-0.074357986 -0.32474717 1.7310003
-0.06525293 -0.32474717 1.7310003
-0.054630361 -0.32474717 1.7310004
-0.044007789 -0.32474715 1.7310003
-0.035014246 -0.3248795 1.7366002
-0.025902089 -0.32455593 1.7381113
-0.015661011 -0.32500064 1.7390002
0.12775506 -0.32594308 1.7390001
0.13568258 -0.32472345 1.7390002
0.14482972 -0.32472345 1.7390002
0.15397686 -0.32472345 1.7390002
0.16464852 -0.32472345 1.7390002
0.17532016 -0.32472351 1.7390002
0.18141825 -0.32472348 1.739
0.28508586 -0.32167441 1.7390001
-0.12595333 -0.31108955 1.7310001
-0.094085611 -0.31412455 1.7310001
-0.084980555 -0.31412455 1.7310003
-0.074357986 -0.31412455 1.7310001
-0.06525293 -0.31412458 1.7310001
-0.054630358 -0.31412455 1.7310003
-0.044028834 -0.31428742 1.731889
-0.035064038 -0.31557631 1.7390002
-0.026352474 -0.31644747 1.7390002
-0.016769756 -0.31862536 1.7390001
0.13873163 -0.31862536 1.7390001
0.14521086 -0.31595746 1.7390002
0.15397686 -0.31557631 1.7390002
0.1646485 -0.31557634 1.7390002
0.17532018 -0.31557631 1.7390002
0.18141825 -0.31557631 1.739
0.21190874 -0.31557631 1.7390001
-0.15529186 -0.30299616 1.7310001
-0.1449222 -0.30274326 1.7310001
-0.13657591 -0.30198449 1.7310001
-0.12671208 -0.30426073 1.7310001
-0.11381325 -0.30198449 1.7310001
-0.094085611 -0.30501953 1.7310001
-0.08498057 -0.30501947 1.7310003
-0.074426718 -0.30469021 1.7326
-0.065006934 -0.30469021 1.7326
-0.054661043 -0.30454886 1.735267
-0.044176105 -0.30466738 1.737667
-0.035064038 -0.30490467 1.7390002
-0.028965943 -0.30947822 1.7390001
0.13720711 -0.30414239 1.7390001
0.14455253 -0.30504325 1.7390002
0.15369965 -0.30504325 1.7390002
0.16549546 -0.30371892 1.7390002
0.17532016 -0.30490467 1.7390002
0.18141827 -0.30490464 1.7390001
-0.22125891 -0.29429299 1.7358001
-0.2164959 -0.29321432 1.733
-0.19575879 -0.29287943 1.7310001
-0.15478602 -0.29743195 1.7310001
-0.14416344 -0.29773545 1.7310002
-0.13657591 -0.29591444 1.7310001
-0.12595333 -0.29591444 1.7310001
-0.11563426 -0.29530743 1.7310002
-0.10470819 -0.29439697 1.7310001
-0.095603123 -0.29591447 1.7310001
-0.084980555 -0.29591444 1.7310003
-0.07419055 -0.29493695 1.7342001
-0.065746889 -0.29496747 1.7368183
-0.054960188 -0.29449168 1.7377695
-0.044211179 -0.29461411 1.7390002
-0.035935193 -0.29423299 1.7390002
0.13873163 -0.29423299 1.739
0.14300029 -0.29484278 1.7390001
0.15354128 -0.29510418 1.7390002
0.16399516 -0.2959753 1.7390002
0.17575574 -0.29510412 1.7390002
0.18141825 -0.29423299 1.739
-0.2222755 -0.28447604 1.7390001
-0.21387534 -0.28511772 1.7324547
-0.20789887 -0.28529188 1.7310001
-0.19424127 -0.28529188 1.7310001
-0.18525293 -0.28447479 1.7310003
-0.17451364 -0.28487802 1.7310002
-0.1654086 -0.28225684 1.7310001
-0.15503894 -0.28453311 1.7310003
-0.14416343 -0.28377438 1.7310001
-0.13657591 -0.28529188 1.7310001
-0.12595333 -0.28529188 1.7310003
-0.11539476 -0.28545496 1.7320004
-0.10486951 -0.2857267 1.7336669
-0.095603131 -0.28529188 1.7310003
-0.085003793 -0.285373 1.7315004
-0.074863479 -0.28516826 1.7358
-0.065554507 -0.28508586 1.7390002
-0.054882843 -0.28508586 1.7390002
-0.047260225 -0.28508586 1.7390001
-0.037096735 -0.28610221 1.739
0.16668122 -0.28406951 1.7390002
0.17619133 -0.28465027 1.7390002
0.18141825 -0.28508586 1.739
-0.22224145 -0.27551791 1.7363334
-0.21483605 -0.27510291 1.7310001
-0.19424129 -0.27466929 1.7310001
-0.1851362 -0.27466935 1.7310003
-0.17451365 -0.27466932 1.7310001
-0.16540858 -0.27466932 1.7310001
-0.15492398 -0.27439341 1.7310002
-0.14416344 -0.27466932 1.7310001
-0.13505839 -0.27466929 1.7310001
-0.12545854 -0.2746169 1.7326
-0.11525035 -0.27575046 1.7360913
-0.10497859 -0.27537611 1.7354445
-0.095603123 -0.27466929 1.7310001
-0.085073493 -0.27498665 1.7330002
-0.074661903 -0.27579612 1.7381113
-0.0655545 -0.27593872 1.7390002
-0.055492651 -0.27593869 1.7390001
0.16617304 -0.27898777 1.739
0.17532018 -0.27898777 1.7390001
-0.22359364 -0.26465198 1.735
-0.21565358 -0.26374078 1.7323335
-0.20486385 -0.26404673 1.7310001
-0.19424129 -0.26556423 1.7310001
-0.18513621 -0.26556423 1.7310003
-0.17451364 -0.26556423 1.7310001
-0.16540858 -0.26556426 1.7310001
-0.15478604 -0.26556423 1.7310003
-0.14416344 -0.26556426 1.7310001
-0.13505839 -0.26556426 1.7310001
-0.12447131 -0.26507914 1.7358004
-0.11461644 -0.26568282 1.7390002
-0.10511262 -0.26506013 1.7376667
-0.09578488 -0.26454994 1.7343335
-0.085297473 -0.26503518 1.7375002
-0.076531067 -0.26557195 1.7390001
-0.067587197 -0.26780793 1.739
-0.055187743 -0.268621 1.7390001
0.1570259 -0.262218 1.7390001
0.1657919 -0.2660293 1.7390002
0.17532018 -0.26679158 1.7390001
-0.22003895 -0.25949422 1.7310001
-0.21273562 -0.25777453 1.7358
-0.20574355 -0.25610092 1.7360913
-0.19509728 -0.25577828 1.7367144
-0.18498774 -0.25693113 1.7360911
-0.17484738 -0.25542739 1.7343336
-0.16566457 -0.25532863 1.7336669
-0.15478602 -0.25494167 1.7310004
-0.14416344 -0.25494167 1.7310003
-0.13505839 -0.25494167 1.7310003
-0.12522516 -0.25479093 1.737154
-0.11472038 -0.25497651 1.7390002
-0.1051921 -0.2545954 1.7390002
-0.0964261 -0.25497654 1.7390002
-0.086026676 -0.2563377 1.7390002
-0.07775069 -0.25764444 1.7390001
0.1570259 -0.25764444 1.7390001
-0.19971256 -0.24849731 1.7390001
-0.1646485 -0.24697278 1.7390002
-0.15366517 -0.24494331 1.7354445
-0.14416344 -0.24431913 1.7310001
-0.1354036 -0.24494174 1.7354445
-0.1261543 -0.24659164 1.7390002
-0.11586377 -0.24849731 1.7390001
-0.10315941 -0.24748094 1.739
-0.15092781 -0.23935015 1.7390001
-0.14482972 -0.23630111 1.7390002
-0.1369022 -0.23752072 1.7390001
-0.20581065 -0.13415805 1.7390001
-0.18817124 -0.13202336 1.7310001
-0.22307397 -0.12898836 1.7310001
-0.2124514 -0.12898836 1.7310001
-0.18240471 -0.12656033 1.7310002
-0.17575577 -0.12609985 1.7390002
-0.16617304 -0.12196186 1.7390001
-0.15245233 -0.12043734 1.7390001
-0.14787877 -0.12043734 1.7390001
-0.17390664 -0.11866929 1.7310002
-0.16451964 -0.11693827 1.7323333
-0.15384187 -0.11433048 1.7336669
-0.14541133 -0.11368226 1.7355716
-0.13568258 -0.11129019 1.739
-0.14264594 -0.10774321 1.7310001
-0.13483331 -0.10521206 1.733
-0.12645027 -0.10381825 1.7378575
-0.11433925 -0.10214306 1.7390001
-0.12595333 -0.098638147 1.7310001
-0.11493275 -0.096391067 1.7342001
-0.10539177 -0.095503405 1.7360001
-0.097569495 -0.092995919 1.7390001
-0.10167317 -0.089533091 1.7310001
-0.094951324 -0.088877782 1.733
-0.086089067 -0.083607137 1.7339092
-0.074701644 -0.080799736 1.739
-0.072840482 -0.07739301 1.7310001
-0.065358132 -0.075488888 1.7336668
-0.055810351 -0.072559074 1.7363334
-0.043448918 -0.07241486 1.7390001
-0.034424771 -0.072806284 1.7374003
-0.026526708 -0.072872214 1.7390001
-0.019818803 -0.071652599 1.7390001
-0.051595338 -0.068287946 1.7310001
-0.043249033 -0.067529187 1.7310001
-0.034931954 -0.066823035 1.7323333
-0.025822606 -0.065323062 1.7327778
-0.015639972 -0.065198906 1.7368183
-0.014163427 -0.058171213 1.7310001
-0.0042880955 -0.055189598 1.7353638
0.0045665563 -0.053281169 1.7363335
0.01480395 -0.052996971 1.7360909
0.025857283 -0.051718071 1.7350001
0.034983382 -0.051718071 1.7350001
0.044211179 -0.050309271 1.739
0.051833794 -0.050309271 1.7390001
0.037937749 -0.047042809 1.7310001
0.044387165 -0.044387169 1.7310001
0.054695234 -0.044062149 1.7330003
0.065353453 -0.044080261 1.7336669
0.074472539 -0.044080261 1.7336668
0.08527863 -0.042639315 1.7370001
0.096654788 -0.042381749 1.7390001
0.10580192 -0.042381749 1.7390001
0.11513126 -0.042441811 1.7378572
0.12481921 -0.042623535 1.7363335
0.13568257 -0.041162129 1.739
0.1433052 -0.041162129 1.7390001
0.163124 -0.041162129 1.7390001
0.17430383 -0.042178478 1.739
0.084980562 -0.037937749 1.7310001
0.095603131 -0.037937749 1.7310001
0.10546695 -0.037178993 1.7310001
0.11468039 -0.036637027 1.7310001
0.12595333 -0.037937749 1.7310001
0.13505839 -0.037937749 1.7310001
0.14528851 -0.035943624 1.7323335
0.15416026 -0.034667961 1.7342001
0.16485581 -0.035301056 1.7368183
