# .PCD v0.7 - Point Cloud Data file format
VERSION 0.7
FIELDS x y z
SIZE 4 4 4
TYPE F F F
COUNT 1 1 1
WIDTH 1456
HEIGHT 1
VIEWPOINT 0 0 0 1 0 0 0
POINTS 1456
DATA ascii
0.22029404 -0.2750822 1.302
0.21819369 -0.2656627 1.307
0.2223234 -0.26318836 1.3038751
0.22644198 -0.25618592 1.3049411
0.23124099 -0.25257382 1.3036667
0.22801486 -0.24863932 1.307
0.23329461 -0.24554726 1.3045
0.23577499 -0.23446798 1.3055716
0.2454053 -0.23513252 1.302
0.23657055 -0.22819428 1.3036667
0.24502485 -0.22752304 1.302
-0.20127945 -0.19211303 1.307
-0.19746011 -0.19211303 1.307
-0.18905754 -0.19134915 1.307
-0.20393851 -0.18509085 1.3032501
-0.1953301 -0.18733755 1.3030001
-0.18439721 -0.18701366 1.304143
-0.17989112 -0.18905754 1.307
-0.18486163 -0.15390478 1.3025556
-0.17486082 -0.15429185 1.3036667
-0.16473158 -0.15443981 1.3049167
-0.15513249 -0.15376279 1.3050001
-0.1447584 -0.15264198 1.3047779
-0.13569584 -0.15108235 1.307
-0.12947577 -0.15010023 1.307
-0.18376862 -0.14952601 1.302
-0.17806152 -0.14952601 1.302
-0.15523311 -0.14952601 1.302
-0.14419939 -0.14838459 1.302
-0.1348165 -0.14510171 1.3032501
-0.12496439 -0.14434938 1.3049411
-0.11485076 -0.14284179 1.3050768
-0.10531309 -0.14423645 1.3057499
-0.095028028 -0.14426336 1.3059998
-0.084768347 -0.14433751 1.3066874
-0.076514199 -0.14271617 1.307
-0.065692723 -0.14131574 1.307
-0.057290167 -0.14093381 1.307
0.16728729 -0.14322542 1.307
0.17530791 -0.14207962 1.307
0.18543932 -0.14079902 1.30575
0.19061714 -0.14039466 1.302
-0.11300058 -0.13811181 1.302
-0.10501064 -0.13735087 1.302
-0.094322801 -0.1366591 1.302
-0.084465079 -0.13582897 1.302
-0.075722724 -0.13618116 1.3033637
-0.065144226 -0.13600577 1.3036666
-0.054923099 -0.1350235 1.3052143
-0.044639573 -0.13392454 1.3056667
-0.03411952 -0.13487482 1.306
-0.025183562 -0.13507877 1.3057499
-0.015596228 -0.13436264 1.30575
-0.0053470824 -0.13253124 1.307
0.0045832135 -0.13176738 1.307
0.01718705 -0.13176738 1.307
0.025589608 -0.13176738 1.307
0.033992168 -0.13176738 1.307
0.043540526 -0.13176738 1.307
0.055686045 -0.13222571 1.307
0.065883689 -0.13262673 1.307
0.07485915 -0.13253124 1.307
0.084789447 -0.13176738 1.307
0.096109442 -0.13338818 1.3065455
0.10534815 -0.13397495 1.3061668
0.11267067 -0.13329512 1.307
0.12718417 -0.13176738 1.307
0.13291317 -0.13176738 1.307
0.14437123 -0.13176738 1.307
0.15500684 -0.13327532 1.3049167
0.16457488 -0.13372 1.3036667
0.17478745 -0.135346 1.3041877
0.18452957 -0.13658993 1.302
0.19175856 -0.13811181 1.302
-0.044515382 -0.12898046 1.302
-0.035637666 -0.12796587 1.302
-0.025111239 -0.12783903 1.302
-0.014335545 -0.12776725 1.3025556
-0.00425797 -0.12704025 1.3033637
0.0045756991 -0.12632592 1.3048573
0.014198492 -0.12631449 1.3049411
0.024842583 -0.12712951 1.3042728
0.035249807 -0.12717374 1.3047274
0.044998087 -0.12742646 1.3058463
0.054553375 -0.12708527 1.3038182
0.065133259 -0.12798764 1.3034999
0.075780429 -0.12756863 1.3031112
0.084573202 -0.12686275 1.3036667
0.093939215 -0.12736525 1.3024546
0.10517371 -0.12800209 1.302
0.11492369 -0.12787731 1.3036667
0.12502533 -0.12807591 1.3031112
0.13532703 -0.12814361 1.3034286
0.14438057 -0.12876509 1.3036667
-0.26423872 0.0074192304 1.302
-0.27508223 0.019404139 1.302
-0.26435289 0.013240471 1.302
-0.25707313 0.013316565 1.302
-0.27537474 0.026353477 1.307
-0.26497251 0.025600417 1.302
-0.25613463 0.025339523 1.302
0.27964789 0.027394079 1.302
0.28590217 0.026305988 1.3045001
0.29524028 0.026322795 1.3053335
0.30019346 0.02396982 1.302
-0.27293035 0.032311656 1.307
-0.2640526 0.034263898 1.3052353
-0.25786778 0.033639275 1.3050001
0.27736506 0.030818339 1.302
0.29790887 0.03093669 1.307
-0.25780573 0.040103115 1.307
0.12898046 0.43031535 1.302
0.13217644 0.43625075 1.302
0.13456036 0.4446308 1.3038182
0.14039466 0.44857806 1.302
-0.053863496 -0.49592209 1.3165835
-0.04512988 -0.49409583 1.3142917
-0.036005076 -0.49205309 1.3127145
-0.05311022 -0.48838311 1.317
-0.044431217 -0.48540923 1.3163751
-0.035900287 -0.48441139 1.3125001
-0.01035168 -0.48307839 1.312
-0.007284516 -0.48269498 1.312
0.0046007466 -0.48307839 1.312
-0.040409949 -0.47914654 1.317
-0.034197204 -0.4760294 1.3147779
-0.027374441 -0.47180653 1.312
-0.01035957 -0.47538567 1.3130001
-0.0051758396 -0.47416443 1.3120002
0.0052096681 -0.47462115 1.3120002
0.014952427 -0.47502708 1.3120002
0.024613993 -0.47134647 1.312
0.031055041 -0.47042635 1.312
0.045624074 -0.47042635 1.312
0.05329198 -0.4711931 1.312
-0.032327957 -0.46991 1.317
-0.025155023 -0.46513593 1.314647
-0.014300813 -0.46476534 1.3127145
-0.00460927 -0.46492067 1.3145001
0.0044212136 -0.46404353 1.3127896
0.015178607 -0.46456847 1.3124764
0.025341365 -0.46422702 1.314
0.034263641 -0.46423075 1.3125558
0.044857278 -0.46467543 1.3120002
0.054934286 -0.46420968 1.3123127
0.06424614 -0.46434683 1.3120002
0.070736483 -0.46295017 1.312
-0.022584688 -0.45613521 1.3162857
-0.015758248 -0.45550179 1.3150952
-0.0026866912 -0.45778129 1.3153334
0.0051878951 -0.45581254 1.3157502
0.014476542 -0.45653099 1.3150555
0.025730418 -0.45539546 1.3170002
0.034870047 -0.45525107 1.3161666
0.044959847 -0.45535725 1.3150001
0.055149835 -0.45489794 1.3136668
0.064207457 -0.45521674 1.3131113
0.073420249 -0.45489883 1.3120002
-0.01500941 -0.44797313 1.317
0.026939966 -0.44681859 1.317
0.034637101 -0.44797313 1.317
0.045028232 -0.44912773 1.317
0.05654199 -0.448553 1.3162858
0.064828724 -0.44573656 1.3153334
0.074772812 -0.44518936 1.3122002
0.085305512 -0.44397202 1.3120002
0.11846922 -0.44167167 1.312
0.12306997 -0.44052148 1.312
0.066965066 -0.43642747 1.317
0.075277701 -0.43564796 1.3150001
0.085448839 -0.43464068 1.3143685
0.094391994 -0.43454057 1.3120002
0.10236661 -0.43189511 1.312
0.11846922 -0.43477055 1.312
0.12450771 -0.43477061 1.3120002
0.077062503 -0.42901963 1.312
0.08603593 -0.42555526 1.3166155
0.094301425 -0.42542353 1.3143685
0.10399039 -0.42509544 1.3120002
0.11514647 -0.42467445 1.3120002
0.12306998 -0.42556906 1.3120002
0.088901892 -0.4191089 1.317
0.095782734 -0.41804299 1.316375
0.10470467 -0.41613674 1.3149166
0.11508639 -0.41545337 1.3127501
0.12454356 -0.41484064 1.3130001
0.13227147 -0.41061664 1.312
0.10609214 -0.40640864 1.3169999
0.1151677 -0.40473855 1.3136668
0.1255326 -0.40506008 1.3157499
0.13529435 -0.4044807 1.3128334
0.14434843 -0.40390721 1.3120002
0.10440612 -0.39733702 1.317
0.1149139 -0.39549458 1.3157501
0.12469356 -0.39486292 1.317
0.13488474 -0.39544183 1.3150953
0.14492351 -0.39566419 1.3120002
0.15182464 -0.39681441 1.312
0.126178 -0.3871108 1.317
0.13532805 -0.38594973 1.316318
0.1450592 -0.38567919 1.3132501
0.15239972 -0.38128689 1.312
0.13560951 -0.37576005 1.3169999
0.1453097 -0.37480479 1.3155
0.1548918 -0.37457746 1.3120002
0.1626364 -0.37427074 1.312
0.13790697 -0.36574212 1.317
0.14563133 -0.36488914 1.3163334
0.15546314 -0.3650496 1.3136001
0.16345432 -0.36384237 1.3120002
0.13970298 -0.35791671 1.317
0.14663039 -0.3574219 1.317
0.1554821 -0.35637727 1.3170002
0.16380817 -0.35477811 1.3131766
0.15751635 -0.34521645 1.317
0.16452521 -0.34504551 1.3148261
0.17444497 -0.34313902 1.3120002
0.15817609 -0.33597985 1.317
0.16536021 -0.33523262 1.3165454
0.17495945 -0.33495718 1.3130002
0.18267055 -0.33386782 1.3120002
0.15817609 -0.32905245 1.317
0.16548838 -0.3259736 1.3169999
0.1751582 -0.32496846 1.3145001
0.18307137 -0.32377753 1.3120002
0.16856721 -0.31519762 1.3170002
0.17549463 -0.31519765 1.3169999
0.18443456 -0.31418163 1.3132502
0.19265626 -0.31342587 1.312
0.17549463 -0.3048065 1.317
0.18568824 -0.30502209 1.3148572
0.19329165 -0.30412802 1.3124169
0.17711104 -0.29810998 1.317
0.18576594 -0.29672769 1.3161668
0.19422363 -0.29414701 1.3138751
0.20243284 -0.2921474 1.312
0.19585593 -0.28567615 1.3167619
0.20425455 -0.28422922 1.3126252
0.19809124 -0.27627212 1.317
0.20546247 -0.27502018 1.3150556
0.21201773 -0.27336103 1.3120002
0.20659591 -0.26619297 1.3165456
0.21370468 -0.26431289 1.3120002
0.20897716 -0.25862369 1.317
0.21543747 -0.25501019 1.3141739
0.22309151 -0.25301266 1.3127145
0.21667428 -0.24515373 1.317
0.22465347 -0.24499299 1.3141739
0.23118752 -0.24268937 1.312
0.21705915 -0.23553228 1.317
0.22483714 -0.23521867 1.31525
0.23217341 -0.23513103 1.3120002
0.22607765 -0.22954136 1.31575
0.23118752 -0.22888714 1.312
-0.19281319 -0.20320432 1.317
-0.18725601 -0.2022413 1.3145001
-0.20473322 -0.19323136 1.312
-0.19449557 -0.19603647 1.3140835
-0.18461832 -0.19490378 1.3143079
-0.1768633 -0.19633348 1.3147779
-0.1818078 -0.16335808 1.3153334
-0.17538504 -0.1650005 1.3161668
-0.16557413 -0.16442323 1.3161668
-0.1543975 -0.16300429 1.3170002
-0.14663039 -0.16163979 1.317
-0.18287969 -0.15930085 1.312
-0.17482838 -0.15987594 1.312
-0.16562687 -0.15987594 1.312
-0.15604198 -0.15834236 1.3120002
-0.14434123 -0.15723559 1.3130001
-0.1348778 -0.15632387 1.3150002
-0.12504743 -0.15351543 1.3137858
-0.11506506 -0.15351149 1.3135387
-0.10482594 -0.15321094 1.3140002
-0.094554931 -0.1533664 1.3153336
-0.085275993 -0.15211613 1.3145001
-0.077933475 -0.15182595 1.317
0.15355781 -0.15124866 1.317
-0.1207696 -0.14837408 1.312
-0.11501867 -0.14837408 1.312
-0.07343626 -0.1468769 1.3130001
-0.064095907 -0.14641035 1.3150002
-0.055201232 -0.14486367 1.3142729
-0.044942755 -0.1428971 1.3145001
-0.034556556 -0.14282861 1.3138751
-0.025338626 -0.14282861 1.3138751
-0.016856723 -0.14247394 1.317
0.02886425 -0.1420121 1.317
0.034637101 -0.1420121 1.317
0.04387366 -0.1420121 1.317
0.055419359 -0.1420121 1.317
0.064655915 -0.1420121 1.317
0.075047046 -0.1420121 1.317
0.085438177 -0.1420121 1.317
0.094674736 -0.1420121 1.317
0.10512915 -0.1432855 1.315182
0.11415925 -0.14298695 1.3153335
0.12492447 -0.14293577 1.317
0.13508469 -0.14374396 1.3170002
0.14566824 -0.14451368 1.3170002
0.15559539 -0.14522794 1.3147501
0.16447669 -0.14319824 1.3120002
0.172528 -0.14147297 1.312
-0.051758401 -0.13917258 1.312
-0.044857282 -0.13917258 1.312
-0.03795616 -0.13917258 1.312
-0.012086824 -0.13873008 1.3132501
-0.0041476856 -0.13754444 1.3140001
0.0046091485 -0.13709247 1.3140835
0.015106037 -0.13595581 1.3142222
0.025266541 -0.13680187 1.3146924
0.034634538 -0.1366815 1.3135387
0.04499555 -0.13613489 1.3122779
0.054931927 -0.13717777 1.3129092
0.064180411 -0.13733229 1.3120002
0.075362436 -0.13749149 1.3124168
0.085113823 -0.13687219 1.3120002
0.093452677 -0.13773485 1.3120002
0.10466699 -0.13917258 1.312
0.11625916 -0.1369774 1.3130002
0.12479861 -0.13631853 1.3135628
0.13578153 -0.13655359 1.3133335
0.14501484 -0.13696061 1.3128335
0.15441257 -0.13830994 1.3120002
0.16562688 -0.13917258 1.312
0.17137781 -0.13917258 1.312
-0.28056049 0.02886425 1.317
-0.27719498 0.028754666 1.312
0.30403733 0.027288295 1.3153334
-0.28187999 0.035131913 1.317
-0.27489462 0.035655789 1.3120002
-0.25649163 0.03795616 1.312
0.28625366 0.033452939 1.3157501
0.29481623 0.034810442 1.3146669
0.30211246 0.035021957 1.317
-0.28113776 0.042141803 1.317
-0.27459705 0.044195186 1.3164117
-0.26494926 0.044926528 1.3140001
-0.25879201 0.045624074 1.312
0.29626268 0.040871777 1.317
0.30192006 0.042141806 1.317
-0.27594224 0.051955651 1.317
-0.26502079 0.053973824 1.3155
-0.25879201 0.051758401 1.312
-0.26324195 0.061192211 1.317
0.12997109 0.43592075 1.312
-0.058080912 -0.4948301 1.3250002
-0.064497419 -0.48128575 1.3280001
-0.055761255 -0.48437762 1.3250002
-0.046937611 -0.48241434 1.322
-0.064031728 -0.47531661 1.3280001
-0.055745136 -0.47495049 1.3246253
-0.045199171 -0.47517091 1.3220003
-0.037472825 -0.47246662 1.322
-0.064264573 -0.46661669 1.3280001
-0.055094771 -0.46617335 1.3264999
-0.045216002 -0.46490729 1.3224802
-0.0347686 -0.46474028 1.3220003
-0.028394356 -0.46184289 1.322
-0.00521529 -0.46068394 1.322
-0.064031735 -0.45870006 1.3280001
-0.052855287 -0.45598352 1.3279998
-0.044178836 -0.45545247 1.3279997
-0.034856178 -0.45427665 1.3253
-0.026666041 -0.45348564 1.3224618
-0.010468451 -0.45479187 1.3268001
-0.0048337546 -0.45420018 1.3257895
0.0042494959 -0.4528932 1.322
0.015487834 -0.45230788 1.3220001
0.023179065 -0.4519918 1.322
-0.050837312 -0.44550565 1.3280001
-0.044007264 -0.4463594 1.3280001
-0.031433761 -0.44822213 1.3280001
-0.025200076 -0.44544199 1.3266666
-0.015569047 -0.44452909 1.3235791
-0.0046473197 -0.44384682 1.3253752
0.0047756899 -0.44528547 1.3246669
0.014995678 -0.44490683 1.3245
0.025451267 -0.44379336 1.3236002
0.034764625 -0.44388512 1.3248001
0.044882506 -0.44505203 1.324609
0.054549694 -0.44415912 1.3240002
0.062583484 -0.44156122 1.322
-0.023284266 -0.43657997 1.3280001
-0.0152167 -0.43564731 1.3258183
-0.004572927 -0.43512335 1.3264
0.0047191479 -0.43560553 1.3258824
0.015241894 -0.43559813 1.3277141
0.025401367 -0.43564096 1.3276471
0.034985289 -0.4356409 1.3276471
0.044162497 -0.43533823 1.3279998
0.054987241 -0.43558398 1.3269092
0.063371688 -0.43496326 1.323091
0.073014058 -0.43286908 1.322
-0.022120053 -0.42959473 1.3280001
-0.014663303 -0.42846823 1.3274001
-0.0044867797 -0.4289833 1.327143
0.0044623795 -0.42768577 1.3275
0.015257322 -0.42628583 1.3279997
0.025467169 -0.42595652 1.3279998
0.0349264 -0.42726627 1.3280001
0.042743262 -0.42759895 1.3280001
0.054718032 -0.4249379 1.3279996
0.064926356 -0.42500043 1.3237144
0.075161889 -0.42522889 1.3235556
0.082896546 -0.42285243 1.3244002
0.055235449 -0.41691771 1.3280001
0.065420769 -0.41489574 1.3273331
0.074421674 -0.41469067 1.3276471
0.085204594 -0.41480783 1.3266957
0.094588414 -0.41428122 1.3220003
0.057046454 -0.40398201 1.3280001
0.06810648 -0.40689254 1.3280001
0.075906709 -0.40584475 1.3280001
0.084987573 -0.40514627 1.3279997
0.095301762 -0.40678039 1.3257502
0.10281571 -0.40381244 1.3219999
0.067524374 -0.39932516 1.3280001
0.07450965 -0.39932516 1.3280001
0.086090505 -0.39540356 1.3279997
0.095075682 -0.39562461 1.3255455
0.10391889 -0.39316702 1.3240001
0.11389349 -0.39330661 1.3220001
0.12400801 -0.39056727 1.322
0.08764863 -0.38601989 1.3280001
0.09562543 -0.38444734 1.3266667
0.10544634 -0.38498878 1.32725
0.11489124 -0.38496304 1.3260001
0.12441254 -0.38402411 1.3245715
0.097405851 -0.37681708 1.3280001
0.10594341 -0.37604091 1.3280001
0.11409291 -0.37487674 1.3279998
0.12639557 -0.37562561 1.3260001
0.13173437 -0.37279665 1.322
0.11459186 -0.36589566 1.3279999
0.12623399 -0.36539671 1.3279999
0.13374861 -0.36458078 1.3236003
0.14255126 -0.36159343 1.322
0.1165507 -0.35560253 1.3280001
0.12523609 -0.3584114 1.3280001
0.13545828 -0.35635048 1.327143
0.14447573 -0.35345614 1.3243335
0.15258206 -0.35304472 1.3228571
0.13854139 -0.3480998 1.3280001
0.14566503 -0.34563938 1.3275001
0.152931 -0.345397 1.3236003
0.14669086 -0.33529344 1.3280001
0.15361556 -0.33496886 1.3235003
0.15636404 -0.3245132 1.3254286
0.16327159 -0.32190034 1.324
0.15949723 -0.31783023 1.3280001
0.16472217 -0.3160148 1.3245715
0.16717133 -0.30648243 1.3242501
0.17088133 -0.30425915 1.3230001
0.17578337 -0.29509819 1.3256003
0.18453114 -0.29270011 1.322
0.17812464 -0.28988913 1.3280001
0.18536621 -0.28530955 1.3269562
0.19180678 -0.28336409 1.322
0.18705028 -0.27553046 1.3280001
0.19441707 -0.27456629 1.325
0.20049892 -0.27119508 1.322
0.18836972 -0.26753622 1.3280001
0.19634856 -0.26674402 1.3272501
0.20331506 -0.26405814 1.3240001
0.20673004 -0.2552551 1.3257499
0.21208847 -0.25149286 1.322
0.20769307 -0.24521658 1.3272501
0.21222396 -0.24494082 1.324182
0.17579621 -0.23400688 1.3280001
0.20807683 -0.23714183 1.3260001
0.21341299 -0.23692317 1.3219999
-0.19624943 -0.20204419 1.322
-0.18630175 -0.20281683 1.322
-0.17368855 -0.20267709 1.3226001
-0.16573033 -0.20049892 1.322
-0.18427359 -0.19818102 1.322
-0.17268404 -0.19818102 1.322
-0.17337584 -0.17260671 1.3253334
-0.1653744 -0.17234798 1.3253334
-0.15484038 -0.17113936 1.3280001
-0.14491767 -0.17165776 1.3260001
-0.13621296 -0.17113936 1.3280001
-0.16341242 -0.16804822 1.322
-0.15529974 -0.16804823 1.322
-0.14401293 -0.16572745 1.3232859
-0.13474368 -0.16495009 1.3250003
-0.12566492 -0.16469269 1.3248001
-0.11540377 -0.16372664 1.3258572
-0.10443944 -0.16305301 1.3253335
-0.095465496 -0.16298987 1.3280001
-0.088480212 -0.16182566 1.3280001
-0.073345438 -0.16182566 1.3280001
-0.066360161 -0.16182566 1.3280001
-0.05937488 -0.16182566 1.3280001
-0.13327964 -0.15877661 1.322
-0.124008 -0.15877661 1.322
-0.11473638 -0.15877661 1.322
-0.1043058 -0.15877661 1.322
-0.095034167 -0.15877661 1.322
-0.085287005 -0.15806672 1.3246667
-0.074407019 -0.15617476 1.3248001
-0.065048665 -0.15565744 1.325
-0.054856814 -0.15589607 1.3254738
-0.044572067 -0.1551223 1.3264002
-0.035624929 -0.15460752 1.3280001
-0.025224624 -0.15277065 1.3280001
-0.016066143 -0.15344331 1.3279998
0.022120053 -0.15018351 1.3280001
0.056658383 -0.15095966 1.3280001
0.064419799 -0.15095966 1.3280001
0.07450965 -0.15018351 1.3280001
0.085985474 -0.15084878 1.3280001
0.095783003 -0.15230027 1.3280001
0.10415233 -0.15340748 1.3279999
0.11462211 -0.15272361 1.3280001
0.12651119 -0.15212387 1.3280001
0.13445905 -0.15383452 1.326
0.14519396 -0.15303925 1.325
0.15182288 -0.15182288 1.322
-0.066060342 -0.14950497 1.322
-0.054470807 -0.14950497 1.322
-0.045199182 -0.14834604 1.3220001
-0.034768596 -0.14834602 1.322
-0.025883293 -0.14795969 1.322
-0.0141487 -0.14592889 1.3232
-0.0046498398 -0.14531101 1.3260001
0.0046428265 -0.14509182 1.324
0.014815118 -0.14495255 1.3253751
0.0252531 -0.14550212 1.3258183
0.034304842 -0.14536493 1.3265001
0.045618229 -0.14548507 1.3245715
0.054590207 -0.14636108 1.325
0.064901389 -0.14602812 1.322
0.074891686 -0.1460478 1.3233335
0.085332006 -0.14652802 1.3253335
0.095139369 -0.14619513 1.3235002
0.1043058 -0.14776655 1.322
0.1155692 -0.14700375 1.3226668
0.12529573 -0.14667198 1.322
0.13405226 -0.14873233 1.322
0.14371021 -0.14873233 1.322
-0.28626147 0.037086505 1.322
0.2846058 0.037252069 1.3219999
0.30364576 0.035927553 1.322
-0.28394356 0.044040225 1.322
-0.27621722 0.049834993 1.322
0.28606907 0.040701441 1.3265001
0.29535425 0.04400263 1.3246666
0.30248681 0.047903404 1.322
-0.28290385 0.058443509 1.3280001
-0.27506903 0.056016978 1.3247693
-0.26771823 0.057947665 1.322
0.303583 0.053273629 1.3268001
-0.28423437 0.064364366 1.3280001
-0.27427635 0.062578917 1.3268001
-0.26634783 0.06386026 1.3244001
-0.063805379 -0.48683739 1.3330001
-0.06801232 -0.47468394 1.3330001
-0.071551777 -0.46098113 1.3380001
-0.066660859 -0.46310884 1.3340001
-0.05901413 -0.46334857 1.3330001
-0.071284398 -0.45692128 1.3330001
-0.064730376 -0.45509905 1.3355
-0.057553381 -0.45429197 1.3330001
-0.045575269 -0.4522469 1.3330001
-0.062949926 -0.44846931 1.3379999
-0.056056798 -0.44558367 1.3352222
-0.044542145 -0.44485366 1.3346667
-0.035256255 -0.44516328 1.3335264
-0.029214917 -0.44172955 1.3330001
-0.052197609 -0.43576205 1.3380002
-0.04456557 -0.43509427 1.3377498
-0.035247646 -0.43479437 1.3352222
-0.026877725 -0.43471798 1.3330001
0.045575269 -0.43471795 1.3330001
-0.05043814 -0.4269647 1.3380001
-0.043986753 -0.42549849 1.3380002
-0.034829456 -0.42532647 1.3374116
-0.025667462 -0.42477837 1.3340526
-0.015451389 -0.42424709 1.3343159
-0.005119733 -0.42459568 1.3342501
0.0045445431 -0.4234215 1.3330001
0.014802225 -0.42225292 1.3330001
0.026293425 -0.42244771 1.3330001
0.035057899 -0.42303199 1.3330001
0.045185734 -0.42459011 1.3330001
-0.026468635 -0.41612795 1.3376429
-0.016152047 -0.41562477 1.3371665
-0.0033498057 -0.41573617 1.3369286
0.0046770168 -0.41531596 1.3345001
0.015191758 -0.41485175 1.3330001
0.025719648 -0.41500562 1.3335001
0.03509647 -0.41531426 1.3345001
0.044414349 -0.41492873 1.3332502
0.054631896 -0.41280678 1.3330001
0.06310422 -0.41017744 1.3330001
0.071284398 -0.41017744 1.3330001
-0.016030727 -0.40780604 1.3380002
-0.0028480398 -0.40680674 1.3372859
0.0046782224 -0.40490103 1.334875
0.015206439 -0.40471253 1.3342501
0.025800355 -0.40575606 1.3376875
0.035618965 -0.40624735 1.3372308
0.044416811 -0.40443009 1.3333126
0.054801036 -0.40427294 1.3330001
0.064467579 -0.40452924 1.3330001
0.072686709 -0.40456814 1.3330001
0.0064513902 -0.39939967 1.3380001
0.016030727 -0.39803123 1.3380002
0.025023574 -0.39568523 1.3380002
0.037300766 -0.39810941 1.3380001
0.044713005 -0.39514872 1.3366842
0.054795396 -0.39450026 1.3346666
0.065441415 -0.39498565 1.3330001
0.074790187 -0.39498565 1.3330001
0.081801772 -0.39381707 1.3330001
0.055744462 -0.38540801 1.3371665
0.065601617 -0.38540211 1.3362501
0.074945137 -0.38525665 1.33575
0.083659731 -0.38440308 1.3333571
0.10166791 -0.38329971 1.3330001
0.12036546 -0.3821311 1.3330001
0.057476021 -0.37769955 1.3380001
0.066077873 -0.37887254 1.3379999
0.076243699 -0.37769958 1.3380002
0.085631616 -0.3755081 1.3350834
0.095481217 -0.37456959 1.3330001
0.10421758 -0.37320721 1.3330001
0.12166389 -0.37408078 1.3330001
0.086106129 -0.36570352 1.3376429
0.094643347 -0.3640154 1.3343637
0.10512792 -0.36433759 1.3332943
0.11160098 -0.36284927 1.3330001
0.1208329 -0.36483589 1.3330001
0.086800516 -0.35775891 1.3380001
0.09709157 -0.35582492 1.3368462
0.10551429 -0.35533151 1.3355
0.11246065 -0.35444957 1.3335001
0.12503985 -0.35477218 1.3330001
0.13438861 -0.35291621 1.3330001
0.10799919 -0.34536216 1.3374447
0.11470698 -0.34449002 1.3330001
0.12509401 -0.34489015 1.3336
0.13537271 -0.34449002 1.3330001
0.14240186 -0.34306663 1.3330001
0.10830516 -0.33820924 1.3379999
0.11476164 -0.33492357 1.3358126
0.12493348 -0.3355926 1.3374444
0.13510159 -0.33444282 1.3349446
0.1435037 -0.33351746 1.3330001
0.15191756 -0.33071285 1.3330001
0.11581104 -0.32598081 1.3364615
0.12498755 -0.32778275 1.3380002
0.13571379 -0.32550192 1.3379998
0.14498623 -0.32517102 1.335647
0.15264323 -0.32517344 1.3342501
0.16126634 -0.32136407 1.3330001
0.13723865 -0.31506243 1.3380001
0.14597382 -0.31518248 1.3371176
0.15460062 -0.31505516 1.336
0.16214278 -0.31406036 1.3330001
0.13723867 -0.30771175 1.3379999
0.14568411 -0.30520937 1.3379999
0.15483336 -0.30497479 1.3379999
0.16382398 -0.30456394 1.3343159
0.14695764 -0.29743424 1.3380002
0.15483336 -0.29559094 1.3379999
0.16489264 -0.29470685 1.3340001
0.17334183 -0.29292825 1.3330001
0.15629959 -0.28767332 1.3380002
0.16479366 -0.28533578 1.3368094
0.17439754 -0.28458321 1.3342501
0.18113248 -0.28280038 1.3330001
0.16773614 -0.27682328 1.3380001
0.17491864 -0.27547532 1.3353684
0.18288538 -0.27462023 1.3330001
0.17669648 -0.26555273 1.3360001
0.18445458 -0.26486066 1.3335557
0.1949887 -0.26326811 1.3330001
0.17868395 -0.25649163 1.3380002
0.18524317 -0.25558853 1.337375
0.1954833 -0.25518078 1.33525
0.20316887 -0.25425324 1.3330001
0.17946593 -0.24163388 1.3380001
0.18611282 -0.24358885 1.3380002
0.19538191 -0.24533817 1.3373476
0.20341077 -0.24502859 1.3335001
0.17753881 -0.23613301 1.33675
0.1845745 -0.23730817 1.33675
0.19641979 -0.23820788 1.3363334
0.20333582 -0.23839372 1.3330001
-0.17008209 -0.20644447 1.3380001
-0.16163664 -0.20667908 1.3380001
-0.15561534 -0.2060535 1.3380002
-0.14896846 -0.2052715 1.3380001
-0.17178372 -0.17879529 1.3330001
-0.16408274 -0.17766124 1.3350002
-0.15444762 -0.17668165 1.3346667
-0.14517777 -0.17679124 1.3355001
-0.13449453 -0.17539039 1.336182
-0.12451746 -0.173445 1.3357779
-0.11495204 -0.17360103 1.3380002
-0.10607091 -0.17343345 1.3380002
-0.094490051 -0.17138539 1.3380002
-0.086096734 -0.17102048 1.3380001
-0.075070724 -0.17008209 1.3380001
-0.12153405 -0.16944651 1.3330001
-0.11382131 -0.16897908 1.3330001
-0.10534065 -0.16844486 1.3330001
-0.096526086 -0.16757676 1.3330001
-0.084816083 -0.16522814 1.3337693
-0.075304404 -0.16582979 1.3352224
-0.065160975 -0.16582979 1.3352224
-0.0546772 -0.16520707 1.3351429
-0.044239499 -0.1642549 1.336077
-0.035228714 -0.16371419 1.336077
-0.026011666 -0.16239487 1.3365002
-0.015224267 -0.16220678 1.3359169
-0.0053957077 -0.16116746 1.3380001
0.025414566 -0.16069826 1.3379999
0.057476018 -0.16069826 1.3379999
0.066859864 -0.16069826 1.3379999
0.075070724 -0.16069826 1.3380001
0.085867502 -0.16119696 1.3365716
0.095805988 -0.16210023 1.3360002
0.10550334 -0.16475521 1.3348423
0.11441527 -0.16409367 1.3341764
0.12433589 -0.16257504 1.3380002
0.13151564 -0.1619605 1.3355001
-0.033889305 -0.15776055 1.3330001
-0.025942847 -0.15729311 1.3330001
-0.012387125 -0.15495592 1.3330001
-0.0046746605 -0.15429176 1.3333125
0.0046809614 -0.15447555 1.3348751
0.015211262 -0.154461 1.3347502
0.025982589 -0.15472403 1.3350002
0.034372825 -0.15335035 1.3352729
0.044835739 -0.15408707 1.3358572
0.054147568 -0.15559244 1.3344287
0.06600704 -0.1561275 1.3350002
0.074813925 -0.15547267 1.3334168
0.084768213 -0.15578292 1.3330001
0.095123768 -0.15729311 1.3330001
0.10751089 -0.15776055 1.3330001
0.11452247 -0.15776055 1.3330001
0.124103 -0.15622216 1.3343638
0.1367258 -0.15776055 1.3330001
0.14217927 -0.15698148 1.3330001
0.037395094 -0.14841178 1.3330001
0.04206948 -0.14841178 1.3330001
0.28742743 0.043905661 1.3355
0.29425594 0.046441272 1.3355001
-0.28708521 0.058040302 1.3330001
-0.27462021 0.059598431 1.3330001
0.29793692 0.05043814 1.3380001
0.30206266 0.053858459 1.3355001
-0.28455329 0.066610008 1.3330001
-0.27537191 0.0668879 1.334923
-0.26760864 0.068947203 1.3330001
-0.28326207 0.074897543 1.3364615
-0.27451628 0.074781977 1.3365294
-0.26785958 0.074857026 1.3342501
-0.283526 0.083951853 1.3380001
-0.27422726 0.083775751 1.3372308
-0.26861241 0.084454559 1.3380001
-0.28362656 0.095245965 1.3380002
-0.27799627 0.093838394 1.3380001
-0.26626647 0.090319462 1.3380001
-0.071819164 -0.46741325 1.3430001
-0.07205981 -0.45361847 1.3475001
-0.068731256 -0.45283398 1.344
-0.073444247 -0.44387478 1.348143
-0.065675482 -0.44461414 1.345667
-0.057690803 -0.44151124 1.3430001
-0.073618308 -0.43579668 1.3490001
-0.06491252 -0.43546078 1.3461432
-0.056681637 -0.43511984 1.3430002
-0.081601009 -0.42337915 1.3490001
-0.073322646 -0.42810965 1.3490001
-0.064148329 -0.42609438 1.3475004
-0.054579809 -0.42484608 1.3436669
-0.045132261 -0.42365456 1.3430003
-0.03602732 -0.42078963 1.3430001
-0.01059627 -0.42031869 1.3430001
-0.0082415435 -0.42031869 1.3430001
-0.07788419 -0.41611448 1.3490001
-0.062679037 -0.41983128 1.3490001
-0.053617809 -0.41549048 1.3478754
-0.044998318 -0.4145188 1.344412
-0.0353209 -0.41443187 1.3430003
-0.024724631 -0.41224536 1.3430002
-0.01059627 -0.41443187 1.3430001
-0.0082415435 -0.41443187 1.3430001
-0.06740953 -0.40445718 1.3490001
-0.053985864 -0.4046993 1.3485001
-0.044671565 -0.40462676 1.3464741
-0.035329778 -0.40512511 1.3433752
-0.024972493 -0.40482709 1.3430003
-0.013686454 -0.40406841 1.3443849
-0.0053446316 -0.40415394 1.3434618
0.0011773633 -0.40148088 1.3430001
0.024724631 -0.40148088 1.3430001
0.033201646 -0.40336466 1.3430001
-0.062679037 -0.39854407 1.3490001
-0.054400671 -0.39854407 1.3490001
-0.044545475 -0.39578462 1.3490001
-0.035431355 -0.39564487 1.3472004
-0.025080157 -0.39553756 1.3446368
-0.014140198 -0.39544463 1.3445003
-0.0047880299 -0.39546174 1.3474213
0.0045329663 -0.39509016 1.3461583
0.0141471 -0.39378414 1.3448753
0.025901994 -0.39593053 1.3430003
0.034634121 -0.39449182 1.3438002
0.041207716 -0.39206198 1.3430001
-0.033704765 -0.38671783 1.3490001
-0.024483126 -0.38555545 1.3463917
-0.014335025 -0.38537923 1.3452108
-0.0047304933 -0.38553521 1.3490003
0.0050683855 -0.38604206 1.3490002
0.014191482 -0.38553524 1.3490003
0.02480942 -0.38630044 1.3475603
0.035722803 -0.38599876 1.3483337
0.044807393 -0.38559872 1.3451004
0.052981351 -0.3814657 1.3430001
0.064754985 -0.38028836 1.3430001
-0.024423743 -0.37520015 1.3490006
-0.015177001 -0.37587714 1.3490001
-0.0035478701 -0.37843949 1.3490001
0.016162518 -0.37804523 1.3490001
0.025623504 -0.37631074 1.3490003
0.036154483 -0.37590525 1.3490002
0.04489813 -0.3745544 1.3478005
0.054322556 -0.37367174 1.3455267
0.06505882 -0.37364709 1.3452502
0.07484667 -0.37406516 1.3430003
0.081238069 -0.37086946 1.3430001
-0.02325826 -0.3670074 1.3490001
-0.015374104 -0.36779585 1.3490001
0.022469843 -0.36779585 1.3490001
0.046122309 -0.36779585 1.3490001
0.054400675 -0.36661321 1.3490001
0.065931246 -0.36483929 1.3490003
0.075338662 -0.36490467 1.3461583
0.082415432 -0.36380529 1.3430001
0.067705184 -0.35626528 1.3490001
0.075961523 -0.35527807 1.3486253
0.084293313 -0.35501492 1.3442003
0.092816733 -0.35383621 1.3436002
0.10360797 -0.35203165 1.3430001
0.076870516 -0.34532601 1.3490001
0.085254766 -0.34593132 1.3477373
0.094662048 -0.345768 1.3471057
0.10249092 -0.34517011 1.3438002
0.078447349 -0.33665344 1.3490001
0.085148878 -0.33586502 1.3490003
0.094609879 -0.33586508 1.3490003
0.10477722 -0.33497262 1.3461581
0.085901454 -0.32758668 1.3490001
0.094609872 -0.32640406 1.3490003
0.10519477 -0.32504657 1.3482804
0.11353146 -0.3234385 1.3430002
0.12424608 -0.32307118 1.344286
0.13210018 -0.3237749 1.3430001
0.10673176 -0.31694308 1.3490001
0.11571485 -0.31526366 1.3469002
0.12595193 -0.31538862 1.3481432
0.133674 -0.31516004 1.3442858
0.1412836 -0.31553337 1.3430001
0.11944496 -0.30748206 1.3490001
0.12890594 -0.30629945 1.3490001
0.13467684 -0.30486619 1.3450003
0.14104812 -0.30211145 1.3430001
0.13625164 -0.29732412 1.3481429
0.1446 -0.29431388 1.3454002
0.15187986 -0.29080874 1.3430001
0.14703949 -0.28895429 1.3490001
0.15354256 -0.28398767 1.3454708
0.16129878 -0.28138983 1.3430001
0.15737578 -0.27639967 1.3479092
0.16492541 -0.27468625 1.3454709
0.17071769 -0.2731483 1.3430001
0.16832672 -0.26766708 1.3490001
0.17228308 -0.26443389 1.3442001
0.17502797 -0.25527278 1.3460001
0.18249132 -0.25077838 1.3430001
0.17719494 -0.24571477 1.3475001
0.18524067 -0.24631639 1.3434287
0.17542714 -0.23900476 1.3430001
-0.1671856 -0.21074803 1.3430001
-0.16512521 -0.20515557 1.3430002
-0.15541194 -0.20250648 1.3430002
-0.16280781 -0.19670968 1.3490001
-0.15728891 -0.19513285 1.3490001
-0.16419651 -0.1846942 1.3436002
-0.15486479 -0.18537192 1.3455718
-0.1439787 -0.18279065 1.3451819
-0.13451925 -0.1817216 1.3460002
-0.12517221 -0.18303835 1.3470001
-0.11572526 -0.18303835 1.3470001
-0.10599563 -0.18313415 1.3477145
-0.094609872 -0.18212399 1.3490001
-0.085655704 -0.18195505 1.3490001
-0.076397464 -0.18141441 1.3490001
0.060313791 -0.18330662 1.3490001
-0.12538919 -0.17719319 1.3430001
-0.11538161 -0.17778187 1.3430001
-0.10377618 -0.17710911 1.3430002
-0.094189063 -0.17660449 1.3430002
-0.084120862 -0.17564279 1.3446364
-0.075495534 -0.17509328 1.3455716
-0.065014966 -0.17420739 1.3456669
-0.054279692 -0.17464429 1.3460003
-0.044826921 -0.17459531 1.3456253
-0.035388529 -0.17408261 1.3455716
-0.025192477 -0.17437923 1.3470004
-0.014931626 -0.17392199 1.3479091
0.025695181 -0.17320058 1.3490001
0.035478704 -0.1733726 1.3490001
0.044545475 -0.17226881 1.3490001
0.054400671 -0.17148039 1.3490001
0.065044284 -0.17148039 1.3490001
0.074978314 -0.17195344 1.3490001
0.086331509 -0.17148037 1.3490001
0.095082916 -0.1733726 1.3490001
0.10147943 -0.17228165 1.3460001
-0.048271898 -0.16836296 1.3430001
-0.032966174 -0.16836296 1.3430001
-0.024135949 -0.16747993 1.3430002
-0.013743795 -0.16770343 1.344
-0.0043964828 -0.16656323 1.3457274
0.0047199731 -0.16520435 1.3460002
0.013921293 -0.16494362 1.3458003
0.024629744 -0.16576266 1.3454709
0.035381392 -0.16511162 1.3452502
0.044839747 -0.16520433 1.3460003
0.053960584 -0.16576226 1.3464289
0.064824134 -0.16627212 1.3475003
0.075519569 -0.1663826 1.3460001
0.084411249 -0.16670483 1.3448002
0.094189063 -0.1671856 1.3430002
0.10007589 -0.16836296 1.3430001
0.12480051 -0.16600823 1.3430001
0.036969207 -0.15800217 1.3430001
0.042385079 -0.15894406 1.3430001
0.2875962 0.047148447 1.3445001
0.29198611 0.048271898 1.3430001
0.28882924 0.052570194 1.3475001
0.29471657 0.054511659 1.3458003
0.30115166 0.055989195 1.3445001
0.29735571 0.060179658 1.3460001
0.30443302 0.060179658 1.3460001
-0.28845403 0.077705979 1.3430001
-0.28727666 0.088302247 1.3430001
-0.27589548 0.087517343 1.3430001
-0.28570685 0.093011707 1.3430001
-0.27435172 0.094771184 1.3464289
-0.26883128 0.092226796 1.3430001
-0.28438479 0.104836 1.3466003
-0.27553701 0.10147368 1.3476667
-0.27082074 0.11707971 1.3490001
-0.074781418 -0.44631451 1.3540001
-0.07668063 -0.43468183 1.3540001
-0.074781418 -0.42471093 1.3540001
-0.06528537 -0.42138737 1.3540001
-0.073294714 -0.41482115 1.3547144
-0.063902035 -0.41519219 1.3542942
-0.058163326 -0.4142653 1.3540001
-0.072486304 -0.40655419 1.3554287
-0.063784026 -0.40632457 1.3556668
-0.055789314 -0.40619367 1.3540001
-0.061298504 -0.39517438 1.3577501
-0.053713221 -0.39481017 1.3565
-0.04572222 -0.39248598 1.3546251
-0.039171219 -0.39052519 1.3540001
-0.053016856 -0.38541469 1.3590001
-0.045401644 -0.38454401 1.3571578
-0.036473788 -0.38328683 1.3555386
-0.01068306 -0.38102913 1.3540001
-0.0059350333 -0.38102913 1.3540001
0.003956689 -0.38182047 1.3540001
0.01068306 -0.38102913 1.3540001
-0.043335907 -0.37477079 1.358
-0.035389885 -0.37425348 1.3559232
-0.029675167 -0.37272009 1.3540001
-0.013057074 -0.37390712 1.3540001
-0.0046007466 -0.3740775 1.3546251
0.0047480264 -0.37509409 1.3540001
0.013604922 -0.37445495 1.3540001
0.023740131 -0.37414449 1.3540001
0.034027524 -0.37390709 1.3540001
-0.042890042 -0.36694813 1.3590001
-0.03539728 -0.36480254 1.3571249
-0.025539929 -0.36443925 1.355
-0.015035417 -0.36559805 1.3540001
-0.0049740006 -0.3648355 1.3587058
0.0049449075 -0.36543581 1.3568946
0.01424408 -0.36559802 1.3540001
0.025052086 -0.36541063 1.3540001
0.035610199 -0.36559805 1.3540001
0.044936683 -0.36508939 1.3540001
0.054602306 -0.36322403 1.3540001
0.061724346 -0.36322403 1.3540001
-0.032167532 -0.35860839 1.3590001
-0.023951896 -0.35793129 1.3584447
-0.015170497 -0.35543299 1.357125
-0.0055598202 -0.3578141 1.3590001
0.0065449742 -0.35768285 1.3577502
0.014653142 -0.35567221 1.355389
0.024514265 -0.35522461 1.3540001
0.035610709 -0.35553026 1.3563683
0.045255471 -0.35547426 1.3566315
0.054685086 -0.35517606 1.3545264
0.063227884 -0.35396537 1.3540001
0.07240741 -0.35135397 1.3540001
-0.013971754 -0.3469111 1.3590001
0.016679458 -0.34669447 1.3590001
0.025019191 -0.34669447 1.3589998
0.03587408 -0.34748876 1.3590001
0.045783419 -0.34584349 1.359
0.054764215 -0.34526446 1.3580625
0.064112328 -0.34431055 1.3543127
0.07240741 -0.34433982 1.3540001
0.036933091 -0.33954614 1.3590001
0.056908987 -0.33739009 1.358
0.064406447 -0.33543596 1.3574375
0.073742785 -0.33429071 1.3540001
0.067188613 -0.32702732 1.3565001
0.074877858 -0.32456729 1.355739
0.084541246 -0.32352525 1.3540001
0.094960533 -0.32167882 1.3540001
0.077142507 -0.31601623 1.3590001
0.085373119 -0.31533003 1.3567777
0.094960533 -0.3157438 1.3540001
0.10413286 -0.31434092 1.3540001
0.11039162 -0.31218275 1.3540001
0.12384436 -0.3129741 1.3540001
0.087484971 -0.30887967 1.3577502
0.095178604 -0.30695069 1.3571249
0.10449384 -0.30517203 1.3545001
0.11472677 -0.30475107 1.3540001
0.12537758 -0.30491233 1.3540001
0.13175774 -0.3003127 1.3540001
0.10606981 -0.29529431 1.3567275
0.11513964 -0.29437768 1.3540001
0.12669148 -0.2949523 1.3548335
0.13472526 -0.29338846 1.3540001
0.14204513 -0.29160798 1.3540001
0.10782079 -0.28772068 1.3590001
0.11554295 -0.28545499 1.3558421
0.12747873 -0.28593364 1.3590001
0.13521871 -0.28536978 1.3547143
0.14457741 -0.28464422 1.3540001
0.15074985 -0.28132057 1.3540001
0.11556483 -0.27997664 1.3590001
0.12611714 -0.27861506 1.3590001
0.13602623 -0.27562669 1.3584443
0.14463845 -0.27489245 1.3548334
0.1535555 -0.27419853 1.3540001
0.16261992 -0.27182454 1.3540001
0.14715405 -0.26812819 1.3573335
0.15526162 -0.26620144 1.3571249
0.16413695 -0.26507294 1.3545556
0.15845487 -0.25734025 1.3590001
0.16545747 -0.2555443 1.3569545
0.17261611 -0.25219524 1.3548335
0.15845487 -0.24661773 1.3590001
0.1657788 -0.24724098 1.3585002
0.17278281 -0.24511971 1.3551112
0.17448997 -0.23858833 1.3540001
-0.15134336 -0.20238465 1.3540001
-0.14709628 -0.2047797 1.3547144
-0.16163163 -0.1960972 1.3556668
-0.15440585 -0.19498748 1.3548335
-0.1461564 -0.19509876 1.3578891
-0.13661271 -0.19260804 1.3590001
-0.12509595 -0.19270733 1.3590001
-0.11368437 -0.19253254 1.3568572
-0.10533829 -0.19223306 1.3577501
-0.094914079 -0.19181378 1.3590001
-0.085780077 -0.19181378 1.3590001
-0.077440351 -0.19181378 1.3590001
0.029675167 -0.19110808 1.3540001
-0.14481482 -0.18814056 1.3540001
-0.13500418 -0.18726754 1.3548335
-0.12582271 -0.18873405 1.3540001
-0.11632665 -0.18873405 1.3540001
-0.10421918 -0.18778446 1.3540001
-0.095230296 -0.18757661 1.3554287
-0.085209079 -0.18746114 1.3562224
-0.074239321 -0.1865377 1.3564999
-0.063763835 -0.18415889 1.3570001
-0.054677371 -0.18335165 1.3558751
-0.044680983 -0.1837168 1.3555001
-0.03567595 -0.18343657 1.3565001
-0.025242057 -0.18330836 1.3567779
-0.014449344 -0.18345264 1.3575715
0.016679458 -0.18228267 1.3590001
0.026027232 -0.18456964 1.3582858
0.035026867 -0.18371235 1.3590001
0.04527282 -0.18228267 1.3590001
0.055195563 -0.18359768 1.356143
0.064098358 -0.18161201 1.3540001
0.070033394 -0.18161201 1.3540001
0.083090469 -0.18161201 1.3540001
-0.064098358 -0.17923801 1.3540001
-0.035610199 -0.17923801 1.3540001
-0.021366119 -0.17923801 1.3540001
-0.013057074 -0.1774575 1.3540001
-0.0045179306 -0.17590499 1.3563333
0.0044129523 -0.17540278 1.3557857
0.01425723 -0.17584246 1.35525
0.023872023 -0.17791909 1.3540001
0.035610203 -0.17844667 1.3540001
0.045343656 -0.17733879 1.3540001
0.05472894 -0.17670836 1.3544546
0.064098358 -0.17686398 1.3540001
0.074950986 -0.17703357 1.3540001
0.085190564 -0.17649879 1.3540001
0.092586525 -0.17805101 1.3540001
0.017805099 -0.16974196 1.3540001
0.28844261 0.054602306 1.3540001
0.29081663 0.058163326 1.3540001
0.29611257 0.061840504 1.3565001
0.30484292 0.064098485 1.3575716
0.31095278 0.065526448 1.3590001
-0.27525365 0.10643494 1.3540001
-0.28501475 0.11578685 1.3546251
-0.27606383 0.11480051 1.3540001
-0.29189056 0.12033039 1.3590001
-0.2855137 0.12396137 1.3570001
-0.27499944 0.12581235 1.3586874
-0.26875663 0.12487021 1.3565001
-0.2752111 0.13224429 1.3590001
-0.073865943 -0.40348864 1.3649999
-0.067251727 -0.40327105 1.365
-0.080175549 -0.39130455 1.365
-0.07395298 -0.3949742 1.3649999
-0.065447554 -0.3946183 1.3649999
-0.05863585 -0.39489448 1.365
-0.073850401 -0.38583419 1.3649999
-0.064619094 -0.38532129 1.3649999
-0.05761015 -0.38480845 1.3649999
-0.071798995 -0.3781414 1.365
-0.06526345 -0.37639239 1.3649999
-0.054806568 -0.37598741 1.3649999
-0.047695048 -0.37523526 1.3649999
-0.063422449 -0.36856818 1.365
-0.052481648 -0.36668774 1.3649999
-0.04607103 -0.36408082 1.3649999
-0.037694477 -0.36078995 1.365
0.00119665 -0.3613883 1.365
-0.045233376 -0.35428816 1.3649999
-0.035899498 -0.35420847 1.3649999
-0.025411215 -0.35357484 1.3649999
-0.0044602412 -0.3545348 1.3649999
0.0052652596 -0.35516575 1.3649999
0.011368176 -0.35241345 1.365
-0.043677725 -0.34762684 1.365
-0.035766538 -0.34662962 1.3649999
-0.024848085 -0.34526873 1.3649999
-0.014758683 -0.34264076 1.3649999
0.0083765499 -0.34702849 1.365
0.01316315 -0.34463519 1.3649999
0.02560831 -0.34200257 1.365
0.03566017 -0.34343857 1.3649999
0.044276055 -0.34224191 1.3649999
0.051455949 -0.34104526 1.365
-0.013562034 -0.33785418 1.3649999
0.014758684 -0.33785418 1.3650001
0.035899501 -0.33865196 1.365
0.045672145 -0.33585978 1.3649999
0.054401554 -0.33441767 1.3649999
0.062624685 -0.33226982 1.3650001
0.056840874 -0.32848042 1.365
0.064510316 -0.32494488 1.3649999
0.067183353 -0.31642845 1.3649999
0.072756328 -0.31519759 1.3649999
0.080175549 -0.31352231 1.365
0.068209052 -0.30993235 1.365
0.0741923 -0.30993235 1.365
0.086329751 -0.30719712 1.3649999
0.095732003 -0.30155581 1.3649999
0.10171525 -0.30035916 1.365
0.097726412 -0.2963703 1.3649999
0.10251302 -0.29357812 1.3649999
0.1057041 -0.28546751 1.3649999
0.11368176 -0.28181106 1.365
0.12564825 -0.28121275 1.365
0.1172717 -0.27762279 1.365
0.12405271 -0.27562836 1.3649999
0.13222982 -0.27223787 1.365
0.12325495 -0.2680496 1.365
0.13442367 -0.26765072 1.3649999
0.14442645 -0.26556423 1.3649999
0.1531712 -0.26326299 1.365
0.12325495 -0.25847641 1.365
0.1459913 -0.25009984 1.365
0.15616283 -0.25388923 1.3649999
0.15676115 -0.24650989 1.365
0.16334273 -0.24531324 1.365
-0.14200246 -0.20382936 1.3649999
-0.13761474 -0.20462714 1.365
-0.14240134 -0.19864391 1.3649999
-0.13369845 -0.19766483 1.3649999
-0.12405271 -0.19824502 1.3649999
-0.11487839 -0.19804558 1.3649999
-0.10554453 -0.19601128 1.365
-0.096244857 -0.19539584 1.3649999
-0.084164381 -0.19465506 1.3649999
-0.074431628 -0.19361797 1.365
-0.064619094 -0.19146399 1.3649999
-0.054874949 -0.19129305 1.3649999
-0.04619069 -0.19074601 1.365
-0.038292799 -0.19026735 1.365
-0.025727976 -0.19026735 1.365
-0.013562034 -0.19106512 1.3649999
0.016992431 -0.19266064 1.365
0.023606641 -0.19287823 1.3649999
0.036497824 -0.19086567 1.365
-0.065815747 -0.18787405 1.365
-0.055444781 -0.18787403 1.3650001
-0.047866002 -0.18787405 1.365
-0.034702849 -0.18787403 1.3650001
-0.025129652 -0.18787405 1.365
-0.0143598 -0.18787405 1.365
-0.0047866004 -0.18308745 1.365
0.0055843666 -0.18228967 1.3649999
0.0143598 -0.18548076 1.3649999
0.024863727 -0.18681034 1.3649999
0.036070447 -0.18650642 1.3649999
0.0454727 -0.18548074 1.365
0.054447576 -0.18727571 1.365
0.2943759 0.062824123 1.365
0.30275247 0.066613518 1.3650001
-0.28839266 0.12804155 1.365
-0.27881944 0.12804155 1.365
-0.28360605 0.1340248 1.3649999
-0.27562836 0.13442369 1.3649999
-0.27403286 0.1412047 1.365
-0.080469236 -0.40234616 1.3700001
-0.080469236 -0.39574048 1.3700001
-0.078067169 -0.39513996 1.3700001
-0.081715643 -0.38454038 1.37075
-0.076866135 -0.38192859 1.3700001
-0.082670078 -0.37371716 1.3727695
-0.074807227 -0.37420771 1.3700001
-0.063254423 -0.37272069 1.37
-0.058049943 -0.37191999 1.3700002
-0.083716765 -0.36743695 1.376
-0.074177399 -0.3657589 1.3729999
-0.065243088 -0.36438075 1.3707062
-0.056670222 -0.36404416 1.3705001
-0.071975499 -0.35746491 1.376
-0.064815477 -0.35488343 1.3722501
-0.055007335 -0.35526565 1.3700002
-0.049242366 -0.35430482 1.3700001
-0.0044037891 -0.35190275 1.3700002
0.0031226866 -0.35286358 1.3700001
-0.062771864 -0.34596753 1.3740001
-0.055476207 -0.3451845 1.3709478
-0.04623979 -0.3448967 1.37
-0.035430487 -0.34319526 1.37
-0.0252217 -0.34229448 1.3700001
-0.0048041339 -0.34589761 1.3700002
0.004289405 -0.34555441 1.3700001
0.014412399 -0.34349552 1.3700001
0.023420151 -0.34349552 1.3700001
0.030025832 -0.34469655 1.3700001
-0.053755451 -0.3386707 1.3748
-0.045606632 -0.33635175 1.3730001
-0.034868263 -0.33543673 1.3714403
-0.024026718 -0.33516064 1.3703004
-0.014755554 -0.33337253 1.3700001
-0.004816758 -0.33596253 1.3736
0.0048125503 -0.3358168 1.373
0.01436403 -0.33489487 1.3721176
0.024030665 -0.33523297 1.3706003
0.034601204 -0.33417329 1.3700004
0.045339011 -0.3320857 1.37
0.051644433 -0.33028418 1.3700001
-0.04314848 -0.32613787 1.3748001
-0.034885988 -0.32477531 1.3721004
-0.024050912 -0.32463405 1.3715001
-0.014412402 -0.32427901 1.3700002
-0.0048251739 -0.32569918 1.376
0.0048251734 -0.32569921 1.376
0.014475522 -0.32569918 1.376
0.024104496 -0.32543063 1.3748751
0.034888882 -0.3248429 1.3724003
0.045639273 -0.32427898 1.3700002
0.055007335 -0.3240388 1.3700002
0.061853215 -0.32307798 1.3700001
-0.034077786 -0.31876302 1.3760002
-0.024049157 -0.31621763 1.3715
-0.014412402 -0.31587175 1.37
-0.0053734886 -0.31725517 1.3760003
0.005103549 -0.31688392 1.3760002
0.01487762 -0.31596842 1.376
0.02431633 -0.31509647 1.3759999
0.03498251 -0.31484252 1.3759999
0.045787334 -0.31449518 1.3744998
0.055048898 -0.31439701 1.3703531
0.06317436 -0.3141903 1.37
0.074464068 -0.31106764 1.3700001
0.0072377599 -0.3051922 1.376
0.016888106 -0.3051922 1.376
0.038601387 -0.30519223 1.376
0.046080399 -0.3042272 1.376
0.055588327 -0.30444297 1.3737895
0.064724863 -0.30439058 1.3712635
0.074464075 -0.30506247 1.3700002
0.083729193 -0.30454773 1.3700001
0.090077497 -0.30145937 1.3700001
0.049458027 -0.29795444 1.376
0.05597201 -0.29554182 1.3760002
0.06533508 -0.29461336 1.3756472
0.074774683 -0.29497802 1.3722107
0.083940007 -0.29470614 1.3709476
0.093306564 -0.29433766 1.3704002
0.054283198 -0.28830409 1.376
0.066346131 -0.28545287 1.3760003
0.074559048 -0.28496546 1.3756471
0.084630817 -0.28496546 1.3756471
0.095040128 -0.28512815 1.372348
0.10352907 -0.28368407 1.3700001
0.068758719 -0.27865377 1.376
0.075029761 -0.27613389 1.3743638
0.084681787 -0.27527618 1.376
0.094365165 -0.27556148 1.375625
0.10487637 -0.27533397 1.3725003
0.1146987 -0.27413583 1.3700002
0.12610851 -0.27183387 1.37
0.09770976 -0.26900342 1.376
0.10555067 -0.26719397 1.3760003
0.11561151 -0.26494926 1.3737501
0.12519892 -0.26447338 1.3712858
0.13429627 -0.26301545 1.371091
0.14360929 -0.26165366 1.37
0.1513302 -0.26062423 1.3700001
0.11770126 -0.25822216 1.3700001
0.12624919 -0.25790173 1.3715
0.13537604 -0.25749567 1.3746668
0.14438394 -0.25628954 1.3725001
0.15226436 -0.25528628 1.37
-0.14172193 -0.21018083 1.3700001
-0.1339685 -0.21267098 1.3740001
-0.12907338 -0.21110134 1.376
-0.10253493 -0.21110134 1.376
-0.09529718 -0.21110134 1.376
-0.1405209 -0.20777877 1.3700001
-0.13418819 -0.20537671 1.37
-0.12504293 -0.2056042 1.3715
-0.11599455 -0.20530349 1.3735002
-0.10501354 -0.20472498 1.3731766
-0.094530195 -0.20431085 1.3726668
-0.08463563 -0.20332484 1.3738183
-0.074572779 -0.20166957 1.3720001
-0.065139838 -0.20145099 1.376
-0.054253612 -0.20315063 1.3752501
-0.047018483 -0.20315063 1.3752501
-0.034178309 -0.2018531 1.376
-0.024050912 -0.20199454 1.3715
-0.015613433 -0.20057257 1.3700002
-0.0060314666 -0.20145099 1.376
0.0084440531 -0.20145099 1.376
0.01085664 -0.20145099 1.376
-0.10328887 -0.1981705 1.3700001
-0.093280256 -0.1981705 1.3700002
-0.084072329 -0.1981705 1.3700001
-0.073663384 -0.19736981 1.37
-0.064855807 -0.19696948 1.37
-0.055380985 -0.19656914 1.37
-0.045364793 -0.19622351 1.3716363
-0.034743749 -0.19550891 1.3721178
-0.023928283 -0.19539888 1.3700001
-0.014892815 -0.19624886 1.37
-0.004817612 -0.19505097 1.3733749
0.0048172842 -0.19510455 1.37375
0.013211369 -0.19511333 1.37
0.045639265 -0.1909643 1.3700001
0.0540465 -0.1909643 1.3700001
-0.0048041334 -0.18736121 1.37
0.0048041334 -0.18736121 1.37
0.012010333 -0.18856223 1.3700001
0.034829967 -0.18856223 1.3700001
0.045639265 -0.18856223 1.3700001
0.2937831 0.066579476 1.3725001
0.30546281 0.0684589 1.3700002
0.31106764 0.0684589 1.3700001
0.29578692 0.072977632 1.3746668
0.30470949 0.074377395 1.3711252
0.31106764 0.073263034 1.3700002
0.30546004 0.081336692 1.3745
-0.29192296 0.13510485 1.376
-0.28784767 0.13491608 1.3700002
-0.27984077 0.13811883 1.3700001
-0.29071668 0.14113632 1.376
-0.28458187 0.1447854 1.3730001
-0.27789301 0.14436531 1.3722502
-0.30036703 0.15802443 1.376
-0.28408211 0.15350083 1.3760002
0.14354891 0.43788448 1.376
-0.090997994 -0.36277342 1.3840001
-0.085457534 -0.36372277 1.3819232
-0.076877967 -0.36259764 1.381
-0.091681622 -0.3552967 1.3870001
-0.084895208 -0.35534501 1.3845298
-0.075922839 -0.35475057 1.3828752
-0.069008566 -0.3523069 1.381
-0.091195248 -0.34897381 1.3870001
-0.083860472 -0.34772408 1.3863333
-0.074912697 -0.34583893 1.3866253
-0.066861324 -0.34399989 1.3825002
-0.056901801 -0.34020016 1.381
-0.072226644 -0.33535534 1.3870001
-0.065660588 -0.3355985 1.3870003
-0.056063704 -0.33467391 1.3842003
-0.047216389 -0.33172542 1.381
-0.072956204 -0.32587102 1.3870001
-0.063471898 -0.3280597 1.3870001
-0.055933081 -0.32587102 1.3870003
-0.046893641 -0.32450607 1.3823848
-0.074172139 -0.31979135 1.3870001
-0.055395816 -0.31639436 1.3865716
-0.046478823 -0.31725252 1.383
-0.038741656 -0.31840795 1.381
-0.021792181 -0.31356525 1.381
-0.013360275 -0.31314871 1.3852857
-0.0043863687 -0.31221935 1.3833079
0.0043238453 -0.31218162 1.3809999
0.013317443 -0.31259674 1.381
0.020581502 -0.3111439 1.381
0.0050969403 -0.30671918 1.3840002
0.014198744 -0.30529252 1.3827144
0.024312906 -0.30512086 1.3827649
0.033433851 -0.30390126 1.382412
0.042373683 -0.30145848 1.381
0.036961146 -0.29814863 1.3825001
0.045430358 -0.29535648 1.3831179
0.054884005 -0.29338732 1.381
0.049745575 -0.28876436 1.3840001
0.05632057 -0.2876752 1.3846
0.062551625 -0.28531614 1.381
0.081115335 -0.27240226 1.381
0.095643453 -0.27240226 1.381
-0.13010523 -0.22008453 1.3870001
-0.12499829 -0.2242187 1.3870001
-0.12511206 -0.21462926 1.3831819
-0.11502169 -0.21373086 1.3843334
-0.10477248 -0.2156188 1.3843333
-0.094637923 -0.21414995 1.3840001
-0.085115567 -0.21278891 1.3870001
-0.074982762 -0.21116768 1.3870001
-0.065660581 -0.21035704 1.3870001
