# .PCD v0.7 - Point Cloud Data file format
VERSION 0.7
FIELDS x y z
SIZE 4 4 4
TYPE F F F
COUNT 1 1 1
WIDTH 1463
HEIGHT 1
VIEWPOINT 0 0 0 1 0 0 0
POINTS 1463
DATA ascii
-0.085198849 -0.05331156 1.705
-0.079219982 -0.052315082 1.705
-0.073241115 -0.047332693 1.705
-0.067262247 -0.046336215 1.705
-0.055304516 -0.043346781 1.705
-0.046336215 -0.041852064 1.705
-0.040357351 -0.037367918 1.705
-0.028399616 -0.03138905 1.705
-0.022420749 -0.028399616 1.705
-0.014050337 -0.02600807 1.7050002
-0.0038862634 -0.018235544 1.7050002
0.0038862634 -0.017637657 1.7050002
0.014648223 -0.014050337 1.7050002
0.025410183 -0.0074735829 1.705
0.035125844 -0.0037367917 1.705
0.044200905 -0.0027759024 1.705
0.048329171 0.0024911945 1.705
0.055304516 0.0029894335 1.705
0.063674927 0.0062778099 1.7050002
0.071746394 0.0074735833 1.705
0.067262247 0.010463017 1.705
0.076230548 0.013826128 1.705
0.085198849 0.0179366 1.705
0.09267243 0.0179366 1.705
0.079219982 0.022420749 1.705
0.085198849 0.022420749 1.705
0.097156584 0.022420749 1.705
0.1048437 0.023701936 1.705
0.1140967 0.026406661 1.705
0.12256676 0.028399616 1.705
0.11808261 0.03138905 1.705
0.12480885 0.03213641 1.705
0.13388391 0.035232607 1.705
0.14299455 0.03637144 1.705
0.14598399 0.042350303 1.705
0.15545051 0.044841498 1.705
0.16516618 0.048578288 1.705
0.17488185 0.049325649 1.705
0.15893821 0.05331156 1.705
0.16628724 0.054930832 1.705
0.17488186 0.055304512 1.705
0.18086071 0.055304516 1.705
0.16815563 0.063525453 1.705
0.17488183 0.064272813 1.705
0.18086071 0.064272813 1.705
0.15993468 0.077725261 1.705
0.16591355 0.074735843 1.705
0.17288889 0.07373935 1.705
0.1666609 0.082956776 1.705
0.17338714 0.083704129 1.705
-0.16591355 0.29146975 1.705
-0.15515158 0.31598312 1.7050002
-0.15528445 0.32534999 1.705
-0.14573488 0.3265956 1.705
-0.15470317 0.35499519 1.705
-0.14498751 0.35574254 1.705
-0.15694524 0.36321616 1.705
-0.20573702 -0.43520135 1.7130001
-0.22976469 -0.42799306 1.7130001
-0.20423529 -0.42348784 1.7130001
-0.19973008 -0.42498958 1.7130001
-0.23276815 -0.41898265 1.7130001
-0.20453563 -0.41477785 1.7130001
-0.21274509 -0.40897116 1.7129999
-0.20498614 -0.4069688 1.7130002
-0.19973008 -0.40847057 1.7130001
-0.20273355 -0.39645672 1.7130001
-0.17269894 -0.073584773 1.7130001
-0.16519029 -0.075086497 1.7130002
-0.15542905 -0.072833903 1.7130001
-0.14566781 -0.071582466 1.7129999
-0.13515571 -0.070581309 1.7130001
-0.12464359 -0.070581309 1.7129999
-0.11863667 -0.070581309 1.7130001
-0.12464359 -0.067577846 1.7129999
-0.11563321 -0.067577846 1.7129999
-0.10462052 -0.062572084 1.7129999
-0.097612448 -0.061570931 1.7130001
-0.093107261 -0.058567468 1.7130001
-0.08559861 -0.056565166 1.7129999
-0.07808996 -0.054062277 1.7130001
-0.072083041 -0.04955709 1.7130001
-0.064574383 -0.04755478 1.7129999
-0.055564005 -0.04655363 1.7129999
-0.04655363 -0.045051903 1.7130001
-0.034539789 -0.036041521 1.7130001
-0.024928717 -0.033338405 1.7130001
-0.016519031 -0.032287195 1.7130001
-0.01201384 -0.02853287 1.7130001
-0.0052560549 -0.023276815 1.7130001
0.0030034599 -0.022525949 1.7130001
0.00750865 -0.01952249 1.7130001
0.015017301 -0.017269894 1.7130001
0.025529409 -0.01051211 1.7129999
0.03153633 -0.01051211 1.7130001
0.034539789 -0.00750865 1.7129999
0.045051899 -0.0067577846 1.7130001
0.054813147 -0.002252595 1.7130001
0.063072659 -0.0015017299 1.7130001
0.065325253 0.0022525948 1.7130001
0.075086497 0.0060069198 1.7130001
0.082595147 0.00750865 1.7130001
0.079591691 0.01051211 1.7130001
0.084997915 0.012314186 1.7130001
0.095359854 0.015768165 1.7130001
0.10512109 0.01802076 1.7130002
0.11413148 0.01952249 1.7130001
0.11763552 0.023527103 1.7129999
0.12464359 0.025529409 1.7130001
0.13365397 0.02703114 1.7130002
0.1374083 0.032287195 1.7130001
0.14767011 0.035540942 1.7129999
0.1546782 0.036041521 1.7130002
0.16519029 0.037543248 1.7130001
0.14867127 0.040546712 1.7130001
0.16635831 0.042882733 1.7130002
0.17532697 0.045051899 1.7130002
0.18170933 0.04655363 1.7129999
0.18471278 0.055564005 1.7129999
0.18471278 0.064574391 1.7129999
0.17750448 0.075386845 1.7130001
0.18170933 0.073584765 1.7129999
-0.16068511 0.33488578 1.7130001
-0.15553632 0.33445671 1.7130002
-0.14566781 0.33188233 1.7129999
-0.16068511 0.34389615 1.7129999
-0.15768164 0.34539789 1.7130001
-0.15317646 0.35591 1.7130001
-0.14867127 0.35440826 1.7130001
-0.1546782 0.36612177 1.7130001
-0.14867127 0.36191693 1.7130001
-0.16143596 0.37468165 1.7130001
-0.15517877 0.37343022 1.7130002
-0.14867127 0.3709273 1.7130001
-0.16368857 0.3859446 1.7130001
-0.15317646 0.39195153 1.7130001
-0.14867127 0.39195153 1.7130001
-0.20228907 -0.47251105 1.7220001
-0.2037987 -0.46496296 1.7220001
-0.22493339 -0.45137638 1.7220001
-0.21587567 -0.45288599 1.7220001
-0.20530832 -0.45439568 1.7220001
-0.23097186 -0.44231865 1.7220001
-0.22493336 -0.44533789 1.7220001
-0.21587567 -0.44533789 1.7220001
-0.20530832 -0.44533786 1.7220001
-0.23172668 -0.43552536 1.7220001
-0.2249334 -0.43477055 1.7220001
-0.21587567 -0.43477055 1.7220001
-0.20462213 -0.4335354 1.7220001
-0.23217957 -0.42480707 1.7220001
-0.22493339 -0.42420325 1.7220001
-0.21587567 -0.42420322 1.7220001
-0.20631474 -0.42319679 1.7220001
-0.19776022 -0.42571282 1.7220001
-0.23248148 -0.41514552 1.7220001
-0.22493336 -0.41514552 1.7220001
-0.21630695 -0.41600814 1.7220001
-0.2045535 -0.41740993 1.7220001
-0.19776022 -0.41212624 1.7220001
-0.23248148 -0.40457815 1.7220001
-0.22493339 -0.40457818 1.7220001
-0.21615013 -0.40416649 1.7220001
-0.20581155 -0.40306851 1.7220001
-0.19776022 -0.40910703 1.7220001
-0.23355977 -0.39314815 1.7220001
-0.22493339 -0.39401081 1.7220001
-0.21587566 -0.39401081 1.7220001
-0.20544554 -0.39373636 1.7220001
-0.23312846 -0.38538441 1.7220001
-0.22493339 -0.38495308 1.7220001
-0.21587566 -0.38495311 1.7220001
-0.2053083 -0.38495311 1.7220001
-0.23248148 -0.37589538 1.7220001
-0.22493339 -0.37589538 1.7220001
-0.21587566 -0.37589538 1.7220001
-0.20530832 -0.37589541 1.7220001
-0.23197825 -0.36532804 1.7220001
-0.22465892 -0.36519077 1.7220001
-0.21587563 -0.36532798 1.7220001
-0.2062141 -0.36713955 1.7220001
-0.23097186 -0.35476074 1.7220001
-0.22493339 -0.35476074 1.7220001
-0.2188949 -0.35476074 1.7220001
-0.23097186 -0.34570298 1.7220001
-0.22493339 -0.34570301 1.7220001
-0.2188949 -0.34721261 1.7220001
-0.17179474 -0.082425259 1.7220001
-0.16454858 -0.081519485 1.7220001
-0.15549086 -0.080009863 1.7220001
-0.14945237 -0.080009863 1.7220001
-0.17662555 -0.076990619 1.7220001
-0.16152933 -0.076990619 1.7220001
-0.15549086 -0.076990619 1.7220001
-0.14427653 -0.075696662 1.7220001
-0.13435619 -0.075480998 1.7220001
-0.12605327 -0.074726187 1.7220001
-0.11473112 -0.071706951 1.7220001
-0.11020226 -0.067932896 1.7220001
-0.10476764 -0.066121355 1.7220001
-0.095106065 -0.062900834 1.7220001
-0.089067578 -0.061894421 1.7220001
-0.083029099 -0.058875185 1.7220001
-0.073971368 -0.055352733 1.7220001
-0.065668471 -0.053591512 1.7220001
-0.057365559 -0.052836701 1.7220001
-0.063404039 -0.049817462 1.7220001
-0.055855941 -0.049817462 1.7220001
-0.044382825 -0.04559052 1.7220001
-0.034721259 -0.040759739 1.7220001
-0.033211641 -0.037740499 1.7220001
-0.02566354 -0.037740499 1.7220001
-0.01434139 -0.035853472 1.7220001
-0.003925012 -0.027475083 1.7220001
0.0045288601 -0.02566354 1.7220001
0.01207696 -0.0226443 1.7220001
0.01811544 -0.01811544 1.7220001
0.02566354 -0.01358658 1.7220001
0.036230877 -0.01056734 1.7220001
0.043778975 -0.01056734 1.7220001
0.049817462 -0.0075480998 1.7220001
0.056459792 -0.006340404 1.7220001
0.064158849 -0.0045288601 1.7220001
0.07095214 -0.00150962 1.7220001
0.073971383 0.0025160334 1.7220001
0.08484064 0.0057365559 1.7220001
0.092086822 0.0075480998 1.7220001
0.089067578 0.01056734 1.7220001
0.095860869 0.01132215 1.7220001
0.10340897 0.01283177 1.7220001
0.11473112 0.016605821 1.7220001
0.12605327 0.018870249 1.7220001
0.12680808 0.0226443 1.7220001
0.13435619 0.022644302 1.7220001
0.14374937 0.026334481 1.7220001
0.15398124 0.02868278 1.7220001
0.14643313 0.031702019 1.7220001
0.15549086 0.031702019 1.7220001
0.16454858 0.034721259 1.7220001
0.17360631 0.036230877 1.7220001
0.17813516 0.040759739 1.7220001
0.18628709 0.046798218 1.7220001
0.18870251 0.055855941 1.7220001
0.19292943 0.056459792 1.7220001
0.18870251 0.06491366 1.7220001
0.19323136 0.06491366 1.7220001
0.18719289 0.072461754 1.7220001
0.17964478 0.080009863 1.7220001
0.18266402 0.080009863 1.7220001
-0.15247162 0.33815485 1.7220001
-0.14492351 0.33815485 1.7220001
-0.15398124 0.34570301 1.7220001
-0.14265908 0.34494817 1.7220001
-0.15398124 0.35325107 1.7220001
-0.14794275 0.3532511 1.7220001
-0.15247162 0.36532801 1.7220001
-0.14945237 0.36834729 1.7220001
-0.15473606 0.37815979 1.7220001
-0.14844596 0.37690178 1.7220001
-0.16273704 0.38434929 1.7220001
-0.15549086 0.38533047 1.7220001
-0.14794277 0.38495311 1.7220001
-0.16303895 0.39401081 1.7220001
-0.15592217 0.39401081 1.7220001
-0.14844596 0.39300442 1.7220001
-0.16303895 0.4000493 1.7220001
-0.15662307 0.40420079 1.7220001
-0.16152933 0.41816473 1.7220001
-0.1585101 0.41212624 1.7220001
-0.16152933 0.42722246 1.7220001
-0.19564717 -0.49343738 1.739
-0.21190874 -0.48022485 1.7390001
-0.20377795 -0.48429024 1.739
-0.19504991 -0.4854908 1.7382002
-0.18490317 -0.48465863 1.7374001
-0.17575574 -0.48240277 1.7390002
-0.2133619 -0.47315961 1.7310002
-0.20562261 -0.47725689 1.7310001
-0.19537941 -0.47460124 1.7310001
-0.18555008 -0.47470474 1.7310002
-0.17504664 -0.47492191 1.7363335
-0.16617303 -0.47229734 1.7390001
-0.22105062 -0.46385226 1.7310001
-0.21396892 -0.46587557 1.7310001
-0.19575877 -0.46587557 1.7310001
-0.18513621 -0.4658756 1.7310003
-0.17477936 -0.46659172 1.7336667
-0.16704419 -0.46541521 1.7390002
-0.22357982 -0.45778215 1.7310001
-0.21548641 -0.45980552 1.7310001
-0.1957588 -0.45525301 1.7310003
-0.18513621 -0.45525301 1.7310004
-0.17451365 -0.45525301 1.7310003
-0.16693299 -0.45596647 1.7378572
-0.19575879 -0.44463041 1.7310001
-0.1851362 -0.44463038 1.7310003
-0.17498296 -0.44430104 1.7356669
-0.16820574 -0.44617715 1.7390002
-0.19575879 -0.43552539 1.7310001
-0.18518654 -0.43580145 1.7355716
-0.17653979 -0.43570876 1.7390001
-0.19515178 -0.42429581 1.7310002
-0.18574865 -0.42467171 1.7327145
-0.17714959 -0.42595178 1.7390001
-0.23369655 -0.41731524 1.7310001
-0.19489165 -0.4147138 1.7310001
-0.18504283 -0.41440028 1.7334619
-0.17836922 -0.41467035 1.7390001
-0.19523945 -0.40475264 1.7318001
-0.18574643 -0.40457863 1.7334616
-0.24128409 -0.39303508 1.7310001
-0.23673156 -0.39910513 1.7310001
-0.19483887 -0.39485359 1.733667
-0.18599182 -0.39485154 1.7390002
-0.24239922 -0.3857044 1.739
-0.23824906 -0.38393006 1.7310001
-0.19550666 -0.38494471 1.7342001
-0.18751636 -0.38875344 1.7390001
-0.24239922 -0.37503272 1.7390001
-0.23824906 -0.37482497 1.7310001
-0.19505745 -0.37478083 1.7346364
-0.18568692 -0.37228861 1.7390001
-0.24364495 -0.36394203 1.7370002
-0.23703507 -0.36632687 1.7310002
-0.22914401 -0.36875492 1.7310001
-0.20456353 -0.36378953 1.7321428
-0.19514325 -0.36501452 1.7363336
-0.18446732 -0.36436111 1.7390002
-0.17836922 -0.36283654 1.7390001
-0.24354663 -0.35584766 1.7378572
-0.23673156 -0.35509732 1.7310001
-0.21396892 -0.35509732 1.7310003
-0.20556758 -0.35542625 1.7346364
-0.19564717 -0.35521394 1.7390002
-0.18484844 -0.35559505 1.7390002
-0.17836922 -0.35673845 1.7390001
-0.24316147 -0.34530455 1.7390001
-0.23655109 -0.34471947 1.7344286
-0.22368097 -0.34204674 1.7310002
-0.21396892 -0.34447479 1.7310001
-0.20538674 -0.34536237 1.7354445
-0.24300902 -0.33630985 1.7390001
-0.23467493 -0.33569998 1.7390002
-0.22358947 -0.33461666 1.7350001
-0.21429853 -0.33436063 1.7336669
-0.20549272 -0.33487615 1.7363335
-0.23020302 -0.32777253 1.7390001
-0.22410493 -0.32777253 1.739
-0.21556759 -0.3265529 1.7390001
-0.20733517 -0.32777253 1.7390001
-0.17532019 -0.092995919 1.739
-0.16464852 -0.092995919 1.7390001
-0.15397686 -0.092995919 1.739
-0.14787877 -0.092995919 1.7390001
-0.18365139 -0.084714614 1.7339092
-0.17593159 -0.086557187 1.732143
-0.1654086 -0.088015579 1.7310001
-0.15484388 -0.086532563 1.7316669
-0.14438437 -0.08511731 1.7336669
-0.13561298 -0.084231369 1.7342001
-0.12593251 -0.08256425 1.7360002
-0.11586377 -0.080799736 1.7390001
-0.12443582 -0.07739301 1.7310001
-0.11468039 -0.076092288 1.7310001
-0.10526904 -0.074110985 1.7340001
-0.096693262 -0.072332449 1.7370002
-0.10167317 -0.068287946 1.7310001
-0.095081687 -0.067137055 1.7326
-0.085137658 -0.065377757 1.7342001
-0.074630104 -0.063667566 1.7374001
-0.067079023 -0.062505454 1.7390001
-0.072840482 -0.05918289 1.7310001
-0.064703435 -0.058023583 1.7326
-0.054696985 -0.056216251 1.7330002
-0.044487108 -0.052857962 1.735
-0.038113084 -0.050309271 1.7390001
-0.040972769 -0.047042809 1.7310001
-0.034927271 -0.045561537 1.7323333
-0.026221756 -0.043708187 1.7340001
-0.015618294 -0.04380966 1.7339092
-0.0045735701 -0.041162129 1.739
0.0015245234 -0.041162129 1.7390001
-0.0045533087 -0.034922212 1.731889
0.0041836724 -0.034607515 1.7350001
0.01372071 -0.032014988 1.739
0.0060700402 -0.028832689 1.7310001
0.015808055 -0.026443249 1.7334001
0.025307089 -0.02408747 1.7390001
0.035064038 -0.022867849 1.739
0.041162129 -0.022867849 1.7390001
0.019727631 -0.019727631 1.7310001
0.025839752 -0.018240511 1.7336668
0.0349565 -0.016723001 1.7336668
0.044075586 -0.016723 1.7336669
0.054461513 -0.014914611 1.7352669
0.065099731 -0.013327304 1.7370002
0.072668947 -0.011688012 1.739
0.067276269 -0.0065758764 1.7310001
0.074825034 -0.0049406746 1.7330002
0.084687755 -0.003962358 1.7374003
0.095282711 -0.002286785 1.7390001
0.10458229 -0.002744142 1.7390001
0.11281472 -0.0015245234 1.7390001
0.07739301 0.00151751 1.7310001
0.085891061 0.002124514 1.7310002
0.096094713 0.0041749058 1.733
0.10497859 0.004559543 1.7354445
0.11422392 0.0045657773 1.7372223
0.12440111 0.0051833801 1.7390001
0.13568258 0.0076226168 1.7390001
0.1062257 0.01062257 1.7310001
0.11646891 0.012519458 1.7310001
0.12571771 0.013290486 1.733
0.13495269 0.015603631 1.7331821
0.14455326 0.015209581 1.7356668
0.15353027 0.016141711 1.7374003
0.16464853 0.018294279 1.7390002
0.17379566 0.019818803 1.7390001
0.14719847 0.022762651 1.7310001
0.15529187 0.024785995 1.7310001
0.16566497 0.025834294 1.7336668
0.17487366 0.025845982 1.7345556
0.18273416 0.027408106 1.737
0.16540858 0.031867709 1.7310001
0.17527241 0.032626465 1.7310001
0.18390626 0.0349565 1.7336667
0.19259812 0.036080386 1.7390002
0.18795295 0.043059234 1.7336668
0.19544767 0.044162862 1.7372223
0.20581065 0.044211175 1.7390002
0.21190874 0.047260225 1.7390001
0.19719076 0.053145912 1.732143
0.20557745 0.054817963 1.7370003
0.21468061 0.055298623 1.7390002
0.19879381 0.06525293 1.7310001
0.20549972 0.065453976 1.7363334
0.21495779 0.065990083 1.7390002
0.22715397 0.068603553 1.7390001
0.23020302 0.068603553 1.7390001
0.18817124 0.07739301 1.7310001
0.19575877 0.074357986 1.7310001
0.20539296 0.074552029 1.7354445
0.21546596 0.073685296 1.7390002
0.22715397 0.074701644 1.739
0.23223573 0.073685296 1.7390002
0.18665373 0.080428027 1.7310001
0.19564717 0.080799736 1.739
0.20581065 0.080799736 1.739
0.21522211 0.081372634 1.7350001
-0.15023349 0.3475098 1.7310001
-0.14568096 0.34599227 1.7310001
-0.15023349 0.35054481 1.7310001
-0.14568096 0.35206231 1.7310001
-0.16495728 0.4067637 1.7326
-0.15124516 0.40416351 1.7310001
-0.16566809 0.4139021 1.7336668
-0.15644801 0.414666 1.7326
-0.1660156 0.42490283 1.7310002
-0.1573939 0.42529038 1.731889
-0.20227855 -0.49190468 1.748
-0.19257329 -0.49701273 1.748
-0.18542202 -0.49496952 1.7479999
-0.17622752 -0.49343708 1.748
-0.20074615 -0.48883986 1.748
-0.17193678 -0.48700094 1.7479999
-0.16435133 -0.48539191 1.748
-0.15630615 -0.48577502 1.748
-0.17009787 -0.47964537 1.748
-0.16309254 -0.47658053 1.748
-0.15599968 -0.47412866 1.7479999
-0.16212931 -0.4649342 1.7479999
-0.1624358 -0.45512676 1.748
-0.16358513 -0.44554913 1.748
-0.17248163 -0.43469456 1.748
-0.16511753 -0.43635467 1.748
-0.1727796 -0.42409539 1.748
-0.16703305 -0.42754331 1.748
-0.1731627 -0.41528401 1.748
-0.18235719 -0.4030247 1.748
-0.17724915 -0.40711117 1.748
-0.18297015 -0.39444321 1.7479999
-0.17929237 -0.39536265 1.748
-0.24671854 -0.38616815 1.748
-0.19155167 -0.38463578 1.748
-0.185422 -0.38463572 1.748
-0.19155167 -0.37850609 1.748
-0.1838896 -0.37697369 1.748
-0.17929237 -0.37544122 1.748
-0.19155167 -0.36011714 1.748
-0.1757897 -0.36449546 1.748
-0.24825096 -0.35245508 1.748
-0.20074615 -0.35398746 1.748
-0.19385029 -0.35168886 1.748
-0.18465582 -0.35168886 1.748
-0.17561457 -0.3552134 1.7479999
-0.24876176 -0.34479299 1.748
-0.20074613 -0.34479299 1.748
-0.19645539 -0.34540597 1.7479999
-0.25284821 -0.3355985 1.748
-0.24825096 -0.3355985 1.748
-0.23752406 -0.33253369 1.748
-0.20074613 -0.33559856 1.748
-0.19768132 -0.33713093 1.748
-0.25284821 -0.32793647 1.748
-0.24518614 -0.32487163 1.7479997
-0.23473786 -0.32445371 1.7479999
-0.22526476 -0.32333922 1.748
-0.21563242 -0.32246354 1.748
-0.20656934 -0.3239522 1.7479999
-0.24403682 -0.31337854 1.748
-0.23445924 -0.31414473 1.748
-0.22526476 -0.31414473 1.748
-0.21607028 -0.31414473 1.748
-0.2068758 -0.31414476 1.748
-0.24058889 -0.30648267 1.748
-0.23445924 -0.30495024 1.748
-0.22526473 -0.30495024 1.748
-0.21607028 -0.30495024 1.748
-0.20725891 -0.30495024 1.748
-0.24365371 -0.29537266 1.748
-0.23445924 -0.29575577 1.748
-0.22526476 -0.29575577 1.748
-0.21607028 -0.29575574 1.748
-0.20789742 -0.29626659 1.748
-0.24331321 -0.28383699 1.748
-0.23445924 -0.2850289 1.7479998
-0.22526477 -0.2850289 1.7479998
-0.21634889 -0.28516817 1.7479999
-0.20994063 -0.28962612 1.748
-0.24212131 -0.27736682 1.748
-0.23445924 -0.27552795 1.7479999
-0.22449854 -0.2766006 1.748
-0.2183689 -0.27506819 1.748
-0.23445924 -0.26663992 1.748
-0.18542202 -0.092455603 1.748
-0.17469512 -0.096542038 1.748
-0.16396822 -0.096542038 1.748
-0.15477374 -0.096542038 1.748
-0.14557926 -0.094498821 1.748
-0.13638479 -0.090412386 1.748
-0.19308409 -0.08734756 1.748
-0.12412548 -0.085815147 1.748
-0.11416479 -0.083516523 1.748
-0.10726893 -0.081217907 1.748
-0.10267169 -0.078153081 1.748
-0.095009625 -0.075088255 1.748
-0.085815147 -0.072023429 1.748
-0.081217907 -0.068958603 1.748
-0.075088255 -0.0681924 1.748
-0.065893769 -0.064872161 1.748
-0.058231708 -0.062828943 1.748
-0.052102052 -0.059764121 1.748
-0.044439986 -0.058231708 1.748
-0.035858475 -0.053021502 1.7479999
-0.027583439 -0.050569639 1.748
-0.0229862 -0.047504812 1.748
-0.010726893 -0.047504812 1.748
-0.0061296532 -0.044439986 1.748
0.0045972401 -0.04137516 1.748
0.0076620667 -0.038310334 1.748
0.014302523 -0.035756312 1.748
0.026051028 -0.028094245 1.748
0.035245508 -0.026051024 1.748
0.044439986 -0.024518613 1.748
0.052102052 -0.0229862 1.748
0.059764121 -0.019921374 1.748
0.065893769 -0.018388961 1.748
0.075854458 -0.01379172 1.748
0.084282734 -0.010726894 1.748
0.1042041 -0.010726893 1.748
0.08734756 -0.0076620667 1.748
0.095929071 -0.0064361366 1.7479999
0.10650272 -0.0068958602 1.748
0.11493101 -0.0045972401 1.7479999
0.12208226 -0.0025540222 1.748
0.13025513 -0.0015324133 1.748
0.12719031 0.0015324133 1.748
0.13331996 0.0039842748 1.7479999
0.14251444 0.0061296532 1.748
0.13944961 0.010726893 1.748
0.15630615 0.010726893 1.748
0.16396822 0.01379172 1.748
0.17561457 0.016856547 1.7479999
0.1838896 0.018388961 1.748
0.18618822 0.025284819 1.748
0.1946165 0.029115854 1.748
0.20227855 0.026051026 1.748
0.1966597 0.033202287 1.748
0.20534338 0.035245504 1.7479998
0.21555948 0.036267117 1.748
0.22424315 0.037288725 1.748
0.20074615 0.04137516 1.748
0.21645337 0.044056881 1.748
0.22373235 0.044439986 1.748
0.21913511 0.050569639 1.748
0.22498614 0.055584814 1.7479999
0.23139441 0.056699291 1.748
0.21607028 0.064361356 1.748
0.22488165 0.065510668 1.748
0.23369303 0.06665998 1.748
0.24058889 0.068958603 1.748
0.21504867 0.077131473 1.748
0.22373235 0.075088255 1.748
0.22219993 0.081217907 1.748
-0.1731627 0.41528404 1.748
-0.17097367 -0.49597767 1.7570001
-0.16437237 -0.49531755 1.7570001
-0.15595572 -0.49405232 1.7570001
-0.15513055 -0.4843154 1.7570001
-0.14863928 -0.4859657 1.7570001
-0.15403034 -0.47518358 1.7570001
-0.14817718 -0.47533759 1.7570002
-0.15557064 -0.46517161 1.7570001
-0.14940943 -0.46568504 1.7570001
-0.15557064 -0.45438951 1.7570001
-0.14940943 -0.45438948 1.7570001
-0.15557064 -0.44514766 1.7570001
-0.14940943 -0.44206706 1.7570001
-0.16250201 -0.43513569 1.7570001
-0.15557064 -0.43590587 1.7570001
-0.14863928 -0.43513569 1.7570001
-0.16453241 -0.42470363 1.7570001
-0.15557064 -0.42512372 1.7570001
-0.14786913 -0.42512375 1.7570001
-0.17097367 -0.41126099 1.7570001
-0.16481246 -0.41434163 1.7570001
-0.15557064 -0.41434163 1.7570001
-0.14940943 -0.4158819 1.7570001
-0.1736692 -0.40471473 1.7570001
-0.16519754 -0.40548488 1.7570001
-0.15711094 -0.40664008 1.7570001
-0.17405428 -0.39585799 1.7570001
-0.16789307 -0.39739826 1.7570001
-0.18021549 -0.38661614 1.7570001
-0.17559458 -0.38507587 1.7570001
-0.1736692 -0.37467882 1.7570001
-0.16789307 -0.37121311 1.7570001
-0.17174383 -0.36582205 1.7570001
-0.16789307 -0.3650519 1.7570001
-0.18021549 -0.35272947 1.7570001
-0.17328413 -0.35503992 1.7570001
-0.16712292 -0.35658023 1.7570001
-0.19356479 -0.34400108 1.7570001
-0.18527651 -0.3456881 1.7570001
-0.17405428 -0.34810856 1.7570001
-0.20177974 -0.33116522 1.7570001
-0.19523345 -0.33386078 1.7570001
-0.18945731 -0.33424583 1.7570001
-0.20177974 -0.32500401 1.7570001
-0.19561853 -0.32500401 1.7570001
-0.25106946 -0.31576219 1.7570001
-0.24644853 -0.3188428 1.7570001
-0.20177974 -0.31576219 1.7570001
-0.19715883 -0.31576219 1.7570001
-0.25106946 -0.30498007 1.7570001
-0.24567838 -0.30536515 1.7570001
-0.20254989 -0.30498007 1.7570001
-0.19664539 -0.30138603 1.7570001
-0.25260976 -0.29419795 1.7570001
-0.24644853 -0.29111734 1.7570001
-0.2060926 -0.29419795 1.7570002
-0.26031128 -0.28187552 1.7570001
-0.25376499 -0.28457105 1.7570001
-0.24490823 -0.28803673 1.7570001
-0.21179171 -0.28495613 1.7570001
-0.20640065 -0.28495613 1.7570001
-0.25415006 -0.27571431 1.7570001
-0.24534832 -0.27483413 1.7570001
-0.23566641 -0.274174 1.7570001
-0.22704072 -0.27386594 1.7570002
-0.21371709 -0.27532923 1.7570001
-0.20640065 -0.27571431 1.7570001
-0.26031128 -0.2695531 1.7570001
-0.25376499 -0.26685756 1.7570001
-0.24490826 -0.26493222 1.7570001
-0.23566642 -0.26431608 1.7570002
-0.22488433 -0.26493222 1.7570001
-0.21410219 -0.26493222 1.7570001
-0.20640065 -0.26647249 1.7570001
-0.24305987 -0.25476617 1.7570002
-0.23566641 -0.25415006 1.7570001
-0.22642459 -0.25547031 1.7570001
-0.24182762 -0.24798883 1.7570001
-0.23628254 -0.2467566 1.7570002
-0.1832961 -0.10166002 1.7570001
-0.17405428 -0.10166002 1.7570001
-0.16481246 -0.10011972 1.7570001
-0.15403034 -0.10011972 1.7570001
-0.19356479 -0.091904767 1.7570001
-0.18714686 -0.096268959 1.7570001
-0.14324822 -0.096012242 1.7570001
-0.1340064 -0.091904767 1.7570001
-0.12784518 -0.090877898 1.7570001
-0.20177974 -0.087797292 1.7570001
-0.19869913 -0.087797292 1.7570001
-0.12322427 -0.087797292 1.7570001
-0.11552275 -0.087797292 1.7570001
-0.10525406 -0.084203251 1.7570001
-0.093958504 -0.077528603 1.7570001
-0.084716685 -0.074447997 1.7570001
-0.075474866 -0.072394259 1.7570001
-0.064692743 -0.06777335 1.7570001
-0.053910617 -0.064179309 1.7570001
-0.044668797 -0.061098699 1.7570001
-0.038507584 -0.06007183 1.7570001
-0.03337324 -0.055964354 1.7570001
-0.024336793 -0.052678376 1.7570002
-0.01386273 -0.05083001 1.7570001
-0.0046209102 -0.046209101 1.7570001
0.0046209102 -0.043641929 1.7570001
0.016943337 -0.038507584 1.7570001
0.024336793 -0.033578612 1.7570002
0.029265763 -0.029265763 1.7570001
0.035426978 -0.029265763 1.7570001
0.044668797 -0.028238894 1.7570001
0.054680768 -0.025415005 1.7570001
0.077015169 -0.016943337 1.7570001
0.084100559 -0.015094973 1.7570002
0.093188353 -0.011552275 1.7570001
0.10474063 -0.012322427 1.7570001
0.11552275 -0.010782124 1.7570001
0.12168396 -0.010782124 1.7570001
0.097039111 -0.0077015166 1.7570001
0.11706305 -0.0077015166 1.7570001
0.12476457 -0.0046209102 1.7570001
0.13297953 -0.0046209102 1.7570001
0.137087 0.0015403033 1.7570001
0.14273478 0.0046209102 1.7570001
0.15454377 0.005647779 1.7570001
0.16481246 0.0077015166 1.7570001
0.16327216 0.010782124 1.7570001
0.17559458 0.012322427 1.7570001
0.1832961 0.01386273 1.7570001
0.19869913 0.016943337 1.7570001
0.20177974 0.016943337 1.7570001
0.18945731 0.02310455 1.7570001
0.19561853 0.02310455 1.7570001
0.20486034 0.024815999 1.7570001
0.21366207 0.027065331 1.7570001
0.22272786 0.028033521 1.7570002
0.21410216 0.032346372 1.7570001
0.22526936 0.034271751 1.7570001
0.2325858 0.038507584 1.7570001
0.2295052 0.044668797 1.7570001
0.2325858 0.044668797 1.7570001
0.2295052 0.05083001 1.7570001
0.23412611 0.053910617 1.7570001
0.23566641 0.064692743 1.7570001
-0.15017475 -0.49542186 1.766
-0.14359494 -0.4942607 1.7659999
-0.1377892 -0.49077728 1.766
-0.14398199 -0.48458454 1.7659999
-0.1430973 -0.47485301 1.7659999
-0.13507988 -0.47490826 1.7659999
-0.15017475 -0.46600619 1.766
-0.14398198 -0.46600616 1.7659999
-0.13557748 -0.46644855 1.7659999
-0.15017475 -0.45362067 1.766
-0.14398198 -0.45516884 1.7660002
-0.13469282 -0.45516884 1.7660002
-0.15017475 -0.44742787 1.766
-0.14398198 -0.44433144 1.7659999
-0.13469282 -0.4443315 1.7659999
-0.12850004 -0.4443315 1.7660002
-0.1430973 -0.43548468 1.7659999
-0.13469282 -0.43504235 1.7659999
-0.12850004 -0.43659052 1.766
-0.14243379 -0.42575315 1.7659999
-0.13624102 -0.42730135 1.766
-0.15120687 -0.41130337 1.7660002
-0.14460126 -0.41553506 1.766
-0.16359243 -0.40201417 1.7660002
-0.15420005 -0.40345922 1.766
-0.14707837 -0.40562665 1.766
-0.17184946 -0.39169291 1.766
-0.16526963 -0.39440224 1.7659999
-0.15481934 -0.39478931 1.7660002
-0.14707837 -0.39478931 1.7660002
-0.17184944 -0.38550016 1.7660002
-0.1656567 -0.38550013 1.7659999
-0.15481932 -0.38550016 1.7660002
-0.14583981 -0.38488084 1.766
-0.16503741 -0.37528202 1.766
-0.15481934 -0.37466282 1.7660003
-0.14604624 -0.3756949 1.7659999
-0.16379884 -0.3644447 1.766
-0.15725221 -0.3642678 1.7659999
-0.17391372 -0.35247204 1.7660002
-0.16514061 -0.35453629 1.7659999
-0.15843178 -0.35660052 1.7660002
-0.18268681 -0.34215072 1.766
-0.17494583 -0.34486002 1.7659999
-0.16654137 -0.34568945 1.7659999
-0.18423502 -0.33595797 1.7659999
-0.17494583 -0.33595797 1.7659999
-0.16797899 -0.33673203 1.766
-0.19104706 -0.32419172 1.766
-0.18423499 -0.32512057 1.7660002
-0.17556512 -0.32852662 1.766
-0.19352417 -0.31350914 1.7659999
-0.18423502 -0.31428325 1.7659999
-0.20281333 -0.30809048 1.766
-0.19421226 -0.30568215 1.7659999
-0.18423502 -0.30499408 1.7659999
-0.20281333 -0.29570493 1.7660002
-0.19507235 -0.2957049 1.7660002
-0.1851197 -0.29614729 1.7659999
-0.17804223 -0.2988013 1.766
-0.26164466 -0.28331935 1.766
-0.25854829 -0.28951216 1.766
-0.20281333 -0.28486758 1.766
-0.19750524 -0.28641579 1.7659999
-0.26164466 -0.27557841 1.766
-0.20281333 -0.27557841 1.766
-0.26164466 -0.26628923 1.766
-0.256226 -0.26241875 1.766
-0.20590971 -0.26370892 1.7660002
-0.26164466 -0.25235552 1.766
-0.25506487 -0.25506485 1.7659999
-0.24848503 -0.2546778 1.766
-0.22386876 -0.25359407 1.766
-0.21564122 -0.25633654 1.7659999
-0.2074579 -0.25854829 1.766
-0.26164466 -0.24925913 1.766
-0.25235552 -0.24771094 1.766
-0.24616274 -0.24616273 1.7659999
-0.2337772 -0.24483572 1.7659999
-0.22634587 -0.24678202 1.766
-0.2353254 -0.23996997 1.766
-0.19166633 -0.10310967 1.766
-0.18500909 -0.10759944 1.766
-0.17494583 -0.10682533 1.7660002
-0.16643079 -0.10450305 1.766
-0.15481934 -0.10063256 1.766
-0.14707837 -0.10063256 1.766
-0.20529047 -0.092581965 1.766
-0.19723983 -0.095059067 1.766
-0.14088559 -0.097536176 1.766
-0.1346928 -0.095471919 1.7660002
-0.12385546 -0.091343403 1.766
-0.1161145 -0.091343403 1.7660002
-0.10992172 -0.091343403 1.766
-0.10295485 -0.087472923 1.766
-0.096504055 -0.083086371 1.7660002
-0.091343403 -0.078957863 1.766
-0.085150629 -0.077925734 1.7660002
-0.07740967 -0.075861476 1.766
-0.069668703 -0.07276509 1.766
-0.063475929 -0.069668703 1.766
-0.052638572 -0.066572316 1.766
-0.044897605 -0.064508058 1.7660002
-0.035608448 -0.061411668 1.7660002
-0.023842176 -0.056663878 1.766
-0.015481934 -0.054186765 1.766
-0.0030963868 -0.047993992 1.766
0.0046445797 -0.046445798 1.766
0.013933741 -0.041801218 1.7660002
0.021674706 -0.041801218 1.766
0.025803221 -0.03767271 1.7659999
0.035166107 -0.034723762 1.7659999
0.044123508 -0.033286158 1.766
0.052638572 -0.032512061 1.766
0.047993992 -0.029415673 1.766
0.054186765 -0.029415673 1.7660002
0.064714484 -0.024151813 1.766
0.075861476 -0.020900609 1.766
0.085150629 -0.020126512 1.7660002
0.088247016 -0.017030127 1.766
0.095059074 -0.015791573 1.766
0.10527714 -0.015997998 1.7659999
0.1161145 -0.01393374 1.7660002
0.12540366 -0.012385546 1.766
0.13262856 -0.011869482 1.7660002
0.12746792 -0.006708838 1.7660002
0.13593137 -0.0052638571 1.766
0.1430973 -0.0042022392 1.7659999
0.15459816 -0.0028752163 1.7659999
0.16565669 -0.0015481933 1.7660002
0.17494585 -0.0015481933 1.7660002
0.14707837 0.0015481933 1.766
0.15464731 0.0043005371 1.7659999
0.16565667 0.0042575318 1.7659999
0.17494586 0.0046445802 1.7659999
0.18423501 0.0046445802 1.7659999
0.16875307 0.010837353 1.766
0.17184946 0.010837353 1.766
0.18423502 0.010837353 1.7660002
0.19610448 0.014965869 1.7659999
0.20590971 0.014449805 1.7659999
0.2131346 0.015997998 1.7660002
0.19042778 0.020126512 1.766
0.2090061 0.020126512 1.766
0.21519887 0.021674706 1.766
0.22448802 0.024255028 1.7660002
0.23222899 0.029415673 1.766
0.23687358 0.035608448 1.7659999
0.24306636 0.038704835 1.766
0.23842178 0.044897605 1.7659999
0.24306636 0.044897605 1.766
0.23873141 0.053567488 1.766
0.24306636 0.054186765 1.7660002
0.23919587 0.062701829 1.766
0.24306636 0.066572316 1.766
-0.13517244 -0.49525481 1.7760003
-0.12789315 -0.49444601 1.7760001
-0.13501067 -0.48510426 1.7760001
-0.12767072 -0.48421454 1.7760001
-0.12767072 -0.47487283 1.7760001
-0.13234159 -0.46708798 1.7760001
-0.12767072 -0.46553102 1.7760001
-0.12798211 -0.4555665 1.7760003
-0.12611376 -0.44529057 1.7760001
-0.13234159 -0.43127793 1.7760001
-0.12767072 -0.43439183 1.7760001
-0.13545553 -0.4245311 1.7760001
-0.12922768 -0.42816401 1.7760001
-0.14168335 -0.41415137 1.7760001
-0.13856944 -0.4157083 1.7760001
-0.14375931 -0.40463662 1.7760001
-0.14324032 -0.39391088 1.7760001
-0.13856944 -0.39079696 1.7760001
-0.14168335 -0.38456908 1.7760001
-0.13856944 -0.38612607 1.7760001
-0.14292893 -0.37460458 1.7760003
-0.15227069 -0.36526281 1.7760003
-0.14713272 -0.36666408 1.7760001
-0.16140485 -0.35239196 1.7760001
-0.15538462 -0.35592106 1.7760003
-0.16192384 -0.34408817 1.7760001
-0.15725295 -0.34408817 1.7760001
-0.16410358 -0.33443496 1.7760003
-0.15725295 -0.33474639 1.7760001
-0.17549165 -0.32451496 1.7760001
-0.1676327 -0.32644263 1.7760001
-0.17593649 -0.31606287 1.7760001
-0.16970864 -0.31917679 1.7760001
-0.17593649 -0.30516416 1.7760003
-0.16970864 -0.30205023 1.7760001
-0.19462 -0.29115152 1.7760001
-0.18403266 -0.29301986 1.7760003
-0.17593648 -0.29582241 1.7760001
-0.19423075 -0.28453445 1.7760001
-0.18761368 -0.28570217 1.7760001
-0.20162633 -0.27480346 1.7760001
-0.19773392 -0.27713889 1.7760001
-0.26001233 -0.26001233 1.7760001
-0.2024048 -0.26468322 1.7760001
-0.19773392 -0.26779711 1.7760001
-0.26001233 -0.25067055 1.7760001
-0.2568984 -0.25067055 1.7760001
-0.22264528 -0.25067055 1.7760001
-0.21369275 -0.25261673 1.7760001
-0.20707567 -0.25378448 1.7760001
-0.26001233 -0.24755664 1.7760001
-0.25300598 -0.24444273 1.7760001
-0.24599968 -0.24132881 1.7760001
-0.22472124 -0.24340476 1.7760001
-0.217663 -0.24568829 1.7760003
-0.25378448 -0.23665792 1.7760001
-0.24399789 -0.23599066 1.7760001
-0.23554578 -0.23599066 1.7760001
-0.22887312 -0.23821488 1.7760001
-0.24444272 -0.22887312 1.7760001
-0.23821488 -0.22887312 1.7760001
-0.2454807 -0.21434148 1.7760001
-0.24444272 -0.20551872 1.7760001
-0.2101896 -0.11054416 1.7760001
-0.20707569 -0.11054416 1.7760001
-0.19254404 -0.11158213 1.7760001
-0.18527824 -0.11313909 1.7760001
-0.17655925 -0.11178973 1.7760003
-0.16970864 -0.11054416 1.7760001
-0.2101896 -0.10431632 1.7760001
-0.20396177 -0.10431632 1.7760001
-0.19695544 -0.1050948 1.7760001
-0.1634808 -0.10639226 1.7760001
-0.15413904 -0.10431632 1.7760001
-0.14635424 -0.10275936 1.7760001
-0.21226554 -0.096012533 1.7760001
-0.20396177 -0.098088481 1.7760001
-0.13389856 -0.098088481 1.7760001
-0.12767072 -0.094974563 1.7760001
-0.11988592 -0.094974563 1.7760001
-0.10743024 -0.091860637 1.7760001
-0.094974555 -0.085632801 1.7760001
-0.087189764 -0.082518883 1.7760001
-0.082518883 -0.079404958 1.7760001
-0.076291047 -0.078366987 1.7760001
-0.06383536 -0.071620159 1.7760001
-0.056050561 -0.070063196 1.7760001
-0.043594882 -0.066949278 1.7760001
-0.035810079 -0.065392315 1.7760001
-0.02646832 -0.060721438 1.7760001
-0.014012639 -0.056569546 1.7760001
-0.0062278397 -0.051379681 1.7760001
0.0062278397 -0.048265759 1.7760001
0.014012639 -0.045151841 1.7760001
0.025578629 -0.044706997 1.7760001
0.035187297 -0.043283489 1.7760003
0.037367038 -0.038924001 1.7760001
0.045774624 -0.037678432 1.7760003
0.054493599 -0.035810083 1.7760003
0.063212574 -0.033941727 1.7760003
0.070063196 -0.032696161 1.7760001
0.065392315 -0.02958224 1.7760001
0.074561082 -0.026814308 1.7760001
0.085187957 -0.025578627 1.7760001
0.094974555 -0.021797441 1.7760001
0.10431632 -0.02024048 1.7760001
0.11210112 -0.02024048 1.7760001
0.116772 -0.01712656 1.7760001
0.12689224 -0.016348081 1.7760001
0.13670108 -0.014635424 1.7760003
0.14417449 -0.012144288 1.7760003
0.15324935 -0.013567795 1.7760001
0.16270232 -0.0116772 1.7760001
0.17282256 -0.01089872 1.7760001
0.14791121 -0.0062278397 1.7760001
0.15491752 -0.0070063202 1.7760001
0.16570501 -0.0064502624 1.7760001
0.1753137 -0.0059164483 1.7760003
0.18527824 -0.0031139199 1.7760001
0.19524279 0.0065392321 1.7760003
0.20188582 0.0067468267 1.7760001
0.2101896 0.0077848001 1.7760001
0.19399722 0.012144288 1.7760003
0.20707569 0.01089872 1.7760001
0.21641743 0.012678102 1.7760001
0.22575919 0.015880993 1.7760003
0.23198704 0.0155696 1.7760001
0.21953136 0.02024048 1.7760001
0.22653769 0.02101896 1.7760001
0.23510095 0.024911361 1.7760001
0.24444273 0.025845537 1.7760003
0.25378448 0.02958224 1.7760001
0.2454807 0.034772109 1.7760001
0.25378448 0.036254931 1.7760001
0.24677816 0.045151841 1.7760001
0.25339526 0.0447626 1.7760001
0.24755664 0.054493595 1.7760001
0.25289479 0.054938454 1.7760001
0.26468319 0.05293664 1.7760001
0.24599968 0.060721438 1.7760001
0.2531617 0.061967008 1.7760003
-0.1220583 -0.49605748 1.785
-0.11658133 -0.49605745 1.7850001
-0.1220583 -0.48510349 1.785
-0.11579891 -0.4819738 1.7850001
-0.1220583 -0.47414955 1.785
-0.11736375 -0.47414955 1.7850002
-0.12272894 -0.46431336 1.785
-0.11736375 -0.46632528 1.7850001
-0.12362316 -0.45537135 1.7850002
-0.12362316 -0.44598222 1.7850002
-0.12466639 -0.43398508 1.785
-0.13405548 -0.42198789 1.7850002
-0.1283177 -0.42563918 1.7850001
-0.13692439 -0.41390282 1.7850001
-0.13927165 -0.40529618 1.7850002
-0.13676789 -0.39528111 1.7850001
-0.13718519 -0.38390985 1.785
-0.14240135 -0.37086946 1.7850001
-0.13927165 -0.37556398 1.7850001
-0.14657427 -0.36461005 1.7850002
-0.1533553 -0.35522094 1.785
-0.14866075 -0.35522094 1.7850002
-0.1533553 -0.34583187 1.785
-0.14866075 -0.34896156 1.7850001
-0.16117954 -0.33018336 1.7850001
-0.15526789 -0.33470404 1.7850001
-0.16430925 -0.32392392 1.785
-0.15804985 -0.32705364 1.7850001
-0.17135108 -0.31375241 1.7850001
-0.16587409 -0.3160997 1.7850001
-0.17056865 -0.30827546 1.7850001
-0.16743894 -0.30514574 1.7850002
-0.17369835 -0.29419181 1.785
-0.16743895 -0.29888636 1.7850001
-0.1940414 -0.28010815 1.7850001
-0.18532297 -0.28413203 1.785
-0.17761047 -0.28871483 1.7850001
-0.19471204 -0.27384877 1.785
-0.18934685 -0.27384874 1.7850002
-0.20186564 -0.26132995 1.7850001
-0.19623218 -0.26508561 1.7850001
-0.20374349 -0.25569648 1.7850001
-0.19873595 -0.25820026 1.7850001
-0.257157 -0.24359499 1.7850002
-0.21393733 -0.24478723 1.785
-0.20812505 -0.24568145 1.7850002
-0.25417635 -0.23539816 1.785
-0.2472463 -0.23316264 1.7850001
-0.23271553 -0.23226845 1.785
-0.22377354 -0.23472749 1.785
-0.21438445 -0.2347275 1.785
-0.20812505 -0.23785719 1.7850001
-0.25194085 -0.22220871 1.7850001
-0.24529022 -0.22416475 1.785
-0.23458524 -0.22405806 1.785
-0.22377354 -0.22377355 1.7850001
-0.21438444 -0.22377354 1.7850001
-0.25194085 -0.21751414 1.7850001
-0.24442956 -0.21563633 1.7850001
-0.23511872 -0.21555808 1.785
-0.22586001 -0.21647091 1.7850002
-0.24255174 -0.20656019 1.7850001
-0.23785719 -0.20812505 1.7850001
-0.18308745 -0.20186564 1.7850001
-0.17682806 -0.20186564 1.7850001
-0.21281961 -0.12049345 1.7850001
-0.20812505 -0.1220583 1.7850001
-0.19247656 -0.12518799 1.7850001
-0.18934685 -0.12518799 1.7850001
-0.22064385 -0.11110435 1.7850001
-0.21438444 -0.11423404 1.785
-0.20499535 -0.11371244 1.785
-0.19638868 -0.11423405 1.7850001
-0.1846523 -0.11736375 1.7850001
-0.1752632 -0.11579891 1.7850001
-0.16743895 -0.1126692 1.7850001
-0.22189572 -0.10421902 1.7850001
-0.2159493 -0.10484495 1.785
-0.16117954 -0.10797465 1.7850001
-0.15492015 -0.10797465 1.7850002
-0.14474861 -0.10484496 1.7850001
-0.13614194 -0.10171524 1.7850002
-0.22064385 -0.098585546 1.7850001
-0.21542768 -0.097542316 1.7850002
-0.12487502 -0.097959608 1.7850001
-0.11423405 -0.095455848 1.7850002
-0.1032801 -0.092326149 1.7850001
-0.093369387 -0.088153221 1.7850002
-0.086066745 -0.085023522 1.7850002
-0.078242496 -0.082937047 1.7850001
-0.071983099 -0.078242496 1.7850001
-0.064158849 -0.073547952 1.7850001
-0.051640049 -0.070418246 1.7850001
-0.045380648 -0.071200669 1.7850001
-0.035991549 -0.071200669 1.7850001
-0.032861851 -0.067288548 1.7850001
-0.024098691 -0.063532911 1.7850001
-0.014866075 -0.061811574 1.7850001
-0.01095395 -0.057899449 1.7850001
-0.0046945498 -0.053726513 1.7850002
0.0046945498 -0.051640049 1.7850002
0.023472751 -0.051640049 1.7850001
0.035991549 -0.051640049 1.7850001
0.014083649 -0.048510354 1.7850002
0.025559217 -0.048510354 1.7850002
0.036773976 -0.047727928 1.7850001
0.04493355 -0.044486452 1.785
0.053204902 -0.043815799 1.7850001
0.061029151 -0.04225095 1.7850001
0.0563346 -0.039121252 1.7850001
0.064158849 -0.038078018 1.7850002
0.074799828 -0.034113728 1.7850001
0.0845019 -0.032861851 1.7850001
0.079807349 -0.029732149 1.7850001
0.087631598 -0.029732149 1.7850001
0.095455848 -0.028167298 1.785
0.10439785 -0.025708249 1.785
0.11423405 -0.023472751 1.7850001
0.12414476 -0.021386283 1.785
0.13614196 -0.02034305 1.7850002
0.14553104 -0.02034305 1.7850002
0.15179045 -0.02034305 1.7850001
0.13614196 -0.01721335 1.7850001
0.14631349 -0.016430926 1.7850001
0.15804985 -0.015648499 1.7850001
0.16430926 -0.015648499 1.7850001
0.17474158 -0.012518801 1.785
0.18621714 -0.010953951 1.7850002
0.17995775 -0.0078242496 1.7850001
0.18621714 -0.0078242496 1.7850002
0.19351979 -0.0026080832 1.7850002
0.19482383 0.0023472749 1.7850001
0.20562129 0.0040686098 1.7850001
0.2159493 0.0062593995 1.7850001
0.22377355 0.006259399 1.785
0.2347275 0.0062593999 1.785
0.24881116 0.0078242496 1.7850001
0.22586001 0.011997183 1.7850002
0.23629236 0.013301224 1.785
0.24529022 0.014474862 1.785
0.25507057 0.015961472 1.7850001
0.26132995 0.01721335 1.7850001
0.23785719 0.02034305 1.7850001
0.24568145 0.02034305 1.7850001
0.25507051 0.024098691 1.7850001
0.26211238 0.027384873 1.7850001
0.25507054 0.0344267 1.7850001
0.26289478 0.035991553 1.785
0.25820026 0.04851035 1.7850001
0.26406842 0.045771863 1.785
0.27071905 0.045380648 1.7850001
0.25820026 0.053204902 1.7850001
0.26211238 0.053987324 1.7850001
0.2472463 0.064158849 1.7850001
-0.11376152 -0.49436459 1.794
-0.1077327 -0.49619946 1.794
-0.11355183 -0.48723483 1.794
-0.10773268 -0.48519027 1.794
-0.11323728 -0.47496748 1.7939999
-0.10851906 -0.47496748 1.794
-0.12110098 -0.46081281 1.794
-0.11441684 -0.46356508 1.7939999
-0.10773268 -0.46474469 1.794
-0.12110098 -0.45452189 1.794
-0.11570872 -0.45452189 1.7939999
-0.12110098 -0.44508541 1.794
-0.11638276 -0.44508541 1.794
-0.12110098 -0.43564901 1.794
-0.11638276 -0.43564895 1.794
-0.13053742 -0.42306706 1.794
-0.12334775 -0.42576319 1.7939999
-0.11669731 -0.42684165 1.794
-0.13263442 -0.41467911 1.794
-0.12453242 -0.41563228 1.7940001
-0.13368291 -0.40419418 1.794
-0.12581919 -0.40419421 1.794
-0.1317956 -0.39475775 1.794
-0.12463965 -0.39515093 1.7939999
-0.13211016 -0.38532129 1.794
-0.12634344 -0.38741827 1.794
-0.13525563 -0.37588483 1.7939999
-0.14416783 -0.3638272 1.794
-0.13711435 -0.36473271 1.7940001
-0.14469208 -0.35386649 1.794
-0.13735263 -0.35334226 1.794
-0.15255578 -0.34128457 1.794
-0.14626481 -0.34443006 1.794
-0.13787688 -0.34390581 1.794
-0.15255578 -0.33184814 1.794
-0.146658 -0.33538678 1.7939999
-0.13997386 -0.33656636 1.794
-0.16199222 -0.32241169 1.794
-0.15530808 -0.32516402 1.7939999
-0.14941029 -0.32870266 1.794
-0.1638795 -0.31486255 1.794
-0.15609445 -0.3165139 1.7939999
-0.16356497 -0.30511156 1.7939999
-0.15727401 -0.30511156 1.7939999
-0.17142867 -0.29095688 1.794
-0.16553089 -0.29449558 1.7939999
-0.1819136 -0.28256896 1.794
-0.17457414 -0.28466594 1.794
-0.16723467 -0.28676292 1.794
-0.18401058 -0.27522948 1.794
-0.17614686 -0.27522948 1.794
-0.19239853 -0.26474455 1.794
-0.18440376 -0.26618624 1.7939999
-0.17496732 -0.26618624 1.7939999
-0.16828318 -0.26893854 1.794
-0.20393194 -0.25111416 1.794
-0.19470522 -0.25446931 1.7940003
-0.18589786 -0.25698572 1.794
-0.17667113 -0.25845364 1.794
-0.20445621 -0.2437747 1.794
-0.19659251 -0.24377471 1.794
-0.2068153 -0.23512462 1.794
-0.19816524 -0.23748374 1.794
-0.23748374 -0.22175634 1.794
-0.20917444 -0.22490181 1.794
-0.23512462 -0.21310627 1.794
-0.2123199 -0.21861085 1.794
-0.20917442 -0.21861085 1.794
-0.24062921 -0.2044562 1.794
-0.18243784 -0.20602894 1.794
-0.17667113 -0.20498045 1.794
-0.19659249 -0.13053742 1.794
-0.21861085 -0.12110098 1.794
-0.20445621 -0.12267371 1.794
-0.19816524 -0.12424646 1.794
-0.18440378 -0.12385327 1.7939999
-0.17667113 -0.12214947 1.794
-0.22490181 -0.11428577 1.794
-0.21861085 -0.1179555 1.794
-0.2044562 -0.1179555 1.794
-0.19816524 -0.1179555 1.794
-0.17300141 -0.1179555 1.794
-0.1640892 -0.11271303 1.794
-0.15570126 -0.11166454 1.794
-0.14941029 -0.11166454 1.794
-0.22726093 -0.10615996 1.794
-0.14469208 -0.10851906 1.794
-0.13630413 -0.10589782 1.794
-0.12424646 -0.1022281 1.794
-0.11481002 -0.099082619 1.794
-0.10537358 -0.09593714 1.794
-0.09593714 -0.092791662 1.794
-0.084613413 -0.088387989 1.794
-0.073918782 -0.083355218 1.794
-0.067627817 -0.08020974 1.794
-0.064482339 -0.076015763 1.794
-0.055045899 -0.073918782 1.794
-0.045609459 -0.074967273 1.794
-0.036173023 -0.075806066 1.794
-0.025837872 -0.072121367 1.7939999
-0.01730014 -0.070773296 1.794
-0.025163841 -0.067627817 1.794
-0.013525563 -0.066369623 1.794
-0.0039318502 -0.05740501 1.794
0.0047182203 -0.055045899 1.794
0.014154661 -0.05347316 1.794
0.024220195 -0.053158611 1.794
0.03617302 -0.05190042 1.794
0.042463981 -0.05190042 1.794
0.047182199 -0.048754938 1.794
0.056304097 -0.04686765 1.794
0.064482339 -0.045609456 1.7939999
0.071821786 -0.043512475 1.794
0.067627817 -0.039318498 1.794
0.074705154 -0.038532127 1.794
0.085452206 -0.03617302 1.794
0.09593714 -0.033027541 1.794
0.10380083 -0.033027541 1.794
0.10694632 -0.02988206 1.794
0.11543912 -0.028623868 1.794
0.12469582 -0.027635289 1.7939999
0.13462654 -0.026107484 1.794
0.14563572 -0.024849292 1.794
0.15412852 -0.02201836 1.794
0.16199222 -0.020445621 1.794
0.18401057 -0.015727399 1.794
0.19030154 -0.01415466 1.794
0.19659251 -0.0055045905 1.794
0.20602894 -0.0015727399 1.794
0.21861085 -0.00157274 1.794
0.22332908 -0.00157274 1.794
0.23119278 -0.00157274 1.794
0.20917442 0.00157274 1.794
0.21546537 0.0031454801 1.794
0.22490181 0.0015727399 1.794
0.23433827 0.0015727399 1.794
0.2448232 0.0068152067 1.794
0.2550984 0.011638276 1.794
0.2642203 0.015727401 1.794
0.26642215 0.025478389 1.794
0.26893854 0.03617302 1.794
0.27365676 0.033027541 1.794
0.26893854 0.042463981 1.794
0.27208403 0.042463981 1.794
0.25163841 0.067627817 1.794
-0.10437944 -0.49501157 1.804
-0.099634923 -0.49501157 1.8040003
-0.10406314 -0.48552257 1.8040001
-0.099634923 -0.48552254 1.8040003
-0.10437944 -0.47603354 1.804
-0.097737119 -0.47476831 1.8040001
-0.11228697 -0.46021843 1.8040001
-0.10477482 -0.46377683 1.804
-0.096471913 -0.46496299 1.8040003
-0.11228697 -0.45231092 1.8040001
-0.10596094 -0.45389238 1.804
-0.096076533 -0.45507854 1.804
-0.11228696 -0.44440338 1.8040003
-0.10686467 -0.44485521 1.804
-0.11228696 -0.43491432 1.8040003
-0.1083332 -0.43570507 1.8040001
-0.11439565 -0.42437091 1.804
-0.10912396 -0.42700678 1.8040001
-0.12177601 -0.41277325 1.8040001
-0.11544999 -0.4159362 1.804
-0.12177601 -0.4064472 1.8040003
-0.11544999 -0.40486571 1.8040003
-0.12177601 -0.39221364 1.8040001
-0.11584536 -0.39419052 1.804
-0.12454364 -0.38391075 1.804
-0.11755866 -0.3864148 1.8040003
-0.13126506 -0.37481704 1.8040003
-0.12599337 -0.37587142 1.804
-0.1320558 -0.36611879 1.8040001
-0.12810203 -0.36532807 1.8040003
-0.1339009 -0.35636616 1.804
-0.12810203 -0.35583901 1.8040003
-0.13372518 -0.34459272 1.804
-0.12810203 -0.34951296 1.8040001
-0.1432845 -0.33180013 1.8040001
-0.13548242 -0.33475223 1.804
-0.15024313 -0.32420886 1.8040003
-0.14391711 -0.32420886 1.804
-0.13759108 -0.32737187 1.8040001
-0.15150833 -0.31408721 1.8040001
-0.14436896 -0.31562352 1.804
-0.15182464 -0.3052308 1.804
-0.14708012 -0.30523077 1.8040003
-0.16289519 -0.29257873 1.8040001
-0.15498765 -0.29574174 1.8040003
-0.14708012 -0.29890475 1.8040001
-0.16500387 -0.28519836 1.804
-0.15656917 -0.28625271 1.804
-0.17238422 -0.27676368 1.8040003
-0.16577065 -0.27561349 1.8040001
-0.15720177 -0.27581477 1.8040001
-0.18187326 -0.26253009 1.8040001
-0.17238423 -0.26253009 1.8040001
-0.1660582 -0.26411161 1.804
-0.15846696 -0.26347899 1.8040001
-0.18398194 -0.25356826 1.804
-0.17515187 -0.25422719 1.804
-0.1660582 -0.25462258 1.804
-0.15973218 -0.25462258 1.8040003
-0.19136231 -0.24513353 1.8040003
-0.18503627 -0.24513353 1.804
-0.17645095 -0.2455854 1.804
-0.1676397 -0.24829654 1.8040001
-0.20401438 -0.23406298 1.804
-0.19412994 -0.2352491 1.804
-0.18693408 -0.23627707 1.8040001
-0.17871025 -0.2388075 1.8040001
-0.20401438 -0.22615546 1.804
-0.19452532 -0.22615544 1.804
-0.1881993 -0.22931847 1.8040001
-0.20338178 -0.21856423 1.8040001
-0.19452532 -0.21824794 1.804
-0.18661779 -0.13126506 1.8040001
-0.20401436 -0.12810203 1.8040001
-0.18187326 -0.12810203 1.8040001
-0.17396574 -0.12335752 1.8040001
-0.1660582 -0.11755866 1.8040003
-0.15498766 -0.11544999 1.8040001
-0.1439171 -0.11228696 1.8040003
-0.13759108 -0.11228697 1.8040001
-0.13231939 -0.10806962 1.8040003
-0.12493902 -0.10596094 1.8040003
-0.11703149 -0.10279793 1.8040001
-0.10596094 -0.099634923 1.8040003
-0.095417567 -0.094363235 1.8040003
-0.083819859 -0.092254557 1.8040003
-0.077493824 -0.090145878 1.8040001
-0.072222136 -0.08592853 1.8040003
-0.065474376 -0.083187245 1.8040001
-0.058515746 -0.080656841 1.8040001
-0.045863692 -0.080656841 1.8040001
-0.03479315 -0.080656841 1.8040001
-0.06167876 -0.077493824 1.8040001
-0.055352733 -0.077493824 1.8040003
-0.045863692 -0.077493824 1.8040001
-0.030048626 -0.077493824 1.8040001
-0.022931846 -0.076703072 1.8040001
-0.014233559 -0.072749302 1.8040001
-0.0051398962 -0.064446397 1.804
0.0047445199 -0.063260265 1.804
0.0047445199 -0.058515746 1.8040003
0.014233559 -0.058515746 1.8040003
0.023722598 -0.057461411 1.8040003
0.033844244 -0.055985332 1.8040001
0.046496291 -0.054087531 1.8040001
0.054720126 -0.053454924 1.8040001
0.06484177 -0.052189719 1.8040003
0.071167797 -0.052189719 1.8040001
0.068004787 -0.049026705 1.8040001
0.075385146 -0.046918031 1.804
0.083187245 -0.043965884 1.8040001
0.091727391 -0.042700678 1.8040001
0.12493902 -0.042700678 1.8040001
0.083819851 -0.039537668 1.8040001
0.095568188 -0.038182091 1.804
0.10641281 -0.037278373 1.804
0.11544999 -0.036374658 1.804
0.12493902 -0.036374655 1.804
0.13442808 -0.035320319 1.804
0.14352173 -0.032816265 1.804
