# .PCD v0.7 - Point Cloud Data file format
VERSION 0.7
FIELDS x y z
SIZE 4 4 4
TYPE F F F
COUNT 1 1 1
WIDTH 1468
HEIGHT 1
VIEWPOINT 0 0 0 1 0 0 0
POINTS 1468
DATA ascii
-0.13432227 -0.14848308 1.2423334
-0.12506615 -0.14686842 1.2432501
-0.11461752 -0.1446387 1.244048
-0.10469524 -0.14331578 1.245
-0.095441245 -0.14176722 1.245
-0.085133098 -0.14079705 1.245
-0.079675846 -0.14079705 1.245
-0.11314611 -0.1381688 1.2410001
-0.10584134 -0.13754712 1.2410001
-0.094680175 -0.1371254 1.2414
-0.084377065 -0.13566102 1.2425385
-0.075461566 -0.13503274 1.243737
-0.064574547 -0.133416 1.2446363
-0.054572497 -0.13315688 1.245
-0.048023798 -0.13206545 1.245
-0.073980145 -0.12946525 1.2410001
-0.0652766 -0.12946525 1.2410001
-0.055501591 -0.12841903 1.2414
-0.044908043 -0.12798592 1.243909
-0.034339033 -0.12536728 1.2435
-0.025386391 -0.1252193 1.2435715
-0.015549278 -0.12292118 1.2428182
-0.0054572499 -0.12115095 1.245
-0.011967377 -0.11858582 1.2410001
-0.0054432238 -0.11757432 1.2418001
0.00526716 -0.11641797 1.243
0.015622298 -0.11419839 1.2432222
0.024883546 -0.11489999 1.243909
0.03451271 -0.11589387 1.2432222
0.044677563 -0.11507373 1.243
0.05398469 -0.11314765 1.244
0.064395547 -0.1115462 1.245
0.075310051 -0.1115462 1.245
0.084041648 -0.11023644 1.245
0.092773251 -0.11023645 1.245
0.10587064 -0.11023644 1.245
0.14734575 -0.11241935 1.245
0.15171155 -0.1113279 1.245
0.056106795 -0.10894974 1.2410001
0.0652766 -0.10843167 1.2410001
0.074252129 -0.10852233 1.2410001
0.08529599 -0.10754894 1.2442
0.09454266 -0.10763305 1.2443333
0.10563044 -0.10585223 1.2422001
0.11494337 -0.10489376 1.2434446
0.12460863 -0.10391185 1.2427498
0.13504992 -0.103468 1.2423334
0.14507212 -0.10512943 1.2426667
0.15322945 -0.10625137 1.2421429
0.21432483 0.10988227 1.2410001
0.21544096 0.11418722 1.2438571
-0.067669898 0.40929374 1.245
-0.063085809 0.41540584 1.245
-0.057782561 0.41685236 1.2436666
-0.056755401 0.42020825 1.245
0.096221834 -0.49765888 1.258
0.10529767 -0.49542636 1.2564003
0.11547571 -0.49476758 1.2565002
0.1247114 -0.49463493 1.2531054
0.13128084 -0.49378246 1.25
0.10816488 -0.48894945 1.2590001
0.11609163 -0.48613998 1.2589999
0.12441573 -0.48498192 1.256778
0.13344483 -0.48496187 1.2515626
0.14355417 -0.48107082 1.25
0.1264378 -0.47528121 1.2582501
0.13507713 -0.47588405 1.2549634
0.14501774 -0.47565901 1.2536844
0.1509598 -0.47298285 1.2508334
0.12665224 -0.46466753 1.2590001
0.13544406 -0.46492401 1.2561203
0.14522859 -0.46539164 1.2550005
0.15174443 -0.46468377 1.2525001
0.12692818 -0.45523569 1.2589999
0.13548522 -0.45517859 1.2574762
0.14454652 -0.45496374 1.2556319
0.15361878 -0.45488819 1.2516668
0.1610875 -0.45404029 1.25
0.12913562 -0.44921538 1.2590001
0.13548203 -0.4450765 1.2590001
0.14435403 -0.44519332 1.2570004
0.15442981 -0.44522208 1.2534095
0.16279213 -0.444056 1.25
0.13686168 -0.43817815 1.2590001
0.14598747 -0.43589813 1.2579999
0.15533485 -0.43496802 1.2547042
0.16503008 -0.43450862 1.2520001
0.14900266 -0.42824465 1.2590001
0.15590084 -0.42507166 1.2578574
0.16527316 -0.4243401 1.2527002
0.15528539 -0.41508484 1.2589999
0.16501682 -0.41550365 1.2555361
0.17245698 -0.41236028 1.253
0.15587026 -0.40727389 1.2589999
0.1644336 -0.40501443 1.2588403
0.17469019 -0.40455341 1.2540002
0.18168917 -0.40392417 1.25
0.16468716 -0.3953073 1.2590002
0.17520839 -0.39500365 1.2556671
0.18143868 -0.39653513 1.25
0.1655585 -0.3851994 1.2590002
0.17488305 -0.38513201 1.2568184
0.18117778 -0.38390696 1.25
0.16721408 -0.37802523 1.2590001
0.17590421 -0.37558022 1.2567146
0.18526062 -0.37458667 1.2530437
0.19105417 -0.37113026 1.2525001
0.17665383 -0.36498386 1.2590002
0.18483639 -0.36527199 1.2550004
0.19149336 -0.36542231 1.2525001
0.17543486 -0.35528675 1.2586002
0.18529113 -0.35507396 1.2526089
0.19220917 -0.3543925 1.25
0.17609404 -0.3457664 1.2590003
0.18536565 -0.34573883 1.2554289
0.19389857 -0.34476918 1.2518421
0.2005375 -0.34080416 1.25
0.17953901 -0.33516398 1.2589999
0.18549056 -0.33478522 1.2580911
0.19461212 -0.33535042 1.2542005
0.20147678 -0.33485535 1.25
0.18672992 -0.32459497 1.2589999
0.19445579 -0.32458565 1.2543755
0.20163333 -0.32655832 1.25
0.18686885 -0.31473097 1.2589999
0.19454965 -0.31427813 1.2544349
0.1799069 -0.30683509 1.2590001
0.18616134 -0.30499557 1.2589999
0.19499317 -0.30433315 1.2548265
0.20141415 -0.3031075 1.25
0.18873669 -0.29469413 1.2590001
0.19477059 -0.29462838 1.2570873
0.20187397 -0.29513028 1.2515
0.1961385 -0.28501609 1.2573161
0.20282529 -0.28459871 1.2526923
0.1983692 -0.27442577 1.2589999
0.20531079 -0.2749905 1.2530477
0.19933243 -0.26555586 1.2590001
0.20552456 -0.26529905 1.2548336
0.21149583 -0.26409584 1.25
0.19977392 -0.25937498 1.2590001
0.20489131 -0.25520337 1.2562107
0.21159227 -0.25475493 1.2516667
0.20589705 -0.2455647 1.2568668
0.2123799 -0.24505658 1.2528126
-0.24833775 -0.23067817 1.2590001
0.20651507 -0.23571375 1.2586923
0.21325672 -0.23558542 1.2525003
-0.25275263 -0.22847073 1.2590001
-0.24833775 -0.22847073 1.2590001
-0.22240025 -0.22571142 1.2590001
-0.21853721 -0.22847073 1.2590001
0.20749998 -0.22515954 1.2589999
0.2141951 -0.22518498 1.2530004
-0.27041221 -0.21522605 1.2590001
-0.26305404 -0.21375442 1.2589999
0.2082358 -0.21596187 1.2589999
0.21395335 -0.21462612 1.2532611
-0.27159512 -0.2039749 1.2576667
-0.26488763 -0.20452704 1.2565335
-0.25503892 -0.20474985 1.256389
-0.24569811 -0.20370603 1.2559999
-0.23541529 -0.20281984 1.2581111
-0.22736701 -0.20198137 1.2590001
0.20860371 -0.20529254 1.2590001
0.21476696 -0.20506939 1.2545911
-0.27329034 -0.19945657 1.2570001
-0.26628751 -0.19834583 1.25
-0.2531375 -0.19834583 1.25
-0.24308816 -0.19727246 1.251875
-0.23506017 -0.19651429 1.2541333
-0.22516899 -0.19554797 1.2542108
-0.21503067 -0.19408096 1.2578572
-0.20504662 -0.19182037 1.2574999
-0.19756646 -0.19204785 1.2589999
0.20860371 -0.19756648 1.2590001
0.21486625 -0.19503541 1.2569202
0.2202625 -0.1939625 1.25
-0.21456416 -0.18870249 1.25
-0.20470411 -0.18666327 1.2516667
-0.19479831 -0.18617675 1.2543076
-0.18509249 -0.18422168 1.2542667
-0.17552872 -0.1840401 1.2581428
-0.16528256 -0.18294214 1.2589999
-0.15672871 -0.18211435 1.2590001
0.20860371 -0.18873669 1.2590001
0.21540998 -0.18643026 1.2542727
0.2202625 -0.18957916 1.25
-0.18190834 -0.17862083 1.25
-0.174687 -0.17728592 1.2518182
-0.16507827 -0.17632882 1.2544446
-0.15498027 -0.17596178 1.2556845
-0.14482525 -0.17438963 1.2582003
-0.13796541 -0.17218083 1.2590001
-0.15275916 -0.16941583 1.25
-0.14392431 -0.16610689 1.2511111
-0.13532172 -0.16503468 1.2550001
-0.1258567 -0.16335912 1.2581111
-0.11544945 -0.16092287 1.2590001
-0.10926861 -0.16003989 1.2590001
-0.13232188 -0.15697813 1.25
-0.12508032 -0.15580641 1.2515626
-0.11513744 -0.15454449 1.2520001
-0.10497436 -0.15398915 1.2546111
-0.095196687 -0.15301676 1.2570769
-0.085893169 -0.15177216 1.2584286
-0.10556527 -0.14793751 1.25
-0.094939023 -0.14654283 1.25
-0.08481092 -0.14611311 1.2517859
-0.075258978 -0.14475739 1.2532501
-0.064985491 -0.14430033 1.2564666
-0.055336781 -0.14396532 1.2574
-0.045037635 -0.14274055 1.2586364
-0.035981379 -0.14061436 1.2590001
-0.025385637 -0.14017287 1.2590001
-0.071229167 -0.13917083 1.25
-0.064410649 -0.13819677 1.25
-0.054791663 -0.13807499 1.25
-0.044724181 -0.13572371 1.2514707
-0.035128854 -0.13392973 1.2521875
-0.025232702 -0.13385056 1.2514501
-0.015857648 -0.13378058 1.2537144
-0.0055098496 -0.13223815 1.257
0.0055186166 -0.13171098 1.2589999
0.015452126 -0.13134308 1.2590001
0.032007977 -0.13134308 1.2590001
-0.035066664 -0.1282125 1.25
-0.020820834 -0.1282125 1.25
-0.01469381 -0.12787674 1.251
-0.005486472 -0.12619177 1.2516668
0.0054892483 -0.12512884 1.2520001
0.015393827 -0.12535433 1.25425
0.025299942 -0.12540564 1.2547503
0.035248742 -0.12557246 1.2564375
0.044944264 -0.12528241 1.2572223
0.055069279 -0.1244589 1.2563334
0.064981751 -0.12445891 1.2563335
0.074606963 -0.12385517 1.2576667
0.084904283 -0.12350024 1.2578
0.095210567 -0.12408392 1.257
0.10346472 -0.12398066 1.2581999
0.11478722 -0.12030584 1.2590001
0.12545656 -0.12067375 1.2589999
0.13512728 -0.12125189 1.2589999
0.14090867 -0.12177747 1.2590001
0.008766667 -0.11944583 1.25
0.015341666 -0.11871526 1.25
0.025934726 -0.11908054 1.25
0.036162499 -0.11944583 1.25
0.045659721 -0.11908054 1.25
0.055669792 -0.11779428 1.2505555
0.064844973 -0.11685088 1.2511767
0.075606361 -0.11674481 1.2523333
0.085248917 -0.11634981 1.2526319
0.095406055 -0.11534861 1.2509091
0.10492215 -0.11627351 1.2525003
0.11524677 -0.1142113 1.2545265
0.12513025 -0.11464892 1.2552943
0.13531351 -0.11441579 1.2549003
0.14306723 -0.11551677 1.2527274
0.12711667 -0.1084875 1.25
0.13405694 -0.10812222 1.25
0.14245833 -0.1084875 1.25
0.15012917 -0.1084875 1.25
0.20861879 0.10618204 1.2538
0.21014138 0.10892145 1.2550001
0.207563 0.1142616 1.2584286
0.21271245 0.11616915 1.2535
0.20833859 0.12456083 1.2574002
0.2143583 0.12501898 1.257316
0.22184838 0.12472074 1.2590001
-0.071514085 0.41808233 1.2550001
-0.067154311 0.41717333 1.250625
-0.071742013 0.42603719 1.2590001
-0.064625092 0.42508367 1.251579
-0.058079164 0.42627916 1.25
-0.071742013 0.43376327 1.2590001
-0.065002903 0.43489084 1.254667
-0.058079164 0.43066248 1.25
-0.066521414 0.44432899 1.2576668
0.087122075 -0.49562138 1.2675998
0.094003074 -0.4939878 1.2664999
0.1026752 -0.49230862 1.2648
0.087817453 -0.48466343 1.268
0.094487131 -0.4846634 1.2679999
0.10544129 -0.4850423 1.2660952
0.11357637 -0.48447862 1.2652
0.087817453 -0.47910535 1.268
0.094777115 -0.47504559 1.2679998
0.10547969 -0.47500688 1.26656
0.11539607 -0.47538975 1.2662855
0.12161471 -0.47454667 1.2640001
0.096912481 -0.46495754 1.2679999
0.10559475 -0.46485147 1.2666667
0.11576559 -0.46545139 1.2662857
0.12173343 -0.4652465 1.2640001
0.098192513 -0.45835522 1.268
0.10508015 -0.45504218 1.2679999
0.11471757 -0.45613876 1.2671999
0.12297996 -0.45413509 1.2653333
0.10643698 -0.44464529 1.268
0.11004972 -0.44464535 1.268
0.12637387 -0.44502345 1.2651764
0.1318647 -0.44545886 1.2640001
0.1256123 -0.43908727 1.268
0.13625881 -0.43539476 1.2652308
0.14282526 -0.43311474 1.2647272
0.13850701 -0.42530328 1.268
0.14525472 -0.42523018 1.2657999
0.15181062 -0.42440486 1.2640001
0.13895166 -0.41463175 1.268
0.14523707 -0.41464925 1.2646667
0.15181062 -0.41627872 1.2640001
0.14634049 -0.40652364 1.2659999
0.15387873 -0.40358391 1.2649412
0.15627971 -0.39587301 1.2670767
0.16067547 -0.39226976 1.2640001
0.15813605 -0.38404718 1.2673334
0.16104484 -0.38377428 1.2640001
0.15840489 -0.37628111 1.268
0.16485694 -0.37373751 1.2650434
0.17175655 -0.37343195 1.2640001
0.16641062 -0.36428514 1.2664443
0.17264302 -0.36722654 1.2640001
0.16582057 -0.35507807 1.2670475
0.16748735 -0.34522 1.2671111
0.17193536 -0.34276614 1.2653333
0.16785361 -0.33793044 1.268
0.17469147 -0.3344698 1.2664347
0.17656124 -0.32477632 1.2679999
0.18208367 -0.32476866 1.2643636
0.17553632 -0.31531328 1.2677646
0.18239436 -0.3147023 1.2640001
0.17670147 -0.30566156 1.2664615
0.18345304 -0.30302054 1.2652
0.17822866 -0.29828289 1.268
0.18487392 -0.29458433 1.2663528
0.18685497 -0.28536123 1.2665713
0.19242132 -0.28269395 1.2645714
0.18786265 -0.27679172 1.268
0.1926734 -0.27481195 1.2661176
0.19553262 -0.26515177 1.2654999
0.19730482 -0.25549573 1.2676363
0.20056731 -0.25486451 1.2640001
-0.22788073 -0.24122009 1.268
0.19897878 -0.24455494 1.268
0.20155229 -0.24439907 1.2640001
-0.24314262 -0.23316529 1.265
-0.23477703 -0.23426829 1.2655385
-0.22488621 -0.23512922 1.2664443
-0.21529391 -0.23470029 1.2671999
-0.20787169 -0.23455042 1.268
0.19897878 -0.23455043 1.268
0.20278557 -0.23387103 1.2663333
-0.26227325 -0.22124174 1.265
-0.25434741 -0.22376369 1.2640001
-0.24470688 -0.22476095 1.2640001
-0.23491859 -0.22494563 1.2640001
-0.22716184 -0.22510394 1.2640001
0.20399015 -0.22507925 1.266
-0.27148613 -0.21275648 1.2640001
-0.26505911 -0.21497269 1.2640001
-0.25486454 -0.2149727 1.2640001
-0.24492963 -0.21500655 1.2642
-0.2344325 -0.21550645 1.2661052
-0.22646344 -0.21405923 1.2673333
0.20605311 -0.21515854 1.2664
-0.27481043 -0.20499974 1.2640001
-0.26631495 -0.20869343 1.2640001
-0.24304472 -0.2086934 1.2640001
-0.23454925 -0.20795466 1.2640001
-0.22516306 -0.20519987 1.2652308
-0.2146963 -0.20238534 1.2665454
-0.20527792 -0.2019431 1.268
-0.19786717 -0.20120201 1.268
0.20651928 -0.204794 1.2657777
-0.21386458 -0.19835109 1.2640001
-0.20506318 -0.19730574 1.2644
-0.19386408 -0.19624509 1.2657143
-0.18472242 -0.1949545 1.2651111
-0.17533824 -0.19488157 1.2663999
-0.16573618 -0.19237633 1.2659999
-0.15451425 -0.1911975 1.268
-0.14673296 -0.19008587 1.268
0.20647752 -0.19537945 1.2662857
-0.18431509 -0.18948622 1.2640001
-0.17485921 -0.189043 1.2640001
-0.16455384 -0.18782407 1.2640001
-0.15474516 -0.18629274 1.2643077
-0.14471933 -0.18401153 1.2644445
-0.13841935 -0.18374653 1.2672
-0.14294577 -0.17840517 1.2640001
-0.13434392 -0.17570636 1.2664999
-0.12523608 -0.17222245 1.2674286
-0.11449617 -0.17118846 1.2679999
-0.10486218 -0.17081791 1.268
-0.096710362 -0.17007683 1.268
-0.13297281 -0.16954032 1.2640001
-0.12455119 -0.16776733 1.2640001
-0.11487138 -0.16565701 1.2648001
-0.10515774 -0.16436872 1.2654736
-0.094609499 -0.16450584 1.2665262
-0.085547477 -0.16313715 1.2673333
-0.077812932 -0.16118394 1.268
-0.10083771 -0.15845925 1.2640001
-0.095297173 -0.15845925 1.2640001
-0.084832467 -0.15662256 1.2643077
-0.074891888 -0.15546496 1.2666665
-0.065034881 -0.15450147 1.2665713
-0.0544223 -0.15438615 1.2669332
-0.044363476 -0.15309948 1.2679999
-0.035052873 -0.15243925 1.2679999
-0.024455493 -0.15006781 1.268
-0.018897427 -0.15006781 1.268
-0.072026931 -0.1495944 1.2640001
-0.065378293 -0.1495944 1.2640001
-0.055035964 -0.14885567 1.2640001
-0.045678623 -0.14787069 1.2640001
-0.034728568 -0.14557022 1.2643334
-0.025196655 -0.14516973 1.2654285
-0.01585339 -0.14380814 1.2659999
-0.0055580665 -0.1411749 1.268
0.0055580665 -0.1411749 1.268
-0.011473813 -0.13806681 1.2666668
-0.005054275 -0.13747691 1.2657778
0.0048064706 -0.13644323 1.2653333
0.014751795 -0.13673519 1.2665713
0.024841229 -0.13410841 1.2658461
0.035046127 -0.13496006 1.2662858
0.044395566 -0.13429539 1.2659999
0.054125395 -0.13428679 1.2674285
0.064397737 -0.13323712 1.2665
0.074478097 -0.13205966 1.2679999
0.084704936 -0.13183734 1.2679999
0.093931325 -0.1328378 1.2679999
0.10519903 -0.13309045 1.2679999
0.11004972 -0.1333936 1.268
0.1256123 -0.13005877 1.268
0.13278389 -0.13167402 1.2675
0.047648586 -0.12964848 1.2640001
0.055405334 -0.12964848 1.2640001
0.065378293 -0.12964848 1.2640001
0.075351253 -0.12798631 1.2640001
0.085324213 -0.12743227 1.2640001
0.095075548 -0.12876198 1.2640001
0.10621994 -0.12743227 1.2640001
0.11594267 -0.12505089 1.2667999
0.12503895 -0.12551786 1.2654285
0.13500912 -0.12636448 1.2644
0.14072955 -0.12632416 1.2640001
0.20512563 0.11422647 1.2672726
0.20643221 0.1220846 1.266
-0.073366478 0.41796663 1.268
-0.076211557 0.42544451 1.2659999
-0.075789779 0.4354974 1.2651111
0.068343177 -0.49632835 1.2780001
0.074972615 -0.49545723 1.2746667
0.082955748 -0.49513048 1.2729999
0.076689377 -0.48551676 1.2756315
0.08369974 -0.48545852 1.273
0.077509925 -0.47534668 1.278
0.084815741 -0.47541454 1.273
0.091511726 -0.47206658 1.273
0.07880006 -0.46682498 1.278
0.084740885 -0.46488997 1.2740871
0.092069723 -0.46481261 1.2729999
0.11383165 -0.46425462 1.273
0.08642713 -0.45584452 1.2775832
0.094655141 -0.4549686 1.2732502
0.1015557 -0.45421064 1.273
0.11494765 -0.45461652 1.2729999
0.088510014 -0.44703162 1.2780001
0.094759285 -0.44508171 1.2750372
0.10360169 -0.44453859 1.2729999
0.11576653 -0.44454709 1.2738336
0.12359664 -0.44388765 1.2729999
0.1313156 -0.44156265 1.273
0.096597269 -0.43585342 1.2763332
0.10493077 -0.43471336 1.2740527
0.11537853 -0.43491173 1.2765715
0.12490436 -0.43518415 1.2746665
0.1331756 -0.43486667 1.2729999
0.10635282 -0.42876801 1.2770001
0.11614605 -0.42593113 1.278
0.12561792 -0.42500541 1.2773181
0.13374339 -0.42495978 1.2730001
0.14173158 -0.42296273 1.273
0.11988065 -0.41566098 1.2780001
0.12608585 -0.41514385 1.278
0.1339196 -0.41515082 1.273
0.12809677 -0.40632451 1.278
0.13526581 -0.40580302 1.2752
0.14436939 -0.40287483 1.2729999
0.15065955 -0.40064281 1.273
0.12884369 -0.39773488 1.2780001
0.1346606 -0.39555851 1.2775238
0.14450152 -0.39472273 1.2761251
0.15329736 -0.39394683 1.2729999
0.13652632 -0.38653111 1.278
0.14447072 -0.38526079 1.2774999
0.15363555 -0.38501886 1.2730001
0.13780674 -0.37980881 1.2780001
0.14459811 -0.37526572 1.2777916
0.15428843 -0.37443554 1.2732779
0.1447649 -0.36542079 1.278
0.15545821 -0.36510134 1.2742501
0.16181952 -0.36716291 1.273
0.14578944 -0.35614079 1.278
0.15533863 -0.35488257 1.2763333
0.16256352 -0.35228291 1.273
0.15749566 -0.34634221 1.2771667
0.16267371 -0.34476197 1.27425
0.15697768 -0.33474466 1.278
0.16382067 -0.33473229 1.275381
0.17074749 -0.33256701 1.273
0.1568532 -0.32715094 1.2780001
0.16464625 -0.32497421 1.2753915
0.17198749 -0.325003 1.2729999
0.16455209 -0.31510282 1.2760953
0.17119388 -0.31404147 1.273
0.16608341 -0.30524611 1.2765294
0.17266338 -0.30383536 1.2734165
0.16783294 -0.29555622 1.278
0.17493275 -0.29446492 1.2742501
0.18190746 -0.29350713 1.273
0.16917738 -0.28793767 1.2780001
0.17600471 -0.2849851 1.2743638
0.18339545 -0.28309119 1.2729999
0.17672625 -0.27528027 1.2774999
0.18402109 -0.27430737 1.2757274
0.17814042 -0.26665044 1.2780001
0.18480064 -0.26440027 1.2755001
0.19195144 -0.26337522 1.2729999
-0.22444946 -0.25283241 1.2780001
-0.21548642 -0.25208551 1.2780001
-0.20951106 -0.25208551 1.2780001
0.17814042 -0.256567 1.2780001
0.18467839 -0.25519529 1.27675
0.19331588 -0.25397143 1.2734165
-0.23281002 -0.24568561 1.2767501
-0.22492459 -0.24558698 1.2764615
-0.21561424 -0.24562114 1.277
-0.20706658 -0.24434471 1.278
-0.19830726 -0.2408817 1.2780001
0.18635653 -0.2457367 1.278
0.19420694 -0.24547338 1.2744706
-0.23435929 -0.23993929 1.273
-0.21270895 -0.23904648 1.273
-0.20686336 -0.23780066 1.2754999
-0.19830726 -0.23864093 1.2780001
0.18806377 -0.23608008 1.278
0.19459724 -0.2355306 1.274579
-0.22519638 -0.22071485 1.2780001
-0.21847411 -0.22071485 1.2780001
-0.20839068 -0.22071485 1.2780001
0.18934421 -0.2296779 1.2780001
0.19543615 -0.2252003 1.2758262
0.20199542 -0.22431533 1.273
-0.22313839 -0.21504305 1.2742499
-0.21528505 -0.21423011 1.2737896
-0.20600988 -0.21469283 1.278
-0.19494611 -0.21175182 1.2780001
-0.18635654 -0.21175182 1.2780001
0.1960174 -0.21523771 1.2757274
0.2029874 -0.21489136 1.2729999
-0.22319934 -0.20869137 1.273
-0.21489136 -0.20769937 1.2729999
-0.20464668 -0.20729165 1.2743635
-0.19495623 -0.20587629 1.2750587
-0.1852245 -0.20574501 1.2750587
-0.17568387 -0.20443933 1.2764615
-0.16559216 -0.2018925 1.278
-0.15461244 -0.20054802 1.2780001
-0.14901054 -0.20054802 1.2780001
0.19547723 -0.20534739 1.2761819
0.20311138 -0.20534337 1.2729999
-0.17242149 -0.19920541 1.273
-0.16420931 -0.19688839 1.2742499
-0.15438356 -0.19605708 1.2752726
-0.14419559 -0.19527212 1.2762352
-0.13949959 -0.19083543 1.273
0.19716085 -0.19760898 1.2734998
0.20255341 -0.19697341 1.273
-0.13414504 -0.18557104 1.2751428
-0.1259307 -0.18284604 1.278
-0.1158473 -0.18172565 1.278
-0.10531572 -0.18094137 1.2780001
-0.099713817 -0.18038118 1.2780001
-0.1305716 -0.17967546 1.273
-0.12517409 -0.17714682 1.2748749
-0.11512824 -0.17660625 1.2749999
-0.10467343 -0.17614983 1.273909
-0.094904862 -0.1748597 1.2754999
-0.085484393 -0.17209104 1.2758571
-0.083253346 -0.16762269 1.273
-0.075280681 -0.1652679 1.2762144
-0.065242514 -0.16366646 1.2757777
-0.054818075 -0.16305703 1.276125
-0.044690713 -0.163202 1.278
-0.03502997 -0.16204418 1.2772857
-0.026889119 -0.16021433 1.2780001
-0.070307791 -0.15958752 1.273
-0.063611813 -0.15958752 1.273
-0.054683834 -0.15958752 1.273
-0.044267863 -0.15847151 1.2729999
-0.034316897 -0.15791354 1.2729999
-0.024581881 -0.15532883 1.2746665
-0.015057424 -0.15343481 1.2760768
-0.0047012125 -0.15292558 1.277
0.0028009498 -0.1518115 1.2780001
-0.011159967 -0.14619556 1.2729999
-0.0043045585 -0.14555785 1.2729999
0.0043960153 -0.14545766 1.2743334
0.014140375 -0.14475949 1.275353
0.024385711 -0.14385818 1.2759999
0.034158338 -0.1429749 1.2752222
0.04544523 -0.14266405 1.2746667
0.055160746 -0.14397016 1.2760768
0.064153299 -0.14284961 1.2763333
0.074567512 -0.14129238 1.278
0.085372947 -0.14184012 1.2780001
0.095232293 -0.14228825 1.2780001
0.10599178 -0.1429424 1.2771667
0.11533715 -0.1412484 1.2772857
0.12286834 -0.14079441 1.2780001
0.024551928 -0.13949959 1.273
0.034037896 -0.13949959 1.273
0.044639863 -0.13949959 1.273
0.055427831 -0.1391276 1.2729999
0.064727806 -0.1383836 1.2729999
0.076011769 -0.1367716 1.2729999
0.084443741 -0.1375156 1.2729999
0.094859719 -0.13838358 1.2729999
0.10442542 -0.13854302 1.2729999
0.11594994 -0.13449948 1.2753528
0.12511218 -0.13461129 1.27425
0.1313156 -0.13652359 1.273
0.11383165 -0.12833962 1.273
0.2019954 0.10825168 1.273
0.1997634 0.11048367 1.273
0.20199542 0.11271566 1.273
0.20617516 0.12486748 1.2739999
-0.081574418 0.4279834 1.2746667
0.058151055 -0.49625996 1.2880001
0.064968385 -0.49429199 1.2872858
0.070860088 -0.49264634 1.2830001
0.066258833 -0.48622915 1.2872859
0.072201878 -0.4844 1.2846667
0.067184217 -0.47593534 1.2880001
0.072621636 -0.47456867 1.2852727
0.068877943 -0.46859586 1.2880001
0.075361282 -0.46482956 1.2852225
0.077156 -0.45521802 1.2862145
0.082844824 -0.45318037 1.2840002
0.076781973 -0.44488379 1.2880001
0.083970867 -0.44511825 1.2857503
0.077911116 -0.43923804 1.2880001
0.085604802 -0.43609011 1.2872859
0.093831383 -0.43278804 1.285143
0.1012287 -0.43078434 1.2830001
0.1136011 -0.43190911 1.2830001
0.095500372 -0.42512527 1.2876668
0.10443097 -0.42453489 1.2845221
0.11527177 -0.42410871 1.2837144
0.096824326 -0.41637281 1.2880001
0.10520547 -0.41571695 1.287762
0.11514645 -0.41590413 1.2861252
0.12259919 -0.41214544 1.2830001
0.10666671 -0.40656802 1.2880001
0.11510909 -0.40610412 1.2872858
0.12358698 -0.40457287 1.2855002
0.10839808 -0.39633048 1.2880001
0.11178552 -0.39520133 1.2880001
0.12625027 -0.39534849 1.2858573
0.13159731 -0.39029288 1.2830001
0.11178552 -0.3872973 1.2880001
0.12822065 -0.38511366 1.2875001
0.13365923 -0.38400084 1.2845385
0.12815815 -0.37600586 1.2880001
0.1355866 -0.37444463 1.2844707
0.14284495 -0.37679571 1.2830001
0.12985186 -0.36810181 1.2880001
0.13544571 -0.36470923 1.2856473
0.14059542 -0.3621738 1.2830001
0.13795257 -0.35634568 1.2863334
0.14379814 -0.3538608 1.2855
0.15017651 -0.35116461 1.2880001
0.14671838 -0.34591302 1.2873751
0.15317807 -0.34566894 1.2853532
0.14617591 -0.33374324 1.2875835
0.15245956 -0.33586958 1.2853078
0.14791821 -0.32858169 1.2880001
0.15387806 -0.3246609 1.2850002
0.15576407 -0.3165271 1.2862145
0.1610501 -0.31196126 1.2846667
0.15808053 -0.30825704 1.2880001
0.16200887 -0.30372524 1.2863334
0.16400456 -0.29437366 1.285143
0.16706726 -0.28455505 1.2855002
0.17208879 -0.28231558 1.2830001
0.16824286 -0.27664092 1.2880001
0.1730402 -0.27506721 1.2859167
-0.20211725 -0.26083288 1.2880001
0.17510238 -0.2652494 1.2853335
-0.23057649 -0.25307176 1.2830001
-0.22427781 -0.25127214 1.2830001
-0.21557964 -0.25344667 1.2830001
-0.20416164 -0.25366738 1.2833848
-0.19684264 -0.25562251 1.2865295
0.17546237 -0.25508258 1.2844708
0.1810869 -0.25082222 1.2830001
-0.20333222 -0.24607322 1.2830001
-0.19486408 -0.24622305 1.2839377
-0.18856749 -0.24615398 1.2880001
0.17747818 -0.24572581 1.2867501
0.18193126 -0.2440203 1.2844286
-0.2024574 -0.23957458 1.2830001
-0.18179262 -0.23599166 1.2880001
0.18492684 -0.23466289 1.2851429
-0.20384371 -0.22186621 1.2846667
-0.19554769 -0.22264719 1.2880001
-0.1863092 -0.2201836 1.2880001
0.18699811 -0.22494902 1.287091
0.19008501 -0.22495267 1.2830001
-0.20189501 -0.21764171 1.2830001
-0.19514644 -0.21651697 1.2830001
-0.18407983 -0.2149836 1.2839091
-0.1750637 -0.21423648 1.2846669
-0.1657739 -0.21293719 1.285143
-0.15808053 -0.21115042 1.2880001
0.18681796 -0.21388534 1.2863334
0.19008501 -0.21482977 1.2830001
-0.17208879 -0.20808122 1.2830001
-0.16444039 -0.20673148 1.2830001
-0.15496817 -0.20625426 1.2845385
-0.1446631 -0.20484027 1.2850591
-0.13598152 -0.20308508 1.2880001
0.18732671 -0.20760167 1.2846668
0.19008501 -0.20583169 1.2830001
-0.13495618 -0.19564979 1.2847649
-0.12568633 -0.19430612 1.2860954
-0.11544804 -0.19216672 1.286889
-0.1066237 -0.19179364 1.2880001
-0.12324192 -0.18687139 1.2830001
-0.11416347 -0.18642952 1.2830001
-0.10471632 -0.18595515 1.2844287
-0.095065728 -0.18449448 1.2865715
-0.085008614 -0.1838896 1.2880001
-0.075201161 -0.18224427 1.2880001
-0.091105826 -0.17883737 1.2830001
-0.084613331 -0.17755736 1.2835001
-0.075229622 -0.17554089 1.2848423
-0.065394074 -0.17589431 1.2861251
-0.055797741 -0.17451555 1.2868463
-0.045918632 -0.17351221 1.2880001
-0.03532616 -0.17114636 1.2880001
-0.024841227 -0.17050114 1.2880001
-0.072547235 -0.16927688 1.2830001
-0.064754233 -0.16887517 1.2830001
-0.055113405 -0.16815211 1.2830001
-0.044990532 -0.16871449 1.2830001
-0.033979688 -0.16630533 1.2835001
-0.024450984 -0.16488409 1.2844286
-0.016206263 -0.1637328 1.2853076
-0.0045165867 -0.16146797 1.2880001
0.00338744 -0.16146797 1.2880001
-0.012753893 -0.15794478 1.2838334
-0.0041241325 -0.15784179 1.2830001
0.0050694714 -0.15635993 1.2846668
0.014271877 -0.15512004 1.2871177
0.025156638 -0.15529607 1.2876431
0.034765832 -0.15386111 1.2880001
0.045268513 -0.15222952 1.2880001
0.054917585 -0.15325601 1.2880001
0.065329202 -0.15114436 1.2880001
0.07452368 -0.15130566 1.2880001
0.085250556 -0.15187024 1.2880001
0.09507414 -0.15333813 1.2880001
0.10416169 -0.15324816 1.286077
0.11382684 -0.15100978 1.2855
0.01687145 -0.14959352 1.2830001
0.025119714 -0.14884369 1.2830001
0.034889579 -0.14742602 1.2837144
0.044267725 -0.14668985 1.2838334
0.055113405 -0.14884368 1.2830001
0.066030681 -0.14668985 1.2838334
0.074987829 -0.14634949 1.2852223
0.084927283 -0.14647181 1.2841113
0.094527781 -0.146291 1.283625
0.10378499 -0.14734401 1.2830001
0.11523703 -0.14596738 1.2852727
0.053825732 -0.49446425 1.2934706
0.060030628 -0.49383682 1.2920001
0.055102881 -0.48476622 1.2941428
0.061446447 -0.48420927 1.2919999
0.054981235 -0.47547385 1.2955296
0.062494002 -0.47434202 1.2929999
0.066559598 -0.46508357 1.295125
0.071357161 -0.4632552 1.2920001
0.065860659 -0.45437735 1.2970001
0.072489813 -0.45532662 1.2919999
0.067138031 -0.44536334 1.2946923
0.072798721 -0.44472086 1.2919999
0.068116121 -0.43480915 1.295
0.074755117 -0.43493888 1.2919999
0.08268369 -0.43267357 1.2919999
0.068222195 -0.42752576 1.2970001
0.075227164 -0.42567092 1.2936667
0.084986351 -0.42494118 1.2925999
0.091744922 -0.42247966 1.2920001
0.069359235 -0.41956654 1.2970001
0.075948022 -0.41673276 1.2965455
0.084708795 -0.4140887 1.2928696
0.094010226 -0.41383037 1.2919999
0.11439799 -0.41455114 1.2920001
0.087696396 -0.40646127 1.296091
0.095136382 -0.40533274 1.2943684
0.10284492 -0.40481034 1.2919999
0.11553064 -0.40435722 1.2919999
0.097233646 -0.39565146 1.2965455
0.10426372 -0.3945806 1.2919999
0.1166633 -0.39529601 1.2919999
0.12260972 -0.39388019 1.2919999
0.096306309 -0.38478222 1.2955
0.10526647 -0.38497275 1.2924762
0.11591436 -0.38497853 1.2940588
0.12398199 -0.38536346 1.2919999
0.09579476 -0.37656274 1.29575
0.10570348 -0.37607852 1.293579
0.11525472 -0.37505406 1.2952502
0.12405485 -0.37414944 1.2923124
0.13252044 -0.37717354 1.2920001
0.098922193 -0.36953691 1.2970001
0.10347033 -0.36953691 1.2970001
0.1148407 -0.36794505 1.2970001
0.12490241 -0.36449328 1.2952502
0.13116126 -0.36312866 1.2920001
0.11938885 -0.35248137 1.2970001
0.12507403 -0.35475543 1.2970002
0.13357759 -0.35512459 1.2919999
0.14158167 -0.3522552 1.2920001
0.11841425 -0.34517187 1.2970001
0.12507403 -0.34565911 1.2970002
0.13492899 -0.34583041 1.2933999
0.14367272 -0.34493652 1.2919999
0.11711477 -0.33997396 1.2970001
0.12575623 -0.33792728 1.2970001
0.13540773 -0.33539763 1.296167
0.14203472 -0.33594495 1.2920001
0.13888089 -0.32567978 1.2970001
0.14491615 -0.32509699 1.2930527
0.13947649 -0.31495914 1.2970001
0.14512169 -0.31468403 1.2948948
0.15352601 -0.31353906 1.2919999
0.1459312 -0.30521956 1.2966877
0.15508235 -0.30469838 1.2937392
0.14667772 -0.2956295 1.2970001
0.15549853 -0.29511732 1.2947501
0.16196942 -0.29222459 1.2920001
0.14735994 -0.28676066 1.2970001
0.15518562 -0.28526279 1.2946087
0.16242249 -0.28474906 1.2920001
0.1555113 -0.27593398 1.2958891
0.16416359 -0.27481884 1.2932498
0.17103066 -0.27183682 1.2920001
-0.19242044 -0.26273847 1.2936667
-0.18632849 -0.26245299 1.296
0.15653205 -0.26871967 1.2970001
0.16474037 -0.2647239 1.2960002
0.17103066 -0.26504087 1.2920001
-0.19217353 -0.25673473 1.2919999
-0.186864 -0.25498512 1.295
0.16702566 -0.25523967 1.296091
0.17140822 -0.25409189 1.2919999
-0.18509591 -0.24869104 1.2953334
0.16896364 -0.24628215 1.2970001
0.17347728 -0.24418777 1.2933636
-0.18265435 -0.23339526 1.2958889
-0.177405 -0.23587362 1.295125
0.17479974 -0.23546672 1.2947779
0.18084697 -0.23559189 1.2919999
-0.19380717 -0.22667752 1.2928333
-0.18459944 -0.22532885 1.2946472
-0.17506047 -0.22456275 1.2950001
-0.16737597 -0.2232244 1.2962857
0.17636268 -0.2255021 1.2966155
0.18219535 -0.22507441 1.2919999
-0.16312453 -0.21848743 1.294
-0.15510535 -0.21507753 1.2941428
-0.14567034 -0.2137776 1.2947778
-0.1349825 -0.21165125 1.2970001
0.17595641 -0.21802679 1.2970001
0.1824269 -0.21596655 1.2924999
-0.14837758 -0.20954086 1.2920001
-0.13443437 -0.20698294 1.293
-0.12491113 -0.20383728 1.2953333
-0.11559872 -0.20163448 1.2970001
-0.12119391 -0.19821434 1.2920001
-0.11461715 -0.19774839 1.2945
-0.1042155 -0.1963311 1.2945
-0.095630847 -0.19449756 1.295077
-0.085572392 -0.19367956 1.29575
-0.076181456 -0.19215919 1.2970001
-0.092877574 -0.18915311 1.2920001
-0.084193893 -0.18877554 1.2919999
-0.074576519 -0.18742567 1.2942727
-0.065064691 -0.18536218 1.2945
-0.055390529 -0.18232523 1.2953334
-0.046618503 -0.18135734 1.2970001
-0.032974064 -0.18078883 1.2970001
-0.052102052 -0.17782657 1.2920001
-0.044606552 -0.17730086 1.2936667
-0.034999367 -0.17622672 1.2943077
-0.024957458 -0.17584728 1.2940832
-0.016118744 -0.17301874 1.295
0.028425917 -0.17169254 1.2970001
-0.01182448 -0.16701023 1.2934285
-0.0045380653 -0.16637091 1.2945
0.0048010987 -0.16650119 1.2946923
0.015128831 -0.16527769 1.2942222
0.02495344 -0.16561121 1.2938751
0.035174277 -0.16565952 1.2942502
0.045395114 -0.16410121 1.2945
0.054552007 -0.16365492 1.296375
0.065000586 -0.16240674 1.2970001
0.074665397 -0.16183823 1.2970001
0.084424973 -0.16174346 1.2970001
0.09370093 -0.16312978 1.294
0.016989799 -0.15970412 1.2920001
0.022653066 -0.15970412 1.2920001
0.0369245 -0.15925105 1.2920001
0.04518028 -0.1581939 1.2919999
0.054367352 -0.15857145 1.2919999
0.064767174 -0.15640913 1.2919999
0.074755117 -0.15630615 1.2919999
0.084949002 -0.15721229 1.2919999
0.094463289 -0.15925105 1.2920001
0.11439799 -0.15064289 1.2920001
0.036252603 -0.49418136 1.305889
0.044599921 -0.49522609 1.3046191
0.035519905 -0.48725289 1.307
0.044619881 -0.48492074 1.3051999
0.0513639 -0.48738635 1.302
0.035519902 -0.47779998 1.307
0.045406643 -0.47434345 1.3047498
0.054103307 -0.4723196 1.302
0.060495261 -0.47140646 1.302
0.046159506 -0.46568722 1.307
0.05469422 -0.4655453 1.3041053
0.061922036 -0.46484327 1.302
0.049269542 -0.4548839 1.307
0.054856822 -0.45508435 1.3051577
0.061922036 -0.45628262 1.302
0.049269542 -0.44686329 1.307
0.055203993 -0.44482687 1.3058887
0.062017158 -0.44477335 1.302
0.055615537 -0.43602225 1.307
0.062824562 -0.43521327 1.3030001
0.05630805 -0.42542046 1.307
0.064186715 -0.42442411 1.3038421
0.071909457 -0.42460823 1.302
0.056653604 -0.415672 1.307
0.065163426 -0.41501403 1.3041428
0.0741923 -0.41433549 1.302
0.058435969 -0.40905178 1.307
0.066762649 -0.40657505 1.3064116
0.075447246 -0.4058226 1.3040001
0.083953761 -0.40424138 1.3023334
0.090172179 -0.40063843 1.302
0.068748198 -0.39568409 1.307
0.075607903 -0.3952257 1.3067497
0.08462625 -0.39506257 1.3054209
0.093107261 -0.39525744 1.302
0.069894001 -0.38842732 1.307
0.07727807 -0.38537183 1.307
0.084700055 -0.38463175 1.304647
0.091770157 -0.38465855 1.302
0.079060428 -0.3792609 1.307
0.08511512 -0.37482026 1.3061665
0.093359672 -0.37300202 1.3023846
0.10359883 -0.37214211 1.3027143
0.088226855 -0.36780286 1.307
0.095555544 -0.36546218 1.3060906
0.10544418 -0.36475077 1.3051578
0.11536642 -0.36437353 1.3029376
0.098157145 -0.35558096 1.307
0.10564307 -0.35542822 1.3069999
0.1147754 -0.35554385 1.3036666
0.099111989 -0.34775132 1.307
0.10799196 -0.34574619 1.307
0.11364339 -0.3440817 1.3045
0.10885131 -0.33457458 1.307
0.11497194 -0.33522159 1.3061174
0.12350345 -0.3341009 1.3036667
0.1312633 -0.33215323 1.302
0.11267067 -0.3246443 1.307
0.12650496 -0.32757509 1.3054616
0.13435458 -0.32539463 1.3029376
0.11343453 -0.31967914 1.307
0.13587564 -0.31499338 1.3058463
0.13641427 -0.30456945 1.3056365
0.14120093 -0.30411643 1.3034286
0.1368572 -0.29662007 1.306375
0.14153609 -0.29448637 1.302
0.13864221 -0.28874242 1.307
0.14409412 -0.28475618 1.3045002
-0.18224673 -0.27203843 1.302
-0.17989112 -0.27155539 1.307
0.14831729 -0.27592176 1.3047779
0.15252313 -0.27134696 1.3032501
-0.18224673 -0.2655704 1.302
-0.17828684 -0.26385561 1.30575
0.14780863 -0.26926377 1.307
0.15404193 -0.26458499 1.3043808
-0.18224673 -0.25491714 1.302
-0.17901255 -0.2564941 1.3061668
0.15739673 -0.25669762 1.3057501
0.16272362 -0.25459898 1.3035001
-0.18148577 -0.24997097 1.302
-0.17530791 -0.2417645 1.307
0.16474706 -0.24547052 1.3050554
0.17007157 -0.24083962 1.302
-0.19061714 -0.23170826 1.302
-0.18719289 -0.23170826 1.302
-0.17328268 -0.23458773 1.3023846
-0.16568315 -0.23168144 1.307
-0.15926667 -0.23030646 1.307
0.16493127 -0.23479851 1.3064998
0.17052814 -0.23444767 1.302
-0.171213 -0.22942542 1.302
-0.16373034 -0.22587432 1.302
-0.15456651 -0.22449516 1.3037648
-0.14561696 -0.22262526 1.3045001
-0.13558672 -0.22114004 1.307
-0.12832996 -0.22114004 1.307
0.16751644 -0.22618155 1.307
0.17108618 -0.22536704 1.302
-0.14324188 -0.2177221 1.3030001
-0.13459298 -0.21695347 1.3047779
-0.12472315 -0.21512587 1.3052497
-0.11466847 -0.2146178 1.307
-0.10617778 -0.2127375 1.307
-0.099684887 -0.21197362 1.307
-0.12441477 -0.20887987 1.302
-0.11495731 -0.20676009 1.302
-0.10510982 -0.20565559 1.3032498
-0.095361359 -0.20560357 1.3053333
-0.085027903 -0.20539168 1.3066154
-0.076004952 -0.20382567 1.307
-0.065692723 -0.20089751 1.307
-0.093596444 -0.1997485 1.302
-0.084302016 -0.19877015 1.302
-0.075356729 -0.19695814 1.3024167
-0.064743176 -0.19491176 1.3037647
-0.054945413 -0.19460301 1.30575
-0.045259226 -0.19306786 1.307
-0.035061587 -0.19180748 1.307
-0.022916067 -0.19134915 1.307
-0.01718705 -0.19134915 1.307
-0.060495261 -0.1883343 1.302
-0.053646736 -0.18702982 1.302
-0.044890862 -0.18616273 1.3027693
-0.03531564 -0.1852295 1.3042222
-0.025164664 -0.18531354 1.3048124
-0.016349832 -0.18492933 1.3055714
-0.0045832135 -0.18218273 1.307
0.0034374101 -0.18218273 1.307
0.014895444 -0.18218273 1.307
0.021770263 -0.18218273 1.307
-0.013481468 -0.17781053 1.3035001
-0.0045754206 -0.17552297 1.3047776
0.0045763645 -0.17616251 1.3048126
0.014559641 -0.17566212 1.3049543
0.024934385 -0.17637165 1.3046666
0.034116652 -0.17478526 1.3045001
0.045325015 -0.1729407 1.3050771
0.054571819 -0.17210728 1.3058889
0.06572745 -0.17218298 1.307
0.07485915 -0.17148857 1.307
0.085553318 -0.17148857 1.307
0.09051846 -0.1718705 1.307
0.0456568 -0.16778874 1.302
0.054788161 -0.16778874 1.302
0.065387063 -0.16713651 1.302
0.075908057 -0.16699447 1.3034286
0.084627271 -0.16696949 1.3045001
0.091048561 -0.16724257 1.3036667
0.028754666 -0.48307839 1.312
0.034275565 -0.48376852 1.3120002
0.0287985 -0.47574598 1.3140001
0.034316551 -0.4744266 1.3125885
0.040256534 -0.4727267 1.312
0.035937261 -0.46576881 1.3158462
0.042556908 -0.46326965 1.3120002
0.036946237 -0.45490062 1.317
0.04371668 -0.45558158 1.3123127
0.035698157 -0.444536 1.3136668
0.044457212 -0.4448221 1.3120002
0.036426552 -0.43599564 1.3150001
0.044857275 -0.43477052 1.3120002
0.052333497 -0.43362036 1.312
0.037331093 -0.42680606 1.317
0.044733882 -0.42528042 1.3140833
0.052218474 -0.42487898 1.312
0.047495879 -0.41615584 1.3156365
0.053368658 -0.41383713 1.3120002
0.049261648 -0.40602377 1.317
0.055029191 -0.40470737 1.3125885
0.063004673 -0.40371549 1.3120002
0.048261024 -0.39647934 1.317
0.055299059 -0.39517882 1.3142223
0.064487129 -0.3954342 1.3120002
0.057244319 -0.38663235 1.3165002
0.064434126 -0.3854585 1.3125002
0.072954699 -0.38432661 1.3120002
0.058498215 -0.37600493 1.317
0.064350314 -0.375458 1.3149413
0.074498102 -0.3743943 1.3126522
0.081663251 -0.37266049 1.312
0.07708887 -0.36660978 1.3157501
0.08499819 -0.36465725 1.3130528
0.092014939 -0.36115861 1.312
0.086185575 -0.35566494 1.3162309
0.093165129 -0.35425746 1.3120002
0.1031334 -0.35157371 1.312
0.087105893 -0.34649929 1.317
0.094175644 -0.34485289 1.3136667
0.10351679 -0.34428921 1.3120002
0.095257729 -0.33535501 1.3151251
0.1038088 -0.33454552 1.3122383
0.11559376 -0.33067867 1.312
0.1207696 -0.33010358 1.312
0.096695237 -0.32645467 1.317
0.10476275 -0.32466096 1.3132501
0.11630255 -0.32472214 1.3135002
0.12461453 -0.32337776 1.3127145
0.13227147 -0.32205227 1.312
0.10533642 -0.31495532 1.3138182
0.11529621 -0.31537756 1.314353
0.12530592 -0.31527784 1.3136667
0.13227147 -0.31515115 1.312
0.10852958 -0.30596104 1.317
0.11510009 -0.30568278 1.3152355
0.12571764 -0.30499205 1.3136667
0.13358597 -0.30578533 1.3120002
0.11892071 -0.29903364 1.317
0.12680767 -0.29672882 1.3160911
0.13369592 -0.29367486 1.3128335
-0.17549464 -0.28056049 1.317
-0.16741264 -0.28056049 1.317
-0.15586695 -0.28056049 1.317
0.12642542 -0.28537121 1.3170002
0.13432319 -0.28489378 1.3147273
0.14223976 -0.28256252 1.312
-0.1805793 -0.27719498 1.312
-0.17524096 -0.27439752 1.3151251
-0.16534714 -0.27417293 1.3158889
-0.15626873 -0.27422196 1.3165001
-0.14893954 -0.27132395 1.317
0.12671405 -0.2756536 1.317
0.1352316 -0.27497795 1.3154089
0.14360902 -0.27456599 1.3120002
-0.17403461 -0.26517725 1.3132502
-0.16577026 -0.26581138 1.3154376
-0.15586694 -0.2678602 1.317
-0.14663039 -0.26786023 1.317
-0.13802239 -0.26109236 1.312
0.12815727 -0.26901481 1.317
0.13581905 -0.26632968 1.3166667
0.14495721 -0.2646051 1.3123127
0.15067445 -0.26109236 1.312
-0.17367817 -0.25764182 1.3120002
-0.16824505 -0.25928515 1.3145001
0.14628479 -0.25601786 1.3166668
0.15400982 -0.25453657 1.3130001
-0.17380323 -0.24499929 1.3151251
-0.16596274 -0.24259898 1.3165001
-0.15471238 -0.24130513 1.317
0.1484777 -0.24407609 1.317
0.15563546 -0.24506962 1.3134584
-0.16435082 -0.23654826 1.3140836
-0.15487792 -0.23520476 1.3155293
-0.14701885 -0.23443849 1.315889
0.15664771 -0.23599698 1.313154
-0.14395304 -0.22802623 1.3136668
-0.13621199 -0.22586922 1.3145002
-0.1252981 -0.224694 1.3132502
-0.11607768 -0.22331972 1.3153334
-0.10506587 -0.2209847 1.317
0.16370989 -0.22812034 1.312
-0.11463527 -0.21968566 1.312
-0.10445376 -0.21696614 1.3125558
-0.094526075 -0.21441363 1.314917
-0.085234903 -0.21251461 1.3138751
-0.076871969 -0.21178864 1.3153334
-0.065810487 -0.21128631 1.317
-0.072499968 -0.20698261 1.3127145
-0.064186029 -0.20638102 1.3138183
-0.055314157 -0.20512776 1.3145001
-0.045789987 -0.20408431 1.3152144
-0.037331093 -0.20281947 1.317
-0.043994643 -0.19811964 1.3120002
-0.034248892 -0.19723415 1.314273
-0.026480593 -0.19456895 1.3132501
-0.015361391 -0.1943671 1.3145001
-0.0046182801 -0.19165862 1.317
0.005311022 -0.19096586 1.317
0.016163981 -0.19050404 1.317
0.02193683 -0.19050404 1.317
0.049646508 -0.19050404 1.317
0.056573927 -0.19108135 1.317
0.061192211 -0.19050404 1.317
-0.011501867 -0.18748043 1.3120002
-0.0050608218 -0.18702036 1.3120002
0.0049841423 -0.18594685 1.3120002
0.014534175 -0.18664393 1.3120002
0.025645288 -0.18558402 1.3133639
0.034498047 -0.18419871 1.3150769
0.04499672 -0.18388054 1.3160626
0.055379089 -0.18460213 1.3160625
0.064932264 -0.1844188 1.3159287
0.074422278 -0.18288465 1.3161668
0.081974469 -0.18126749 1.317
0.036805972 -0.17827894 1.312
0.044857278 -0.17827894 1.312
0.0557019 -0.17729306 1.3120002
0.064410456 -0.17712875 1.3120002
0.075807758 -0.17660592 1.3120002
0.084653743 -0.17643863 1.3120002
0.028285356 -0.47156891 1.3260001
0.027941121 -0.46568534 1.3280001
0.032321915 -0.46422517 1.322
0.019126361 -0.45554003 1.3280001
0.02739998 -0.4548097 1.3274546
0.032285128 -0.45480639 1.3219999
0.027941121 -0.44472951 1.3280001
0.03137695 -0.44508156 1.3256
0.027941121 -0.43541574 1.3280001
0.033157676 -0.43470919 1.3246666
0.027941119 -0.42493787 1.3280001
0.034309909 -0.42453542 1.3243332
0.042881273 -0.42070004 1.322
0.028523227 -0.41620624 1.3280001
0.035487466 -0.4153868 1.32725
0.042718798 -0.41444388 1.3230001
0.037254825 -0.40514624 1.3280001
0.044110581 -0.40574196 1.3242502
0.037254825 -0.39932516 1.3280001
0.044434007 -0.39413902 1.3244549
0.052152898 -0.39056727 1.322
0.046900939 -0.38491666 1.3265001
0.052893508 -0.38489002 1.3232002
0.046530832 -0.37498072 1.3270001
0.053604659 -0.37556762 1.3236003
0.066060342 -0.37202403 1.322
0.047732748 -0.36789143 1.3280001
0.055045445 -0.36621794 1.3261738
0.065062612 -0.36597532 1.3253002
0.074138537 -0.36358935 1.3228
0.058210667 -0.35974193 1.3280001
0.06581229 -0.35549593 1.3279998
0.075375289 -0.35480979 1.3262497
0.082285687 -0.35463971 1.322
0.066942267 -0.34751767 1.3280001
0.075482979 -0.34542856 1.32725
0.083617553 -0.34456727 1.3233848
0.07596492 -0.33558446 1.3280001
0.085016787 -0.33562675 1.3255
0.091557302 -0.33261961 1.322
0.078002296 -0.32830817 1.3280001
0.085357293 -0.32499027 1.3274781
0.093875222 -0.32376945 1.3220001
0.088092141 -0.31627795 1.3280001
0.095030002 -0.31491557 1.3245265
0.10160157 -0.31253108 1.322
0.095566347 -0.30504084 1.3265884
0.10399691 -0.30490482 1.3230004
0.11357743 -0.30190733 1.322
0.087315999 -0.29454598 1.3280001
0.096862555 -0.29547736 1.3280001
0.10462765 -0.29529107 1.3261251
0.11484262 -0.29464138 1.3232003
0.12323537 -0.29424536 1.322
-0.16225347 -0.28162566 1.322
-0.15877661 -0.28162566 1.322
-0.14785509 -0.28057542 1.3280001
0.098026767 -0.28616366 1.3280001
0.1047792 -0.28523225 1.3279997
0.11510435 -0.28504694 1.3262502
0.12255479 -0.28454465 1.3230001
-0.16225347 -0.27930775 1.322
-0.15242428 -0.27445978 1.3232
-0.14739859 -0.27525261 1.3258182
0.10734047 -0.2763842 1.3280001
0.11542962 -0.27544969 1.3269999
0.12357765 -0.2740669 1.324182
-0.16225347 -0.26540032 1.322
-0.15568607 -0.26617298 1.322
-0.14143379 -0.26775563 1.3260001
-0.13822842 -0.26716679 1.325
0.11816765 -0.26835114 1.3280001
0.12586066 -0.26550868 1.3258573
0.13386077 -0.2626988 1.3226666
0.14023335 -0.26076451 1.322
-0.15018351 -0.25030586 1.3280001
-0.14419614 -0.25163642 1.3280001
-0.13854139 -0.25030586 1.3280001
0.12806347 -0.25961956 1.3280001
0.13573271 -0.25718448 1.3274547
0.14209364 -0.25348803 1.3236365
-0.16387601 -0.24639349 1.322
-0.15498367 -0.24664636 1.3220001
-0.14476807 -0.24477257 1.3246667
-0.13647167 -0.2433206 1.3280001
0.14548965 -0.24670216 1.3253332
-0.14288069 -0.23667505 1.3226668
-0.13466609 -0.23451164 1.3242501
-0.12597349 -0.2331225 1.3256
-0.11613028 -0.23255162 1.3280001
-0.1047792 -0.23167846 1.3280001
0.14950497 -0.23990335 1.322
-0.1216901 -0.2283138 1.322
-0.11405849 -0.22783318 1.3242501
-0.1044636 -0.22634132 1.324
-0.095524393 -0.22522132 1.3256001
-0.085373305 -0.22309518 1.3268001
-0.074010707 -0.22136685 1.3280001
-0.065428793 -0.22050199 1.3280001
-0.053553812 -0.22003631 1.3280001
-0.092716262 -0.21904218 1.322
-0.08526586 -0.2180488 1.3219999
-0.074404806 -0.21579711 1.3220001
-0.06457819 -0.21539758 1.3233333
-0.055279091 -0.21496299 1.3243079
-0.044982273 -0.21479987 1.3254286
-0.03482056 -0.21389775 1.3280001
-0.028329192 -0.21149875 1.3280001
-0.043267593 -0.20899791 1.322
-0.034479298 -0.20657024 1.3230911
-0.025773648 -0.20411777 1.3244002
-0.016012114 -0.20352732 1.3266156
-0.0046568532 -0.20140891 1.3280001
0.0046568532 -0.20140891 1.3280001
0.013272032 -0.20187458 1.3280001
0.044007264 -0.20187458 1.3280001
-0.023179065 -0.19818102 1.322
-0.013529013 -0.1975583 1.3230001
-0.0041806479 -0.19668648 1.3244001
0.0043297769 -0.19648172 1.3247273
0.015098304 -0.19628075 1.3248001
0.025783818 -0.19535358 1.3248001
0.035036732 -0.19477817 1.3258572
0.044759184 -0.195051 1.3243337
0.052516341 -0.19532934 1.3228571
0.037086505 -0.1889094 1.322
0.045199182 -0.18832992 1.322
0.062583484 -0.18659149 1.322
0.023761466 -0.46432242 1.3330001
0.015581288 -0.45380506 1.3330001
0.023538876 -0.45591965 1.3330001
0.016768392 -0.44540155 1.3346667
0.023371935 -0.44523531 1.3330001
0.0082108602 -0.43048367 1.3380001
0.014906719 -0.43529794 1.3364091
0.023371933 -0.43471798 1.3330001
0.0082108602 -0.42813769 1.3380001
0.016087431 -0.42532578 1.3361578
0.023371935 -0.42536917 1.3330001
0.016606798 -0.41512221 1.3365295
0.024978755 -0.41412145 1.3330001
0.032720707 -0.41134605 1.3330001
0.016722729 -0.40525872 1.3355
0.025709128 -0.40433449 1.3330001
0.032720707 -0.40433446 1.3330001
0.018368406 -0.39669216 1.3374447
0.025528949 -0.39507484 1.3344706
0.035057899 -0.39498568 1.3330001
0.019940659 -0.38473743 1.3380001
0.025665399 -0.38516536 1.3344706
0.035057902 -0.38563687 1.3330001
0.041902538 -0.38513607 1.3330001
0.027415734 -0.37727395 1.3365002
0.035095155 -0.37553817 1.3345001
0.042199329 -0.37434044 1.3330001
0.037926354 -0.3687067 1.3379999
0.044761289 -0.36437967 1.3348751
0.052002549 -0.36168069 1.3330001
0.046625953 -0.35482645 1.3380002
0.054924048 -0.35525337 1.3330001
0.061935622 -0.35408482 1.3330001
0.048092175 -0.34524712 1.3379999
0.05506238 -0.34561113 1.3363998
0.0650177 -0.34379372 1.3333126
0.073154151 -0.34099653 1.3330001
0.055651385 -0.33573285 1.3379998
0.065500028 -0.33453047 1.3342501
0.073329441 -0.33275786 1.3330001
0.05662379 -0.32463512 1.3374116
0.06563516 -0.32467178 1.337
0.074515291 -0.32436034 1.3333126
0.080633171 -0.32253265 1.3330001
0.058965474 -0.31592348 1.3363334
0.066573389 -0.31514093 1.3374447
0.075057007 -0.31497115 1.3366842
0.083972022 -0.31468636 1.3330001
0.064740255 -0.30874324 1.3330001
0.075852707 -0.30575678 1.3380002
0.085380852 -0.30527654 1.3342001
0.093487732 -0.30032933 1.3330001
0.0866431 -0.29632267 1.3330001
0.094322443 -0.29365164 1.3330001
-0.15401646 -0.28388274 1.3370001
-0.14517336 -0.28332856 1.3355001
-0.13958462 -0.28151518 1.3380001
0.095824927 -0.28864336 1.3330001
-0.14288853 -0.27558479 1.3344287
-0.13486755 -0.27490431 1.3350589
-0.12878454 -0.27396226 1.3355
0.11569107 -0.27228302 1.3330001
-0.1347232 -0.2669079 1.3363334
0.12503985 -0.26293424 1.3330001
-0.13686305 -0.25484759 1.336889
0.12971424 -0.25709128 1.3330001
0.13555722 -0.25358546 1.3330001
-0.13271436 -0.24717847 1.3350002
-0.12581877 -0.24187364 1.3371668
-0.11495204 -0.2404609 1.3380001
-0.1055682 -0.2404609 1.3380001
0.139063 -0.24891108 1.3330001
0.1414002 -0.24891108 1.3330001
-0.12503985 -0.23815998 1.3330001
-0.1137434 -0.23644607 1.3330001
-0.10527013 -0.236279 1.3342501
-0.09564469 -0.23462428 1.3359169
-0.085063837 -0.2326355 1.3344287
-0.074838571 -0.23281564 1.3357275
-0.068032838 -0.23225005 1.3380001
-0.083749436 -0.22709727 1.3330001
-0.07479018 -0.22670773 1.3330001
-0.065400928 -0.22598475 1.3343638
-0.055807579 -0.22479428 1.3355001
-0.044462193 -0.22348396 1.3346667
-0.035424426 -0.22329631 1.3348184
-0.028542513 -0.22247522 1.3379999
-0.033889305 -0.21852757 1.3330001
-0.025106858 -0.21590187 1.3345386
-0.016473619 -0.21496181 1.336
-0.0046919202 -0.21230938 1.3380001
0.0046919202 -0.21230938 1.3380001
0.011495205 -0.21418615 1.3380001
-0.022203337 -0.20917881 1.3330001
-0.013522333 -0.20784327 1.3330001
-0.0046769436 -0.20690702 1.3334168
0.0046798661 -0.20703776 1.3342501
0.015393457 -0.20660271 1.3349233
0.025737304 -0.20539513 1.3344287
0.035439063 -0.20545055 1.3347858
0.043705516 -0.20543928 1.3330001
0.033889301 -0.19983003 1.3330001
0.0064276224 -0.42419165 1.347
0.01059627 -0.4238508 1.3430001
0.0047180005 -0.41514626 1.3467503
0.011067215 -0.41372547 1.3430001
0.0060841339 -0.40566719 1.3466924
0.011773634 -0.40383562 1.3430001
0.0082783634 -0.39854407 1.3490001
0.01356598 -0.39529514 1.3460002
0.015196785 -0.38609728 1.3474003
