# .PCD v0.7 - Point Cloud Data file format
VERSION 0.7
FIELDS x y z
SIZE 4 4 4
TYPE F F F
COUNT 1 1 1
WIDTH 1469
HEIGHT 1
VIEWPOINT 0 0 0 1 0 0 0
POINTS 1469
DATA ascii
0.26555553 -0.34558004 1.2335241
0.2710934 -0.34237692 1.2320001
0.26900867 -0.33463594 1.2340001
0.27239123 -0.33361527 1.2324446
0.26980644 -0.3272351 1.2360001
0.27394029 -0.32508302 1.2337143
0.27617705 -0.31551325 1.2348889
0.28189391 -0.3121354 1.2320001
0.27845675 -0.30580047 1.234182
0.28258532 -0.30491748 1.2326669
0.27847493 -0.297979 1.2360001
0.28499234 -0.29524288 1.2341055
0.29053435 -0.29377449 1.2320001
0.28822696 -0.28497627 1.2360001
0.29196817 -0.28548256 1.2335001
0.28858814 -0.27594662 1.2360001
0.29435125 -0.27539572 1.2323638
0.28931051 -0.26980644 1.2360001
0.29624337 -0.26562566 1.2342002
0.30133489 -0.26461306 1.2320001
0.29722226 -0.25479391 1.2346668
0.30133489 -0.25273246 1.2320001
0.29777211 -0.24499515 1.2344615
0.30133489 -0.2451721 1.2320001
0.29790431 -0.2362024 1.2348001
0.30155075 -0.23357828 1.2328891
0.297979 -0.22863115 1.2360001
0.30138925 -0.22479871 1.2340001
0.3027193 -0.2153042 1.2341334
0.30357873 -0.20527238 1.2340001
0.30346543 -0.19536139 1.233143
0.30256441 -0.18535443 1.2338183
0.30381632 -0.17449556 1.2349092
0.30605161 -0.16465817 1.2343335
0.30677286 -0.15528192 1.2343335
0.30723131 -0.1449621 1.2340001
0.30748078 -0.13481317 1.2338183
0.30418116 -0.12429576 1.2342501
0.30464342 -0.11517507 1.2336001
-0.20154217 -0.10077108 1.2360001
-0.19395722 -0.10077108 1.2360001
-0.18474698 -0.10077108 1.2360001
-0.17397158 -0.10173424 1.2360001
-0.16485591 -0.10169984 1.2360001
-0.1547478 -0.10172419 1.2344
-0.14510861 -0.10207088 1.2342223
-0.13710131 -0.10138475 1.2346668
-0.12786007 -0.10077108 1.2360001
0.30637515 -0.10836535 1.2320001
-0.20322303 -0.094823383 1.2337779
-0.19587822 -0.095374525 1.2327502
-0.18578194 -0.096771888 1.2327275
-0.17518464 -0.097852826 1.2320001
-0.16488813 -0.097924829 1.2320002
-0.15444763 -0.098284855 1.2320001
-0.14796731 -0.098284855 1.2320001
-0.13318163 -0.096675679 1.2328891
-0.12453692 -0.096128725 1.2338669
-0.11525089 -0.094944946 1.233778
-0.10515441 -0.095023468 1.2338948
-0.095199578 -0.094119512 1.2340001
-0.086003922 -0.093578331 1.2340001
-0.077366188 -0.09296944 1.2360001
-0.20654811 -0.085742787 1.2323638
-0.19980986 -0.089644425 1.2320001
-0.10044496 -0.089644425 1.2320001
-0.095044695 -0.089644425 1.2320001
-0.084398448 -0.089027248 1.2320002
-0.074569963 -0.088622585 1.2328002
-0.065174274 -0.087393142 1.2334547
-0.054825734 -0.084633403 1.233143
-0.04486753 -0.082998484 1.2344617
-0.034209538 -0.082195759 1.2360001
-0.025850644 -0.081886172 1.2360001
-0.018420519 -0.081266999 1.2360001
-0.2112942 -0.079099879 1.2360001
-0.20845027 -0.076683789 1.2320001
-0.044714205 -0.07841187 1.2320001
-0.035270691 -0.077515826 1.2327275
-0.024590498 -0.076477326 1.2330002
-0.015457386 -0.074355356 1.234286
-0.0058993823 -0.071394563 1.2360001
0.0060369773 -0.071050577 1.2360001
0.015169838 -0.071514964 1.2360001
0.02058764 -0.070431396 1.2360001
-0.012960641 -0.066963308 1.2320001
-0.004725453 -0.065492049 1.2322502
0.0054037729 -0.064847372 1.2328002
0.01513302 -0.064858429 1.2330002
0.024895404 -0.064942583 1.2346002
0.034378402 -0.063733034 1.2360001
0.043613289 -0.062575594 1.2360001
0.055983931 -0.062124103 1.2360001
0.062846482 -0.062846482 1.2360001
0.0032401599 -0.059402931 1.2320001
0.016200801 -0.059402931 1.2320001
0.025766987 -0.058785763 1.2320002
0.035665605 -0.057929434 1.2328002
0.044539932 -0.058164727 1.2332003
0.055637319 -0.057634495 1.2332308
0.065232016 -0.056733858 1.234286
0.074456215 -0.056012828 1.234286
0.085300215 -0.056128815 1.2349476
0.094960816 -0.054848853 1.234154
0.10447761 -0.052696567 1.2344617
0.11485736 -0.050927319 1.2360001
0.12491899 -0.051546492 1.2360001
0.135445 -0.052010875 1.2360001
0.14194636 -0.052010879 1.2360001
0.16686824 -0.050927319 1.2360001
0.17373079 -0.050927322 1.2360001
0.18621753 -0.051546495 1.2360001
0.19504079 -0.052010879 1.2360001
0.20386408 -0.051546492 1.2360001
0.21469966 -0.051546492 1.2360001
0.22429691 -0.050927322 1.2360001
0.23621608 -0.050927319 1.2360001
0.24085189 -0.050762508 1.2320001
0.10692528 -0.048602398 1.2320001
0.11612989 -0.04767742 1.2328891
0.12533659 -0.047542073 1.2325002
0.13533396 -0.047034919 1.2333335
0.14532328 -0.045798823 1.2340002
0.15477464 -0.045460947 1.2346002
0.16479848 -0.04526116 1.2343531
0.1744421 -0.045621544 1.234316
0.18471804 -0.046249427 1.2340002
0.19520976 -0.04725584 1.2327275
0.20521012 -0.047522347 1.2320002
0.21527953 -0.047601249 1.2340001
0.22494283 -0.046288706 1.2336003
0.233815 -0.046486881 1.233143
0.24085189 -0.047522344 1.2320001
0.14796731 -0.039961971 1.2320001
0.30133489 0.24949232 1.2320001
0.30398417 0.25530112 1.2340001
0.30798 0.26209879 1.2344002
0.31302309 0.26665193 1.2342857
-0.018360907 0.48818409 1.2320001
-0.02058764 0.49627048 1.2360001
-0.017496865 0.49531245 1.2320001
0.23575319 -0.47150639 1.245
0.22769101 -0.46175426 1.2410001
0.23538046 -0.46476468 1.244
0.22649346 -0.45455974 1.2421108
0.2354904 -0.45484146 1.2442002
0.24043548 -0.45584825 1.2410001
0.22811306 -0.44749451 1.245
0.23477629 -0.44531626 1.2443336
0.24043548 -0.44496879 1.2410001
0.23569763 -0.43500149 1.2440001
0.24043548 -0.43626526 1.2410001
0.23535277 -0.42481989 1.2448099
0.24130583 -0.42277479 1.2410001
0.23611699 -0.41547868 1.245
0.24157476 -0.41431746 1.241889
0.23866372 -0.40565553 1.245
0.24252065 -0.40420279 1.2433333
0.23793609 -0.39510486 1.245
0.24335541 -0.39460143 1.2424287
0.23820895 -0.38610047 1.245
0.24380313 -0.38507733 1.2427778
0.24637735 -0.37523055 1.2437828
0.25228196 -0.37485692 1.2410001
0.24736156 -0.36420316 1.2446923
0.25240284 -0.364461 1.2410001
0.24775913 -0.35589662 1.245
0.25314993 -0.35368228 1.2420001
0.2488506 -0.34817255 1.245
0.25536558 -0.34513205 1.2436666
0.26276094 -0.34328869 1.2413077
0.25649074 -0.33507517 1.2450001
0.26425329 -0.33492509 1.2429048
0.25668919 -0.32535133 1.245
0.26509529 -0.32546088 1.2430869
0.2708979 -0.32311919 1.2410001
0.25621787 -0.31815767 1.245
0.26542303 -0.31569359 1.2440912
0.27248037 -0.31342655 1.2410001
0.26896447 -0.30545011 1.245
0.27414095 -0.30391318 1.2425554
0.26958814 -0.29796585 1.245
0.27575839 -0.29484195 1.2438002
0.28283861 -0.29185799 1.2415714
0.2755132 -0.28627175 1.245
0.28317001 -0.28466249 1.2431053
0.28443545 -0.27484471 1.2436001
0.28569999 -0.26543024 1.2450002
0.29229409 -0.26364496 1.2410001
0.28642768 -0.25571117 1.245
0.29262918 -0.25442994 1.2417274
0.28826407 -0.24606133 1.245
0.29296884 -0.24505025 1.2423333
0.28923425 -0.23466174 1.245
0.29368308 -0.23447298 1.2426469
0.29544637 -0.22500394 1.2431821
0.29666013 -0.21534646 1.2441112
0.30136031 -0.2132369 1.2410001
0.29764441 -0.20569813 1.2436666
0.30105743 -0.20415156 1.2420001
0.29734215 -0.19443403 1.245
0.30060309 -0.19595012 1.2435
0.29714727 -0.18472792 1.245
0.30068722 -0.18467519 1.2432222
0.2968744 -0.174632 1.245
0.30109328 -0.17451295 1.2426001
0.29578295 -0.16480894 1.2450001
0.30156383 -0.16515261 1.2425385
0.29651058 -0.15534973 1.245
0.30271173 -0.15517026 1.2428824
0.29752928 -0.14690916 1.245
0.30298108 -0.1449523 1.2432001
0.30402303 -0.13512357 1.243
0.29857513 -0.12204602 1.243
0.30191335 -0.12752381 1.2432858
-0.19245903 -0.11169172 1.245
-0.18492283 -0.11257526 1.245
-0.17454804 -0.11275519 1.245
-0.16477412 -0.11457816 1.2447335
-0.15491666 -0.11482695 1.2437693
-0.1449247 -0.11503088 1.244059
-0.13765192 -0.11409344 1.2442
-0.12769964 -0.11023645 1.245
0.29918441 -0.11749788 1.2410001
0.30136031 -0.11858582 1.2410001
-0.20126952 -0.1055305 1.2410001
-0.19431485 -0.1056624 1.2425386
-0.1847132 -0.1058047 1.2422308
-0.17515889 -0.10618327 1.2410001
-0.16536738 -0.10770638 1.2410001
-0.1555759 -0.1077064 1.2409999
-0.14452907 -0.10804113 1.2410001
-0.13501163 -0.10670464 1.2420001
-0.12498961 -0.10524027 1.2435884
-0.11473401 -0.10486534 1.2439476
-0.10500017 -0.10449068 1.2438236
-0.094879881 -0.10469768 1.2440001
-0.085425153 -0.10428814 1.2447144
-0.076245584 -0.10212854 1.245
-0.21214895 -0.090299293 1.2410001
-0.20997307 -0.090299293 1.2410001
-0.094651073 -0.099002846 1.2410001
-0.084134281 -0.098277546 1.2410001
-0.074340187 -0.097140536 1.2428463
-0.064581044 -0.0958125 1.2441581
-0.054803617 -0.094174519 1.2437366
-0.045673702 -0.092908382 1.2447141
-0.034107812 -0.091954663 1.245
-0.026038876 -0.091214038 1.245
-0.01855465 -0.09059035 1.245
-0.21398242 -0.086186983 1.2444286
-0.051133335 -0.088123411 1.2410001
-0.043902006 -0.087808102 1.2416667
-0.034872044 -0.087176614 1.243
-0.024485447 -0.086515166 1.2413334
-0.015752506 -0.085308038 1.2431818
-0.0060029747 -0.081858747 1.245
-0.011967377 -0.078331918 1.2410001
-0.0051361397 -0.077526391 1.2429999
0.0051168343 -0.076057643 1.2434616
0.015255754 -0.076280519 1.243
0.02556313 -0.073673382 1.2428461
0.034479648 -0.072667778 1.2445999
0.043813918 -0.071567938 1.245
0.0545725 -0.07094425 1.245
0.062212646 -0.07094425 1.245
0.035902128 -0.068540432 1.2410001
0.045015637 -0.067175858 1.2413636
0.054869555 -0.066432513 1.2422308
0.065489627 -0.066880018 1.2431818
0.074325368 -0.064592391 1.2431335
0.085331313 -0.06412442 1.2435454
0.094359607 -0.063998215 1.2437693
0.1047792 -0.060575474 1.245
0.12497102 -0.060029749 1.245
0.1353398 -0.060029749 1.245
0.14297995 -0.060029749 1.245
0.2051926 -0.060029749 1.245
0.21595117 -0.060653437 1.245
0.22468279 -0.060965277 1.245
0.2317512 -0.061485019 1.245
0.095739014 -0.059836883 1.2410001
0.10559994 -0.057698168 1.2418001
0.11535697 -0.0557505 1.2424546
0.12496636 -0.056044567 1.2413335
0.13490497 -0.056573052 1.2410001
0.14582984 -0.055408839 1.2427142
0.15518108 -0.053992499 1.241941
0.16464576 -0.055157565 1.2427502
0.17551443 -0.054928809 1.2424285
0.18447201 -0.055925202 1.2426667
0.19505569 -0.056665979 1.243
0.20616525 -0.056029081 1.2410001
0.21577543 -0.056210406 1.2410001
0.22556743 -0.055780321 1.2414999
0.23457628 -0.054760184 1.2424546
0.24043548 -0.053309225 1.2410001
0.3042717 0.25683221 1.244
0.30778891 0.26576805 1.245
0.31112227 0.26828542 1.2423334
0.31628585 0.27434123 1.2445556
0.2334125 -0.46353748 1.25
0.2268375 -0.45038751 1.25
0.2334125 -0.45257917 1.25
0.21784291 -0.44118688 1.2550001
0.22544083 -0.44423652 1.2531582
0.23286459 -0.44326457 1.25
0.21746433 -0.43437943 1.256
0.22524962 -0.43506831 1.2539134
0.23278631 -0.43598509 1.25
0.21798535 -0.42474958 1.2589999
0.2252634 -0.42496207 1.2540004
0.2334125 -0.42518333 1.25
0.21798536 -0.41610369 1.2589999
0.22571373 -0.41503966 1.2549585
0.2334125 -0.41412535 1.25
0.21964094 -0.40837765 1.2590001
0.22593416 -0.40502766 1.2560912
0.23456667 -0.40555999 1.2503126
0.2272784 -0.39508012 1.2565001
0.23384589 -0.39633134 1.2523333
0.2258977 -0.3849538 1.2575456
0.23499072 -0.38494828 1.252895
0.22692502 -0.37539175 1.2568949
0.23604739 -0.37527403 1.2543916
0.24245344 -0.3734763 1.2514286
0.22738934 -0.36570773 1.2580589
0.2362757 -0.36493748 1.2565
0.24259034 -0.36608198 1.251
0.22825083 -0.35638148 1.2578
0.23534477 -0.35527557 1.2574002
0.24346298 -0.35470268 1.2526472
0.22847073 -0.34988031 1.2590001
0.23556606 -0.34562308 1.2589999
0.24508353 -0.34535977 1.2546252
0.25138417 -0.34343415 1.25
0.22791888 -0.33277258 1.2590001
0.23481713 -0.33415225 1.2590001
0.24575792 -0.33471239 1.256704
0.25204167 -0.335325 1.25
0.22847073 -0.32780582 1.2590001
0.23730052 -0.32707 1.2590001
0.24578291 -0.32508701 1.2587334
0.25223169 -0.32535776 1.2543751
0.24637556 -0.31603277 1.2589999
0.25487664 -0.31417841 1.2561157
0.26373056 -0.31158194 1.25
0.25601885 -0.30545199 1.2570003
0.26429963 -0.30379704 1.2515001
0.2587443 -0.2956402 1.2589999
0.26515251 -0.2948643 1.2550418
0.27067083 -0.29368332 1.25
0.25937498 -0.28807178 1.2590001
0.26634499 -0.28618976 1.2575884
0.27305692 -0.28325871 1.2530714
0.26722372 -0.27482712 1.2589999
0.27486199 -0.27502105 1.2540002
0.26746896 -0.26746896 1.2590001
0.27518919 -0.26528224 1.2560387
0.28127119 -0.26407832 1.2516667
0.2760042 -0.25552753 1.258778
0.28214166 -0.25446194 1.2515385
0.2779806 -0.24613032 1.2589999
0.28391871 -0.24507415 1.2541431
0.27850619 -0.2365647 1.2589999
0.28491339 -0.23503099 1.2552503
0.27813828 -0.22515956 1.2589999
0.28569534 -0.22529286 1.2569547
0.29076111 -0.22391528 1.25
0.27924201 -0.2174335 1.2590001
0.28548855 -0.21517582 1.258167
0.29210865 -0.21421446 1.253091
0.28603572 -0.20571972 1.2584666
0.29311371 -0.20447588 1.2528238
0.28652659 -0.1966835 1.2589999
0.29309857 -0.19500154 1.254773
0.28712574 -0.18589854 1.2589999
0.29341733 -0.18493459 1.2556667
0.28766659 -0.17405812 1.2581999
0.29271629 -0.17585565 1.2546875
0.28794834 -0.16519921 1.2576667
0.29187155 -0.16512991 1.2511111
0.28850016 -0.15582459 1.2576667
0.29251638 -0.15430678 1.2535883
0.28807178 -0.14458776 1.2590001
0.29378739 -0.14442053 1.2551669
-0.16088587 -0.13113444 1.2570001
-0.1539766 -0.13222951 1.2584286
-0.14569148 -0.1324468 1.2589999
-0.13796541 -0.13134308 1.2590001
0.28807178 -0.13575797 1.2590001
0.29524001 -0.13514471 1.2558755
0.30106989 -0.13462719 1.2514286
-0.18263596 -0.12322427 1.2550001
-0.1756776 -0.12454298 1.2554615
-0.16509567 -0.12468236 1.2520589
-0.15512225 -0.1254251 1.2549502
-0.14474399 -0.12578706 1.2561113
-0.13634941 -0.12312894 1.2570909
-0.1252726 -0.12030584 1.2590001
-0.11809839 -0.12030584 1.2590001
0.29739308 -0.12782238 1.2533334
-0.18318607 -0.1173736 1.25125
-0.17548987 -0.11850654 1.25
-0.16547084 -0.11944582 1.25
-0.15396458 -0.11944583 1.25
-0.14465 -0.11944583 1.25
-0.13372469 -0.11501019 1.2509999
-0.12495689 -0.11442229 1.2525333
-0.11536555 -0.11427404 1.2533001
-0.10474635 -0.1145974 1.2549477
-0.094878078 -0.11415989 1.2541765
-0.085043497 -0.11401069 1.2544446
-0.075216562 -0.11328096 1.2567273
-0.065588012 -0.11241779 1.2585555
-0.05739361 -0.11147606 1.2590001
-0.20174934 -0.10582564 1.253
-0.083283335 -0.1084875 1.25
-0.075106725 -0.10663301 1.25
-0.064706326 -0.10528679 1.251
-0.054880381 -0.10537846 1.2520626
-0.045265447 -0.10511074 1.2558237
-0.035428233 -0.10408425 1.2572858
-0.025089219 -0.10379256 1.2571177
-0.016543381 -0.10257537 1.2581111
-0.060270835 -0.099720836 1.25
-0.054791667 -0.099720836 1.25
-0.043733712 -0.09792766 1.25
-0.035505001 -0.096871667 1.25
-0.025215857 -0.096266188 1.2506667
-0.015154879 -0.094685599 1.2529334
-0.006154045 -0.094273686 1.256412
0.0049663167 -0.092400454 1.2585
0.014972591 -0.092513509 1.2584286
0.022074467 -0.091609038 1.2590001
-0.21587917 -0.084379166 1.25
-0.012054167 -0.086570829 1.25
-0.0053424621 -0.086319074 1.2503126
0.0054883719 -0.085615717 1.2520002
0.015381116 -0.085692532 1.2531251
0.025535963 -0.085619114 1.2559049
0.035005495 -0.084335834 1.2565558
0.045300756 -0.084132053 1.2565001
0.054674543 -0.082235359 1.2573999
0.065078303 -0.0805206 1.2582
0.075053185 -0.0805718 1.2590001
0.081675529 -0.0805718 1.2590001
0.0049312501 -0.079995833 1.25
0.015341667 -0.079995833 1.25
0.025204167 -0.078899994 1.25
0.03579722 -0.077073604 1.25
0.044929162 -0.076708332 1.25
0.054864723 -0.075716235 1.2516667
0.065193065 -0.075277299 1.2529414
0.074979238 -0.074467681 1.2523532
0.084979638 -0.075021721 1.2554741
0.094989337 -0.074146643 1.2565385
0.10502688 -0.074318476 1.2564119
0.11441931 -0.073213644 1.2589999
0.12472074 -0.072845735 1.2589999
0.13476631 -0.073543563 1.2583333
0.14392552 -0.073507972 1.2589999
0.15385903 -0.072183505 1.2590001
0.16445479 -0.071742013 1.2590001
0.17622782 -0.072109915 1.2589999
0.18616134 -0.072477825 1.2589999
0.19453123 -0.072569802 1.2589999
0.20529254 -0.072845735 1.2589999
0.21575704 -0.073916391 1.2584286
0.22224376 -0.072614297 1.2550001
0.078242496 -0.068160832 1.25
0.084817499 -0.068599164 1.25
0.096276797 -0.068411306 1.25
0.10547643 -0.06600599 1.2506667
0.1154264 -0.064863399 1.2539603
0.12547109 -0.065616436 1.2535297
0.13519187 -0.065950535 1.2537504
0.14515986 -0.06509167 1.253895
0.15492722 -0.064725757 1.2548337
0.16509646 -0.064947091 1.2555004
0.17523812 -0.065147683 1.2558752
0.18518658 -0.064566664 1.2540002
0.19484964 -0.065114401 1.2532611
0.20444427 -0.065426856 1.2530558
0.2143297 -0.066319048 1.253778
0.2246242 -0.066512391 1.2524999
0.23560417 -0.060270835 1.25
0.1150625 -0.058079164 1.25
0.15670417 -0.058079164 1.25
0.17204583 -0.058079164 1.25
0.30354583 0.25752082 1.25
0.29837319 0.2652615 1.2590001
0.30453849 0.26504916 1.2558126
0.30714059 0.27129942 1.2580001
0.31274796 0.27697119 1.2541819
0.31646842 0.28235906 1.2552
0.32107916 0.28272501 1.25
0.21531108 -0.43062392 1.266
0.21373935 -0.42415434 1.2651428
0.21398787 -0.41477856 1.2653999
0.21709131 -0.40549397 1.2666665
0.22166242 -0.40323859 1.2651428
0.21767592 -0.39497772 1.2675556
0.22162133 -0.39448598 1.2640001
0.21806775 -0.38474223 1.2675
0.22051322 -0.38451302 1.2640001
0.2183526 -0.37397847 1.268
0.22188589 -0.37458098 1.2662222
0.218035 -0.36476797 1.268
0.22277737 -0.36402705 1.2653333
0.21898782 -0.35793948 1.268
0.2241395 -0.35414407 1.2668234
0.23602672 -0.35126981 1.2640001
0.22741131 -0.34429258 1.2662857
0.23565735 -0.34517524 1.2640001
0.22555201 -0.33504313 1.2664615
0.23565735 -0.33501759 1.2640001
0.24045914 -0.33575633 1.2640001
0.22733238 -0.32586968 1.2665
0.23441301 -0.32444924 1.2650908
0.24235876 -0.32214245 1.2640001
0.22788075 -0.31458658 1.268
0.23435496 -0.31471309 1.2669563
0.24352776 -0.31376463 1.2640001
0.23576698 -0.30562377 1.2677143
0.24526884 -0.30515277 1.265
0.25301769 -0.30177438 1.2640001
0.24692157 -0.29603949 1.2675998
0.25362158 -0.29410082 1.265
0.25599718 -0.28525767 1.2654999
0.26239967 -0.28301045 1.2640001
0.25687334 -0.27481398 1.2667692
0.26296222 -0.2748957 1.2640001
0.2590059 -0.2678988 1.268
0.26452172 -0.26452237 1.264909
0.26715714 -0.25510725 1.2659999
0.27242374 -0.25385505 1.2645
0.2678988 -0.24455494 1.268
0.27331871 -0.24449179 1.2648
0.26812732 -0.23405772 1.2673334
0.27384436 -0.23504311 1.2646667
0.28035098 -0.2338105 1.2640001
0.2689957 -0.22641917 1.2648
0.27375245 -0.22446521 1.2642354
0.27518049 -0.2150152 1.2654117
0.28035098 -0.21275648 1.2640001
0.27835101 -0.20579924 1.2666668
0.28133595 -0.20450725 1.2640001
0.27837974 -0.19357954 1.268
0.28307864 -0.19443011 1.2640001
0.27827385 -0.18712157 1.268
0.28319302 -0.18473038 1.2644706
0.27901495 -0.17452328 1.268
0.28297898 -0.17507936 1.2651428
0.27901495 -0.16451877 1.268
0.28337064 -0.1644793 1.2645
0.27901495 -0.15525533 1.268
0.28377482 -0.15470773 1.2655555
0.28567079 -0.14537606 1.264842
-0.14361063 -0.13629711 1.2640001
-0.13476022 -0.13476172 1.2674285
-0.12462422 -0.13203496 1.268
-0.11449617 -0.13005877 1.268
-0.10338004 -0.13005877 1.268
-0.098933585 -0.13005877 1.268
-0.13385928 -0.12698901 1.2640001
-0.12546229 -0.12546228 1.2640001
-0.11480193 -0.12464949 1.26525
-0.10512342 -0.12403872 1.2650526
-0.094829813 -0.12455425 1.2659999
-0.085178182 -0.12309326 1.2665713
-0.074284725 -0.12317567 1.2674284
-0.065307282 -0.12255538 1.268
-0.054469049 -0.12116585 1.268
-0.045576144 -0.12116585 1.268
-0.081999898 -0.11856741 1.2640001
-0.074686393 -0.11812417 1.2640001
-0.064992882 -0.11719122 1.2643636
-0.054773428 -0.11598302 1.2648
-0.045236558 -0.1151665 1.2650526
-0.034634236 -0.11524291 1.2658948
-0.024449943 -0.11446664 1.2676665
-0.0166742 -0.11338457 1.268
-0.044693638 -0.10970256 1.2640001
-0.035459414 -0.10970256 1.2640001
-0.025117084 -0.10933319 1.2640001
-0.014044493 -0.10683206 1.265
-0.0052309446 -0.10308348 1.2662857
0.0044460148 -0.10222854 1.2675
0.014450973 -0.10115682 1.268
0.023343882 -0.10115681 1.268
-0.0018468444 -0.097882755 1.2640001
0.0055443589 -0.096864969 1.2647272
0.015314666 -0.097447805 1.2659999
0.025091136 -0.095702767 1.2663999
0.034309637 -0.095351227 1.2672939
0.043988127 -0.093216717 1.268
0.055802982 -0.092041582 1.2679999
0.064251252 -0.091819264 1.2679999
0.073525287 -0.090675883 1.268
0.082259387 -0.090040676 1.268
0.037675627 -0.089756638 1.2640001
0.046171114 -0.089387268 1.2640001
0.055563629 -0.087223828 1.2640001
0.065119803 -0.085245058 1.2651428
0.075015418 -0.085601225 1.2655385
0.085041568 -0.084601134 1.2664
0.094677731 -0.084226213 1.2670586
0.10479107 -0.083101518 1.2664615
0.1137551 -0.082259387 1.268
0.12413015 -0.081147775 1.268
0.13561682 -0.081147775 1.268
0.14413919 -0.081147775 1.268
0.17674652 -0.081147775 1.268
0.18452781 -0.081147775 1.268
0.20609312 -0.082037069 1.268
0.21176234 -0.081703581 1.268
0.09418907 -0.078675576 1.2640001
0.10305393 -0.078675576 1.2640001
0.11582419 -0.077796899 1.2651428
0.12476759 -0.077472001 1.2644445
0.13488801 -0.078347698 1.2646667
0.14605048 -0.077321559 1.2645
0.15480722 -0.076751359 1.2654544
0.16514681 -0.075694546 1.266
0.17490822 -0.076573186 1.2658463
0.18466109 -0.076952837 1.2654545
0.19517477 -0.077494524 1.2663999
0.20477177 -0.077333152 1.2650909
0.21342134 -0.077789091 1.2640001
0.29808068 0.26926991 1.2640001
0.3002969 0.26926991 1.2640001
0.29902399 0.2745685 1.268
0.30523488 0.27473214 1.2653333
0.30853933 0.28079456 1.266
0.312558 0.28571862 1.2651999
0.32245904 0.28921583 1.2640001
0.31503123 0.29057574 1.268
0.32125625 0.29346591 1.268
0.20732041 -0.41408208 1.2771666
0.21092337 -0.41403475 1.273
0.20622461 -0.40535343 1.278
0.21306688 -0.40507996 1.2745383
0.20603788 -0.39594227 1.278
0.21322441 -0.3951925 1.2734165
0.20771845 -0.38563478 1.278
0.21372928 -0.38510677 1.2732941
0.20826618 -0.37582526 1.278
0.21379307 -0.37513429 1.2729999
0.208333 -0.36554489 1.2768888
0.21368054 -0.36466837 1.273
0.20793609 -0.35510913 1.2770909
0.21497467 -0.35439247 1.2737144
0.22208333 -0.35153896 1.273
0.20876414 -0.34769127 1.2780001
0.21593177 -0.34486514 1.2745219
0.22292033 -0.34567994 1.2729999
0.21660466 -0.33464476 1.2762501
0.22222726 -0.33352652 1.2738333
0.21735373 -0.32491022 1.278
0.22320555 -0.32439768 1.2741766
0.21810065 -0.31482676 1.278
0.22325636 -0.3147451 1.2744706
0.2310113 -0.31136307 1.273
0.21847411 -0.30474335 1.2780001
0.22475539 -0.30482715 1.2744585
0.23435928 -0.3026211 1.2729999
0.24217127 -0.30131912 1.273
0.21847411 -0.29690069 1.2780001
0.22546111 -0.29521787 1.2777727
0.23490576 -0.2943539 1.2747501
0.24340272 -0.2937327 1.2758125
0.22893099 -0.28532341 1.278
0.23496634 -0.28492552 1.2770624
0.24531497 -0.28467777 1.2761818
0.25220084 -0.28420639 1.2735554
0.22903769 -0.27417299 1.278
0.23468666 -0.27488855 1.278
0.24585021 -0.27518803 1.2777619
0.25310272 -0.27358752 1.2746665
0.23471962 -0.26721063 1.2780001
0.24872436 -0.26553002 1.278
0.25535905 -0.2646834 1.2763333
0.2606779 -0.26290989 1.2739999
0.25622228 -0.25570518 1.278
0.26299608 -0.25457442 1.2749231
0.25738183 -0.24577063 1.278
0.26347867 -0.24547338 1.2744706
0.25806084 -0.23789401 1.2780001
0.2639837 -0.23562655 1.2751054
0.26704597 -0.22583489 1.2763332
0.27001157 -0.22071485 1.2780001
0.26777083 -0.21511297 1.2780001
0.27146524 -0.21434836 1.2752726
0.26777083 -0.20614991 1.2780001
0.27363819 -0.20497721 1.276409
0.27394667 -0.19542225 1.276
0.27502766 -0.18535054 1.2768235
0.28011516 -0.18302345 1.273
0.27618402 -0.17469357 1.2762142
0.26777083 -0.16021433 1.2780001
0.27483499 -0.16423 1.277
0.26777083 -0.1568532 1.2780001
0.27473906 -0.15506957 1.276421
0.28011516 -0.15400754 1.273
-0.1354564 -0.14217693 1.2770001
-0.1261548 -0.14049564 1.2780001
0.27897462 -0.14901054 1.2780001
0.28011516 -0.14842756 1.273
-0.13325 -0.1390532 1.273
-0.12424763 -0.13652359 1.2729999
-0.11512708 -0.13525066 1.275
-0.10539573 -0.13385712 1.2752726
-0.09510763 -0.13427368 1.2763333
-0.085895799 -0.13183136 1.278
-0.074318536 -0.13145791 1.278
-0.06542401 -0.13197151 1.2772857
-0.057139378 -0.13108446 1.2780001
-0.084815741 -0.12833962 1.273
-0.075143777 -0.12796763 1.2729999
-0.063920937 -0.12700763 1.2736249
-0.05473819 -0.12624145 1.2743334
-0.044822212 -0.12552272 1.2752726
-0.034851886 -0.1238337 1.2760768
-0.025112867 -0.12301349 1.2772857
-0.016805699 -0.12212142 1.2780001
-0.03013191 -0.11941164 1.273
-0.024551926 -0.11941164 1.273
-0.013564537 -0.11587629 1.2744285
-0.0047944277 -0.11364298 1.2762142
0.0044815196 -0.11166454 1.278
0.013811446 -0.11121876 1.2771667
0.02352798 -0.11091762 1.2780001
0.032491021 -0.11091762 1.2780001
-0.0044639865 -0.10825168 1.273
0.0044639865 -0.10713568 1.2729999
0.014517306 -0.10607637 1.2736666
0.024817893 -0.10570901 1.2733846
0.034646086 -0.10505076 1.2747501
0.044463016 -0.10388286 1.2766362
0.05487626 -0.10303507 1.2774999
0.063861661 -0.10195458 1.2780001
0.037943885 -0.099323705 1.273
0.045011863 -0.097835712 1.2729999
0.054168765 -0.097435087 1.2729999
0.064977743 -0.097577132 1.2734998
0.075274304 -0.096519634 1.2752223
0.085137777 -0.095442399 1.2741113
0.094964035 -0.094968244 1.2744002
0.10487951 -0.094766185 1.2748421
0.11361008 -0.092341483 1.27675
0.12596272 -0.091711096 1.278
0.13396543 -0.091711104 1.278
0.14284845 -0.09131097 1.2780001
0.15349208 -0.090750776 1.2780001
0.16469586 -0.090750776 1.2780001
0.17477928 -0.090750776 1.2780001
0.1848627 -0.090750776 1.2780001
0.19494613 -0.091497697 1.278
0.20334896 -0.09131097 1.2780001
0.094859719 -0.088163733 1.273
0.10490368 -0.088163733 1.273
0.11577468 -0.086209975 1.2745383
0.12522852 -0.085694909 1.2745383
0.13430445 -0.085600607 1.2751428
0.14482522 -0.086032793 1.2766666
0.15499745 -0.084774487 1.2760557
0.16490549 -0.085253686 1.2757779
0.17499144 -0.084892698 1.274111
0.18517391 -0.085623264 1.275
0.19522503 -0.084712446 1.2740527
0.20456161 -0.086262025 1.2750832
0.21336466 -0.084900126 1.27425
0.15958752 -0.079235762 1.273
0.16405152 -0.079235762 1.273
0.17074749 -0.079235762 1.273
0.3024351 0.27676716 1.273
0.30562368 0.28362256 1.2729999
0.30786166 0.29174221 1.2770001
0.31450555 0.2957615 1.2753075
0.32084903 0.29629713 1.273
0.31930831 0.30138221 1.2780001
0.32154906 0.30138221 1.2780001
0.20583169 -0.41053861 1.2830001
0.19760066 -0.39382124 1.2880001
0.20219953 -0.39426368 1.2844287
0.19195494 -0.38842645 1.2880001
0.20353417 -0.3847295 1.2850834
0.20396701 -0.37464064 1.2844286
0.20371088 -0.36453527 1.2849231
0.2045228 -0.35556546 1.2857778
0.20757675 -0.34542608 1.2858572
0.21089312 -0.34249043 1.2830001
0.20756024 -0.33362076 1.2867501
0.21152902 -0.33571583 1.2844286
0.20738658 -0.3250688 1.2880001
0.21311815 -0.32516909 1.2845627
0.20889214 -0.31503195 1.2880001
0.21372664 -0.31492534 1.2859414
0.20889214 -0.30486959 1.2880001
0.2142752 -0.30477145 1.2849447
0.20889214 -0.29922387 1.2880001
0.21556172 -0.29554152 1.2848752
0.22291683 -0.29103297 1.28425
0.22492817 -0.28508732 1.2847649
0.23957458 -0.28231558 1.2830001
0.22606453 -0.27497572 1.2855
0.2395746 -0.27331749 1.2830001
0.24351126 -0.27163032 1.2830001
0.22777283 -0.266148 1.2875001
0.23472279 -0.26411271 1.2843161
0.24423894 -0.26436627 1.2838826
0.23712081 -0.25857458 1.2880001
0.24686338 -0.25639546 1.2849233
0.25182202 -0.25482139 1.2830001
0.24843009 -0.2451681 1.2874446
0.25307176 -0.24519841 1.2830001
0.24803589 -0.23674445 1.2880001
0.25494373 -0.23468718 1.2836822
0.26206985 -0.23057649 1.2830001
0.25725076 -0.22626171 1.2875456
0.26307485 -0.22429824 1.284786
0.25857458 -0.21453786 1.2880001
0.26358533 -0.21476837 1.284053
0.25832143 -0.20530525 1.2867501
0.26415446 -0.20458832 1.2836668
0.25857458 -0.19985896 1.2880001
0.26460353 -0.19479637 1.2844003
0.26565608 -0.18503948 1.2856474
0.27181777 -0.18371135 1.2830001
-0.12307698 -0.17050114 1.2880001
-0.094622493 -0.1709528 1.2880001
-0.08694429 -0.17050116 1.2880001
0.26728538 -0.1755022 1.2864616
0.27203205 -0.17594513 1.2830001
-0.10094571 -0.16417792 1.2880001
-0.094691329 -0.16457461 1.2858127
-0.085971721 -0.16495416 1.2870002
0.26741314 -0.16630679 1.2846668
0.27163035 -0.16815212 1.2830001
-0.13211016 -0.15017651 1.2880001
-0.12448841 -0.15102337 1.2880001
-0.11479657 -0.15168205 1.2880001
-0.10460319 -0.15216938 1.2872308
-0.094812728 -0.15457761 1.2851055
-0.085444227 -0.15704513 1.287091
-0.13448402 -0.14612995 1.2855
-0.12441102 -0.14513591 1.2846667
-0.11494941 -0.14425462 1.2855002
-0.1047266 -0.14414108 1.2845002
-0.094639286 -0.14421874 1.2851877
-0.084925547 -0.14361542 1.2873751
-0.074900061 -0.14264886 1.2880001
-0.065974422 -0.14211117 1.2880001
-0.055328183 -0.14114334 1.2880001
-0.10535283 -0.13834588 1.2830001
-0.091105826 -0.13834588 1.2830001
-0.084590048 -0.13675886 1.2834545
-0.075426921 -0.13622078 1.2841538
-0.064861357 -0.1368462 1.2830001
-0.054764383 -0.1356934 1.2841767
-0.045110252 -0.13533677 1.2864376
-0.035003547 -0.1354976 1.2880001
-0.025156012 -0.13497703 1.2876431
-0.017219488 -0.13408616 1.2880001
-0.042741008 -0.12934779 1.2830001
-0.034546301 -0.12870507 1.2830001
-0.024369871 -0.12784809 1.2830001
-0.014008989 -0.12586063 1.2843891
-0.0048427582 -0.12453262 1.2865295
0.0040649278 -0.12262533 1.2880001
0.014356294 -0.12146391 1.2880001
0.021453787 -0.12081869 1.2880001
0.039520133 -0.12081869 1.2880001
0.042907573 -0.12081869 1.2880001
-0.0022495266 -0.11810015 1.2830001
0.0045056283 -0.11643859 1.2845
0.014981167 -0.11630468 1.2862145
0.02506572 -0.1157844 1.286077
0.035353079 -0.11561555 1.2862355
0.045111351 -0.11503681 1.2864376
0.054507561 -0.11401283 1.2876431
0.045665391 -0.10865214 1.2830001
0.055158991 -0.10806231 1.2840002
0.065672845 -0.10679674 1.2864616
0.074751608 -0.10579922 1.2862356
0.084436625 -0.10579871 1.2862353
0.094755895 -0.10491092 1.2867501
0.1048464 -0.10440001 1.286
0.11296692 -0.10169122 1.286
0.12872273 -0.10049405 1.2880001
0.13512123 -0.10049405 1.2880001
0.14453077 -0.10049405 1.2880001
0.15356395 -0.10049405 1.2880001
0.16824286 -0.10049405 1.2880001
0.17351221 -0.10049405 1.2880001
0.18292177 -0.10049405 1.2880001
0.11605226 -0.095773391 1.2852223
0.1244058 -0.096262604 1.28425
0.13546535 -0.096439481 1.2841113
0.14550714 -0.095181212 1.2853335
0.15540169 -0.095660225 1.2858573
0.16524649 -0.095579766 1.2847859
0.17539765 -0.095981903 1.2856923
0.18494046 -0.09585619 1.2863334
0.19439937 -0.095981546 1.2855002
0.20208247 -0.094105206 1.2830001
0.3093099 0.29806229 1.2830001
0.31608528 0.30321836 1.2844286
0.32130739 0.30631053 1.2830001
0.19708169 -0.3907654 1.2920001
0.20047964 -0.3907654 1.2920001
0.19492507 -0.38458252 1.2931764
0.20047964 -0.38510215 1.2920001
0.18943031 -0.3749947 1.2970001
0.1953581 -0.37496662 1.2939445
0.20047966 -0.37490824 1.2920001
0.18874809 -0.36641008 1.2970001
0.19489585 -0.36470854 1.2942224
0.20047964 -0.36471435 1.2920001
0.18988512 -0.35816655 1.2970001
0.19572417 -0.35505745 1.2949413
0.20217863 -0.35452053 1.2919999
0.19746536 -0.34603816 1.2970001
0.20336924 -0.3452152 1.2925882
0.19797072 -0.33517313 1.2970001
0.2033274 -0.33597538 1.2923845
0.19554259 -0.3245475 1.2953334
0.20289598 -0.3247695 1.2919999
0.18988512 -0.31723323 1.2970001
0.19566907 -0.31507069 1.2964739
0.2047718 -0.3150565 1.2919999
0.19756013 -0.30557859 1.2970001
0.20403321 -0.3049174 1.293
0.19898142 -0.29676655 1.2970001
0.20548148 -0.29517236 1.2950002
0.21407148 -0.29238638 1.2919999
0.20630018 -0.28596938 1.2961669
0.21460079 -0.28488249 1.2930526
0.22177354 -0.28384292 1.2920001
0.20807771 -0.27857399 1.2970001
0.21522571 -0.27584836 1.295864
0.22200008 -0.27523476 1.2919999
0.21752387 -0.26545435 1.2970001
0.22335556 -0.26446536 1.2923571
0.21944807 -0.25583324 1.2970001
0.22605525 -0.25518987 1.2947085
0.23534018 -0.25434357 1.2919999
0.24356169 -0.25437552 1.2931538
0.22672513 -0.24605474 1.2970001
0.234772 -0.24498387 1.29375
0.24415626 -0.24485731 1.2935385
0.22854438 -0.23536658 1.2970001
0.23490842 -0.23528957 1.295542
0.24423863 -0.23431422 1.2935624
0.25031638 -0.23219393 1.2920001
0.22854437 -0.22740734 1.2970001
0.23549505 -0.22531964 1.2965242
0.24574414 -0.22541532 1.2967062
0.25301287 -0.22460647 1.2926667
0.23747823 -0.21587454 1.2970001
0.2468994 -0.21522482 1.2970001
0.2538965 -0.21536222 1.2929375
0.23991473 -0.2046666 1.2970001
0.24787401 -0.2046666 1.2970001
0.25344443 -0.20497108 1.2925555
0.23894013 -0.1960576 1.2970001
0.248253 -0.1982234 1.2970001
0.25570464 -0.19547045 1.295158
-0.10195428 -0.18230487 1.2970001
-0.096317284 -0.18212301 1.296375
0.25666445 -0.18653247 1.2962857
0.26145303 -0.18290499 1.293875
-0.11337163 -0.17176464 1.2932501
-0.1044681 -0.17406608 1.2943333
-0.095345862 -0.17595488 1.2933636
-0.085330285 -0.17444666 1.2949166
-0.074817009 -0.17214736 1.2970001
-0.06632714 -0.17699869 1.2970001
0.25810733 -0.17510365 1.2970001
0.26245606 -0.17447743 1.2943077
-0.13132772 -0.16202773 1.2970001
-0.12437439 -0.16453086 1.2930715
-0.11535325 -0.1656635 1.2937647
-0.10679487 -0.16572723 1.2927692
-0.080871448 -0.16468778 1.2920001
-0.077586755 -0.16706637 1.2920001
0.26492953 -0.16941847 1.2970001
-0.13310683 -0.15514256 1.2955
-0.12459186 -0.1568725 1.2919999
-0.11583955 -0.15764473 1.2919999
-0.10873472 -0.15630616 1.2920001
-0.091744922 -0.15064289 1.2920001
-0.084346853 -0.15331636 1.2927142
-0.076749973 -0.15179439 1.2970001
-0.13845327 -0.14866468 1.2945001
-0.08381635 -0.14837758 1.2920001
-0.074309148 -0.14748876 1.2927142
-0.064119108 -0.14696497 1.2945
-0.054397885 -0.14626856 1.2951818
-0.045427494 -0.14536893 1.2954376
-0.035600454 -0.14474483 1.2952355
-0.025737762 -0.14270496 1.2953334
-0.018192586 -0.14212959 1.2970001
-0.022653066 -0.13931637 1.2920001
-0.013296084 -0.13596088 1.2933636
-0.00472706 -0.1338719 1.2940832
0.0042304751 -0.13259663 1.2947272
0.014760436 -0.13169461 1.295
0.025014807 -0.13075921 1.2970001
0.030699991 -0.13075921 1.2970001
-0.0011326533 -0.12798983 1.2920001
0.0052857157 -0.12723471 1.2919999
0.014898747 -0.12607305 1.2919999
0.025165064 -0.12491747 1.2929999
0.034932863 -0.12497744 1.2941054
0.045024525 -0.12423195 1.2947778
0.054472554 -0.12256544 1.2945
0.064686164 -0.12256546 1.2945
0.074240364 -0.12234277 1.2961668
0.056066338 -0.11836226 1.2920001
0.065064639 -0.11578234 1.2919999
0.074792378 -0.11558817 1.292625
0.084705487 -0.11514294 1.2943529
0.095485248 -0.11505703 1.2954615
0.10475753 -0.11481653 1.2948571
0.11411508 -0.11320545 1.2965
0.12507403 -0.11029255 1.2970001
0.13530736 -0.11029255 1.2970001
0.1455407 -0.11029255 1.2970001
0.15463698 -0.11029255 1.2970001
0.16487032 -0.11029255 1.2970001
0.17472464 -0.11105058 1.2970001
0.18306291 -0.11029255 1.2970001
0.088346958 -0.10986737 1.2920001
0.095142886 -0.10986737 1.2920001
0.10609186 -0.10948983 1.2919999
0.11620983 -0.10562965 1.29325
0.12449393 -0.10454169 1.2933333
0.13505663 -0.10515772 1.2932501
0.14516665 -0.10547558 1.2936666
0.15560573 -0.1051577 1.29325
0.16526972 -0.10451392 1.2929999
0.17456868 -0.10502028 1.2923845
0.18498749 -0.10471997 1.2936667
0.19359575 -0.10354865 1.2947778
0.20047964 -0.098540843 1.2920001
0.31688014 0.30724382 1.2932501
0.31723323 0.31041101 1.2970001
0.32425866 0.31335363 1.2960001
0.32519248 0.32178137 1.2970001
0.44117022 0.49802208 1.2970001
0.1883343 -0.37324435 1.302
0.18626317 -0.36430153 1.3035001
0.18787931 -0.35629264 1.305889
0.19150008 -0.35330355 1.3028334
0.18905754 -0.34488681 1.307
0.19321002 -0.34474042 1.3052143
0.18848464 -0.33285588 1.307
0.19392425 -0.33534175 1.3047274
0.18764052 -0.32494295 1.3051251
0.19137086 -0.32676065 1.3032501
0.186848 -0.3155441 1.3049167
0.19118786 -0.31389052 1.302
0.18859921 -0.30547118 1.307
0.19351099 -0.30433723 1.3032501
0.19500279 -0.29473531 1.3042221
0.19726908 -0.28598478 1.3057501
0.2017483 -0.28490713 1.3038751
0.20572013 -0.2758626 1.3045001
0.21192364 -0.27127746 1.302
0.20862211 -0.26499704 1.30575
0.21298897 -0.26435286 1.302
0.209682 -0.25665992 1.307
0.21490523 -0.25542113 1.3039443
0.22029406 -0.25225383 1.302
0.21822266 -0.24753067 1.306
0.22275878 -0.24478881 1.3030716
0.22452362 -0.23516256 1.3055295
0.22628804 -0.22429056 1.3044999
0.23170826 -0.22029406 1.302
0.24312246 -0.22029406 1.302
0.22730981 -0.21662639 1.305889
0.23333508 -0.21390754 1.3036667
0.24357903 -0.21390212 1.302
-0.04812374 -0.20166138 1.307
0.22801486 -0.20853621 1.307
0.23526946 -0.20607552 1.3046471
0.24426389 -0.2054556 1.302
-0.093976915 -0.1909976 1.302
-0.084669448 -0.19221935 1.3051251
-0.075475089 -0.19212785 1.3045001
-0.067572683 -0.19355944 1.3064446
0.23627394 -0.1997485 1.302
0.24607672 -0.19451138 1.302
0.25225383 -0.19175856 1.302
-0.092870086 -0.18605146 1.302
-0.084586166 -0.18517905 1.303875
-0.075459465 -0.18522152 1.3041875
-0.065158263 -0.18519667 1.304
-0.056717269 -0.18447435 1.307
0.2484491 -0.1868124 1.302
0.25322989 -0.18357038 1.3026251
-0.083780229 -0.17874637 1.302
-0.075437494 -0.17712764 1.302
-0.06563165 -0.17920294 1.302
-0.058212418 -0.17920294 1.302
0.2552976 -0.17768103 1.302
-0.075112805 -0.16402124 1.3027693
-0.065166138 -0.1623306 1.3040001
-0.054629087 -0.16347061 1.3056364
-0.04525923 -0.16241764 1.307
-0.03781151 -0.16155827 1.307
-0.14039466 -0.15180886 1.302
-0.13811181 -0.15180886 1.302
-0.074786015 -0.15623508 1.3024167
-0.065149263 -0.15544502 1.3037502
-0.05489336 -0.15553558 1.3044999
-0.044853728 -0.15576282 1.3048948
-0.035316143 -0.15484425 1.3055714
-0.024825741 -0.15213722 1.307
-0.01718705 -0.15173709 1.307
-0.1426775 -0.14952601 1.302
-0.055929579 -0.14952601 1.302
-0.033101179 -0.14952601 1.302
-0.024948178 -0.14691703 1.302
-0.014329521 -0.14447136 1.3039231
-0.0043487921 -0.14265926 1.3060001
0.0044544409 -0.14240164 1.3064445
0.014036091 -0.14179316 1.307
0.022916067 -0.14093381 1.307
0.033228297 -0.14093381 1.307
-0.00228284 -0.13811181 1.302
0.0052505322 -0.13765526 1.302
0.014845912 -0.13702342 1.3025
0.025168588 -0.13613617 1.3049167
0.035177331 -0.13486794 1.304353
0.044644136 -0.13507821 1.30575
0.054769397 -0.13360065 1.307
0.065310791 -0.13291317 1.307
0.072949477 -0.13253124 1.307
0.047254786 -0.12806731 1.302
0.054788161 -0.12783903 1.302
0.065060936 -0.12783903 1.302
0.075938001 -0.1274001 1.3045001
0.084394746 -0.12544619 1.3059285
0.095192127 -0.12537658 1.3064116
0.10499263 -0.12455631 1.3056364
0.11343453 -0.12305929 1.307
0.14475316 -0.12030935 1.307
0.15010023 -0.12030935 1.307
0.1753079 -0.121226 1.307
0.086747915 -0.1198491 1.302
0.094167151 -0.1198491 1.302
0.10539111 -0.11984911 1.302
0.11619482 -0.11676663 1.3026251
0.12530096 -0.11563266 1.3039231
0.13503239 -0.11558148 1.3053335
0.14479204 -0.11524938 1.3034286
0.15516029 -0.11573485 1.3050771
0.16478527 -0.11558149 1.3053334
0.17494276 -0.11603177 1.3030714
0.18460508 -0.11402266 1.3038751
0.19175856 -0.11071774 1.302
0.19518282 -0.1084349 1.302
0.31617334 0.30932483 1.302
0.31630725 0.31516585 1.3049167
0.32226092 0.31693426 1.302
0.31853333 0.32311654 1.307
0.32325873 0.32288116 1.3045001
0.44506279 0.48827592 1.307
0.4548839 0.48811221 1.307
0.46532345 0.48773029 1.307
0.47665417 0.48925802 1.307
0.48582059 0.48925802 1.307
0.49269545 0.48925802 1.307
0.18305172 -0.36092651 1.3132501
0.17701779 -0.35354641 1.3148572
0.18358609 -0.3541899 1.3123572
0.16972178 -0.34290728 1.317
0.17567694 -0.34497333 1.3169999
0.18402985 -0.345056 1.3120002
0.17780378 -0.33482534 1.317
0.18411419 -0.33557731 1.3130528
0.19208117 -0.33930507 1.312
0.17796873 -0.32608357 1.317
0.18285823 -0.32500461 1.3133639
0.17780377 -0.31519762 1.3170002
0.18294224 -0.31452799 1.3124547
0.17711103 -0.30434465 1.3170002
0.18428296 -0.30456954 1.3130001
0.17763886 -0.2967245 1.317
0.18559866 -0.29511976 1.3149999
0.19208117 -0.29099724 1.312
0.17895834 -0.28979707 1.317
0.18625115 -0.28672603 1.3163334
0.1928371 -0.28436458 1.3132502
0.19493963 -0.2752234 1.3145001
0.20272039 -0.27288178 1.3120002
0.18819492 -0.26670566 1.317
0.19504651 -0.26544982 1.3164999
0.20429508 -0.26444969 1.3123573
0.19696966 -0.2562376 1.317
0.20495857 -0.25494045 1.3146316
0.21125095 -0.25265765 1.312
0.20567052 -0.24505247 1.3167058
0.21450996 -0.24466184 1.3131907
0.1997406 -0.23668686 1.317
0.2057444 -0.23576321 1.317
0.21540752 -0.23499577 1.314
0.22198603 -0.2334879 1.312
0.20839988 -0.22802758 1.317
0.21536696 -0.2257379 1.3137501
0.22198603 -0.22543657 1.312
0.21712969 -0.21789649 1.3120002
0.22405636 -0.21485487 1.3120002
-0.054264795 -0.20204975 1.317
-0.04232689 -0.20358641 1.3138752
-0.035791669 -0.20320432 1.317
0.23272109 -0.20511663 1.312
-0.062012143 -0.19525421 1.3134288
-0.055314165 -0.19590868 1.3145001
-0.044709366 -0.19557706 1.3141429
-0.0361652 -0.19602346 1.3165835
-0.02193683 -0.19512233 1.317
-0.053291984 -0.18671364 1.3120002
-0.046171777 -0.18698747 1.3120002
-0.036878295 -0.18898785 1.3145001
-0.035791669 -0.17549464 1.317
-0.043766815 -0.16672896 1.3138751
-0.035112489 -0.16550694 1.315182
-0.02609328 -0.16094705 1.317
-0.01731855 -0.16048522 1.317
-0.031821832 -0.15910916 1.312
-0.025304109 -0.15680879 1.3120002
-0.013724217 -0.15523615 1.313154
-0.0048398431 -0.15417287 1.3143334
0.0041525075 -0.15292372 1.3155001
0.013616036 -0.15159564 1.3160001
-0.011501867 -0.14837408 1.312
-0.0049841423 -0.14760728 1.3120002
0.0047650593 -0.1473882 1.3120002
0.015539209 -0.14674303 1.3128335
0.025675314 -0.14565754 1.3141431
0.034476466 -0.14544791 1.3143077
0.044589706 -0.1438072 1.3137858
0.055478975 -0.14337182 1.3153334
0.064655915 -0.1420121 1.317
0.049458027 -0.13802239 1.312
0.055592354 -0.1384058 1.3120002
0.064410456 -0.13802239 1.3120002
0.075402565 -0.13636705 1.3139231
0.0849934 -0.13556381 1.3152144
0.094493546 -0.13483121 1.3145002
0.10459353 -0.13473973 1.3152144
0.11529206 -0.13277555 1.317
0.12518837 -0.13145603 1.317
0.13219826 -0.1310437 1.317
0.15517421 -0.13231373 1.3170002
0.16125494 -0.13123612 1.317
0.08741419 -0.12997109 1.312
0.092014939 -0.12997109 1.312
0.10543377 -0.1295877 1.3120002
0.11566302 -0.12633875 1.3133639
0.1252521 -0.12416612 1.3133159
0.13553457 -0.12456623 1.3134707
0.14500497 -0.12516616 1.3135387
0.15551735 -0.12440179 1.3120002
0.165481 -0.12405442 1.3126668
0.17159551 -0.12322924 1.3136667
0.31246737 0.31783491 1.312
0.31570858 0.32514787 1.3156365
0.32205227 0.32780319 1.312
0.31866133 0.33136159 1.317
0.32521659 0.33329248 1.3155
0.43767333 0.47822565 1.3162857
0.44466484 0.47868958 1.3157501
0.46644628 0.47914654 1.317
0.47221914 0.47914654 1.317
0.4648726 0.48359215 1.3141876
0.16881093 -0.33180079 1.3280001
0.17268403 -0.33493754 1.3220003
0.16881093 -0.32481551 1.3280001
0.17312576 -0.32453439 1.3241428
0.16881093 -0.31433761 1.3280001
0.17294179 -0.31493607 1.324
0.1727626 -0.30605134 1.3244002
0.17547536 -0.29494295 1.3256
0.17837031 -0.28609276 1.326
0.1829095 -0.28319627 1.3233335
0.17812464 -0.27475435 1.3280001
0.18448715 -0.27499488 1.3235655
0.17812464 -0.26776904 1.3280001
0.18421608 -0.26464894 1.3253332
0.18722488 -0.25622264 1.3265001
0.19325678 -0.25399637 1.3240002
0.19655585 -0.24598742 1.3252727
0.20049892 -0.24569811 1.322
0.19818102 -0.23990335 1.322
0.20049892 -0.23990335 1.322
-0.033625424 -0.20652707 1.3226666
-0.026078379 -0.20327166 1.3280001
-0.017851271 -0.20296119 1.3280001
-0.031755321 -0.19447237 1.322
-0.026085654 -0.19535857 1.3225001
-0.017433394 -0.19878066 1.3260001
-0.034260131 -0.18352491 1.325
-0.026000764 -0.18252276 1.3280001
-0.019791627 -0.18045306 1.3280001
-0.045199178 -0.17036614 1.322
-0.032831825 -0.17375863 1.32575
-0.02559001 -0.17448702 1.326875
-0.017674876 -0.17473783 1.3280001
-0.032450691 -0.16804823 1.322
-0.025180893 -0.16594106 1.3220001
-0.015620717 -0.16489197 1.3238462
-0.0046463334 -0.1626243 1.325
0.0046548806 -0.16289847 1.3272501
0.015134774 -0.16182566 1.3280001
0.025612693 -0.16182566 1.3280001
-0.0011589533 -0.15877661 1.322
0.0054189693 -0.15824419 1.324
0.015568546 -0.15668641 1.3251998
0.025570614 -0.15574488 1.3257501
0.034622535 -0.15503958 1.3266155
0.044007264 -0.15437469 1.3280001
0.054180697 -0.15394482 1.3279999
0.064807877 -0.15173581 1.3280001
0.073811129 -0.1506492 1.3280001
0.083823361 -0.15018351 1.3280001
0.038245458 -0.14950497 1.322
0.045971815 -0.14911865 1.322
0.05562976 -0.14834602 1.322
0.064901389 -0.14602812 1.322
0.075313501 -0.14436236 1.3244001
0.085567914 -0.14484876 1.3257502
0.095249824 -0.14404161 1.3250003
0.10454272 -0.14391674 1.326
0.11375611 -0.1424837 1.3252728
0.12573504 -0.14086981 1.3280001
0.11602946 -0.13691297 1.3235002
0.12490921 -0.13650928 1.3233335
0.13497493 -0.13521197 1.325
0.14490937 -0.13376099 1.3252002
0.15216479 -0.13648736 1.325
0.31789583 0.33601126 1.3244001
0.32381159 0.33771902 1.322
0.32605487 0.34299961 1.3262857
0.33105123 0.3438313 1.325
0.44472951 0.46917796 1.3280001
0.45986426 0.46917796 1.3280001
0.46568531 0.46917796 1.3280001
0.47150639 0.46917796 1.3280001
0.16785033 -0.33394665 1.3342501
0.16433869 -0.32419959 1.3342501
0.15805642 -0.31610847 1.3355
0.16406064 -0.31552291 1.3350587
0.16720073 -0.30530372 1.3349999
0.17178372 -0.30149794 1.3330001
0.15483335 -0.29676393 1.3380001
0.16592112 -0.29486415 1.335647
0.17256278 -0.29409683 1.3330001
0.16546676 -0.285469 1.3367499
0.17354393 -0.28462008 1.3337144
0.16572534 -0.27632058 1.3380002
0.17310892 -0.27525616 1.3347647
0.17582744 -0.2654224 1.3353335
0.18113248 -0.26059705 1.3330001
0.17779021 -0.25750318 1.3371668
0.18391581 -0.25405356 1.3334168
0.19203939 -0.24813204 1.3330001
0.17645809 -0.23956232 1.3330001
-0.02228662 -0.21230938 1.3380001
-0.014215149 -0.21263964 1.3358573
-0.0058649001 -0.21324778 1.3380001
0.0046919202 -0.21230938 1.3380001
0.012854564 -0.21151598 1.3330001
-0.024540531 -0.2080102 1.3330001
-0.014032865 -0.20667526 1.3340715
-0.004684797 -0.20615847 1.3361249
0.0049516079 -0.20570858 1.3374444
0.010947813 -0.20488052 1.3380002
-0.011685967 -0.19983003 1.3330001
-0.0038953221 -0.19905098 1.3330001
0.0035119266 -0.19857588 1.3340001
-0.033889305 -0.18113248 1.3330001
-0.033889305 -0.17879529 1.3330001
-0.012224366 -0.17468071 1.3372859
-0.0049265162 -0.17289725 1.3380002
0.0039099334 -0.17086409 1.3380002
0.01524874 -0.17008209 1.3380001
0.026587546 -0.17086409 1.3380002
0.035189401 -0.17008209 1.3380001
0.042227283 -0.17008209 1.3380001
-0.011685966 -0.16827792 1.3330001
-0.0044406676 -0.16757676 1.3330001
0.0046743867 -0.16710933 1.3330001
0.015211483 -0.16612878 1.3345001
0.025709128 -0.16594075 1.3330001
0.035309147 -0.16392085 1.3336667
0.044480372 -0.16387613 1.3351874
0.054693796 -0.16257514 1.3355001
0.065628804 -0.16054814 1.33675
0.074313462 -0.16104734 1.3370001
0.084454559 -0.16069826 1.3380001
0.095011376 -0.16069826 1.3380001
0.045575269 -0.15776055 1.3330001
0.05726124 -0.15776055 1.3330001
0.065942243 -0.15675889 1.3330001
0.075134784 -0.15568963 1.3334546
0.085639156 -0.15520516 1.3336251
0.095870949 -0.15432873 1.3336251
0.10501014 -0.15400378 1.335143
0.11501656 -0.15155743 1.3360001
0.12503967 -0.15178362 1.3380001
0.13378628 -0.1531273 1.3367501
0.10634229 -0.14841178 1.3330001
0.11576486 -0.14733596 1.3338333
0.12477233 -0.14598717 1.3337144
0.13527125 -0.14517769 1.3335884
0.14412694 -0.14412692 1.3330001
0.13789441 -0.139063 1.3330001
0.14451647 -0.139063 1.3330001
0.15074897 -0.139063 1.3330001
0.31787759 0.34368312 1.3380001
0.32356903 0.34609845 1.3348751
0.33188146 0.34941041 1.3330001
0.32696819 0.35306701 1.3380002
0.33312634 0.35541293 1.3380002
0.32960737 0.36010486 1.3380001
0.33273533 0.36088681 1.3379999
0.44925132 0.45863518 1.3380001
0.4515973 0.45863518 1.3380001
0.15862904 -0.31135371 1.3470001
0.1620194 -0.31339517 1.3490001
0.15768632 -0.30397394 1.3456668
0.16251384 -0.30465508 1.3447143
0.1568248 -0.29363441 1.3430002
0.16129878 -0.29669556 1.3430001
0.15713902 -0.28541186 1.3477144
0.16129878 -0.28374457 1.3430001
0.15965416 -0.27791649 1.3490001
0.16491143 -0.27370211 1.3462728
0.14782791 -0.26372501 1.3490001
0.15255842 -0.26135975 1.3490001
0.16911514 -0.26845551 1.3490001
0.17198338 -0.26460892 1.3460001
0.15374103 -0.25899452 1.3490001
0.176999 -0.25605592 1.3460001
0.18013659 -0.25313312 1.3430001
0.17201455 -0.24365519 1.3470001
0.17071769 -0.23782739 1.3430001
-0.00353209 -0.21428013 1.3430001
0.013008856 -0.19040236 1.3490001
-0.01059627 -0.18013659 1.3430001
-0.0039280509 -0.18119328 1.3450001
0.0050034067 -0.18367049 1.3490002
0.014182935 -0.18438667 1.3482503
0.024539435 -0.18360227 1.3490003
0.033113454 -0.18094137 1.3490001
-0.0044739805 -0.17636903 1.3430001
0.0051867105 -0.17605695 1.3442001
0.014143703 -0.1756257 1.3445001
0.024195798 -0.17591161 1.3439233
0.035373505 -0.1756919 1.3450003
0.044953372 -0.17500541 1.3466926
0.053927567 -0.17280298 1.3470001
0.06478148 -0.17253162 1.3490001
0.073322646 -0.17148039 1.3490001
