# .PCD v0.7 - Point Cloud Data file format
VERSION 0.7
FIELDS x y z
SIZE 4 4 4
TYPE F F F
COUNT 1 1 1
WIDTH 1476
HEIGHT 1
VIEWPOINT 0 0 0 1 0 0 0
POINTS 1476
DATA ascii
0.2024672 0.30713981 1.2648001
0.218297 0.30916175 1.2640001
0.20421098 0.3147231 1.2659999
0.2160808 0.31581041 1.2640001
0.2065133 0.32198694 1.2665
0.21135382 0.32499316 1.2666668
0.31571293 -0.49540347 1.2770624
0.32124758 -0.49502423 1.2729999
0.31538892 -0.48498708 1.2771304
0.32163024 -0.48456573 1.2729999
0.31688082 -0.4754146 1.278
0.3237381 -0.47552362 1.2741766
0.31818792 -0.46943921 1.2780001
0.32508481 -0.46536589 1.2754999
0.331451 -0.4620226 1.273
0.32723805 -0.45659018 1.2768888
0.33242115 -0.45479074 1.2760768
0.33375677 -0.44508711 1.275
0.33420375 -0.43435481 1.275
0.33509535 -0.42493489 1.2774444
0.34149501 -0.42296275 1.2729999
0.33667418 -0.41547427 1.278
0.34149501 -0.41515076 1.2729999
0.33835477 -0.40557754 1.278
0.34289742 -0.40464872 1.2740715
0.33947513 -0.39661452 1.2780001
0.34572521 -0.39535704 1.2769583
0.35209697 -0.39394683 1.273
0.3466416 -0.3853547 1.2772857
0.35191312 -0.38543129 1.2743635
0.34685206 -0.37525311 1.2769474
0.35153896 -0.37497488 1.273
0.34717602 -0.36568218 1.2766666
0.35243538 -0.36335224 1.2735554
0.34731779 -0.35516042 1.278
0.35294145 -0.35480583 1.2749445
0.35445285 -0.34524429 1.2759411
0.35486597 -0.33504558 1.2765715
0.36046693 -0.33368301 1.273
0.35598087 -0.32509285 1.2766666
0.36046693 -0.32140702 1.273
0.35793275 -0.3160463 1.2774999
0.36357731 -0.31413719 1.274
0.35964194 -0.30362296 1.2780001
0.36586228 -0.30505592 1.2762609
0.37162688 -0.30020311 1.273
0.35874566 -0.29645252 1.2780001
0.3658312 -0.2949056 1.2768636
0.37162688 -0.29462314 1.273
0.36656174 -0.28541636 1.27675
0.37183413 -0.28346089 1.2737142
0.36711118 -0.27748075 1.2780001
0.37403122 -0.27423352 1.2755001
0.38055485 -0.27118719 1.273
0.37709191 -0.26476347 1.2758571
0.38055485 -0.26449123 1.273
0.37813121 -0.25507021 1.276125
0.38055485 -0.25444722 1.273
0.37943533 -0.24611014 1.278
0.38213921 -0.24488106 1.2754999
0.38301581 -0.23513305 1.2759999
0.37980881 -0.22295561 1.2780001
0.38467526 -0.22475243 1.2761579
0.38948283 -0.21873534 1.273
0.3950139 -0.21304035 1.275
0.39816174 -0.20568256 1.2765
0.40138683 -0.20459938 1.2729999
0.39896789 -0.19407283 1.2771667
0.40191618 -0.19537701 1.2734998
0.39873081 -0.18610758 1.278
0.40213934 -0.18443321 1.2734998
0.39997566 -0.17814042 1.2780001
0.40575287 -0.17522438 1.2744585
0.41291878 -0.17558347 1.2729999
0.40665889 -0.16565162 1.2762352
0.4114911 -0.16548529 1.2755001
0.40757856 -0.15766236 1.2755001
0.32603058 -0.12212142 1.2780001
-0.18038118 -0.11091762 1.2780001
-0.17589965 -0.11091762 1.2780001
-0.16096126 -0.11166454 1.2780001
-0.15413228 -0.11187796 1.278
-0.14484914 -0.11299831 1.278
-0.092991538 -0.11091762 1.2780001
-0.085522346 -0.11091762 1.2780001
-0.077306218 -0.11091762 1.2780001
0.28532344 -0.11166454 1.278
0.2945438 -0.1119946 1.2774999
0.30523279 -0.113133 1.2759999
0.31505328 -0.11486468 1.2757502
0.32460856 -0.11501516 1.2748183
0.33232528 -0.11769826 1.2751428
-0.18324032 -0.1055085 1.2766362
-0.17541678 -0.10438657 1.2766666
-0.16471508 -0.10510089 1.2770624
-0.15514715 -0.10503555 1.275353
-0.14486782 -0.1063549 1.2749231
-0.13432211 -0.1049735 1.2754999
-0.12529542 -0.10487656 1.2753334
-0.11519019 -0.10535073 1.2756666
-0.10504103 -0.1039265 1.2746665
-0.095033005 -0.10532296 1.2753333
-0.08495418 -0.10619611 1.2750832
-0.074656889 -0.10597767 1.2758125
-0.064571448 -0.10565154 1.2762144
-0.055204064 -0.10455731 1.2759411
-0.045245267 -0.10280094 1.2765714
-0.034220681 -0.10290616 1.2774444
-0.024168197 -0.10291491 1.278
-0.016805699 -0.10285089 1.2780001
0.099713817 -0.10195458 1.2780001
0.10419534 -0.10195458 1.2780001
0.20839068 -0.10195458 1.2780001
0.2164301 -0.10253782 1.2772857
0.22549659 -0.10311082 1.2768888
0.23481955 -0.10287552 1.2754999
0.24536324 -0.10195458 1.2780001
0.25544664 -0.10195458 1.2780001
0.26504064 -0.10347544 1.2766362
0.27472076 -0.10471942 1.2758125
0.28413168 -0.10708256 1.2749999
0.29462311 -0.10750768 1.2729999
0.3024351 -0.10769369 1.273
0.31136307 -0.10825168 1.273
0.358426 -0.10779113 1.2763335
0.3631767 -0.10317665 1.2746667
0.37532732 -0.10195458 1.2780001
-0.18476571 -0.095421843 1.2762142
-0.17662036 -0.097800314 1.2734998
-0.16851549 -0.099323705 1.273
-0.050219849 -0.099323705 1.273
-0.044639867 -0.099323705 1.273
-0.034595896 -0.099323705 1.273
-0.024551928 -0.099323705 1.273
-0.013560467 -0.097015254 1.2740715
-0.0045572505 -0.095894858 1.2753075
0.0044689178 -0.093883432 1.2748749
0.014847165 -0.094835863 1.2747856
0.024584072 -0.094986826 1.2746665
0.034658726 -0.095036499 1.2753333
0.044713285 -0.094459146 1.2750832
0.055007834 -0.095961437 1.2751052
0.06450069 -0.096592702 1.2747856
0.075478084 -0.096167117 1.2754999
0.085000314 -0.096328355 1.2746667
0.094933361 -0.096053734 1.2740002
0.10477293 -0.096868351 1.2745383
0.11519019 -0.09595532 1.2756667
0.12519509 -0.09501788 1.2750832
0.13486703 -0.094809242 1.2744285
0.1452896 -0.094687939 1.2753686
0.15481788 -0.094746426 1.2755003
0.1641659 -0.095477402 1.2759411
0.1748898 -0.095161051 1.2749999
0.18552034 -0.095782854 1.2753334
0.1951424 -0.095899135 1.2752223
0.20509599 -0.096470855 1.2758125
0.21460114 -0.097806834 1.2743635
0.22543132 -0.099323705 1.273
0.2362193 -0.098951705 1.2729999
0.24600145 -0.098402761 1.2754999
0.25469595 -0.098305233 1.2742499
0.26114321 -0.099323705 1.273
0.3693949 -0.099323705 1.273
0.37484074 -0.099583782 1.2763335
-0.18637145 -0.088163733 1.273
0.14507957 -0.088163733 1.273
0.15065955 -0.088163733 1.273
0.35597426 -0.024133142 1.2744999
0.36470023 -0.021865444 1.2744285
0.35740122 -0.019046459 1.2780001
0.36468369 -0.018486269 1.2780001
0.37480584 -0.01836366 1.2751428
0.19418341 0.30913109 1.273
0.22208333 0.3024351 1.273
0.18860343 0.31471106 1.273
0.19529942 0.31471103 1.2730001
0.2019954 0.31805906 1.273
0.18897381 0.32427901 1.2755001
0.19538561 0.32400173 1.2751054
0.20429872 0.32649508 1.2734544
0.20564066 0.33377141 1.278
0.21245578 0.3332223 1.2755001
0.30734494 -0.49520203 1.2849231
0.31155944 -0.49489585 1.2830001
0.30746537 -0.48535177 1.2853335
0.31212181 -0.48308587 1.2830001
0.30795571 -0.47716436 1.2867501
0.31279522 -0.47321591 1.2847859
0.31639773 -0.46509969 1.2850001
0.32140112 -0.46368366 1.2830001
0.31668654 -0.45473722 1.2862145
0.32407242 -0.45398253 1.2830002
0.31745988 -0.44534579 1.2871667
0.32496133 -0.4453021 1.2834765
0.33180517 -0.44540626 1.2830001
0.31841937 -0.43810892 1.2880001
0.32544711 -0.43523818 1.2842004
0.33180517 -0.43753293 1.2830001
0.32723656 -0.42528275 1.2855002
0.32906866 -0.41922507 1.2855
0.33320516 -0.41425946 1.2840716
0.33467722 -0.40483406 1.2847859
0.33576635 -0.39503869 1.2845793
0.34155312 -0.39104271 1.2830001
0.33720887 -0.38527262 1.2864616
0.34192806 -0.38466904 1.2830001
0.33738258 -0.3748605 1.2864616
0.34192806 -0.37454617 1.2830001
0.33874398 -0.36471438 1.2880001
0.34260291 -0.36397344 1.2830001
0.33987316 -0.35568118 1.2880001
0.34298193 -0.35509747 1.2833848
0.34686255 -0.34600434 1.2856193
0.35205093 -0.34305277 1.2830001
0.34719309 -0.33484387 1.2869475
0.35205093 -0.33180517 1.2830001
0.34895968 -0.3252849 1.2861251
0.35235387 -0.3248392 1.2841113
0.35385647 -0.31437704 1.2848425
0.35518011 -0.30481729 1.2834766
0.36104903 -0.3093099 1.2830001
0.35632405 -0.29426026 1.2853078
0.36442333 -0.29243845 1.2830001
0.35858449 -0.28709409 1.2842501
0.363177 -0.28295419 1.2837144
0.36373478 -0.27467993 1.2841114
0.37117186 -0.27331749 1.2830001
0.3660233 -0.26517671 1.2865295
0.37244564 -0.26485896 1.2840717
0.36697266 -0.25593993 1.2880001
0.37423363 -0.25520638 1.2849447
0.36810181 -0.24502483 1.2880001
0.37500855 -0.24496 1.2856089
0.3759121 -0.23516802 1.2858573
0.38129476 -0.23507555 1.2830001
0.3767657 -0.22673821 1.2867501
0.38129476 -0.22720219 1.2830001
0.38804334 -0.21932885 1.2830001
0.39029288 -0.21932885 1.2830001
0.3895556 -0.18179262 1.2880001
0.39527982 -0.18348892 1.2840716
0.3895556 -0.17840517 1.2880001
0.39611214 -0.17534412 1.2866365
0.40154052 -0.1743383 1.2830001
0.39663407 -0.16486414 1.2866844
0.40289021 -0.16444042 1.2830001
0.3895556 -0.15356395 1.2880001
0.39569801 -0.15495493 1.2869133
0.40468985 -0.15499239 1.2830002
0.3895556 -0.14340162 1.2880001
0.39586315 -0.1447621 1.2855004
0.40322766 -0.14565684 1.2830001
0.38910395 -0.1348201 1.2880001
0.39496997 -0.13545531 1.2852224
0.40230161 -0.13462512 1.284
-0.17203777 -0.12153266 1.286
-0.16472919 -0.12253152 1.2870001
-0.15488373 -0.12249582 1.2861819
-0.14565782 -0.1222119 1.286
-0.12307698 -0.12081869 1.2880001
-0.11404381 -0.1208187 1.2880001
-0.10501063 -0.12081869 1.2880001
-0.09484832 -0.12081869 1.2880001
-0.089202583 -0.12081869 1.2880001
0.28680325 -0.12081869 1.2880001
0.29518908 -0.12139691 1.2872858
0.30571976 -0.12186485 1.2857778
0.3151432 -0.12394149 1.2860001
0.32308358 -0.12594841 1.2850001
0.36584353 -0.12081869 1.2880001
0.37769955 -0.12251242 1.2880001
0.38526455 -0.12428949 1.2865002
0.39466602 -0.12522908 1.28387
0.40229034 -0.12859794 1.2830001
-0.1810869 -0.1136011 1.2830001
-0.1753881 -0.1149508 1.2830002
-0.16604023 -0.11521608 1.2832944
-0.15559226 -0.11660048 1.2830001
-0.14434463 -0.11772523 1.2830001
-0.13520199 -0.11492558 1.2851877
-0.125092 -0.11495378 1.2855003
-0.11494941 -0.1149538 1.2855002
-0.10474698 -0.11488606 1.2847502
-0.094910294 -0.11571562 1.2853078
-0.08518783 -0.11595108 1.2858572
-0.074930921 -0.11508575 1.284765
-0.065347224 -0.11492558 1.2851877
-0.055541158 -0.11418995 1.2864376
-0.045918629 -0.11253829 1.2880001
-0.035971384 -0.11243075 1.2880001
-0.024841227 -0.11178552 1.2880001
-0.018066347 -0.11178552 1.2880001
0.23486251 -0.11178552 1.2880001
0.24050824 -0.11178552 1.2880001
0.25744545 -0.11178552 1.2880001
0.26550499 -0.11264455 1.2863334
0.27529252 -0.11304899 1.2852223
0.28415528 -0.11601437 1.2847859
0.29468799 -0.11697539 1.2830001
0.30301124 -0.11765025 1.2830001
0.35879949 -0.11135157 1.2830001
0.36460146 -0.11454334 1.286
0.37565839 -0.11491239 1.2880001
0.38413692 -0.1149047 1.2850002
0.39233789 -0.11503262 1.2830001
-0.17508817 -0.10910204 1.2830001
-0.16871449 -0.10910204 1.2830001
-0.13834588 -0.10910204 1.2830001
-0.12484873 -0.10910204 1.2830001
-0.11247633 -0.10910204 1.2830001
-0.10460298 -0.10910203 1.2830001
-0.097854413 -0.10910204 1.2830001
-0.052863877 -0.10910204 1.2830001
-0.044615611 -0.10760236 1.2830001
-0.035276666 -0.10767052 1.2830001
-0.025131891 -0.10764959 1.2835556
-0.014293713 -0.10631984 1.2849233
-0.0041877115 -0.10419571 1.2858572
0.0045107421 -0.1026223 1.2863334
0.014941195 -0.10291217 1.2864377
0.024491059 -0.1032861 1.2865715
0.034958251 -0.1026223 1.2863334
0.045107424 -0.1026223 1.2863334
0.054819956 -0.10339303 1.2857274
0.064899504 -0.10354923 1.2858572
0.075042412 -0.10290651 1.2858573
0.084913425 -0.10505797 1.2865715
0.094725579 -0.10487767 1.2863334
0.10525113 -0.10544079 1.2863334
0.11454246 -0.10349786 1.286
0.12537862 -0.10236623 1.2851429
0.13526511 -0.1022964 1.2848182
0.14468499 -0.10250091 1.2848182
0.15529528 -0.10413283 1.2855002
0.1651092 -0.10374091 1.2862145
0.17488009 -0.10357764 1.2870002
0.18454495 -0.10277872 1.2857274
0.19520298 -0.10400813 1.2857274
0.2050496 -0.10499958 1.2856923
0.21430892 -0.10725111 1.2855
0.2248124 -0.10833847 1.2857778
0.23498088 -0.10804128 1.2852223
0.24535115 -0.10728519 1.286077
0.25565061 -0.10699368 1.2846669
0.2646943 -0.10835221 1.2830001
0.27331749 -0.10910204 1.2830001
0.36627898 -0.10761547 1.2844286
0.37499261 -0.10678172 1.2855003
0.38406342 -0.10616035 1.2830001
0.39205673 -0.10863274 1.2863334
0.0044990531 -0.097854413 1.2830001
0.01012287 -0.097854413 1.2830001
0.048364822 -0.097854413 1.2830001
0.35879949 -0.015746687 1.2830001
0.36444461 -0.013587303 1.2856472
0.3749795 -0.014040168 1.2850001
0.38153267 -0.013154384 1.2863334
0.19627865 0.33616135 1.2867501
0.20223245 0.33675414 1.2830001
0.21258026 0.33855376 1.2830001
0.19985896 0.34213144 1.2880001
0.20559685 0.34465426 1.2865715
0.21188281 0.34465548 1.2865715
0.20622323 0.35424411 1.2880001
0.21115042 0.35229376 1.2880001
0.28832003 -0.49720988 1.2970001
0.29573703 -0.49484372 1.2967622
0.30241841 -0.49496955 1.2919999
0.29555747 -0.48426011 1.2966876
0.30223447 -0.48433033 1.2928332
0.29709142 -0.47706813 1.2970001
0.30476111 -0.4747951 1.2947502
0.31147966 -0.47005114 1.2920001
0.3053278 -0.46464658 1.2970002
0.31176567 -0.46464175 1.293923
0.30495325 -0.45458728 1.2970002
0.31197897 -0.45530319 1.2940832
0.30643138 -0.4451499 1.2970001
0.31265029 -0.44470057 1.294778
0.30813694 -0.43434799 1.2970001
0.31452253 -0.43449956 1.29475
0.32110724 -0.43323988 1.2920001
0.31661418 -0.425713 1.2963334
0.3232511 -0.42451862 1.2937858
0.31623831 -0.41572911 1.2970002
0.32571629 -0.41467318 1.2953335
0.33186743 -0.4122858 1.2920001
0.31495917 -0.40819615 1.2970001
0.32617241 -0.40506798 1.2958891
0.33186743 -0.40548989 1.2920001
0.31874928 -0.39530972 1.2970001
0.32598376 -0.39506301 1.2960002
0.33204964 -0.39421758 1.2927142
0.32743883 -0.38583785 1.296
0.33288214 -0.38418844 1.293923
0.3286036 -0.37522212 1.2970001
0.33290076 -0.37455732 1.2941428
0.33418316 -0.36532551 1.2958236
0.33793187 -0.35547236 1.2947272
0.34092864 -0.3522552 1.2920001
0.33883691 -0.34565917 1.2970001
0.34228784 -0.34477967 1.2919999
0.33896324 -0.33567846 1.2970001
0.34189948 -0.33575079 1.2919999
0.33997396 -0.32405543 1.2970001
0.34470373 -0.32486916 1.293
0.34653038 -0.31520602 1.2947501
0.34886888 -0.30594394 1.2947272
0.35270908 -0.30272549 1.2957501
0.34907025 -0.2979036 1.2970001
0.35304749 -0.29515356 1.2949166
0.35549676 -0.28540626 1.2955717
0.35734543 -0.27575704 1.2952144
0.36131641 -0.27183682 1.2920001
0.35816655 -0.26720363 1.2970001
0.36160988 -0.26472676 1.2943077
0.36391103 -0.25504965 1.2953334
0.37037763 -0.25560209 1.2920001
0.36487728 -0.24567601 1.295
0.36715829 -0.23627545 1.2951818
0.37099409 -0.23422998 1.2928333
0.37236562 -0.2287121 1.2936667
0.38850009 -0.17782657 1.2920001
0.39104605 -0.17326429 1.293875
0.39091372 -0.16539508 1.2939999
0.38819188 -0.15269008 1.294
0.39057493 -0.15645848 1.2932501
0.38603774 -0.14417346 1.29325
0.3907654 -0.14837758 1.2920001
-0.1610802 -0.13151725 1.2970001
-0.15414968 -0.13173382 1.2970001
-0.14554068 -0.13189624 1.2970001
0.3043468 -0.13075921 1.2970001
0.3140538 -0.13299757 1.293875
0.37741444 -0.132623 1.29575
0.38416481 -0.13544482 1.2933637
-0.17103066 -0.12572452 1.2920001
-0.16406466 -0.12739983 1.2936667
-0.15461333 -0.12708975 1.2927142
-0.14392526 -0.12676613 1.2927142
-0.13556986 -0.12373536 1.2948571
-0.12491331 -0.12434844 1.2953333
-0.11571729 -0.1255032 1.295077
-0.10478401 -0.12559243 1.2945
-0.095067091 -0.12583059 1.2951818
-0.085295491 -0.1247068 1.2952354
-0.074923508 -0.12374083 1.2949166
-0.065110989 -0.12289687 1.2947272
-0.05457776 -0.12166292 1.2970001
-0.045481466 -0.12166292 1.2970001
-0.039796282 -0.12166292 1.2970001
0.23650362 -0.12166292 1.2970001
0.24218881 -0.12166292 1.2970001
0.25640178 -0.12223144 1.2970001
0.26543489 -0.12267363 1.2970001
0.27555591 -0.1225694 1.2958889
0.28582147 -0.12438505 1.2951818
0.29500696 -0.12619902 1.2947272
0.30447406 -0.12682877 1.2939999
0.31487763 -0.12798983 1.2920001
0.36953691 -0.123937 1.2970001
0.37434486 -0.12488328 1.2926667
0.38283682 -0.12798983 1.2920001
-0.05436736 -0.1189286 1.2920001
-0.044904359 -0.11725442 1.2934999
-0.034650858 -0.11722355 1.2943077
-0.024959648 -0.11685434 1.2940832
-0.015277939 -0.11533676 1.2946923
-0.004385713 -0.11354124 1.2970001
0.0050310651 -0.11347924 1.2962857
0.014749818 -0.11333624 1.2942222
0.02496659 -0.11348668 1.2945
0.035223592 -0.11361687 1.296
0.04472344 -0.11370367 1.2970001
0.052303687 -0.11256663 1.2970001
0.067653686 -0.11086107 1.2970001
0.075044416 -0.11256663 1.2970001
0.085277751 -0.11256663 1.2970001
0.095511086 -0.11256663 1.2970001
0.10558826 -0.11325667 1.295125
0.11455426 -0.11352139 1.296091
0.12507403 -0.11142959 1.2970001
0.13563223 -0.11256664 1.2970001
0.14537825 -0.11354124 1.2970001
0.15463699 -0.11256663 1.2970001
0.16472811 -0.11348089 1.2958889
0.17485215 -0.11354093 1.295125
0.18533698 -0.11370367 1.2970001
0.1955703 -0.11484071 1.2970001
0.20485845 -0.11453226 1.2954615
0.21500085 -0.11583212 1.2953334
0.22528034 -0.11548153 1.2942224
0.23523465 -0.11705398 1.2945
0.24551262 -0.11605874 1.2953335
0.25458425 -0.11591849 1.2940588
0.26443854 -0.11770748 1.2934999
0.27473137 -0.11792179 1.2919999
0.37134844 -0.11601607 1.2919999
-0.011326533 -0.10986737 1.2920001
-0.0045306133 -0.10986737 1.2920001
0.0045306133 -0.10873473 1.2919999
0.014221092 -0.10886057 1.2919999
0.025673477 -0.10911227 1.2919999
0.035112254 -0.10873471 1.2919999
0.045306131 -0.10873473 1.2919999
0.054367356 -0.10873473 1.2919999
0.064278081 -0.10788523 1.2919999
0.074269697 -0.10889653 1.2919999
0.084948994 -0.10986737 1.2920001
0.095142886 -0.10986737 1.2920001
0.10533676 -0.10986737 1.2920001
0.11628574 -0.10760207 1.2919999
0.12391227 -0.107149 1.2920001
0.13501227 -0.10828166 1.2919999
0.14460208 -0.10835718 1.2919999
0.1546701 -0.10886057 1.2919999
0.16604699 -0.10941432 1.2920001
0.17518371 -0.10911227 1.2919999
0.1846225 -0.10873473 1.2919999
0.19433095 -0.10889654 1.2919999
0.203198 -0.10941432 1.2920001
0.37264296 -0.01019388 1.2920001
0.38283682 -0.01019388 1.2920001
0.36587358 -0.006125533 1.2945
0.37603596 -0.0058472985 1.2946923
0.38206232 -0.0049132784 1.2945
0.18870005 0.33594498 1.2920001
0.19141841 0.33639804 1.2920001
0.18812799 0.34559542 1.2953334
0.19486268 0.34610972 1.2923124
0.20183882 0.3486307 1.2920001
0.21407148 0.34998989 1.2920001
0.18732677 0.35333413 1.2970001
0.19525212 0.35475302 1.2949166
0.20274495 0.3560307 1.2919999
0.19746536 0.36195669 1.2970001
0.20412126 0.36533615 1.2950001
0.27643123 -0.49517119 1.3038421
0.2848658 -0.49505019 1.302
0.29106209 -0.49309343 1.302
0.27769029 -0.48863265 1.3053335
0.28561953 -0.48511258 1.3040831
0.29144257 -0.48434258 1.302
0.28942993 -0.47505003 1.307
0.29402822 -0.47411376 1.3023334
0.30095437 -0.4721674 1.302
0.28874245 -0.46519619 1.307
0.29469594 -0.46546152 1.3029376
0.30095437 -0.46646032 1.302
0.28988823 -0.45832133 1.307
0.29502368 -0.4551357 1.3036666
0.30084568 -0.45542654 1.302
0.29790932 -0.44528794 1.3057501
0.30219188 -0.44453347 1.3024167
0.29905468 -0.43769687 1.307
0.30486682 -0.43502319 1.3033636
0.31160766 -0.43145674 1.302
0.30609962 -0.42460558 1.3039443
0.3123686 -0.42460823 1.302
0.30797598 -0.4162024 1.3050001
0.31263256 -0.41443247 1.3031112
0.32073903 -0.41205263 1.302
0.3082211 -0.40676019 1.307
0.31410643 -0.40527871 1.302909
0.3211956 -0.40657377 1.302
0.31461549 -0.39505449 1.3036666
0.31736547 -0.38734677 1.3055716
0.32382408 -0.38407725 1.3029375
0.32511559 -0.37435782 1.3046315
0.32682666 -0.3650924 1.3050555
0.33215323 -0.36297154 1.302
0.32859221 -0.356527 1.306
0.33371788 -0.35492733 1.3036666
0.32884556 -0.34947002 1.307
0.33414698 -0.3449221 1.3034286
0.32884556 -0.33801198 1.307
0.33443928 -0.33532944 1.3044999
0.33600241 -0.32565522 1.3043684
0.34128457 -0.32530469 1.302
0.33632302 -0.31533539 1.304647
0.34226292 -0.31454274 1.302
0.33825943 -0.30677834 1.30575
0.3437753 -0.3046107 1.3035909
0.33801198 -0.29905468 1.307
0.34422228 -0.29505223 1.3044999
0.35041595 -0.29334494 1.302
0.34552795 -0.28564271 1.3036667
0.35117689 -0.28459403 1.302
0.34779119 -0.27571079 1.3050001
0.35309288 -0.27423832 1.3023334
0.35512641 -0.26482326 1.3039443
0.35688472 -0.25520512 1.3040589
0.36183015 -0.25339526 1.302
0.35827839 -0.24643421 1.3047779
0.36233458 -0.24422145 1.3030001
0.35863644 -0.23832709 1.307
0.36470971 -0.23502848 1.304143
0.37009448 -0.23030646 1.307
0.37096149 -0.22942542 1.302
0.3892242 -0.17235442 1.302
0.39111298 -0.16696949 1.3045001
0.38869295 -0.15601102 1.3053334
0.39071894 -0.15926667 1.307
-0.15239185 -0.14093381 1.307
-0.14505869 -0.14139214 1.307
0.30707529 -0.14093381 1.307
0.31051269 -0.14093381 1.307
0.38541055 -0.1468997 1.3030001
-0.16094021 -0.13582897 1.302
-0.15530819 -0.13646598 1.3026251
-0.14428926 -0.13629712 1.3028334
-0.13494617 -0.13495056 1.3045
-0.12518752 -0.13523346 1.3047776
-0.11481989 -0.13387279 1.3036667
-0.10548177 -0.13477282 1.3050001
-0.094689041 -0.13478328 1.3046315
-0.084714159 -0.13473864 1.3046668
-0.075697891 -0.13470446 1.3043334
-0.065548927 -0.13371526 1.3052143
-0.055762429 -0.13253124 1.307
-0.044686329 -0.13176738 1.307
-0.033228297 -0.13176738 1.307
-0.025207674 -0.13176738 1.307
-0.01718705 -0.13176738 1.307
0.26811796 -0.13176738 1.307
0.27616403 -0.1319813 1.3053335
0.28684649 -0.13236323 1.3053335
0.29571787 -0.13403918 1.3049167
0.30476102 -0.13535424 1.3025882
0.31160766 -0.13811181 1.302
-0.13468756 -0.1282195 1.302
-0.12593667 -0.12898046 1.302
-0.11300058 -0.12898046 1.302
-0.10615206 -0.12898046 1.302
-0.099303536 -0.12898046 1.302
-0.082182243 -0.12898046 1.302
-0.075333722 -0.12898046 1.302
-0.064553648 -0.12796587 1.302
-0.054839667 -0.12682146 1.3032501
-0.044937309 -0.12714185 1.3048573
-0.03463272 -0.12569146 1.3040588
-0.025159458 -0.12580167 1.3045001
-0.015733698 -0.12474491 1.3054376
-0.0049651479 -0.1218371 1.307
0.0045832135 -0.12030935 1.307
0.018332854 -0.12030935 1.307
0.025043989 -0.12129147 1.307
0.033883039 -0.12292833 1.307
0.044686329 -0.12214264 1.307
0.054616626 -0.12030935 1.307
0.069894001 -0.12030935 1.307
0.073331416 -0.12030935 1.307
0.084407508 -0.12030935 1.307
0.096083798 -0.1209641 1.307
0.10541391 -0.12145516 1.307
0.11343453 -0.12145516 1.307
0.13635059 -0.12030935 1.307
0.14437121 -0.12030935 1.307
0.15468346 -0.12030935 1.307
0.16461374 -0.12030935 1.307
0.17568986 -0.12107322 1.307
0.18638401 -0.12183709 1.307
0.19501574 -0.12305927 1.307
0.20575869 -0.12334307 1.30575
0.21553972 -0.12424664 1.3050001
0.22484139 -0.12442487 1.3037857
0.23524851 -0.12647225 1.3050768
0.24556665 -0.12564404 1.3036667
0.25464201 -0.12656261 1.3045001
0.26419741 -0.12775935 1.3035001
0.2750822 -0.12783904 1.302
0.28459406 -0.1282195 1.302
-0.012555621 -0.1183272 1.302
-0.0047939639 -0.11710969 1.302
0.0038817048 -0.11719999 1.3030001
0.014862567 -0.11741152 1.3045001
0.025111239 -0.11756626 1.302
0.035384018 -0.11858085 1.302
0.045783624 -0.11756626 1.302
0.055330645 -0.11591971 1.3040001
0.064860366 -0.11567099 1.3045
0.075442761 -0.11659415 1.303875
0.084627256 -0.11665058 1.3045
0.094844379 -0.1165603 1.3035001
0.10432579 -0.11710969 1.302
0.11767913 -0.11653771 1.3032501
0.12518752 -0.11680248 1.3047779
0.13481466 -0.11653771 1.3032501
0.1453408 -0.11718579 1.302
0.1555312 -0.11665058 1.3045001
0.16496885 -0.11738057 1.3050001
0.17539819 -0.11794672 1.302
0.18414909 -0.1183272 1.302
0.19442189 -0.11946862 1.302
0.2054556 -0.1198491 1.302
0.21344554 -0.1198491 1.302
0.36536449 -0.0021216585 1.304143
0.37462464 -0.0019030971 1.3028334
0.38465855 -0.00114142 1.302
0.36605716 0.0041244538 1.3065002
0.37437296 0.004577612 1.3050554
0.38243675 0.0042575719 1.3029091
0.3792609 0.01031223 1.307
0.3826983 0.01031223 1.307
0.18719289 0.35954729 1.302
0.19137807 0.35878634 1.302
0.18791175 0.36436546 1.307
0.19447951 0.36599454 1.3042728
0.19745933 0.3739374 1.3057501
0.20301607 0.3764751 1.3041428
0.24453792 -0.49854332 1.317
0.25977826 -0.49646509 1.317
0.26573339 -0.49555358 1.3169999
0.2714307 -0.49414825 1.3125558
0.26716751 -0.48538122 1.3170002
0.27525291 -0.48502207 1.3147273
0.28294593 -0.48307839 1.312
0.26786023 -0.47799194 1.317
0.27556333 -0.47625363 1.3166667
0.28432548 -0.47555608 1.3140454
0.27651954 -0.46760085 1.317
0.28362635 -0.46491072 1.3148947
0.2856358 -0.45544714 1.3155714
0.29157233 -0.45374864 1.312
0.28825766 -0.44604886 1.317
0.29383889 -0.44471622 1.3120002
0.28913733 -0.43626252 1.317
0.2950305 -0.43499133 1.3154211
0.3007738 -0.43304527 1.312
0.29618698 -0.42546555 1.3166667
0.30134821 -0.42510784 1.3125558
0.29672447 -0.41564521 1.3170002
0.30391896 -0.41518977 1.3140589
0.2967245 -0.40929508 1.317
0.30485612 -0.40492404 1.3155714
0.30660388 -0.39540011 1.3154376
0.31171215 -0.39280978 1.3140001
0.30642289 -0.38608819 1.3170002
0.31395489 -0.38490406 1.31375
0.32090208 -0.38301218 1.312
0.30740425 -0.3761012 1.317
0.31465214 -0.37501037 1.3155416
0.32136217 -0.37427074 1.312
0.30827019 -0.36830783 1.317
0.31567743 -0.36512184 1.3164736
0.32251233 -0.36322895 1.3120002
0.31591922 -0.35589617 1.317
0.32473591 -0.354678 1.3135628
0.33010358 -0.35770804 1.312
0.31682757 -0.34562394 1.317
0.32477888 -0.34514511 1.3147779
0.33108947 -0.34554896 1.3120002
0.31796858 -0.33528712 1.3170002
0.32529151 -0.33489937 1.3147779
0.33056363 -0.3333241 1.312
0.32651618 -0.32609713 1.3160911
0.33154133 -0.32406509 1.3120002
0.32905245 -0.31519762 1.317
0.33265102 -0.31421223 1.3145002
0.33502471 -0.30505893 1.3147779
0.33723953 -0.29523113 1.3143079
0.34160542 -0.29099724 1.312
0.33828902 -0.28979707 1.317
0.3425054 -0.28466532 1.3154616
0.34413469 -0.27456772 1.3153334
0.35080692 -0.27029386 1.312
0.346288 -0.26548725 1.3166875
0.35157371 -0.26377615 1.3120002
0.34769052 -0.25548986 1.3170002
0.35258821 -0.25471014 1.3135002
0.34937286 -0.24546158 1.317
0.35468623 -0.24474894 1.314353
0.34917063 -0.23739213 1.3145001
0.35570967 -0.23580703 1.3150769
0.36302269 -0.23327136 1.3136668
0.29441535 -0.15124866 1.317
-0.15269122 -0.14462458 1.3145
-0.14529172 -0.14529318 1.3153334
-0.13536794 -0.14305533 1.3147779
-0.12506956 -0.14273886 1.3142223
-0.11492652 -0.14337182 1.3153335
-0.1049329 -0.14414151 1.3153335
-0.094523877 -0.14409587 1.3149167
-0.085330062 -0.14414153 1.3153335
-0.07533738 -0.14323649 1.3147274
-0.064623594 -0.14309928 1.316375
-0.055650275 -0.14247394 1.317
-0.02886425 -0.1420121 1.317
0.26786023 -0.1420121 1.317
0.27440283 -0.1420121 1.317
0.28569192 -0.14303839 1.317
0.29549953 -0.14544213 1.3166876
0.30412918 -0.1441042 1.3132502
-0.11616886 -0.13917258 1.312
-0.10121642 -0.13917258 1.312
-0.083963625 -0.13917258 1.312
-0.071311578 -0.13917258 1.312
-0.063720338 -0.1387125 1.312
-0.054833047 -0.13754444 1.3140001
-0.045308013 -0.13708235 1.3155715
-0.034593262 -0.13664633 1.3153335
-0.025368398 -0.13722289 1.3153335
-0.016277654 -0.13445953 1.315889
-0.0048491941 -0.13139006 1.317
0.0023091401 -0.13046642 1.317
0.01731855 -0.13046642 1.317
0.02609328 -0.13092823 1.317
0.033944357 -0.13092823 1.317
0.056573931 -0.13046642 1.317
0.064655915 -0.13046642 1.317
0.096406594 -0.1310437 1.317
0.10407624 -0.13112617 1.317
0.15471238 -0.13046642 1.317
0.16471864 -0.13085125 1.317
0.17598943 -0.13145603 1.317
0.18501984 -0.13219826 1.317
0.19470249 -0.13193585 1.3170002
0.20574439 -0.13231371 1.3170002
0.21464504 -0.13361524 1.3170002
0.22538209 -0.1357704 1.3161666
0.23494428 -0.13580555 1.3150001
0.24443601 -0.13523389 1.3152144
0.25584716 -0.13549766 1.3150002
0.26485056 -0.13623261 1.3146667
0.27482879 -0.13719591 1.3150771
0.28511032 -0.13756357 1.3149168
0.29405212 -0.13858259 1.3136667
-0.011501867 -0.12767071 1.3120002
-0.0046007466 -0.12709562 1.3120002
0.0046065915 -0.12553252 1.3136669
0.014697008 -0.12456522 1.3134707
0.025431903 -0.12613714 1.3120002
0.035319146 -0.12706611 1.3136668
0.045172792 -0.12630287 1.3145001
0.055362172 -0.12516615 1.3135387
0.064471819 -0.1243418 1.3132501
0.074857101 -0.12461123 1.3136668
0.085784465 -0.12475262 1.314273
0.094065376 -0.12566794 1.3129092
0.1047494 -0.12661785 1.3130002
0.11559688 -0.12558562 1.3142223
0.12529543 -0.12394484 1.3140588
0.13503176 -0.12550659 1.3150001
0.14510761 -0.12553252 1.3136669
0.15511441 -0.12534505 1.3134288
0.16552211 -0.12537982 1.3137858
0.17463502 -0.12566793 1.3129092
0.18518005 -0.12683423 1.3120002
0.19536743 -0.12668483 1.3120002
0.20396642 -0.12690392 1.3120002
0.21508491 -0.1288209 1.3120002
0.22543657 -0.12997109 1.312
0.23233771 -0.12997109 1.312
0.24729013 -0.12997109 1.312
0.25419125 -0.12997109 1.312
0.36518425 0.0057509332 1.312
0.37611103 0.0080513069 1.312
0.36607921 0.014406098 1.3141876
0.37537619 0.013763548 1.3153335
0.3833375 0.014967037 1.3131112
0.18863061 0.36920992 1.312
0.18754044 0.37547204 1.3142223
0.19249751 0.3761749 1.3131112
0.18639891 0.38524148 1.317
0.19452098 0.38513544 1.31375
0.20292577 0.38498387 1.3120002
0.18819492 0.39255381 1.317
0.1952506 0.39486295 1.3169999
0.2037816 0.39457428 1.317
0.1962769 0.40063578 1.317
0.23673849 -0.49524686 1.3255455
0.24532847 -0.49425769 1.3223162
0.25474772 -0.49464738 1.322286
0.26192346 -0.49139622 1.322
0.23866373 -0.4878054 1.3280001
0.24516487 -0.48567659 1.3262857
0.25435501 -0.48455861 1.3242857
0.26287171 -0.48412645 1.3220001
0.24797744 -0.47499901 1.3280001
0.25626254 -0.47525293 1.3262352
0.26400962 -0.47493905 1.3220003
0.27119508 -0.4740119 1.322
0.25884342 -0.46646145 1.3280001
0.2647211 -0.4655776 1.3244001
0.273922 -0.46403342 1.3223003
0.25961956 -0.45753583 1.3280001
0.26627222 -0.45570633 1.3279999
0.27468467 -0.45442545 1.323143
0.28220513 -0.45257127 1.322
0.26893327 -0.44472951 1.3280001
0.2751275 -0.44500226 1.3247275
0.28394359 -0.44503808 1.3220001
0.27580854 -0.43622944 1.326
0.28415489 -0.43532082 1.3230002
0.27636936 -0.42519185 1.3262354
0.28451207 -0.42518276 1.3227829
0.29176649 -0.42446667 1.322
0.278247 -0.4167884 1.3280001
0.28444135 -0.41500348 1.3238001
0.29205623 -0.41490528 1.322
0.28726149 -0.40598297 1.3258572
0.29414237 -0.40540186 1.3220003
0.3001689 -0.40563366 1.322
0.2887249 -0.39932516 1.3280001
0.29495427 -0.39571181 1.3241003
0.30132788 -0.39520308 1.3220001
0.29620025 -0.38486779 1.3250002
0.3022761 -0.38445643 1.3220001
0.29673135 -0.37600163 1.3265001
0.30304125 -0.37491739 1.3224002
0.297851 -0.36970612 1.322
0.30526367 -0.36516038 1.3230911
0.31291741 -0.36507028 1.322
0.30636731 -0.35435781 1.3231252
0.31314921 -0.35487151 1.322
0.30789396 -0.34524378 1.3245001
0.31280324 -0.34440181 1.3227501
0.31408373 -0.33513382 1.3240001
0.32103008 -0.3303017 1.322
0.31706733 -0.3266668 1.3272501
0.3233006 -0.32398546 1.3251765
0.31783023 -0.31084496 1.3280001
0.32466537 -0.31496549 1.3251765
0.32487798 -0.30542222 1.3230004
0.330964 -0.30381131 1.3219999
0.32872808 -0.29505005 1.325
0.33355442 -0.29462177 1.3243078
0.32947236 -0.28057542 1.3280001
0.33581716 -0.28533959 1.3245265
0.34189123 -0.28394356 1.322
0.32947236 -0.27591857 1.3280001
0.33544347 -0.27473679 1.3232502
0.34189123 -0.27003613 1.322
0.33724287 -0.26580682 1.325
0.3421481 -0.26327965 1.3230001
0.34266293 -0.25442469 1.3244002
0.34599444 -0.24568683 1.3233848
0.34884495 -0.23990335 1.322
-0.15134773 -0.174632 1.3280001
-0.14785509 -0.17346779 1.3280001
-0.15018351 -0.16648251 1.3280001
-0.14552666 -0.16415408 1.3280001
-0.16182566 -0.15484037 1.3280001
-0.15380552 -0.15380552 1.3280001
-0.14467131 -0.15480907 1.3262857
-0.13538137 -0.15550563 1.3279999
-0.12573504 -0.15484037 1.3280001
-0.11525712 -0.15484038 1.3279998
-0.10462139 -0.15461068 1.3260001
-0.094991133 -0.15437813 1.3258182
-0.084987573 -0.15367617 1.3280001
-0.0752858 -0.1517358 1.3280001
-0.065325297 -0.15328808 1.3280001
-0.054718025 -0.15227911 1.3280001
-0.044240106 -0.15134773 1.3280001
-0.0349264 -0.15018351 1.3280001
-0.029105334 -0.15018351 1.3280001
0.26544061 -0.15018351 1.3280001
0.27545288 -0.1506492 1.3280001
0.28479686 -0.15228111 1.3260001
0.29089728 -0.15298183 1.322
-0.16109452 -0.14718707 1.322
-0.15568605 -0.14757338 1.322
-0.14387576 -0.14884271 1.3219999
-0.13443859 -0.14834602 1.322
-0.12516697 -0.14834602 1.322
-0.11560559 -0.14863576 1.322
-0.1043058 -0.14950497 1.322
-0.095034175 -0.14950497 1.322
-0.085762545 -0.14950497 1.322
-0.074338578 -0.14818045 1.3219999
-0.064735822 -0.14818045 1.3219999
-0.055420589 -0.1470221 1.3226001
-0.044634368 -0.14458372 1.3236001
-0.035097957 -0.14476869 1.3243078
-0.0252531 -0.14550211 1.3258182
-0.01665988 -0.14298521 1.326
-0.0046568532 -0.14086981 1.3280001
0.0039583249 -0.1413355 1.3280001
0.012806346 -0.14086981 1.3280001
0.064031735 -0.14086981 1.3280001
0.11176448 -0.14086981 1.3280001
0.18976678 -0.14086981 1.3280001
0.20594676 -0.1416634 1.3272501
0.21524477 -0.14279117 1.3260001
0.2242569 -0.14342251 1.324182
0.23510718 -0.14354306 1.3240001
0.24473834 -0.14340726 1.3256
0.25535253 -0.14326458 1.3249999
0.26425192 -0.14526208 1.3236365
0.27510646 -0.14583351 1.3230911
0.28510252 -0.14776655 1.322
0.29089728 -0.14834602 1.322
-0.012305944 -0.13723865 1.3244001
-0.0041811736 -0.13637301 1.325
0.0049789655 -0.13528997 1.3254286
0.014692932 -0.13538107 1.3251765
0.025242103 -0.13614775 1.3252728
0.035186529 -0.13620372 1.3258182
0.0447849 -0.13449052 1.3250002
0.054915059 -0.13555086 1.3257499
0.065097757 -0.13601132 1.3260001
0.074528277 -0.13438861 1.3257501
0.085226022 -0.13370165 1.3261539
0.095018573 -0.13521197 1.325
0.10505553 -0.13643458 1.3256
0.11477001 -0.13473307 1.3255292
0.12573981 -0.13334578 1.3247273
0.13427956 -0.13312061 1.325
0.14464396 -0.13226074 1.3246667
0.15504454 -0.13465054 1.3253334
0.16533689 -0.13584687 1.3244002
0.17437682 -0.1363585 1.3252728
0.18468912 -0.1373592 1.325
0.19532634 -0.13701148 1.3228571
0.20455526 -0.13704623 1.322
0.21440637 -0.13791545 1.322
0.24917497 -0.13791545 1.322
0.25149286 -0.13791545 1.322
0.012748486 -0.12864383 1.322
0.047517087 -0.12864383 1.322
0.078808829 -0.12864383 1.322
0.08344464 -0.12864383 1.322
0.11937219 -0.12864383 1.322
0.1216901 -0.12864383 1.322
0.36970612 0.019702207 1.322
0.37619627 0.018311465 1.322
0.38395756 0.019720092 1.3232
0.3656261 0.022826063 1.324
0.37720513 0.022120053 1.3280001
0.38523504 0.022525776 1.3244001
0.18369411 0.38593146 1.322
0.18517734 0.3954387 1.3233848
0.1912273 0.39983889 1.322
0.20281683 0.39983889 1.322
0.18790403 0.40351635 1.3280001
0.1947687 0.40604395 1.3256
0.20374171 0.40516394 1.3250002
0.19582069 0.41143298 1.3280001
0.20257312 0.41096729 1.3280001
0.20761746 -0.49851647 1.3379999
0.21723589 -0.49570137 1.3380002
0.22514187 -0.49492565 1.3360554
0.23160791 -0.49426073 1.3335557
0.21934725 -0.48678669 1.3379999
0.22521217 -0.4856137 1.3379999
0.23526643 -0.48534945 1.3351738
0.2436524 -0.48263046 1.3330001
0.25124827 -0.48146182 1.3330001
0.21934725 -0.47740287 1.3380001
0.22569515 -0.47533289 1.3379999
0.23524378 -0.47513008 1.3373476
0.24404487 -0.47382823 1.3336667
0.2525838 -0.47328162 1.3330001
0.2287311 -0.46801901 1.3380001
0.23483057 -0.46473461 1.3379999
0.24458376 -0.46501306 1.3354999
0.25471845 -0.46502468 1.3353529
0.26410285 -0.46159568 1.3330001
0.23602962 -0.4557679 1.3380002
0.24513482 -0.45502776 1.3361818
0.25575554 -0.45538652 1.3368888
0.26332378 -0.45302597 1.3330001
0.23694196 -0.44807833 1.3380001
0.24522716 -0.44582924 1.3377367
0.25645608 -0.4469054 1.3380002
0.26452118 -0.4452492 1.3337144
0.24906276 -0.43908551 1.3379999
0.25922859 -0.43752155 1.3379999
0.26587293 -0.43494418 1.3360435
0.27228302 -0.43471795 1.3330001
0.2674765 -0.42506164 1.3368462
0.27237168 -0.4236232 1.3348751
0.26626647 -0.41875386 1.3380001
0.27585977 -0.41609591 1.3360001
0.2818937 -0.4111464 1.3342501
0.27799627 -0.40819705 1.3380001
0.28274977 -0.40464932 1.335143
0.27799627 -0.3929483 1.3380001
0.28452393 -0.39505708 1.3365415
0.29175964 -0.39420661 1.3330001
0.27799627 -0.38591042 1.3380001
0.28544921 -0.38513368 1.3377498
0.29238313 -0.38546547 1.3346667
0.28644171 -0.37558821 1.3379999
0.29368234 -0.37422156 1.3346667
0.30032933 -0.37044513 1.3330001
0.28878766 -0.36667353 1.3380001
0.29554221 -0.36475486 1.3369473
0.30191204 -0.36340255 1.3361251
0.29586166 -0.35451064 1.3380001
0.30322254 -0.35566518 1.3367501
0.29730213 -0.34569666 1.3375456
0.30389032 -0.34444207 1.334389
0.29910991 -0.3342993 1.3379999
0.3058002 -0.33509526 1.3364999
0.31295019 -0.33258256 1.3330001
0.30536577 -0.32517609 1.3379998
0.31331953 -0.32419971 1.3350589
0.32136407 -0.32136407 1.3330001
0.30771175 -0.31709561 1.3379999
0.31476206 -0.31511572 1.3357499
0.32136407 -0.31552112 1.3330001
0.31573272 -0.30608416 1.3365294
0.32317856 -0.30254957 1.3343638
0.31729108 -0.29735044 1.3380001
0.32473069 -0.29542506 1.3372499
0.33071285 -0.29487589 1.3330001
0.32548657 -0.28526008 1.336611
0.33164772 -0.28677359 1.3330001
0.32669559 -0.27514705 1.3363334
0.33071285 -0.27228302 1.3330001
0.32882538 -0.26783043 1.3379999
0.33402616 -0.26486313 1.3356667
0.34006163 -0.26059705 1.3330001
0.32960737 -0.25219071 1.3380001
0.33515561 -0.25547078 1.3367499
0.34006163 -0.25475407 1.3330001
0.32843441 -0.2469123 1.3380001
0.33547226 -0.24749875 1.3380002
0.34173107 -0.24624 1.3330001
-0.13473798 -0.19332647 1.3365002
-0.12668183 -0.19119574 1.3380001
-0.1114331 -0.19119574 1.3380001
-0.13544933 -0.18484925 1.3373334
-0.12572213 -0.18501092 1.3380002
-0.11377906 -0.18689482 1.3380002
-0.10908714 -0.18884978 1.3380001
-0.15489973 -0.17337933 1.3345001
-0.14506991 -0.17494804 1.3363334
-0.13459797 -0.17517474 1.3361818
-0.12582029 -0.17438717 1.3350835
-0.16056518 -0.16383724 1.3330001
-0.15428764 -0.16441745 1.3332779
-0.14461383 -0.16506428 1.3330001
-0.13527127 -0.16498333 1.3335884
-0.12516867 -0.16338715 1.3343889
-0.11511922 -0.16215202 1.3345001
-0.10537095 -0.16157098 1.3355001
-0.095011376 -0.161578 1.3380002
-0.084063567 -0.16069826 1.3379999
-0.075070716 -0.16069826 1.3380001
-0.065625511 -0.16172111 1.3367501
-0.055912048 -0.16108926 1.3380002
-0.043400258 -0.16069826 1.3380001
-0.037535362 -0.16069826 1.3380001
0.24984474 -0.16069826 1.3380001
0.26704845 -0.16148025 1.3379999
0.27799627 -0.16069826 1.3380001
0.28151518 -0.16069826 1.3380001
-0.16068205 -0.15483905 1.3330001
-0.15717626 -0.15600765 1.3330001
-0.099330716 -0.15776055 1.3330001
-0.085307553 -0.15776055 1.3330001
-0.074862517 -0.15673991 1.3342501
-0.065441415 -0.15776055 1.3330001
-0.054121565 -0.15710601 1.3348751
-0.044489957 -0.15688783 1.3355001
-0.035435978 -0.15547825 1.3352729
-0.025442224 -0.15361504 1.3357275
-0.016516401 -0.15313104 1.3370911
-0.0046919202 -0.15131442 1.3380001
0.0011729799 -0.15131442 1.3380001
0.1583523 -0.15131442 1.3380001
0.16656315 -0.15131442 1.3380001
0.17418753 -0.15131442 1.3380001
0.19706064 -0.15131442 1.3380001
0.20493636 -0.15198469 1.3380002
0.21496585 -0.15167053 1.3370001
0.22591595 -0.15178362 1.3380001
0.23535964 -0.15303715 1.3356925
0.24577564 -0.15443771 1.3358124
0.25598598 -0.15307809 1.3370001
0.26476479 -0.15521653 1.3355001
0.27491447 -0.15600969 1.3363334
0.28375393 -0.15701251 1.335143
-0.012865521 -0.14679803 1.3342501
-0.0046802312 -0.14626013 1.3346667
0.0049990723 -0.14643888 1.3343638
0.01521572 -0.14536005 1.3350002
0.025877129 -0.14387038 1.336182
0.035435978 -0.14377238 1.3352729
0.044462193 -0.14392003 1.3346667
0.054992717 -0.14392003 1.3346668
0.065367922 -0.14518142 1.3355001
0.074953467 -0.14405483 1.3359169
0.084415741 -0.14339565 1.3357275
0.095372953 -0.14299816 1.3357779
0.10606239 -0.14393665 1.3348184
0.11542393 -0.14478733 1.3348184
0.12420555 -0.14349456 1.3380002
0.1353545 -0.14383402 1.3372308
0.14574993 -0.14438365 1.3371668
0.15491192 -0.14507291 1.3366666
0.16455933 -0.14492172 1.3355
0.17500313 -0.1454725 1.3357778
0.18502755 -0.14521584 1.3358124
0.19522309 -0.14509715 1.3353529
0.20449716 -0.1470755 1.3343638
0.21478808 -0.14794435 1.3330001
0.22437055 -0.14841178 1.3330001
0.23488793 -0.14841178 1.3330001
0.24540529 -0.14841178 1.3330001
0.25429061 -0.14781827 1.3346667
0.078295976 -0.139063 1.3330001
0.085307561 -0.13867347 1.3330001
0.093487732 -0.139063 1.3330001
0.12403818 -0.13839522 1.3330001
0.13633628 -0.13828394 1.3330001
0.14490598 -0.13789441 1.3330001
0.15355361 -0.13859555 1.3330001
0.16126634 -0.139063 1.3330001
0.36810794 0.025709126 1.3330001
0.37525323 0.025934931 1.3358572
0.3848252 0.026296096 1.3357275
0.39060235 0.0293245 1.3380001
0.36810794 0.03155211 1.3330001
0.37594008 0.03225695 1.3380001
0.38591042 0.033234432 1.3379999
0.39060235 0.031670459 1.3380001
0.1818119 0.39998618 1.3380001
0.18381026 0.4062627 1.3355001
0.20917881 0.40316585 1.3330001
0.18587215 0.41472933 1.336077
0.19432093 0.41618738 1.3330001
0.20319907 0.41615248 1.3346667
0.19394261 0.42433059 1.3345386
0.19771312 -0.49465907 1.3490001
0.20513472 -0.49397111 1.3448004
0.21333821 -0.49397573 1.3434287
0.19907494 -0.4868466 1.3490001
0.20652904 -0.48605821 1.3490001
0.21448901 -0.48480549 1.3447651
0.22095184 -0.48232651 1.3430001
0.21558851 -0.47562152 1.3458002
0.22179504 -0.4730587 1.3447143
0.22674213 -0.46581683 1.3463337
0.23149757 -0.46103111 1.3450001
0.22851422 -0.45442981 1.3478
0.23286253 -0.45383433 1.3446364
0.2282463 -0.44703162 1.3490001
0.23450172 -0.44445166 1.3461432
0.24371421 -0.44209993 1.3430001
0.2551935 -0.44357163 1.3430002
0.2360118 -0.43695843 1.3483335
0.24409634 -0.43554008 1.3457276
0.25474039 -0.4355197 1.3445003
0.26098219 -0.43287727 1.3430001
0.2461054 -0.42622754 1.3458002
0.25455102 -0.42507955 1.3439476
0.2627202 -0.42452359 1.3430003
0.24791652 -0.41693699 1.3482502
0.25524491 -0.4153226 1.3463752
0.26479793 -0.41422957 1.3440913
0.27373698 -0.41325456 1.3430002
0.25899452 -0.40445718 1.3490001
0.26627108 -0.40509567 1.34679
0.27526757 -0.40477747 1.3430003
0.26608294 -0.39527893 1.3454708
0.27526757 -0.39567253 1.3430003
0.26809186 -0.38679761 1.3460002
0.2748889 -0.38471162 1.3435717
0.28138983 -0.38146573 1.3430001
0.27655798 -0.37479174 1.3460003
0.28307179 -0.3732242 1.3430002
0.27716935 -0.36433786 1.3482502
0.28409368 -0.36460659 1.3451823
0.29198611 -0.36145055 1.3430001
0.27697039 -0.35644269 1.3490001
0.28508648 -0.35491389 1.3467146
0.29159364 -0.35556373 1.3430001
0.28856009 -0.34532601 1.3490001
0.29325628 -0.34423509 1.3434289
0.30022764 -0.340258 1.3430001
0.28974271 -0.33823025 1.3490001
0.29499307 -0.33511806 1.3460003
0.30022764 -0.3308391 1.3430001
0.29678464 -0.32576859 1.3468184
0.30101255 -0.32455984 1.3430001
0.29785678 -0.3149192 1.3476667
0.30422854 -0.31477287 1.3442634
0.30697981 -0.30580309 1.345667
0.31294316 -0.30211145 1.3430001
0.30891013 -0.29709709 1.3475001
0.31432313 -0.29408717 1.3440591
0.32142019 -0.29080874 1.3430001
0.31533203 -0.28531569 1.3467147
0.32142019 -0.28492194 1.3430001
0.31739327 -0.27617592 1.3468183
0.3219986 -0.27433288 1.3443334
0.31812567 -0.26845551 1.3490001
0.32414767 -0.26480368 1.3445656
0.3308391 -0.26255202 1.3430001
0.32455072 -0.25479183 1.3452108
0.3308391 -0.2566652 1.3430001
0.32460645 -0.24795553 1.3452501
-0.13068733 -0.20132913 1.3430001
-0.12616198 -0.20162894 1.3450001
-0.13068733 -0.19544232 1.3430001
-0.12465911 -0.19626138 1.3451431
-0.11589303 -0.19479747 1.3451819
-0.10647695 -0.19620273 1.3466001
-0.14408077 -0.18318163 1.3455715
-0.133513 -0.18720078 1.3430001
-0.12175117 -0.18576509 1.344
-0.1166121 -0.18398462 1.3436002
-0.10761872 -0.18094137 1.3490001
-0.13068733 -0.17071769 1.3430001
-0.12235498 -0.17486784 1.3438572
-0.11576758 -0.17483428 1.3475002
-0.10592926 -0.17384563 1.3490002
-0.095116697 -0.17249407 1.3490001
-0.085148871 -0.17148039 1.3490001
-0.075687893 -0.17226881 1.3490001
-0.065044284 -0.17148039 1.3490001
-0.053691097 -0.17195344 1.3490001
-0.045728102 -0.17226881 1.3490001
-0.0354787 -0.17148039 1.3490001
-0.024835089 -0.1720717 1.3490001
-0.12126842 -0.16836296 1.3430001
-0.1145967 -0.16757806 1.3430001
-0.10435721 -0.1668645 1.3430003
-0.093841612 -0.16687673 1.3436668
-0.085036322 -0.16599151 1.3457694
-0.075463466 -0.16625898 1.3450001
-0.064899638 -0.16756169 1.3460001
-0.054239362 -0.16625896 1.3450001
-0.044965111 -0.16555037 1.3447144
-0.035029594 -0.16555037 1.3447144
-0.024778806 -0.16520382 1.3460003
-0.014917281 -0.16412069 1.3468183
-0.005440067 -0.16249244 1.3490001
0.19749808 -0.1620194 1.3490001
0.20498805 -0.16280781 1.3490001
0.21168958 -0.1620194 1.3490001
0.23634671 -0.16268772 1.348
0.24508317 -0.16317329 1.3476667
0.25501862 -0.16352311 1.3467501
0.2647388 -0.16487607 1.3447145
0.27419788 -0.16373707 1.3436668
0.2825672 -0.16365351 1.3430001
-0.031788811 -0.15894406 1.3430001
-0.024724629 -0.15894406 1.3430001
-0.012964146 -0.15735553 1.3445002
-0.0047190967 -0.15694262 1.3460001
0.0049561472 -0.15602335 1.3462002
0.014165618 -0.15464006 1.3465
0.024835091 -0.15374105 1.3490001
0.0354787 -0.15374105 1.3490001
0.045333892 -0.15334684 1.3490001
0.054400675 -0.15374105 1.3490001
0.065044284 -0.15374105 1.3490001
0.075687893 -0.15374105 1.3490001
0.085280269 -0.15334684 1.3490001
0.094609864 -0.15255843 1.3490001
0.10501561 -0.15368451 1.3485001
0.11576778 -0.15475404 1.3475002
0.12606765 -0.15208538 1.3490001
0.13474475 -0.15365623 1.34825
0.14551876 -0.1529434 1.3464286
0.15531434 -0.15467502 1.3468183
0.16465448 -0.1549854 1.3454001
0.17448387 -0.1556229 1.3448002
0.18485631 -0.1547583 1.3443847
0.19478855 -0.15616086 1.3456252
0.20486121 -0.1570603 1.3430002
0.21473527 -0.15706159 1.3451819
0.22445935 -0.15680781 1.3448462
0.23424651 -0.15878829 1.3450001
0.24253684 -0.15894406 1.3430001
0.25501689 -0.15800217 1.3430001
0.26019728 -0.15894406 1.3430001
0.01766045 -0.14952514 1.3430001
0.024724631 -0.14913268 1.3430001
0.034614481 -0.1490542 1.3430001
0.043562442 -0.14952514 1.3430001
0.054158714 -0.14952514 1.3430001
0.065539889 -0.14952514 1.3430001
0.075351253 -0.14952514 1.3430001
0.085476577 -0.14858325 1.3430001
0.094189063 -0.14717041 1.3430001
0.10360797 -0.14834778 1.3430001
0.11420425 -0.14952514 1.3430001
0.12440806 -0.14834778 1.3430001
0.13343449 -0.14874023 1.3430001
0.14387378 -0.1490542 1.3430001
0.15187986 -0.14952514 1.3430001
0.37557891 0.029434083 1.3430001
0.38735253 0.029434083 1.3430001
0.37599704 0.035951663 1.3445001
0.38517311 0.035940155 1.3441253
0.39206198 0.036498263 1.3430001
0.38667941 0.043315947 1.3475002
0.39185742 0.043630823 1.3450001
0.18197466 0.41307804 1.3450001
0.15368931 -0.49502254 1.3590001
0.16441181 -0.49561816 1.3589998
0.17505327 -0.49554321 1.3567271
0.18536045 -0.4951067 1.3540001
0.19329946 -0.49406865 1.3540001
0.15845487 -0.48727852 1.3590001
0.16468675 -0.48691192 1.359
0.17530455 -0.48744869 1.359
0.18558024 -0.48417908 1.3569999
0.19443169 -0.4840613 1.3540001
0.2038414 -0.48289588 1.3540001
0.21010017 -0.48073769 1.3540001
0.18752477 -0.47464982 1.3590001
0.19495444 -0.47431135 1.3559999
0.20416515 -0.47480261 1.3540001
0.21312165 -0.47339985 1.3540001
0.18794176 -0.46493992 1.3590001
0.19572835 -0.46515274 1.359
0.20467426 -0.46470696 1.3565
0.21464087 -0.46475369 1.3546522
0.223454 -0.46441633 1.3540001
0.19816788 -0.4578909 1.3590001
0.20515737 -0.45534918 1.3589998
0.21535949 -0.45547563 1.35725
0.22434427 -0.45581055 1.3540001
0.20611046 -0.44915402 1.3590001
0.21619737 -0.44660899 1.3572353
0.22488675 -0.4445883 1.3542633
0.23146629 -0.44037947 1.3540001
0.21802437 -0.43604875 1.3590001
0.225071 -0.43493247 1.3568946
0.23410936 -0.43299362 1.3544168
0.22644354 -0.42437321 1.3589998
0.23526019 -0.42459142 1.3557646
0.24254502 -0.42481652 1.3540001
0.22874688 -0.41817787 1.3590001
0.23534894 -0.41483623 1.3558749
0.24401465 -0.41511324 1.3540001
0.25425681 -0.41236609 1.3540001
0.23777628 -0.40652603 1.3575002
0.24461234 -0.40491739 1.3545001
0.25475422 -0.40454316 1.3540001
0.26232848 -0.40595627 1.3540001
0.24514063 -0.39508697 1.3574375
0.25531834 -0.39418864 1.3545884
0.26280326 -0.39337403 1.3540001
0.24564025 -0.38526887 1.3587221
0.25429395 -0.38467816 1.3559232
0.26396099 -0.38402152 1.3566316
0.27182454 -0.38102913 1.3540001
0.2490005 -0.37767062 1.3590001
0.25329617 -0.37449309 1.3574617
0.26566926 -0.37477052 1.3576109
0.27266791 -0.37514472 1.3552501
0.25495744 -0.36456534 1.3590001
0.26776424 -0.36558869 1.3575002
0.27286872 -0.36530077 1.3549092
0.25614884 -0.35622561 1.3590001
0.26746702 -0.35622561 1.3590001
0.2741724 -0.3547765 1.3565
0.28310108 -0.35076046 1.3540001
0.27749407 -0.3461453 1.3568573
0.28484198 -0.34382045 1.3553637
0.27997664 -0.33597198 1.3590001
0.28584185 -0.33470544 1.3576841
0.29141015 -0.33295536 1.3540001
0.28950778 -0.32405809 1.3590001
0.29315299 -0.32484591 1.3556668
0.28950778 -0.31571835 1.3590001
0.29397768 -0.31487638 1.3568573
0.29700589 -0.30566099 1.3576366
0.30277202 -0.3038677 1.3543848
0.29801771 -0.2959753 1.3590001
0.30509055 -0.29465669 1.3565
0.29903889 -0.28950778 1.3590001
0.30633634 -0.28584674 1.3573332
0.31218275 -0.2825076 1.3540001
0.30693775 -0.27835864 1.3583751
0.31360579 -0.27419299 1.3565
0.31620157 -0.26496953 1.357
