# .PCD v0.7 - Point Cloud Data file format
VERSION 0.7
FIELDS x y z
SIZE 4 4 4
TYPE F F F
COUNT 1 1 1
WIDTH 1469
HEIGHT 1
VIEWPOINT 0 0 0 1 0 0 0
POINTS 1469
DATA ascii
0.12904227 0.3263405 1.2165
0.13483806 0.32548216 1.2123125
0.1432035 0.32868615 1.21
0.1282388 0.33395523 1.219
0.13585418 0.33483624 1.2182105
0.14572203 0.33544359 1.2114738
0.15281396 0.33534032 1.2105
0.12610149 0.34410745 1.2190001
0.13892537 0.34090146 1.2190001
0.14621243 0.3441962 1.2174166
0.15106089 0.34495816 1.2152002
0.14854327 0.36013728 1.2190001
0.20589255 -0.49524722 1.2251177
0.21336053 -0.49533948 1.2229999
0.22837079 -0.49212298 1.223
0.20721474 -0.4864113 1.2255001
0.21523666 -0.48510718 1.2237405
0.22574991 -0.48473704 1.223
0.23051512 -0.48461783 1.223
0.21871929 -0.47538534 1.225
0.22526133 -0.47404945 1.2232351
0.23306146 -0.4742983 1.2229998
0.21907724 -0.4649989 1.2250001
0.22437534 -0.46506706 1.2245997
0.23401825 -0.46517903 1.2238888
0.21836101 -0.4593111 1.2270001
0.22498091 -0.45567447 1.2255598
0.23484817 -0.45524862 1.2245381
0.24230891 -0.45245293 1.223
0.22696637 -0.44747871 1.2270001
0.23690672 -0.44567889 1.2260587
0.243524 -0.44437593 1.2229998
0.23808162 -0.43654275 1.2270001
0.24524125 -0.43503833 1.2241427
0.25303054 -0.43208182 1.223
0.23895238 -0.42427498 1.2270001
0.24574493 -0.42564157 1.226333
0.25247681 -0.42547363 1.2239231
0.23987441 -0.41628429 1.2270001
0.24575956 -0.41529647 1.2265555
0.25376236 -0.41443813 1.2236665
0.246185 -0.40595779 1.227
0.25387812 -0.40528664 1.2239999
0.26268002 -0.40206125 1.223
0.2480495 -0.39649194 1.2270001
0.25433612 -0.39546317 1.2245382
0.25587445 -0.38584316 1.2252221
0.26089308 -0.38490665 1.223
0.2574763 -0.37638676 1.2270001
0.26240507 -0.37482369 1.2244548
0.25831443 -0.36342278 1.2270001
0.26466253 -0.36502028 1.2243332
0.27125731 -0.36346337 1.223
0.2575632 -0.35461253 1.2270001
0.26555261 -0.35511592 1.2250867
0.27125731 -0.35488605 1.223
0.25923645 -0.34851706 1.2270001
0.26510495 -0.34527141 1.2256085
0.27168617 -0.34459329 1.223
0.26693276 -0.33538663 1.2257999
0.27300555 -0.33474499 1.2232857
0.26831988 -0.32568896 1.2270001
0.27514336 -0.32438082 1.2235997
0.28197896 -0.32486549 1.223
0.26999316 -0.31624699 1.2270001
0.27562252 -0.3145825 1.224714
0.28197896 -0.3130717 1.223
0.27674711 -0.30456129 1.224714
0.28197896 -0.30556655 1.223
0.27765751 -0.29531017 1.2255715
0.28279543 -0.29399744 1.2234445
0.27816826 -0.28677362 1.2270001
0.28405055 -0.28497356 1.2249045
0.29055625 -0.28412327 1.223
0.28564167 -0.27603683 1.2246841
0.29055625 -0.27232948 1.223
0.2873897 -0.26605207 1.2263849
0.29339913 -0.26379481 1.2235333
0.28816 -0.25612894 1.2270001
0.29390484 -0.25490126 1.2245555
0.29601628 -0.2458047 1.2249047
0.30127791 -0.24338108 1.223
0.29646531 -0.23602171 1.2260587
0.30256018 -0.23435311 1.2238572
0.29724345 -0.2266078 1.2270001
0.30223203 -0.22462755 1.22525
0.30530486 -0.21546845 1.2248331
0.31342909 -0.21264572 1.223
0.30642253 -0.20602666 1.227
0.31399119 -0.20483558 1.2238693
0.30810261 -0.19561827 1.2270001
0.31443283 -0.19452912 1.2248331
0.32057685 -0.19191724 1.223
0.31799924 -0.18655117 1.2265002
0.32358783 -0.18465853 1.22375
0.31947398 -0.1796369 1.2270001
0.32550061 -0.17696543 1.2254001
-0.24202575 -0.10003731 1.2270001
-0.23405266 -0.10359464 1.2258002
-0.2247683 -0.10514745 1.2260587
-0.21522348 -0.1040202 1.2251538
-0.20522971 -0.10422894 1.2256665
-0.19518004 -0.10377439 1.2266668
-0.18501523 -0.10326432 1.2270001
-0.17533423 -0.10111298 1.2270001
-0.16433848 -0.10099348 1.2270001
-0.15535749 -0.10095932 1.2270001
-0.14844246 -0.10003731 1.2270001
-0.24338107 -0.097566865 1.223
-0.23480377 -0.099711187 1.223
-0.22729862 -0.099711187 1.223
-0.21764916 -0.099711187 1.223
-0.20371103 -0.099711187 1.223
-0.19513372 -0.099711187 1.223
-0.18456528 -0.099098526 1.2230002
-0.17440522 -0.097209476 1.223
-0.16475439 -0.096755654 1.2247778
-0.15515587 -0.096481934 1.2243333
-0.1446376 -0.095711954 1.2247144
-0.13556409 -0.093303494 1.2256669
-0.12585339 -0.091431953 1.2270001
-0.13238981 -0.088190034 1.2238001
-0.12468522 -0.087120943 1.2243334
-0.11454047 -0.086492717 1.2251177
-0.10424835 -0.08490593 1.2259334
-0.095200323 -0.083169207 1.2256666
-0.085110798 -0.082654133 1.2267144
-0.075177386 -0.082109481 1.2270001
-0.065966219 -0.081996463 1.2262729
-0.057548344 -0.081213087 1.2270001
-0.03119443 -0.080675252 1.2270001
-0.024740409 -0.080675252 1.2270001
0.21674751 -0.081213087 1.2270001
0.22409266 -0.081543736 1.2256668
0.23557174 -0.080675252 1.2270001
0.24596988 -0.081392363 1.2270001
0.25515324 -0.082244925 1.2263335
0.26457933 -0.082581565 1.2260002
-0.091133885 -0.078267924 1.223
-0.084700905 -0.078267924 1.223
-0.075051434 -0.078267924 1.223
-0.064329803 -0.078267924 1.223
-0.053414695 -0.076037414 1.2242309
-0.045389891 -0.076043747 1.2248183
-0.035965685 -0.076766334 1.2246667
-0.0245439 -0.076609403 1.2254615
-0.015935024 -0.075197838 1.2253336
-0.0053689987 -0.072271816 1.2243334
0.006175898 -0.072788529 1.2255001
0.014570326 -0.073777631 1.2247144
0.024700083 -0.073457643 1.2250001
0.035439245 -0.073028095 1.2250001
0.045104496 -0.07302808 1.2250001
0.055060145 -0.072788537 1.2255001
0.065508917 -0.073028073 1.225
0.074857689 -0.072708689 1.2256668
0.084069923 -0.072788537 1.2255001
0.094658956 -0.072069891 1.2270001
0.10326432 -0.072069891 1.2270001
0.13661009 -0.072069891 1.2270001
0.14521545 -0.072069891 1.2270001
0.15586765 -0.0720229 1.2262002
0.1649124 -0.07305745 1.2255001
0.17535818 -0.07354518 1.2246667
0.18535025 -0.073897235 1.2241428
0.19507299 -0.074811175 1.2248666
0.20500645 -0.074491598 1.2243333
0.21526092 -0.07740023 1.2243334
0.22594698 -0.077890262 1.2238001
0.23505974 -0.076208919 1.2243332
0.24442175 -0.077105075 1.2234445
0.25517488 -0.078267924 1.223
0.26504439 -0.078331925 1.2240001
0.27232948 -0.078267924 1.223
-0.0096494695 -0.069690615 1.223
0.033951838 -0.069690615 1.223
0.050391678 -0.069690615 1.223
0.076123595 -0.069690615 1.223
0.084700897 -0.069690615 1.223
0.095486358 -0.069736198 1.2238001
0.10549002 -0.06762854 1.2244546
0.11472673 -0.066376068 1.2242632
0.12467013 -0.066247702 1.2244284
0.1343518 -0.067962781 1.2245384
0.14478508 -0.068346769 1.2233638
0.15498717 -0.068737589 1.223
0.16511315 -0.068975843 1.223
0.17154613 -0.069690615 1.223
0.28182554 -0.0032270099 1.2270001
0.12865961 0.33773145 1.223
0.1318761 0.33880362 1.223
0.12758744 0.34508342 1.2230002
0.13461208 0.34600103 1.2247499
0.14188296 0.34702352 1.223
0.12575082 0.35360876 1.2260002
0.13747063 0.35303488 1.2270001
0.14502293 0.35493883 1.2254
0.15117502 0.35595822 1.223
0.1453622 0.36402681 1.2254617
0.14306411 0.37110615 1.2270001
0.18817826 -0.49807641 1.2360001
0.19598366 -0.49521425 1.2351305
0.20196997 -0.49466443 1.2320001
0.19818336 -0.48661491 1.2353334
0.20370293 -0.48363599 1.2341819
0.21277051 -0.48062372 1.2320001
0.20540595 -0.47494939 1.235579
0.21376289 -0.47496361 1.2328891
0.2084047 -0.46845913 1.2360001
0.21485724 -0.46522853 1.2336668
0.21667461 -0.45572832 1.2351112
0.2229708 -0.45206603 1.2326669
0.2311314 -0.45038223 1.2320001
0.21827716 -0.44630635 1.2360001
0.22477381 -0.44486162 1.2346668
0.23185413 -0.44490939 1.2324002
0.21779557 -0.43884179 1.2360001
0.22577983 -0.43531254 1.2355556
0.23380384 -0.43490252 1.2339048
0.24085189 -0.43094128 1.2320001
0.22718638 -0.42463511 1.2360001
0.23506366 -0.42451847 1.2336473
0.24085189 -0.42014074 1.2320001
0.22711417 -0.416087 1.2360001
0.23646812 -0.41531029 1.2345002
0.24085189 -0.41366044 1.2320001
0.23946676 -0.40525144 1.2360001
0.24260229 -0.40487799 1.2326669
0.24548177 -0.39534402 1.2342501
0.2468847 -0.38568333 1.2345002
0.25189546 -0.38400769 1.2332002
0.24813525 -0.37599531 1.2360001
0.25374714 -0.37456793 1.2338002
0.25554669 -0.36629313 1.2347693
0.2544443 -0.35427797 1.2333335
0.25609139 -0.34629223 1.2346668
0.26029286 -0.34345695 1.2320001
0.25788727 -0.33752894 1.2360001
0.2629171 -0.33491471 1.234182
0.26556486 -0.32446286 1.234286
0.267147 -0.31519395 1.2344
0.27217346 -0.3121354 1.2320001
0.26884329 -0.30496192 1.2360001
0.27213344 -0.30477005 1.2328002
0.27351472 -0.29443023 1.2340001
0.27501556 -0.28511599 1.2340002
0.27779382 -0.2764602 1.2344615
0.28212097 -0.2734744 1.2330002
0.27847493 -0.26872289 1.2360001
0.28288466 -0.26494044 1.2341177
0.28540897 -0.25454003 1.2341334
0.2887933 -0.24619429 1.2353334
0.2915802 -0.24455845 1.2330002
0.28931051 -0.23621608 1.2360001
0.29254749 -0.23414858 1.2336668
0.29533032 -0.22501637 1.2340002
0.29783583 -0.21611762 1.2346668
0.3010377 -0.21294321 1.233
0.297979 -0.20912708 1.2360001
0.30193314 -0.20458293 1.2338668
0.30424598 -0.19542634 1.2331113
0.30805656 -0.18585429 1.2345456
0.31480327 -0.18412068 1.2340001
0.30708089 -0.17618684 1.2360001
0.31493661 -0.17488895 1.2349092
0.32315195 -0.17388859 1.2320002
0.29917479 -0.16740827 1.2320001
0.30206865 -0.16781415 1.2350001
0.31675434 -0.16547894 1.2347502
0.32356676 -0.16531003 1.2324708
0.31856662 -0.15819976 1.2360001
0.3242377 -0.15736945 1.2342224
-0.22754759 -0.13111076 1.2360001
-0.23430693 -0.12481581 1.2360001
-0.22661884 -0.12460939 1.2360001
-0.25463659 -0.11810804 1.2360001
-0.24163388 -0.11160668 1.2360001
-0.23386136 -0.11476488 1.2350001
-0.22496866 -0.11465068 1.2337501
-0.21635212 -0.11264509 1.2355001
-0.20479286 -0.11160668 1.2360001
-0.19504079 -0.11160668 1.2360001
-0.18853945 -0.11160668 1.2360001
-0.16361755 -0.11160668 1.2360001
-0.24439229 -0.10500173 1.2347693
-0.23601139 -0.10813726 1.2335001
-0.22357103 -0.10908539 1.2320001
-0.21493062 -0.1090854 1.2320001
-0.20521012 -0.10908539 1.2320001
-0.194915 -0.10840816 1.2335001
-0.18451379 -0.10783955 1.2334548
-0.17451878 -0.10728046 1.234286
-0.16505356 -0.10663747 1.2340001
-0.15471508 -0.10624733 1.2341335
-0.14468761 -0.1029857 1.234182
-0.13678999 -0.10214335 1.2351112
-0.12894364 -0.10077108 1.2360001
-0.24813524 -0.098603956 1.2360001
-0.13316962 -0.096974678 1.2325002
-0.12502588 -0.095747918 1.2335387
-0.11539012 -0.093921296 1.2334288
-0.10583033 -0.092840761 1.2350001
-0.095353283 -0.092102602 1.2360001
-0.08560124 -0.092102602 1.2360001
0.22538047 -0.092102602 1.2360001
0.25358108 -0.09447661 1.2355556
-0.10476518 -0.089644425 1.2320001
-0.094324656 -0.088924386 1.2320002
-0.085127838 -0.0882698 1.2320002
-0.074966602 -0.087950438 1.2338462
-0.0649084 -0.086546294 1.2340001
-0.054463577 -0.085007951 1.2332501
-0.04512554 -0.083610706 1.2340002
-0.034918886 -0.083900511 1.2337143
-0.024879428 -0.084547751 1.2338948
-0.01568532 -0.083481461 1.2340001
-0.0054178 -0.08235056 1.2360001
0.0056148111 -0.082646079 1.2360001
0.014705457 -0.082195766 1.2360001
0.024921879 -0.081266999 1.2360001
0.035396297 -0.08198937 1.2360001
0.044425961 -0.08235056 1.2360001
0.05526156 -0.081266999 1.2360001
0.065013602 -0.081266999 1.2360001
0.07557831 -0.082079671 1.2360001
0.084878869 -0.081628181 1.2360001
0.095353276 -0.081266999 1.2360001
0.10402176 -0.081266999 1.2360001
0.16542348 -0.08198937 1.2360001
0.17445315 -0.082350552 1.2360001
0.18562949 -0.08280468 1.2346668
0.19540574 -0.083108254 1.2334288
0.20532338 -0.084487759 1.2345884
0.21506019 -0.086048856 1.2346002
0.22489421 -0.087581336 1.2333335
0.23487885 -0.085511222 1.2346668
0.24481826 -0.085477233 1.2341819
0.25429401 -0.087928042 1.2335387
0.26331702 -0.087052301 1.2320001
0.27197355 -0.08343412 1.2360001
-0.042122081 -0.078843892 1.2320001
-0.011880587 -0.076683789 1.2320001
-0.0054047755 -0.076911218 1.233143
0.0048614093 -0.077266477 1.2326669
0.014966452 -0.077918135 1.2320002
0.025339173 -0.077940732 1.2328891
0.03564176 -0.077763841 1.2320002
0.045381088 -0.077795841 1.2325002
0.054977227 -0.07733047 1.2336669
0.064854048 -0.077827841 1.2330002
0.074883707 -0.077223815 1.2320002
0.085912168 -0.077266477 1.2326669
0.095174141 -0.076789871 1.2336668
0.10520658 -0.076540023 1.2340002
0.11531524 -0.074201062 1.234286
0.12482313 -0.075034373 1.234737
0.13493365 -0.076352522 1.2348236
0.14500155 -0.076831363 1.2343335
0.15525633 -0.076506302 1.2344617
0.16544199 -0.077562369 1.2334547
0.17481434 -0.077918135 1.2320002
0.18468912 -0.078843892 1.2320001
0.19476962 -0.078843892 1.2320001
0.20521013 -0.078843892 1.2320001
0.28674313 -0.0023164039 1.2342857
0.29147765 -0.0010835599 1.2360001
0.29436716 0.0025283066 1.2360001
0.12652755 0.35709649 1.2336
0.13434121 0.35644758 1.2335385
0.1270474 0.36326349 1.2360001
0.13580082 0.36445329 1.2357647
0.1426436 0.36633739 1.2326669
0.13977924 0.37382817 1.2360001
0.14274187 0.37472087 1.2348573
0.14411348 0.38249668 1.2360001
0.17759642 -0.49574789 1.2428463
0.18444584 -0.49415579 1.2424999
0.19184066 -0.49211302 1.2410001
0.17790635 -0.48787814 1.245
0.18608004 -0.48647246 1.2442
0.19391754 -0.48463082 1.2419999
0.18882085 -0.47696364 1.245
0.19502519 -0.47504303 1.2428333
0.20257504 -0.47238499 1.2410001
0.19657682 -0.46546412 1.2434443
0.205467 -0.46443221 1.2411664
0.19755244 -0.45840898 1.245
0.20624308 -0.4550913 1.2428
0.2133923 -0.45367241 1.2410001
0.20776242 -0.44536495 1.2432501
0.2141694 -0.44465795 1.2410001
0.20824134 -0.43829298 1.2436666
0.2155214 -0.43515828 1.2423331
0.22194044 -0.43408939 1.2410001
0.21800807 -0.42511636 1.2434
0.22269362 -0.42572057 1.2410001
0.21847475 -0.4154008 1.2445
0.22399548 -0.41378111 1.2409998
0.23499577 -0.41178656 1.2410001
0.21938145 -0.40820229 1.245
0.22530046 -0.40457457 1.2420908
0.23510915 -0.40470061 1.2419412
0.24043548 -0.40145108 1.2410001
0.22722448 -0.39593473 1.2427142
0.23496595 -0.39480504 1.2419999
0.24140255 -0.39540696 1.2410001
0.22811306 -0.38637331 1.245
0.23443681 -0.38494596 1.2433335
0.24250361 -0.38480762 1.2413077
0.23376471 -0.37695986 1.2446923
0.24446349 -0.37482274 1.2427394
0.25131491 -0.37098867 1.2410001
0.23902754 -0.36126995 1.245
0.2454104 -0.36459181 1.2427388
0.25237197 -0.36410648 1.2414445
0.24631831 -0.35481414 1.2438
0.25280786 -0.3585102 1.243
0.24795757 -0.34519586 1.245
0.25340584 -0.34471577 1.2422308
0.24921441 -0.33689424 1.245
0.25485116 -0.33495596 1.2441113
0.2611064 -0.33291066 1.2410001
0.24994205 -0.32634354 1.245
0.25539634 -0.32532555 1.2440591
0.26140311 -0.32489941 1.2410001
0.25556827 -0.31557396 1.2445
0.26281273 -0.31412238 1.2419999
0.25736392 -0.30757061 1.245
0.26422679 -0.3042236 1.2442384
0.26595193 -0.29491264 1.243889
0.2708979 -0.29483265 1.2410001
0.26756594 -0.28580761 1.243909
0.27140605 -0.28374079 1.2416667
0.26958814 -0.27831975 1.245
0.27397648 -0.27514073 1.2431334
0.27584723 -0.26485646 1.2428182
0.28177732 -0.26001847 1.2410001
0.27804941 -0.25580695 1.2437999
0.28234667 -0.25372222 1.2421429
0.27831975 -0.2488506 1.245
0.28437823 -0.24513042 1.2436668
0.28637373 -0.23465587 1.2442942
0.29048088 -0.23173192 1.2410001
0.2881428 -0.2248387 1.245
0.29231867 -0.22441126 1.2420909
0.28923425 -0.21501565 1.245
0.29377747 -0.214643 1.2435884
0.28850663 -0.20592023 1.245
0.29556647 -0.20523122 1.2436666
0.28642768 -0.19879982 1.245
0.29479071 -0.19775087 1.245
0.30087638 -0.19755244 1.245
0.30788797 -0.17298299 1.2410001
0.31060782 -0.17243902 1.2410001
0.30618709 -0.163176 1.2436666
0.31228051 -0.16440408 1.2433333
0.30669746 -0.15826026 1.245
0.31565014 -0.15574163 1.243353
0.32387608 -0.15301357 1.2414
-0.23271817 -0.14363217 1.2443333
-0.22584219 -0.1433593 1.2438235
-0.21414249 -0.14276165 1.245
-0.2051926 -0.14500692 1.245
-0.19973534 -0.14516285 1.245
0.31713846 -0.14581497 1.2447501
0.325046 -0.14534721 1.2438
-0.24167974 -0.13265164 1.2436666
-0.23446847 -0.13435289 1.2413077
-0.22482027 -0.13548094 1.2409999
-0.21524544 -0.13551211 1.2450002
-0.20846695 -0.13861415 1.245
0.31833956 -0.13715889 1.245
0.32328746 -0.1373044 1.245
-0.25231022 -0.12161908 1.2423334
-0.24432915 -0.12396827 1.2409998
-0.22121514 -0.12511349 1.2410001
-0.21593948 -0.12476558 1.2443686
-0.2051926 -0.12224241 1.245
-0.1962427 -0.12158753 1.245
-0.18390933 -0.12115095 1.245
-0.174632 -0.12115095 1.245
-0.16480894 -0.12115095 1.245
-0.15716881 -0.12115095 1.245
-0.25224742 -0.11485573 1.2410001
-0.24514988 -0.11568464 1.2409998
-0.21514079 -0.11722589 1.2410001
-0.20562127 -0.11640994 1.2409999
-0.19495109 -0.11653733 1.2423333
-0.18421978 -0.11614484 1.2424998
-0.17480004 -0.11516518 1.2418886
-0.16540107 -0.11639104 1.2424285
-0.15525757 -0.11544863 1.2423332
-0.14502224 -0.11558499 1.2437999
-0.13632078 -0.11342051 1.2440001
-0.25223213 -0.10638722 1.2415
-0.24859504 -0.10825036 1.2410001
-0.15122412 -0.10988227 1.2410001
-0.14421293 -0.1089152 1.2410001
-0.13455537 -0.10690548 1.2418001
-0.12526976 -0.10487505 1.2438238
-0.11488729 -0.10350854 1.2447144
-0.10543407 -0.10194143 1.245
-0.094956145 -0.10150485 1.245
-0.085133098 -0.10150485 1.245
-0.079675846 -0.10150485 1.245
0.23629892 -0.10205057 1.245
0.2423019 -0.10150485 1.245
-0.12076171 -0.099002846 1.2410001
-0.11532199 -0.099002846 1.2410001
-0.1047948 -0.097824961 1.2426
-0.094813779 -0.096995741 1.2431334
-0.085018843 -0.09701135 1.2433332
-0.075338408 -0.09573102 1.2433529
-0.064790748 -0.093588203 1.2442001
-0.054832242 -0.092846014 1.2438571
-0.04502948 -0.092554964 1.2441429
-0.034468777 -0.092278466 1.2442
-0.025246451 -0.09234786 1.2437693
-0.015266272 -0.091609038 1.2440001
-0.0054572499 -0.09059035 1.245
0.057846848 -0.09059035 1.245
0.16917475 -0.09059035 1.245
0.174632 -0.09059035 1.245
0.18439439 -0.091652699 1.2445999
0.19505569 -0.091536276 1.243
0.20602238 -0.09203174 1.2423334
0.21522343 -0.094003208 1.2420001
0.22462288 -0.095428675 1.2426001
0.23519459 -0.09547583 1.2432001
0.24497408 -0.094725981 1.2419599
0.25131491 -0.095376365 1.2410001
0.28414083 -0.09059035 1.245
0.29534638 -0.091026932 1.245
0.30435866 -0.093085095 1.245
-0.04242979 -0.088123411 1.2410001
-0.036990076 -0.088123411 1.2410001
-0.01305532 -0.088123411 1.2410001
-0.0054467302 -0.087149076 1.2426002
0.004627266 -0.087378465 1.2420001
0.015255753 -0.087177485 1.243
0.025055429 -0.086060666 1.2426002
0.034423895 -0.086496316 1.2426001
0.044677563 -0.087177485 1.243
0.055539057 -0.086034909 1.2422308
0.064953111 -0.086245455 1.2428461
0.074624933 -0.08660984 1.2426667
0.085404165 -0.086496316 1.2426001
0.094394132 -0.085282855 1.2428182
0.1051207 -0.085506484 1.2431818
0.1147543 -0.084395699 1.2432859
0.12547059 -0.084776744 1.242263
0.1348426 -0.084551625 1.2432855
0.14551425 -0.083386354 1.2433333
0.15551329 -0.083753236 1.2430001
0.16471602 -0.086470969 1.2428182
0.17515886 -0.087035477 1.2410001
0.18448411 -0.087190881 1.2410001
0.19474185 -0.088123411 1.2410001
0.20126952 -0.088123411 1.2410001
0.27772361 -0.084590442 1.2423333
0.28499684 -0.084940478 1.2450001
0.2946915 -0.085133098 1.2450001
0.30160147 -0.085279666 1.2428182
0.11640994 -0.079419866 1.2410001
0.1534 -0.079419866 1.2410001
0.2865001 -0.077343568 1.2426001
0.29422373 -0.076713338 1.245
0.30014876 -0.079675846 1.245
0.28602955 0.0051969318 1.2433529
0.29367197 0.0062683867 1.2429998
0.29578295 0.01200595 1.245
0.12837732 0.3688128 1.2410001
0.13381703 0.3688128 1.2410001
0.12865315 0.37396875 1.2436666
0.13503799 0.37517408 1.24225
0.14034469 0.37969223 1.2410001
0.13667949 0.38323495 1.2444285
0.14214712 0.38559878 1.2424999
0.13861415 0.39183053 1.245
0.14322998 0.39219874 1.2434
0.1368617 -0.49557176 1.2589999
0.14458777 -0.49557185 1.2590003
0.15519147 -0.49496555 1.2570004
0.16473882 -0.49486575 1.2552356
0.17325372 -0.49478111 1.2528126
0.14458776 -0.48894945 1.2590001
0.1554673 -0.48548061 1.2589999
0.16438839 -0.48480594 1.2573451
0.17477347 -0.48477799 1.2532697
0.18402694 -0.48399302 1.25
0.15783243 -0.47791219 1.2590001
0.16523388 -0.47479579 1.2590001
0.17486227 -0.47516504 1.2565656
0.18506852 -0.47486708 1.2517394
0.19177084 -0.4701125 1.25
0.16703014 -0.46558726 1.2589999
0.17548952 -0.46511698 1.2583849
0.18538101 -0.46538833 1.2550004
0.19196039 -0.46344987 1.25125
0.17612894 -0.45510322 1.2585791
0.1849767 -0.45515782 1.256412
0.19431734 -0.45524442 1.2529548
0.20163333 -0.45367503 1.25
0.17880318 -0.44480053 1.2589999
0.18535523 -0.44475698 1.2571822
0.19473833 -0.44558769 1.2550006
0.20256442 -0.44498467 1.25125
0.1799069 -0.43817815 1.2590001
0.18726507 -0.43523487 1.2589999
0.19508368 -0.43535846 1.2572404
0.20489232 -0.43497309 1.2537504
0.21219958 -0.43228433 1.2518182
0.18800087 -0.42861256 1.2590001
0.19543718 -0.42489183 1.2583337
0.2044839 -0.42443863 1.2552356
0.21301247 -0.42493343 1.2525001
0.19756646 -0.41634893 1.2589999
0.20512059 -0.41517332 1.2568949
0.21347231 -0.41487655 1.2522731
0.20683774 -0.40617019 1.2589999
0.21457902 -0.40512818 1.2535655
0.22087705 -0.40336752 1.251
0.20749998 -0.39439714 1.2589999
0.21484116 -0.39552838 1.2567604
0.22322591 -0.39456213 1.2528126
0.20860371 -0.38961434 1.2590001
0.21596186 -0.38572502 1.2590002
0.22480603 -0.38471395 1.2527502
0.2186949 -0.37510824 1.2589999
0.22543868 -0.37500295 1.2544404
0.23625015 -0.37322712 1.25125
0.21875796 -0.36577389 1.2590001
0.22572167 -0.36531141 1.2576089
0.23589993 -0.36501375 1.2521431
0.21964094 -0.35871008 1.2590001
0.22727637 -0.35642281 1.25775
0.23590136 -0.35545874 1.2550002
0.2422663 -0.35338378 1.251875
0.22847073 -0.34988031 1.2590001
0.23498796 -0.34557053 1.2590002
0.24364939 -0.34486601 1.2549413
0.22784004 -0.33442816 1.2589999
0.23486865 -0.33419031 1.2588263
0.24512836 -0.33483809 1.2558699
0.25094584 -0.33203751 1.25
0.23577228 -0.32525876 1.2589999
0.24606127 -0.3248125 1.2563337
0.25138417 -0.32414749 1.25
0.23730053 -0.31640068 1.2589999
0.24608381 -0.31521109 1.2582383
0.25296023 -0.31378561 1.2524
0.23509307 -0.30793881 1.2590001
0.24833775 -0.30573139 1.2590001
0.25459626 -0.30458078 1.2546402
0.25620544 -0.29520923 1.2571307
0.26174581 -0.29330033 1.251875
0.25708514 -0.28577283 1.2586
0.26406789 -0.28429645 1.2540503
0.25937498 -0.27924201 1.2590001
0.26562819 -0.27511573 1.2568265
0.27067083 -0.27395833 1.25
0.26672718 -0.26533633 1.2575266
0.27160639 -0.26408082 1.2514286
0.26732579 -0.25556031 1.2583333
0.27356845 -0.25505802 1.2537895
0.26820478 -0.24833775 1.2590001
0.27485076 -0.24518853 1.2550372
0.26820478 -0.23067817 1.2590001
0.27516314 -0.23524778 1.2573216
0.28207189 -0.23491335 1.251
0.26820478 -0.22847073 1.2590001
0.27473837 -0.22508731 1.2586002
0.28357431 -0.22490697 1.2526193
0.27813828 -0.21660569 1.2589999
0.28448263 -0.21501645 1.2542729
0.27924201 -0.20860371 1.2590001
0.28488538 -0.20598088 1.2526428
0.30135417 -0.19615416 1.25
-0.22405584 -0.16224733 1.2590001
-0.21552037 -0.16239451 1.2590001
-0.20529254 -0.16003989 1.2590001
0.30354583 -0.1610875 1.25
-0.2251813 -0.1537527 1.2560626
-0.21507001 -0.15430763 1.2552223
-0.20511839 -0.15379894 1.2535883
-0.19563495 -0.15645279 1.2589999
0.30561939 -0.15394114 1.2548238
0.31182542 -0.15305141 1.25
-0.2215775 -0.14662251 1.25
-0.215253 -0.14605893 1.25
-0.20810139 -0.14056942 1.256
-0.19712499 -0.14105585 1.2590001
0.30522099 -0.14461598 1.2576671
0.31270191 -0.14419706 1.2508334
-0.2111558 -0.13297717 1.2535715
-0.2052511 -0.1346273 1.2587501
-0.1954945 -0.13441408 1.2583686
-0.18574777 -0.13302557 1.2581999
-0.175492 -0.13134308 1.2590001
-0.16371895 -0.13171099 1.2589999
-0.15518349 -0.13178456 1.2590001
-0.14679521 -0.13134308 1.2590001
0.30611768 -0.13504051 1.257737
0.3142316 -0.13438661 1.2509093
0.32272291 -0.13314375 1.25
-0.21259166 -0.12711667 1.25
-0.20532803 -0.12737222 1.2525001
-0.19518985 -0.12615545 1.2528572
-0.18519671 -0.12568505 1.2509999
-0.17515567 -0.12662177 1.2543572
-0.16536294 -0.12629136 1.2543076
-0.15470122 -0.12574647 1.2545003
-0.14474398 -0.12578708 1.2561111
-0.13677482 -0.12330978 1.2571111
-0.12913562 -0.12030584 1.2590001
0.30547494 -0.12461644 1.2579567
0.31424451 -0.12532181 1.252059
0.32063851 -0.12458543 1.2540001
-0.13353722 -0.11561465 1.252
-0.12501112 -0.1145432 1.2541178
-0.11565742 -0.11360174 1.2550002
-0.10507209 -0.11268697 1.2568182
-0.095154084 -0.11279028 1.2572223
-0.085852586 -0.11200557 1.2578572
-0.075053185 -0.11147606 1.2590001
0.22700088 -0.11282807 1.2576667
0.28807178 -0.11257978 1.2590001
0.29513562 -0.11191754 1.2590001
0.30552229 -0.11489455 1.2572858
0.31481329 -0.1155766 1.2556003
-0.1216375 -0.1084875 1.25
-0.11433194 -0.10812222 1.25
-0.10450268 -0.10669727 1.2504166
-0.095024407 -0.10613929 1.25
-0.085129395 -0.10656456 1.2511538
-0.075207531 -0.10532006 1.251389
-0.064899854 -0.10560568 1.2547503
-0.055279765 -0.10489585 1.2553846
-0.045684107 -0.10332077 1.2568462
-0.034957562 -0.10227027 1.2568183
-0.024833338 -0.10332078 1.2568462
-0.015419398 -0.1024312 1.2563335
-0.0052032671 -0.10106952 1.2589999
0.0050280727 -0.10141992 1.2589999
0.015452126 -0.10043883 1.2590001
0.025385637 -0.10043882 1.2590001
0.035319149 -0.10043883 1.2590001
0.045252658 -0.10043882 1.2590001
0.055406909 -0.10088031 1.2590001
0.062912233 -0.10043883 1.2590001
0.077260628 -0.10043883 1.2590001
0.085745238 -0.10118685 1.258
0.094920203 -0.10043883 1.2590001
0.10485371 -0.10043882 1.2590001
0.11147606 -0.10043883 1.2590001
0.12803191 -0.10043883 1.2590001
0.13428634 -0.10043883 1.2590001
0.14458777 -0.10043882 1.2590001
0.15488917 -0.10117465 1.2589999
0.16496192 -0.10206781 1.2586666
0.17530428 -0.10253944 1.2576668
0.18508215 -0.10245838 1.2566667
0.19540131 -0.1028021 1.2575002
0.20475739 -0.10421979 1.2572225
0.21462758 -0.10487134 1.2562224
0.22540621 -0.10556334 1.2542502
0.23313099 -0.10517369 1.2511111
0.2875199 -0.10209441 1.2590001
0.29452255 -0.105087 1.2578003
0.30461198 -0.10557363 1.2544001
0.31302258 -0.10580888 1.2536365
-0.072324999 -0.099720836 1.25
-0.063832298 -0.098898962 1.25
-0.054948211 -0.098781548 1.25
-0.044198614 -0.09801621 1.25
-0.035797223 -0.096798606 1.25
-0.025204163 -0.097748339 1.25
-0.015341667 -0.096433334 1.25
-0.0054907016 -0.094617724 1.2526318
0.0054927547 -0.09447179 1.2530003
0.015377774 -0.094477326 1.2530625
0.025260057 -0.094453156 1.2527502
0.0351368 -0.094434544 1.2525001
0.045025501 -0.094450146 1.2527001
0.054673903 -0.094641142 1.2523333
0.064783469 -0.094434537 1.2525002
0.075297087 -0.094221607 1.252889
0.084996015 -0.094635934 1.2519444
0.094976604 -0.094126731 1.2516668
0.10484666 -0.094720162 1.2530558
0.11464845 -0.093730941 1.2557143
0.12504506 -0.094486721 1.255765
0.13504322 -0.094414882 1.2545266
0.14506674 -0.094922513 1.2564119
0.15514751 -0.094631657 1.2551504
0.1653481 -0.094454519 1.2527779
0.1751799 -0.095656142 1.2519232
0.18495473 -0.096441619 1.2516667
0.19488055 -0.096771829 1.2527778
0.2043006 -0.09680482 1.25125
0.2143137 -0.098781548 1.25
0.22464582 -0.099720836 1.25
0.27943751 -0.09095417 1.25
0.28528842 -0.09491533 1.2534378
0.29477915 -0.096433342 1.25
0.30436772 -0.098351046 1.25
0.31085137 -0.098990284 1.25
0.096433334 -0.088762499 1.25
0.1052 -0.088762499 1.25
0.11615833 -0.088762499 1.25
0.1216375 -0.088762499 1.25
0.13807499 -0.088762499 1.25
0.14418034 -0.087823205 1.25
0.15451249 -0.088762499 1.25
0.1610875 -0.088762499 1.25
0.28710833 -0.088762499 1.25
0.28491667 0.0098625002 1.25
0.2867496 0.01517843 1.2542
0.29439318 0.015961988 1.2527647
0.30085665 0.016474757 1.2525001
0.29506204 0.021338651 1.2589999
0.12602083 0.37696666 1.25
0.12686332 0.38521171 1.2540001
0.13318478 0.38599473 1.2518182
0.12626818 0.39504406 1.2587143
0.13489316 0.39463007 1.2531582
0.14191042 0.39559585 1.25
0.12619238 0.402859 1.2590001
0.1346689 0.40415999 1.2584667
0.1411635 0.4047465 1.2580001
0.098933585 -0.49911439 1.268
0.10687368 -0.49625596 1.268
0.11186873 -0.49507219 1.2679999
0.12656121 -0.49803859 1.2664
0.1336751 -0.49413162 1.2659999
0.13609323 -0.4867278 1.268
0.14514406 -0.48625043 1.2658948
0.1524839 -0.48379198 1.265
0.1553776 -0.47501832 1.2659999
0.16111872 -0.47360477 1.2640001
0.15683134 -0.46485424 1.2673846
0.16287819 -0.46440509 1.2652308
0.15762678 -0.45776239 1.268
0.16545385 -0.45675966 1.2666665
0.17180386 -0.45260018 1.266
0.17438507 -0.44530427 1.2656666
0.17643562 -0.4347986 1.2666665
0.18276653 -0.43418941 1.2645334
0.17785813 -0.42797112 1.268
0.18565436 -0.42525125 1.2665262
0.19170246 -0.42218864 1.2640001
0.18840384 -0.41863522 1.2666668
0.19434364 -0.41442972 1.2660952
0.20056731 -0.41110757 1.2640001
0.19695765 -0.40472829 1.2679999
0.20400149 -0.40504381 1.2662221
0.19631094 -0.39491922 1.2679999
0.20355783 -0.39449361 1.2662499
0.19751932 -0.38770688 1.2672
0.2058842 -0.38502827 1.2663635
0.21291478 -0.3822968 1.2640001
0.20615555 -0.37429324 1.2673331
0.21417011 -0.37469742 1.265
0.20695344 -0.36506602 1.2662857
0.21490313 -0.36428079 1.2646316
0.22051322 -0.36235088 1.2640001
0.20787169 -0.35793948 1.268
0.21511112 -0.35513204 1.2676188
0.22329728 -0.35372424 1.2654285
0.21898782 -0.34460014 1.268
0.22627962 -0.34441632 1.2656469
0.2369132 -0.34506443 1.2640001
0.21898782 -0.33793044 1.268
0.22437404 -0.33480775 1.2659999
0.23824294 -0.33575633 1.2640001
0.22697949 -0.32617125 1.2658461
0.2339315 -0.3229979 1.2646667
0.2275102 -0.31458658 1.268
0.23362151 -0.31453258 1.2659999
0.24311861 -0.31182122 1.2640001
0.22788073 -0.30791688 1.268
0.23495562 -0.30502158 1.2665999
0.24439122 -0.30455706 1.2645454
0.23504445 -0.29655376 1.268
0.24549718 -0.29511094 1.2659999
0.25198346 -0.29497799 1.2640001
0.24766533 -0.28605834 1.2668573
0.25332567 -0.28390068 1.2655555
0.24788977 -0.27901495 1.268
0.25479022 -0.27488655 1.2663999
0.26084831 -0.27458882 1.2640001
0.25758922 -0.26573402 1.2671112
0.26139006 -0.26434502 1.2640001
0.26307386 -0.25467643 1.2654285
0.26508915 -0.2447405 1.2652173
0.26540655 -0.23533064 1.2655555
0.26837307 -0.22512273 1.265
0.27259424 -0.22051322 1.2640001
0.2678988 -0.21009491 1.268
0.27364844 -0.21494098 1.264842
0.26760775 -0.20777 1.2640001
0.27537543 -0.2080996 1.2648889
0.28145909 -0.20610784 1.2640001
-0.21164837 -0.17175654 1.2640001
-0.20551591 -0.17174673 1.2672001
-0.19897878 -0.17007683 1.268
-0.22346818 -0.16141421 1.2640001
-0.21253486 -0.16776735 1.2640001
-0.20503147 -0.16579923 1.2642
-0.19464864 -0.16408062 1.2655556
-0.18867445 -0.16426104 1.266
-0.22272944 -0.15845925 1.2640001
-0.19502677 -0.15845925 1.2640001
-0.19271027 -0.1425944 1.2648
-0.18806744 -0.14188465 1.2664001
-0.17304115 -0.1411749 1.268
-0.1647411 -0.14161955 1.268
-0.15673748 -0.1411749 1.268
0.3002969 -0.14737819 1.2640001
-0.19170246 -0.13851333 1.2640001
-0.18395038 -0.1373795 1.2648889
-0.17526554 -0.13644321 1.2653333
-0.16542448 -0.13645542 1.2640001
-0.15447567 -0.13673954 1.2646667
-0.14490108 -0.13558456 1.2656
-0.13442552 -0.13240758 1.2672727
-0.1249771 -0.13101158 1.268
-0.11671939 -0.13005877 1.268
0.29808068 -0.1340809 1.2640001
0.30137345 -0.13372111 1.2648
-0.1340809 -0.12565929 1.2640001
-0.12502337 -0.12432535 1.2644211
-0.11480732 -0.12455425 1.2659999
-0.10514189 -0.12306595 1.2662857
-0.094891354 -0.12258064 1.2679999
-0.085594229 -0.12116585 1.268
-0.07447809 -0.12116585 1.268
0.29570618 -0.12426623 1.2640001
0.30066627 -0.12595479 1.2640001
-0.11413499 -0.11856741 1.2640001
-0.10477764 -0.11758243 1.2640001
-0.094822265 -0.11761761 1.2640001
-0.084894776 -0.11680761 1.2652308
-0.074659429 -0.11666981 1.2657143
-0.064986914 -0.11518213 1.266
-0.055130281 -0.11512454 1.2672498
-0.044879936 -0.11429792 1.2676923
-0.034973063 -0.11415414 1.2679999
-0.024455495 -0.11338456 1.268
-0.014945024 -0.11301402 1.268
-0.0044464534 -0.11004972 1.268
0.0044464534 -0.11004972 1.268
0.013895167 -0.11004972 1.268
0.023343882 -0.11004972 1.268
0.034460016 -0.11004971 1.268
0.044464536 -0.11004972 1.268
0.10782649 -0.11004972 1.268
0.11153188 -0.11079079 1.268
0.16563039 -0.11004972 1.268
0.17452328 -0.11068493 1.268
0.18452781 -0.11116134 1.268
0.19536602 -0.11310666 1.268
0.20487945 -0.11342978 1.2659999
0.21530557 -0.11453044 1.2664615
0.22207281 -0.11505899 1.265
0.28847709 -0.11635121 1.2640001
0.29501212 -0.11601026 1.2640001
0.3002969 -0.11745931 1.2640001
-0.054297224 -0.10970256 1.2640001
-0.044939883 -0.10871759 1.2640001
-0.035828784 -0.10822509 1.2640001
-0.025978945 -0.10871759 1.2640001
-0.014901385 -0.10850913 1.2644445
-0.0053614005 -0.10559597 1.2656666
0.0055461442 -0.10607105 1.2656
0.015113464 -0.10562268 1.2661538
0.024846893 -0.10528119 1.2661538
0.034722261 -0.1055975 1.2659999
0.045195926 -0.10530419 1.2662857
0.054952677 -0.10583675 1.2663332
0.065034889 -0.10485257 1.2665713
0.074291207 -0.10500424 1.2670586
0.084437028 -0.10582705 1.2658181
0.095032007 -0.10562269 1.2661538
0.10479106 -0.10530682 1.2664615
0.11419492 -0.10389871 1.266909
0.1249299 -0.10296415 1.2656
0.13500106 -0.10413959 1.2664
0.14492236 -0.1042232 1.2662222
0.1549354 -0.10566042 1.266
0.16440567 -0.10674031 1.265
0.17521673 -0.10757138 1.265
0.18579257 -0.10785571 1.2640001
0.19502679 -0.10859446 1.2640001
0.20573847 -0.10970256 1.2640001
0.21534206 -0.10970256 1.2640001
0.28788608 -0.10659985 1.2640001
0.29143205 -0.10859445 1.2640001
0.11635119 -0.098621495 1.2640001
0.12189174 -0.098621495 1.2640001
0.28478342 0.018837813 1.2640001
0.28745195 0.021643147 1.266
0.2940782 0.025968272 1.2658666
0.3002969 0.026594561 1.2640001
0.29568914 0.030569365 1.268
0.30124721 0.032236785 1.268
0.1255063 0.40502435 1.2652308
0.12505649 0.41074112 1.268
0.13485238 0.41378829 1.2664615
0.075905748 -0.49562812 1.278
0.085219204 -0.49547511 1.2764211
0.094810151 -0.49529704 1.274875
0.10378769 -0.49479234 1.2729999
0.11717965 -0.49550256 1.2729999
0.12439071 -0.49490166 1.2729999
0.13168761 -0.49215454 1.273
0.079546981 -0.48960605 1.2780001
0.086269259 -0.48960605 1.2780001
0.095628068 -0.48710498 1.2776874
0.10510795 -0.48640761 1.2755001
0.11515155 -0.48538283 1.2752414
0.12515417 -0.4849712 1.2746668
0.13424027 -0.48403043 1.2732633
0.14507957 -0.48211053 1.2729999
0.15065955 -0.48211056 1.273
0.092431352 -0.47448093 1.2780001
0.10867686 -0.47280037 1.2780001
0.11465222 -0.47504115 1.278
0.12522489 -0.47514156 1.2776666
0.13513818 -0.47533995 1.274
0.14507957 -0.47541454 1.273
0.15110596 -0.47474495 1.273
0.10755648 -0.4646776 1.278
0.1146989 -0.46509778 1.278
0.12559459 -0.46510375 1.2775238
0.135184 -0.46477246 1.2744286
0.14483994 -0.46513754 1.2732382
0.15177554 -0.4653706 1.2729999
0.11315838 -0.45711505 1.2780001
0.12716313 -0.45599467 1.278
0.13452031 -0.45509842 1.278
0.14416577 -0.45538422 1.2757274
0.15462755 -0.4550786 1.2730001
0.16442351 -0.45272267 1.2729999
0.12884369 -0.44927236 1.2780001
0.13601413 -0.44837609 1.2780001
0.14579174 -0.44609681 1.2766842
0.1549702 -0.44481161 1.2737143
0.16519974 -0.44536972 1.2732501
0.17138521 -0.4443261 1.2729999
0.14901054 -0.43806857 1.2780001
0.15580396 -0.43590179 1.2772857
0.16420929 -0.43501988 1.2750455
0.17170407 -0.43539813 1.2729999
0.15722667 -0.42835864 1.2780001
0.16500019 -0.42499036 1.2770385
0.17485252 -0.42445946 1.2741539
0.18369305 -0.42162353 1.273
0.16668765 -0.41566098 1.278
0.17564693 -0.41488585 1.2770001
0.18448505 -0.41475028 1.2735883
0.19157942 -0.41254675 1.273
0.17477928 -0.40557757 1.278
0.18447284 -0.40525088 1.2740419
0.1922558 -0.40510675 1.2729999
0.1756009 -0.39639047 1.278
0.1842514 -0.39520845 1.2758262
0.191792 -0.39490339 1.2729999
0.17702003 -0.38653111 1.278
0.18542425 -0.386078 1.2772499
0.19498339 -0.38470441 1.2744286
0.2027394 -0.38129887 1.273
0.18870401 -0.37628767 1.278
0.19536944 -0.37494859 1.2753915
0.20199542 -0.37385884 1.273
0.19645017 -0.36572349 1.2762353
0.20274681 -0.36356589 1.273909
0.19641122 -0.35567755 1.278
0.20425318 -0.35449284 1.2756089
0.21203937 -0.35265493 1.273
0.22208333 -0.35153896 1.273
0.20657153 -0.34625944 1.277643
0.21489161 -0.34512788 1.273682
0.22264133 -0.34763294 1.273
0.20951106 -0.33947513 1.2780001
0.21529707 -0.33454043 1.2755001
0.22208333 -0.33479899 1.273
0.20951106 -0.32603058 1.2780001
0.21597207 -0.32505623 1.2758572
0.22345728 -0.32355785 1.2734165
0.21628514 -0.3149161 1.277
0.22358972 -0.31464303 1.2737691
0.21847411 -0.30474335 1.2780001
0.22446546 -0.3044863 1.2738698
0.23324329 -0.30187711 1.273
0.22505261 -0.29447472 1.2772
0.23458353 -0.29374763 1.273357
0.24210183 -0.291731 1.275
0.22718817 -0.28594586 1.278
0.23487161 -0.28475276 1.2748421
0.24365523 -0.28463942 1.2749444
0.22903769 -0.27417299 1.278
0.23509304 -0.27427739 1.277
0.24522632 -0.27431896 1.2763333
0.25165725 -0.27341917 1.273
0.2296779 -0.26777083 1.2780001
0.23553835 -0.26518533 1.278
0.24708687 -0.26501295 1.278
0.25387305 -0.26392192 1.273625
0.26002723 -0.26002723 1.273
0.24909782 -0.25806084 1.2780001
0.255068 -0.25507078 1.276125
0.26002723 -0.25444725 1.273
0.25561363 -0.24568231 1.27675
0.26002723 -0.24551928 1.273
0.25703675 -0.23643665 1.277
0.2613807 -0.23433611 1.2735554
0.25880778 -0.2296779 1.2780001
0.26526815 -0.22567417 1.27675
0.26587892 -0.21493004 1.2765294
0.26104853 -0.20951106 1.2780001
-0.20278877 -0.18094137 1.2780001
-0.1960665 -0.18038118 1.2780001
-0.20351729 -0.17641816 1.2763333
-0.19526497 -0.17428851 1.2764374
-0.18710345 -0.17427002 1.278
-0.17589965 -0.17814042 1.2780001
-0.19083543 -0.16851549 1.273
-0.18685655 -0.16895676 1.2763335
-0.18411626 -0.15327419 1.2776153
-0.17814042 -0.15237167 1.2780001
-0.19083543 -0.14731157 1.273
-0.18471216 -0.14620796 1.2758571
-0.17550983 -0.14575149 1.2751875
-0.16539797 -0.14637606 1.2765
-0.15489639 -0.14421684 1.2752222
-0.14447248 -0.14335296 1.2774999
-0.13444561 -0.14004751 1.2780001
-0.14173158 -0.13949959 1.273
-0.13503559 -0.13670959 1.2729999
-0.12478181 -0.13595931 1.2746665
-0.1153203 -0.13376787 1.2750832
-0.10545651 -0.13143004 1.2770001
-0.097473063 -0.13108446 1.2780001
-0.10490369 -0.12833962 1.273
-0.094484985 -0.12751561 1.2746665
-0.084763214 -0.12607172 1.2760768
-0.074780799 -0.12623373 1.2758571
-0.064885601 -0.12530228 1.276125
-0.056023218 -0.1237376 1.2757272
-0.044965636 -0.12237845 1.276
-0.036972538 -0.12212142 1.2780001
-0.01568532 -0.12212142 1.2780001
0.14789015 -0.12212142 1.2780001
0.18665531 -0.12256958 1.2780001
0.19568478 -0.12454514 1.2765714
0.20430584 -0.12385327 1.2746665
0.21315537 -0.12164363 1.273
-0.052451845 -0.11941164 1.273
-0.044639867 -0.11941164 1.273
-0.033693809 -0.11897494 1.2751428
-0.024600144 -0.11853015 1.2754999
-0.014128041 -0.11759496 1.2752726
-0.0044702482 -0.11450594 1.2751428
0.0044710003 -0.11334264 1.2749999
0.014701564 -0.1142642 1.2749231
0.0245905 -0.11401312 1.2749999
0.035210513 -0.11457924 1.2750832
0.044779658 -0.11543334 1.2745383
0.054353129 -0.11337465 1.2744706
0.064812548 -0.11286616 1.2746665
0.074513011 -0.1136367 1.2749445
0.084926784 -0.11286616 1.2746665
0.095395848 -0.11366081 1.2752222
0.10479037 -0.11417759 1.2743332
0.11536695 -0.11392959 1.2758571
0.12489091 -0.11221859 1.2757777
0.13525313 -0.11335449 1.2765714
0.1447693 -0.11528519 1.2766956
0.15470454 -0.11410702 1.2753686
0.16495574 -0.11561176 1.2759411
0.17518923 -0.1164251 1.2747648
0.18510437 -0.11753174 1.2749231
0.19474143 -0.11773765 1.2729999
0.20518395 -0.11845507 1.2729999
0.21389937 -0.11866764 1.2729999
0.11717965 -0.10713568 1.2729999
0.12424763 -0.10750768 1.2729999
0.1350356 -0.10825168 1.273
0.14507957 -0.10825168 1.273
0.15177554 -0.10825168 1.273
0.286066 0.02496776 1.2752222
0.28830615 0.03095773 1.2763335
0.29418969 0.033086978 1.2749999
0.30020311 0.034595896 1.273
0.12511562 0.41527474 1.2729999
0.13168761 0.41849875 1.273
0.12568028 0.42449221 1.278
0.1345562 0.42486525 1.2759413
0.12660293 0.4313463 1.2780001
0.13444561 0.4313463 1.2780001
0.016560817 -0.49720094 1.2880001
0.022959316 -0.49720094 1.2880001
0.034035705 -0.49408239 1.2880001
0.045542248 -0.49418986 1.2880001
0.055486061 -0.49496531 1.2871307
0.065189712 -0.49501699 1.2856318
0.073166594 -0.49302763 1.2840002
0.082107723 -0.49152157 1.2830001
0.025970373 -0.48892051 1.2880001
0.035379931 -0.48590946 1.2880001
0.044789482 -0.4862859 1.2880001
0.055579111 -0.48590946 1.2880001
0.065674029 -0.48575306 1.287706
0.075716555 -0.48544684 1.2858264
0.085482016 -0.48477298 1.2830003
0.095042497 -0.48346075 1.2830001
0.10460299 -0.48139867 1.2830001
0.11660046 -0.48102379 1.2830001
0.037584454 -0.47827426 1.2880001
0.044287641 -0.47662532 1.2880001
0.055489492 -0.4776291 1.2880001
0.066017434 -0.47657523 1.2880001
0.07521949 -0.47532558 1.2873479
0.085169509 -0.47469252 1.2832943
0.094739676 -0.47456357 1.2830001
0.10380905 -0.47484863 1.2830002
0.11697539 -0.47465011 1.2830001
0.068877943 -0.46859586 1.2880001
0.075977333 -0.46829125 1.2871667
0.0849768 -0.46578234 1.2864784
0.094608754 -0.46515602 1.2847502
0.10339662 -0.46422699 1.2835559
0.11610058 -0.46377742 1.2830001
0.12109951 -0.46077803 1.2830001
0.086492635 -0.45911103 1.2880001
0.095412888 -0.45673987 1.2880001
0.10489475 -0.45454752 1.2866002
0.11479089 -0.45458081 1.2859414
0.12353841 -0.4542844 1.2850001
0.13272208 -0.45215487 1.2830001
0.10501064 -0.44714206 1.2880001
0.11291467 -0.44714206 1.2880001
0.12700984 -0.44629991 1.2866668
0.13571151 -0.44560552 1.2846667
0.14289269 -0.44363067 1.2852728
0.13888504 -0.43810892 1.2880001
0.14580317 -0.43467128 1.2866958
0.15296781 -0.43303385 1.2830001
0.14554331 -0.42467943 1.2870001
0.15469138 -0.42470038 1.2833128
0.16084115 -0.42178625 1.2830001
0.13888504 -0.41891342 1.2880001
0.14498243 -0.41710678 1.2880001
0.15488374 -0.41626748 1.2861819
0.16429381 -0.41397282 1.2836252
0.16575587 -0.40520751 1.2862611
0.16676813 -0.39481485 1.2863336
0.17305286 -0.39318514 1.2830001
0.16632402 -0.38546252 1.2851877
0.17466483 -0.38386342 1.2864376
0.18270421 -0.3819159 1.2838334
0.17614688 -0.37826413 1.2880001
0.18495233 -0.37488154 1.2850591
0.19120976 -0.37004712 1.2830001
0.17953432 -0.36245608 1.2880001
0.18481374 -0.36439604 1.2859414
0.19104908 -0.36394128 1.2830001
0.18665971 -0.355791 1.2861819
0.19185571 -0.35475361 1.2839092
0.18856749 -0.34777719 1.2880001
0.19569418 -0.34626159 1.2853813
0.20393012 -0.34349883 1.2839091
0.19816524 -0.33592108 1.2880001
0.20497358 -0.33561704 1.2859412
0.21033074 -0.33517948 1.2830001
0.19985896 -0.32180679 1.2880001
0.2050084 -0.32501987 1.2837896
0.21033074 -0.32449421 1.2830001
0.20578037 -0.31527197 1.2868236
0.21129481 -0.31445169 1.2830001
0.20889214 -0.30486959 1.2880001
0.21428677 -0.30504748 1.2849051
0.20889214 -0.29922387 1.2880001
0.21594931 -0.29532245 1.2852225
0.2201836 -0.2901907 1.2880001
0.22454195 -0.28441447 1.2855002
0.22496657 -0.27505338 1.2858572
0.24182412 -0.27106795 1.2830001
0.22625753 -0.26573107 1.2864376
0.23263302 -0.26285723 1.2837144
0.24310957 -0.26431939 1.2830001
0.2361266 -0.25712958 1.2864376
0.24484465 -0.25547037 1.2853811
0.25082222 -0.25307176 1.2830001
0.23824994 -0.24954142 1.2880001
0.24522847 -0.24511099 1.2872106
0.25178629 -0.24503772 1.2830001
0.24583121 -0.23553596 1.2870625
0.25337169 -0.23417574 1.2830002
0.24954142 -0.22808763 1.2880001
0.25545549 -0.22459604 1.2851741
0.26296967 -0.22337799 1.2830001
0.24954142 -0.21792531 1.2880001
0.25691882 -0.2154402 1.2850591
0.26281968 -0.21857901 1.2830001
-0.19534236 -0.19082578 1.2880001
-0.20189501 -0.18558595 1.2830001
-0.1943655 -0.18522888 1.2841768
-0.18494195 -0.18390574 1.2845385
-0.17807695 -0.18303117 1.2840002
-0.19233453 -0.17883737 1.2830001
-0.18378632 -0.17793755 1.2830001
-0.17883737 -0.17883737 1.2830001
-0.18221167 -0.15859163 1.2830001
-0.17499632 -0.15490882 1.2850834
-0.16602728 -0.15282643 1.2858572
-0.15404788 -0.15178958 1.2880001
-0.14453077 -0.1524348 1.2880001
-0.13617508 -0.15062816 1.2880001
-0.12759358 -0.15017651 1.2880001
-0.16309068 -0.14959352 1.2830001
-0.15454248 -0.14869371 1.2830001
-0.14459458 -0.14834377 1.2830001
-0.13514693 -0.14528589 1.2846667
-0.12539235 -0.14414971 1.286158
-0.11479657 -0.14264886 1.2880001
-0.10542123 -0.14258042 1.2880001
-0.094848327 -0.14227249 1.2880001
-0.084363386 -0.14324032 1.2880001
-0.075276442 -0.14189608 1.2880001
-0.06661965 -0.14114334 1.2880001
-0.114051 -0.13789599 1.2830001
-0.10444231 -0.13625704 1.2830001
-0.094236709 -0.13556916 1.2840716
-0.085021034 -0.13548917 1.2855002
-0.074987821 -0.13495933 1.2852224
-0.065363385 -0.13523899 1.2855002
-0.056162685 -0.13331041 1.2865001
-0.032745253 -0.13211016 1.2880001
-0.02709952 -0.13211016 1.2880001
-0.016184436 -0.13211016 1.2880001
0.193959 -0.13269198 1.2863334
-0.077608667 -0.12934779 1.2830001
-0.053613715 -0.12784812 1.2830001
-0.044952039 -0.12748605 1.2848182
-0.034533601 -0.12680462 1.2853531
-0.024786161 -0.12619238 1.2851877
-0.014361005 -0.12644207 1.2848753
-0.0047356952 -0.12382338 1.2863334
0.0045162211 -0.12303787 1.2875835
0.014838798 -0.12262134 1.2868462
0.024834288 -0.1230379 1.2875835
0.034978706 -0.12243425 1.2871667
0.045015797 -0.12315436 1.2866365
0.055275042 -0.12324203 1.2867501
0.065692067 -0.12331618 1.2868463
0.074589498 -0.12250517 1.2859167
0.085067503 -0.12262375 1.2875456
0.09511707 -0.1236552 1.2872858
0.1047845 -0.12390439 1.2866844
0.11434714 -0.12337521 1.2871667
0.12533526 -0.12194784 1.2880001
0.13579014 -0.12248461 1.2865001
0.14453189 -0.12445796 1.2852727
0.15516271 -0.12421072 1.2856669
0.16461623 -0.12294886 1.2846668
0.17544858 -0.12515084 1.286077
0.18474874 -0.12617251 1.2850001
0.19203278 -0.1285488 1.2840002
0.0044990536 -0.11810015 1.2830001
0.014621924 -0.11810014 1.2830001
0.025869558 -0.11810014 1.2830001
0.032618135 -0.11810014 1.2830001
0.057362929 -0.11810014 1.2830001
0.06523627 -0.11810015 1.2830001
0.078733429 -0.11810015 1.2830001
0.085482016 -0.11810015 1.2830001
0.092230588 -0.11810015 1.2830001
0.11697538 -0.11810015 1.2830001
0.12575422 -0.11731412 1.2836251
0.13234715 -0.1173503 1.2830001
0.28357682 0.026726827 1.283625
0.2853353 0.033557177 1.2856923
0.29387558 0.03800334 1.2852727
0.300897 0.038318664 1.2855
0.12109951 0.42778501 1.2830001
0.11765713 0.43866673 1.2863334
0.12451544 0.43560255 1.2839377
0.13510528 0.43683442 1.28425
0.11780763 0.44300187 1.2880001
0.12533528 0.44262549 1.2880001
0.1332393 0.44262549 1.2880001
-0.02387777 -0.4991591 1.2970001
-0.014094432 -0.4966917 1.2965
-0.003975519 -0.49604425 1.2948126
0.0045364569 -0.49446809 1.2936667
0.013911306 -0.49344331 1.2931364
0.025201533 -0.49454471 1.2919999
0.037377562 -0.49723485 1.2919999
0.044820707 -0.49658757 1.2919999
-0.012507403 -0.48778874 1.2970001
0.0053061713 -0.48627266 1.2970001
0.014858581 -0.48425609 1.2942502
0.02491837 -0.48477566 1.2919999
0.031714294 -0.4825103 1.2920001
0.046891846 -0.48409599 1.2920001
0.053234704 -0.48364297 1.2920001
0.014769523 -0.47752839 1.296091
0.025360698 -0.47605392 1.2953334
0.034589801 -0.4740878 1.2927142
0.045629747 -0.4737727 1.2919999
0.054280236 -0.47283915 1.2919999
0.06311968 -0.47211048 1.2919999
0.036280442 -0.46589878 1.2960001
0.045219112 -0.46431291 1.2946316
0.054526255 -0.46686947 1.29575
0.065502994 -0.46724918 1.29575
0.074403986 -0.46425736 1.2940588
0.080418386 -0.46212256 1.2920001
0.075818345 -0.45529401 1.2960001
0.084542625 -0.45513597 1.29275
0.094293386 -0.4539108 1.2919999
0.11779594 -0.45192868 1.2920001
0.12119391 -0.45192868 1.2920001
0.075856589 -0.44506869 1.2970001
0.085482083 -0.44510004 1.2952145
0.094985753 -0.44474667 1.2926818
0.10533676 -0.44286746 1.2919999
0.11638705 -0.44400048 1.2931111
0.12356097 -0.44306985 1.2930714
0.13387962 -0.44286746 1.2919999
0.14158167 -0.44060215 1.2920001
0.07845553 -0.4377591 1.2970001
0.088120341 -0.43605357 1.2970001
0.095700689 -0.43469736 1.2961669
0.10486558 -0.43472081 1.2938182
0.11470876 -0.43441063 1.2955003
0.12524465 -0.43469739 1.2961669
0.13454728 -0.43476009 1.2919999
0.14158167 -0.43380621 1.2920001
0.095511079 -0.42866281 1.2970001
0.10574441 -0.42695725 1.2970001
0.11466578 -0.42603889 1.2970001
0.12507403 -0.42525172 1.2970002
0.13463898 -0.42507109 1.2924166
0.12751053 -0.41631788 1.2970001
0.13501334 -0.41460505 1.2951251
0.14452657 -0.41296539 1.2919999
0.15452628 -0.41180038 1.2919999
0.13578326 -0.40558144 1.2967225
0.14531453 -0.40529174 1.2950002
0.15520211 -0.40529391 1.292238
0.16196942 -0.40209192 1.2920001
0.13720243 -0.3983418 1.2970001
0.14632787 -0.39577624 1.2970001
0.15522832 -0.39516178 1.2945929
0.16196942 -0.39586234 1.2920001
0.14781477 -0.38431835 1.2970001
0.15552855 -0.38463187 1.2950003
0.16385718 -0.38321438 1.2919999
0.17669392 -0.38170418 1.2920001
0.14781475 -0.37635911 1.2970001
0.15547621 -0.37546727 1.2955003
0.1649372 -0.37489936 1.2926818
0.17448825 -0.37466979 1.2919999
0.18084697 -0.3730205 1.2919999
0.15634254 -0.36896837 1.2970001
0.16474144 -0.36470485 1.2960002
