# .PCD v0.7 - Point Cloud Data file format
VERSION 0.7
FIELDS x y z
SIZE 4 4 4
TYPE F F F
COUNT 1 1 1
WIDTH 1479
HEIGHT 1
VIEWPOINT 0 0 0 1 0 0 0
POINTS 1479
DATA ascii
0.11395001 0.14583613 1.467
0.14433441 0.14433441 1.4699999
0.15612468 0.14583613 1.467
0.16495359 0.14433441 1.4699999
0.1752632 0.14433441 1.4699999
0.1855728 0.14433441 1.4699999
0.054125402 0.15464403 1.4699999
0.065455437 0.15657967 1.4640001
0.074525088 0.1537561 1.4640002
0.084707037 0.15401281 1.4640002
0.095324583 0.15342942 1.464
0.10560878 0.15346275 1.4640001
0.11550959 0.15272935 1.4640001
0.12632717 0.15529624 1.464
0.13647245 0.15615188 1.464
0.14502871 0.1556171 1.464
0.15436281 0.1534294 1.464
0.16369693 0.15366277 1.464
0.17480454 0.15683636 1.4640001
0.18567097 0.15572405 1.4640001
0.19343273 0.15602963 1.464
0.063145556 0.1657749 1.467
0.073889472 0.16391362 1.4640001
0.082140163 0.16171344 1.4640001
0.1219268 0.16043 1.4640001
0.13732807 0.16043 1.4640001
0.14502871 0.16043 1.4640001
0.15016247 0.16043 1.4640001
0.17454784 0.16043 1.4640001
0.1860988 0.16043 1.4640001
0.19306605 0.16263019 1.464
0.066738881 0.1732644 1.4640001
0.074439511 0.17454784 1.4640002
0.084707044 0.17711473 1.464
0.091124237 0.17839816 1.4640001
0.077434212 0.18182068 1.4640001
0.085523777 0.18353191 1.464
0.093691118 0.18410233 1.464
0.10139176 0.18224847 1.4640001
0.12449368 0.18866567 1.4640001
0.1475956 0.1860988 1.4640001
0.15529624 0.18224847 1.4640001
0.16428033 0.18096504 1.4640001
0.17480452 0.18199179 1.4640001
0.18390802 0.18347844 1.467
0.096624687 0.19343273 1.464
0.1063195 0.19720003 1.467
0.11532625 0.19636631 1.464
0.12654719 0.19225931 1.4640001
0.10395864 0.20150007 1.4640001
0.11679304 0.20150007 1.4640001
0.12449368 0.20150007 1.4640001
0.38870996 -0.094005138 1.4770001
0.3923355 -0.091933399 1.4770001
0.38789868 -0.087631598 1.47
0.39459556 -0.086890817 1.4730002
0.40399614 -0.084580734 1.4737693
0.41351134 -0.08410915 1.4760001
0.4085179 -0.070878498 1.47
0.41488698 -0.075757913 1.4708751
0.42298126 -0.074648723 1.4743751
0.41818318 -0.065079346 1.47
0.42465392 -0.065826654 1.4723334
0.43239567 -0.063246533 1.4723334
0.089343727 0.12818883 1.4770001
0.11524046 0.12818883 1.4770001
0.12041981 0.12818883 1.4770001
0.16832876 0.12818883 1.4770001
0.17609778 0.12818883 1.4770001
0.18516164 0.12818883 1.4770001
0.029781243 0.13725269 1.4770001
0.03496059 0.13854752 1.4770001
0.047045734 0.13509463 1.4770001
0.057157788 0.13521795 1.4770001
0.064034805 0.13470729 1.4735
0.074445657 0.13484626 1.475
0.08592429 0.13489315 1.4755
0.095447354 0.13525921 1.4759231
0.10512535 0.13475978 1.4748461
0.11470874 0.13447098 1.4741175
0.12430432 0.13595785 1.4770001
0.13509463 0.13682108 1.4770001
0.1453205 0.13555945 1.477
0.15533324 0.13462196 1.4765624
0.16554041 0.13449964 1.4752499
0.17588915 0.13449888 1.4752499
0.18486913 0.13444518 1.4746667
0.19379024 0.13517106 1.4764999
0.20264193 0.13790011 1.4770001
0.026956143 0.14584568 1.4770001
0.034960594 0.14502172 1.4770001
0.045083862 0.14537483 1.4770001
0.054252736 0.14467344 1.4734999
0.074861757 0.14281139 1.4700001
0.084984809 0.14349367 1.4705385
0.095066398 0.14344223 1.47
0.10618888 0.14253023 1.4700001
0.12535012 0.1447297 1.4740834
0.13422309 0.14454418 1.4721874
0.19581082 0.14472675 1.4713999
0.20518321 0.14450954 1.4748461
0.2117058 0.14631654 1.4770001
0.22141707 0.14631654 1.4770001
0.025896735 0.1553804 1.4769999
0.034960594 0.1553804 1.4770001
0.043927409 0.15505785 1.4739374
0.063661776 0.15309758 1.4700001
0.0734559 0.1585101 1.47
0.091497697 0.1520666 1.47
0.12414477 0.15249616 1.4700001
0.13457708 0.15188251 1.4700001
0.14459214 0.1512934 1.47
0.15077791 0.1520666 1.47
0.1688197 0.1520666 1.47
0.17474774 0.15283982 1.4700001
0.18492845 0.1523888 1.4700001
0.19717109 0.15306894 1.4700001
0.20515029 0.15482964 1.4717501
0.21105838 0.15667523 1.4770001
0.027450535 0.16496219 1.4770001
0.035927355 0.16531943 1.4759231
0.044484694 0.16540508 1.474
0.054140359 0.16500385 1.4704374
0.19871755 0.16418037 1.47
0.2057586 0.16402465 1.4761251
0.21105838 0.16185458 1.4770001
0.029781243 0.17221327 1.4770001
0.036627717 0.17280035 1.4746667
0.044348158 0.17383181 1.4770001
0.054232404 0.17562796 1.4730624
0.062888555 0.17603645 1.4700001
0.055677976 0.18257196 1.4770001
0.065575548 0.18380456 1.4750001
0.074486308 0.1859315 1.4719093
0.083250023 0.18840793 1.47
0.141757 0.18943889 1.47
0.15586273 0.1868799 1.4742
0.16534634 0.18601771 1.4735001
0.17345902 0.18583055 1.47
0.075100526 0.19163583 1.4770001
0.086251877 0.19450474 1.4758334
0.094451733 0.19696628 1.4708751
0.11598299 0.1997485 1.47
0.12603486 0.1966556 1.47
0.135057 0.19522579 1.4728001
0.14521664 0.19438365 1.4759231
0.15563937 0.19241273 1.4770001
0.16518416 0.19145085 1.4770001
0.17221327 0.19163583 1.4770001
0.081574708 0.20328936 1.4770001
0.099229902 0.2023259 1.47
0.1069621 0.2023259 1.47
0.11229077 0.20264705 1.4723333
0.1275813 0.2023259 1.47
0.13512853 0.20444652 1.476
0.14476779 0.20421676 1.4743749
0.1553804 0.20069969 1.4770001
0.13854752 0.21105838 1.4770001
0.14416958 0.21173954 1.4740001
0.15667523 0.21105838 1.4770001
0.39532724 -0.095035046 1.485
0.4058505 -0.092990957 1.487
0.41521543 -0.093575217 1.4866002
0.42489359 -0.092027649 1.4890001
0.40519682 -0.089706667 1.4830002
0.41733101 -0.087973207 1.4829999
0.42495051 -0.085199371 1.4859999
0.42830864 -0.076812655 1.485
0.43598914 -0.073099971 1.4890002
0.44251591 -0.071794614 1.4890001
0.43612325 -0.067696191 1.485
0.44382125 -0.067878544 1.4890001
-0.022191063 0.11878745 1.4890001
-0.015664279 0.1153065 1.4890002
0.0052214265 0.11878745 1.4890001
0.016099399 0.11791722 1.4890002
0.024801776 0.1174821 1.4890002
0.033752792 0.11766858 1.4890002
0.044382125 0.11878745 1.4890001
0.054824978 0.1174821 1.4890002
0.065623835 0.11641406 1.4890002
0.075710684 0.11617675 1.4890002
0.084326044 0.11774316 1.4890001
0.092680313 0.11878745 1.489
-0.022843741 0.12335619 1.4890001
-0.016447494 0.12505317 1.4890002
-0.0013053566 0.12792495 1.4890001
0.0054824976 0.1255753 1.4890002
0.015645869 0.12518668 1.4875002
0.025530411 0.12561356 1.4881431
0.034458883 0.12479325 1.4872859
0.044325251 0.12515216 1.4871252
0.054659288 0.12493158 1.4844999
0.065022253 0.12483985 1.483375
0.075481869 0.12493157 1.4844999
0.085322455 0.1249141 1.4842856
0.094712168 0.1247751 1.4862309
0.10421813 0.12505651 1.4860001
0.11432131 0.1241366 1.4857693
0.12386762 0.12647231 1.4872859
0.13662733 0.12836008 1.4890002
0.14552069 0.1265748 1.4857273
0.15613784 0.12672935 1.4842
0.16492519 0.12531808 1.4860001
0.17465413 0.1251229 1.48675
0.18544506 0.12406068 1.4868183
0.19489044 0.12622933 1.4870001
0.20233028 0.12923031 1.4890001
-0.014358923 0.13314638 1.4890001
-0.0021755944 0.13488686 1.4890002
0.0052214265 0.1357571 1.4890002
0.015633706 0.13551874 1.4863751
0.02548044 0.13503209 1.4851428
0.03510261 0.13390996 1.4829999
0.043503232 0.13511004 1.4829999
0.052437231 0.13477668 1.4829999
0.068905123 0.13260986 1.483
0.079305895 0.13260986 1.483
0.081906088 0.13260986 1.483
0.09230686 0.13130976 1.483
0.10010745 0.13260986 1.483
0.12610938 0.13260986 1.4829999
0.13465287 0.13242413 1.4829999
0.14431073 0.13130976 1.4830002
0.1976147 0.13130976 1.483
0.20525952 0.13437711 1.485
0.21364455 0.13629927 1.4884548
-0.0013053566 0.14489459 1.489
0.0052214265 0.14489459 1.4890002
0.015878361 0.14554472 1.485
0.023661759 0.14379069 1.483
0.04186311 0.14483076 1.483
0.21509571 0.14397292 1.4840001
0.22060527 0.14358923 1.4890001
0.0075058006 0.15305308 1.4890002
0.015618817 0.15493429 1.4851428
0.21191576 0.15211131 1.483
0.016679557 0.16345964 1.4890002
0.022161255 0.16556112 1.4870001
0.019580349 0.17230707 1.4890001
0.024767293 0.17338157 1.4870001
0.033150952 0.17619762 1.4863334
0.043553237 0.17746319 1.483
0.036473714 0.181079 1.4860001
0.045851417 0.1830813 1.48375
0.05417069 0.18678054 1.4829999
0.063704737 0.18747392 1.483
0.057435691 0.19188742 1.4890001
0.065354973 0.19519116 1.4850001
0.075020455 0.19623028 1.4839998
0.084939651 0.19718133 1.4829999
0.14691092 0.1989148 1.483
0.1558934 0.19584183 1.4829999
0.16511227 0.19761468 1.4829999
0.17031266 0.19501449 1.483
0.067400761 0.20324235 1.4841999
0.075819142 0.20497756 1.483857
0.084979042 0.20600623 1.4829999
0.1560116 0.20597245 1.4829999
0.1642842 0.20484056 1.4855715
0.074405327 0.21016242 1.4890001
0.15557824 0.21191578 1.4830002
0.40525147 -0.096394755 1.4960001
0.41443187 -0.097050503 1.4960001
0.42492384 -0.096394762 1.4960001
0.43497863 -0.090493046 1.4959999
0.43574366 -0.084919199 1.4960002
0.44197324 -0.083935574 1.4960001
0.43672729 -0.077378109 1.4960001
0.44197324 -0.076066613 1.4960001
-0.017049413 0.10754246 1.4960002
-0.0052459734 0.10885394 1.4960001
0.026229866 0.10885394 1.4960001
0.034098826 0.10885394 1.4960001
0.040656295 0.10754246 1.4960001
0.066886157 0.10885394 1.4960001
-0.030164346 0.1180344 1.4960001
-0.024918372 0.11584858 1.4960002
-0.015737919 0.11514912 1.4960002
-0.0052459734 0.11541141 1.4960002
0.0052459729 0.11409991 1.4960002
0.015475621 0.11357532 1.4960002
0.024918372 0.11278843 1.4960002
0.034244549 0.11322559 1.4960002
0.044590775 0.11409992 1.4960002
0.054295827 0.11357532 1.4960001
0.065574668 0.11213268 1.4960001
0.074755117 0.11147694 1.4959999
0.084372737 0.11366275 1.4960002
0.094427519 0.11606716 1.4960002
0.1047321 0.11822175 1.4960002
0.11559878 0.11822176 1.4960002
0.12196888 0.1180344 1.4960001
0.1438271 0.1193459 1.4959999
0.15475622 0.1193459 1.4960001
0.16543552 0.11822176 1.4960002
0.17442861 0.11869015 1.4960001
0.18492055 0.1193459 1.4959999
0.19410101 0.1193459 1.4960001
0.20459296 0.1193459 1.4960001
0.21595924 0.11847156 1.4960002
0.22295386 0.1193459 1.4960001
-0.030164346 0.12459186 1.4959999
-0.025667798 0.12646542 1.4960002
-0.014426426 0.12634052 1.4960002
-0.0058080414 0.12552865 1.4960002
0.0013114933 0.12196888 1.4960001
0.12721485 0.12502903 1.4960002
0.13475594 0.12426399 1.4960002
0.14347737 0.12249347 1.4960001
0.15388189 0.12284321 1.4960002
0.16393666 0.12196889 1.4959999
0.17574011 0.12196888 1.4960001
0.18229757 0.12196888 1.4960001
0.196724 0.12196888 1.4960001
0.20529915 0.12519716 1.4960002
0.21508491 0.12590335 1.4960002
0.22374077 0.12564106 1.4960002
-0.015592198 0.13508382 1.4960002
-0.007306891 0.13545853 1.4960002
0.21705213 0.13377233 1.4960001
0.22426535 0.13508381 1.4960002
-0.014051714 0.14295278 1.4960002
-0.0065574669 0.14426428 1.4960002
0.22295386 0.14164129 1.4960001
-0.0019672399 0.15278897 1.4960001
0.0029508602 0.15573983 1.4960002
0.0070820646 0.16236286 1.4960001
0.013552099 0.16743398 1.4960002
0.016393667 0.17377287 1.4960001
0.032787334 0.18229757 1.4960001
0.40745011 -0.10186253 1.5090001
0.41499138 -0.10222968 1.5066
0.42685249 -0.10274446 1.5089999
0.43523079 -0.10292085 1.5090001
0.44341761 -0.10287922 1.5072858
0.45110548 -0.10186253 1.5090001
0.40583003 -0.098822251 1.503
0.42427686 -0.098822251 1.503
0.43559694 -0.097475693 1.5066
0.44425008 -0.096047394 1.5071539
0.4539918 -0.094887286 1.5089999
0.46168861 -0.092602298 1.5090001
0.44623736 -0.083010688 1.5030001
0.45373601 -0.084565543 1.5072
0.4643344 -0.088633627 1.5090001
0.44931182 -0.076422542 1.503
0.45284918 -0.076577708 1.506
-0.03174936 0.096570969 1.5089999
-0.025399486 0.096041813 1.5089999
-0.016235469 0.096811488 1.5089999
0.019843349 0.099216752 1.5090001
0.025134912 0.099216752 1.5090002
-0.04100959 0.10979987 1.5090001
-0.034387577 0.10580391 1.5086253
-0.025086693 0.10561642 1.506
-0.015821423 0.10282576 1.5037502
-0.0051622121 0.10527579 1.5062728
0.0052792872 0.10627698 1.506
0.016105594 0.10586573 1.5058002
0.024801426 0.10474132 1.5048001
0.034315806 0.10426239 1.5055002
0.04548011 0.10499747 1.5057273
0.055190548 0.10641002 1.5071539
0.065292671 0.10637443 1.5063334
0.07452029 0.10772292 1.5064286
0.083548523 0.10798253 1.5067499
0.095248081 0.10979987 1.5090001
0.1058312 0.10979987 1.5090001
0.11509143 0.10979987 1.5090001
0.15742391 0.10979987 1.5090001
0.16403836 0.10979987 1.5090001
0.17462149 0.10979987 1.5090001
0.1852046 0.10847697 1.5089999
0.19635467 0.10866596 1.5089999
0.20504795 0.10847697 1.5089999
0.2138672 0.10979987 1.5090002
0.2248913 0.10979987 1.5090001
-0.04100959 0.11376854 1.5090001
-0.034733936 0.11476865 1.5079091
-0.026352599 0.11199855 1.503
0.057975717 0.11199855 1.503
0.061928611 0.11199855 1.503
0.088281207 0.11199855 1.503
0.094960093 0.11211033 1.5045002
0.10557017 0.11348385 1.50525
0.11486262 0.11353973 1.506
0.12545738 0.11564673 1.5064286
0.1344434 0.11730719 1.5035001
0.14517285 0.1153418 1.5054001
0.15528883 0.11499531 1.5046364
0.16543196 0.11326913 1.5043335
0.1757227 0.11394475 1.5038573
0.18465097 0.11474558 1.5045003
0.19507281 0.11467106 1.5035001
0.2055503 0.1146338 1.5030001
0.21465993 0.11441617 1.5045002
0.22452414 0.11410676 1.5030001
0.23058525 0.11595144 1.503
-0.04100959 0.12567455 1.5090002
-0.035718028 0.12435166 1.5089999
0.13044538 0.12253959 1.503
0.23434745 0.12476456 1.506
-0.04100959 0.13361187 1.5090002
-0.034130562 0.13467021 1.5090002
-0.025328478 0.13535453 1.5048001
-0.019764449 0.13835114 1.503
0.23378122 0.13234107 1.5066
-0.031087916 0.14353356 1.5090001
-0.024605755 0.14498873 1.5089999
-0.018678635 0.14583914 1.5064287
0.22885998 0.14154923 1.5090001
0.23058525 0.14098641 1.503
-0.023371056 0.15301427 1.5090002
-0.015500024 0.15437168 1.5073636
-0.0069320225 0.15480378 1.506
-0.0132289 0.16006969 1.5090001
-0.0026457799 0.16205403 1.5090001
0.0048324787 0.16690068 1.5043334
0.0057263863 0.17274277 1.508
0.01185867 0.17260952 1.503
0.40712515 -0.10587913 1.5160002
0.41332728 -0.10565762 1.516
0.42528853 -0.10632214 1.5159999
0.43193367 -0.10765116 1.516
0.45718515 -0.10233505 1.516
0.46117225 -0.10233505 1.516
0.45718515 -0.09701895 1.516
0.46117225 -0.098347977 1.516
-0.04332627 0.087981567 1.516
-0.034554694 0.087715767 1.5159999
-0.02563123 0.087146178 1.5159999
-0.015616063 0.087383501 1.5159999
0.059806198 0.089044787 1.516
-0.053161066 0.09701895 1.516
-0.044617325 0.096069634 1.516
-0.036149524 0.094892494 1.5159999
-0.023922481 0.091702841 1.516
-0.015150905 0.092234455 1.516
-0.0053161066 0.098790981 1.5159999
0.0054637762 0.097904965 1.5159999
0.01594832 0.097018942 1.5159999
0.024719896 0.095955729 1.516
0.034554694 0.098347977 1.5159999
0.045186907 0.098347977 1.5159999
0.055819124 0.097550549 1.5159999
0.065122306 0.098613784 1.516
0.073855914 0.09853784 1.5159999
0.082399651 0.099676996 1.516
0.094360895 0.099676996 1.516
-0.051832039 0.10233505 1.516
-0.045186907 0.10499311 1.5159999
-0.0053161066 0.10233505 1.516
0.0066451333 0.10233506 1.5160002
0.01196124 0.10233505 1.516
0.049173985 0.10233505 1.516
0.057148144 0.10322107 1.5160002
0.064236291 0.10322107 1.5160002
0.074995078 0.10347421 1.5159999
0.086054474 0.10399633 1.5159999
0.095158316 0.10552472 1.5159999
0.1049931 0.10765115 1.5160002
0.1142963 0.10765116 1.516
0.12359948 0.10765115 1.5160002
0.15815417 0.10765116 1.516
0.1647993 0.10765116 1.516
0.17543152 0.10765116 1.516
0.1847347 0.1049931 1.516
0.19377208 0.10552472 1.516
0.20467012 0.1049931 1.516
0.21450491 0.10711955 1.516
0.2246055 0.10765115 1.5160002
-0.052718058 0.11429629 1.5159999
-0.046107009 0.114603 1.516
0.11562532 0.11030921 1.516
0.12404248 0.11163823 1.5159999
0.13556072 0.11296727 1.516
0.14539552 0.11137243 1.516
0.15283807 0.11030921 1.5160002
0.21663134 0.11030921 1.516
-0.051832039 0.1249285 1.516
-0.046107002 0.12462179 1.516
-0.045851421 0.13578223 1.5159999
-0.038541771 0.1395478 1.516
0.23789577 0.13423169 1.516
-0.04332627 0.14326906 1.516
-0.035883721 0.14442089 1.5159999
-0.02790956 0.14752196 1.516
-0.031232126 0.15217355 1.516
-0.026137525 0.15505312 1.5159999
-0.019935399 0.15815417 1.516
-0.033225667 0.16347028 1.516
-0.023922481 0.16081223 1.516
-0.018606372 0.16081223 1.516
-0.0055059674 0.16384999 1.5159999
-0.0013290267 0.17144445 1.516
0.00398708 0.17587453 1.5160002
0.43125775 -0.11081856 1.5230001
0.46244603 -0.11125514 1.529
0.41523582 -0.10814823 1.5230001
0.4219116 -0.10814823 1.5230001
0.4597652 -0.10589344 1.529
0.46402964 -0.10457809 1.5254
0.47404042 -0.10177223 1.5275002
0.46780774 -0.097850904 1.529
0.47853112 -0.097850904 1.529
-0.054063741 0.077297747 1.5290002
-0.045290004 0.076909266 1.5284002
-0.034457132 0.075616017 1.5285714
-0.024110196 0.075005516 1.5278748
-0.014061295 0.075991437 1.5275002
-0.0093829632 0.079084978 1.529
-0.061391391 0.087663688 1.529
-0.054797363 0.08553154 1.5245
-0.046262894 0.084144451 1.5235455
-0.034714244 0.08278013 1.523
-0.023460727 0.082589388 1.523
-0.015143248 0.083278663 1.5240002
-0.0056213629 0.08591561 1.5265999
0.0052456362 0.086501442 1.5253078
0.014950594 0.085933179 1.5251819
0.023776211 0.08655405 1.5262309
0.034851007 0.087127507 1.5290002
0.045038167 0.086729653 1.526
0.054741699 0.088120781 1.5230001
0.06381461 0.08880078 1.5270001
0.075063705 0.08980836 1.529
-0.062664792 0.095505171 1.5290002
-0.055153985 0.094085492 1.5238572
-0.049401045 0.093461439 1.5230001
-0.0053406535 0.094262533 1.523
0.0051499153 0.093270704 1.523
0.014019215 0.09279386 1.5230001
0.024834037 0.092660345 1.5230001
0.034714248 0.093461432 1.523
0.045395553 0.093461432 1.523
0.054074116 0.092793852 1.5230001
0.064264834 0.093946822 1.5236667
0.075248681 0.093946807 1.5236667
0.085155018 0.095851526 1.5256667
0.094406486 0.097084701 1.5275002
0.10013725 0.097466923 1.5230001
0.17380822 0.096957289 1.5289999
0.18363799 0.097850904 1.529
0.1975784 0.096778572 1.529
0.20573273 0.096647121 1.5281429
0.21492274 0.096264139 1.528143
0.22504218 0.096063681 1.5290002
0.23189324 0.096510485 1.529
-0.06314265 0.10397295 1.5270001
-0.054984454 0.10426411 1.523
0.088120773 0.10013725 1.5230001
0.095686704 0.10102735 1.5230001
0.1046202 0.10267241 1.5246364
0.11437835 0.10342054 1.5242001
0.1251428 0.10488854 1.5255716
0.13438913 0.10685978 1.5264286
0.14507465 0.10625919 1.5266001
0.15518226 0.10501372 1.5259999
0.16514735 0.10331447 1.5266
0.17430836 0.10278191 1.5262727
0.18445969 0.10274509 1.5257272
0.19502787 0.10152172 1.5237501
0.20561515 0.10147242 1.523
0.21529508 0.1024738 1.523
0.22430746 0.10280758 1.5230001
0.23121075 0.10424136 1.5245001
-0.063748948 0.1156267 1.5285715
-0.056521911 0.11482405 1.5230001
0.12951085 0.11081856 1.5230001
0.1348515 0.11081856 1.5230001
0.14019215 0.11081856 1.5230001
-0.061659474 0.12465937 1.5290002
-0.056105129 0.12556651 1.5237501
-0.075063705 0.13002107 1.529
-0.061659474 0.13270192 1.5290002
-0.054815918 0.13503093 1.5250001
-0.049401045 0.13752182 1.5230001
-0.054252863 0.14137074 1.5242002
-0.046372455 0.14671485 1.5260001
-0.037384573 0.14820313 1.5230001
0.2381272 0.14180872 1.526
-0.041553125 0.15146783 1.529
-0.035452839 0.15451644 1.5260001
-0.028038429 0.15888444 1.5230001
-0.032895513 0.16555622 1.5254002
-0.028038429 0.16155477 1.5230001
0.46905172 -0.11266217 1.5359999
0.47354028 -0.11266219 1.5359999
0.46725631 -0.10839808 1.536
0.47600898 -0.10705152 1.536
0.48072192 -0.10637824 1.536
0.47533569 -0.096952319 1.5360001
0.48072192 -0.095605761 1.536
-0.071367681 0.068674557 1.536
-0.064186029 0.067776851 1.5360001
-0.054824226 0.066750899 1.5360001
-0.045905456 0.066226274 1.5360001
-0.035010565 0.06598144 1.5360001
-0.024776703 0.066520065 1.5360001
-0.01481216 0.068674557 1.5359999
-0.074060798 0.076753922 1.5360001
-0.064634882 0.075407363 1.5359999
-0.056106661 0.073163092 1.5360001
-0.046231896 0.072265387 1.5360001
-0.037703678 0.071367681 1.536
-0.01615872 0.073387519 1.536
-0.0055358573 0.077053159 1.5360001
0.0051938742 0.078292847 1.5360001
0.01481216 0.079447038 1.5359999
0.02423808 0.079447038 1.536
0.03905024 0.079447038 1.536
-0.082140163 0.086179838 1.536
-0.075407356 0.084833272 1.5360001
-0.065682203 0.084234804 1.5360001
-0.00134656 0.082140163 1.536
0.0058350931 0.082140163 1.5359999
0.01211904 0.082140163 1.536
0.02558464 0.082140163 1.5359999
0.035010558 0.082140163 1.536
0.046231896 0.083037868 1.5359999
0.05453568 0.08416 1.536
0.061941758 0.086179838 1.536
-0.075138055 0.093989871 1.5359999
-0.067776851 0.093361497 1.5360001
0.06598144 0.09021952 1.536
0.086179838 0.092912637 1.536
0.095605761 0.095605761 1.536
0.10637823 0.098298877 1.5359999
0.15754752 0.098298877 1.536
0.16428033 0.098298877 1.536
0.17639935 0.096952319 1.536
0.18601765 0.096759953 1.5360001
0.19345577 0.096503466 1.5359999
0.20557483 0.092014931 1.5360001
0.2154496 0.091566071 1.5360001
0.22420223 0.091566078 1.536
0.23160832 0.092912637 1.536
-0.074060798 0.10503169 1.5360001
-0.068001278 0.10637824 1.536
0.11849728 0.100992 1.536
0.12657663 0.100992 1.536
0.13330944 0.10368512 1.5359999
0.14542848 0.10233856 1.536
0.15620096 0.100992 1.536
-0.074060798 0.11580416 1.5360001
-0.068674557 0.11311103 1.536
-0.074060798 0.12523007 1.5360001
-0.067327999 0.12523007 1.5360001
-0.071367681 0.13196288 1.536
-0.06598144 0.134656 1.5360001
-0.043897856 0.15431578 1.536
-0.03905024 0.15754752 1.536
-0.044436481 0.16428033 1.536
-0.035818495 0.16131788 1.536
0.47614923 -0.10956843 1.5430001
0.47614923 -0.093336068 1.5430001
0.48020732 -0.093336068 1.5430001
-0.090630673 0.058165956 1.5430001
-0.073045619 0.058165956 1.5430001
-0.063576743 0.058165956 1.5430001
-0.054107867 0.058165956 1.5430001
-0.044638991 0.056813266 1.5430001
-0.035019811 0.056362364 1.5430001
-0.025160158 0.057624876 1.5430001
-0.090630673 0.060871348 1.5430001
-0.084318094 0.06808573 1.5430001
-0.074890211 0.065298371 1.5430001
-0.065199986 0.063035674 1.5430001
-0.055009663 0.061773151 1.5430001
-0.044638991 0.061547697 1.5430001
-0.035170116 0.060871348 1.5430001
-0.023446744 0.061773151 1.5430001
-0.014879663 0.064929448 1.5430001
-0.0054107867 0.068987526 1.5430001
0.0013526967 0.068987526 1.5430001
0.014879663 0.068987526 1.5430001
-0.093336061 0.077103704 1.5430001
-0.08521989 0.075751007 1.5430001
-0.076803118 0.074698918 1.5430001
-0.0045089889 0.072594717 1.5430001
0.0055610863 0.073496521 1.5430001
0.014541489 0.074736491 1.5430001
0.02488962 0.0749394 1.5430001
0.034118012 0.077404298 1.5430001
0.044638991 0.079132751 1.5430001
0.051402472 0.079809099 1.5430001
-0.093336061 0.08521989 1.5430001
-0.085992865 0.084833398 1.5430001
0.054558769 0.082514495 1.5430001
0.064929441 0.085896239 1.5430001
0.075751007 0.087925285 1.5430001
0.08521989 0.087925285 1.5430001
0.20831528 0.087925285 1.5430001
0.21507877 0.087925285 1.5430001
0.22319496 0.087925285 1.5430001
-0.091307022 0.092659719 1.5430001
-0.084973939 0.094319843 1.5430001
-0.079809099 0.098746859 1.5430001
0.08521989 0.090630673 1.5430001
0.093786962 0.092885166 1.5430001
0.10578088 0.095500387 1.5430001
0.11443814 0.097664699 1.5430001
0.12444809 0.098746859 1.5430001
0.14609124 0.098746859 1.5430001
0.15447797 0.097664699 1.5430001
0.16502899 0.096041463 1.5430001
0.17585057 0.094012417 1.5430001
0.18531944 0.093336068 1.5430001
0.19478832 0.093336068 1.5430001
0.20425719 0.090630673 1.5430001
0.22860573 0.090630673 1.5430001
0.23131113 0.090630673 1.5430001
-0.084205374 0.10449581 1.5430001
-0.079809099 0.10551034 1.5430001
0.12309539 0.10145225 1.5430001
0.13526967 0.1021286 1.5430001
0.14338584 0.10145225 1.5430001
0.15285473 0.10145225 1.5430001
-0.083596654 0.11443814 1.5430001
-0.079809099 0.11497921 1.5430001
-0.08413773 0.12201323 1.5430001
-0.079809099 0.12444809 1.5430001
-0.045991689 0.15691282 1.5430001
-0.043962643 0.16570534 1.5430001
-0.039228205 0.16638169 1.5430001
-0.050049778 0.17179248 1.5430001
-0.043286294 0.17179248 1.5430001
-0.085083127 0.046863973 1.557
-0.076438323 0.046408977 1.557
-0.05186886 0.04777395 1.557
-0.045044009 0.047773946 1.557
-0.03548922 0.04777395 1.557
-0.028664369 0.04777395 1.557
-0.094419852 0.055558089 1.55525
-0.084748134 0.054585889 1.5541998
-0.075277612 0.053728264 1.5556
-0.067418739 0.055834901 1.5535001
-0.054137275 0.053142335 1.5544547
-0.044906959 0.051711351 1.5523334
-0.03559304 0.051538855 1.5530001
-0.02414643 0.052873518 1.5538182
-0.015661869 0.055833369 1.5535001
-0.00545988 0.058693711 1.557
0.00136497 0.058693711 1.557
-0.11056257 0.069613472 1.557
-0.10444489 0.066545427 1.5562223
-0.095508739 0.065571874 1.5518665
-0.084474146 0.064091645 1.5500001
-0.077453502 0.0611475 1.5500001
-0.014947166 0.0611475 1.5500001
-0.0054435153 0.063957229 1.5523334
0.0057185562 0.065064333 1.5527998
0.01497555 0.066352822 1.5526251
0.024243075 0.067274258 1.5535001
0.03548922 0.069613472 1.557
0.045044009 0.069613472 1.557
0.058693711 0.069613472 1.557
-0.11056257 0.075073354 1.557
-0.10484426 0.074884474 1.5531112
-0.096477173 0.073377006 1.5500001
0.017664833 0.072018169 1.5500001
0.021741332 0.072018169 1.5500001
0.036235552 0.072924063 1.5500001
0.044917442 0.074518085 1.5526251
0.054498062 0.074928626 1.5540833
0.061423648 0.076438323 1.557
0.21648423 0.077257298 1.557
0.22522004 0.077803291 1.557
-0.11056257 0.081898198 1.557
-0.10460123 0.084050573 1.5531819
-0.099194832 0.084247671 1.5500001
0.057071 0.080171168 1.5500001
0.065977059 0.08263965 1.5517501
0.074850388 0.084372438 1.5523334
0.084265783 0.085472271 1.5531112
0.094901979 0.086725809 1.5538889
0.10545721 0.087471522 1.5542001
0.1137475 0.087813072 1.557
0.1228473 0.088723049 1.557
0.16516137 0.088723041 1.557
0.17507322 0.087439112 1.5550001
0.1846537 0.088097289 1.5556
0.19546573 0.087325148 1.5530001
0.20539528 0.085211903 1.5538889
0.21501885 0.083009519 1.5523334
0.22556506 0.083762795 1.5525455
0.23189814 0.084198043 1.5542001
0.29892844 0.083263166 1.557
-0.10291874 0.094728917 1.557
-0.096288025 0.095835082 1.5505834
-0.088324167 0.099194832 1.5500001
0.098288946 0.091947727 1.5500001
0.10408664 0.092128895 1.5500001
0.11465425 0.092899293 1.5507779
0.12520085 0.093896545 1.5523334
0.13543256 0.097006664 1.5542001
0.14424469 0.09580788 1.5538889
0.1552224 0.093735725 1.5546668
0.16586895 0.092452049 1.5508751
0.17461009 0.091721252 1.5500001
0.18480134 0.091041833 1.5500001
0.19567201 0.091041833 1.5500001
0.20246616 0.091041833 1.5500001
-0.094986506 0.10464085 1.5538182
-0.088324167 0.10598899 1.5500001
0.13995983 0.1019125 1.5500001
-0.093687505 0.11276026 1.5543751
-0.087418281 0.114142 1.5500001
-0.085606501 0.12365383 1.5500001
-0.084734395 0.03921365 1.5640001
-0.075410865 0.039076541 1.5640001
-0.0616998 0.039762095 1.5640001
-0.050730947 0.039762095 1.5640001
-0.094263583 0.045589294 1.5640001
-0.084856264 0.044637136 1.5640001
-0.074313983 0.044149633 1.5640001
-0.065688476 0.045495808 1.5640002
-0.055392712 0.044698078 1.5640001
-0.045246515 0.043875411 1.5640001
-0.036334328 0.045246515 1.5640001
-0.024092302 0.046421755 1.5640001
-0.015767727 0.047303177 1.5640001
-0.12202849 0.05758648 1.5640001
-0.1148302 0.056558151 1.5640001
-0.1042041 0.05504014 1.564
-0.09597747 0.052102052 1.5640001
-0.08089529 0.05347316 1.5640001
-0.065356083 0.052863784 1.5640001
-0.058957588 0.05347316 1.5640001
-0.013711067 0.052102055 1.5640001
-0.0063984976 0.055301297 1.5640001
0.0068555339 0.058957588 1.5640001
0.01233996 0.058957588 1.5640001
-0.12257694 0.065538898 1.5640001
-0.11544718 0.065538898 1.5639999
-0.10740336 0.062613875 1.5640001
0.015082173 0.061699796 1.5640001
0.024405699 0.06279669 1.5640001
0.0347347 0.066270158 1.5640001
0.043875411 0.067184225 1.5640001
0.05347316 0.069926441 1.5640001
0.0616998 0.069926441 1.5640001
-0.11576057 0.075019121 1.5640001
0.065813124 0.075410865 1.5640001
0.072668649 0.078153081 1.5640001
0.21663484 0.075410865 1.5640001
0.2262326 0.075410865 1.5640001
0.23263109 0.077239007 1.5640001
-0.11380184 0.085008614 1.5640001
-0.10831743 0.08912193 1.5640001
0.069926441 0.08089529 1.5640001
0.075410865 0.08089529 1.5640001
0.08583127 0.081443742 1.5640001
0.095154807 0.081992172 1.5640001
0.10420411 0.084323056 1.5640001
0.11654407 0.086379722 1.5640001
0.1247707 0.087293796 1.5640001
0.13025513 0.08912193 1.5640001
0.14670841 0.08912193 1.5640001
0.15356395 0.08912193 1.5640001
0.1645328 0.087750822 1.5640001
0.17138833 0.086379722 1.5640001
0.18509941 0.085465647 1.5640001
0.19387449 0.084185943 1.5640001
0.20374647 0.081992172 1.5640001
0.23445924 0.08089529 1.5640001
0.29753014 0.083637506 1.5640001
0.30027235 0.08089529 1.5640001
-0.11105964 0.094606362 1.5640001
-0.10722055 0.095154807 1.5640001
0.13573955 0.091864146 1.5640001
0.14533731 0.091864146 1.5640001
0.15219285 0.091864146 1.5640001
-0.11105964 0.10146189 1.5640001
-0.10466114 0.10405176 1.5640001
-0.10009079 0.11105964 1.5640001
0.46787876 -0.30176795 1.5790001
0.47410792 -0.30107582 1.5790001
0.46787879 -0.29484665 1.5790001
0.47480005 -0.29484665 1.5790002
0.48310557 -0.29207817 1.5790001
0.45634329 -0.28284976 1.5790001
0.46603018 -0.28487527 1.5774447
0.47468719 -0.28520921 1.576
0.48172134 -0.28515688 1.5790002
0.44896054 -0.27362141 1.5790001
0.45496905 -0.27519706 1.5774447
0.46511009 -0.2746546 1.5743335
0.47407329 -0.27562401 1.572
0.48172131 -0.27546707 1.5790001
0.44896057 -0.26485443 1.5790001
0.45525119 -0.2656776 1.5784169
0.46459171 -0.26824665 1.57725
0.47450939 -0.26834399 1.5762
0.48033705 -0.26993003 1.5790001
0.44896057 -0.25793317 1.5790001
0.45502496 -0.25687853 1.5790002
-0.085823908 0.02906939 1.5790001
-0.12375255 0.036821224 1.5790001
-0.11491548 0.0367347 1.5755002
-0.10497031 0.037287995 1.5755001
-0.095267735 0.035891976 1.5749168
-0.085604981 0.034215268 1.5726365
-0.074482307 0.035310559 1.5734001
-0.065111302 0.036307544 1.5727779
-0.055465888 0.035593137 1.573867
-0.045114342 0.035556521 1.574154
-0.035995193 0.036845155 1.5746925
-0.026663065 0.037324082 1.5770003
-0.14257844 0.047064729 1.5790001
-0.13527964 0.045932151 1.5790004
-0.12554851 0.044144332 1.5737501
-0.1159082 0.045067612 1.5725386
-0.10473711 0.04547796 1.5720001
-0.097846523 0.042721719 1.572
-0.067527883 0.042721719 1.572
-0.033074878 0.042721719 1.572
-0.025105104 0.042206064 1.5734
-0.014840105 0.042443924 1.5746253
-0.0060815243 0.046169735 1.5769002
0.0041527697 0.048448984 1.5790001
-0.14257844 0.051217496 1.5790001
-0.13468386 0.05481828 1.5745002
-0.12596014 0.054573547 1.5720001
-0.1161066 0.053402148 1.572
-0.10887148 0.05099044 1.572
-0.0045937337 0.051909182 1.572
0.0055160597 0.053765599 1.5725836
0.015468696 0.055242009 1.5755001
0.024853719 0.056603666 1.5749168
0.034210917 0.057545532 1.5790002
0.043465663 0.05896933 1.5790001
-0.13388014 0.064867787 1.5743334
-0.12706265 0.064771637 1.572
0.028940519 0.062015399 1.572
0.036749866 0.062934153 1.572
0.045958497 0.064102493 1.5749999
0.054747924 0.06578517 1.5743334
0.065060064 0.067828573 1.5790001
-0.13300312 0.073320903 1.5780002
-0.12586479 0.074919291 1.5745456
-0.11989644 0.077174723 1.572
0.066149756 0.070284121 1.572
0.074626461 0.074197695 1.574154
0.085658602 0.074599132 1.5759377
0.095068447 0.074970625 1.5758185
0.10474238 0.077084862 1.57725
0.1144978 0.076925121 1.5790002
0.12458311 0.077518374 1.5790002
0.13150439 0.078902632 1.5790001
0.18964316 0.078902632 1.5790001
0.19518019 0.078902632 1.5790001
0.20533086 0.077666156 1.5780001
0.21208407 0.076827854 1.5743333
0.22349937 0.073121667 1.57375
0.23436916 0.07397335 1.57725
0.29692304 0.076134115 1.5790001
0.30263811 0.075744331 1.5781251
-0.1248609 0.08474046 1.5781252
-0.11897769 0.086362183 1.572
0.10446149 0.081860326 1.572
0.11622144 0.083146572 1.572
0.12580265 0.083277822 1.5719999
0.13556542 0.086563095 1.5764546
0.14411312 0.087128386 1.5776
0.15572616 0.087682091 1.5776
0.16505048 0.086322732 1.5755
0.17493269 0.083736219 1.5762001
0.18533483 0.08269722 1.5760001
0.19590628 0.081399597 1.57375
-0.12319884 0.094129451 1.5790001
-0.11635269 0.095484026 1.5719999
-0.11438396 0.10266994 1.572
-0.10749336 0.10749336 1.572
-0.103359 0.11162772 1.572
0.46856254 -0.3100577 1.5860001
0.47134334 -0.3100577 1.5860001
0.45743939 -0.30171534 1.5860001
0.46458998 -0.30409887 1.5860002
0.47551453 -0.30588654 1.5860001
0.48455209 -0.30241054 1.5860001
0.45604905 -0.29337299 1.5860001
0.46274817 -0.29514259 1.5860003
0.48555624 -0.29584482 1.5860002
0.44701144 -0.28294504 1.5860001
0.45410246 -0.28558677 1.5860001
0.48802805 -0.28503063 1.5860001
0.49080884 -0.28503063 1.5860001
0.44492584 -0.27509925 1.5860003
0.45187783 -0.27946907 1.5860001
0.48802805 -0.27946907 1.5860001
0.44396332 -0.26449558 1.5860003
0.46578175 -0.26278436 1.5860002
0.47458759 -0.26556513 1.5860001
0.48246649 -0.26834592 1.5860001
0.4449259 -0.25444198 1.5860003
0.4546586 -0.25277349 1.5860001
0.46346441 -0.25536892 1.5860001
0.43797389 -0.24331883 1.5860001
0.44492587 -0.24470921 1.5860003
0.4546586 -0.24470921 1.5860003
0.46022019 -0.2488804 1.5860001
0.44538936 -0.23683034 1.5860001
-0.12096422 0.029198259 1.5860001
-0.11505505 0.026765073 1.5860002
-0.10539182 0.026973631 1.5860002
-0.09454675 0.02711267 1.5860002
-0.08481399 0.02502708 1.5860001
-0.078325488 0.028271331 1.5860001
-0.053669177 0.027529787 1.5860001
-0.044492587 0.027807867 1.5860002
-0.035686761 0.028271331 1.5860001
-0.14265434 0.035872146 1.5860001
-0.13486814 0.036428303 1.5860001
-0.12573127 0.033170816 1.5860002
-0.11540265 0.031979047 1.5860001
-0.10566989 0.031979047 1.5860001
-0.072300449 0.031979047 1.5860001
-0.065348484 0.031979047 1.5860001
-0.033369441 0.031979047 1.5860001
-0.024100149 0.033832904 1.5860001
-0.015850484 0.036428303 1.5860001
-0.14475541 0.044338096 1.5860002
-0.13486814 0.040321406 1.5860001
-0.0208559 0.040321406 1.5860001
-0.0027807867 0.043102194 1.5860001
0.0055615734 0.047273375 1.5860001
0.015294326 0.048663765 1.5860001
0.023636686 0.048663765 1.5860001
-0.14390571 0.055615731 1.5860002
0.015294326 0.051444553 1.5860001
0.02502708 0.051444553 1.5860001
0.034759834 0.053298414 1.5860001
0.043102194 0.057006128 1.5860001
0.051444553 0.059786912 1.5860001
-0.14042972 0.065348484 1.5860001
0.055615734 0.062567696 1.5860001
0.063958094 0.065348484 1.5860001
0.073690854 0.068129271 1.5860001
0.08481399 0.068129271 1.5860001
0.091765955 0.068129271 1.5860001
0.23497647 0.068129271 1.5860001
0.29782227 0.06590464 1.5860001
0.30449614 0.068129271 1.5860001
-0.14042972 0.070910059 1.5860001
-0.13653663 0.07702779 1.5860001
0.079252422 0.070910059 1.5860001
0.098717928 0.070910059 1.5860001
0.10566989 0.073690847 1.5860001
0.1172565 0.072763912 1.5860001
0.12453952 0.072499081 1.5860002
0.13301431 0.076471634 1.5860001
0.17936073 0.079252422 1.5860001
0.18492231 0.078140102 1.5860001
0.19465506 0.076471634 1.5860001
0.20577821 0.075081244 1.5860001
0.21551096 0.073690847 1.5860001
0.22524372 0.070910059 1.5860001
0.23497647 0.070910059 1.5860001
0.29615378 0.073690847 1.5860001
0.30449614 0.070910059 1.5860001
0.31283849 0.072022378 1.5860001
-0.13417295 0.082728401 1.5860001
-0.12930658 0.08620438 1.5860001
0.13579509 0.082960136 1.5860001
0.1452961 0.0834236 1.5860001
0.15572405 0.08481399 1.5860001
0.1640664 0.08481399 1.5860001
0.17379916 0.08203321 1.5860001
-0.12837966 0.091302492 1.5860001
0.49887419 -0.49747676 1.5940001
0.45602041 -0.31348488 1.594
0.46493715 -0.31361797 1.594
0.47567725 -0.31497544 1.594
0.48210528 -0.3116217 1.5940001
0.44717014 -0.30323726 1.594
0.45527515 -0.30472785 1.594
0.4634732 -0.30789527 1.5940002
0.47931048 -0.30882686 1.5940001
0.4855988 -0.30812818 1.5940001
0.49235296 -0.30323726 1.5940002
0.44577277 -0.29485282 1.594
0.45275974 -0.29485282 1.594
0.49328455 -0.29485282 1.5940002
0.43738827 -0.28227615 1.5940001
0.44374016 -0.2857061 1.594
0.45275974 -0.28926319 1.5940001
0.49328455 -0.28460515 1.5940002
0.42341423 -0.27249429 1.5940001
0.43552506 -0.27435753 1.594
0.44018307 -0.27528909 1.5940002
0.48769492 -0.27249429 1.5940001
0.49142134 -0.27715233 1.5940002
0.42285529 -0.26466882 1.5940001
0.43459347 -0.26550728 1.594
0.4401831 -0.26550728 1.5940001
0.47707462 -0.26243296 1.5940001
0.48210528 -0.26271245 1.5940001
0.41689298 -0.25432801 1.594
0.42461199 -0.25392875 1.594
0.43459344 -0.25432801 1.594
0.4401831 -0.25432801 1.5940001
0.46673381 -0.25293061 1.5940001
0.47325504 -0.25572541 1.594
0.4178246 -0.24454618 1.5940002
0.42434582 -0.24454615 1.594
0.43459344 -0.24454618 1.594
0.4401831 -0.24454618 1.5940001
0.46254161 -0.24454618 1.5940002
0.4178246 -0.23616172 1.5940002
0.42279318 -0.23523013 1.594
0.43494281 -0.23651108 1.594
0.44362289 -0.2340119 1.594
0.45415717 -0.23616174 1.594
0.46254161 -0.23895654 1.5940001
0.4178246 -0.22498246 1.5940002
0.42201677 -0.22498246 1.594
0.44577274 -0.22777729 1.5940002
0.4220168 -0.21799543 1.5940001
-0.16070177 0.018166287 1.5940001
-0.15790695 0.01676888 1.5940001
-0.1243692 0.018166287 1.5940002
-0.11458734 0.018166287 1.5940001
-0.10550421 0.017467584 1.5940001
-0.094868392 0.016303077 1.594
-0.085800767 0.017048363 1.5940001
-0.078254774 0.018166287 1.5940001
-0.16126072 0.025432801 1.5940001
-0.15790695 0.02515332 1.5940001
-0.14494917 0.026804799 1.594
-0.13526896 0.025991762 1.594
-0.12604609 0.02487384 1.594
-0.11458734 0.021892704 1.594
-0.1048055 0.021659805 1.5940001
-0.095622547 0.022158878 1.594
-0.085241802 0.0209611 1.5940002
-0.075078852 0.025026284 1.594
-0.064280711 0.026550727 1.594
-0.054498859 0.024314877 1.5940001
-0.04471701 0.023755914 1.5940001
-0.034935165 0.026550727 1.5940001
-0.025619121 0.028413936 1.594
-0.16209917 0.034935165 1.594
-0.15511215 0.035284515 1.594
-0.1467277 0.034136645 1.594
-0.13554844 0.032839056 1.5940001
-0.0209611 0.032140352 1.5940001
-0.014672769 0.032839056 1.5940001
-0.0069870334 0.037729979 1.5940002
-0.16189955 0.044118125 1.594
-0.15511215 0.044717014 1.594
-0.14859091 0.041456398 1.5940002
-0.0055896267 0.040524792 1.5940001
0.0054343599 0.043630142 1.594
0.014672771 0.045415714 1.5940001
0.024687519 0.047046024 1.5940002
0.032140352 0.048909232 1.5940001
-0.16163337 0.052635651 1.5940002
-0.15511215 0.052821971 1.5940001
-0.14859091 0.056362066 1.5940002
0.03633257 0.051704045 1.5940001
0.044717014 0.055896264 1.5940001
-0.14698178 0.064661816 1.594
0.055896267 0.060088485 1.5940001
0.064280704 0.064280704 1.5940001
0.076298401 0.066237077 1.5940001
0.085241809 0.06456019 1.5940001
0.095023654 0.067075521 1.5940001
0.10201069 0.068472929 1.5940001
0.1243692 0.068472929 1.5940002
0.22777729 0.068472929 1.5940001
0.23196951 0.068472929 1.5940001
0.30510044 0.062883295 1.594
0.31413698 0.065119155 1.594
0.32140353 0.068472929 1.5940001
-0.14393289 0.074062549 1.594
0.1057371 0.072199345 1.5940002
0.11318994 0.071267739 1.5940002
0.12995882 0.071267739 1.5940001
0.13554846 0.075925767 1.5940002
0.14393288 0.079652183 1.5940001
0.16489398 0.079652183 1.5940001
0.17523479 0.07853426 1.5940001
0.18445769 0.075459957 1.5940001
0.19563693 0.074062556 1.5940001
0.20541878 0.074062556 1.5940002
0.21939285 0.071267739 1.5940001
0.3172113 0.071267739 1.5940001
-0.13554844 0.086639218 1.5940001
0.1467277 0.082446992 1.5940001
0.15511213 0.082446992 1.5940002
0.16489398 0.082446992 1.5940001
-0.13368523 0.091763042 1.5940002
0.49721518 -0.4960081 1.6067144
0.4979265 -0.48523149 1.6090001
0.43868312 -0.33289135 1.6090001
0.44518009 -0.33482671 1.6069999
0.45515957 -0.3339695 1.6074002
0.46548367 -0.33289137 1.6090001
0.47535759 -0.33430192 1.6090001
0.48212823 -0.33373767 1.609
0.43831721 -0.32556626 1.6076669
0.44450623 -0.3241896 1.6038569
0.45399222 -0.32486629 1.601
0.46470642 -0.32498944 1.6033999
0.47412553 -0.3245886 1.6016666
0.48437607 -0.32468116 1.605
0.49440011 -0.32301748 1.6090001
0.42598811 -0.31455413 1.6090001
0.43805593 -0.31330326 1.6067144
0.44505641 -0.31442279 1.6023334
0.45294347 -0.31619826 1.601
0.46737993 -0.31860432 1.6010001
0.47018701 -0.31860432 1.6010001
0.48738042 -0.31614813 1.601
0.4949078 -0.31446245 1.6044285
0.42457756 -0.30468026 1.6089998
0.4349238 -0.30439207 1.6061761
0.44351968 -0.30456892 1.601
0.49755609 -0.30527067 1.6010001
0.41893533 -0.29339576 1.6090001
0.42434147 -0.29464504 1.6081111
0.43520266 -0.29469171 1.6047645
0.44211614 -0.2947441 1.6010001
0.49825788 -0.2947441 1.6010001
0.41799498 -0.28493243 1.6090001
0.42410314 -0.28492805 1.6063334
0.4334904 -0.28514031 1.6034615
0.49825788 -0.28491929 1.6010002
0.41752896 -0.27412927 1.6072223
0.42511737 -0.27524555 1.6027778
0.43249181 -0.27649805 1.601
0.49651593 -0.27646911 1.6090001
0.41514027 -0.26541334 1.6052666
0.42583504 -0.26583111 1.6010001
0.43088779 -0.2652697 1.6010002
0.48824632 -0.26451838 1.605
0.40765086 -0.25531077 1.6090001
0.41294685 -0.25551051 1.6034615
0.42808071 -0.25825197 1.6010001
0.4758012 -0.25263783 1.601
0.48342377 -0.25576049 1.603
0.40765086 -0.24684741 1.6090001
0.41353726 -0.24474913 1.6044998
0.42808071 -0.24421653 1.6010001
0.46796378 -0.24451636 1.6029999
0.4742313 -0.24713123 1.6040001
0.48241037 -0.24825796 1.6090001
0.40765089 -0.23415241 1.6090001
0.41412672 -0.23471639 1.6046922
0.42808071 -0.23439173 1.6010002
0.43369487 -0.2331887 1.601
0.45802295 -0.23252034 1.6010002
0.46381435 -0.23541883 1.6042001
0.40765089 -0.22568907 1.6090001
0.41389737 -0.22478256 1.6042939
0.42808071 -0.22456694 1.6010001
0.43509841 -0.22456694 1.601
0.44464248 -0.22372481 1.6010001
0.45403942 -0.22521693 1.6045556
0.46125203 -0.22992073 1.6090001
0.40671054 -0.21393442 1.6090001
0.41446149 -0.21479189 1.6039999
0.42471224 -0.21418071 1.6010001
0.43420684 -0.21393166 1.6054999
0.44449094 -0.21475057 1.6068181
0.45278868 -0.21863629 1.6090001
0.40671051 -0.20641147 1.6090001
0.41507429 -0.20542423 1.6049999
0.42410591 -0.20478378 1.6036667
0.43351105 -0.20641147 1.6090001
0.41752476 -0.1988885 1.6090001
0.42387229 -0.19818322 1.6090001
0.4979265 -0.17349847 1.6090001
-0.17067735 0.0098738968 1.6090001
-0.16422911 0.0074557993 1.6090001
-0.15585682 0.0073607853 1.6081113
-0.14536908 0.0073870122 1.6060001
-0.13488078 0.006603661 1.6065383
-0.12535229 0.0064738328 1.6066
-0.11541825 0.0059112464 1.6068665
-0.10471988 0.0058650463 1.607
-0.095040806 0.0060211974 1.6044284
-0.084493138 0.0070364196 1.6063333
-0.075107418 0.0078518027 1.6078571
-0.06700144 0.0091686184 1.6090001
-0.17255808 0.016456494 1.6090001
-0.1647741 0.015105624 1.6029999
-0.15370333 0.015172295 1.6026001
-0.14456496 0.015438978 1.601
-0.13474016 0.015438978 1.601
-0.12491535 0.014035434 1.601
-0.11509055 0.014035434 1.601
-0.10470434 0.013754725 1.6010001
-0.095908798 0.01263189 1.6010002
-0.083276905 0.013567585 1.601
-0.074036911 0.015088091 1.601
-0.06461443 0.015449497 1.6023332
-0.05490914 0.015834572 1.6059999
-0.045676209 0.017102137 1.6067144
-0.035200793 0.018306846 1.6063334
-0.17452432 0.025005322 1.609
-0.16670977 0.025731627 1.601
-0.15354764 0.024702361 1.6010001
-0.14456496 0.02105315 1.6010002
-0.13754725 0.02105315 1.6010001
-0.072984248 0.02105315 1.6010001
-0.064562991 0.02105315 1.6010001
-0.056141734 0.02105315 1.6010001
-0.044913385 0.02105315 1.6010001
-0.034527164 0.022175986 1.6010001
-0.025033567 0.023340899 1.6042
-0.015477548 0.027081329 1.6050001
-0.0056422269 0.029621691 1.6090001
-0.17302828 0.035263915 1.6090001
-0.16772345 0.03438681 1.6010001
-0.15579331 0.032281496 1.6010001
-0.0051494422 0.034188733 1.6027778
0.005066081 0.035734862 1.6049999
0.014939277 0.036918707 1.6074002
0.025390022 0.038085029 1.6090001
-0.17124158 0.044291478 1.609
-0.16646025 0.045755513 1.6010001
0.0084212599 0.040702756 1.6010001
0.016000394 0.041825593 1.6010001
0.025825197 0.042948425 1.6010001
0.034892015 0.045214277 1.6063335
0.04453329 0.048160434 1.6090001
0.052190598 0.047958925 1.6090001
0.06347505 0.049369484 1.6090001
0.077580616 0.049369484 1.6090001
-0.17067735 0.052190598 1.6090001
-0.16515025 0.055673882 1.601
-0.15579331 0.056843504 1.6010001
0.045928568 0.052953299 1.6036667
0.054920539 0.05491586 1.6063333
0.065013841 0.05526818 1.609
0.074759498 0.055364348 1.6090001
0.084028877 0.056623779 1.6090001
0.094507299 0.057127543 1.6090001
0.1046633 0.057268597 1.609
0.11594775 0.055575937 1.609
0.12497532 0.05670438 1.609
0.13118178 0.057832822 1.6090001
0.307376 0.057545274 1.6010001
0.31412828 0.055224083 1.605
0.32019636 0.056422263 1.6090001
-0.16288553 0.061493784 1.6063334
-0.15579332 0.064562999 1.601
0.065164514 0.061555397 1.601
0.074387796 0.061755907 1.601
0.083744757 0.061288059 1.601
0.095650665 0.06288106 1.6018889
0.10520483 0.063961744 1.6036668
0.11512519 0.064581849 1.6014999
0.12498626 0.063192956 1.6018889
0.13345708 0.065597281 1.6058
0.14599261 0.068411998 1.6090001
0.15572545 0.066860393 1.609
0.16503513 0.066296168 1.6090001
0.17452432 0.066552624 1.609
0.18337236 0.069117278 1.6090001
0.19747794 0.069117278 1.6090001
0.20509493 0.067988828 1.609
0.21427047 0.067663759 1.608
0.2252709 0.066872567 1.6060002
0.23506215 0.063082956 1.6080002
0.31486154 0.060352366 1.6010002
0.32702559 0.06877362 1.6010001
-0.15298623 0.071580708 1.6010001
0.13796683 0.073897913 1.6026001
0.14504653 0.074630924 1.6063334
0.15516122 0.074759506 1.6089998
0.16502075 0.074777201 1.6034
0.1742668 0.073612623 1.6045556
0.18423167 0.072846614 1.6042
0.19441311 0.071848966 1.6070001
0.20491733 0.071580708 1.6010001
0.21474212 0.071580708 1.6010002
0.14456496 0.080001973 1.6010001
0.15438977 0.080001973 1.6010001
0.16561812 0.080001973 1.6010001
0.30891192 0.10297063 1.6090001
0.31314355 0.10438119 1.6090001
0.49584267 -0.49442598 1.6160001
0.49725935 -0.48450911 1.6160001
0.41650784 -0.34142309 1.6160001
0.42736915 -0.34236756 1.6160001
0.43775824 -0.34142309 1.6160001
0.44455832 -0.34312314 1.6159999
0.45419186 -0.34255642 1.6159999
0.47459224 -0.34142312 1.6160001
0.48309243 -0.34142312 1.6160001
0.40618619 -0.33211342 1.6160001
0.41509107 -0.33433962 1.6159998
0.42500794 -0.33433962 1.6159997
0.43634152 -0.33433962 1.6160001
0.44200832 -0.3385897 1.6160001
0.45759195 -0.3385897 1.6160001
0.4646754 -0.3385897 1.6160001
0.47459227 -0.3385897 1.6160001
0.4881925 -0.33518964 1.6159999
0.49336347 -0.33363128 1.6160001
0.40694514 -0.32477695 1.6160001
0.4150911 -0.32442278 1.6160001
0.42500797 -0.32442281 1.6159998
0.43527901 -0.32406864 1.6160001
0.49725935 -0.32725614 1.6160001
0.40800765 -0.31450593 1.6160001
0.41509107 -0.31450593 1.6159998
0.42197224 -0.31511307 1.6160001
0.43386233 -0.31556842 1.6160001
0.40740052 -0.30418429 1.6160001
0.4150911 -0.30458903 1.6160001
0.42075792 -0.30458906 1.6160001
0.40633342 -0.29583135 1.6159999
0.41483352 -0.29505861 1.6159999
0.42075792 -0.2989223 1.6160001
0.40800768 -0.28333867 1.6160001
0.41473693 -0.28510952 1.6160001
0.4084799 -0.27389404 1.6160001
0.4132022 -0.27578297 1.6160001
0.49584267 -0.27200514 1.6160001
0.39809081 -0.26492167 1.6160001
0.40517429 -0.26492167 1.6159998
0.49513432 -0.26563001 1.6160001
-0.14521106 -0.25712985 1.6160001
0.39687651 -0.25439766 1.6160001
0.4037576 -0.25500479 1.6159998
0.48875919 -0.25075471 1.6160001
0.49159256 -0.25642151 1.6160001
0.39561161 -0.24544212 1.6160001
0.40432423 -0.24480462 1.6159999
0.4764812 -0.24319904 1.6160001
0.48238409 -0.24508795 1.6160001
0.38959065 -0.23942117 1.6160001
0.39667413 -0.23517108 1.6160001
0.40419346 -0.23549801 1.6159998
0.46750879 -0.23233771 1.6160001
0.47175887 -0.23942117 1.6160001
0.39667413 -0.22525422 1.6160001
0.4037576 -0.22525424 1.6160001
0.461842 -0.22525424 1.6160001
0.39714634 -0.21628183 1.6160001
0.40319091 -0.21562073 1.6159999
0.44909179 -0.212504 1.6160001
0.45419186 -0.21505404 1.6159999
0.39809081 -0.20683724 1.6160001
0.40446594 -0.20506635 1.6160001
0.43563318 -0.20329548 1.6160001
0.44455832 -0.20712057 1.6159999
0.4072206 -0.19660555 1.6160001
0.41483352 -0.19511732 1.6159999
0.42513677 -0.19382943 1.6159999
0.43350816 -0.19975376 1.6160001
0.40942436 -0.18842021 1.6160001
0.41792452 -0.18842021 1.6160001
0.42217463 -0.18842021 1.6160001
0.49584267 -0.18275344 1.6160001
0.49604505 -0.17627713 1.6160001
-0.16256556 -0.0038959063 1.6160001
-0.15300289 -0.0014166933 1.6160001
-0.14450273 -0.0014166933 1.6160001
-0.13458586 -0.0014166933 1.6160001
-0.12406186 -0.0026310014 1.6160001
-0.11475215 -0.0028333867 1.6160001
-0.10511865 -0.0019833706 1.6159999
-0.097751841 -0.0014166933 1.6160001
-0.18275344 0.0099168532 1.6160001
-0.1742533 0.0067292931 1.6160001
-0.16688648 0.0031167255 1.6159999
-0.15482435 0.0034405407 1.6160001
-0.14421938 0.0019833706 1.6159999
-0.13600257 0.0014166933 1.6160001
-0.1260857 0.0014166933 1.6160001
-0.11758555 0.0014166933 1.6160001
-0.106252 0.0014166933 1.6160001
-0.085001603 0.0014166933 1.6160001
