# .PCD v0.7 - Point Cloud Data file format
VERSION 0.7
FIELDS x y z
SIZE 4 4 4
TYPE F F F
COUNT 1 1 1
WIDTH 1460
HEIGHT 1
VIEWPOINT 0 0 0 1 0 0 0
POINTS 1460
DATA ascii
0.12484188 0.0051114927 1.2161
0.13560341 0.0049498132 1.2154782
0.14445379 0.0040377518 1.2134
0.15376666 0.0028617096 1.2135384
0.1646906 0.0021232865 1.2120001
0.1744469 0.0016689228 1.2122859
0.18351264 0.0010607666 1.21
-0.090835817 0.018167162 1.2190001
-0.084118553 0.016182514 1.219
-0.074458055 0.015408545 1.2182857
-0.065008208 0.014916351 1.2155501
-0.055096094 0.014468288 1.2115002
-0.044988986 0.01466354 1.21
-0.034702223 0.013638427 1.21
-0.024700711 0.012274587 1.21
-0.014497145 0.011668433 1.21
-0.0084861331 0.011668433 1.21
0.0042430665 0.011668433 1.21
0.011668433 0.011668433 1.21
-0.092545673 0.026075223 1.219
-0.084816702 0.024228277 1.2162728
-0.075161666 0.024743576 1.2134784
-0.065289669 0.02394958 1.2118182
-0.058342166 0.021215335 1.21
-0.093267255 0.031680837 1.2181667
-0.084714629 0.033954006 1.2129333
-0.076468535 0.033894513 1.2104706
-0.068949834 0.031823002 1.21
0.21745716 0.19836336 1.21
0.21717663 0.20655914 1.2108001
0.21676642 0.21580559 1.2115455
0.2259433 0.21851793 1.21
0.21832052 0.22301945 1.2172
0.22459838 0.22593638 1.2135
0.2323079 0.22700407 1.21
0.20838805 0.23831044 1.2190001
0.21337514 0.23688556 1.2190001
0.22391437 0.23444079 1.2179285
0.23232469 0.23354827 1.2148572
0.20838805 0.24151641 1.2190001
0.21565492 0.24343999 1.2190001
0.22318482 0.24406473 1.219
0.36895481 -0.4808245 1.2270001
0.37368774 -0.48125476 1.2270001
0.37472287 -0.4744648 1.2257271
0.38061798 -0.47389621 1.223
0.37475762 -0.46508577 1.2248822
0.37646669 -0.45530516 1.2251998
0.38061798 -0.45638418 1.223
0.37640712 -0.44523636 1.22675
0.38061798 -0.44494778 1.223
0.37665436 -0.43587282 1.2269999
0.38302851 -0.43457592 1.2250001
0.37971151 -0.42488965 1.2270001
0.38590637 -0.42558941 1.2259228
0.39133963 -0.4235045 1.223
0.38589984 -0.4152028 1.2255453
0.3913396 -0.41599938 1.223
0.38633287 -0.40578729 1.226238
0.38765019 -0.39517331 1.22575
0.3913396 -0.3913396 1.223
0.3874169 -0.38612682 1.2262002
0.391507 -0.38399559 1.2242
0.38831687 -0.37756014 1.2270001
0.39366332 -0.37453255 1.2254761
0.3965379 -0.36553404 1.2260767
0.40178248 -0.36171064 1.2243334
0.39758566 -0.35554945 1.2266365
0.40310737 -0.35406113 1.2238572
0.39853576 -0.34797925 1.2270001
0.40528721 -0.34522191 1.2254345
0.41063854 -0.34309226 1.223
0.40800989 -0.33502987 1.2270001
0.41366488 -0.33410165 1.2245555
0.40983027 -0.32485235 1.2270001
0.41508117 -0.32473788 1.2252221
0.42136019 -0.32486549 1.223
0.40983027 -0.31947398 1.2270001
0.41647968 -0.31566602 1.2259998
0.42227921 -0.31475654 1.2230002
0.41791356 -0.30559725 1.2260002
0.42225567 -0.30461031 1.2247144
0.41843563 -0.29796058 1.2270001
0.42239204 -0.29583442 1.2260002
0.22481503 -0.02043773 1.2270001
0.23987441 -0.02043773 1.2270001
0.24525276 -0.02043773 1.2270001
0.25574052 -0.021244483 1.2270001
0.26609212 -0.022971626 1.22575
0.27505669 -0.02376369 1.225
0.28519103 -0.025537906 1.2254615
0.29491019 -0.024697404 1.2246841
0.30127791 -0.024659757 1.223
0.16780452 -0.011832369 1.2270001
0.17468636 -0.012171641 1.2250001
0.18501525 -0.011832369 1.2270001
0.19543393 -0.012436017 1.2258574
0.2054249 -0.013809754 1.2250001
0.21514131 -0.015395143 1.225
0.22558683 -0.016498787 1.2248183
0.23453322 -0.015478583 1.2248822
0.24481063 -0.017869389 1.223
0.25517488 -0.018226776 1.223
0.26482433 -0.018226776 1.223
0.27232948 -0.018226776 1.223
-0.073145561 -0.00107567 1.2270001
-0.064693861 -0.0016903385 1.2270001
-0.054859169 -0.00215134 1.2270001
-0.045178138 -0.0027967421 1.2270001
-0.035488453 -0.0032267764 1.2267334
-0.024716688 -0.0037321767 1.2258234
-0.015767144 -0.0035849826 1.2263334
-0.004986879 -0.0024443858 1.2266365
0.0050379336 -0.0035539395 1.2248461
0.015200024 -0.0050680102 1.2258574
0.023634497 -0.0056415694 1.2255001
0.034941886 -0.0053682197 1.2243334
0.044818781 -0.0067400527 1.2251819
0.055102628 -0.0073697614 1.2255715
0.065846816 -0.0073697614 1.2255715
0.075259514 -0.0061523672 1.2248181
0.085018106 -0.005192643 1.225
0.09508317 -0.0063247602 1.2247778
0.10443708 -0.0053713364 1.2250001
0.11466298 -0.0024411979 1.2244546
0.12531009 -0.0030698362 1.2247143
0.1346655 -0.0035782615 1.224
0.14428312 -0.003755494 1.2236667
0.15530165 -0.0042946651 1.2241428
0.16490714 -0.0070213582 1.2245387
0.17437273 -0.0082848975 1.2229999
0.18456528 -0.0090368045 1.2230002
0.19406156 -0.0096494695 1.223
0.20263886 -0.0096494695 1.223
-0.10111298 0.0096810302 1.2270001
-0.094013557 0.007744824 1.2270001
-0.085342117 0.0070216362 1.2267647
-0.074768171 0.0060007833 1.2255883
-0.065859161 0.003723925 1.2244116
-0.055231899 0.0026807003 1.2233332
-0.044816427 0.0015010287 1.223
-0.035381388 0.0010721633 1.223
-0.012865961 0.0010721633 1.223
-0.0064329798 0.0010721633 1.223
0.1254431 0.0010721633 1.223
-0.10333601 0.015704783 1.227
-0.094690576 0.014813153 1.2246001
-0.085415684 0.012151184 1.223
-0.077195764 0.011793797 1.223
-0.10457593 0.023648959 1.226143
-0.097137995 0.023659073 1.2229998
-0.099711187 0.031092737 1.223
0.21642382 0.22714545 1.2230002
0.21573116 0.23444813 1.2231816
0.22729862 0.23533985 1.223
0.23390958 0.23789491 1.2247144
0.20821412 0.24809858 1.223
0.2152904 0.24584703 1.2229998
0.22742312 0.24637516 1.2236668
0.23334776 0.24462944 1.2256669
0.21657319 0.25434187 1.225
0.2251858 0.25560325 1.2253157
0.23126905 0.25170678 1.2270001
0.2257845 0.26479641 1.2264287
0.22743569 0.27435866 1.2256668
0.36452764 -0.48389429 1.2335241
0.3704583 -0.48278385 1.2320001
0.36602634 -0.47511074 1.2337143
0.3704583 -0.47522348 1.2320001
0.36645934 -0.46531102 1.2340001
0.37126836 -0.46469295 1.2320002
0.36717221 -0.4554964 1.2336668
0.37207839 -0.4545224 1.2320002
0.36793202 -0.44476527 1.2344002
0.37153837 -0.44498199 1.2320002
0.36862713 -0.4371081 1.2360001
0.37292278 -0.4340075 1.2325336
0.37616143 -0.42480406 1.2330002
0.38125882 -0.42338091 1.2320001
0.37724048 -0.41484165 1.2335387
0.38125882 -0.41474047 1.2320001
0.37761539 -0.40527251 1.2337145
0.38255489 -0.40415597 1.2320002
0.37810889 -0.39601773 1.2345456
0.38298145 -0.39468494 1.2323335
0.38369811 -0.38510424 1.2336001
0.38666356 -0.37477016 1.2335557
0.38742331 -0.36517978 1.2344445
0.39292341 -0.36354595 1.2320001
0.38929844 -0.35826913 1.2346667
0.39353588 -0.35529178 1.2332501
0.39615646 -0.34533128 1.2335558
0.40255132 -0.34175974 1.2320002
0.3973892 -0.33520553 1.2351429
0.40347713 -0.33450794 1.2320002
0.39940023 -0.32571813 1.2360001
0.40502 -0.3250961 1.2320002
0.40593144 -0.31538135 1.2347828
0.41285041 -0.31456554 1.2320002
0.4080196 -0.30558008 1.2352002
0.41327825 -0.30498737 1.2328002
0.41495377 -0.29557309 1.2337145
0.42106649 -0.2936202 1.2320002
0.41513398 -0.28466901 1.2336843
0.42086077 -0.2858541 1.2320002
0.41507709 -0.27622521 1.2356365
0.4208228 -0.27910435 1.2340001
0.26872289 -0.031423241 1.2360001
0.27522424 -0.031423241 1.2360001
0.28569862 -0.031784426 1.2360001
0.29537848 -0.033373646 1.2360001
0.30448985 -0.033832528 1.2355295
0.31271541 -0.03705775 1.2360001
0.20541203 -0.021206817 1.2360001
0.21534789 -0.021644549 1.2344
0.22549814 -0.023694156 1.2346668
0.23500577 -0.022560388 1.2337143
0.24568264 -0.024335973 1.2336669
0.25490206 -0.026281461 1.2342857
0.26394042 -0.027624244 1.2334547
0.27541357 -0.029161442 1.2320001
0.28513408 -0.02916144 1.2320001
0.29917479 -0.02916144 1.2320001
0.30349499 -0.028081387 1.2320002
-0.04225884 -0.01191916 1.2360001
-0.034646742 -0.011909517 1.2350001
-0.024371771 -0.012727009 1.2355001
-0.015882278 -0.012635104 1.2353334
-0.0054178 -0.01191916 1.2360001
0.0054178 -0.01191916 1.2360001
0.015808053 -0.012344869 1.2352002
0.024921879 -0.01191916 1.2360001
0.035035107 -0.013363908 1.2360001
0.044367049 -0.014069914 1.2344002
0.054859374 -0.01373804 1.2344615
0.065232605 -0.01387524 1.2345456
0.074664824 -0.013528428 1.2343335
0.084734395 -0.013219433 1.2360001
0.094890393 -0.013351048 1.2346667
0.10402176 -0.013002721 1.2360001
0.12894364 -0.01191916 1.2360001
0.13977924 -0.01191916 1.2360001
0.14519703 -0.01191916 1.2360001
0.15587784 -0.012538338 1.2360001
0.16518819 -0.013856593 1.2348001
0.17478146 -0.015423635 1.2345002
0.18484886 -0.015034248 1.2346667
0.1952448 -0.016231403 1.234182
0.20387818 -0.018010823 1.2326669
0.21349055 -0.018360907 1.2320001
-0.10207134 -0.0023838319 1.2360001
-0.095301844 -0.0032500958 1.2353334
-0.085133493 -0.0039709113 1.2344446
-0.074928232 -0.0060021388 1.2338183
-0.065449007 -0.0064937626 1.2340001
-0.05460231 -0.0070296987 1.2333335
-0.045407481 -0.0080018621 1.2332002
-0.03564176 -0.0086404271 1.2320002
-0.024841227 -0.0089104408 1.2320002
-0.014051213 -0.0081082899 1.2330002
-0.0057151159 -0.0077259378 1.2334287
0.0054034228 -0.008649895 1.2332002
0.014657867 -0.0087947194 1.2320002
0.025651267 -0.0089104399 1.2320002
0.036451798 -0.0089104408 1.2320002
0.045362242 -0.0097204801 1.2320001
0.050762508 -0.0097204801 1.2320001
0.061563041 -0.0097204801 1.2320001
0.076683789 -0.0097204801 1.2320001
0.084398448 -0.0091033066 1.2320002
0.095044695 -0.0097204801 1.2320001
0.10620378 -0.0086474409 1.2330002
0.11562829 -0.0075776372 1.2344617
0.12481824 -0.0087709529 1.2333335
0.13522583 -0.0086562056 1.2340002
0.14490291 -0.0086522615 1.2335001
0.153823 -0.0089222742 1.2335001
0.162008 -0.0097204801 1.2320001
-0.12027516 0.0086684804 1.2360001
-0.11363326 0.0065741916 1.2344617
-0.10495773 0.0052061253 1.2330912
-0.095692731 0.003024149 1.2320002
-0.084514178 0.0018900932 1.2320002
-0.07812386 0.0018000888 1.2320001
-0.13111076 0.018420519 1.2360001
-0.12337103 0.015943808 1.2360001
-0.11450954 0.015123158 1.2322502
-0.10778932 0.013176652 1.2320001
-0.1246094 0.02058764 1.2360001
-0.11383762 0.02246511 1.2320002
-0.1074653 0.026461307 1.2320001
0.23869179 0.243012 1.2320001
0.21311416 0.25801176 1.2340001
0.21671814 0.26474634 1.2345002
0.22336714 0.26751509 1.2325716
0.21903393 0.27475989 1.2360001
0.22393166 0.27550009 1.2340001
0.22588262 0.28370899 1.2352002
0.34817255 -0.49660975 1.245
0.35382849 -0.49324498 1.2434
0.36077654 -0.49228287 1.2418001
0.35450417 -0.48456573 1.2442383
0.36160836 -0.48481011 1.2436666
0.35493955 -0.47609049 1.245
0.36280587 -0.47496653 1.2438573
0.3633309 -0.4650448 1.2439091
0.36504209 -0.45493832 1.2444667
0.36583421 -0.44560927 1.245
0.3668831 -0.43704775 1.245
0.37059543 -0.43353057 1.2438571
0.36709103 -0.42275491 1.245
0.37200579 -0.4246065 1.2435
0.36738211 -0.4149693 1.245
0.3731828 -0.41498545 1.2438889
0.37385365 -0.40531322 1.2450001
0.37671068 -0.39507523 1.2443333
0.37709597 -0.38473615 1.245
0.38174951 -0.38465846 1.2445556
0.37791455 -0.37518594 1.245
0.38267782 -0.37441993 1.2441429
0.37873316 -0.36454427 1.245
0.38372448 -0.36396825 1.2435002
0.38596725 -0.35520408 1.2444003
0.39150676 -0.35268125 1.2416667
0.38766319 -0.34460056 1.245
0.39298585 -0.34434077 1.2423334
0.38762066 -0.33538702 1.245
0.39368719 -0.33428323 1.2426
0.38964763 -0.32852644 1.245
0.39562973 -0.3259505 1.2439476
0.40128979 -0.32270536 1.245
0.39659327 -0.31562755 1.245
0.40227637 -0.31435829 1.2440768
0.39692399 -0.30524221 1.245
0.40379789 -0.30421224 1.2433639
0.39837924 -0.29796585 1.245
0.40555766 -0.29525959 1.2443335
0.41180491 -0.29417843 1.2423334
0.40711078 -0.28486842 1.2450001
0.4117392 -0.28457016 1.2425001
0.40730926 -0.27534306 1.245
0.41302368 -0.27401969 1.2420001
0.42451668 -0.27429095 1.2429999
0.40711084 -0.26958814 1.245
0.41537377 -0.26545948 1.2439476
0.42420065 -0.26593798 1.244579
0.41580322 -0.25485325 1.2443846
0.42184621 -0.25572592 1.2434
0.41627902 -0.24819572 1.245
0.42020825 -0.2466677 1.245
0.2772283 -0.040383648 1.245
0.285804 -0.041007336 1.245
0.29455546 -0.042159479 1.2436666
0.30454585 -0.042685397 1.2438573
0.31409726 -0.042148668 1.2433333
0.32306919 -0.04474945 1.245
0.23138739 -0.031652048 1.245
0.24732256 -0.03208863 1.245
0.25509027 -0.032705367 1.2435
0.26482853 -0.03378693 1.2431538
0.27565747 -0.035622403 1.2428461
0.2848323 -0.036097828 1.2419231
0.29374468 -0.036990076 1.2410001
0.30680001 -0.038078018 1.2410001
0.31006384 -0.038078018 1.2410001
-0.024011901 -0.020737549 1.245
-0.0174632 -0.020737549 1.245
0.043657999 -0.020737549 1.245
0.0545725 -0.020737549 1.245
0.064395547 -0.020737549 1.245
0.075310051 -0.020737549 1.245
0.085133098 -0.020737549 1.245
0.09550187 -0.020737549 1.245
0.10477921 -0.021828998 1.245
0.11023645 -0.021829 1.245
0.16480894 -0.020737549 1.245
0.17485029 -0.021174129 1.245
0.19709677 -0.022412369 1.2436666
0.20552631 -0.025655968 1.2428182
0.21569376 -0.027077453 1.2436668
0.22460799 -0.027842375 1.2431818
0.23578812 -0.028482525 1.2427143
0.24426454 -0.028594017 1.2425001
0.25240284 -0.029374469 1.2410001
-0.11023645 -0.01200595 1.245
-0.10368774 -0.01200595 1.245
-0.094410427 -0.012824537 1.245
-0.085031845 -0.013082935 1.2435
-0.075001627 -0.013377535 1.2431818
-0.064395547 -0.0130974 1.245
-0.053847335 -0.014181837 1.2442727
-0.045051556 -0.015018987 1.2440768
-0.034871459 -0.01634779 1.243
-0.02545497 -0.017137479 1.2428182
-0.015255753 -0.016892051 1.243
-0.0054484839 -0.015257506 1.243
0.0054526916 -0.015266624 1.2438
0.015255753 -0.015802354 1.243
0.025379624 -0.016507134 1.2432858
0.034412049 -0.017596578 1.2432858
0.04463724 -0.018506959 1.2418001
0.054443631 -0.018509941 1.2420001
0.063962765 -0.018172132 1.2436666
0.075164877 -0.018518884 1.2426001
0.085584879 -0.017769741 1.2410001
0.095113732 -0.017716337 1.2435
0.10563044 -0.017424978 1.2422001
0.1153272 -0.015045647 1.2433999
0.12503459 -0.014327238 1.2432858
0.13569257 -0.015005501 1.2428463
0.1448821 -0.016342528 1.2426001
0.15483527 -0.016520346 1.2423334
0.16419353 -0.017898904 1.2427143
0.17515889 -0.018495036 1.2410001
0.18524668 -0.018524844 1.243
0.19147801 -0.018495036 1.2410001
-0.14079705 -0.00109145 1.245
-0.13697697 -0.002728625 1.245
-0.12115095 -0.00109145 1.245
-0.11406738 -0.004815015 1.2447648
-0.10585775 -0.0059665418 1.243353
-0.094803616 -0.0087193269 1.243
-0.085569158 -0.009362625 1.2418001
-0.057660997 -0.0097914897 1.2410001
-0.14370759 0.0054572504 1.2450002
-0.1354598 0.0059351311 1.243889
-0.12550648 0.005553517 1.2438574
-0.11726147 0.0025397036 1.2423333
-0.14122078 0.013430825 1.2423334
-0.13511887 0.014166057 1.243
-0.1280842 0.013424397 1.2416668
0.21287425 0.26654613 1.2410001
0.21630304 0.27487555 1.243
0.21829 0.2815941 1.245
0.22271378 0.28590369 1.2427143
0.22723672 0.29172856 1.2426001
0.23101392 0.29204047 1.243
0.3384752 -0.49483597 1.2589999
0.34508741 -0.4952426 1.2558079
0.33884305 -0.48784572 1.2590001
0.34554863 -0.48495132 1.2553333
0.35505 -0.48107082 1.25
0.34708121 -0.47567093 1.2563752
0.35402137 -0.47406435 1.2511111
0.36052915 -0.4734 1.25
0.34877583 -0.46513346 1.2586364
0.35439155 -0.46502995 1.2532609
0.36096749 -0.46485251 1.25
0.34932843 -0.45528591 1.2590001
0.35516706 -0.45509171 1.2536668
0.36162499 -0.45477086 1.25
0.34988031 -0.44369677 1.2590001
0.3556475 -0.44505805 1.2560002
0.3622542 -0.44417155 1.2504545
0.34988031 -0.43707442 1.2590001
0.35592955 -0.43485019 1.2566367
0.36423069 -0.43424901 1.2516191
0.35619783 -0.42501506 1.2575264
0.36331373 -0.4247812 1.2520626
0.35552788 -0.41522038 1.2580001
0.36394441 -0.41464838 1.253077
0.35748371 -0.4062928 1.2589999
0.36619785 -0.40508842 1.2553753
0.3714875 -0.40436253 1.25
0.35871008 -0.39734042 1.2590001
0.36763996 -0.3955822 1.2560626
0.37295094 -0.39472416 1.2507143
0.36754644 -0.38529062 1.2561111
0.37315848 -0.38458961 1.2503573
0.36796716 -0.37634915 1.2581999
0.37371117 -0.37454906 1.2525717
0.36974731 -0.36974731 1.2590001
0.3757138 -0.36555985 1.2543811
0.38025415 -0.36052915 1.25
0.37742412 -0.35540989 1.2556669
0.38194042 -0.35387483 1.2505
0.37741476 -0.3456246 1.2567145
0.38339174 -0.34564596 1.2516668
0.37824106 -0.33600882 1.2566668
0.38247022 -0.33433354 1.2514374
0.37857711 -0.32670212 1.2590001
0.38498786 -0.32508308 1.253844
0.39174789 -0.32313994 1.2507143
0.38461736 -0.31493571 1.2580911
0.39323735 -0.31471941 1.2513158
0.38609499 -0.30521756 1.2569001
0.39410347 -0.30442333 1.251905
0.38693386 -0.29579788 1.2589999
0.39537022 -0.29478651 1.2530359
0.4030475 -0.29214916 1.25
0.38866827 -0.28523365 1.2589999
0.39552829 -0.28479031 1.2539262
0.40292916 -0.28426445 1.251
0.41312915 -0.28820416 1.25
0.38961434 -0.27924201 1.2590001
0.39616919 -0.27505091 1.256
0.40303582 -0.27490804 1.2513334
0.39661327 -0.26719961 1.2574
0.40481189 -0.26513994 1.2541853
0.4121899 -0.26409581 1.25
0.4066225 -0.25547817 1.2570002
0.41238371 -0.25491995 1.2510713
0.40892947 -0.24668217 1.2590001
0.41431645 -0.24488181 1.2530801
0.41574013 -0.23521963 1.2556088
0.41610369 -0.22847073 1.2590001
0.41610369 -0.211363 1.2590001
0.415903 -0.20559357 1.2589999
0.41389623 -0.19977392 1.2590001
0.28696805 -0.051874995 1.2590001
0.29469413 -0.051874995 1.2590001
0.30462766 -0.051874995 1.2590001
0.31538895 -0.052702788 1.2589999
0.32449466 -0.052978724 1.2589999
0.33348218 -0.054082446 1.2589999
0.21964094 -0.040837765 1.2590001
0.22515956 -0.040837765 1.2590001
0.23288564 -0.041941483 1.2589999
0.24502657 -0.040837765 1.2590001
0.25471708 -0.041902561 1.2578
0.2651296 -0.041761186 1.2572223
0.27522331 -0.044572264 1.256053
0.2844362 -0.046495229 1.2527224
0.29480785 -0.047591045 1.2518182
0.30470741 -0.048448011 1.2527778
0.31487897 -0.047837511 1.2515
0.32322261 -0.047174633 1.2513636
0.044148933 -0.032007977 1.2590001
0.055186167 -0.032007977 1.2590001
0.065119676 -0.032007977 1.2590001
0.089401588 -0.032007977 1.2590001
0.094920203 -0.032007977 1.2590001
0.10264627 -0.032007977 1.2590001
0.12803191 -0.032007977 1.2590001
0.13134308 -0.032007977 1.2590001
0.16886967 -0.032007977 1.2590001
0.175492 -0.032007977 1.2590001
0.18616134 -0.032743793 1.2589999
0.19580567 -0.033646617 1.2583333
0.20519218 -0.03507128 1.2579334
0.21480563 -0.035254404 1.2565503
0.22541705 -0.035192907 1.2543001
0.23599435 -0.035415232 1.2544001
0.24509777 -0.036020316 1.2544374
0.25506809 -0.037170663 1.2511111
0.26390371 -0.038014457 1.2508334
0.27176666 -0.038354166 1.25
-0.1412766 -0.022074467 1.2590001
-0.13796541 -0.02317819 1.2590001
-0.1242302 -0.022442376 1.2589999
-0.11518222 -0.023291033 1.2564287
-0.10433775 -0.023883225 1.2572225
-0.094750799 -0.024241365 1.2567502
-0.08482375 -0.023136349 1.2566001
-0.074973695 -0.023155982 1.2576666
-0.064727426 -0.02341385 1.2566876
-0.054862142 -0.024812145 1.254389
-0.045417123 -0.023813527 1.2533889
-0.034931999 -0.023434848 1.2542307
-0.02557686 -0.025033435 1.2548752
-0.015313949 -0.024457444 1.2546923
-0.0052290428 -0.023389632 1.2553126
0.0055016549 -0.024931788 1.2551306
0.015384623 -0.024182849 1.2535001
0.025295775 -0.024201255 1.2545002
0.035185937 -0.025297839 1.2542499
0.045308005 -0.026144076 1.2547144
0.054966338 -0.026388103 1.2540002
0.064835198 -0.026377147 1.2535003
0.075105481 -0.026206244 1.2544708
0.084913746 -0.02657417 1.2545266
0.094934791 -0.025833888 1.2523159
0.10465584 -0.027618131 1.2528572
0.11539923 -0.024551924 1.2536668
0.12527132 -0.025436357 1.2560954
0.13498011 -0.025031388 1.2553482
0.14460877 -0.02469974 1.2549447
0.15470247 -0.025019567 1.2546524
0.16500749 -0.026408926 1.2548501
0.17524025 -0.026852041 1.2544118
0.18499979 -0.024965076 1.2527275
0.19390114 -0.026688831 1.2529414
0.2033633 -0.028896393 1.2516667
0.21259166 -0.0295875 1.25
0.34876868 -0.020904116 1.2550001
0.35458857 -0.024570776 1.2548337
0.36091754 -0.020970743 1.2590001
-0.16003989 -0.012140957 1.2590001
-0.15366282 -0.014103133 1.2589999
-0.14495146 -0.015685515 1.2578892
-0.13509375 -0.014738684 1.2566876
-0.12546404 -0.01541147 1.2553751
-0.11531834 -0.015518615 1.2502632
-0.10513206 -0.016296921 1.2510713
-0.095407635 -0.016849533 1.2509091
-0.08547499 -0.017533332 1.25
-0.075887665 -0.017663373 1.2505555
-0.064654164 -0.017533334 1.25
-0.056325831 -0.017752502 1.25
-0.045477081 -0.018629167 1.25
-0.012054167 -0.018629167 1.25
-0.0054791667 -0.018629167 1.25
0.0054791667 -0.018629167 1.25
0.014245833 -0.018629167 1.25
0.11944583 -0.018629167 1.25
0.124925 -0.018629167 1.25
0.13259584 -0.018629167 1.25
0.34778088 -0.014994857 1.2578
0.3546941 -0.015418375 1.2565002
0.36202127 -0.017659573 1.2590001
-0.16241714 -0.0053488123 1.2589999
-0.15425213 -0.0055107265 1.2568003
-0.14503689 -0.0057230177 1.2518421
-0.13441889 -0.0060114288 1.2514288
-0.12517761 -0.0057160971 1.2507896
-0.11798471 -0.0084013892 1.25
0.35429519 -0.0099335099 1.2590001
-0.16003989 0.0011037233 1.2590001
-0.15336709 0.0025591846 1.2525555
-0.14793751 0.0010958334 1.25
-0.13259584 0.0010958334 1.25
-0.1282125 0.0010958334 1.25
0.21332222 0.27614999 1.25
0.21447548 0.28522024 1.2546319
0.2202625 0.28710833 1.25
0.20727925 0.29292816 1.2590001
0.21509428 0.29469791 1.2576001
0.22412391 0.29554421 1.2520002
0.21660341 0.30403575 1.2578572
0.22403347 0.30455863 1.2552356
0.20271719 0.31824023 1.2590001
0.21875796 0.31191221 1.2590001
0.22424279 0.31333336 1.2585
0.20418881 0.3211835 1.2590001
0.32792592 -0.49689114 1.268
0.33360824 -0.49520183 1.2652799
0.33456108 -0.48530564 1.2661998
0.34018874 -0.48424259 1.2640001
0.33793646 -0.47730044 1.2674286
0.34267408 -0.47478157 1.265
0.3438924 -0.46516114 1.2656469
0.34488651 -0.45492133 1.2656666
0.35126981 -0.45432371 1.2640001
0.3450532 -0.44513351 1.2656
0.34571815 -0.43546748 1.2659129
0.35126981 -0.43326971 1.2640001
0.34756908 -0.42544398 1.2659999
0.35221961 -0.42598787 1.2640001
0.34807655 -0.41691506 1.2665
0.35137957 -0.41393572 1.2651999
0.36235088 -0.41110757 1.2640001
0.35453433 -0.40444273 1.2651111
0.36308965 -0.40298149 1.2640001
0.35663617 -0.39531648 1.2666665
0.3628222 -0.39405671 1.265
0.35905111 -0.38461819 1.268
0.3626785 -0.384543 1.2651428
0.35905111 -0.37535477 1.268
0.36434969 -0.37404513 1.2656841
0.36523721 -0.36558747 1.2667366
0.37214911 -0.36364952 1.2646667
0.36535025 -0.35497522 1.2679999
0.37247175 -0.35459727 1.2651764
0.36659881 -0.34416181 1.2671999
0.37288538 -0.34461936 1.2645
0.36547375 -0.33410156 1.268
0.37346232 -0.33446383 1.2659047
0.36476797 -0.32633787 1.268
0.37428251 -0.32477909 1.2659129
0.38008058 -0.32245904 1.2640001
0.367944 -0.3179214 1.268
0.37463957 -0.31478378 1.2666665
0.38008058 -0.31470227 1.2640001
0.37591493 -0.3048619 1.2663999
0.38118869 -0.30472931 1.2640001
0.37710783 -0.29524004 1.2676665
0.38342384 -0.29398048 1.2648
0.37906015 -0.28679621 1.268
0.38443515 -0.28451157 1.2651428
0.38580295 -0.2748487 1.2668569
0.39329576 -0.27506617 1.2643334
0.38750839 -0.26523095 1.268
0.39356571 -0.26419145 1.2649523
0.40150395 -0.2611438 1.2640001
0.38795304 -0.2590059 1.268
0.39437208 -0.25439656 1.2671998
0.40216413 -0.25419155 1.2643334
0.39610484 -0.24566655 1.2679999
0.40480477 -0.24477358 1.2653912
0.41258505 -0.24119788 1.2640001
0.39906919 -0.2345504 1.268
0.40479195 -0.23478554 1.2659999
0.41221568 -0.23491861 1.2640001
0.39906919 -0.2245459 1.268
0.40519676 -0.22509852 1.2659999
0.41427502 -0.22520216 1.2642
0.39906919 -0.21528244 1.268
0.40445176 -0.21477541 1.2679999
0.41267771 -0.21541983 1.265
0.40692151 -0.20540431 1.2664999
0.41221571 -0.20499972 1.2640001
0.40743357 -0.19467363 1.266857
0.41160902 -0.19495413 1.2645714
0.40396801 -0.18619096 1.2674285
0.31458658 -0.061138734 1.268
0.32681429 -0.061138734 1.268
0.33502641 -0.063005097 1.2676923
0.34348848 -0.061138734 1.268
0.2678988 -0.050022598 1.268
0.27465457 -0.053195812 1.2665454
0.28406498 -0.053487629 1.2645
0.29550067 -0.055772658 1.266
0.30449086 -0.056427654 1.2658461
0.3139028 -0.057159245 1.2659999
0.32487863 -0.057658713 1.2648
0.33417329 -0.057779845 1.2640001
0.34129685 -0.058729652 1.2640001
-0.081147775 -0.041129693 1.268
0.19897878 -0.041129693 1.268
0.20605311 -0.042411029 1.2664
0.21480681 -0.043441936 1.2655385
0.22476798 -0.044265047 1.2657778
0.23506697 -0.045506366 1.2659999
0.24484761 -0.044636365 1.2655385
0.2552678 -0.046615876 1.266
0.26517135 -0.046600796 1.2656
0.2732591 -0.048978314 1.2640001
-0.16229555 -0.030013559 1.268
-0.15273568 -0.030458206 1.268
-0.1441392 -0.032730833 1.268
-0.13430047 -0.032913033 1.2676921
-0.12490571 -0.034005195 1.2675999
-0.11421827 -0.031958882 1.268
-0.10388207 -0.034628328 1.2673333
-0.094420113 -0.035549026 1.2671111
-0.084715068 -0.035339147 1.2665882
-0.07464882 -0.035720013 1.2669472
-0.065063946 -0.034597021 1.2671427
-0.054736558 -0.034589756 1.266857
-0.044697508 -0.035122991 1.26675
-0.034688681 -0.035741787 1.2677894
-0.024758717 -0.035345547 1.2668234
-0.014951887 -0.033410437 1.2670767
-0.0049228589 -0.031283975 1.268
0.0046624639 -0.032620411 1.2656001
0.014450973 -0.032236785 1.268
0.025277369 -0.033057783 1.2675
0.03530442 -0.033752371 1.2664001
0.045488484 -0.035062455 1.2656
0.054621242 -0.035972789 1.2664
0.064371876 -0.035517272 1.2659999
0.075401932 -0.034018811 1.2665454
0.084743991 -0.034395274 1.2655385
0.09484715 -0.035646822 1.2662222
0.10485431 -0.034398939 1.2656666
0.11290449 -0.034894489 1.2675999
0.12440251 -0.033878781 1.2670001
0.13386738 -0.034179088 1.2666668
0.14450973 -0.033348396 1.268
0.15453783 -0.033614583 1.2665454
0.16514681 -0.033741497 1.266
0.17491288 -0.035961214 1.2659999
0.18442087 -0.036812402 1.2659999
0.19422375 -0.038014017 1.2659999
0.20278352 -0.038783733 1.2640001
-0.17185542 -0.022899235 1.268
-0.16435045 -0.023756498 1.2661332
-0.15531993 -0.024410347 1.2654999
-0.14553136 -0.025486447 1.2640001
-0.13477521 -0.025024073 1.2645714
-0.12580703 -0.027554916 1.2640001
-0.11457822 -0.028589154 1.2640001
-0.10621994 -0.029285673 1.2640001
-0.095297173 -0.029918879 1.2640001
-0.085324213 -0.028810773 1.2640001
-0.075351246 -0.028810773 1.2640001
-0.065870792 -0.028933896 1.2640001
-0.05651344 -0.029918879 1.2640001
-0.044482566 -0.029285673 1.2640001
-0.035934318 -0.02896907 1.2640001
-0.025486454 -0.029918879 1.2640001
-0.015513493 -0.029364826 1.2640001
-0.0055405335 -0.028145909 1.2640001
0.005540533 -0.029918879 1.2640001
0.015513493 -0.029918879 1.2640001
0.025486451 -0.029918879 1.2640001
0.11635121 -0.029918879 1.2640001
0.12078363 -0.029918879 1.2640001
0.14627008 -0.029918879 1.2640001
-0.18119298 -0.015562586 1.268
-0.17553797 -0.015222646 1.2668234
-0.16534118 -0.015688458 1.2640001
-0.15624304 -0.017254801 1.2640001
-0.13518901 -0.018837813 1.2640001
0.36374742 -0.013306923 1.265
-0.17275313 -0.0082048979 1.2648
-0.16710247 -0.0066486397 1.2640001
0.34794548 -0.0099729598 1.2640001
0.35507703 -0.0087205786 1.2662858
0.36013466 -0.0099729598 1.2640001
0.20943215 0.29808068 1.2640001
0.21164837 0.29808068 1.2640001
0.20943215 0.30140501 1.2640001
0.21215533 0.30564007 1.2651428
0.20787169 0.3168098 1.268
0.21529621 0.31489429 1.2669998
0.22346818 0.3180266 1.2640001
0.21676461 0.32125625 1.268
0.22405672 0.32256949 1.2673334
0.32644737 -0.49505705 1.2758124
0.32691994 -0.48534745 1.2764211
0.33215603 -0.48181707 1.2739999
0.32752439 -0.47765532 1.2780001
0.33452284 -0.47503892 1.2755001
0.34037897 -0.47206658 1.273
0.33464089 -0.46491697 1.277375
0.34037897 -0.4653706 1.273
0.33641079 -0.45558098 1.2768461
0.34037897 -0.45532665 1.273
0.33833587 -0.44524136 1.2775455
0.3406018 -0.44445375 1.2738333
0.33835477 -0.43470743 1.278
0.34171754 -0.43396845 1.2744285
0.33910167 -0.42462406 1.278
0.34342504 -0.42469564 1.2750589
0.34518903 -0.41482186 1.2762352
0.33947513 -0.40893871 1.2780001
0.34668255 -0.40567279 1.2758949
0.35153896 -0.40510684 1.273
0.34731781 -0.39773488 1.278
0.35346732 -0.39492178 1.2761579
0.35522577 -0.38549346 1.2763335
0.3542816 -0.37533656 1.2759545
0.36046693 -0.37497488 1.273
0.35484263 -0.3653124 1.2750455
0.36214092 -0.3640939 1.2729999
0.35573411 -0.35502878 1.2766842
0.36330763 -0.35478547 1.2729999
0.35787541 -0.34556526 1.2765
0.36348489 -0.34450799 1.2733126
0.35697043 -0.33428332 1.2770001
0.36399299 -0.33477238 1.2745383
0.35814816 -0.32528365 1.278
0.36463839 -0.32373762 1.2739375
0.35889506 -0.3185614 1.2780001
0.36598337 -0.31520885 1.2766843
0.37162688 -0.31359506 1.273
0.36588064 -0.30620593 1.2763335
0.37204614 -0.30423346 1.2750832
0.36524385 -0.29634053 1.2780001
0.37342227 -0.29443514 1.2758125
0.37569022 -0.28475371 1.2748421
0.38055483 -0.28234714 1.273
0.37767592 -0.27721816 1.2772857
0.38215202 -0.27451715 1.2751428
0.38529021 -0.26446539 1.2744285
0.38660407 -0.25504228 1.2756472
0.38761154 -0.24550985 1.2756666
0.39394683 -0.24384527 1.2729999
0.38900885 -0.23832679 1.2763335
0.39451596 -0.23551871 1.2742501
0.38877186 -0.2296779 1.2780001
0.39432314 -0.22508503 1.2751741
0.39635113 -0.21614167 1.2758125
0.40064281 -0.21427137 1.273
0.39997566 -0.20502953 1.2780001
0.40280899 -0.20475313 1.2734998
0.39952749 -0.19561835 1.2780001
0.40287483 -0.19529943 1.273
0.39997566 -0.18710345 1.2780001
0.40153936 -0.18512015 1.2746667
0.32603058 -0.07058394 1.2780001
0.33499363 -0.07058394 1.2780001
0.3417159 -0.07058394 1.2780001
0.27785423 -0.061620899 1.2780001
0.28457654 -0.061620899 1.2780001
0.29517701 -0.06351693 1.278
0.30471402 -0.063596569 1.2760768
0.31509465 -0.064693086 1.2766666
0.32469571 -0.065047994 1.2753531
0.33354887 -0.06747628 1.2737142
0.34470096 -0.06596069 1.2752222
0.19830726 -0.050417099 1.2780001
0.20502953 -0.051537484 1.278
0.21535844 -0.051325332 1.2757777
0.22561339 -0.052597161 1.2764615
0.23507392 -0.053182859 1.2751428
0.24550644 -0.051789239 1.2766362
0.25548121 -0.053241711 1.2765714
0.26467362 -0.0542363 1.2755001
0.27379805 -0.057852589 1.2757272
0.28507513 -0.058155827 1.2729999
0.29462311 -0.058403824 1.2729999
-0.15349206 -0.041454058 1.2780001
-0.1443253 -0.043287404 1.278
-0.13472773 -0.041800488 1.2771667
-0.12705109 -0.042350363 1.2780001
-0.11259819 -0.042014249 1.2780001
-0.10466462 -0.043163825 1.2754999
-0.095033593 -0.043606572 1.2753333
-0.085271925 -0.04380767 1.2752726
-0.075057521 -0.044144183 1.2756472
-0.065788902 -0.04283426 1.277375
-0.054258402 -0.042094272 1.278
-0.044727538 -0.042493355 1.2754999
-0.034663837 -0.042493351 1.2754999
-0.024600144 -0.042493351 1.2754999
-0.016780861 -0.0414 1.2763335
0.01568532 -0.041454058 1.2780001
0.02352798 -0.041454058 1.2780001
0.038092919 -0.041454058 1.2780001
0.045188654 -0.041454058 1.2780001
0.053849999 -0.042024773 1.2758571
0.064982042 -0.041454058 1.2780001
0.075829037 -0.0422538 1.27675
0.084982321 -0.042493351 1.2754999
0.095046006 -0.042493355 1.2754999
0.10517838 -0.043640759 1.2763332
0.11440244 -0.043471202 1.2764615
0.12548256 -0.042574435 1.278
0.13444561 -0.042574439 1.278
0.14452901 -0.042574439 1.278
0.15535937 -0.042200979 1.278
0.16497596 -0.042294342 1.278
0.17505272 -0.043253791 1.2759166
0.1849198 -0.044088326 1.2763333
0.19511101 -0.044214915 1.2756667
0.20387428 -0.046723176 1.2749999
0.21538734 -0.047987856 1.273
0.22543132 -0.047987856 1.273
0.2354753 -0.047987856 1.273
0.24440327 -0.047987856 1.273
0.25109926 -0.047987856 1.273
-0.18326215 -0.031210588 1.278
-0.17441274 -0.032276556 1.2775455
-0.16512039 -0.034101512 1.2766666
-0.1551456 -0.035453796 1.275353
-0.14607614 -0.037357979 1.274111
-0.13541791 -0.037543513 1.2744999
-0.12440834 -0.038367022 1.2746667
-0.11549412 -0.037062775 1.2755001
-0.10668398 -0.038540237 1.27425
-0.099323705 -0.039059885 1.273
-0.063611813 -0.039059885 1.273
-0.054683842 -0.039059885 1.273
-0.045755863 -0.039059885 1.273
-0.013029702 -0.037605982 1.274111
-0.0049195904 -0.036455572 1.2754999
0.0047517521 -0.03634331 1.2754999
0.014526951 -0.036879022 1.2746667
0.024470787 -0.037640072 1.2752222
0.034142271 -0.038119026 1.2746665
0.044639863 -0.039059885 1.273
0.055241834 -0.039059885 1.273
0.064727806 -0.039059885 1.273
0.073969305 -0.038242061 1.2736249
0.084815748 -0.039059885 1.273
0.094859712 -0.039059885 1.273
0.10490368 -0.039059885 1.273
0.1172298 -0.036844939 1.2735554
0.12451334 -0.038103312 1.2729999
0.13593999 -0.037684068 1.2736249
0.14477371 -0.038153116 1.2757777
0.15500802 -0.038101982 1.274111
0.16478126 -0.038125228 1.2737142
0.17465347 -0.039059885 1.273
-0.1841827 -0.025194667 1.2771666
-0.17624162 -0.025152851 1.2729999
-0.1673995 -0.027899917 1.273
-0.18302345 -0.018971942 1.273
0.36676794 -0.010063695 1.2755001
0.34037897 -0.0033479899 1.273
0.35557732 -0.0067113219 1.2755001
0.36229083 -0.0067069381 1.2755001
0.20869137 0.30913109 1.273
0.20869137 0.31247908 1.273
0.2120394 0.31582704 1.2729999
0.20601296 0.32631743 1.2729999
0.2146825 0.32581234 1.2730001
0.22297613 0.32743341 1.273
0.19830726 0.3349936 1.2780001
0.20493464 0.33431318 1.2774117
0.2152424 0.33560997 1.2768236
0.22381744 0.33671731 1.278
0.20727029 0.3417159 1.2780001
0.2158886 0.34481844 1.278
0.224076 0.3450771 1.278
0.21757779 0.35247153 1.2780001
0.2228214 0.35425791 1.2772307
0.31687674 -0.49467608 1.2863334
0.3216823 -0.49489585 1.2830001
0.31668591 -0.48534229 1.2862145
0.3222447 -0.48421061 1.2830001
0.31747529 -0.4762646 1.287091
0.32473165 -0.4743835 1.2835004
0.31954852 -0.46633756 1.2880001
0.32566196 -0.46494177 1.2846671
0.33180517 -0.4600282 1.2830001
0.31954852 -0.45730439 1.2880001
0.32622001 -0.45520711 1.2863337
0.33355483 -0.45377949 1.2830001
0.32832482 -0.44701815 1.2870001
0.33331808 -0.44515464 1.2847649
0.33389539 -0.43494701 1.2850003
0.33469865 -0.42478544 1.2844708
0.33623388 -0.41573977 1.2847648
0.34125319 -0.41593748 1.2830001
0.33807617 -0.40534344 1.2866365
0.34192806 -0.40491474 1.2830001
0.3389053 -0.39568526 1.2880001
0.34480956 -0.39462388 1.283455
0.33987314 -0.3895556 1.2880001
0.34554055 -0.38476846 1.2850457
0.35205093 -0.38579383 1.2830001
0.34760657 -0.37505054 1.2842501
0.34742886 -0.36410746 1.2853335
0.35205093 -0.3621738 1.2830001
0.34738007 -0.35498866 1.2855002
0.35205093 -0.35542521 1.2830001
0.34856552 -0.34800097 1.2867501
0.35355484 -0.34517437 1.284389
0.34890631 -0.33422741 1.2880001
0.35234216 -0.33493549 1.2848182
0.3541109 -0.32510823 1.2848753
0.35611418 -0.31491941 1.2855
0.36361989 -0.31316623 1.2830001
0.35679552 -0.30492803 1.2862145
0.36400113 -0.30487639 1.283278
0.37004712 -0.30481085 1.2830001
0.35822615 -0.29733407 1.2863334
0.36389178 -0.29413217 1.2855003
0.37060949 -0.29412562 1.2830001
0.36524415 -0.28492561 1.2863336
0.37147865 -0.28415611 1.2830001
0.36662519 -0.27577233 1.2880001
0.37457281 -0.27436274 1.2843891
0.38204458 -0.2718178 1.2830001
0.36665007 -0.26760775 1.2880001
0.3752349 -0.26549432 1.2857274
0.38241953 -0.26544413 1.2830001
0.37645495 -0.25542048 1.285895
0.38229454 -0.25507131 1.2830001
0.37726048 -0.24552666 1.2880001
0.38286576 -0.24470864 1.2851056
0.37826413 -0.23486251 1.2880001
0.38459361 -0.2349185 1.2855003
0.39029288 -0.23395076 1.2830001
0.37826413 -0.22921677 1.2880001
0.38476431 -0.22493391 1.2864093
0.39029288 -0.22495267 1.2830001
0.38742164 -0.21496071 1.2871667
0.39329225 -0.21333009 1.2830002
0.38691926 -0.20530415 1.2867501
0.39479193 -0.20470694 1.2830003
0.38830101 -0.19659699 1.2880001
0.39504918 -0.19461595 1.2844586
0.39638215 -0.18666053 1.2861819
0.401831 -0.18305999 1.2863334
0.29651394 -0.071587898 1.2880001
0.30496705 -0.072017193 1.2857778
0.31534913 -0.073309563 1.2864616
0.32449314 -0.073625423 1.2848183
0.33498755 -0.074457251 1.2846667
0.34484825 -0.073254265 1.2855
0.35116461 -0.071136236 1.2880001
0.22695848 -0.062103067 1.2880001
0.23712081 -0.062103067 1.2880001
0.24502483 -0.062103067 1.2880001
0.2559399 -0.06285952 1.2861251
0.2654011 -0.063817672 1.2852727
0.27452442 -0.064410061 1.2848182
0.2851713 -0.065637864 1.2848183
0.29340282 -0.068006039 1.2837144
0.30481085 -0.068610564 1.2830001
0.31380895 -0.068610564 1.2830001
0.34980139 -0.068610564 1.2830001
-0.17050114 -0.051940747 1.2880001
-0.16485542 -0.0508116 1.2880001
-0.15396209 -0.051428646 1.2872858
-0.14400873 -0.05364405 1.2862145
-0.1345139 -0.053618029 1.2875835
-0.12581657 -0.052472442 1.2871667
-0.11554934 -0.052317128 1.2880001
-0.10524777 -0.052866317 1.2869285
-0.09471079 -0.051866777 1.2861252
-0.084590815 -0.053336151 1.2865715
-0.07482174 -0.05280447 1.2856923
-0.065716334 -0.052618235 1.2880001
-0.055328183 -0.051940747 1.2880001
-0.045165867 -0.051940743 1.2880001
-0.035756309 -0.051187981 1.2880001
-0.028228667 -0.0508116 1.2880001
0.048553307 -0.0508116 1.2880001
0.055328183 -0.0508116 1.2880001
0.065114118 -0.0508116 1.2880001
0.085815139 -0.0508116 1.2880001
0.095601082 -0.051564362 1.2880001
0.10472834 -0.051658455 1.2880001
0.11391858 -0.052045695 1.2865715
0.12420613 -0.0508116 1.2880001
0.1354976 -0.0508116 1.2880001
0.14453077 -0.0508116 1.2880001
0.16824286 -0.0508116 1.2880001
0.17501773 -0.051658459 1.2880001
0.18482062 -0.051842123 1.2855
0.19523168 -0.053277291 1.285143
0.20510581 -0.056349941 1.2855
0.21479674 -0.056575768 1.2855
0.22409602 -0.058306061 1.2857274
0.2344577 -0.058826961 1.28425
0.24543621 -0.057421003 1.2842501
0.25447771 -0.058768883 1.2830001
0.26319462 -0.059612457 1.2830001
-0.19195494 -0.041778427 1.2880001
-0.18348634 -0.042343002 1.2880001
-0.17487216 -0.044647187 1.2869285
-0.16494869 -0.044771507 1.2838335
-0.15529232 -0.045215484 1.2830002
-0.14593804 -0.047521252 1.2830001
-0.13537557 -0.04635407 1.2839091
-0.12394892 -0.045815356 1.2830002
-0.11532513 -0.045943547 1.2834167
-0.10556708 -0.047722101 1.2830001
-0.09448012 -0.048364822 1.2830001
-0.085482016 -0.048364822 1.2830001
-0.074609302 -0.048364822 1.2830001
-0.064392701 -0.046958871 1.2830001
-0.055475328 -0.046475872 1.2833848
-0.044990532 -0.047240064 1.2830001
-0.034879498 -0.047258906 1.2835001
-0.02479301 -0.047334306 1.2855
-0.014659913 -0.045335881 1.2863334
-0.0041889637 -0.044635613 1.2865715
0.0043487051 -0.044623401 1.2862145
0.014238819 -0.044765469 1.2852728
0.025162572 -0.044695485 1.2852223
0.034816299 -0.045296278 1.2859411
0.045011915 -0.045882516 1.286077
0.055766724 -0.046575345 1.286077
0.065405756 -0.046238031 1.2863334
0.074466936 -0.046609178 1.2852727
0.085039772 -0.04746975 1.2857778
0.094616555 -0.047310743 1.284875
0.10385314 -0.047989901 1.2830001
0.11630052 -0.047465011 1.2830001
0.125092 -0.047334306 1.2855
0.13510528 -0.047287185 1.28425
0.14459458 -0.047115091 1.2830001
0.15457004 -0.046814479 1.2852728
0.16495942 -0.046592843 1.2848182
0.17444862 -0.048021317 1.2838334
0.18408626 -0.048364822 1.2830001
0.19308436 -0.048364822 1.2830001
-0.1908318 -0.03531637 1.2855
-0.18494397 -0.036817644 1.2845385
-0.17583801 -0.037867032 1.2830001
-0.16571513 -0.038991794 1.2830001
-0.0022495266 -0.039366715 1.2830001
0.0033742897 -0.039366715 1.2830001
0.35879949 -0.0056238165 1.2830001
0.36595765 -0.0046647429 1.2844286
0.37100855 -0.0056355055 1.2863334
0.19855987 0.34543112 1.2858572
0.2047565 0.34468406 1.2833128
0.21117431 0.34614593 1.2830001
0.19985896 0.35229376 1.2880001
0.20566599 0.35277769 1.2880001
0.21402912 0.3554686 1.2838334
0.21502177 0.36181086 1.2880001
0.22163229 0.36363152 1.2855
0.30687359 -0.49562162 1.2970001
0.31225142 -0.49506384 1.2952143
0.30813694 -0.48437762 1.2970001
0.31183165 -0.48462573 1.2951818
0.30813694 -0.47755539 1.2970001
0.31447449 -0.47499371 1.2945001
0.31539497 -0.46514329 1.2960002
0.3205409 -0.46212256 1.2920001
0.31713846 -0.45546529 1.2966155
0.32201257 -0.45314813 1.2927142
0.31853274 -0.44490618 1.2970001
0.32493457 -0.44444919 1.2946088
0.3195073 -0.43662208 1.2970001
0.32639322 -0.4346557 1.2948948
0.33186743 -0.43154091 1.2920001
0.32752666 -0.42635462 1.29575
0.33147153 -0.423585 1.294
0.3286036 -0.4157764 1.2970001
0.33240467 -0.41452476 1.2954615
0.33389726 -0.40509963 1.2952355
0.33494529 -0.39482731 1.2951581
0.33658993 -0.38510269 1.2958237
0.34092864 -0.38510215 1.2920001
0.33790663 -0.37553218 1.2970001
0.34340972 -0.37499601 1.2934285
0.33852682 -0.36478207 1.2970001
0.3430559 -0.36512387 1.2938181
0.33951911 -0.35543767 1.2970001
0.34304297 -0.35438532 1.2939999
0.33997396 -0.34907025 1.2970001
0.34596276 -0.34528536 1.2947501
0.3522552 -0.34092864 1.2920001
0.34565279 -0.33537996 1.2955717
0.34669468 -0.32497251 1.2946192
0.3522552 -0.32431641 1.2920001
0.34747845 -0.31632364 1.2970001
0.35216263 -0.31469911 1.295
0.34907025 -0.30699992 1.2970001
0.35295105 -0.30426466 1.293923
0.35594213 -0.29520103 1.295125
0.35657468 -0.28676066 1.2970001
0.3610816 -0.2851589 1.2947778
0.35816655 -0.27516288 1.2970001
0.36185154 -0.27494475 1.293923
0.35816655 -0.26834065 1.2970001
0.36377838 -0.26442185 1.2956845
0.37083071 -0.26436129 1.2920001
0.36633319 -0.25504968 1.2953334
0.37173682 -0.25416738 1.2919999
0.366788 -0.24528436 1.2953333
0.37310171 -0.24446355 1.2923845
0.36827353 -0.23662996 1.2970001
0.37482327 -0.23565924 1.2949413
0.36953691 -0.2262703 1.2970001
0.37783468 -0.22579208 1.2942727
0.38143852 -0.22190742 1.2936667
0.3786332 -0.21603698 1.2970001
0.3825416 -0.21475896 1.2943332
0.3786332 -0.20580363 1.2970001
0.38278478 -0.20479879 1.295077
0.36839986 -0.19613883 1.2970001
0.37408507 -0.19215919 1.2970001
0.38420317 -0.19494088 1.2945001
0.37408507 -0.18988512 1.2970001
0.38621524 -0.18848108 1.2962857
0.39383143 -0.18392158 1.2950557
0.40325898 -0.18118091 1.29575
0.39796281 -0.17737772 1.2970001
0.40137395 -0.17851475 1.2970001
0.40137395 -0.16600735 1.2970001
0.39909986 -0.15804809 1.2970001
0.33087766 -0.092099972 1.2970001
0.29676655 -0.080729604 1.2970001
0.30548385 -0.081487626 1.2970001
0.31495914 -0.081866644 1.2970001
0.32519248 -0.081866644 1.2970001
0.33615857 -0.084473573 1.2956845
0.34390187 -0.084450819 1.2970001
0.26578236 -0.072486088 1.2970001
0.27516288 -0.072770342 1.2970001
0.28587157 -0.073315851 1.2965833
0.29524961 -0.075518698 1.2953333
0.30503488 -0.07711117 1.2934999
0.31443912 -0.077760503 1.293
0.32507151 -0.078153081 1.2920001
0.33526537 -0.078153081 1.2920001
0.34650528 -0.077549204 1.2945
0.35361841 -0.073907383 1.2970001
0.36271471 -0.073907383 1.2970001
-0.18192586 -0.060262945 1.2970001
-0.17586166 -0.06102097 1.2970001
-0.16449131 -0.062158007 1.2970001
-0.15463699 -0.062537022 1.2970001
-0.14530946 -0.062438756 1.2949166
-0.13483471 -0.060846303 1.2955714
-0.12469503 -0.060262945 1.2970001
-0.11525417 -0.061710075 1.2970001
-0.10491746 -0.062330279 1.2970001
-0.095511079 -0.061399981 1.2970001
-0.085211121 -0.061353516 1.296
-0.074758634 -0.061137982 1.2948571
-0.06395831 -0.061115723 1.2970001
-0.057988871 -0.060262945 1.2970001
0.12507403 -0.060262945 1.2970001
0.13644439 -0.060262945 1.2970001
0.14440365 -0.060262945 1.2970001
0.16941847 -0.060262945 1.2970001
0.17510363 -0.060262945 1.2970001
0.18618976 -0.061115719 1.2970001
0.1955703 -0.061399981 1.2970001
0.20509405 -0.062061206 1.2949166
0.21496224 -0.063570216 1.2948126
0.22525565 -0.065303251 1.2946668
0.23513952 -0.066167168 1.2948571
0.24535903 -0.06513609 1.2951818
0.25475651 -0.067210875 1.295
0.26401857 -0.068559214 1.2941428
0.27465424 -0.068758868 1.2928333
0.28429595 -0.069091856 1.2920001
-0.18471497 -0.054291721 1.2961669
-0.17520334 -0.054785531 1.2941428
-0.16487427 -0.055772346 1.2945
-0.15487081 -0.055746593 1.292909
-0.14724493 -0.05776532 1.2920001
-0.13705106 -0.05640614 1.2920001
-0.12417471 -0.056826405 1.2927142
-0.11504521 -0.056794468 1.2919999
-0.10458165 -0.057387769 1.2919999
-0.095142879 -0.05663266 1.2919999
-0.085855126 -0.057312261 1.2920001
-0.074755117 -0.05776532 1.2920001
-0.064023957 -0.056943767 1.292625
-0.054444619 -0.056716502 1.293875
-0.045393799 -0.056744438 1.2945
-0.034874741 -0.055803027 1.2952144
-0.025083108 -0.053781666 1.2951818
-0.015284345 -0.053015001 1.295077
-0.0045390148 -0.053323474 1.2940832
0.0045393799 -0.05220506 1.2945
0.01477584 -0.051788207 1.2962857
0.024982661 -0.051858928 1.2953334
0.035180192 -0.052205063 1.2945
0.045376264 -0.053319741 1.2939999
0.054493599 -0.055177577 1.295
0.064327374 -0.05472922 1.2943077
0.075117521 -0.054242808 1.2943333
0.084808022 -0.055313557 1.2941875
0.094837099 -0.056042492 1.2939999
0.10523077 -0.055793606 1.2934999
0.11593689 -0.056268144 1.2939999
0.1248735 -0.055628229 1.2949166
0.1347623 -0.055326987 1.2945
0.1452145 -0.055592433 1.2940832
0.1550003 -0.054235958 1.294778
0.16472453 -0.054912131 1.2937649
0.17435107 -0.056354471 1.2942222
0.18421063 -0.056323756 1.2919999
0.19413678 -0.057312258 1.2920001
-0.19141841 -0.046438783 1.2920001
-0.18553551 -0.046465714 1.2927142
-0.17556126 -0.048704091 1.2920001
-0.011326533 -0.048704091 1.2920001
-0.00679592 -0.048704091 1.2920001
0.0056632669 -0.048704091 1.2920001
0.014724493 -0.048704091 1.2920001
0.024918374 -0.048704091 1.2920001
0.03058164 -0.048704091 1.2920001
-0.19368371 -0.039642867 1.2920001
0.34793323 -0.0022740734 1.2970001
0.35816655 -0.0034111098 1.2970001
0.36300787 -0.0017823884 1.2934285
0.35816655 0.0011370367 1.2970001
0.36455446 0.0030599041 1.2954615
0.19898142 0.3570295 1.2970001
0.20548847 0.35769731 1.29325
0.19852659 0.36453396 1.2970001
0.20522101 0.36479491 1.2955002
0.21390988 0.36701211 1.2925555
0.2208674 0.36811233 1.2920001
0.20656167 0.37332705 1.2970001
0.21452364 0.37457401 1.2947502
0.22196035 0.37349868 1.2927142
0.21664922 0.38370615 1.2970001
0.22172216 0.38090727 1.2970001
0.21793203 0.39076161 1.2970001
0.29687938 -0.49586782 1.3045001
0.3030031 -0.49476168 1.302
0.29816368 -0.48599365 1.3064445
0.30350956 -0.48486492 1.3022381
0.30506554 -0.47483915 1.3038421
0.31160766 -0.47483072 1.302
0.30522203 -0.46549812 1.3040001
0.31160766 -0.46569937 1.302
0.30634934 -0.45535764 1.304619
0.31284401 -0.45411187 1.3027693
0.30776277 -0.44525918 1.307
0.31366578 -0.44490984 1.303579
0.32073903 -0.44629523 1.302
0.3082211 -0.43655109 1.307
0.31470779 -0.43520778 1.3041737
0.32188046 -0.43259814 1.302
0.31656769 -0.42466524 1.3048126
0.32343599 -0.42374483 1.3023571
0.31738752 -0.41592658 1.307
0.32502902 -0.41511187 1.3033158
0.31738752 -0.40217698 1.307
0.32633057 -0.40532029 1.3040453
0.31910622 -0.39816666 1.307
0.32555524 -0.39509991 1.3042728
0.33215323 -0.39378989 1.302
0.32756335 -0.38587442 1.3041875
0.33313158 -0.38302797 1.302
0.32910174 -0.37717947 1.30575
0.33326986 -0.37366259 1.3040001
0.33404985 -0.36485639 1.3046666
0.33694321 -0.35458496 1.304143
0.33677951 -0.34511253 1.304143
0.34128457 -0.34470886 1.302
0.33760256 -0.33552405 1.3038182
0.34108835 -0.33468944 1.3030001
0.33825943 -0.32567093 1.30575
0.34144682 -0.3254503 1.3035001
0.33801198 -0.31853333 1.307
0.34325898 -0.31439039 1.303579
0.34651119 -0.30550614 1.3045
0.35041595 -0.30247629 1.302
0.34690139 -0.29510346 1.305182
0.35155737 -0.29448637 1.302
0.34775135 -0.28587791 1.307
0.35312101 -0.28445333 1.3023571
0.34947002 -0.27843019 1.307
0.35444632 -0.27517322 1.303579
0.3556124 -0.26479566 1.3047497
0.36183015 -0.26366803 1.302
0.3574138 -0.25556585 1.3053335
0.36203676 -0.25435224 1.3036667
0.35787258 -0.24596578 1.307
0.36238769 -0.24534722 1.3034286
0.36428919 -0.2350184 1.3043684
0.37324435 -0.23284969 1.302
0.36612758 -0.22473425 1.3042222
0.37438577 -0.22388136 1.302
0.36709642 -0.21499898 1.3045001
0.37438577 -0.21458694 1.302
0.38009286 -0.2111627 1.302
0.36686623 -0.20538007 1.3043078
0.37438577 -0.20545562 1.302
0.38009286 -0.20431417 1.302
0.36738983 -0.19797252 1.3028334
0.37594223 -0.196428 1.302
0.3808538 -0.19442187 1.302
0.3839871 -0.18444002 1.302
0.39150706 -0.18148577 1.302
0.37868801 -0.17759953 1.307
0.38532555 -0.17521583 1.3049165
0.39442831 -0.17410527 1.3025262
0.40312874 -0.17401466 1.302
0.38613573 -0.1671236 1.307
0.39476851 -0.16477367 1.3052499
0.40063843 -0.16436449 1.302
0.39545515 -0.15563159 1.306
0.40063843 -0.15637454 1.302
0.30745724 -0.09128233 1.307
0.3158066 -0.093875006 1.3049412
0.32513016 -0.093435362 1.3022631
0.33329463 -0.090172179 1.302
0.37238607 -0.09051846 1.307
0.26697218 -0.081352033 1.307
0.27499279 -0.081352033 1.307
0.28566247 -0.082633637 1.3055001
0.29459393 -0.083943717 1.3045001
0.30458903 -0.086060889 1.3035386
0.31503192 -0.086747915 1.302
0.32530469 -0.086747915 1.302
0.33329463 -0.086747915 1.302
0.34813309 -0.083323658 1.302
0.35207692 -0.082012169 1.3053334
0.3664279 -0.082727 1.307
0.37106222 -0.084750548 1.3063751
-0.18218273 -0.072185613 1.307
-0.17428941 -0.073458724 1.307
-0.16568317 -0.072643936 1.307
-0.15468344 -0.072185613 1.307
-0.14666283 -0.072185613 1.307
-0.12443423 -0.073560581 1.307
-0.1150714 -0.073167726 1.307
-0.1054139 -0.072185613 1.307
-0.096247479 -0.072185613 1.307
-0.08478944 -0.072185613 1.307
-0.074477218 -0.072185613 1.307
