# .PCD v0.7 - Point Cloud Data file format
VERSION 0.7
FIELDS x y z
SIZE 4 4 4
TYPE F F F
COUNT 1 1 1
WIDTH 1468
HEIGHT 1
VIEWPOINT 0 0 0 1 0 0 0
POINTS 1468
DATA ascii
0.4347375 -0.41511613 1.2249998
0.42751905 -0.40720084 1.2270001
0.43541715 -0.40531462 1.2263598
0.4424971 -0.40359291 1.2230002
0.42919233 -0.39907357 1.2270001
0.43661445 -0.39520115 1.2269999
0.44378734 -0.39497203 1.2244736
0.43887335 -0.38831687 1.2270001
0.44622564 -0.38629821 1.2258234
0.45151326 -0.38549545 1.2258574
0.44759825 -0.3756479 1.2270001
0.45070574 -0.37594667 1.2270001
0.43994904 -0.36357647 1.2270001
0.44432902 -0.36468089 1.2258235
0.44317603 -0.35819811 1.2270001
0.34794724 -0.073024578 1.2250001
0.35274172 -0.073979266 1.223
0.36775202 -0.071834944 1.223
-0.15489648 -0.06131319 1.2270001
0.34309226 -0.066474125 1.223
0.36846682 -0.065759353 1.223
-0.16262175 -0.052903403 1.2270001
-0.15464506 -0.05477361 1.2249998
-0.14478514 -0.053959459 1.225095
-0.13505621 -0.054477382 1.2255999
-0.12518454 -0.054203704 1.2248945
-0.11471806 -0.053866349 1.2263999
-0.10448638 -0.054503512 1.2261999
-0.095151745 -0.053489141 1.2256665
-0.085020512 -0.053737327 1.2258887
-0.075215079 -0.054801896 1.2256666
-0.065219156 -0.054361776 1.2259474
-0.055196684 -0.05340663 1.2265553
-0.045488771 -0.051935777 1.2256666
-0.03562817 -0.052101318 1.2253333
-0.026461482 -0.050986756 1.2270001
-0.01613505 -0.050556492 1.2270001
0.30871728 -0.050556488 1.2270001
0.3151713 -0.050556488 1.2270001
0.32162532 -0.050556488 1.2270001
0.33484069 -0.051478487 1.2270001
-0.16267461 -0.045404248 1.2263846
-0.15485103 -0.0453372 1.2229998
-0.14509943 -0.047889963 1.223
-0.13294825 -0.048247349 1.223
-0.12615789 -0.048247349 1.223
-0.11502781 -0.047634687 1.2230002
-0.10721633 -0.048247349 1.223
-0.088989556 -0.048247349 1.223
-0.062185474 -0.048247349 1.223
-0.053965554 -0.047889963 1.223
-0.045388248 -0.048247349 1.223
-0.035381392 -0.048247349 1.223
-0.023968359 -0.04794256 1.2243334
-0.014674718 -0.046172377 1.2247778
-0.0056389393 -0.045912571 1.2249999
0.0052161664 -0.046323311 1.2247143
0.015034834 -0.044569291 1.2250001
0.024695603 -0.042831298 1.2247777
0.035638809 -0.043257359 1.2251819
0.045104496 -0.042958416 1.2250001
0.054788332 -0.042972092 1.2254002
0.06557519 -0.042999443 1.2262001
0.075174168 -0.042958416 1.2250001
0.084839419 -0.042958416 1.225
0.095397182 -0.04345357 1.2251818
0.10359254 -0.04363117 1.2258
0.11509669 -0.041951131 1.2270001
0.12370205 -0.041951131 1.2270001
0.13015607 -0.041951131 1.2270001
0.20545296 -0.041951131 1.2270001
0.21513399 -0.041951131 1.2270001
0.22373936 -0.041951131 1.2270001
0.23879874 -0.041951131 1.2270001
0.24525276 -0.041951131 1.2270001
0.25493377 -0.041951131 1.2270001
0.26580605 -0.043307725 1.2266364
0.27586082 -0.044436153 1.2249999
0.28475693 -0.045536496 1.2246469
0.29372817 -0.046595011 1.2246001
0.30534133 -0.047330037 1.2244545
0.315525 -0.046579231 1.2242
0.32524946 -0.046577692 1.2251819
0.33211115 -0.047829613 1.2260002
-0.16189666 -0.039670043 1.223
-0.15617846 -0.038002234 1.223
0.028948409 -0.039670043 1.223
0.034309223 -0.039670043 1.223
0.057896823 -0.039670043 1.223
0.065938041 -0.039670043 1.223
0.10685895 -0.038955268 1.223
0.11472146 -0.038597882 1.2229999
0.12552516 -0.038623825 1.2238001
0.13531467 -0.03758942 1.2249999
0.14417811 -0.03543349 1.2247144
0.1550625 -0.033669021 1.2244545
0.16447982 -0.035826415 1.2248181
0.17547728 -0.035758488 1.2245386
0.18535025 -0.035263285 1.2241428
0.1952738 -0.036996674 1.2243333
0.20435698 -0.038083423 1.2236667
0.21550484 -0.038597882 1.2229999
0.22594699 -0.037765399 1.2237999
0.23458891 -0.037442371 1.2248666
0.24428383 -0.038614098 1.2235
0.25548738 -0.038646534 1.2245001
0.26455632 -0.03886592 1.223
0.27554595 -0.039670043 1.223
0.25753364 0.19663477 1.223
0.26196525 0.19692065 1.223
0.25625768 0.20446001 1.2270001
0.26562947 0.20491304 1.2254345
0.27316338 0.20692752 1.223
0.26729423 0.215684 1.2264668
0.27435383 0.21478738 1.22425
0.26624787 0.22216085 1.2266002
0.2749975 0.22298884 1.2266364
0.38944864 -0.49763107 1.2340001
0.39395729 -0.49430734 1.2331766
0.4028599 -0.4968245 1.2320001
0.39593852 -0.48464611 1.2340002
0.40177986 -0.48386389 1.2320002
0.39723361 -0.4753966 1.2356924
0.4026635 -0.47492895 1.2320002
0.39858297 -0.46643537 1.2351112
0.40294659 -0.46560279 1.2322669
0.39911127 -0.4550952 1.2360001
0.40383786 -0.45455199 1.2322108
0.39983365 -0.44642675 1.2360001
0.40518188 -0.44481838 1.2340001
0.4115003 -0.44174182 1.2320001
0.40704334 -0.43504676 1.2337779
0.4115003 -0.43742156 1.2320001
0.40788981 -0.42520028 1.2341539
0.41323113 -0.42277455 1.2323335
0.40850213 -0.41717061 1.2360001
0.41377118 -0.41480315 1.2329526
0.42260942 -0.41489476 1.2320002
0.41515484 -0.40628123 1.2342002
0.42433786 -0.40489414 1.2321669
0.42507562 -0.39550671 1.2340955
0.43238136 -0.39493951 1.2320002
0.4264679 -0.386026 1.2345265
0.43508151 -0.3853991 1.2320002
0.44342196 -0.38365895 1.2320002
0.42839369 -0.37863058 1.2340001
0.43489867 -0.37508896 1.2335172
0.44405627 -0.37539572 1.2320002
0.43644223 -0.36532634 1.2344763
0.44174182 -0.365058 1.2320001
0.43870431 -0.35819268 1.2344002
0.44281891 -0.35735449 1.2340001
0.34777719 -0.07236357 1.2320001
-0.1630836 -0.064587697 1.2334547
-0.15488379 -0.065168172 1.234154
-0.14496209 -0.06274654 1.2340001
-0.13540228 -0.063032322 1.2338183
-0.1249102 -0.062878042 1.2342224
-0.11473089 -0.064255446 1.2338669
-0.10490216 -0.063808233 1.2336003
-0.095174156 -0.063811682 1.2336668
-0.085471027 -0.063835822 1.2341335
-0.074154936 -0.063503839 1.234154
-0.064651065 -0.064154193 1.2338462
-0.056382135 -0.062877268 1.2342224
-0.043703586 -0.061762918 1.2360001
-0.035757482 -0.061762918 1.2360001
0.34326619 -0.064323492 1.2352002
-0.16352007 -0.058538891 1.2320001
-0.15012741 -0.059402931 1.2320001
-0.14580719 -0.059402931 1.2320001
-0.13284655 -0.059402931 1.2320001
-0.12528619 -0.059402931 1.2320001
-0.11686176 -0.05897091 1.2320001
-0.10620525 -0.059402931 1.2320001
-0.095044695 -0.059402931 1.2320001
-0.085684232 -0.059042916 1.2320002
-0.07452368 -0.059402931 1.2320001
-0.064443178 -0.059402931 1.2320001
-0.054156959 -0.058785763 1.2320002
-0.044688966 -0.057667125 1.2333335
-0.03513914 -0.057487119 1.2333335
-0.024651313 -0.055967696 1.2338949
-0.015140325 -0.054618374 1.2336668
-0.0057211262 -0.052880794 1.2345716
0.0054090335 -0.051928472 1.2340002
0.014447466 -0.05164969 1.2360001
0.024921879 -0.050927319 1.2360001
0.03445721 -0.051360745 1.2360001
0.044425957 -0.050927319 1.2360001
0.056190323 -0.051546495 1.2360001
0.065013602 -0.050927319 1.2360001
0.074765638 -0.050927319 1.2360001
0.085601233 -0.050927319 1.2360001
0.095714457 -0.05164969 1.2360001
0.10402176 -0.050927319 1.2360001
0.26807275 -0.051794164 1.2360001
0.27552581 -0.051835548 1.2346668
0.28504643 -0.052058026 1.2342224
0.29425144 -0.051928475 1.2340001
0.30558687 -0.052457813 1.2349092
0.3153446 -0.054993879 1.2340001
0.32535645 -0.054206487 1.2335001
0.33440167 -0.055999301 1.2338462
0.34103298 -0.057291042 1.233
-0.011880587 -0.048602398 1.2320001
0.015768778 -0.04817038 1.2320001
0.024856526 -0.047256481 1.2327275
0.035401747 -0.047642354 1.2320002
0.045362242 -0.047522347 1.2320002
0.05508272 -0.047522347 1.2320002
0.064830817 -0.047542073 1.2325002
0.074644662 -0.047601249 1.2340001
0.085350513 -0.047538128 1.2324002
0.094324648 -0.047882363 1.2320002
0.10604393 -0.047436632 1.2328891
0.1151298 -0.046371084 1.2344617
0.12502427 -0.046142686 1.23475
0.13530801 -0.045060005 1.2347502
0.14478481 -0.043206811 1.2355556
0.15440729 -0.041717064 1.2360001
0.16433994 -0.042981215 1.2360001
0.17445314 -0.0433424 1.2360001
0.18528877 -0.043342404 1.2360001
0.19592425 -0.044924561 1.2347502
0.20491207 -0.046706796 1.2348573
0.21502663 -0.046204381 1.2344615
0.22501579 -0.04543763 1.2340001
0.23439263 -0.043969132 1.234182
0.24504431 -0.045309257 1.233778
0.25517243 -0.04588544 1.2344002
0.26451331 -0.047231689 1.2337779
0.27271348 -0.048062373 1.2320001
0.14580719 -0.039241936 1.2320001
0.15444762 -0.037801865 1.2320001
0.16524816 -0.039529949 1.2320001
0.17496864 -0.039961971 1.2320001
0.18468912 -0.039961971 1.2320001
0.19116944 -0.039961971 1.2320001
0.25705269 0.20845029 1.2320001
0.26137292 0.20845029 1.2320001
0.25897083 0.21562845 1.2360001
0.2625871 0.21515709 1.2343334
0.26487738 0.22591831 1.2345002
0.27670965 0.22745924 1.2320001
0.26767439 0.23464626 1.2353334
0.2734566 0.23338565 1.2329233
0.37873316 -0.49660978 1.245
0.38520351 -0.49518585 1.244167
0.39150795 -0.4927381 1.2416668
0.38682115 -0.48499167 1.2442502
0.3915042 -0.48475647 1.2410001
0.38673711 -0.47478077 1.2450002
0.39364123 -0.47466877 1.2434447
0.39639544 -0.46462572 1.2441114
0.38964763 -0.45186031 1.245
0.39606088 -0.45452154 1.2445791
0.38964763 -0.44858596 1.245
0.39622608 -0.44589189 1.2442942
0.40153068 -0.44205689 1.2426001
0.39765158 -0.43912673 1.245
0.40310112 -0.43554631 1.2440002
0.40483081 -0.42446637 1.2443335
0.39837924 -0.41365954 1.245
0.40457359 -0.41443893 1.2432858
0.41015467 -0.41233054 1.2410001
0.39837924 -0.40929374 1.245
0.40549502 -0.40527669 1.2444003
0.41352028 -0.40340441 1.2427143
0.42103407 -0.40145108 1.2410001
0.40633121 -0.39494896 1.245
0.41524607 -0.39583015 1.2442003
0.42130214 -0.39514551 1.2432222
0.40747464 -0.38782856 1.245
0.41475099 -0.3852818 1.2450002
0.42224529 -0.38418657 1.2428666
0.41666105 -0.37573165 1.245
0.42554328 -0.37494919 1.2437999
0.43151814 -0.37049511 1.243
0.41802534 -0.36781865 1.245
0.42625317 -0.365132 1.245
0.43297434 -0.36387506 1.2427142
0.42800429 -0.35628048 1.245
0.43520737 -0.354491 1.2442003
0.44450748 -0.35298783 1.24275
0.45076886 -0.35253835 1.245
0.42893985 -0.34817255 1.245
0.43570685 -0.34664455 1.245
0.44455597 -0.34464633 1.245
0.43767145 -0.33944094 1.245
0.44367442 -0.33889523 1.245
-0.16227537 -0.072247565 1.2423334
-0.15492201 -0.073955305 1.2425554
-0.14495589 -0.075070851 1.244
-0.13574767 -0.074418485 1.2437502
-0.12591363 -0.072333366 1.245
-0.11449437 -0.074343339 1.2438234
-0.1054717 -0.073674083 1.243353
-0.094532803 -0.072312646 1.2446364
-0.085063837 -0.073070168 1.2440001
-0.075310059 -0.073127151 1.2450001
-0.065002471 -0.073057018 1.2437693
-0.056707181 -0.070887268 1.244
0.34817255 -0.07094425 1.245
-0.16917475 -0.061121199 1.245
-0.15231207 -0.068540432 1.2410001
-0.14421293 -0.067573361 1.2410001
-0.13432227 -0.067888767 1.2423334
-0.12519623 -0.067496665 1.2418001
-0.11749788 -0.068540432 1.2410001
-0.10444256 -0.068540432 1.2410001
-0.094651066 -0.068540432 1.2410001
-0.08485958 -0.068540432 1.2410001
-0.075430743 -0.068177782 1.2410001
-0.066364549 -0.068540432 1.2410001
-0.053666245 -0.067290083 1.243
-0.04469553 -0.066228442 1.2435
-0.034879934 -0.066491656 1.2433333
-0.025430152 -0.065033183 1.2432221
-0.015276444 -0.063938975 1.2446001
-0.0087315999 -0.060029749 1.245
0.01200595 -0.060029749 1.245
0.26958814 -0.060029749 1.245
0.27395394 -0.060029749 1.245
0.28486845 -0.060029753 1.245
0.2946915 -0.060029749 1.245
0.30471298 -0.061815754 1.245
0.31542906 -0.064395547 1.2450001
0.32543105 -0.064123914 1.2427143
0.33547041 -0.064761877 1.2430001
0.34243762 -0.066202141 1.243
-0.015231206 -0.059836883 1.2410001
-0.0054453271 -0.057735335 1.2426001
0.0054484829 -0.056665979 1.243
0.015611389 -0.056272354 1.2423334
0.024746921 -0.055408332 1.2427142
0.034569375 -0.055531569 1.2420001
0.045222118 -0.055031728 1.243
0.054988597 -0.055584565 1.2431818
0.064787127 -0.055344261 1.2432222
0.075200066 -0.054792061 1.2431818
0.084890261 -0.054859951 1.2432224
0.093936458 -0.054991174 1.2438573
0.10567427 -0.054318395 1.2427143
0.11488201 -0.052661076 1.2427778
0.12515113 -0.053895656 1.2426471
0.13488832 -0.05373973 1.2431539
0.143539 -0.05221013 1.2444286
0.1547676 -0.051734727 1.245
0.1651208 -0.051921833 1.245
0.174632 -0.051298149 1.245
0.18521824 -0.051874746 1.2438571
0.19527687 -0.053217173 1.2424285
0.20501466 -0.052508302 1.2426001
0.21519215 -0.052437618 1.2432222
0.22469404 -0.052525483 1.243
0.23455502 -0.05221013 1.2444286
0.24642311 -0.052855745 1.2442727
0.25541732 -0.054045372 1.2435713
0.26418057 -0.054941885 1.2431179
0.27551371 -0.056628805 1.2422001
0.28504115 -0.056573052 1.2410001
0.29492697 -0.056591641 1.2414
0.30474505 -0.056693938 1.2410001
0.31410477 -0.059215207 1.2410001
0.32529506 -0.059836883 1.2410001
0.33508655 -0.059836883 1.2410001
0.14569761 -0.04835831 1.2415714
0.15616049 -0.047338679 1.2413334
0.16536738 -0.047869503 1.2410001
0.17515889 -0.047869511 1.2410001
0.18495037 -0.047869507 1.2410001
0.19147803 -0.047869503 1.2410001
0.22629221 -0.048957448 1.2410001
0.23499575 -0.048957448 1.2410001
0.24478726 -0.048957448 1.2410001
0.25457874 -0.048957448 1.2410001
0.25784257 0.21650071 1.2410001
0.26001847 0.21650073 1.2410001
0.25727141 0.22511221 1.2435
0.26196551 0.2265653 1.2425001
0.25754428 0.23492299 1.2435
0.26238775 0.23458229 1.2419231
0.25662732 0.24375243 1.2445999
0.26484436 0.24523108 1.2432401
0.27311599 0.24579686 1.2420911
0.26613188 0.25394401 1.245
0.27194288 0.25322041 1.2418001
0.35871008 -0.49612364 1.2590001
0.36533242 -0.49888295 1.2590001
0.37449026 -0.49526423 1.2534091
0.38098469 -0.4927597 1.25
0.37575501 -0.48553059 1.2552001
0.38210866 -0.48528558 1.25
0.37744576 -0.47507709 1.2566252
0.38275895 -0.47340003 1.25
0.39121249 -0.4701125 1.25
0.37828159 -0.46562526 1.2574615
0.38481575 -0.46448138 1.2515219
0.3921518 -0.46478987 1.25
0.37877664 -0.45554528 1.2582
0.38486031 -0.4548794 1.2536669
0.39230832 -0.45805833 1.25
0.38633534 -0.44540462 1.2563335
0.39235947 -0.44376427 1.2505555
0.3881427 -0.43523487 1.2589999
0.39472789 -0.43489251 1.2516669
0.40217084 -0.43175834 1.25
0.38961434 -0.42934838 1.2590001
0.39560792 -0.42525819 1.2541853
0.40217081 -0.42554858 1.25
0.39560816 -0.41515979 1.2541853
0.38961434 -0.40727392 1.2590001
0.39566785 -0.40506732 1.2548078
0.40348583 -0.4043625 1.25
0.39728507 -0.39628631 1.2550457
0.40272215 -0.39454022 1.2517272
0.39844409 -0.38740692 1.2590001
0.40392449 -0.38470247 1.2532856
0.41181415 -0.38288414 1.25
0.40542641 -0.37557888 1.2550871
0.41357934 -0.37424022 1.2505883
0.42189583 -0.37367916 1.25
0.40677276 -0.36642647 1.2584286
0.41481969 -0.36496338 1.2527001
0.42342997 -0.36359748 1.25
0.40948135 -0.35871008 1.2590001
0.41629446 -0.35589442 1.2565421
0.42412591 -0.3544603 1.2508823
0.43066248 -0.3517625 1.25
0.45257917 -0.3517625 1.25
0.41794679 -0.34636822 1.2579091
0.42505306 -0.34569272 1.2531203
0.43410659 -0.34393516 1.25
0.44162083 -0.34409165 1.25
0.45038751 -0.34573543 1.25
0.41874683 -0.339405 1.2570001
0.42498448 -0.33578622 1.2561543
0.43440664 -0.33481029 1.2512001
0.44460586 -0.33493194 1.2509999
0.45038751 -0.3386125 1.25
0.42779824 -0.32601914 1.2585
0.43449855 -0.32510856 1.2531788
0.44405636 -0.32538363 1.2553334
0.42934838 -0.31676862 1.2590001
0.43557808 -0.31442446 1.254828
0.44205913 -0.31625748 1.25
0.43678284 -0.30698666 1.257375
0.44038561 -0.3024202 1.2590001
0.43817815 -0.2924867 1.2590001
0.44101629 -0.29437876 1.2589999
0.43782839 -0.28563553 1.2580001
0.43597072 -0.27924201 1.2590001
-0.14348403 -0.091609038 1.2590001
-0.13796541 -0.09271276 1.2590001
-0.16003989 -0.082779251 1.2590001
-0.15321767 -0.085042208 1.2543334
-0.14471257 -0.085904419 1.2533529
-0.13539991 -0.084957607 1.2544374
-0.12480765 -0.085307434 1.2567145
-0.11506832 -0.085417703 1.255706
-0.10486211 -0.085051298 1.2558126
-0.095058113 -0.085224614 1.2574615
-0.085371487 -0.084016837 1.2571539
-0.074601382 -0.084616743 1.2564546
-0.064765282 -0.084199116 1.2575002
-0.055921983 -0.08130762 1.2589999
-0.049667548 -0.0805718 1.2590001
-0.15670417 -0.079265274 1.25
-0.14793751 -0.079995833 1.25
-0.13259584 -0.078899994 1.25
-0.124925 -0.077804156 1.25
-0.1165236 -0.079265274 1.25
-0.10454249 -0.079557501 1.25
-0.095650598 -0.077960715 1.25
-0.085631549 -0.07874345 1.25
-0.0756125 -0.078899994 1.25
-0.064167127 -0.0782912 1.25
-0.054589026 -0.075347133 1.2511538
-0.045039531 -0.074707441 1.2531002
-0.035164852 -0.074732341 1.2535
-0.025654433 -0.074404605 1.254167
-0.015717437 -0.073580459 1.256091
-0.0055186166 -0.072109915 1.2589999
0.0055186166 -0.071742013 1.2590001
0.016169241 -0.072401851 1.2576667
0.02361968 -0.072183505 1.2590001
0.30683509 -0.071742013 1.2590001
0.31526226 -0.072541311 1.2585
0.32464731 -0.072621793 1.2572223
0.33545414 -0.073302619 1.2573334
0.34507912 -0.073861971 1.2549336
0.35386693 -0.07672397 1.2561666
-0.021916667 -0.069037497 1.25
-0.015341667 -0.068306945 1.25
-0.0052058757 -0.065198451 1.253044
0.005492317 -0.064814575 1.2530004
0.015543991 -0.065012909 1.2523686
0.025268622 -0.064821914 1.2531203
0.035015199 -0.064144365 1.255059
0.045429096 -0.064582966 1.2559134
0.055027843 -0.06494084 1.2554003
0.06487105 -0.064878754 1.2542003
0.074827798 -0.06418708 1.2542634
0.085170098 -0.064268962 1.2552003
0.094738342 -0.064488351 1.2551502
0.10477288 -0.063219592 1.2562668
0.11474417 -0.061888732 1.2561001
0.1250336 -0.061845422 1.2572222
0.13526854 -0.061908714 1.2565
0.14449659 -0.062211417 1.2581999
0.15452126 -0.061808504 1.2589999
0.16445477 -0.061808504 1.2589999
0.17549202 -0.061808504 1.2589999
0.18542552 -0.061808504 1.2589999
0.19619122 -0.062257599 1.2579091
0.20547311 -0.062393598 1.2574
0.21488413 -0.061712075 1.257
0.22502086 -0.061932825 1.2570001
0.2345653 -0.061595727 1.2578572
0.2461075 -0.061252825 1.2572858
0.2556403 -0.062412061 1.2556924
0.26476496 -0.063318543 1.2552668
0.27522072 -0.064390764 1.2546155
0.28494859 -0.065405056 1.2544118
0.29483452 -0.065893024 1.2536844
0.30451354 -0.067401908 1.2540002
0.31398034 -0.068718247 1.2508334
0.32546249 -0.069037497 1.25
0.335325 -0.069037497 1.25
0.0295875 -0.058079164 1.25
0.036162499 -0.058079164 1.25
0.042737499 -0.058079164 1.25
0.051504165 -0.058079164 1.25
0.066845834 -0.058079164 1.25
0.0756125 -0.058079164 1.25
0.085840277 -0.058079164 1.25
0.095337495 -0.058079164 1.25
0.10541916 -0.057640832 1.25
0.11575603 -0.057208341 1.2522223
0.124925 -0.058079164 1.25
0.13533542 -0.058079164 1.25
0.14527243 -0.056721311 1.2522223
0.15442631 -0.055818833 1.2516668
0.16514207 -0.056147587 1.2516667
0.17539573 -0.056214221 1.2534617
0.1847111 -0.056203458 1.2529167
0.19385146 -0.057791322 1.2516667
0.2057427 -0.057257287 1.25
0.21499923 -0.05704141 1.25125
0.2251918 -0.057182532 1.2516667
0.23571067 -0.056459703 1.2529
0.24409907 -0.056855332 1.2520001
0.2531375 -0.058079164 1.25
0.25532916 0.23852639 1.25
0.25334868 0.24701014 1.257875
0.25838375 0.25251567 1.256
0.26374143 0.25825635 1.25225
0.27067083 0.25971249 1.25
0.25827128 0.26489359 1.2589999
0.26516449 0.26504964 1.255667
0.27103171 0.26445088 1.2516667
0.25839391 0.27433658 1.2589999
0.26485133 0.27478343 1.2588001
0.27041221 0.27261966 1.2590001
0.26580873 0.28468066 1.2581111
0.3561925 -0.49489695 1.2657499
0.3655389 -0.49463028 1.2646956
0.37121573 -0.49421558 1.2640001
0.35809231 -0.48565179 1.2668571
0.36489353 -0.48487386 1.2661817
0.37216553 -0.48487583 1.2640001
0.35905111 -0.4768821 1.268
0.3653712 -0.47510478 1.2671303
0.37288216 -0.47500926 1.2642858
0.36501592 -0.46525753 1.2669998
0.37345752 -0.46466035 1.2656
0.36572078 -0.457151 1.268
0.37413675 -0.45496261 1.2663999
0.38008058 -0.45099941 1.2640001
0.37517291 -0.44519404 1.2667366
0.38155809 -0.44508949 1.2640001
0.3757253 -0.43464079 1.2679999
0.38352394 -0.43494201 1.2645714
0.3760429 -0.42511266 1.2679999
0.38469419 -0.42514548 1.2649523
0.39116165 -0.42551297 1.2640001
0.37850434 -0.41685498 1.268
0.38507059 -0.41503522 1.2658461
0.39116165 -0.41553998 1.2640001
0.38547513 -0.40455073 1.2661817
0.39116165 -0.40335083 1.2640001
0.38584009 -0.3951008 1.2675554
0.3928549 -0.39340985 1.265
0.38647088 -0.38498875 1.268
0.3941507 -0.38460129 1.2655652
0.40002647 -0.3822968 1.2640001
0.38795304 -0.37683693 1.268
0.3942405 -0.37463912 1.2667825
0.40141165 -0.37398601 1.2640001
0.39591515 -0.36480841 1.2672498
0.40365905 -0.36375427 1.2644211
0.39701697 -0.35545975 1.2679999
0.40501681 -0.35432172 1.2663332
0.41237399 -0.35348603 1.2640001
0.3983281 -0.34534118 1.268
0.40530053 -0.3449533 1.2673683
0.41367483 -0.34406433 1.2644
0.39906919 -0.33793044 1.268
0.40544245 -0.33548489 1.2679999
0.41452926 -0.33434406 1.2651852
0.42329675 -0.332432 1.2640001
0.41554394 -0.32546663 1.2670907
0.42460424 -0.3239418 1.2646
0.41766348 -0.3147887 1.2679999
0.42463738 -0.31436637 1.2655652
0.43105349 -0.31248608 1.2640001
0.4179666 -0.30791688 1.268
0.425675 -0.30518025 1.2667998
0.43447155 -0.30376375 1.2646
0.42797112 -0.29457754 1.268
0.43401781 -0.29486415 1.2659129
0.42797112 -0.28457302 1.268
0.4338665 -0.28500912 1.2654544
0.42797112 -0.27901495 1.268
0.43431395 -0.27599573 1.2664
0.43686405 -0.2678988 1.268
-0.1411749 -0.10115682 1.268
-0.13895166 -0.10226843 1.268
-0.15328254 -0.092191145 1.2670001
-0.14439051 -0.095954664 1.2653333
-0.13451047 -0.095333479 1.2665713
-0.12471433 -0.094158299 1.2658461
-0.11470958 -0.094562769 1.266857
-0.10490865 -0.09399531 1.2663333
-0.094565354 -0.094397582 1.2667692
-0.084867001 -0.094271332 1.2673844
-0.075867608 -0.093375526 1.268
-0.065140538 -0.09270855 1.268
-0.055024859 -0.090874389 1.268
-0.15760186 -0.087678939 1.266
-0.1340809 -0.089756638 1.2640001
-0.12632415 -0.089756638 1.2640001
-0.1163512 -0.089756638 1.2640001
-0.10416203 -0.089756638 1.2640001
-0.09418907 -0.089756638 1.2640001
-0.084493138 -0.088925555 1.2640001
-0.076016113 -0.089313395 1.2640001
-0.066117033 -0.089387268 1.2640001
-0.054513048 -0.085953824 1.2643636
-0.045008652 -0.08435189 1.2659999
-0.034904189 -0.084614299 1.2662222
-0.02522135 -0.083363749 1.2656
-0.015926501 -0.08260148 1.2675556
0.33516616 -0.082404912 1.2668
0.3441695 -0.082327411 1.2656
0.35404798 -0.082473285 1.267
-0.022162132 -0.078675576 1.2640001
-0.013464598 -0.078112498 1.265143
-0.0053287307 -0.076162688 1.2664001
0.0050542755 -0.075335659 1.2657778
0.014631089 -0.076996833 1.2661818
0.025028249 -0.075582698 1.2657777
0.034425486 -0.074407957 1.2667692
0.045308687 -0.073768154 1.2661818
0.054885175 -0.073388681 1.2662222
0.0649762 -0.073116332 1.2657778
0.074654132 -0.073765531 1.2671999
0.08448261 -0.073366478 1.268
0.094457313 -0.073343687 1.2675998
0.10449165 -0.073366478 1.268
0.11354335 -0.071937263 1.268
0.12427838 -0.070476286 1.268
0.13450521 -0.071143255 1.268
0.14450973 -0.071143255 1.268
0.15451424 -0.070031643 1.268
0.16451877 -0.070031643 1.268
0.17785813 -0.070031643 1.268
0.18452781 -0.070031643 1.268
0.19453232 -0.070031643 1.268
0.20453686 -0.070031643 1.268
0.21454138 -0.070031643 1.268
0.2245459 -0.070031643 1.268
0.2334388 -0.070031643 1.268
0.25530055 -0.071884327 1.268
0.26424968 -0.073281005 1.2665
0.27516288 -0.072587416 1.2673334
0.28493857 -0.074012578 1.2663333
0.29417303 -0.07532607 1.2668235
0.30452967 -0.075662315 1.2658823
0.31424677 -0.077176943 1.2658181
0.32508487 -0.07766705 1.2656
0.33417329 -0.077725768 1.2640001
0.34462118 -0.078675576 1.2640001
0.35348603 -0.078675576 1.2640001
0.03656752 -0.069810718 1.2640001
0.042108051 -0.069810718 1.2640001
0.077567473 -0.069810718 1.2640001
0.08421611 -0.069810718 1.2640001
0.098621495 -0.069810718 1.2640001
0.10551638 -0.068825737 1.2640001
0.11524308 -0.067040451 1.2640001
0.12521605 -0.066486403 1.2640001
0.13518901 -0.067040458 1.2640001
0.14522026 -0.066513136 1.2645
0.15457194 -0.066633292 1.2644445
0.16461539 -0.066363283 1.2640001
0.17470837 -0.066704601 1.2657778
0.18462718 -0.06638705 1.2644445
0.19401336 -0.066482119 1.2662222
0.20486549 -0.06702242 1.2651428
0.21531285 -0.066593349 1.2659999
0.2249347 -0.066566616 1.2655001
0.23463263 -0.06621132 1.2657777
0.24463747 -0.065474257 1.2658181
0.25427854 -0.067837514 1.2644
0.26511455 -0.068979636 1.2640001
0.27407172 -0.069071978 1.2640001
0.2825672 -0.069810718 1.2640001
0.25477639 0.25557187 1.2651428
0.26040506 0.25597262 1.2640001
0.25491875 0.26532704 1.2655385
0.26040506 0.26040506 1.2640001
0.24788977 0.27568009 1.268
0.25284559 0.27502787 1.265
0.25626528 0.28329659 1.2654544
0.26217803 0.2858915 1.2640001
0.2581166 0.29190966 1.268
0.26297545 0.29341331 1.2657143
0.33835477 -0.4985691 1.2780001
0.34554699 -0.49524075 1.2774444
0.35225976 -0.49499545 1.2739999
0.34602502 -0.48650345 1.278
0.35370684 -0.48498836 1.2744585
0.35535148 -0.47582567 1.276158
0.36046693 -0.47504258 1.273
0.35768035 -0.46565503 1.2772857
0.3613683 -0.46408278 1.2735554
0.35852158 -0.45487425 1.278
0.36494482 -0.45425832 1.275353
0.35852158 -0.44479084 1.278
0.36542502 -0.44540948 1.2768637
0.37173852 -0.4432573 1.2746667
0.35964197 -0.43470746 1.2780001
0.36590791 -0.43481711 1.276421
0.37162688 -0.43523869 1.273
0.35964194 -0.42686477 1.2780001
0.36556321 -0.42533073 1.276913
0.37278464 -0.42291394 1.2747858
0.36524388 -0.41790172 1.2780001
0.37659758 -0.41529906 1.2753075
0.38055485 -0.41403475 1.273
0.37831762 -0.40566671 1.2763333
0.38055485 -0.40510684 1.273
0.37868845 -0.39549416 1.278
0.38204509 -0.39495665 1.2746665
0.37980881 -0.38877186 1.2780001
0.38385493 -0.38481522 1.2754999
0.38609621 -0.37463915 1.2751876
0.39171484 -0.37162688 1.273
0.38790974 -0.3655442 1.2756666
0.39208683 -0.3649309 1.2729999
0.38877186 -0.35964197 1.2780001
0.39317882 -0.35502371 1.2755001
0.38877186 -0.3417159 1.2780001
0.39430177 -0.34482658 1.2748183
0.39582738 -0.33466133 1.2763333
0.40259579 -0.333404 1.2729999
0.39922872 -0.32603058 1.2780001
0.40593061 -0.32541481 1.2756002
0.41314197 -0.32163024 1.273
0.39885527 -0.31650737 1.2780001
0.40641063 -0.31540331 1.2774737
0.41337904 -0.3141045 1.2744285
0.40781832 -0.30698413 1.2780001
0.41505903 -0.30614981 1.275353
0.42276961 -0.30233213 1.2746665
0.41622117 -0.29073861 1.2780001
0.42439738 -0.29404807 1.2753531
0.41672319 -0.28507572 1.2774444
0.42439774 -0.2846719 1.2742501
0.42658427 -0.27655199 1.2771666
0.43353707 -0.27369201 1.2756667
0.42910555 -0.26440966 1.2780001
0.43455419 -0.26553857 1.2773334
0.42910555 -0.256567 1.2780001
0.43227324 -0.25622949 1.2763333
-0.14431697 -0.10376457 1.276125
-0.1341826 -0.10287552 1.2754999
-0.1258212 -0.10280094 1.2765714
-0.11457989 -0.10226157 1.2771667
-0.10606264 -0.10270151 1.278
-0.0952323 -0.10232804 1.278
-0.085148886 -0.10195458 1.2780001
-0.079546981 -0.10195458 1.2780001
-0.153194 -0.096164197 1.2755001
-0.14842756 -0.099323705 1.273
-0.1328036 -0.099323712 1.273
-0.12499163 -0.099323705 1.273
-0.11494765 -0.099323705 1.273
-0.10468049 -0.098877311 1.273
-0.095231712 -0.098951697 1.2729999
-0.084815748 -0.099323705 1.273
-0.073938213 -0.097593747 1.2746665
-0.064584032 -0.09754049 1.2761817
-0.054456409 -0.0961404 1.2751428
-0.04505891 -0.093478359 1.2758571
-0.03486057 -0.091982268 1.2752726
-0.024600143 -0.091693632 1.2754999
-0.015685318 -0.090750776 1.2780001
0.32827133 -0.090750776 1.2780001
0.3349936 -0.090750776 1.2780001
0.34485298 -0.091198929 1.2780001
0.35516044 -0.091124237 1.278
0.36188275 -0.090750776 1.2780001
-0.024179928 -0.088163733 1.273
-0.013302064 -0.086431198 1.2743635
-0.0044727535 -0.084986702 1.2754999
0.0047916095 -0.08448337 1.2751428
0.014009738 -0.083459541 1.2745383
0.023959477 -0.082171895 1.2770001
0.034731779 -0.081787743 1.2780001
0.044815201 -0.081787743 1.2780001
0.056019001 -0.081787743 1.2780001
0.066102423 -0.081787743 1.2780001
0.075065456 -0.081787743 1.2780001
0.082908124 -0.081787743 1.2780001
0.097473063 -0.081787743 1.2780001
0.10531572 -0.081787743 1.2780001
0.11241146 -0.082534663 1.2780001
0.23565327 -0.081787743 1.2780001
0.26216891 -0.081787743 1.2780001
0.27505329 -0.081787743 1.2780001
0.28541681 -0.083188213 1.278
0.29473114 -0.083799876 1.2769285
0.30471402 -0.083733067 1.2760768
0.31505001 -0.08507777 1.2768888
0.32503515 -0.084774494 1.2760557
0.33419099 -0.08693067 1.2757272
0.34568 -0.087326735 1.2729999
0.35516593 -0.086768739 1.2729999
0.36192781 -0.086516656 1.275
-0.0022319932 -0.079235762 1.273
0.0044639865 -0.079235762 1.273
0.01004397 -0.079235762 1.273
0.025667923 -0.079235762 1.273
0.035339896 -0.078863762 1.2729999
0.043951392 -0.078595512 1.2746667
0.054767996 -0.078244254 1.2749999
0.064790271 -0.078197569 1.2742499
0.075087957 -0.078312926 1.274111
0.084941223 -0.078236476 1.2748749
0.095007874 -0.078244254 1.2749999
0.1050045 -0.078197569 1.2742499
0.11595725 -0.07656084 1.2748749
0.12495933 -0.075771168 1.2753075
0.13425975 -0.075924583 1.2752726
0.14477369 -0.076179795 1.2757777
0.15497752 -0.074698769 1.2744285
0.16493168 -0.075901143 1.2755001
0.17483683 -0.073975727 1.2750589
0.18532826 -0.075150162 1.2764615
0.1947493 -0.074548818 1.2754999
0.20478137 -0.074977785 1.2764615
0.21566868 -0.073803723 1.2755001
0.22582799 -0.075677663 1.2756667
0.2350114 -0.07566835 1.2747647
0.24552236 -0.073883705 1.276889
0.2548213 -0.076286249 1.2753075
0.26445496 -0.07813409 1.2752222
0.27460229 -0.077318422 1.2753075
0.28377977 -0.078642502 1.2737142
0.2979711 -0.079235762 1.273
0.30020311 -0.079235762 1.273
0.23993929 -0.068075798 1.273
0.24217127 -0.068075798 1.273
0.25304005 0.26535547 1.2771667
0.249356 0.27059937 1.2755001
0.2515924 0.27059937 1.2755001
0.24850027 0.28390425 1.2780001
0.25315329 0.28601551 1.2737142
0.25449437 0.29507086 1.27675
0.26114321 0.2979711 1.273
0.25701517 0.30429521 1.278
0.26268551 0.30404899 1.2750832
0.25880778 0.31034526 1.2780001
0.26468977 0.31398648 1.278
0.26553005 0.32154906 1.2780001
0.33448064 -0.49476001 1.2850457
0.3408033 -0.49489588 1.2830001
0.33601102 -0.48570719 1.2864212
0.34397942 -0.48362458 1.2833127
0.33817938 -0.47593534 1.2880001
0.34554058 -0.47489297 1.2850457
0.35295075 -0.47307548 1.2830001
0.33987314 -0.46746671 1.2880001
0.34605929 -0.46476418 1.2847395
0.35395437 -0.46400815 1.2830001
0.34622002 -0.45508993 1.2851056
0.35430047 -0.45440438 1.2830001
0.34791115 -0.44576851 1.286
0.35430047 -0.44540623 1.2830001
0.37004712 -0.44540626 1.2830001
0.34935385 -0.43951026 1.2855
0.35500911 -0.43528247 1.2846004
0.35629278 -0.42510572 1.2853334
0.36104903 -0.42291102 1.2830001
0.37004712 -0.42178625 1.2830001
0.35701713 -0.4165186 1.2855
0.36373952 -0.41467044 1.2841907
0.37307954 -0.4147363 1.2842503
0.35793948 -0.4087511 1.2880001
0.36405239 -0.40567446 1.2848424
0.37396383 -0.40550816 1.2848752
0.3657093 -0.3952705 1.2845628
0.37382662 -0.394723 1.2834766
0.36795849 -0.38488784 1.2875001
0.37514421 -0.3845396 1.2857085
0.38154098 -0.38341555 1.2838334
0.36847818 -0.37562945 1.2880001
0.37600586 -0.37559527 1.2880001
0.38208979 -0.37484726 1.2851429
0.38342223 -0.3642593 1.2860003
0.37826413 -0.35116461 1.2880001
0.38443583 -0.35490137 1.2860001
0.39029288 -0.35542521 1.2830001
0.3782641 -0.34664807 1.2880001
0.38472986 -0.34548089 1.2859548
0.39074278 -0.34485245 1.2830001
0.38537991 -0.33532441 1.2870911
0.39132658 -0.33421522 1.2836251
0.38774902 -0.32564592 1.2880001
0.39507255 -0.32525402 1.2845912
0.40154052 -0.32430676 1.2830001
0.38870877 -0.31587878 1.2880001
0.39513198 -0.31448865 1.2853916
0.4033401 -0.31335908 1.2830001
0.3895556 -0.30486959 1.2880001
0.39601922 -0.30508286 1.2870003
0.40434551 -0.30428049 1.2832634
0.41447529 -0.30199894 1.2830001
0.42291102 -0.3003118 1.2830001
0.3895556 -0.29470727 1.2880001
0.39633042 -0.29519123 1.2880001
0.40405026 -0.29459235 1.2848185
0.41433471 -0.29539096 1.2830002
0.4225361 -0.29731247 1.2830001
0.39813712 -0.28522244 1.2880001
0.40517542 -0.28494117 1.2864784
0.41377085 -0.28376722 1.2835885
0.40649274 -0.27599567 1.2880001
0.41608459 -0.2751359 1.2862502
0.42483923 -0.2739602 1.2830001
0.40988025 -0.26986605 1.2880001
0.41571695 -0.26551461 1.287762
0.424445 -0.26525044 1.2842504
0.43303388 -0.26206985 1.2830001
0.41644982 -0.25611097 1.2880001
0.42490819 -0.25554475 1.2850837
0.43168417 -0.25397158 1.2830001
0.41891342 -0.24954142 1.2880001
0.42515692 -0.24529056 1.2880001
0.43182093 -0.2450732 1.2865715
0.41891342 -0.23824994 1.2880001
0.42625287 -0.23768537 1.2880001
0.43095765 -0.23561525 1.2880001
-0.15017651 -0.11178552 1.2880001
-0.144071 -0.11372016 1.2866365
-0.13537213 -0.11329105 1.2880001
-0.12583712 -0.11278921 1.2880001
-0.11585045 -0.11223718 1.2880001
-0.10404281 -0.11243075 1.2880001
-0.09484832 -0.11291467 1.2880001
-0.084685996 -0.11178552 1.2880001
-0.074523672 -0.11178552 1.2880001
-0.06661965 -0.11178552 1.2880001
-0.1524348 -0.10425787 1.2880001
-0.14593804 -0.10769609 1.2830001
-0.13503571 -0.10803044 1.283625
-0.12440725 -0.10752121 1.28425
-0.11519518 -0.10721163 1.2848182
-0.10424066 -0.10736214 1.2849233
-0.094412535 -0.10709567 1.2834547
-0.085098632 -0.10709096 1.2837694
-0.074987836 -0.10591479 1.2852225
-0.065363385 -0.10593815 1.2855
-0.05556808 -0.10460575 1.2857503
-0.045103557 -0.10325761 1.2862145
-0.035250764 -0.1029371 1.2867502
-0.025149174 -0.10254704 1.2880001
-0.015808053 -0.10162319 1.2880001
0.33761486 -0.10049405 1.2880001
0.35793948 -0.10049405 1.2880001
0.3634097 -0.10070988 1.2850001
-0.16084115 -0.093355358 1.2830001
-0.15552199 -0.096915938 1.2855
-0.042741008 -0.097854413 1.2830001
-0.034617715 -0.096854627 1.2830001
-0.024744794 -0.096729651 1.2830001
-0.014348131 -0.095393546 1.2839377
-0.004769404 -0.093929365 1.286077
0.0041324114 -0.092808604 1.2857778
0.014678907 -0.092307739 1.2880001
0.024841227 -0.091460876 1.2880001
0.03048696 -0.091460876 1.2880001
0.27777007 -0.091460876 1.2880001
0.28535348 -0.092004657 1.2865715
0.29455948 -0.092456877 1.2861251
0.30498761 -0.092174597 1.2861251
0.3155638 -0.09341263 1.2863334
0.32509592 -0.093622498 1.2844287
0.33524755 -0.095924586 1.2849231
0.34526545 -0.095692888 1.2841538
0.3552058 -0.096075155 1.28425
0.36329854 -0.095604889 1.2830001
0.0022495266 -0.088856302 1.2830001
0.015606044 -0.088312514 1.2844287
0.025105739 -0.086998567 1.2857274
0.034958251 -0.086834714 1.2863334
0.045107424 -0.086834706 1.2863334
0.055133082 -0.086083412 1.2863336
0.064736307 -0.085717395 1.2865001
0.074903436 -0.086178966 1.2857274
0.085628539 -0.086233661 1.2863334
0.094500042 -0.085933156 1.2863334
0.10487475 -0.086383648 1.2863334
0.11464706 -0.085582048 1.2863334
0.12519106 -0.083460853 1.2865001
0.13482012 -0.082879364 1.2880001
0.14453077 -0.082427703 1.2880001
0.1546931 -0.082427703 1.2880001
0.16566019 -0.083114572 1.2855
0.17521566 -0.083540097 1.2857778
0.18534136 -0.083395541 1.2880001
0.19534239 -0.083556846 1.2880001
0.2053792 -0.083933219 1.2880001
0.21416147 -0.081674941 1.2880001
0.22575802 -0.08361119 1.286889
0.23467074 -0.084918872 1.2852727
0.24541903 -0.083897673 1.2874446
0.25571755 -0.08336398 1.2850001
0.2658101 -0.085124172 1.2852727
0.274896 -0.086130239 1.2842501
0.2835426 -0.087220274 1.2830001
0.29401311 -0.088406399 1.2830001
0.30481085 -0.088856302 1.2830001
0.31155944 -0.088856302 1.2830001
0.12822303 -0.079858199 1.2830001
0.13534652 -0.079858199 1.2830001
0.14509448 -0.079858199 1.2830001
0.15521733 -0.079858199 1.2830001
0.16534021 -0.079858199 1.2830001
0.17546308 -0.079858199 1.2830001
0.18446118 -0.079858199 1.2830001
0.1953339 -0.079483278 1.2830001
0.20470692 -0.079858199 1.2830001
0.2148298 -0.078958377 1.2830001
0.2238279 -0.079858199 1.2830001
0.24497345 -0.079408295 1.2830001
0.25194699 -0.079858199 1.2830001
0.24744794 0.28793943 1.2830001
0.25082222 0.28906417 1.2830001
0.24690671 0.29479134 1.2839091
0.25082222 0.29468799 1.2830001
0.24733879 0.30466476 1.2863334
0.25245824 0.30583337 1.2830001
0.24601865 0.31336135 1.2868462
0.25529164 0.31537205 1.284053
0.26251978 0.31560859 1.2830001
0.24502483 0.32406509 1.2880001
0.25576001 0.32413721 1.2876431
0.26282984 0.32493114 1.2857274
0.26313081 0.33303094 1.286
0.31799129 -0.49511629 1.2970001
0.32582107 -0.49475434 1.2950002
0.3195073 -0.48665169 1.2970001
0.32618117 -0.48499864 1.2959477
0.33190826 -0.48352674 1.2934285
0.32670856 -0.47717634 1.2970001
0.33428884 -0.47519881 1.2950556
0.33710968 -0.46553284 1.2963752
0.34092864 -0.4632552 1.2920001
0.33951911 -0.45549688 1.2970001
0.34210795 -0.45463011 1.29325
0.33959493 -0.4442023 1.2970001
0.34383082 -0.44407541 1.2938751
0.3392159 -0.43510604 1.2970001
0.34605604 -0.43478602 1.2942501
0.3522552 -0.43267357 1.2920001
0.33997396 -0.42638874 1.2970001
0.34695965 -0.42589346 1.2955002
0.35270765 -0.42381671 1.292625
0.34736475 -0.41520795 1.2970001
0.35334745 -0.41394201 1.2940589
0.34907025 -0.40705913 1.2970001
0.35516915 -0.40491 1.2956845
0.36141914 -0.40271264 1.294
0.35680205 -0.39546138 1.2970001
0.36223885 -0.39414364 1.294353
0.35634726 -0.38386357 1.2970001
0.36340988 -0.38442084 1.2954376
0.35613543 -0.3753722 1.2966155
0.36436468 -0.37439862 1.2943685
0.37437287 -0.37255973 1.2924999
0.35690317 -0.36625212 1.2970001
0.36498877 -0.36498874 1.2970004
0.37542373 -0.36490184 1.2945001
0.35816655 -0.35816655 1.2970001
0.36598369 -0.35518184 1.2970002
0.3755374 -0.3553786 1.2946472
0.36707333 -0.34622768 1.2970001
0.3752183 -0.34526449 1.2942501
0.36852619 -0.33492053 1.2970001
0.37632903 -0.33571282 1.2955296
0.38150495 -0.33388528 1.2932501
0.36908209 -0.32587472 1.2970001
0.37317544 -0.32587472 1.2970001
0.38324314 -0.32492065 1.2940588
0.3842147 -0.3147521 1.29475
0.38674703 -0.30557445 1.2943077
0.39126655 -0.30054033 1.2936667
0.38811481 -0.29846424 1.2945001
0.39213666 -0.29397598 1.2938181
0.39497191 -0.28597578 1.2951251
0.39780569 -0.27623808 1.295077
0.40429199 -0.27327064 1.2924545
0.40530932 -0.26508275 1.2947276
0.41101661 -0.26410899 1.293
0.40762764 -0.25640178 1.2970001
0.41405287 -0.25420496 1.2945001
0.41691104 -0.24556574 1.2951818
0.42118523 -0.24449131 1.2919999
0.41735217 -0.23672964 1.2965455
0.42440486 -0.23416418 1.2925882
0.43380621 -0.23445924 1.2920001
0.41956654 -0.22854437 1.2970001
0.42440826 -0.22661835 1.2946666
0.41956654 -0.21831104 1.2970001
0.42151156 -0.21812898 1.2936667
-0.14212959 -0.14212959 1.2970001
-0.14440365 -0.1344952 1.2970001
-0.13530737 -0.13132773 1.2970001
-0.15465452 -0.124623 1.2943529
-0.14515579 -0.12474611 1.2935627
-0.13530736 -0.12507403 1.2970003
-0.1273481 -0.12166292 1.2970001
-0.096648119 -0.12166292 1.2970001
-0.1634084 -0.11354123 1.2970001
-0.1552453 -0.11548884 1.293579
-0.14565922 -0.11847554 1.2920001
-0.13490458 -0.11802407 1.2931111
-0.12448072 -0.11767311 1.2947778
-0.11514734 -0.1164117 1.2947778
-0.10508577 -0.11689166 1.2945
-0.095281504 -0.11796854 1.293875
-0.085436359 -0.11672974 1.2945
-0.074935377 -0.11581172 1.295125
-0.065110989 -0.11422919 1.2947272
-0.054305643 -0.11293465 1.296
-0.045102458 -0.11256663 1.2970001
-0.034923267 -0.11159202 1.2970001
-0.025014807 -0.11029255 1.2970001
-0.017055551 -0.11029255 1.2970001
0.34907025 -0.11029255 1.2970001
-0.16373329 -0.10460738 1.2970002
-0.15570292 -0.10576799 1.2945
-0.053234708 -0.10986737 1.2920001
-0.045985721 -0.10896125 1.2920001
-0.035489801 -0.10835717 1.2919999
-0.024255436 -0.10723229 1.293
-0.014331747 -0.10569332 1.2938181
-0.0045411335 -0.10285947 1.295
0.0034111098 -0.10233328 1.2970001
0.28653324 -0.10119626 1.2970001
0.29494733 -0.10165107 1.2970001
0.30472583 -0.10119626 1.2970001
0.31528404 -0.10184599 1.2970001
0.32519248 -0.10233331 1.2970001
0.33518282 -0.10315005 1.2953333
0.34560847 -0.10390712 1.2940588
0.35483932 -0.10419358 1.295077
0.36278009 -0.10414064 1.294
-0.16455252 -0.097598873 1.2945
-0.15894902 -0.097785741 1.2920001
-0.00339796 -0.098540843 1.2920001
0.0050204196 -0.097624473 1.2927142
0.014748238 -0.097000748 1.2940832
0.024583682 -0.095687002 1.2942222
0.035175666 -0.094637156 1.2943333
0.045394529 -0.094195046 1.2945
0.054471102 -0.094195046 1.2945
0.064696245 -0.094207175 1.2946666
0.075017482 -0.09400513 1.2947272
0.084776834 -0.093859643 1.2946923
0.096100755 -0.094244935 1.2951818
0.10526003 -0.094852857 1.2943531
0.11368788 -0.094896622 1.2956363
0.12556133 -0.093074575 1.2970001
0.13530736 -0.093547113 1.2970001
0.14591971 -0.092857994 1.2970001
0.15463698 -0.092099972 1.2970001
0.16487031 -0.092099972 1.2970001
0.17442143 -0.092554785 1.2970001
0.18533698 -0.092099972 1.2970001
0.1955703 -0.092099972 1.2970001
0.2046666 -0.092099972 1.2970001
0.21540529 -0.093110673 1.2970001
0.2253015 -0.094089866 1.2954615
0.23542291 -0.094995931 1.2957501
0.24400464 -0.093998455 1.2962857
0.25469622 -0.092099972 1.2970001
0.26590416 -0.092749707 1.2970001
0.27613071 -0.094631784 1.2953333
0.28520796 -0.097066686 1.2942727
0.29537395 -0.097200125 1.2942222
0.30492714 -0.097107664 1.2939999
0.31359234 -0.097948089 1.2927142
0.32507151 -0.098540843 1.2920001
0.066826552 -0.089479603 1.2920001
0.074755117 -0.08947961 1.2920001
0.080418386 -0.08947961 1.2920001
0.10080615 -0.08947961 1.2920001
0.11779594 -0.088346958 1.2920001
0.12459186 -0.088346951 1.2919999
0.1353493 -0.08758945 1.2923845
0.14526162 -0.087385982 1.2945
0.15514767 -0.087223768 1.2945
0.16464932 -0.088224314 1.2934999
0.17442861 -0.088346958 1.2919999
0.18481974 -0.088132493 1.2933636
0.19500268 -0.088433526 1.29325
0.20501024 -0.088472813 1.2919999
0.21527387 -0.08724317 1.2924166
0.22436833 -0.087832116 1.2919999
0.23559189 -0.08947961 1.2920001
0.24554619 -0.088657185 1.2941428
0.25477999 -0.08837501 1.2942222
0.26410899 -0.089548871 1.293
0.27183682 -0.08947961 1.2920001
0.24416201 0.30673182 1.293
0.24578577 0.31827557 1.2920001
0.24578579 0.32507148 1.2919999
0.25225806 0.32733682 1.2919999
0.23900512 0.3381547 1.2970001
0.2453326 0.33456078 1.2965833
0.25522634 0.33590689 1.295158
0.26275715 0.33593804 1.2927142
0.24218881 0.34224802 1.2970001
0.25640178 0.34281656 1.2970001
0.26183382 0.34362373 1.29575
0.30858901 -0.49549723 1.3053335
0.31382784 -0.49501768 1.3029375
0.3082211 -0.48811221 1.307
0.31454703 -0.48514783 1.3035998
0.32165217 -0.48236409 1.302
0.31777695 -0.47505122 1.305182
0.32476753 -0.47436073 1.302
0.33215323 -0.47254789 1.302
0.31967914 -0.46634194 1.307
0.32527372 -0.4655844 1.3031363
0.33358002 -0.46484327 1.302
0.31967914 -0.45946714 1.307
0.32656696 -0.45576775 1.3055998
0.33539724 -0.45518628 1.302
0.32830942 -0.44431913 1.3058889
0.33500373 -0.44562313 1.3031765
0.32852885 -0.43842077 1.30575
0.33463281 -0.43489152 1.3035909
0.34128457 -0.43031535 1.302
0.33601952 -0.42507732 1.3042221
0.34291515 -0.42314073 1.302
0.33794957 -0.41757649 1.3050001
0.34284094 -0.41494471 1.3039231
0.34472531 -0.4052465 1.3025
0.35098666 -0.40235057 1.302
0.34691104 -0.39499792 1.306
0.35305002 -0.39466789 1.302
0.34726524 -0.3849614 1.3065455
0.35212812 -0.38522923 1.302
0.3486107 -0.37525058 1.307
0.35155737 -0.37438574 1.302
0.34947002 -0.36436546 1.307
0.35335103 -0.36492825 1.302
0.37552717 -0.36183015 1.302
0.34947002 -0.35863644 1.307
0.35584453 -0.35584667 1.3034999
0.36228672 -0.35361195 1.302
0.37552717 -0.35726446 1.302
0.3585777 -0.34484452 1.3057501
0.36362299 -0.34465042 1.3027693
0.37552717 -0.34128457 1.302
0.35894004 -0.33757803 1.3053335
0.36331677 -0.33532673 1.3032501
0.37628815 -0.33481655 1.302
0.36476183 -0.32549265 1.3035909
0.37590766 -0.32454377 1.302
0.38009286 -0.32416329 1.302
0.36677942 -0.31506914 1.3049999
0.37470427 -0.31444475 1.3033156
0.38054943 -0.31434706 1.302
0.367039 -0.30554754 1.307
0.37405348 -0.30487812 1.3051816
0.38307738 -0.3044062 1.3029376
0.3758235 -0.29704952 1.307
0.38531843 -0.29499418 1.30425
0.3792609 -0.28301343 1.307
0.3856678 -0.28532693 1.3047271
0.39350456 -0.28392822 1.302
0.38637325 -0.27535087 1.3066156
0.3937417 -0.27438682 1.3038422
0.40063843 -0.27051654 1.302
0.38655233 -0.26593056 1.307
0.39460531 -0.26481274 1.3056954
0.40177986 -0.26366803 1.302
0.38842732 -0.25780573 1.307
0.39623582 -0.2550399 1.3058888
0.40417653 -0.25505295 1.3025883
0.41205263 -0.25453666 1.302
0.39835763 -0.24558385 1.307
0.40597424 -0.24556555 1.3038749
0.41342235 -0.24563356 1.302
0.39902604 -0.23574904 1.307
0.40561438 -0.23488967 1.3069998
0.41388476 -0.23474802 1.303389
0.40734923 -0.22613557 1.3064445
0.4150753 -0.22474737 1.303087
0.42118397 -0.22485973 1.302
0.41575721 -0.2162631 1.3040835
-0.14151503 -0.15143365 1.3053334
-0.13520479 -0.15353763 1.3069999
-0.12832996 -0.15124604 1.307
-0.14446117 -0.14431134 1.3030001
-0.13494618 -0.14409946 1.3045
-0.12645929 -0.14396682 1.3062857
-0.1540917 -0.13354614 1.302
-0.14467499 -0.13554361 1.302
-0.13430709 -0.13563873 1.302
-0.12547033 -0.1347592 1.304647
-0.12464431 -0.12636191 1.3029376
-0.11499504 -0.12554729 1.3044999
-0.10521227 -0.12580167 1.3045
-0.095553301 -0.12511744 1.3053334
-0.084567331 -0.12451369 1.305182
-0.075212993 -0.1254133 1.3055714
-0.065839864 -0.12424149 1.3061668
-0.054998562 -0.12374676 1.307
-0.045668449 -0.12325571 1.307
-0.03513797 -0.12107322 1.307
-0.025207674 -0.12030935 1.307
0.34832421 -0.12030935 1.307
0.35749066 -0.12030935 1.307
-0.114142 -0.1198491 1.302
-0.1084349 -0.1198491 1.302
-0.081040822 -0.1198491 1.302
-0.075333714 -0.1198491 1.302
-0.064204879 -0.11899303 1.302
-0.054891929 -0.11777378 1.302
-0.045553032 -0.11777378 1.302
-0.035403747 -0.11649934 1.3028334
-0.025159458 -0.11550771 1.3045001
-0.015365523 -0.11491704 1.3052143
-0.0045832135 -0.11114293 1.307
0.0045832135 -0.11114293 1.307
0.29447144 -0.11114293 1.307
0.3150959 -0.11114292 1.307
0.32540813 -0.11114293 1.307
0.33596891 -0.11218243 1.30575
0.34451208 -0.11429056 1.3036666
0.35417005 -0.11480122 1.3022778
0.36169192 -0.11343453 1.307
-0.01027278 -0.1084349 1.302
-0.004569333 -0.10774335 1.3028334
0.0052606137 -0.10658767 1.3045001
0.014862421 -0.1040317 1.304
0.025095938 -0.10402431 1.3065455
0.033903945 -0.10377077 1.3065001
0.044668358 -0.10308329 1.3065001
0.054919116 -0.10297602 1.305125
0.064261042 -0.10251979 1.3055716
0.075623021 -0.1019765 1.307
0.08456029 -0.10243483 1.307
0.096029319 -0.10257553 1.3062859
0.10521228 -0.10292725 1.3045001
0.11329133 -0.10299226 1.3053335
0.13405898 -0.1019765 1.307
0.14666283 -0.1019765 1.307
0.1531557 -0.10197649 1.307
0.16155827 -0.1019765 1.307
0.17301629 -0.1019765 1.307
0.18562013 -0.1019765 1.307
0.22629616 -0.1025494 1.307
0.23495041 -0.10273833 1.30575
0.24412829 -0.10261033 1.3053335
0.25436834 -0.1019765 1.307
0.26754507 -0.1025494 1.307
0.27529833 -0.10273833 1.3057501
0.28567243 -0.10498531 1.3045001
0.29500139 -0.106511 1.3038182
0.30476615 -0.10610797 1.3034286
0.31495133 -0.10663664 1.3032501
0.32530469 -0.10729349 1.302
0.33481655 -0.10767395 1.302
0.34356743 -0.1084349 1.302
0.35840589 -0.1084349 1.302
0.36457908 -0.10781276 1.3036667
0.026252659 -0.099303536 1.302
0.036525439 -0.099303536 1.302
0.0456568 -0.099303536 1.302
0.054788161 -0.099303536 1.302
0.065114416 -0.099379808 1.3030001
0.075221159 -0.098999515 1.3040001
0.084693365 -0.098846972 1.302
0.093107261 -0.098325185 1.302
0.10158638 -0.099303536 1.302
0.11809722 -0.097146355 1.3036667
0.12488022 -0.098123625 1.3045001
0.13467227 -0.098434135 1.3034286
0.14474612 -0.097574428 1.3038182
0.1550217 -0.097342968 1.3039231
0.16457488 -0.097147822 1.3036667
0.17513689 -0.09737318 1.3045
0.18538344 -0.097272009 1.3053335
0.19523813 -0.096859753 1.3049167
0.2047832 -0.096560277 1.3050001
0.21510382 -0.097509004 1.304143
0.22423978 -0.098986626 1.3028334
0.23627394 -0.099303536 1.302
0.2475217 -0.096783012 1.3026251
0.2548905 -0.097159363 1.3038182
0.26397622 -0.097488567 1.3035386
0.27345163 -0.098325178 1.302
0.24616624 0.33824077 1.302
0.23725228 0.34519798 1.302
0.24592571 0.34532791 1.3032501
0.25438967 0.34701338 1.3025556
0.26138517 0.34699166 1.302
0.2373351 0.3546676 1.3064445
0.24405611 0.35267824 1.307
0.25540334 0.35399932 1.3056666
0.26129049 0.35551286 1.3053335
0.26009735 0.36092806 1.307
0.29787907 -0.49531049 1.3170002
0.30395123 -0.49446163 1.3141053
0.29810998 -0.48653579 1.317
0.30549318 -0.48482674 1.3155
0.31170058 -0.48307839 1.312
0.30807367 -0.47691762 1.3161668
0.31371474 -0.47515544 1.3143685
0.32090208 -0.47042635 1.312
0.30761045 -0.46562156 1.317
0.31470236 -0.46504137 1.31575
0.32090208 -0.46467543 1.312
0.30827019 -0.45605516 1.317
0.31541657 -0.45501527 1.3159999
0.32205227 -0.45432368 1.3120002
0.31634369 -0.44624573 1.3162858
0.32364285 -0.44562021 1.3126252
0.31882626 -0.43692228 1.317
0.32527685 -0.43485802 1.31575
0.33010358 -0.43362036 1.312
0.32674333 -0.42561647 1.3170002
0.33256489 -0.42516705 1.3149168
0.32789788 -0.4191089 1.317
0.33557385 -0.41544887 1.3154211
0.34160542 -0.41291702 1.312
0.33575499 -0.40498573 1.3161303
0.34206551 -0.40417561 1.312
0.33553264 -0.39517111 1.3162105
