# .PCD v0.7 - Point Cloud Data file format
VERSION 0.7
FIELDS x y z
SIZE 4 4 4
TYPE F F F
COUNT 1 1 1
WIDTH 1471
HEIGHT 1
VIEWPOINT 0 0 0 1 0 0 0
POINTS 1471
DATA ascii
0.47578454 -0.37170666 1.6960001
0.48520112 -0.37021983 1.6960001
0.49341407 -0.37531754 1.6960001
0.28993121 -0.36129889 1.6960001
0.29587853 -0.36427253 1.6960001
0.30579069 -0.36328134 1.6960001
0.31480175 -0.36454287 1.6960002
0.32264137 -0.36724618 1.6960001
0.45534068 -0.36464426 1.6960001
0.4653767 -0.3634229 1.6960001
0.47429767 -0.36427251 1.6960001
0.48354906 -0.36493337 1.6960001
0.2958785 -0.35535157 1.6960001
0.30658364 -0.3559463 1.6960001
0.31372043 -0.35535157 1.6960001
0.45794261 -0.35832521 1.6960001
0.46835041 -0.35832521 1.6960001
0.47132406 -0.35832521 1.6960001
0.29736531 -0.34940428 1.6960001
0.30777311 -0.34940428 1.6960001
0.3153424 -0.34534928 1.6960002
0.32524335 -0.34308523 1.6960001
0.33156234 -0.34345695 1.6960001
0.31847829 -0.33453602 1.6960001
0.32524329 -0.33490768 1.6960001
0.31669408 -0.32561502 1.6960001
0.32264137 -0.32858869 1.6960001
-0.13530123 -0.31074676 1.6960001
0.30777311 -0.31372043 1.6960001
0.31297699 -0.31520724 1.6960001
-0.13530123 -0.30529508 1.6960001
-0.1278671 -0.30182582 1.6960001
-0.11597247 -0.30182582 1.6960001
-0.10259104 -0.30182582 1.6960001
-0.096643724 -0.30182582 1.6960001
0.30777311 -0.30777311 1.6960001
0.31504205 -0.30446905 1.6960001
0.32264137 -0.30182582 1.6960001
-0.12400135 -0.29825744 1.6960001
-0.11448565 -0.29885215 1.6960001
-0.10705152 -0.29885215 1.6960001
-0.093670078 -0.29810873 1.6960001
-0.0837579 -0.29637411 1.6960001
-0.076819383 -0.29389608 1.6960001
0.31754369 -0.2963033 1.6960001
0.32462382 -0.29538289 1.6960001
-0.078801811 -0.28993121 1.6960001
0.31768531 -0.28497514 1.6960001
0.32264137 -0.28547069 1.6960001
0.31706578 -0.27543464 1.6960001
0.32264137 -0.27654976 1.6960001
0.3186765 -0.26564637 1.6960001
0.32412821 -0.26415956 1.6960001
0.31966773 -0.25722101 1.6960001
0.32412821 -0.2542474 1.6960001
0.32442558 -0.24592113 1.6960001
0.32660624 -0.23590983 1.6960001
0.33156234 -0.23045813 1.6960001
0.33275181 -0.22451083 1.6960001
0.33334655 -0.21499512 1.6960001
0.3350316 -0.20567769 1.6960001
0.33750966 -0.19774795 1.6960001
0.34286222 -0.19417956 1.6960001
0.34791744 -0.18882698 1.6960001
0.35535157 -0.18486212 1.6960001
0.36427251 -0.1779236 1.6960001
0.37914079 -0.16503777 1.6960001
0.38508812 -0.16206411 1.6960001
0.38806176 -0.15462998 1.6960001
0.39103541 -0.15165633 1.6960001
0.38806176 -0.1442222 1.6960001
0.39177883 -0.1442222 1.6960001
0.38731834 -0.13604464 1.6960001
0.39103541 -0.13530123 1.6960001
0.38746703 -0.12400135 1.6960001
0.39103541 -0.12638026 1.6960001
0.38731834 -0.11374224 1.6960001
0.38508812 -0.10556469 1.6960001
0.38627756 -0.096048996 1.6960001
-0.20488469 -0.074043967 1.6960001
-0.19536902 -0.074638702 1.6960001
-0.18585332 -0.073845722 1.6960001
-0.22413911 -0.063561842 1.6960001
-0.21658109 -0.063437939 1.6960001
-0.20581929 -0.068606429 1.6960001
-0.19626111 -0.069880851 1.6960001
-0.18287967 -0.069880851 1.6960001
-0.17544557 -0.06839402 1.6960001
-0.16503775 -0.066411592 1.6960001
-0.15462998 -0.062446725 1.6960001
-0.14719585 -0.060959894 1.6960001
-0.22451082 -0.055437393 1.6960001
-0.21707669 -0.056499414 1.6960001
-0.16206411 -0.055012587 1.6960001
-0.15462999 -0.055012587 1.6960001
-0.14422219 -0.055012587 1.6960001
-0.13530123 -0.054640882 1.6960001
-0.12638026 -0.053525761 1.6960001
-0.14273536 -0.049065281 1.6960001
-0.13530122 -0.047578454 1.6960001
-0.12489345 -0.044604801 1.6959999
-0.11646809 -0.044109192 1.6960001
-0.12340661 -0.036427256 1.6960001
-0.11411396 -0.03456872 1.6960001
-0.10705152 -0.032710187 1.6960001
-0.111512 -0.028249707 1.6960001
-0.10513989 -0.026125669 1.6960001
-0.095652506 -0.024284834 1.6960001
-0.08623594 -0.0223024 1.6960001
-0.092926666 -0.018585334 1.6960001
-0.084749125 -0.016850702 1.6960001
-0.075828157 -0.014868267 1.6960001
-0.065420374 -0.014124853 1.6960001
-0.055437397 -0.012531825 1.6960001
-0.045496896 -0.011002517 1.6960001
-0.034197014 -0.010407787 1.6960001
-0.02676288 -0.010407787 1.6960001
-0.014868267 -0.010407787 1.6960001
-0.062446721 -0.0074341334 1.6960001
-0.055012591 -0.006244672 1.6960001
-0.044604801 -0.0059473068 1.6960001
-0.03456872 -0.0048321867 1.6960001
-0.025276054 -0.0048321867 1.6960001
-0.014868267 -0.0059473068 1.6960001
0.0044604801 -0.0014868267 1.6960001
0.40590367 -0.0014868267 1.6960001
0.41185099 -0.0014868267 1.6960001
-0.0223024 0.0014868267 1.6960001
-0.0048321867 0.0048321867 1.6960001
0.0044604801 0.0048321867 1.6960001
0.015165633 0.006839403 1.6960001
0.0223024 0.0074341334 1.6960001
0.39995638 0.0014868267 1.6960001
0.40739051 0.0014868267 1.6960001
0.41363516 0.0056499415 1.6960001
-0.0044604801 0.010407787 1.6960001
0.0044604801 0.010407787 1.6960001
0.015760362 0.011002517 1.6960001
0.025700863 0.012531825 1.6960001
0.033453599 0.016355094 1.6960001
0.044604801 0.019328747 1.6960001
0.055012587 0.019328747 1.6960001
0.062446721 0.019328747 1.6960001
0.075828157 0.019328747 1.6960001
0.08623594 0.019328747 1.6960001
0.095156908 0.019328747 1.6960001
0.4154194 0.012786711 1.6960001
0.08474911 0.022302398 1.6960001
0.095156901 0.02329362 1.6960001
0.1059895 0.024426442 1.6960001
0.11389092 0.025870785 1.6960001
0.12340661 0.028249705 1.6960001
0.13530123 0.028249707 1.6960001
0.40887734 0.028249707 1.6960001
0.41185099 0.025276054 1.6960001
0.1174593 0.03122336 1.6960001
0.12553065 0.032497782 1.6960001
0.13530123 0.032710183 1.6960001
0.14362745 0.033602282 1.6960001
0.15462998 0.037170667 1.6960001
0.21558987 0.037170667 1.6960001
0.35832521 0.034197014 1.6960001
0.36427253 0.035683841 1.6960001
0.37096325 0.034940425 1.6960001
0.14719585 0.040144321 1.6960001
0.15462998 0.040144321 1.6960001
0.16503777 0.04510041 1.6960001
0.17395872 0.046091627 1.6960001
0.18734016 0.043117974 1.6960001
0.19626111 0.041631147 1.6960001
0.20518208 0.041631147 1.6960001
0.21558987 0.040144321 1.6960001
0.22525424 0.040887736 1.6960001
0.23513101 0.041418742 1.6960001
0.2453264 0.040144321 1.6960001
0.37676188 0.041333783 1.6960001
0.3843447 0.046091627 1.6960001
0.39400908 0.047082845 1.6960001
0.02626727 0.39896515 1.6960001
0.034940425 0.3969827 1.6960001
0.04348968 0.39772612 1.6960001
0.02676288 0.40590367 1.6960001
0.034197018 0.40590367 1.6960001
0.042523243 0.40411949 1.6960001
0.024780445 0.4148246 1.6960001
0.031966772 0.41408122 1.6960001
0.016355092 0.42572805 1.6960001
0.023789227 0.42077196 1.6960001
0.0059473068 0.43861386 1.6960001
0.012786711 0.43504548 1.6960001
0.0044604801 0.44337171 1.6960001
0.010407787 0.44158751 1.6960001
-0.0014868267 0.45794261 1.6960001
-0.0044604801 0.4638899 1.6960001
0.0044604801 0.47727135 1.6960001
0.044604801 0.47727135 1.6960001
0.0074341334 0.48619232 1.6960001
0.047082845 0.48569667 1.6960001
0.0066907201 0.4958567 1.6960001
0.049065281 0.49213964 1.6960001
0.052782349 0.49585667 1.6960001
0.39834198 -0.49549857 1.705
0.40506825 -0.49475119 1.705
0.40506825 -0.48578289 1.705
0.41104707 -0.48578292 1.705
0.40506822 -0.47596049 1.705
0.41104707 -0.47083575 1.705
0.46485689 -0.47233045 1.705
0.40805766 -0.4678463 1.705
0.41360945 -0.46400279 1.705
0.45887801 -0.46336216 1.705
0.46485689 -0.4663516 1.705
0.41489068 -0.45588857 1.705
0.42263111 -0.45551488 1.705
0.45489207 -0.45389566 1.705
0.41523227 -0.44512662 1.7050002
0.4246656 -0.44592381 1.705
0.43421519 -0.44393086 1.705
0.44623041 -0.44462073 1.705
0.45409489 -0.44572455 1.7050002
0.2940321 -0.43410844 1.705
0.30043805 -0.43346781 1.705
0.33930069 -0.43346781 1.705
0.3422901 -0.4319731 1.705
0.43795195 -0.43496254 1.705
0.4435038 -0.43538961 1.705
0.45289916 -0.43795198 1.705
0.47083575 -0.4319731 1.705
0.28648737 -0.42400131 1.705
0.29445919 -0.42449954 1.705
0.30417484 -0.42300481 1.705
0.31389052 -0.4215101 1.705
0.33930069 -0.42898369 1.705
0.34527954 -0.42449951 1.705
0.35424784 -0.4215101 1.705
0.36022672 -0.42001539 1.705
0.42562056 -0.42562056 1.705
0.43562686 -0.42466557 1.705
0.44293433 -0.42433345 1.705
0.45588857 -0.42300481 1.705
0.47083575 -0.42898369 1.705
0.28634501 -0.4136095 1.705
0.29445919 -0.41403651 1.705
0.30532986 -0.41430828 1.705
0.31453112 -0.41403651 1.705
0.42420059 -0.41403651 1.7050002
0.43795198 -0.41702595 1.705
0.44642201 -0.41403651 1.705
0.45289916 -0.41104707 1.705
0.27951202 -0.40506825 1.705
0.28549087 -0.40506822 1.705
0.29266554 -0.40566611 1.7050002
0.3064169 -0.40506825 1.705
0.31538522 -0.40506819 1.705
0.32136407 -0.40506819 1.705
0.3856369 -0.40656292 1.705
0.39012104 -0.40207878 1.705
0.42659217 -0.40566611 1.7050002
0.43496254 -0.40207878 1.705
0.44579926 -0.40469456 1.705
0.45364654 -0.40432084 1.705
0.49774066 -0.40207878 1.705
0.27951202 -0.39460522 1.705
0.28549084 -0.39460516 1.705
0.29379487 -0.39344263 1.705
0.30595702 -0.39449021 1.705
0.31511343 -0.39501286 1.705
0.32211143 -0.39684728 1.705
0.39609993 -0.39809287 1.705
0.40506825 -0.39410698 1.705
0.41602945 -0.39111754 1.705
0.42400128 -0.3944391 1.705
0.43496254 -0.39396459 1.705
0.44482771 -0.39490411 1.7050002
0.4546074 -0.39439169 1.705
0.49774066 -0.39460522 1.705
0.28848031 -0.38414216 1.705
0.29445919 -0.38414219 1.705
0.30492222 -0.38414216 1.705
0.41403651 -0.3871316 1.705
0.42499781 -0.38464043 1.705
0.43496257 -0.38474005 1.7050002
0.44542554 -0.38464043 1.705
0.45409495 -0.38474005 1.7050002
0.46336216 -0.38115275 1.705
0.47681463 -0.38115275 1.705
0.49415332 -0.38474005 1.7050002
0.28773296 -0.37442654 1.705
0.2940855 -0.37554753 1.705
0.30492219 -0.37554756 1.705
0.44617292 -0.37741596 1.705
0.45469278 -0.374576 1.7050002
0.46485689 -0.37480018 1.705
0.47432342 -0.3751739 1.705
0.48528469 -0.3756721 1.705
0.49176177 -0.37666857 1.705
0.27951202 -0.36172146 1.705
0.28576267 -0.3643032 1.705
0.29146975 -0.3652091 1.705
0.30417484 -0.36620557 1.705
0.45887801 -0.36620557 1.705
0.46485689 -0.36919501 1.705
0.47083575 -0.36919501 1.705
0.27951202 -0.35424784 1.705
0.28549087 -0.35424787 1.705
0.29221711 -0.35350049 1.705
0.30462328 -0.35364994 1.7050002
0.27951202 -0.34527954 1.705
0.28549087 -0.34527954 1.705
0.29445919 -0.34527954 1.705
0.30542046 -0.34527954 1.705
0.31339225 -0.3432866 1.705
0.28677204 -0.33588415 1.705
0.29445919 -0.33481655 1.705
0.30492219 -0.33481652 1.705
0.31438875 -0.33498263 1.705
0.28848031 -0.32584822 1.705
0.29445919 -0.32435355 1.705
0.30542046 -0.32435352 1.705
0.31239578 -0.32435352 1.705
-0.1320333 -0.31339228 1.705
-0.11708613 -0.31339228 1.705
-0.10313545 -0.31837463 1.705
0.29483289 -0.31575891 1.705
0.30342749 -0.31538522 1.705
-0.13103683 -0.30840987 1.705
-0.12465937 -0.30581903 1.7050002
-0.11569107 -0.30701479 1.7050002
-0.10398958 -0.30641693 1.705
-0.09476503 -0.30701479 1.7050002
-0.087191813 -0.30442396 1.705
0.2959539 -0.30492216 1.705
0.30462328 -0.30462322 1.705
0.31239578 -0.30193275 1.705
-0.079219982 -0.29744861 1.705
0.29625285 -0.29505709 1.7050002
0.30342749 -0.29565495 1.7050002
0.31389052 -0.29445919 1.705
0.30402535 -0.28489298 1.7050002
0.31359154 -0.28608876 1.7050002
0.30342749 -0.27602434 1.705
0.31339225 -0.27403137 1.705
0.29744861 -0.26307011 1.705
0.30043805 -0.26456484 1.705
0.31501156 -0.26419118 1.705
0.30043805 -0.25858599 1.705
0.31762728 -0.2563439 1.705
0.32136407 -0.25410181 1.705
0.31837463 -0.24563177 1.705
0.32196194 -0.24483459 1.7050002
0.32485175 -0.23467052 1.705
0.32734296 -0.22719693 1.705
0.33033237 -0.22570221 1.705
0.33132884 -0.21872687 1.705
0.33431828 -0.20477617 1.705
0.33780599 -0.19730261 1.705
0.3422901 -0.19281845 1.705
0.34527954 -0.18982902 1.705
0.35424784 -0.18484664 1.705
0.36022672 -0.18086071 1.705
0.36919501 -0.17488185 1.705
0.37367916 -0.17338714 1.705
0.37716684 -0.16790651 1.705
0.38264745 -0.16292411 1.705
0.3856369 -0.15545052 1.705
0.38593584 -0.14498751 1.7050002
0.39012104 -0.14498751 1.705
0.38499632 -0.13473804 1.705
0.38464043 -0.12406149 1.705
0.38464043 -0.11559143 1.705
0.38314569 -0.10562664 1.705
0.38414219 -0.095661864 1.705
-0.21075505 -0.073241115 1.705
-0.20477618 -0.077227026 1.705
-0.19580787 -0.079219982 1.705
-0.18534487 -0.076230548 1.705
-0.17428397 -0.074436888 1.7050002
-0.1666609 -0.073241115 1.705
-0.15545052 -0.070251681 1.705
-0.23267756 -0.064272813 1.705
-0.2152392 -0.067262247 1.705
-0.16292411 -0.067262247 1.705
-0.15545052 -0.067262247 1.705
-0.14498751 -0.063774578 1.705
-0.13452449 -0.061283384 1.705
-0.12406149 -0.061283384 1.705
-0.11808261 -0.0627781 1.705
-0.23168108 -0.052315082 1.705
-0.22869165 -0.055304516 1.705
-0.13302979 -0.05829395 1.705
-0.12286571 -0.056500293 1.7050002
-0.11546686 -0.05493084 1.705
-0.11310023 -0.045339737 1.705
-0.10678919 -0.044343263 1.705
-0.10313545 -0.035125844 1.705
-0.094914511 -0.03213641 1.705
-0.094167151 -0.028399616 1.705
-0.085198849 -0.025908424 1.705
-0.075483195 -0.024289146 1.705
-0.065767527 -0.022420749 1.705
-0.05829395 -0.023915466 1.705
-0.049325649 -0.022420749 1.705
-0.082209416 -0.019431317 1.705
-0.076230548 -0.019431317 1.705
-0.064272813 -0.019431317 1.705
-0.054706626 -0.018235544 1.7050002
-0.044343255 -0.016109725 1.705
-0.034378484 -0.016441884 1.705
-0.025410183 -0.015445405 1.705
-0.015160698 -0.014733635 1.705
-0.0049112118 -0.0036300265 1.705
0.0038862634 -0.0044841501 1.7050002
0.014947167 -0.0014947166 1.705
0.023915466 -0.0014947166 1.705
-0.0014947166 0.0014947166 1.705
0.0044841501 0.0014947166 1.705
0.014733635 0.0027759024 1.705
0.025783863 0.0041104709 1.705
0.034378484 0.0044841501 1.705
0.041852064 0.0074735833 1.705
0.40556645 0.004982389 1.705
0.41104707 0.0059788665 1.705
0.035374962 0.012455973 1.705
0.044433847 0.013724216 1.705
0.055304512 0.014947166 1.705
0.064272813 0.014947166 1.705
0.074095242 0.01601482 1.705
0.084003076 0.016441884 1.7050002
0.094167151 0.015943645 1.705
0.10413192 0.01743836 1.705
0.11509318 0.0179366 1.705
0.12406149 0.019431317 1.705
0.40656292 0.010463017 1.705
0.41403651 0.015587759 1.705
0.11708613 0.023417227 1.705
0.12406149 0.023915464 1.705
0.13388391 0.025837243 1.705
0.14349279 0.0269049 1.705
0.21673392 0.028399616 1.705
0.22271279 0.028399616 1.705
0.41254181 0.023915466 1.705
0.14797695 0.032883767 1.705
0.15545052 0.033780597 1.7050002
0.16292411 0.035873201 1.705
0.17189242 0.037367918 1.705
0.18683958 0.037367918 1.705
0.19580789 0.037367918 1.705
0.20537408 0.036172144 1.7050002
0.21474098 0.033382006 1.705
0.22570221 0.034378484 1.705
0.2346705 0.034378484 1.705
0.24499765 0.034650251 1.705
0.37666857 0.034378484 1.705
0.38115275 0.037367918 1.705
0.16651143 0.041553121 1.7050002
0.17488186 0.043346781 1.705
0.18504593 0.041553121 1.7050002
0.19281845 0.040357351 1.705
0.3856369 0.041852064 1.705
0.39161575 0.046336215 1.705
0.034976371 0.38593584 1.7050002
0.042350307 0.38513866 1.705
0.017189242 0.39834198 1.705
0.025783863 0.39535254 1.705
0.033524361 0.39268345 1.705
0.045249149 0.39283875 1.705
0.052315082 0.39311048 1.705
0.015354818 0.40479648 1.705
0.022420749 0.40506825 1.705
0.016441884 0.41403654 1.705
0.022420749 0.41254181 1.705
0.0059788665 0.42898369 1.705
0.014306574 0.42300484 1.705
-0.0014947166 0.43795198 1.705
0.0048578293 0.43533623 1.705
0.010463017 0.43346781 1.705
-0.0014947165 0.44393086 1.705
0.0014947165 0.44592381 1.705
-0.0029894332 0.45738328 1.705
0.0014947166 0.45289916 1.705
-0.0044841501 0.46186745 1.705
-0.0029894332 0.47382519 1.705
0.0014947166 0.47980404 1.705
0.0044841501 0.48578295 1.705
0.049325649 0.48578292 1.705
0.052315082 0.48877233 1.705
0.0044841501 0.49475121 1.705
0.054308038 0.49475121 1.705
0.39645672 -0.49406919 1.7130002
0.40096191 -0.49106571 1.7130001
0.39795843 -0.48505878 1.7129999
0.40096191 -0.48505878 1.7129999
0.39795846 -0.47905186 1.7130001
0.4032979 -0.47337866 1.7130002
0.40546706 -0.46403459 1.7129999
0.41297576 -0.46103111 1.7130001
0.46303341 -0.46403456 1.7129999
0.28883275 -0.45302188 1.7129999
0.2958408 -0.45322213 1.7130001
0.30184773 -0.45352244 1.7130001
0.40546712 -0.45502424 1.7129999
0.41297576 -0.45352244 1.7130001
0.46103111 -0.45802766 1.7130001
0.27782005 -0.44901726 1.7130001
0.285629 -0.4444119 1.7129998
0.29611385 -0.44492161 1.7130001
0.30399305 -0.44301036 1.7130002
0.3108581 -0.44000688 1.7130001
0.34239444 -0.44150862 1.7130001
0.39795846 -0.44000688 1.7130001
0.40576747 -0.44461215 1.7129998
0.41564551 -0.44467893 1.7130002
0.42498958 -0.44301039 1.7130002
0.43399996 -0.44075775 1.7130001
0.44451207 -0.44150862 1.7130001
0.45727676 -0.44526294 1.7130001
0.26880968 -0.43099651 1.7130001
0.27567473 -0.43357089 1.7130002
0.28472799 -0.43460065 1.7130001
0.30635291 -0.43399999 1.7130002
0.31536329 -0.43399999 1.7129999
0.32549998 -0.43362457 1.7130002
0.33526123 -0.43362454 1.7130002
0.34589848 -0.43399993 1.7129999
0.39795843 -0.43399993 1.7129999
0.40636817 -0.43430027 1.7130001
0.41597924 -0.43399996 1.7130002
0.42456052 -0.43485808 1.7130002
0.43442902 -0.43485808 1.7130002
0.44901726 -0.43399999 1.7129999
0.45502418 -0.43399993 1.7130002
0.46403456 -0.43399996 1.7130002
0.47244424 -0.43399996 1.7130001
0.26880968 -0.42799306 1.7130001
0.27519202 -0.42498958 1.7130002
0.28202489 -0.42559028 1.7130001
0.30560204 -0.42574045 1.7130001
0.31536329 -0.42799306 1.7130001
0.32287195 -0.42799306 1.7130001
0.34990308 -0.42799306 1.7130001
0.35666087 -0.42724219 1.7130001
0.36492038 -0.42298725 1.7129999
0.37242904 -0.42198613 1.7130001
0.40997228 -0.42799306 1.7130001
0.41635466 -0.42536503 1.7130002
0.422737 -0.42498958 1.7130001
0.44901726 -0.42498958 1.7130001
0.45464876 -0.42498958 1.7130002
0.46403456 -0.42649129 1.7130002
0.47354552 -0.42699191 1.7130002
0.26880968 -0.41297576 1.7130001
0.27481663 -0.41597924 1.7130002
0.28202489 -0.4165799 1.7130001
0.37843597 -0.41898265 1.7130001
0.38394228 -0.41597918 1.7129999
0.41597921 -0.41748095 1.7130001
0.42198613 -0.41597924 1.7129999
0.44901726 -0.41898265 1.7130001
0.45602533 -0.41698039 1.7130002
0.49707264 -0.41898265 1.7130001
0.2597993 -0.40096191 1.7130001
0.26730794 -0.40396535 1.7130002
0.2748166 -0.40546706 1.7129999
0.38894805 -0.40997228 1.7130001
0.39495501 -0.4049665 1.7129999
0.40546709 -0.40096191 1.7130001
0.41597921 -0.40336466 1.7130001
0.42398843 -0.40596771 1.7130002
0.45802766 -0.40847057 1.7130001
0.46103111 -0.40246361 1.7130001
0.49707264 -0.40246361 1.7130001
0.2597993 -0.39495501 1.7129999
0.26618165 -0.39495501 1.7130002
0.2748166 -0.39495504 1.7130002
0.40847057 -0.39795846 1.7130001
0.41497806 -0.39595616 1.7130002
0.42559028 -0.39675707 1.7130001
0.43249825 -0.39645672 1.7130001
0.44301033 -0.39495498 1.7130001
0.46317643 -0.39495498 1.7130002
0.49707261 -0.39495501 1.7129999
0.2597993 -0.3859446 1.7129999
0.2658062 -0.3859446 1.7130002
0.2748166 -0.38594458 1.7130002
0.28382695 -0.3859446 1.7130002
0.42799306 -0.38894805 1.7130001
0.43249822 -0.38894805 1.7130001
0.44451207 -0.38894805 1.7130001
0.46360555 -0.38680273 1.7130002
0.47347403 -0.38594458 1.7130002
0.48468333 -0.38556921 1.7130002
0.49206686 -0.3859446 1.7129999
0.2597993 -0.37993768 1.7130001
0.26607925 -0.37556899 1.7130001
0.2748166 -0.37543249 1.7129999
0.28322628 -0.37603322 1.7130001
0.45502418 -0.37993768 1.7130001
0.4622325 -0.37633353 1.7130001
0.47454667 -0.37993768 1.7130001
0.49106571 -0.37993768 1.7130001
0.26880968 -0.36492038 1.7129999
0.27481663 -0.36492038 1.7130002
0.2808235 -0.36792386 1.7130001
0.26880968 -0.35741174 1.7130001
0.2748166 -0.35591 1.7130002
0.26730794 -0.34689963 1.7130001
0.27481657 -0.34539792 1.7129999
0.28232524 -0.3408927 1.7130001
0.30545187 -0.34449688 1.7130001
0.27631834 -0.33488575 1.7130002
0.28339788 -0.33402768 1.7130002
0.30635291 -0.33488581 1.7130002
-0.10061591 -0.32287195 1.7130001
-0.096110716 -0.32287195 1.7130001
0.27706918 -0.32662627 1.7130001
0.28442764 -0.32557505 1.7130001
0.30485117 -0.3258754 1.7129999
-0.12264129 -0.31185925 1.7129999
-0.1136309 -0.31386158 1.7129999
-0.1063498 -0.31549984 1.7130001
-0.096611299 -0.31786618 1.7129999
-0.087600917 -0.31185925 1.7129999
0.27782005 -0.31986848 1.7130001
0.28532869 -0.31536332 1.7129998
0.29283735 -0.31235984 1.7130001
-0.12164013 -0.30785465 1.7130001
-0.11262975 -0.30785465 1.7130001
-0.10962629 -0.30785465 1.7130001
-0.091605529 -0.30785465 1.7130001
-0.083596297 -0.3068535 1.7129999
-0.07808996 -0.30184773 1.7130001
0.2862297 -0.30455083 1.7130001
0.29283735 -0.30485117 1.7129999
-0.071582466 -0.29784313 1.7129999
-0.066076115 -0.29734254 1.7130001
0.28683043 -0.29584083 1.7130002
0.29358822 -0.29508996 1.7130001
0.30605257 -0.2952401 1.7130001
0.3108581 -0.29433906 1.7130001
0.28683043 -0.28532869 1.7129999
0.2958408 -0.28532872 1.7129999
0.30635291 -0.28532869 1.7130002
0.3108581 -0.28983387 1.7130001
0.28683043 -0.2748166 1.7130002
0.29584083 -0.2748166 1.7130002
0.30635291 -0.2748166 1.7130002
0.3108581 -0.27331486 1.7130001
0.28983387 -0.2658062 1.7129999
0.29498267 -0.26623526 1.7130002
0.30635291 -0.2658062 1.7130002
0.3108581 -0.2658062 1.7129999
0.28983387 -0.2597993 1.7130001
0.29584083 -0.25529408 1.7129999
0.30512419 -0.25488451 1.7130001
0.3135885 -0.25488451 1.7130001
0.29584083 -0.24478197 1.7130002
0.30485117 -0.244782 1.7130002
0.31446224 -0.244782 1.7130001
0.29764289 -0.23637231 1.7130001
0.30334947 -0.23652248 1.7130001
0.3165313 -0.23643906 1.7130002
0.32287195 -0.23426989 1.7130001
0.31986848 -0.22826296 1.7130001
0.32527471 -0.2246588 1.7130001
0.32673356 -0.21517645 1.7130002
0.33188233 -0.21324566 1.7130001
0.32887888 -0.20723873 1.7130001
0.33288348 -0.20573701 1.7129999
0.33638752 -0.19822836 1.7130001
0.3408927 -0.19372317 1.7130001
0.34990308 -0.18621451 1.7130001
0.35591 -0.18321106 1.7130001
0.36492038 -0.17770471 1.7129999
0.37242904 -0.17269894 1.7130001
0.37626681 -0.16402228 1.7130002
0.38294116 -0.16068511 1.7130001
0.37543252 -0.15467821 1.7129999
0.38294116 -0.15467818 1.7129999
0.37543249 -0.14566781 1.7129999
0.383692 -0.14566781 1.7130001
0.36792386 -0.13665743 1.7130001
0.37564701 -0.13558477 1.7129999
0.383692 -0.13365397 1.7130001
0.36792386 -0.12314186 1.7130001
0.37543249 -0.12464357 1.7129999
0.38294116 -0.12614532 1.7130001
0.37730965 -0.11600865 1.7130002
0.38294116 -0.1156332 1.7130001
0.37753493 -0.10572179 1.7130001
0.38294116 -0.10211764 1.7130001
0.37873632 -0.094008304 1.7130001
0.38369203 -0.093858123 1.7130001
-0.20273355 -0.082595147 1.7130001
-0.19522491 -0.082595147 1.7130001
-0.18471278 -0.082595147 1.7129999
-0.17495155 -0.083346017 1.7130001
-0.16819376 -0.082595147 1.7130001
0.3769342 -0.088602066 1.7129999
0.38444287 -0.088602066 1.7130001
-0.20273355 -0.079591691 1.7130001
-0.18396193 -0.078840822 1.7130001
-0.17645326 -0.078840822 1.7130001
-0.1645467 -0.076588228 1.7130002
-0.15542905 -0.074335635 1.7130001
-0.14867127 -0.070581309 1.7130001
-0.14416608 -0.067577846 1.7130001
-0.13515571 -0.066076115 1.7130002
-0.12464359 -0.066076115 1.7130002
-0.11513263 -0.064574391 1.7130002
-0.10962629 -0.063072659 1.7130001
-0.23276815 -0.058567468 1.7130001
-0.11262975 -0.058567468 1.7130001
-0.10628912 -0.054896571 1.7130002
-0.097612448 -0.052560549 1.7130001
-0.10233217 -0.045695495 1.7130002
-0.09527643 -0.04388389 1.7130002
-0.094008304 -0.036341865 1.7130001
-0.086799994 -0.033338405 1.7130001
-0.07808996 -0.03153633 1.7130001
-0.082595147 -0.02853287 1.7130001
-0.073584773 -0.027782006 1.7130001
-0.064574391 -0.026029989 1.7130002
-0.05496332 -0.024928719 1.7130001
-0.044050742 -0.024027681 1.7130002
-0.035290655 -0.023276815 1.7130001
-0.025529409 -0.022525949 1.7129999
-0.01802076 -0.022525949 1.7130001
-0.045051903 -0.01952249 1.7130001
-0.022525949 -0.01952249 1.7130001
-0.014716955 -0.018921798 1.7130001
-0.005105882 -0.011713494 1.7130001
0.0039044979 -0.011713494 1.7130001
-0.0030034599 -0.00750865 1.7130001
0.0060069198 -0.00750865 1.7130001
0.015517876 -0.0045051901 1.7129999
0.026130101 -0.0045051901 1.7130001
0.034539789 -0.0015017301 1.7129999
0.044408303 0.0045051901 1.7130002
0.39795846 0.00750865 1.7130001
0.40196308 0.0065074968 1.7129999
0.04955709 0.01051211 1.7130001
0.055564012 0.01051211 1.7129999
0.064574391 0.01051211 1.7129999
0.076087654 0.011513263 1.7130002
0.086199299 0.011713494 1.7130001
0.093858123 0.011262975 1.7130001
0.10512111 0.012764704 1.7130001
0.11488234 0.012764704 1.7130001
0.12464359 0.016519031 1.7129999
0.13465512 0.01952249 1.7129999
0.20874047 0.01952249 1.7130001
0.21399653 0.018771626 1.7130001
0.22075431 0.01952249 1.7130001
0.40576744 0.01441661 1.7130001
0.41297576 0.01802076 1.7130001
0.13565628 0.022525949 1.7129999
0.14641866 0.024778545 1.7130001
0.15467818 0.02703114 1.7130002
0.16519029 0.027031139 1.7130002
0.17370009 0.027531719 1.7129999
0.19973008 0.02703114 1.7130001
0.20616606 0.026387542 1.7130002
0.21437196 0.02515398 1.7130002
0.22495916 0.025529411 1.7130001
0.23620068 0.026387542 1.7130002
0.24403112 0.027782006 1.7130001
0.25179005 0.027531719 1.7129999
0.37693423 0.02853287 1.7130001
0.40997228 0.025529409 1.7129999
0.41297576 0.022525949 1.7130001
0.16755016 0.034110721 1.7130002
0.17520183 0.034539789 1.7130002
0.1841121 0.034539789 1.7130001
0.19612594 0.033939097 1.7130001
0.20498616 0.032287192 1.7130001
0.24778545 0.03153633 1.7130001
0.25379238 0.03153633 1.7130001
0.37993768 0.03153633 1.7130001
0.38519374 0.035290655 1.7130001
0.40696883 0.034539789 1.7130001
0.17570241 0.040546712 1.7129999
0.18170933 0.040546712 1.7130001
0.38894805 0.040546712 1.7130001
0.39420414 0.042799301 1.7130001
0.037543248 0.37993768 1.7130001
0.01802076 0.3859446 1.7130001
0.025529411 0.3868027 1.7130002
0.033788923 0.38369203 1.7130001
0.045427334 0.3859446 1.7130002
0.052560549 0.38744634 1.7130001
0.015918339 0.39615637 1.7130001
0.024528258 0.39295268 1.7129999
0.00750865 0.40997228 1.7130001
0.01051211 0.40997228 1.7130001
0.00750865 0.41597924 1.7129999
0.01051211 0.41597918 1.7129999
0.0060069202 0.42498958 1.7130002
0.01051211 0.42348784 1.7130001
-0.0015017299 0.48205534 1.7130001
0.0015017299 0.48505878 1.7130001
0.38797233 -0.49817461 1.7220001
0.39357948 -0.49537101 1.7220001
0.38797233 -0.48156878 1.7220001
0.39487341 -0.4841567 1.7220001
0.37891462 -0.47251105 1.7220001
0.38570791 -0.47326586 1.7220001
0.39401084 -0.47553027 1.7220001
0.4000493 -0.4755303 1.7220001
0.27927971 -0.46043411 1.7220001
0.28531817 -0.46164179 1.7220001
0.29351327 -0.46302202 1.7220001
0.30267882 -0.46269852 1.7220001
0.38495311 -0.46496299 1.7220001
0.39401081 -0.46496296 1.7220001
0.4000493 -0.46496296 1.7220001
0.46828407 -0.46284947 1.7220001
0.27588305 -0.45477304 1.7220001
0.28471431 -0.45620719 1.7220001
0.29739514 -0.45741487 1.7220001
0.30796248 -0.45439562 1.7220001
0.31507924 -0.45353296 1.7220001
0.32456833 -0.45439562 1.7220001
0.33060679 -0.45137638 1.7220001
0.38797233 -0.45741487 1.7220001
0.39401081 -0.45439562 1.7220001
0.4000493 -0.45439562 1.7220001
0.46526486 -0.4556033 1.7220001
0.26418349 -0.44231865 1.7220001
0.27475083 -0.44533786 1.7220001
0.28229895 -0.44835714 1.7220001
0.30745926 -0.44735074 1.7220001
0.31588796 -0.44571528 1.7220001
0.32456827 -0.44533789 1.7220001
0.33453178 -0.44473401 1.7220001
0.34369016 -0.44533789 1.7220001
0.39487344 -0.44490656 1.7220001
0.40105572 -0.44634429 1.7220001
0.46560994 -0.44490656 1.7220001
0.47251105 -0.44231865 1.7220001
0.2566354 -0.43326095 1.7220001
0.26418352 -0.43477055 1.7220001
0.27173162 -0.4377898 1.7220001
0.33211643 -0.4392994 1.7220001
0.34872222 -0.4392994 1.7220001
0.35415688 -0.43446866 1.7220001
0.36381841 -0.4302417 1.7220001
0.39401081 -0.43477055 1.7220001
0.40407494 -0.43175134 1.7220001
0.46647257 -0.43628019 1.7220001
0.47854957 -0.43628016 1.7220001
0.48458803 -0.43175131 1.7220001
0.25550318 -0.42382583 1.7220001
0.26418349 -0.42420319 1.7220001
0.27097678 -0.42495802 1.7220001
0.36834729 -0.42722246 1.7220001
0.37589538 -0.42621604 1.7220001
0.38595951 -0.42470646 1.7220001
0.39401081 -0.42420325 1.7220001
0.40457821 -0.42420328 1.7220001
0.41333395 -0.42359933 1.7220001
0.42118397 -0.42118397 1.7220001
0.46647254 -0.42269361 1.7220001
0.47596163 -0.42334059 1.7220001
0.48501936 -0.42506582 1.7220001
0.49431664 -0.42386776 1.7220001
0.2490873 -0.41363585 1.7220001
0.25512576 -0.41514552 1.7220001
0.26418352 -0.41514552 1.7220001
0.27022198 -0.41816473 1.7220001
0.38797233 -0.41816473 1.7220001
0.3943882 -0.41552287 1.7220001
0.40306854 -0.41212621 1.7220001
0.41464224 -0.41514549 1.7220001
0.42118397 -0.41514549 1.7220001
0.46647257 -0.41514546 1.7220001
0.47351745 -0.41615191 1.7220001
0.496665 -0.41665509 1.7220001
0.2490873 -0.40457815 1.7220001
0.25512579 -0.4049899 1.7220001
0.26418349 -0.40759739 1.7220001
0.39703006 -0.40910703 1.7220001
0.40522513 -0.4078131 1.7220001
0.41454163 -0.40789932 1.7220001
0.42118397 -0.40759742 1.7220001
0.46760479 -0.40571037 1.7220001
0.47251105 -0.40759742 1.7220001
0.49726883 -0.40548396 1.7220001
0.2566354 -0.39401081 1.7220001
0.26418349 -0.39703006 1.7220001
0.46949181 -0.39401081 1.7220001
0.47477549 -0.39325601 1.7220001
0.48307842 -0.39401081 1.7220001
0.49424958 -0.39340696 1.7220001
0.25598839 -0.38538441 1.7220001
0.47854954 -0.38646272 1.7220001
0.258145 -0.37589538 1.7220001
0.26191905 -0.37589538 1.7220001
0.26445797 -0.3657397 1.7220001
0.26569313 -0.35476074 1.7220001
0.27022198 -0.35476071 1.7220001
0.26539117 -0.34570298 1.7220001
0.27022198 -0.34570298 1.7220001
0.26619634 -0.33614206 1.7220001
0.27173162 -0.33513564 1.7220001
-0.11473112 -0.32154906 1.7220001
-0.092086822 -0.3245683 1.7220001
-0.089067578 -0.3245683 1.7220001
0.27324119 -0.32456833 1.7220001
-0.12529846 -0.316517 1.7220001
-0.1132215 -0.31852981 1.7220001
-0.10265416 -0.31852981 1.7220001
-0.094099648 -0.31651697 1.7220001
-0.084538713 -0.31475574 1.7220001
0.27475086 -0.31551054 1.7220001
-0.080009863 -0.30796248 1.7220001
-0.073971368 -0.30594966 1.7220001
-0.06491366 -0.30041438 1.7220001
-0.056233343 -0.30381101 1.7220001
-0.045120869 -0.30309811 1.7220001
-0.036734086 -0.30142081 1.7220001
0.27539784 -0.30537453 1.7220001
0.28229895 -0.30544645 1.7220001
-0.042269357 -0.29739514 1.7220001
-0.036230877 -0.29739514 1.7220001
0.2777701 -0.2943759 1.7220001
0.28229895 -0.2943759 1.7220001
0.27807203 -0.28592199 1.7220001
0.28229895 -0.28531817 1.7220001
0.28380856 -0.27324122 1.7220001
0.28712973 -0.26478735 1.7220001
0.28833741 -0.258145 1.7220001
0.29135665 -0.25512576 1.7220001
0.29211146 -0.24455842 1.7220001
0.30645287 -0.24002957 1.7220001
0.29538229 -0.23499751 1.7220001
0.30645284 -0.23323627 1.7220001
0.31450415 -0.23298468 1.7220001
0.30444002 -0.22795261 1.7220001
0.31588799 -0.22531079 1.7220001
0.32154906 -0.22342376 1.7220001
0.31852981 -0.21738528 1.7220001
0.32275674 -0.2152718 1.7220001
0.32658115 -0.20883077 1.7220001
0.33261964 -0.20279229 1.7220001
0.33815485 -0.1962506 1.7220001
0.34419334 -0.19172174 1.7220001
0.34872222 -0.18719289 1.7220001
0.35476068 -0.18266402 1.7220001
0.35627031 -0.17964478 1.7220001
0.36549577 -0.17461272 1.7220001
0.37287614 -0.17058706 1.7220001
0.36834726 -0.16454858 1.7220001
0.37287614 -0.16454858 1.7220001
0.36683765 -0.15549088 1.7220001
0.36637312 -0.14457515 1.7220001
0.36491629 -0.13408169 1.7220001
0.37589538 -0.13284656 1.7220001
0.36442226 -0.12560038 1.7220001
0.36784405 -0.11523432 1.7220001
0.37347999 -0.11442919 1.7220001
0.36834729 -0.10416379 1.7220001
0.37408385 -0.10355993 1.7220001
-0.18417364 -0.095106065 1.7220001
-0.17511593 -0.093093239 1.7220001
-0.16756782 -0.092086822 1.7220001
0.36834729 -0.095106065 1.7220001
0.37503275 -0.095537372 1.7220001
-0.19272816 -0.087054752 1.7220001
-0.18568325 -0.087557964 1.7220001
-0.17533158 -0.087773621 1.7220001
-0.16454859 -0.083891734 1.7220001
-0.15649727 -0.082022689 1.7220001
0.36784407 -0.087054752 1.7220001
0.37546405 -0.085185699 1.7220001
0.38344347 -0.086048342 1.7220001
-0.15398124 -0.076990619 1.7220001
-0.14492352 -0.073971376 1.7220001
-0.13435617 -0.073593974 1.7220001
-0.12567587 -0.073593974 1.7220001
-0.11489885 -0.072964974 1.7220001
-0.11171187 -0.067932896 1.7220001
-0.10517019 -0.063907243 1.7220001
-0.098125301 -0.061894421 1.7220001
-0.10215095 -0.057868768 1.7220001
-0.095106058 -0.055855937 1.7220001
-0.089067578 -0.054346323 1.7220001
-0.093093239 -0.048811048 1.7220001
-0.084840655 -0.044986676 1.7220001
-0.074726187 -0.041514549 1.7220001
-0.063404039 -0.040759739 1.7220001
-0.057365559 -0.040759739 1.7220001
-0.083029099 -0.036230877 1.7220001
-0.073593967 -0.035098664 1.7220001
-0.06491366 -0.034721259 1.7220001
-0.055855945 -0.034721255 1.7220001
-0.045892451 -0.034117408 1.7220001
-0.03547607 -0.03245683 1.7220001
-0.02566354 -0.031702019 1.7220001
-0.015096201 -0.031702019 1.7220001
-0.061894421 -0.02868278 1.7220001
-0.054346323 -0.02868278 1.7220001
-0.04559052 -0.028078932 1.7220001
-0.034117412 -0.027475085 1.7220001
-0.02566354 -0.027173162 1.7220001
-0.014492353 -0.026267389 1.7220001
-0.0045288601 -0.016605821 1.7220001
0.00528367 -0.01585101 1.7220001
0.014089786 -0.011573753 1.7220001
0.02566354 -0.01056734 1.7220001
0.014794277 -0.0069442517 1.7220001
0.02566354 -0.0075480998 1.7220001
0.034117408 -0.0057365559 1.7220001
0.043175131 -0.0027173159 1.7220001
0.04830784 0.00301924 1.7220001
0.055855941 0.00603848 1.7220001
0.06491366 0.0075480998 1.7220001
0.07095214 0.0075480998 1.7220001
0.083029106 0.0075480998 1.7220001
0.095860869 0.0067932899 1.7220001
0.10340898 0.0067932899 1.7220001
0.11171187 0.0075480998 1.7220001
0.39552045 0.0075480998 1.7220001
0.1056734 0.01056734 1.7220001
0.11523432 0.01056734 1.7220001
0.12454365 0.01283177 1.7220001
0.13435619 0.016102614 1.7220001
0.14582929 0.018417364 1.7220001
0.15549086 0.01962506 1.7220001
0.1660582 0.01962506 1.7220001
0.17461272 0.01962506 1.7220001
0.20561025 0.018417364 1.7220001
0.21663046 0.015096201 1.7220001
0.22553723 0.017813515 1.7220001
0.2332363 0.018870249 1.7220001
0.2415392 0.01962506 1.7220001
0.38797233 0.01358658 1.7220001
0.39461464 0.011775036 1.7220001
0.40306854 0.016605821 1.7220001
0.14945237 0.0226443 1.7220001
0.15549086 0.022644302 1.7220001
0.16454858 0.022644302 1.7220001
0.17461272 0.024657125 1.7220001
0.18568327 0.02868278 1.7220001
0.19675381 0.027676366 1.7220001
0.2037987 0.022644302 1.7220001
0.2339911 0.022644302 1.7220001
0.24667192 0.023851996 1.7220001
0.25572962 0.023851994 1.7220001
0.37891462 0.02566354 1.7220001
0.38344347 0.02868278 1.7220001
0.4064652 0.025286134 1.7220001
0.17964478 0.033211641 1.7220001
0.18568325 0.031702019 1.7220001
0.19474097 0.031702019 1.7220001
0.38797233 0.033211641 1.7220001
0.39401078 0.036734086 1.7220001
0.40407491 0.034218051 1.7220001
0.41212624 0.031702019 1.7220001
0.39703006 0.040759739 1.7220001
0.40155894 0.040759739 1.7220001
0.036230877 0.37891462 1.7220001
0.055855941 0.37891462 1.7220001
0.01811544 0.38495311 1.7220001
0.024908729 0.3834435 1.7220001
0.033211641 0.38193387 1.7220001
0.045288596 0.3826887 1.7220001
0.054346323 0.38344347 1.7220001
0.01811544 0.39250118 1.7220001
0.27746326 -0.49242103 1.7390001
0.38578582 -0.49504751 1.7363335
0.39151755 -0.49319077 1.7310001
0.23706336 -0.48441729 1.7390002
0.24544828 -0.4847984 1.7390002
0.25459537 -0.48479843 1.7390002
0.26548487 -0.4841451 1.7390002
0.27593875 -0.48479843 1.7390002
0.28536305 -0.4852142 1.7390002
0.29412019 -0.48461199 1.7383336
0.30277032 -0.48144445 1.7390001
0.38451836 -0.48483455 1.7336668
0.39101174 -0.48509738 1.7310001
0.23717226 -0.47369117 1.7390002
0.24544825 -0.47412676 1.7390002
0.2545954 -0.47412676 1.7390002
0.26526707 -0.47412679 1.7390002
0.27593869 -0.4741267 1.7390002
0.2850357 -0.4745551 1.735
0.29530746 -0.47315961 1.7310002
0.30495787 -0.47493225 1.7355716
0.31445462 -0.47358146 1.7370002
0.32472345 -0.47107771 1.739
0.38393006 -0.47599232 1.7310001
0.39607009 -0.47801566 1.7310001
0.21495779 -0.46497962 1.7390001
0.22105588 -0.46345508 1.7390001
0.23673669 -0.46454406 1.7390002
0.24544828 -0.46497959 1.7390002
0.2545954 -0.46497959 1.7390002
0.26484084 -0.46537551 1.7382002
0.27487853 -0.46471691 1.7323333
0.28559536 -0.46769658 1.7310002
0.29894948 -0.46739307 1.7310001
0.30562651 -0.46648255 1.7310002
0.3137452 -0.46549624 1.7310001
0.32430816 -0.46444887 1.7321428
0.33387062 -0.46497962 1.739
0.38221529 -0.46596238 1.7370002
0.22308856 -0.45481613 1.7390002
0.23477657 -0.45583248 1.7390002
0.24544828 -0.45583248 1.7390002
0.2545954 -0.45583248 1.7390002
0.26486817 -0.45565218 1.7350003
0.27163428 -0.45677051 1.7310001
0.31715959 -0.45980552 1.7310001
0.3201946 -0.45980552 1.7310001
0.33624816 -0.45607296 1.7332858
0.34399843 -0.4524065 1.7336668
0.3780818 -0.45278344 1.7390001
0.38516998 -0.45598289 1.7353638
0.39075884 -0.45297673 1.7310001
0.46891057 -0.45525301 1.7310001
0.473829 -0.45560244 1.7323333
0.22512129 -0.44566903 1.7390002
0.23542993 -0.44472528 1.7390002
0.24544828 -0.44516078 1.7390002
0.25495243 -0.44510433 1.7339092
0.26434654 -0.4481827 1.733
0.35439685 -0.4451544 1.7350001
0.36436105 -0.44211179 1.7390001
0.37731951 -0.44211179 1.7390001
0.38552555 -0.44556513 1.7382002
0.39075884 -0.44538918 1.7310001
0.47194561 -0.44766545 1.7310001
0.2263917 -0.43525141 1.7390001
0.2347766 -0.43448916 1.7390002
0.24501269 -0.43536034 1.7390002
0.25190663 -0.43552539 1.7310001
0.35964987 -0.4385604 1.7310001
0.36628333 -0.43518463 1.7336668
0.3749437 -0.43537483 1.7355715
0.38436362 -0.43465826 1.7310001
0.39000008 -0.43552533 1.7310001
0.21800683 -0.42381746 1.7390001
0.22410494 -0.42534196 1.7390002
0.23477657 -0.42534199 1.7390002
0.24489914 -0.42502257 1.7331821
0.25099617 -0.42581329 1.7310002
0.38241252 -0.42945534 1.7310001
0.40517518 -0.42035022 1.7310001
0.4112452 -0.42035025 1.7310001
0.48469272 -0.42156428 1.7310002
0.49319077 -0.4249028 1.7310001
0.21800683 -0.41467035 1.7390001
0.22410494 -0.41467035 1.7390002
0.23470776 -0.41454983 1.7385002
0.24435015 -0.4142434 1.7334001
0.40517518 -0.41731524 1.7310001
0.41225687 -0.41630355 1.7310001
0.47725689 -0.41503897 1.7310001
0.48408568 -0.41428021 1.7310001
0.49429438 -0.41455615 1.7310002
0.21800683 -0.40704772 1.7390001
0.22497608 -0.40443426 1.7390002
0.23477657 -0.40399864 1.7390002
0.24469082 -0.40478301 1.7336668
0.25645918 -0.40214014 1.7310001
0.47680163 -0.4045682 1.7310002
0.48408568 -0.40517518 1.7310001
0.49319077 -0.40517521 1.7310001
0.22448605 -0.39447036 1.7390002
0.23468482 -0.39470136 1.7383336
0.24490045 -0.39463541 1.7331818
0.25168988 -0.39520296 1.7310001
0.47801566 -0.3975876 1.7310001
0.48332694 -0.39834636 1.7310001
0.49258369 -0.39789113 1.7310002
0.22448607 -0.38608554 1.7390002
0.23468482 -0.38555539 1.7383336
0.2448194 -0.38471398 1.7345557
0.25255701 -0.38349646 1.7310001
0.22562945 -0.37960631 1.7390001
0.236606 -0.37594745 1.7390001
0.24525772 -0.37474287 1.737667
0.25391048 -0.37430838 1.7324547
0.23935015 -0.36741012 1.7390001
0.24582939 -0.36436108 1.7390002
0.2555263 -0.36503845 1.7350003
0.26252922 -0.36268488 1.7310001
0.2469728 -0.35521397 1.7390002
0.2558201 -0.35556421 1.7370003
0.26216206 -0.35451084 1.7326
0.24849731 -0.34911585 1.7390001
0.25508529 -0.34621111 1.7382002
0.26179495 -0.34450179 1.7342001
0.24849731 -0.33539516 1.7390001
0.25497225 -0.33562663 1.7383848
0.26259962 -0.33442816 1.7340001
-0.13202336 -0.3201946 1.7310001
-0.12747085 -0.3201946 1.7310001
-0.084316485 -0.32360309 1.733
-0.076988429 -0.3239612 1.7390001
0.2545954 -0.32472351 1.7390002
0.26459008 -0.32474238 1.7326005
-0.081945539 -0.31715959 1.7310001
-0.074062772 -0.31487039 1.733
-0.065403715 -0.31333295 1.7350001
-0.054940019 -0.31392097 1.7354445
-0.044124011 -0.31408897 1.7355716
-0.035005592 -0.31204805 1.7363335
-0.028965943 -0.31252727 1.7390001
0.25546655 -0.31601191 1.7390002
0.2646499 -0.31485042 1.7350001
-0.064819358 -0.30588669 1.7310001
-0.051595338 -0.30198449 1.7310001
-0.044007789 -0.30805454 1.7310001
-0.034354638 -0.3074072 1.7342001
-0.026266471 -0.30646139 1.7370001
0.25662807 -0.30846187 1.739
0.26471388 -0.30492762 1.7374003
0.27163428 -0.30350199 1.7310001
-0.06221791 -0.29894948 1.7310001
-0.051898837 -0.29652146 1.7310002
0.2677798 -0.29482254 1.7380002
0.27315179 -0.29591444 1.7310001
0.26831612 -0.28508589 1.7390002
0.27443892 -0.28507832 1.7334
0.28073934 -0.28073934 1.7310001
0.26984063 -0.27593872 1.739
0.27551091 -0.27551562 1.7363335
0.28073934 -0.27466929 1.7310001
0.26984063 -0.26984063 1.7390001
0.27621591 -0.26568282 1.7390002
0.28296059 -0.26472771 1.733
0.27898777 -0.25611991 1.7390001
0.28575826 -0.2547076 1.7338574
0.28768837 -0.24659406 1.7363335
0.29203171 -0.24184164 1.7350001
0.29637033 -0.23456006 1.7336668
0.29894948 -0.22914401 1.7310001
0.30612719 -0.22712898 1.733
0.3133525 -0.22223179 1.7323333
0.31712043 -0.21665619 1.7363335
0.32169953 -0.2122705 1.7336668
0.32701507 -0.20685826 1.7350001
0.33157814 -0.20229521 1.7350001
0.33729443 -0.19719608 1.737
0.34454226 -0.19208995 1.7390001
0.34735027 -0.18509002 1.7367144
0.35209653 -0.18187356 1.7336668
0.35618559 -0.17505018 1.7363335
0.36369655 -0.1724903 1.7310001
0.3480995 -0.16363217 1.7390002
0.3561011 -0.16480054 1.7374002
0.36420238 -0.1654086 1.7310001
0.34693795 -0.15397687 1.7390002
0.35657883 -0.15422584 1.7365388
0.36268488 -0.15478602 1.7310001
0.3480995 -0.14584607 1.739
0.35770893 -0.14460763 1.7363335
0.36268488 -0.14568096 1.7310001
0.35752583 -0.13540359 1.7354445
0.35753247 -0.12526792 1.7368183
0.35790303 -0.11473586 1.7358001
0.3639856 -0.11468039 1.7310001
-0.18058369 -0.10167317 1.7310001
-0.17438777 -0.10317472 1.7358001
-0.16922207 -0.1051921 1.739
0.35726029 -0.10538826 1.7360001
0.3637895 -0.10434175 1.7321428
-0.19272377 -0.094085619 1.7310001
-0.18604672 -0.096210137 1.7310002
-0.17375489 -0.097879395 1.7310001
-0.16418791 -0.095955193 1.7374003
-0.15354128 -0.095173821 1.7390002
-0.14504254 -0.095556878 1.7370002
-0.13628529 -0.093651228 1.7370002
-0.12805995 -0.092995919 1.7390001
0.35860971 -0.09593451 1.737
0.36347979 -0.095713586 1.733
-0.19879381 -0.086498067 1.7310001
-0.16338524 -0.088521421 1.7310001
-0.15326852 -0.086498067 1.7310002
-0.14416344 -0.08498057 1.7310003
-0.13510925 -0.085015036 1.7316669
-0.12533066 -0.085589468 1.7344288
-0.11514241 -0.084288597 1.7334616
-0.10497703 -0.083682016 1.7354445
-0.097569495 -0.082324259 1.7390001
0.35826299 -0.088422351 1.7390001
0.36412722 -0.085479744 1.735
0.37045917 -0.080799736 1.7390001
-0.14112844 -0.07739301 1.7310001
-0.13505839 -0.07739301 1.7310001
-0.12291831 -0.07739301 1.7310001
-0.11482492 -0.07739301 1.7310001
-0.10470819 -0.074357994 1.7310001
-0.095894575 -0.074590214 1.7363335
-0.086026676 -0.072959326 1.7390002
-0.076226167 -0.071652599 1.7390001
-0.10268485 -0.067276269 1.7310001
-0.095223747 -0.065632306 1.7310001
-0.085111476 -0.065358125 1.7336669
-0.074661903 -0.065522544 1.7381113
-0.06738393 -0.064944692 1.7390001
-0.092568107 -0.05918289 1.7310001
-0.08373896 -0.05587196 1.7310002
-0.074357986 -0.054630365 1.7310003
-0.065302022 -0.054675952 1.7323335
-0.055208206 -0.054128282 1.7355717
-0.044777505 -0.051482599 1.7374001
-0.073750988 -0.045828801 1.7310002
-0.065686502 -0.044874936 1.7310001
-0.054023355 -0.044614792 1.7310002
-0.044072468 -0.044078704 1.7336668
-0.035010267 -0.044148058 1.7363335
-0.025880827 -0.043285914 1.7367144
-0.015210167 -0.042591974 1.7350001
-0.042490281 -0.037937749 1.7310001
-0.034295727 -0.03672374 1.7310002
-0.025797671 -0.036420237 1.7310001
-0.0151751 -0.036420241 1.7310001
-0.0050041382 -0.034171842 1.7378575
0.0041379919 -0.034192882 1.7390002
0.01372071 -0.03277725 1.7390001
-0.0045525301 -0.025797671 1.7310001
0.0045525301 -0.025797669 1.7310001
0.015231789 -0.025889432 1.7370003
0.024900546 -0.024900548 1.7390002
0.035064038 -0.022867849 1.739
0.041162129 -0.022867849 1.7390001
-0.0030350201 -0.019727631 1.7310001
0.0045525301 -0.019727631 1.7310001
0.015791221 -0.017308731 1.7318001
0.025851864 -0.015627857 1.7346364
0.034997996 -0.015222439 1.7356668
0.044211179 -0.015245232 1.7390002
0.054577935 -0.013110898 1.7390001
0.0655545 -0.012196186 1.7390002
0.071652599 -0.012196187 1.7390001
0.037937749 -0.0075875497 1.7310001
0.044766545 -0.0068287952 1.7310001
0.054714527 -0.0045642196 1.7336669
0.065388523 -0.0045665568 1.7345557
0.07432051 -0.0041924389 1.7390002
0.085373305 -0.0030490465 1.7390002
0.096415423 -0.0037014119 1.7378572
0.1051399 -0.0045727906 1.7381113
0.11395812 -0.0041924394 1.7390002
0.12479312 -0.0028312576 1.7390002
0.054630361 0.00151751 1.7310001
0.06525293 0.0030350201 1.7310001
0.07473737 0.0041731521 1.7310001
0.085284062 0.0039455257 1.7310002
0.094996125 0.0027315181 1.7310002
0.10531519 0.0027315181 1.7310002
0.11555938 0.0042160847 1.7318889
0.12557636 0.0042518331 1.7341999
0.1356148 0.0045696739 1.7381113
0.14482972 0.0045735706 1.7390002
0.16922209 0.0076226168 1.7390001
0.17532019 0.0076226168 1.739
0.18490291 0.0054447255 1.7390002
0.19463082 0.0055899187 1.7390002
0.20520084 0.0064029982 1.7390001
0.21536982 0.0063959844 1.7374001
0.22366934 0.0054447264 1.7390002
0.23368764 0.0058803041 1.7390002
0.24239922 0.0076226168 1.7390001
0.25764444 0.0076226168 1.7390001
0.26526707 0.0076226168 1.7390001
0.12747085 0.01062257 1.7310001
0.13581714 0.011381324 1.7310001
0.14372988 0.012790442 1.7310001
0.15507075 0.015805949 1.7342001
0.16473454 0.01506571 1.7381114
0.17590657 0.014726927 1.7381114
0.18487132 0.015209582 1.7356669
0.19501983 0.014904326 1.735267
0.20495786 0.013306266 1.7350001
0.21396892 0.011836578 1.7310002
0.22459149 0.012140079 1.7310001
0.23547918 0.013011973 1.7354445
0.24518859 0.014291945 1.735
0.25510666 0.015501044 1.7342002
0.26448929 0.014718356 1.7372223
0.38601956 0.019037256 1.737
0.39519128 0.017743247 1.7345557
0.40214014 0.019727631 1.7310001
0.17754866 0.024280161 1.7310001
0.18543974 0.025190666 1.7310002
0.19474714 0.024785997 1.7310001
0.38560167 0.024039779 1.7358001
0.39531061 0.025845008 1.7343335
0.40289891 0.026556425 1.7310001
0.39667708 0.033081718 1.7310002
0.40517518 0.034902729 1.7310001
0.0655545 0.33996871 1.739
0.025916897 0.34911585 1.7390001
0.047260225 0.34911585 1.7390001
0.059456408 0.3460668 1.7390001
0.064029977 0.34606683 1.7390002
0.019727631 0.35813236 1.7310001
0.025881834 0.35466924 1.7363335
0.034628458 0.35608509 1.7390002
0.043824919 0.35516447 1.7358001
0.054882836 0.35521391 1.7390002
0.063604444 0.35395327 1.7358001
0.019818803 0.36588562 1.7390001
0.025916897 0.36436108 1.7390002
0.035295956 0.36500627 1.7368183
0.044340447 0.36507082 1.7331818
0.05451341 0.36512715 1.7368671
0.06236168 0.36503699 1.7350001
0.019818803 0.37503275 1.7390001
0.025906965 0.37488723 1.7383336
0.034643412 0.37473345 1.7334001
0.044007793 0.37482497 1.7310001
0.054241359 0.37415218 1.7317275
0.06221791 0.37178996 1.7310001
0.019727631 0.38241252 1.7310001
0.026556425 0.38165379 1.7310001
0.031867709 0.38089502 1.7310001
0.044007789 0.38089502 1.7310001
0.051595338 0.38241252 1.7310001
0.22832958 -0.49190468 1.748
0.23445924 -0.49445871 1.748
0.24518614 -0.49650192 1.748
0.25591302 -0.49650192 1.748
0.26561829 -0.49445871 1.748
0.27430201 -0.49650192 1.748
0.28568563 -0.49672085 1.748
0.29269093 -0.49496952 1.748
0.3693116 -0.49190468 1.748
0.37587908 -0.49409387 1.748
0.38157091 -0.49496952 1.748
0.2176027 -0.48271018 1.748
0.22570257 -0.48489934 1.748
0.23262033 -0.48638797 1.7479999
0.24058889 -0.48577502 1.748
0.31210151 -0.48373184 1.748
0.36701298 -0.48577499 1.748
0.37544128 -0.48577499 1.748
0.38233712 -0.48500881 1.748
0.20917441 -0.4727495 1.748
0.21607025 -0.47504807 1.7479998
0.22526477 -0.47504809 1.7479998
0.2327079 -0.47526702 1.748
0.31720957 -0.47964537 1.748
0.32421488 -0.47789404 1.748
0.33498555 -0.47290277 1.7479999
0.36318195 -0.47964537 1.748
0.37605423 -0.47566113 1.7479999
0.38157091 -0.47504812 1.748
0.2068758 -0.46432126 1.748
0.21607026 -0.46393809 1.748
0.22679716 -0.46432123 1.748
0.23343761 -0.46636447 1.748
0.33866334 -0.46738607 1.748
0.34377137 -0.46329963 1.748
0.38157091 -0.46432123 1.748
0.20687579 -0.45512676 1.748
0.21607028 -0.45512676 1.748
0.22832958 -0.45819157 1.748
0.23139441 -0.45206192 1.748
0.34785783 -0.45819157 1.748
0.35551989 -0.45359433 1.748
0.36624679 -0.45359433 1.748
0.37505817 -0.45512676 1.748
0.38157091 -0.45512676 1.748
0.20725891 -0.44631544 1.748
0.21607028 -0.44593227 1.748
