# .PCD v0.7 - Point Cloud Data file format
VERSION 0.7
FIELDS x y z
SIZE 4 4 4
TYPE F F F
COUNT 1 1 1
WIDTH 1459
HEIGHT 1
VIEWPOINT 0 0 0 1 0 0 0
POINTS 1459
DATA ascii
0.14643314 -0.48760727 1.7220001
0.15700048 -0.48458806 1.7220001
0.16368593 -0.48501936 1.7220001
0.17662553 -0.48534283 1.7220001
0.18467684 -0.48509121 1.7220001
0.19398616 -0.48383322 1.7220001
0.20530832 -0.48685247 1.7220001
0.21587567 -0.48257521 1.7220001
0.30386496 -0.48588198 1.7220001
0.31249133 -0.48760727 1.7220001
0.35174146 -0.48156878 1.7220001
0.13737541 -0.47251105 1.7220001
0.14462158 -0.47371873 1.7220001
0.15586826 -0.47515291 1.7220001
0.16152933 -0.4755303 1.7220001
0.18266402 -0.47854954 1.7220001
0.22493339 -0.47452387 1.7220001
0.23248148 -0.47251105 1.7220001
0.38193387 -0.47251105 1.7220001
0.13511099 -0.46496296 1.7220001
0.14582929 -0.46707639 1.7220001
0.15488701 -0.46828413 1.7220001
0.16303895 -0.46798217 1.7220001
0.24606806 -0.46546614 1.7220001
0.25512579 -0.46043411 1.7220001
0.26418349 -0.46043411 1.7220001
0.30343363 -0.46043411 1.7220001
0.31777501 -0.46269852 1.7220001
0.32543093 -0.46302199 1.7220001
0.33060679 -0.46194372 1.7220001
0.37740499 -0.46194372 1.7220001
0.13360138 -0.45515043 1.7220001
0.27626047 -0.45640847 1.7220001
0.28592199 -0.45318794 1.7220001
0.2943759 -0.45379177 1.7220001
0.30515888 -0.45439562 1.7220001
0.31551057 -0.45439562 1.7220001
0.3245683 -0.45439562 1.7220001
0.3327634 -0.45396429 1.7220001
0.37690178 -0.45439562 1.7220001
0.13284656 -0.44533789 1.7220001
0.14945237 -0.44231865 1.7220001
0.30796248 -0.4468475 1.7220001
0.31588799 -0.44571528 1.7220001
0.32336062 -0.44654554 1.7220001
0.33664528 -0.44533792 1.7220001
0.34268373 -0.44382828 1.7220001
0.36562997 -0.44352636 1.7220001
0.37287614 -0.44835714 1.7220001
0.13284656 -0.43477052 1.7220001
0.14945237 -0.43628019 1.7220001
0.16454858 -0.4377898 1.7220001
0.31732211 -0.43628019 1.7220001
0.3245683 -0.43477058 1.7220001
0.33538723 -0.43552539 1.7220001
0.34570301 -0.43401575 1.7220001
0.35476071 -0.4377898 1.7220001
0.3623088 -0.4392994 1.7220001
0.13385297 -0.42420325 1.7220001
0.14643313 -0.4221904 1.7220001
0.13556388 -0.41393775 1.7220001
0.14431967 -0.41454163 1.7220001
0.15488701 -0.41333395 1.7220001
0.13435619 -0.40457818 1.7220001
0.14478628 -0.40444091 1.7220001
0.15347803 -0.40709421 1.7220001
0.13521883 -0.39401081 1.7220001
0.14470787 -0.39444211 1.7220001
0.13737541 -0.38797233 1.7220001
0.14492352 -0.3853305 1.7220001
0.15398124 -0.3834435 1.7220001
0.14643313 -0.37589535 1.7220001
0.15462823 -0.37589535 1.7220001
0.1477271 -0.36511233 1.7220001
0.15376557 -0.36554366 1.7220001
0.14794275 -0.35777995 1.7220001
0.15462823 -0.35432941 1.7220001
0.16303895 -0.3532511 1.7220001
-0.17662553 -0.34268373 1.7220001
-0.16417117 -0.34570298 1.7220001
0.15549086 -0.34872222 1.7220001
0.16515243 -0.34630686 1.7220001
0.17058706 -0.34268373 1.7220001
-0.18568325 -0.33060679 1.7220001
-0.17662555 -0.33530337 1.7220001
0.17662555 -0.33815488 1.7220001
0.18417364 -0.33362603 1.7220001
-0.17322889 -0.32494572 1.7220001
-0.1675678 -0.3245683 1.7220001
0.18568327 -0.32456833 1.7220001
-0.17209668 -0.31852981 1.7220001
-0.16756782 -0.31852981 1.7220001
-0.14039466 -0.31400096 1.7220001
-0.13586581 -0.31400096 1.7220001
0.18568325 -0.31551057 1.7220001
-0.14039466 -0.30947208 1.7220001
-0.13737541 -0.30947208 1.7220001
0.18719287 -0.30494323 1.7220001
0.19323136 -0.30041438 1.7220001
0.19387834 -0.29394457 1.7220001
0.19776022 -0.2868278 1.7220001
0.20279229 -0.28431174 1.7220001
0.20606314 -0.27475086 1.7220001
0.20983718 -0.26569313 1.7220001
0.21386282 -0.26217064 1.7220001
0.21537244 -0.25512579 1.7220001
0.2188949 -0.2490873 1.7220001
0.22543658 -0.24606806 1.7220001
0.23197828 -0.24103598 1.7220001
0.2339911 -0.23701034 1.7220001
0.24455844 -0.23248148 1.7220001
0.25210655 -0.23097186 1.7220001
0.25512579 -0.22795261 1.7220001
0.26418349 -0.22644299 1.7220001
0.27324122 -0.22191414 1.7220001
0.28380856 -0.21436603 1.7220001
0.2868278 -0.20530832 1.7220001
0.29135665 -0.20077945 1.7220001
0.28607297 -0.19549578 1.7220001
0.28531817 -0.18568327 1.7220001
0.27927971 -0.17058706 1.7220001
0.28402421 -0.17446895 1.7220001
0.27927971 -0.16454858 1.7220001
0.28350663 -0.16515242 1.7220001
0.27927971 -0.15398124 1.7220001
0.28229895 -0.15700048 1.7220001
0.27755442 -0.14557049 1.7220001
0.30796248 -0.14039466 1.7220001
0.27626047 -0.13435619 1.7220001
0.30796248 -0.13737541 1.7220001
-0.27022198 -0.11171187 1.7220001
-0.26720273 -0.11171187 1.7220001
-0.27022198 -0.1056734 1.7220001
-0.26720273 -0.10416379 1.7220001
-0.24304882 -0.10114454 1.7220001
0.37589538 -0.10416378 1.7220001
-0.27022198 -0.093596444 1.7220001
-0.26461482 -0.095968701 1.7220001
-0.25462258 -0.096112482 1.7220001
-0.24304882 -0.095860869 1.7220001
-0.2347459 -0.092841633 1.7220001
-0.22795261 -0.092086822 1.7220001
-0.20832756 -0.092086822 1.7220001
-0.22493339 -0.089067578 1.7220001
-0.21587567 -0.089067578 1.7220001
-0.20530832 -0.089067578 1.7220001
-0.19474097 -0.086551547 1.7220001
-0.18628712 -0.081217565 1.7220001
-0.17964478 -0.080009863 1.7220001
-0.18467684 -0.074977793 1.7220001
-0.17602168 -0.073669448 1.7220001
-0.16756782 -0.07095214 1.7220001
0.35777995 -0.076990619 1.7220001
-0.17511591 -0.065517507 1.7220001
-0.1660582 -0.06491366 1.7220001
-0.17058706 -0.058875181 1.7220001
-0.16575627 -0.056459785 1.7220001
-0.13133694 -0.052836701 1.7220001
0.32637984 -0.056459792 1.7220001
0.33060679 -0.055855941 1.7220001
-0.16152933 -0.04830784 1.7220001
-0.15549086 -0.047660861 1.7220001
-0.14542672 -0.047804639 1.7220001
-0.13435619 -0.04830784 1.7220001
-0.12560038 -0.0452886 1.7220001
-0.11563689 -0.043477058 1.7220001
-0.10340897 -0.041514549 1.7220001
-0.095860869 -0.041514549 1.7220001
-0.084538721 -0.040759739 1.7220001
-0.075480998 -0.040759739 1.7220001
0.32607794 -0.0452886 1.7220001
0.33190078 -0.045935579 1.7220001
-0.11020226 -0.037740499 1.7220001
-0.10416379 -0.037740499 1.7220001
-0.095106058 -0.036985688 1.7220001
-0.084035516 -0.035727669 1.7220001
-0.074348785 -0.034343854 1.7220001
-0.064158849 -0.03245683 1.7220001
-0.055855941 -0.031702019 1.7220001
-0.049817462 -0.031702019 1.7220001
0.32683271 -0.03547607 1.7220001
0.33211643 -0.034721259 1.7220001
-0.06491366 -0.027927969 1.7220001
-0.055855941 -0.028682778 1.7220001
-0.045288604 -0.027173162 1.7220001
-0.033966448 -0.024908729 1.7220001
-0.027676366 -0.023650713 1.7220001
0.33362603 -0.02566354 1.7220001
0.36532801 -0.0226443 1.7220001
-0.023650713 -0.018618647 1.7220001
-0.015743181 -0.016605822 1.7220001
-0.0045288601 -0.01056734 1.7220001
0.0045288601 -0.01056734 1.7220001
0.015096201 -0.01056734 1.7220001
0.02566354 -0.01056734 1.7220001
0.034721259 -0.01056734 1.7220001
0.042269357 -0.01056734 1.7220001
0.072461754 -0.01056734 1.7220001
0.28607297 -0.01434139 1.7220001
0.2943759 -0.013586581 1.7220001
0.30041438 -0.01056734 1.7220001
0.33362603 -0.01703714 1.7220001
0.36608285 -0.013586581 1.7220001
0.37438577 -0.01056734 1.7220001
0.0075480998 -0.0075480998 1.7220001
0.04830784 -0.0075480998 1.7220001
0.055855941 -0.0075480998 1.7220001
0.06491366 -0.0075480998 1.7220001
0.073971383 -0.0075480998 1.7220001
0.084538728 -0.0045288601 1.7220001
0.095106065 -0.0045288601 1.7220001
0.10476764 -0.0057365559 1.7220001
0.11422791 -0.0065416866 1.7220001
0.12529846 -0.0075480998 1.7220001
0.13435619 -0.0075480998 1.7220001
0.14582929 -0.0057365559 1.7220001
0.15549086 -0.0050320667 1.7220001
0.16411725 -0.0053915004 1.7220001
0.17421016 -0.0051327078 1.7220001
0.30464134 -0.0045288601 1.7220001
0.31400096 -0.00150962 1.7220001
0.36834729 -0.0075480998 1.7220001
0.30796248 0.00150962 1.7220001
0.31249133 0.00150962 1.7220001
-0.013586581 0.34721264 1.7220001
0.01056734 0.34872222 1.7220001
-0.024800899 0.35519201 1.7220001
-0.0150962 0.35476068 1.7220001
0.01056734 0.3532511 1.7220001
-0.031702019 0.36683765 1.7220001
-0.025328068 0.36549574 1.7220001
-0.016102614 0.36180559 1.7220001
-0.0058228201 0.36597505 1.7220001
0.0045288601 0.36683765 1.7220001
-0.00150962 0.37287614 1.7220001
0.089946873 -0.49547005 1.739
0.095994323 -0.49521685 1.7381114
0.10492015 -0.49420533 1.7345557
0.11404859 -0.49420846 1.7345557
0.12496239 -0.49527898 1.7383336
0.13481732 -0.49402571 1.7318001
0.14355645 -0.49531525 1.7310002
0.15388346 -0.49532807 1.7317275
0.17754866 -0.49774328 1.7310001
0.18452922 -0.49501175 1.7310002
0.19569182 -0.49486747 1.7358001
0.20505039 -0.49547043 1.7326
0.2137046 -0.49205065 1.7350001
0.25764444 -0.49547008 1.739
0.26526028 -0.49552318 1.7361432
0.27477393 -0.49489704 1.7316669
0.28507578 -0.4945558 1.7315336
0.29567626 -0.49264717 1.732143
0.31715959 -0.49167323 1.7310001
0.324646 -0.49440479 1.7310004
0.33553401 -0.49448436 1.7334001
0.3450869 -0.49423769 1.7360002
0.088930525 -0.48378208 1.7390002
0.095767789 -0.4852142 1.7390002
0.10491859 -0.48508003 1.7345557
0.11533076 -0.48408568 1.7310003
0.12621516 -0.4850831 1.7345557
0.13512619 -0.48433584 1.731889
0.14416344 -0.48408568 1.7310001
0.15186672 -0.48446092 1.7323333
0.21700393 -0.48712072 1.7310001
0.22481854 -0.48461294 1.7344285
0.23499437 -0.48283833 1.7390002
0.24697278 -0.48327389 1.7390002
0.25611994 -0.48327389 1.7390002
0.26503432 -0.48437887 1.7375002
0.27562138 -0.48423791 1.7370001
0.28548262 -0.48443195 1.7361431
0.29497004 -0.48404711 1.7368183
0.30379394 -0.48314062 1.7336668
0.31428742 -0.48433426 1.731889
0.32487777 -0.4849005 1.7339092
0.33550736 -0.48400268 1.7343335
0.34527078 -0.48459166 1.7350003
0.35488993 -0.48282641 1.7374001
0.36359882 -0.48251161 1.7390001
0.088422351 -0.4771758 1.7390001
0.097221449 -0.47523984 1.7367144
0.10460442 -0.47466889 1.7339091
0.11501995 -0.47468045 1.7316157
0.12595333 -0.47498062 1.7310001
0.1340467 -0.47599229 1.7310001
0.14112844 -0.47801566 1.7310001
0.15023349 -0.47801566 1.7310001
0.22610898 -0.47801566 1.7310001
0.23935015 -0.4771758 1.7390001
0.24469782 -0.47419485 1.7336668
0.25497651 -0.47450787 1.7390002
0.26526704 -0.47412679 1.7390002
0.27593872 -0.47412676 1.7390002
0.28508583 -0.47412676 1.7390002
0.29423299 -0.47412676 1.7390002
0.30391884 -0.47465226 1.7340772
0.31426972 -0.47459036 1.7318001
0.32433325 -0.47498065 1.7310002
0.33234608 -0.47565126 1.7390001
0.36131203 -0.4771758 1.7390001
0.37350821 -0.47311041 1.739
0.38265535 -0.47412676 1.7390001
0.097874403 -0.46436983 1.7390001
0.10544722 -0.46537271 1.7382002
0.11574462 -0.46559966 1.7310002
0.12595333 -0.46587557 1.7310001
0.13202336 -0.46739307 1.7310001
0.2549417 -0.46663433 1.7310001
0.26694018 -0.46619338 1.7350001
0.27530402 -0.46543464 1.7350001
0.28501421 -0.46475643 1.7332859
0.2958228 -0.46580321 1.7355716
0.30565646 -0.46618319 1.7321428
0.31369099 -0.46587557 1.7310001
0.32322964 -0.46739307 1.7310001
0.3369123 -0.46655759 1.7358
0.34301776 -0.46345508 1.7390001
0.37688294 -0.46596235 1.737
0.38089502 -0.46891057 1.7310001
0.097874403 -0.45644227 1.7390001
0.1051921 -0.45583248 1.7390002
0.1149414 -0.45673403 1.7350004
0.12520592 -0.45526773 1.7327147
0.13202336 -0.45525301 1.7310001
0.28529188 -0.45980552 1.7310001
0.29490277 -0.45879385 1.7310001
0.30805454 -0.45980552 1.7310001
0.31108955 -0.45980552 1.7310001
0.33840472 -0.45828801 1.7310001
0.34425914 -0.45377231 1.7350001
0.36656153 -0.45250422 1.7350001
0.37276784 -0.45580491 1.7355716
0.09634988 -0.44424611 1.7390001
0.1051921 -0.44516084 1.7390002
0.11487456 -0.44511598 1.7365386
0.12540172 -0.44483584 1.7318001
0.34831282 -0.44566488 1.7350001
0.35490274 -0.4451544 1.7350001
0.36323893 -0.44835511 1.7336668
0.086897828 -0.43326956 1.7390001
0.095663846 -0.43487027 1.7390002
0.10510912 -0.43568054 1.7376667
0.11604156 -0.43532094 1.7326002
0.12595335 -0.43552542 1.7310001
0.085881487 -0.42534196 1.7390002
0.096123338 -0.42497063 1.7350003
0.10470819 -0.4249028 1.7310003
0.11533076 -0.42490274 1.7310004
0.12595333 -0.42490283 1.7310003
0.13303505 -0.42136192 1.7310001
0.15023349 -0.42035025 1.7310001
0.087660089 -0.41695711 1.7390001
0.096044965 -0.41467026 1.7390002
0.10498931 -0.41386911 1.7356669
0.11533076 -0.41428027 1.7310003
0.12595333 -0.41428018 1.7310001
0.13354087 -0.41731524 1.7310001
0.097569495 -0.40704772 1.7390001
0.1051921 -0.4039987 1.7390002
0.11509871 -0.40513718 1.7328465
0.12595332 -0.40517521 1.7310001
0.099094018 -0.393327 1.7390001
0.1051921 -0.39485154 1.7390002
0.11577173 -0.39473253 1.7331336
0.12595333 -0.39455259 1.7310003
0.13278213 -0.39303511 1.7310001
0.099094018 -0.38875344 1.7390001
0.10606326 -0.38613996 1.7390002
0.11433925 -0.3857044 1.7390002
0.12462168 -0.38452148 1.7336669
0.13505837 -0.38393003 1.7310001
0.14112844 -0.38241252 1.7310001
0.11501682 -0.37621844 1.7390002
0.12424171 -0.37469524 1.7344288
0.1350584 -0.37482494 1.7310001
0.14188719 -0.37406623 1.7310001
0.11738829 -0.36436108 1.739
0.12485629 -0.36475366 1.7353079
0.1350584 -0.36571991 1.7310001
0.14264594 -0.36571991 1.7310001
0.15023349 -0.36875492 1.7310001
0.11738829 -0.35826299 1.7390001
0.1257235 -0.3558377 1.7383336
0.13505839 -0.35509732 1.7310003
0.14388753 -0.35468349 1.7310002
0.151751 -0.35282108 1.7310001
-0.17451365 -0.34143975 1.7310001
-0.16692609 -0.34143975 1.7310001
0.12775505 -0.3472864 1.7390001
0.13554075 -0.34571147 1.7372223
0.14416344 -0.34447476 1.7310001
0.15507883 -0.34513581 1.7343335
0.16439693 -0.34346309 1.7310001
-0.17400782 -0.33587554 1.7310001
-0.1652133 -0.33537608 1.733
-0.15245233 -0.33082157 1.7390001
-0.14482972 -0.33285427 1.739
-0.13771528 -0.33183792 1.739
0.12958448 -0.33996871 1.7390001
0.13606369 -0.33730081 1.7390002
0.14466317 -0.33500412 1.7370001
0.15435797 -0.33730081 1.7390002
0.16484961 -0.33549246 1.7379336
0.17428939 -0.33491489 1.7318001
0.18058369 -0.3323347 1.7310001
-0.16439691 -0.32828799 1.7310001
-0.14429951 -0.32504731 1.7326002
-0.13551405 -0.323037 1.732
-0.1277654 -0.32245904 1.7350001
0.14665915 -0.3253333 1.7390001
0.16845983 -0.32548574 1.7390001
0.17544945 -0.32555553 1.7375457
0.18188441 -0.32409677 1.7310001
-0.12595333 -0.31564206 1.7310001
0.14787877 -0.31710082 1.7390001
0.16922207 -0.31557631 1.739
0.175229 -0.31541499 1.7381113
0.18179771 -0.31412458 1.7310002
0.16922209 -0.30947822 1.7390001
0.17552276 -0.30519101 1.7382729
0.18268922 -0.30422854 1.733
0.17684469 -0.29575753 1.7390001
0.18562011 -0.29516938 1.7355717
0.19056542 -0.29118395 1.7390001
0.18599184 -0.28661039 1.7390001
0.19416191 -0.28487721 1.7334616
0.20182882 -0.28073934 1.7310001
0.19612211 -0.27633107 1.7372223
0.20258757 -0.27391055 1.7310001
0.19869621 -0.26882425 1.739
0.20542772 -0.26568943 1.7358
0.21093389 -0.26252922 1.7310001
0.20785722 -0.2573446 1.7370002
0.21280745 -0.25358948 1.7321428
0.21648231 -0.24849731 1.7390001
0.22409527 -0.24488135 1.7350001
0.23824906 -0.23521405 1.7310001
0.24516597 -0.23145929 1.7370002
0.24748094 -0.22613762 1.739
0.25492269 -0.22552572 1.7343335
0.26465479 -0.22297683 1.7350003
0.27306443 -0.22138959 1.7336668
0.25764444 -0.21648231 1.7390001
0.26526707 -0.21800683 1.7390001
0.27579615 -0.21484634 1.7381113
0.28247231 -0.21375465 1.7342001
0.25764444 -0.20581065 1.7390001
0.26780793 -0.20530248 1.7390002
0.27593872 -0.20581067 1.7390002
0.28404549 -0.2049561 1.735
0.26853389 -0.19448563 1.7390002
0.27593872 -0.19513899 1.7390002
0.28315619 -0.19566511 1.7378572
0.26717269 -0.1844673 1.7390002
0.27579612 -0.18437459 1.7381113
0.28265899 -0.18460909 1.7321428
0.26780793 -0.174812 1.7390002
0.27536985 -0.17496328 1.7354445
0.28073934 -0.17603116 1.7310001
0.26831609 -0.16464852 1.7390002
0.27519611 -0.16478503 1.7360911
0.26831609 -0.15397686 1.7390002
0.27522883 -0.15459658 1.7345557
0.28073934 -0.15933855 1.7310001
0.26907834 -0.14406747 1.7390001
0.27377951 -0.14449657 1.7350001
0.268621 -0.13629238 1.7390001
0.27336103 -0.13516009 1.7323333
0.26801118 -0.12470601 1.7390001
0.27495912 -0.12715511 1.7355715
-0.24128409 -0.10319068 1.7310001
-0.23480676 -0.10317929 1.7344285
-0.22410493 -0.10214307 1.739
-0.21343327 -0.10214306 1.7390001
-0.20581065 -0.10214307 1.739
-0.19666351 -0.10214306 1.7390001
-0.18446732 -0.10214306 1.7390001
-0.23460706 -0.097424142 1.7310002
-0.22445878 -0.096003361 1.7331818
-0.21484448 -0.096208692 1.7350001
-0.20495613 -0.096208692 1.7350001
-0.19510578 -0.094933555 1.7372223
-0.18446732 -0.096044973 1.7390002
-0.17570131 -0.095663846 1.7390002
-0.16922209 -0.092995919 1.7390001
-0.19272377 -0.089533091 1.7310001
-0.18452922 -0.08710508 1.7310002
-0.17464691 -0.085049532 1.7323335
-0.16740739 -0.085232168 1.7360001
-0.17147863 -0.075875498 1.7310001
-0.16426347 -0.074528411 1.7350003
-0.15600955 -0.072668947 1.739
-0.16237357 -0.065252922 1.7310001
-0.15519689 -0.065430023 1.7356668
-0.14543954 -0.063725069 1.7390001
-0.13556054 -0.063667558 1.7374003
-0.12602726 -0.063521802 1.7390002
-0.11738829 -0.062505454 1.7390001
0.32929966 -0.06221791 1.7310001
0.3323347 -0.06221791 1.7310001
-0.16237357 -0.05614787 1.7310001
-0.15478602 -0.056147873 1.7310003
-0.14416343 -0.056147873 1.7310001
-0.13543776 -0.056527246 1.7310001
-0.12487694 -0.055984959 1.7336669
-0.11518394 -0.053915199 1.7340772
-0.10497859 -0.053253897 1.7354445
-0.095855609 -0.052387971 1.7355715
-0.085325092 -0.051804863 1.7380002
-0.074584752 -0.051756646 1.7363335
-0.0655545 -0.051833794 1.7390002
-0.057931885 -0.050309271 1.7390001
0.32272381 -0.052607011 1.7310001
-0.11077823 -0.045525298 1.7310001
-0.10531519 -0.045828801 1.7310002
-0.094996125 -0.045828801 1.7310002
-0.084980562 -0.045525301 1.7310001
-0.073924415 -0.04487494 1.7310001
-0.065284878 -0.044031944 1.731889
-0.055982079 -0.043470487 1.7363334
-0.044211179 -0.041162129 1.739
0.31614789 -0.04299612 1.7310001
0.32171214 -0.044007789 1.7310001
-0.07132297 -0.037937749 1.7310001
-0.065859929 -0.03672374 1.7310002
-0.054630365 -0.036420241 1.7310001
-0.04402883 -0.034922209 1.7318889
-0.034972861 -0.034979098 1.7345557
-0.026249809 -0.034625925 1.7360001
-0.018294279 -0.032014988 1.7390001
0.31557631 -0.036588561 1.7390002
0.32322192 -0.03456017 1.733
-0.040972769 -0.028832689 1.7310001
-0.034902729 -0.028832689 1.7310001
-0.024785995 -0.026809342 1.7310001
-0.015631683 -0.025600184 1.7360911
-0.0076226168 -0.022867849 1.7390001
0.0060980935 -0.022867849 1.7390001
0.016769756 -0.022867849 1.7390001
0.025916897 -0.022867849 1.739
0.036588561 -0.022867849 1.7390001
0.042686652 -0.022867849 1.7390001
0.07775069 -0.022867849 1.7390001
0.08486513 -0.022867849 1.739
0.09604498 -0.022867849 1.739
0.1051921 -0.022867849 1.739
0.11433925 -0.024392374 1.7390002
0.12501091 -0.024392374 1.7390002
0.13568257 -0.024392374 1.7390002
0.14406747 -0.023630112 1.7390001
0.17836922 -0.022867849 1.7390001
0.18141827 -0.022867849 1.7390001
0.32675892 -0.026539914 1.7354445
0.3323347 -0.025797671 1.7310001
-0.011634243 -0.018715957 1.7310001
-0.0045665568 -0.016748717 1.7363335
0.004559543 -0.016723001 1.7336668
0.015204906 -0.016729428 1.7343335
0.025837414 -0.016723001 1.7336668
0.034972861 -0.016731573 1.7345557
0.044353373 -0.01610384 1.7326
0.054410551 -0.014900117 1.7336669
0.065390006 -0.014798851 1.7346364
0.074834719 -0.016128387 1.735
0.085152827 -0.015212359 1.7345004
0.095824055 -0.015217179 1.7350001
0.10495015 -0.015217179 1.7350001
0.11513246 -0.014889833 1.7326005
0.12570922 -0.01555928 1.7340772
0.13531964 -0.015210751 1.7343335
0.14433001 -0.015197895 1.7330002
0.15469286 -0.013414195 1.7346364
0.16528264 -0.014963093 1.7350001
0.17484854 -0.015210752 1.7343335
0.18141827 -0.015245234 1.7390001
0.28984439 -0.019727631 1.7310001
0.29591444 -0.01821012 1.7310001
0.30455399 -0.015231206 1.7370002
0.31252727 -0.010671663 1.7390001
0.3286888 -0.015506657 1.7342001
0.33157814 -0.01520666 1.7350001
0.36875492 -0.01821012 1.7310001
0.37583664 -0.016186774 1.7310001
0.088015579 -0.0075875497 1.7310001
0.095603131 -0.0075875497 1.7310001
0.10167317 -0.0075875497 1.7310001
0.15326852 -0.0075875497 1.7310001
0.17754866 -0.0075875497 1.7310001
0.18141827 -0.0060980935 1.7390001
0.30876637 -0.0060875732 1.7350001
0.31557631 -0.0060980935 1.7390002
0.32381207 -0.0063959844 1.7374003
-0.024900548 0.33895239 1.739
-0.014308075 0.33873329 1.7358
-0.0038113084 0.33920646 1.7390001
0.0045735701 0.33874908 1.7390001
0.012180407 0.33805317 1.7370002
-0.024280161 0.34447479 1.7310001
-0.015680937 0.34346306 1.7310001
-0.0045665563 0.34553149 1.7363335
0.0045657773 0.34535456 1.7354445
0.011846396 0.34418336 1.7326
-0.024280161 0.35054481 1.7310001
-0.019727631 0.35054481 1.7310001
-0.0045595434 0.35563853 1.7336669
0.0045525301 0.35509732 1.7310003
-0.0022762651 0.36496115 1.7310001
0.0041731526 0.36571988 1.7310001
0.0045525301 0.37330747 1.7310001
0.078153081 -0.49650192 1.748
0.084282734 -0.49496952 1.748
0.21607028 -0.49803433 1.748
0.22526477 -0.49394789 1.748
0.23507221 -0.49313062 1.7479999
0.24518614 -0.49496952 1.7479999
0.25438061 -0.49496952 1.748
0.078153081 -0.48730743 1.748
0.083516531 -0.48807365 1.748
0.23445924 -0.48883986 1.748
0.24365371 -0.48730743 1.748
0.25438061 -0.48730743 1.748
0.33866334 -0.48271018 1.748
0.34479299 -0.48271018 1.748
0.35398746 -0.48271021 1.748
0.3677792 -0.48271018 1.748
0.37237644 -0.48271018 1.748
0.086581357 -0.47428191 1.748
0.093094103 -0.47313261 1.748
0.33789712 -0.47734675 1.748
0.34507167 -0.47546607 1.7479999
0.353681 -0.47596759 1.7479999
0.36532733 -0.47658056 1.7479999
0.3745656 -0.4748292 1.748
0.38157091 -0.47658053 1.748
0.078153081 -0.46738607 1.748
0.0851584 -0.46475905 1.748
0.091944806 -0.46432123 1.748
0.34785783 -0.46432123 1.748
0.35168886 -0.46355501 1.748
0.3667576 -0.46329963 1.748
0.37390888 -0.46585366 1.748
0.08734756 -0.45512676 1.748
0.09309411 -0.45474365 1.748
0.35475367 -0.45512676 1.748
0.362569 -0.45573974 1.7479999
0.084720567 -0.44505665 1.748
0.090412386 -0.4459323 1.748
0.35245508 -0.44899711 1.748
0.076839581 -0.43454865 1.748
0.083844908 -0.43629998 1.748
0.090412386 -0.43980262 1.748
0.077386871 -0.42524469 1.748
0.085048936 -0.42371228 1.748
0.078153081 -0.41834885 1.748
0.084282741 -0.41528398 1.748
0.090412386 -0.4122192 1.748
0.085048944 -0.40838814 1.748
0.094396658 -0.40547657 1.7479999
0.08734756 -0.39383021 1.748
0.093948722 -0.39571631 1.7479998
0.098074451 -0.38616812 1.748
0.10451058 -0.3834098 1.7479999
0.10634948 -0.37728015 1.7479999
0.11288778 -0.37339807 1.748
0.11339859 -0.36471438 1.748
0.11697421 -0.3560307 1.748
0.12106065 -0.35245508 1.748
-0.1624358 -0.34326059 1.748
-0.15783857 -0.34172818 1.748
0.1261687 -0.34683621 1.748
-0.16294661 -0.3355985 1.748
-0.15521158 -0.33647415 1.748
-0.14557926 -0.33764172 1.748
-0.13485238 -0.33483231 1.748
0.13393292 -0.33498555 1.7479999
0.15400754 -0.33329991 1.748
0.16090339 -0.33253369 1.748
-0.1624358 -0.32946888 1.748
-0.15477374 -0.32946888 1.748
-0.13178754 -0.32946888 1.748
0.13944961 -0.32946888 1.748
0.14353605 -0.32385001 1.748
0.15477374 -0.32487166 1.7479998
0.1636896 -0.32445371 1.7479999
0.14711168 -0.31414473 1.748
0.15579535 -0.31516635 1.748
0.16396822 -0.31414476 1.748
0.14864409 -0.30801508 1.748
0.15783857 -0.30801508 1.748
0.16435133 -0.30533335 1.748
0.17086409 -0.30418405 1.748
0.16703305 -0.29728818 1.748
0.17360052 -0.29531795 1.748
0.17827076 -0.2886045 1.748
0.18498419 -0.2839343 1.748
0.19359489 -0.27430201 1.748
0.19768132 -0.26817232 1.748
0.20227855 -0.26357508 1.748
0.2068758 -0.25591302 1.748
0.21607028 -0.24774015 1.748
0.23445924 -0.24058889 1.748
0.23752406 -0.23752406 1.748
0.24365371 -0.23139441 1.748
0.24610558 -0.22465178 1.7479999
0.25284821 -0.22219993 1.748
0.28043163 -0.22219993 1.748
0.24825096 -0.21607028 1.748
0.25503734 -0.21563242 1.748
0.26510748 -0.21453786 1.748
0.27123716 -0.21453786 1.748
0.24825096 -0.2053434 1.748
0.2556344 -0.20520407 1.7479999
0.26442644 -0.20517311 1.748
0.24901718 -0.1946165 1.748
0.25591302 -0.1946165 1.748
0.26357508 -0.1946165 1.748
0.24978335 -0.18542202 1.748
0.25591302 -0.18542202 1.748
0.26280886 -0.18542202 1.748
0.24978337 -0.17469512 1.748
0.25591302 -0.17469512 1.7479998
0.26395819 -0.17507821 1.748
0.24978337 -0.16550064 1.748
0.25591302 -0.16396822 1.748
0.26357508 -0.16396822 1.748
0.25775194 -0.15538672 1.7479999
0.26357508 -0.15477376 1.748
0.25897786 -0.14711168 1.748
0.2647244 -0.14596237 1.748
0.25897786 -0.13638479 1.748
0.26476699 -0.1346821 1.748
0.26449454 -0.12473844 1.7479999
-0.2068758 -0.11186618 1.748
-0.23241602 -0.10777973 1.748
-0.22526474 -0.10726893 1.748
-0.21650812 -0.10661218 1.748
-0.20483258 -0.10675813 1.748
-0.19423339 -0.10611962 1.748
-0.18585984 -0.10573652 1.748
-0.17511304 -0.1054579 1.7479999
-0.16703305 -0.10267169 1.748
-0.20074615 -0.099606864 1.748
-0.19308409 -0.099606864 1.748
-0.1711195 -0.098585255 1.748
-0.16626684 -0.095009625 1.748
-0.16274229 -0.083669767 1.7479999
-0.15783857 -0.081217907 1.748
-0.16090339 -0.078153081 1.748
-0.15416077 -0.075701222 1.7479999
-0.14557926 -0.072023429 1.748
-0.13434158 -0.072023429 1.748
-0.14481306 -0.0681924 1.748
-0.13515887 -0.068345636 1.7479999
-0.12351252 -0.067732677 1.7479999
-0.114931 -0.064361356 1.748
-0.11186618 -0.059764121 1.748
-0.10573652 -0.059764121 1.748
-0.095009625 -0.057465501 1.748
-0.084282734 -0.058231711 1.748
-0.075088255 -0.058231708 1.748
-0.066506736 -0.057925224 1.7479999
-0.054860402 -0.052408535 1.7479999
-0.047504812 -0.050569639 1.748
-0.051591247 -0.046483204 1.748
-0.045052953 -0.045665916 1.7479999
-0.035245508 -0.042907577 1.748
-0.026051028 -0.042907577 1.748
-0.018388961 -0.04137516 1.748
0.31567717 -0.04137516 1.748
0.32027438 -0.047504812 1.748
-0.0229862 -0.038310334 1.748
-0.015980881 -0.035245508 1.748
0.11646342 -0.032180678 1.748
0.12473844 -0.033406608 1.7479999
0.13536318 -0.032180678 1.748
0.14251444 -0.032180678 1.748
0.30699348 -0.033202287 1.748
0.31291884 -0.034019578 1.7479999
0.32027438 -0.032180678 1.748
-0.010726893 -0.029115854 1.748
-0.0039842748 -0.024825096 1.7479999
0.0038310334 -0.025284819 1.748
0.014813327 -0.025029419 1.748
0.026051028 -0.026051024 1.748
0.035245508 -0.025029415 1.748
0.044439986 -0.024518613 1.748
0.055166878 -0.0229862 1.748
0.065893777 -0.024212131 1.7479999
0.074475288 -0.024825096 1.7479999
0.0848957 -0.026051026 1.7479999
0.095009625 -0.026051026 1.748
0.10573652 -0.026051024 1.748
0.11493101 -0.029115854 1.748
0.12412548 -0.029115854 1.748
0.13485236 -0.029115854 1.748
0.14557926 -0.027583439 1.748
0.15170892 -0.0229862 1.748
0.16396822 -0.022986198 1.748
0.17500159 -0.024212131 1.7479999
0.18440039 -0.025029415 1.748
0.29882059 -0.026051028 1.748
0.30495024 -0.026051028 1.748
0.31414473 -0.027583441 1.748
0.3223176 -0.025029419 1.748
0.059764121 -0.019921374 1.748
0.065893769 -0.019921374 1.748
0.15477376 -0.019921374 1.748
0.16396822 -0.019921374 1.748
0.18542202 -0.019921374 1.748
0.30801508 -0.019921374 1.748
0.31414476 -0.015834937 1.748
0.32421488 -0.015324135 1.7479998
-0.0229862 0.33866334 1.748
-0.014667385 0.33647418 1.748
-0.0039842748 0.3362115 1.7479999
0.0045972401 0.33636475 1.748
0.010726893 0.33406609 1.748
0.069313653 -0.49443737 1.7570001
0.074594691 -0.4944374 1.7570001
0.2295052 -0.49751797 1.7570001
0.2325858 -0.49751797 1.7570001
0.069313653 -0.48827615 1.7570001
0.07508979 -0.4848105 1.7570001
0.083484441 -0.48457941 1.7570002
0.069313653 -0.47903433 1.7570001
0.075474866 -0.47595373 1.7570001
0.082868323 -0.47533759 1.7570002
0.35735038 -0.47287312 1.7570001
0.36428174 -0.47364327 1.7570001
0.37121311 -0.47287312 1.7570001
0.069313653 -0.4636313 1.7570001
0.075194806 -0.46475151 1.7570001
0.08240623 -0.46286115 1.7570001
0.35757044 -0.46539167 1.7570001
0.36299816 -0.46619847 1.7570001
0.37121311 -0.46979252 1.7570001
0.069313653 -0.45747009 1.7570001
0.07670711 -0.45562172 1.7570002
0.083176382 -0.45438948 1.7570001
0.069313653 -0.44514766 1.7570001
0.07508979 -0.44553277 1.7570001
0.069313653 -0.43898645 1.7570001
0.072394259 -0.43590584 1.7570001
0.073934563 -0.42512372 1.7570001
0.077323228 -0.4149577 1.7570002
0.078555472 -0.40818039 1.7570001
0.084716685 -0.40509981 1.7570001
0.083484441 -0.39524183 1.7570002
0.086036943 -0.38661617 1.7570001
0.093342379 -0.38445976 1.7570002
0.10011972 -0.38199523 1.7570001
0.087797292 -0.37737432 1.7570001
0.094728656 -0.37660417 1.7570001
0.10456948 -0.37395146 1.7570001
0.10782123 -0.3650519 1.7570001
-0.16173185 -0.35272947 1.7570001
-0.15711094 -0.35272947 1.7570001
0.10936154 -0.35889068 1.7570001
0.11490663 -0.35519394 1.7570002
-0.16173185 -0.34964886 1.7570001
-0.15557064 -0.34656829 1.7570001
-0.14530195 -0.34348765 1.7570001
-0.137087 -0.34040704 1.7570001
-0.11654962 -0.34143391 1.7570001
0.12437949 -0.34425783 1.7570001
-0.13246609 -0.33732644 1.7570001
-0.12630488 -0.33347568 1.7570001
-0.11706305 -0.33578613 1.7570001
0.12681831 -0.33629957 1.7570001
0.1340064 -0.33270553 1.7570001
-0.15865125 -0.32808462 1.7570001
0.13631685 -0.32577416 1.7570001
0.14016761 -0.32500401 1.7570001
0.14324822 -0.31653234 1.7570001
0.1535169 -0.31370845 1.7570001
0.14786913 -0.30806068 1.7570001
0.15659751 -0.30600694 1.7570001
0.16275872 -0.30138603 1.7570001
0.16635276 -0.29573825 1.7570001
0.17200054 -0.29214421 1.7570001
0.17713489 -0.28803673 1.7570001
0.1817558 -0.28341582 1.7570001
0.18945731 -0.27879491 1.7570001
0.19253792 -0.274174 1.7570001
0.19715883 -0.26801279 1.7570001
0.20177974 -0.26185158 1.7570001
0.20640065 -0.25569037 1.7570001
0.21102156 -0.25106946 1.7570001
0.21410216 -0.24798883 1.7570001
0.22642459 -0.24490823 1.7570001
0.24182762 -0.23566641 1.7570001
0.24305987 -0.22272786 1.7570002
0.23874702 -0.21102156 1.7570001
0.24367599 -0.21348605 1.7570002
0.24336793 -0.20486034 1.7570001
0.24490823 -0.19605862 1.7570001
0.24644853 -0.1848364 1.7570001
0.24644853 -0.17405428 1.7570001
0.24578841 -0.16525255 1.7570001
0.25106946 -0.16173185 1.7570001
0.24490823 -0.15557064 1.7570001
0.25326988 -0.15513055 1.7570001
0.24721868 -0.14709897 1.7570001
0.25443015 -0.1452086 1.7570001
0.26031128 -0.14170791 1.7570001
0.2562038 -0.13606013 1.7570001
0.26133814 -0.13195266 1.7570001
-0.20794095 -0.12168396 1.7570001
0.25723067 -0.12784518 1.7570001
0.26108143 -0.12553473 1.7570001
-0.2325858 -0.11244214 1.7570001
-0.22488429 -0.11398245 1.7570001
-0.21371709 -0.11513767 1.7570001
-0.20447527 -0.11590783 1.7570001
-0.19561853 -0.11552276 1.7570001
-0.18497643 -0.1152427 1.7570001
-0.17405428 -0.11398245 1.7570001
-0.16789307 -0.11398245 1.7570001
0.26133814 -0.11757649 1.7570001
-0.1832961 -0.10936154 1.7570001
-0.17097367 -0.10936154 1.7570001
-0.16542858 -0.10381645 1.7570002
-0.15711094 -0.10011972 1.7570001
-0.16296409 -0.094574623 1.7570002
-0.15557064 -0.093958504 1.7570001
-0.14709897 -0.09164805 1.7570001
-0.16173185 -0.087797292 1.7570001
-0.15518557 -0.085101761 1.7570001
-0.1457127 -0.084408626 1.7570002
-0.1355467 -0.081636079 1.7570001
-0.15249003 -0.078555472 1.7570001
-0.14478852 -0.077015169 1.7570001
-0.13444647 -0.07635504 1.7570001
-0.12538069 -0.073626503 1.7570002
-0.11706305 -0.072394259 1.7570001
-0.1147526 -0.068543501 1.7570001
-0.10474063 -0.063922592 1.7570001
-0.093958504 -0.062639005 1.7570001
-0.084716685 -0.065352872 1.7570001
-0.07485874 -0.064384684 1.7570002
-0.064384684 -0.061920196 1.7570002
-0.05545092 -0.06007183 1.7570001
-0.06007183 -0.056991223 1.7570001
-0.053140465 -0.056221072 1.7570001
-0.044668797 -0.053910617 1.7570001
-0.035426978 -0.052370314 1.7570001
-0.025304984 -0.052150272 1.7570001
-0.015403034 -0.05083001 1.7570001
-0.041588191 -0.047749404 1.7570001
-0.035426978 -0.047749404 1.7570001
-0.02372067 -0.047133282 1.7570002
-0.013477654 -0.045053873 1.7570001
-0.011808992 -0.037480716 1.7570001
-0.0061612134 -0.032346372 1.7570001
0.0030806067 -0.032346372 1.7570001
0.016943337 -0.032346372 1.7570001
0.022077681 -0.03337324 1.7570001
0.035426978 -0.032346372 1.7570001
0.056991223 -0.032346372 1.7570001
0.064179309 -0.032346372 1.7570001
0.075474866 -0.032346372 1.7570001
0.083176382 -0.032346372 1.7570001
0.093958504 -0.032346372 1.7570001
0.1057675 -0.03337324 1.7570001
0.11552276 -0.035426978 1.7570002
0.12399442 -0.037737433 1.7570001
0.13339028 -0.035426978 1.7570002
0.14509657 -0.034194734 1.7570002
-0.0046209102 -0.029265763 1.7570001
0.0046209102 -0.029265763 1.7570001
0.01386273 -0.029265763 1.7570001
0.024644854 -0.029265763 1.7570001
0.034656826 -0.028495612 1.7570001
0.045284919 -0.028033521 1.7570002
0.053910617 -0.02772546 1.7570001
0.064179309 -0.028238894 1.7570001
0.075474866 -0.029265763 1.7570001
0.084716685 -0.029265763 1.7570001
0.093958504 -0.029265763 1.7570001
0.10474063 -0.029265763 1.7570001
0.14940943 -0.029265763 1.7570001
0.15618676 -0.024952915 1.7570002
0.16481246 -0.026185157 1.7570001
0.17251398 -0.026185157 1.7570001
0.1817558 -0.029265763 1.7570001
0.31653234 -0.022334399 1.7570001
-0.013092578 0.32731447 1.7570001
0.010782124 0.32808462 1.7570001
-0.021564247 0.33578613 1.7570001
-0.014478852 0.33239746 1.7570002
-0.0052370313 0.3336297 1.7570002
0.0046209102 0.33270553 1.7570001
0.010782124 0.33116522 1.7570001
0.064360611 -0.4934313 1.7659999
0.064601891 -0.48486602 1.766
0.065024123 -0.47529539 1.7660002
0.057283152 -0.46445799 1.766
0.063475929 -0.46600622 1.7659999
0.057283152 -0.45516884 1.766
0.064360611 -0.45516878 1.7660002
0.074313283 -0.45516884 1.766
0.056509055 -0.44355738 1.766
0.064095207 -0.44464111 1.766
0.057283152 -0.43659052 1.766
0.065024123 -0.43504229 1.7660002
0.067456998 -0.42619547 1.7659999
0.07276509 -0.42265677 1.766
0.06834168 -0.41513702 1.7659999
0.073797219 -0.41388369 1.7659999
0.069668703 -0.40562665 1.766
0.075861484 -0.40407845 1.7659999
0.082054242 -0.40253025 1.766
0.069668703 -0.39478931 1.766
0.075861476 -0.39478931 1.7659999
0.075861476 -0.38550013 1.7659999
0.083292805 -0.38488084 1.766
0.076248527 -0.37659803 1.7659999
0.084869146 -0.37424052 1.766
0.094052747 -0.37272754 1.7659999
0.10295485 -0.37079233 1.766
0.088247016 -0.36537361 1.766
0.09443979 -0.36382544 1.7659999
0.10372895 -0.36343837 1.7659999
-0.15172294 -0.35298806 1.766
-0.14707837 -0.35298806 1.766
-0.12230727 -0.35143989 1.766
-0.11714663 -0.35247198 1.7660002
0.095987983 -0.35453627 1.7659999
0.10527715 -0.35453629 1.7660002
0.1153404 -0.35221398 1.766
-0.14398198 -0.34834349 1.7660002
-0.1346928 -0.34473106 1.7659999
-0.12540366 -0.34524712 1.7659999
-0.11817876 -0.34731138 1.7660002
0.097536176 -0.34834349 1.766
0.10682534 -0.3465741 1.7659999
0.1161145 -0.34524712 1.7659999
0.12230727 -0.34215072 1.766
-0.1241651 -0.33657724 1.766
0.11714663 -0.33699009 1.7659999
0.12437153 -0.3349258 1.7659999
0.13159643 -0.33286157 1.766
0.12664221 -0.32790732 1.766
0.13380814 -0.32445711 1.7659999
0.1377892 -0.31737962 1.766
0.14212415 -0.31366396 1.766
0.14707837 -0.30809048 1.766
0.15327114 -0.30576816 1.766
0.15946391 -0.2988013 1.766
0.16565669 -0.29570493 1.7660002
0.17649403 -0.28796396 1.766
0.18733139 -0.28022298 1.766
0.19042778 -0.27712661 1.766
0.20590971 -0.25545192 1.7660002
0.21519887 -0.24771094 1.766
0.22448802 -0.24461454 1.766
0.23222899 -0.24306636 1.766
0.23687358 -0.23687358 1.7659999
0.24306636 -0.23222899 1.766
0.23842178 -0.22448803 1.7659999
0.22345591 -0.2131346 1.7660002
0.23549742 -0.21485484 1.7659999
0.24306636 -0.21829526 1.766
0.22386876 -0.20714827 1.766
0.23574764 -0.20619121 1.766
0.23687358 -0.19507235 1.7660002
0.24306636 -0.19197598 1.766
0.23687357 -0.18423501 1.7659999
0.24306636 -0.18423499 1.7660002
0.22139165 -0.17494585 1.766
0.2362543 -0.17494586 1.766
0.24306636 -0.17494585 1.7660002
0.2362543 -0.16596633 1.766
0.24306636 -0.16410848 1.766
0.23563503 -0.15512899 1.7660003
0.24306636 -0.15017475 1.766
0.23842178 -0.14398198 1.7659999
0.24527805 -0.14353964 1.7659999
0.25235552 -0.14088559 1.766
0.23842177 -0.1377892 1.766
0.24693684 -0.1370151 1.766
0.2544198 -0.13366069 1.7659999
-0.21457961 -0.12354581 1.766
-0.20590973 -0.12333939 1.7660002
-0.19610448 -0.12333939 1.7659999
-0.18423501 -0.12354583 1.766
-0.17571995 -0.12308136 1.766
-0.16875307 -0.12230727 1.766
0.24925913 -0.12850004 1.766
0.25545192 -0.12540366 1.7659999
-0.22293985 -0.11921088 1.766
-0.21829526 -0.11921088 1.766
-0.18423501 -0.11921088 1.766
-0.17494583 -0.11921088 1.7660002
-0.16720489 -0.1161145 1.766
0.25730973 -0.11673377 1.766
-0.16379884 -0.10744462 1.766
-0.15437698 -0.10594065 1.7660002
-0.14583981 -0.10310967 1.766
-0.15017475 -0.097536176 1.766
-0.14353964 -0.095324479 1.7659999
-0.13675708 -0.092375539 1.7660002
-0.14088559 -0.086698823 1.766
-0.13425049 -0.086035311 1.7659999
-0.12602293 -0.083292805 1.766
-0.11921088 -0.082054242 1.766
-0.12462956 -0.078183763 1.766
-0.1161145 -0.076377541 1.7659999
-0.10527714 -0.074313283 1.7659999
-0.094439782 -0.07276509 1.7660002
-0.085769907 -0.074003644 1.766
-0.075861476 -0.07276509 1.7660002
-0.10434823 -0.069049433 1.766
-0.093820512 -0.068430148 1.766
-0.085150629 -0.069668703 1.766
-0.076635569 -0.068894602 1.766
-0.065024123 -0.067346409 1.7659999
-0.054186765 -0.063991994 1.7659999
-0.045516882 -0.061618097 1.766
-0.035608448 -0.060379539 1.7660002
-0.023842176 -0.060998816 1.766
-0.013933741 -0.061927736 1.7659999
-0.041801218 -0.057283152 1.766
-0.035608448 -0.057283152 1.7660002
-0.023842176 -0.056663878 1.766
-0.0134914 -0.055071447 1.7659999
-0.006708838 -0.042833347 1.7660002
0.023222899 -0.043349411 1.766
0.037156641 -0.043349411 1.766
0.042833347 -0.042833347 1.7660002
0.054186765 -0.043349411 1.7659999
0.065024123 -0.043349411 1.7659999
0.075087376 -0.042575315 1.766
0.082054242 -0.041801218 1.766
0.095987983 -0.041801218 1.766
0.10630927 -0.042833347 1.7659999
0.1153404 -0.042575315 1.766
0.12478437 -0.043039773 1.766
0.1346928 -0.041801218 1.7660002
0.14243379 -0.041801218 1.766
-0.0042022392 -0.036493126 1.7659999
0.0050869212 -0.03649313 1.7659999
0.013546691 -0.035995495 1.7659999
0.025631197 -0.036296532 1.7659999
0.035608452 -0.035995495 1.7659999
0.044897605 -0.035608452 1.7659999
0.053799719 -0.035995495 1.7659999
0.065196142 -0.036640581 1.7659999
0.075861476 -0.037156641 1.7659999
0.08559297 -0.03649313 1.7659999
0.094439797 -0.037156641 1.7659999
0.10424501 -0.037672702 1.7659999
0.1145663 -0.038704835 1.766
0.13624102 -0.038704835 1.766
0.14398198 -0.038704835 1.7660002
0.1538904 -0.034369893 1.766
0.1625603 -0.032512061 1.766
0.17494585 -0.032512061 1.7660002
0.18423501 -0.034060255 1.766
0.15636753 -0.029415673 1.7660002
0.16565669 -0.029415673 1.7660002
0.17494583 -0.029415673 1.7660002
0.01393374 0.30654228 1.766
-0.012075908 0.31490248 1.766
0.0077409665 0.31737962 1.766
0.010837353 0.31737962 1.766
-0.021674706 0.32821697 1.766
-0.014320789 0.32318535 1.7659999
-0.0043630903 0.32554281 1.766
0.0046445802 0.3251206 1.7660002
0.010837353 0.3235724 1.7660002
-0.021674706 0.33286157 1.766
-0.0077409665 0.33286157 1.766
0.05760752 -0.49355635 1.7760001
0.060721438 -0.49822721 1.7760001
0.056050558 -0.48421454 1.7760001
0.056050565 -0.4748728 1.7760001
0.05293664 -0.46553102 1.7760001
0.053248037 -0.4555665 1.7760003
0.048265759 -0.44217664 1.7760001
0.052714221 -0.44551301 1.7760001
0.048265759 -0.43439183 1.7760001
0.054104362 -0.43400258 1.7760001
0.060721438 -0.43127793 1.7760001
0.048265759 -0.42816401 1.7760001
0.054493602 -0.42505008 1.7760001
0.062278394 -0.42505011 1.7760001
0.048265759 -0.4157083 1.7760001
0.054493602 -0.41570833 1.7760001
0.062945671 -0.4157083 1.7760001
0.054493602 -0.40480959 1.7760004
0.06383536 -0.40480959 1.7760004
0.070063196 -0.40169567 1.7760001
0.056569546 -0.39598683 1.7760001
0.063835353 -0.39391088 1.7760001
0.070063196 -0.39235392 1.7760001
0.064224601 -0.38495833 1.7760001
0.070063196 -0.38456908 1.7760001
0.066170797 -0.37600586 1.7760001
0.073177114 -0.37389284 1.7760001
-0.15413904 -0.36277166 1.7760001
-0.14791121 -0.36277169 1.7760001
0.07594505 -0.36657754 1.7760001
0.084743105 -0.36544079 1.7760001
-0.15258208 -0.35965776 1.7760001
-0.14479728 -0.35576534 1.7760001
-0.13545552 -0.35187298 1.7760001
-0.12767072 -0.35342991 1.7760001
0.079404958 -0.35965776 1.7760001
0.086800523 -0.35615459 1.7760001
0.092483424 -0.35405269 1.7760003
0.095597349 -0.3459565 1.7760003
0.10431631 -0.34408817 1.7760001
0.11054416 -0.34097424 1.7760001
0.11454777 -0.33474639 1.7760001
0.11988592 -0.32851857 1.7760001
0.12559478 -0.32540464 1.7760001
0.13234159 -0.32229072 1.7760001
0.13607831 -0.31668565 1.7760003
0.14479728 -0.30879709 1.7760001
0.15413904 -0.3036072 1.7760001
0.16659471 -0.29426545 1.7760001
0.17282256 -0.29115152 1.7760001
0.18216431 -0.28492367 1.7760001
0.19462 -0.272468 1.7760001
0.19773392 -0.26935408 1.7760001
0.20084783 -0.26468319 1.7760001
0.20551872 -0.25378448 1.7760001
0.2101896 -0.25067055 1.7760001
0.21563897 -0.24483196 1.7760001
0.22498073 -0.2421073 1.7760001
0.21548326 -0.23447816 1.7760003
0.22575919 -0.23510095 1.7760001
0.23510095 -0.23510092 1.7760001
0.20551872 -0.22264528 1.7760001
0.21486048 -0.22575921 1.7760004
0.22575919 -0.22575919 1.7760001
0.23354399 -0.22575921 1.7760001
0.20551872 -0.21641745 1.7760001
0.21486048 -0.21486047 1.7760005
0.22664891 -0.21641745 1.7760001
0.23354399 -0.21953136 1.7760001
0.20551872 -0.20551872 1.7760001
0.21486045 -0.20396179 1.7760004
0.22575919 -0.2024048 1.7760001
0.23198704 -0.2024048 1.7760001
0.2148605 -0.19462 1.7760004
0.22575919 -0.19461998 1.7760001
0.23198704 -0.19462 1.7760001
0.21641743 -0.18527824 1.7760001
0.22575919 -0.18527824 1.7760001
0.23198704 -0.18527824 1.7760001
0.21607146 -0.17559049 1.7760001
0.22614844 -0.17593649 1.7760001
0.23198704 -0.17593649 1.7760001
0.21672884 -0.16597193 1.7760003
0.22575919 -0.16503777 1.7760004
0.23198704 -0.16503775 1.7760001
0.22614843 -0.15452829 1.7760001
0.23198704 -0.15102512 1.7760001
0.22731616 -0.14479728 1.7760001
0.23354401 -0.14479728 1.7760001
-0.18527824 -0.13234159 1.7760001
-0.1790504 -0.13234159 1.7760001
0.2266489 -0.13590038 1.7760001
0.23471172 -0.13506629 1.7760001
0.24444272 -0.13389856 1.7760001
0.25067055 -0.13234159 1.7760001
-0.22420225 -0.12299984 1.7760001
-0.21330352 -0.12922768 1.7760001
-0.20458455 -0.12798211 1.7760003
-0.19399722 -0.12798211 1.7760003
-0.18527824 -0.1284492 1.7760001
-0.17531368 -0.12798211 1.7760003
-0.16970864 -0.12767072 1.7760001
0.22887312 -0.12767072 1.7760001
0.23510094 -0.12767072 1.7760001
0.24483196 -0.12650301 1.7760001
0.25170854 -0.12403781 1.7760001
-0.22887312 -0.11988592 1.7760001
-0.16259111 -0.116772 1.7760001
-0.1545839 -0.1158823 1.7760001
-0.14635424 -0.11054416 1.7760001
0.24651867 -0.11625301 1.7760001
0.25316167 -0.11459225 1.7760003
-0.14246184 -0.1050948 1.7760001
-0.13732389 -0.10369353 1.7760003
0.24755664 -0.10431632 1.7760001
0.25316167 -0.10618468 1.7760003
-0.13483274 -0.095597342 1.7760003
-0.12689224 -0.092639118 1.7760001
-0.11988592 -0.091860637 1.7760001
-0.12533528 -0.087968238 1.7760001
-0.11625301 -0.084594823 1.7760001
-0.1050948 -0.083297357 1.7760001
-0.11210112 -0.079404958 1.7760001
-0.10431632 -0.079404958 1.7760001
-0.094974555 -0.077847995 1.7760001
-0.085632801 -0.078366987 1.7760001
-0.074734077 -0.075512558 1.7760001
-0.06383536 -0.072139144 1.7760001
-0.055272076 -0.070841677 1.7760001
-0.045151841 -0.070063196 1.7760001
-0.03425312 -0.070063196 1.7760001
-0.024911359 -0.070063196 1.7760001
-0.01089872 -0.070063196 1.7760001
-0.051379681 -0.066949278 1.7760001
-0.04437336 -0.066170797 1.7760001
-0.035810083 -0.065392315 1.7760001
-0.025578627 -0.065614738 1.7760001
-0.014012639 -0.066949278 1.7760001
-0.0046708798 -0.06149992 1.7760001
-0.0046708798 -0.054493602 1.7760001
0.0046708803 -0.051379681 1.7760001
0.01712656 -0.051379681 1.7760001
0.0233544 -0.051379681 1.7760001
0.036432862 -0.05262525 1.7760003
0.045151841 -0.05293664 1.7760001
0.053870816 -0.05262525 1.7760003
0.06383536 -0.051379681 1.7760001
0.073177122 -0.051379681 1.7760001
0.085632801 -0.051379681 1.7760001
0.094974555 -0.051379681 1.7760001
0.10431632 -0.051379681 1.7760001
0.11210112 -0.051379681 1.7760001
-0.0036329061 -0.046189815 1.7760001
0.0046708803 -0.045151837 1.7760001
0.014012639 -0.045151837 1.7760001
0.025222752 -0.045463227 1.7760003
0.034564514 -0.046397407 1.7760003
0.046189815 -0.046189811 1.7760001
0.054493602 -0.048265759 1.7760001
0.06383536 -0.048265759 1.7760001
0.075772054 -0.047227785 1.7760001
0.086022042 -0.045541078 1.7760001
0.094529726 -0.04604153 1.7760001
0.10369353 -0.047020189 1.7760003
0.11625301 -0.047227785 1.7760001
0.12689224 -0.047487278 1.7760001
0.13545552 -0.045151841 1.7760001
0.14557576 -0.04437336 1.7760001
0.15102512 -0.043594882 1.7760001
0.1634808 -0.042037919 1.7760001
0.155696 -0.037367038 1.7760001
0.16566055 -0.036432866 1.7760003
0.17593648 -0.037367042 1.7760001
0.18449976 -0.03814552 1.7760001
-0.011936693 0.30879709 1.7760001
-0.0046708803 0.30983505 1.7760001
0.0051898668 0.30775908 1.7760001
0.01089872 0.30827808 1.7760001
-0.022909554 0.31695256 1.7760001
-0.016348081 0.3152844 1.7760001
-0.0046708798 0.31606287 1.7760001
0.0042816396 0.31567365 1.7760001
0.01089872 0.31450593 1.7760001
-0.021797439 0.32384768 1.7760001
-0.0077848001 0.32229072 1.7760001
0.054769751 -0.49449259 1.7850001
0.051640049 -0.48353863 1.7850002
0.04851035 -0.47258469 1.7850001
0.051640049 -0.47571439 1.7850001
0.048510354 -0.46476045 1.7850002
0.051640049 -0.46163076 1.7850001
0.048510354 -0.45537135 1.7850002
0.045380648 -0.44598222 1.7850001
0.044337418 -0.43398508 1.785
0.047258466 -0.42344841 1.7850001
0.046632528 -0.41405931 1.7850001
0.047258466 -0.40592209 1.7850001
0.04851035 -0.39903674 1.7850001
0.054143809 -0.39528111 1.7850001
0.0563346 -0.38495311 1.785
0.061029151 -0.38182342 1.7850001
0.063637234 -0.37399915 1.785
-0.1439662 -0.36304522 1.7850001
-0.13822842 -0.36252359 1.7850002
0.067288548 -0.36773974 1.7850001
0.072922006 -0.36398411 1.7850001
-0.14240135 -0.35835063 1.7850001
-0.13535953 -0.3575682 1.7850001
-0.12988254 -0.35835063 1.7850001
0.079807349 -0.35678577 1.7850001
0.083719477 -0.35443854 1.7850001
0.088153213 -0.3479183 1.7850002
0.095455848 -0.34374538 1.7850002
0.10171525 -0.34270215 1.7850001
0.10797465 -0.33957246 1.7850001
0.12675284 -0.32183746 1.7850002
0.13614196 -0.31453484 1.7850002
0.14553104 -0.30827546 1.7850001
0.15648499 -0.30201605 1.7850001
0.16430925 -0.2967999 1.7850002
0.17056865 -0.29262695 1.7850001
0.17839289 -0.2879324 1.7850001
0.18778199 -0.28167301 1.7850001
0.1940414 -0.27384877 1.7850001
0.19873595 -0.26445964 1.7850002
0.20186564 -0.26132995 1.7850001
0.19873595 -0.25507057 1.7850002
0.20264807 -0.25428814 1.7850001
0.19748406 -0.24505551 1.7850001
0.20499536 -0.24568145 1.7850001
0.21229799 -0.24359499 1.7850002
0.19717109 -0.2347275 1.785
0.20499538 -0.2347275 1.785
0.21281961 -0.23942205 1.7850001
0.19599745 -0.22338235 1.785
0.20374349 -0.22502545 1.7850001
0.18934685 -0.21281961 1.7850001
0.19560625 -0.21438444 1.7850001
0.20374346 -0.21313258 1.7850001
0.18934685 -0.20499535 1.7850002
0.19560623 -0.20499536 1.7850001
0.20374346 -0.20374349 1.7850001
0.18934685 -0.19873595 1.7850001
0.19560625 -0.19560626 1.7850001
0.20499536 -0.19560625 1.7850001
0.19560625 -0.18621717 1.7850001
0.20499536 -0.18621714 1.7850001
0.21125476 -0.18621714 1.7850002
0.18934685 -0.17682806 1.7850001
0.19560625 -0.17526318 1.785
0.20499538 -0.17526318 1.785
0.21229799 -0.17787129 1.7850002
0.19873595 -0.16430925 1.7850002
0.20499536 -0.16430925 1.7850001
0.21281959 -0.16430926 1.785
0.20562129 -0.15679798 1.7850001
0.21477565 -0.15531136 1.785
0.22142628 -0.15413773 1.7850001
-0.18621714 -0.14240135 1.7850002
0.20812505 -0.14866075 1.7850001
0.21527864 -0.14597814 1.785
0.22220872 -0.14553104 1.785
-0.21360201 -0.13379468 1.7850001
-0.20499535 -0.1345771 1.785
-0.19560625 -0.13614196 1.7850001
-0.18621714 -0.1377068 1.785
-0.17495021 -0.13614197 1.7850001
0.2159493 -0.13614194 1.785
0.22189574 -0.135516 1.7850001
-0.23003295 -0.12362315 1.7850001
-0.22064385 -0.1283177 1.7850001
-0.16475634 -0.12451736 1.785
-0.15452895 -0.12401436 1.785
-0.14866075 -0.12049345 1.7850001
0.21647091 -0.12623124 1.785
0.22377354 -0.12518799 1.785
0.2347275 -0.12205829 1.785
0.24255174 -0.1220583 1.7850001
-0.14553104 -0.11475567 1.785
-0.13822842 -0.11214758 1.7850002
0.2253384 -0.11736375 1.7850001
0.2347275 -0.11423403 1.785
0.24380365 -0.11360811 1.7850001
-0.13379468 -0.10562737 1.7850001
