# .PCD v0.7 - Point Cloud Data file format
VERSION 0.7
FIELDS x y z
SIZE 4 4 4
TYPE F F F
COUNT 1 1 1
WIDTH 1489
HEIGHT 1
VIEWPOINT 0 0 0 1 0 0 0
POINTS 1489
DATA ascii
-0.035083793 0.071503632 1.0426152
-0.024213754 0.071724273 1.04225
-0.014378314 0.075102292 1.0432804
-0.0047420096 0.07644897 1.0438638
0.004325632 0.075460441 1.0440001
0.014166165 0.076081961 1.0425
0.024867367 0.07742098 1.0434545
0.034596268 0.077729367 1.045737
0.044442397 0.078344859 1.0452499
0.054304991 0.079429008 1.0448573
0.065076455 0.078822948 1.0455
0.0744261 0.079006508 1.0455
0.083526172 0.07985469 1.0470001
0.10371931 0.07985469 1.0470001
0.23887764 0.07596492 1.044
0.24253859 0.077795409 1.044
-0.091862746 0.081999198 1.0416
-0.085620306 0.081965268 1.04175
-0.078484461 0.081222288 1.041
-0.01003871 0.081222288 1.041
-0.0063882698 0.081222288 1.041
0.00091260998 0.081222288 1.041
0.034679178 0.081222288 1.041
0.045500129 0.081743784 1.041
0.055503257 0.081975788 1.0413001
0.065284051 0.082630217 1.0415001
0.074815005 0.082399517 1.0416925
0.085720532 0.083625548 1.0433571
0.095279641 0.084614642 1.0437392
0.1050949 0.08475133 1.0431602
0.11457206 0.085585877 1.0435201
0.12477524 0.086505517 1.0448334
0.13495499 0.087106757 1.0445625
0.14456321 0.087151363 1.0449998
0.15415646 0.088185549 1.045125
0.16554822 0.08815258 1.0464545
0.17437899 0.087829903 1.0458
0.18265612 0.089033388 1.0470001
0.25632772 0.088083088 1.0430001
0.10768798 0.090348393 1.041
0.11517139 0.090348393 1.041
0.12502757 0.090348393 1.041
0.13506627 0.090348393 1.041
0.14510499 0.090348393 1.041
0.15643634 0.091000199 1.0415
0.16535187 0.093580991 1.0425653
0.17409055 0.092467502 1.0417501
0.18286391 0.090973809 1.044
0.25637037 0.09381181 1.0456667
0.04654311 0.2190264 1.041
0.046294216 0.22549476 1.0429091
0.046587821 0.23441996 1.0448
0.050649852 0.23682229 1.041
0.047659546 0.24380362 1.0455
0.052448478 0.24419038 1.0415002
0.052018769 0.25096774 1.041
0.4183113 -0.37243009 1.0552
0.42301056 -0.37366998 1.0553334
0.41657603 -0.3644734 1.0525295
0.42145947 -0.36682129 1.0504446
0.41672212 -0.35497913 1.052963
0.42066851 -0.35531297 1.0500001
0.41534227 -0.34541631 1.0524738
0.41394106 -0.33494371 1.0518889
0.41353732 -0.32506555 1.0525293
0.40841097 -0.31139025 1.054
0.41318735 -0.31502467 1.052619
0.40782997 -0.30425692 1.0537647
0.41183019 -0.30584064 1.0513334
0.40807858 -0.29498017 1.0531499
0.4114635 -0.29640099 1.0500001
0.40698785 -0.28520507 1.0532002
0.4064227 -0.27551034 1.0537618
0.40575859 -0.26477987 1.0535599
0.4043833 -0.25488979 1.0531538
0.39824688 -0.24208975 1.054
0.40208426 -0.24533375 1.0525
0.39691249 -0.23445769 1.0529166
0.40025625 -0.23462018 1.052
0.39631194 -0.22506939 1.0534286
0.40025622 -0.22502807 1.052
0.39603114 -0.21517688 1.0519999
0.40025622 -0.21949454 1.052
0.39306486 -0.20537058 1.0526923
0.3913703 -0.19484062 1.0516667
0.38866213 -0.18349721 1.0534616
0.39096978 -0.18719096 1.0518335
0.38627207 -0.17450674 1.0520999
0.3839331 -0.16569613 1.0515001
0.38186467 -0.15544464 1.0514547
0.38135481 -0.14400175 1.0523636
0.37825227 -0.1338556 1.053
0.38101679 -0.13649808 1.0512223
0.37742499 -0.12556146 1.0516001
0.37648258 -0.11532255 1.0532632
0.37476489 -0.10530182 1.0515386
0.37361637 -0.094723523 1.0519286
0.37239981 -0.085196696 1.0521818
0.37267643 -0.07459534 1.0518422
0.36889958 -0.064557739 1.052
0.3718859 -0.065534875 1.0506155
0.36889958 -0.05810196 1.052
0.37187406 -0.054867443 1.0519376
0.37171295 -0.045197077 1.0521333
0.36889958 -0.035967879 1.052
0.37130749 -0.035207283 1.0513334
0.37159577 -0.025150312 1.0514287
0.3746435 -0.0193305 1.0500001
-0.081544027 0.058378108 1.057
-0.054671563 0.058378108 1.057
-0.045405194 0.058378108 1.057
-0.093471713 0.067265756 1.0537273
-0.084998794 0.065927282 1.0522381
-0.07520283 0.064477853 1.0537999
-0.06477318 0.064447828 1.052931
-0.055101354 0.064493276 1.0515163
-0.045565166 0.06322474 1.0516844
-0.034938674 0.062854625 1.0524348
-0.025026342 0.06283161 1.0532631
-0.014808654 0.065022424 1.05304
-0.0048345067 0.066894867 1.0538236
0.0043413881 0.067661397 1.0550771
0.014149651 0.06888371 1.0557144
0.025548695 0.068968244 1.057
0.034222439 0.069057375 1.0550001
0.045405194 0.069497749 1.057
0.055134878 0.069497749 1.057
0.076910838 0.069497749 1.057
0.082470663 0.069497749 1.057
-0.10071672 0.074844539 1.054
-0.095352001 0.072878234 1.0505334
-0.087447502 0.070878498 1.0500001
-0.0115983 0.071614899 1.0500001
-0.0041422499 0.071568877 1.0500001
0.0046025002 0.070878498 1.0500001
0.015292323 0.072368585 1.0525714
0.0251428 0.073120579 1.0525
0.035296768 0.072706506 1.0514119
0.045488872 0.073454343 1.051778
0.055289127 0.075251482 1.0527275
0.064664096 0.074081168 1.0544761
0.074946627 0.07429491 1.0541499
0.084223919 0.075380407 1.0536956
0.094983488 0.077483147 1.0556364
0.10471537 0.077888682 1.0552
0.11622045 0.07787405 1.0557144
0.12541357 0.077127181 1.056077
0.13493223 0.077355318 1.0561818
0.14455532 0.077837482 1.057
0.15660159 0.078764118 1.057
0.16494133 0.078764118 1.057
0.17451657 0.078764118 1.057
0.18588331 0.078764118 1.057
0.19181378 0.078764118 1.057
0.24763379 0.078540564 1.054
0.088172205 0.080798857 1.0513334
0.094197832 0.080390327 1.0500001
0.10539725 0.080083497 1.0500001
0.11597975 0.080696657 1.0511429
0.12509409 0.081901953 1.0514287
0.13502513 0.082034022 1.0528234
0.14509402 0.082567163 1.0532143
0.15531826 0.083623074 1.0538402
0.16478285 0.083143026 1.052773
0.17529495 0.083404601 1.0521429
0.18501067 0.084626839 1.0524001
0.19459572 0.085368715 1.0558462
0.20108016 0.086177208 1.057
0.26149389 0.097020701 1.054
0.039732285 0.22268561 1.054
0.043011699 0.22553566 1.0538888
0.038808275 0.2345129 1.054
0.042549595 0.2345618 1.0513334
0.039845377 0.24463207 1.057
0.043772172 0.24502078 1.0518824
0.04518684 0.25493377 1.0536157
0.050934333 0.25497851 1.0500001
0.04725847 0.26223817 1.057
0.050965015 0.26223817 1.057
0.40534148 -0.3922458 1.067
0.41064206 -0.3900632 1.067
0.41503975 -0.38359228 1.0651579
0.42214918 -0.381767 1.0630001
0.40690047 -0.37229052 1.067
0.41421673 -0.37526745 1.0628707
0.4230811 -0.37928194 1.0630001
0.40752405 -0.36470336 1.067
0.41289151 -0.36509705 1.0639999
0.4071677 -0.35318157 1.067
0.41249174 -0.35496852 1.0632857
0.40690044 -0.34516382 1.0670002
0.41198224 -0.34487411 1.0632272
0.406822 -0.33461797 1.0659091
0.41201547 -0.33578998 1.0623845
0.4061248 -0.32496974 1.0641071
0.412045 -0.32549515 1.0605456
0.40534043 -0.31568754 1.0633528
0.41166514 -0.31780919 1.0600001
0.40442231 -0.30502674 1.0629582
0.39879361 -0.29309306 1.067
0.40356809 -0.29495406 1.0625217
0.39868921 -0.28504455 1.0647501
0.40294313 -0.28570876 1.060353
0.39886472 -0.27497944 1.0658236
0.40243545 -0.27510661 1.0601668
0.3978745 -0.26512334 1.064647
0.40237245 -0.26592514 1.0600002
0.39731985 -0.25506213 1.0633999
0.40167549 -0.2567099 1.0600001
0.39615044 -0.24491803 1.0628844
0.40051392 -0.24811418 1.0600001
0.39422178 -0.23475523 1.0626364
0.39341059 -0.22503401 1.0624348
0.39232272 -0.21526736 1.063
0.38851428 -0.20458077 1.0635
0.39175951 -0.20615087 1.0605457
0.38807106 -0.1949238 1.0633501
0.39122126 -0.19607526 1.0600001
0.38628522 -0.18547255 1.062579
0.38327587 -0.17527908 1.0628889
0.38267872 -0.16503361 1.0635715
0.3778508 -0.15238164 1.0651819
0.38152084 -0.15623188 1.0625715
0.37708405 -0.14467578 1.0646999
0.38068956 -0.14589487 1.0600001
0.37618488 -0.13490243 1.0640476
0.38007006 -0.13846073 1.0600001
0.36948431 -0.12160243 1.067
0.37395835 -0.12469862 1.0626428
0.36972365 -0.11483895 1.0650001
0.37316853 -0.11485565 1.0615263
0.36968946 -0.10499624 1.0652858
0.37271392 -0.10489346 1.062
0.36972362 -0.094298646 1.0650001
0.37221131 -0.095650755 1.0610001
0.36857584 -0.084617235 1.064
0.3707774 -0.08456327 1.0600001
0.36747336 -0.074927598 1.0634737
0.37108716 -0.075580351 1.0600001
0.36744863 -0.065152839 1.0630908
0.3707774 -0.065048665 1.0600001
0.36788091 -0.054685853 1.0636472
0.3707774 -0.053897467 1.0600001
0.36668965 -0.044751979 1.0634999
0.3707774 -0.045534063 1.0600001
0.36641291 -0.034698769 1.0631152
0.3707774 -0.035126276 1.0600001
0.36726713 -0.026707264 1.0643126
0.37127534 -0.024056986 1.0614285
0.37333727 -0.019551419 1.0620002
-0.07565546 0.049502034 1.0654
-0.064390734 0.048992515 1.0645001
-0.055124063 0.047936201 1.0657693
-0.045323227 0.049062207 1.066
-0.03367452 0.049576376 1.067
-0.027126696 0.049576376 1.067
-0.10158481 0.058182083 1.067
-0.093960151 0.05630907 1.0646667
-0.084773622 0.054957934 1.0626189
-0.075338572 0.054873653 1.0609599
-0.065122306 0.05488563 1.0611998
-0.054904319 0.053971104 1.0615001
-0.044922739 0.05407754 1.0620834
-0.03487036 0.055146486 1.0622962
-0.025147676 0.054947529 1.0624399
-0.01531812 0.056352712 1.0638094
-0.0054179756 0.057741649 1.0658001
0.0041425 0.058395889 1.067
0.014498752 0.058930408 1.067
0.026191294 0.058930408 1.067
-0.10428008 0.064551629 1.0642858
-0.096780397 0.063587591 1.0609473
-0.085027896 0.062105987 1.0600002
-0.07378377 0.061145745 1.0600001
-0.06876573 0.062260866 1.0600001
-0.012080465 0.0613316 1.0600001
-0.0043128016 0.061683938 1.0617274
0.0048936079 0.06267 1.0630627
0.015049517 0.06405282 1.0633928
0.025021553 0.064027973 1.0639565
0.034614887 0.065599889 1.064
0.04505546 0.066124536 1.0641764
0.055243243 0.065845452 1.0642631
0.064903215 0.067005455 1.0635651
0.074800774 0.06761273 1.0627857
0.085370302 0.067639142 1.0642501
-0.10129007 0.071553536 1.0600001
0.067836463 0.071553536 1.0600001
0.077129133 0.071553536 1.0600001
0.087351069 0.071553536 1.0600001
0.095026329 0.072640732 1.06375
0.1053692 0.073848292 1.0647649
0.11513713 0.074886292 1.0645002
0.1246879 0.072819032 1.0640669
0.13507563 0.073408686 1.0636001
0.14539982 0.074326716 1.0631877
0.15503411 0.074151292 1.0633447
0.16486385 0.074318372 1.0641904
0.17531297 0.07576903 1.06315
0.18508387 0.074668519 1.0641739
0.19473159 0.075959809 1.0639445
0.204951 0.077354729 1.0646471
0.21521471 0.077494554 1.0670002
0.19793379 0.082240097 1.0600001
0.20507318 0.082472816 1.0606923
0.21094353 0.080846198 1.0600001
0.25255889 0.12253784 1.067
0.038372029 0.22814365 1.061125
0.036241397 0.23138739 1.0600001
0.038174365 0.24674141 1.0621001
0.040071558 0.24508882 1.0630001
0.037217539 0.25433189 1.0632001
0.040071558 0.25906727 1.0630001
0.037883833 0.26238063 1.067
0.04357272 0.26570112 1.0626111
0.042560857 0.27313778 1.067
0.39686611 -0.40190172 1.077
0.39838302 -0.39602265 1.076
0.4037371 -0.39313969 1.0737895
0.39822191 -0.38543925 1.0769999
0.40526497 -0.38511831 1.0736177
0.41198817 -0.38696256 1.0705
0.39867577 -0.37554362 1.077
0.40481898 -0.37544164 1.0725
0.3993839 -0.36161712 1.077
0.40417701 -0.36504352 1.0731999
0.3993839 -0.35500792 1.077
0.40407944 -0.35546699 1.0725925
0.39924735 -0.34359479 1.0760001
0.4036257 -0.34571207 1.0718635
0.39885035 -0.33498934 1.0752499
0.40255961 -0.33567193 1.0711538
0.3984378 -0.32457519 1.0753529
0.40124375 -0.32596657 1.0700001
0.39690077 -0.31469408 1.0753999
0.4011656 -0.31424117 1.0700001
0.39735934 -0.30516168 1.0750868
0.40137401 -0.30444396 1.0700001
0.39656007 -0.29525289 1.0742105
0.40054023 -0.29923263 1.0700001
0.39559376 -0.28490403 1.0741817
0.39496726 -0.27528375 1.0738095
0.39422235 -0.2648772 1.073913
0.3899422 -0.25398174 1.077
0.39362752 -0.25514695 1.0739545
0.38940266 -0.24427028 1.077
0.39210138 -0.24506509 1.0722142
0.38847557 -0.23463404 1.0766
0.39117077 -0.23580143 1.0716153
0.3886089 -0.22523583 1.0766363
0.39080325 -0.22498731 1.0713637
0.38753322 -0.21504375 1.0744346
0.39115989 -0.21856177 1.0700001
0.38578546 -0.20502229 1.0739523
0.38449413 -0.19496147 1.0720555
0.37861216 -0.18222481 1.077
0.38234887 -0.18559851 1.0736189
0.37886155 -0.17472804 1.0739411
0.38195708 -0.17705934 1.0705001
0.3783263 -0.16490717 1.0731428
0.38177955 -0.16696993 1.0700001
0.37642726 -0.15544192 1.0738125
0.3732602 -0.1439866 1.0734999
0.3692725 -0.13340816 1.0762001
0.37244824 -0.1354 1.0725554
0.36906835 -0.12490819 1.0753332
0.37052312 -0.12663449 1.0700001
0.36811122 -0.11495891 1.0748334
0.37052315 -0.1153781 1.0700001
0.36628321 -0.10438523 1.0727082
0.37052315 -0.10505973 1.0700001
0.36570743 -0.094936833 1.0730383
0.36549062 -0.085616298 1.0742726
0.36387497 -0.075066261 1.0732608
0.35972875 -0.064675644 1.077
0.3633472 -0.064822197 1.0730951
0.35972878 -0.054761857 1.077
0.36372003 -0.055747386 1.0730435
0.35918924 -0.043566704 1.077
0.36272112 -0.045378979 1.0730951
0.35840562 -0.035266466 1.0766363
0.36181611 -0.034772106 1.072
0.35972872 -0.027380928 1.077
0.36438897 -0.024844909 1.0734999
0.37052315 -0.021574767 1.0700001
0.36656919 -0.015595695 1.0757692
0.3727645 -0.015257272 1.0746667
0.36737615 -0.0055766357 1.0762727
0.37105882 -0.0066091898 1.077
-0.095361173 0.03871097 1.077
-0.084031135 0.038081523 1.077
-0.074661635 0.037457015 1.0755454
-0.065921448 0.038150903 1.0764287
-0.054053731 0.038238887 1.077
-0.045886662 0.038333304 1.077
-0.03871097 0.03871097 1.077
-0.11046789 0.04815267 1.077
-0.10392582 0.046214283 1.0759089
-0.095087431 0.045184076 1.0739
-0.085643075 0.045169078 1.0735333
-0.075234726 0.044198323 1.0727333
-0.065140411 0.043875378 1.072826
-0.055466492 0.042744413 1.0723529
-0.045017239 0.043938432 1.0730356
-0.0349763 0.04445643 1.073846
-0.025547495 0.045336451 1.0734073
-0.015772365 0.046851009 1.0742916
-0.0057953927 0.04812612 1.0764287
0.00094416999 0.04815267 1.077
-0.11316273 0.054305635 1.0748636
-0.10523896 0.054665506 1.0718181
-0.095545396 0.052127857 1.0700001
-0.088175133 0.051591832 1.0700001
-0.01408511 0.052282058 1.0713334
-0.0041099978 0.052932866 1.073263
0.0048695016 0.053318292 1.0736955
0.01484372 0.054462038 1.0744137
0.025358789 0.055027891 1.0746249
0.034477938 0.056422222 1.0745499
0.044615429 0.057562694 1.07425
0.05471101 0.057539571 1.0759999
0.064338438 0.058943179 1.077
0.086548917 0.059482709 1.077
-0.1097499 0.060972165 1.0700001
0.035511263 0.061508182 1.0700001
0.04504839 0.061938688 1.0705
0.054539941 0.061508182 1.0700001
0.064623967 0.062115721 1.0717778
0.074672818 0.063145198 1.073125
0.085125573 0.063052647 1.0754118
0.095365033 0.066358313 1.073294
0.10443901 0.065857433 1.0732499
0.11489803 0.066863418 1.0742776
0.12542239 0.066052318 1.074
0.13464126 0.065903068 1.0739999
0.14411309 0.067277662 1.0744286
0.15537138 0.067124367 1.0741428
0.16513808 0.067071892 1.0711428
0.17510037 0.066938646 1.0734667
0.18504752 0.06756112 1.0744544
0.19472986 0.067228675 1.0754615
0.20463124 0.068209633 1.0756668
0.21684437 0.068609692 1.077
0.22472963 0.068348326 1.0764287
0.23416631 0.068348318 1.0764287
0.24076335 0.068924412 1.077
0.10505974 0.070352502 1.0700001
0.11467457 0.071056023 1.0700001
0.12288237 0.070352502 1.0700001
0.13507681 0.070352502 1.0700001
0.1447698 0.070665173 1.0700001
0.1519614 0.070352502 1.0700001
0.16743895 0.070821516 1.0700001
0.17499535 0.071186304 1.0700001
0.18479256 0.070352502 1.0700001
0.19615942 0.071705192 1.0706
0.20503329 0.072057314 1.0711999
0.21476604 0.072838359 1.0708823
0.22444975 0.075051315 1.0706205
0.2346606 0.074894585 1.0732667
0.24460027 0.073540017 1.0762939
0.25404969 0.076833263 1.0741
0.26436761 0.078366108 1.077
0.25964674 0.09913785 1.077
0.24800695 0.10844513 1.0756668
0.25574669 0.10563684 1.0750455
0.26358548 0.10571352 1.0719166
0.24668649 0.11426824 1.0730475
0.25461763 0.11484592 1.0722759
0.26417345 0.11539409 1.0735999
0.25542286 0.1217377 1.0717144
0.26342344 0.12179793 1.077
0.034707233 0.25889719 1.0700001
0.035202317 0.2661528 1.0737998
0.036281779 0.27472985 1.0750625
0.041273464 0.27671984 1.0700001
0.037137356 0.28262156 1.077
0.041465458 0.28461248 1.075
0.39379245 -0.40406662 1.0845
0.39445853 -0.39522344 1.0842398
0.38975111 -0.38784522 1.087
0.39442512 -0.38491604 1.0848927
0.38975111 -0.37640998 1.087
0.39524627 -0.37467751 1.084357
0.40049639 -0.37019879 1.08
0.39524004 -0.36484247 1.0837812
0.40049639 -0.3664116 1.08
0.38975111 -0.35449243 1.087
0.39529395 -0.35484716 1.0836774
0.38975111 -0.34591603 1.087
0.39500698 -0.34525448 1.0845333
0.38975111 -0.33257487 1.087
0.39440867 -0.33499035 1.0834799
0.38975111 -0.32495138 1.087
0.39360499 -0.32505295 1.0825199
0.38975111 -0.315422 1.087
0.39242423 -0.31514329 1.0838666
0.38975111 -0.30493972 1.087
0.39314634 -0.30477241 1.0839545
0.38920659 -0.29472971 1.087
0.39296409 -0.2949343 1.0830624
0.38816285 -0.28429273 1.087
0.391541 -0.2850931 1.0817499
0.38777348 -0.27534872 1.0868
0.39129141 -0.27474326 1.0815384
0.38784641 -0.26471382 1.0852381
0.39120856 -0.26617482 1.0805
0.38727894 -0.25451571 1.0832999
0.38676307 -0.24519384 1.0834761
0.38582346 -0.23502198 1.0837727
0.38446376 -0.22506835 1.0843599
0.38400191 -0.21518622 1.0847058
0.38226902 -0.20469272 1.0842352
0.37809071 -0.19356872 1.085
0.38171011 -0.19641533 1.0823572
0.37738991 -0.18521276 1.0834444
0.37661836 -0.17435259 1.0847058
0.37480938 -0.16422498 1.0842222
0.37394109 -0.1552369 1.0846875
0.36900052 -0.14265485 1.0848333
0.37161732 -0.14659868 1.0826364
0.36834344 -0.13405554 1.0845
0.37019879 -0.1391796 1.08
0.36639026 -0.12485291 1.0842352
0.3650437 -0.11502777 1.0843889
0.35925713 -0.10005835 1.087
0.3626675 -0.10530622 1.0844705
0.35925713 -0.094340727 1.087
0.36154583 -0.095336236 1.0828571
0.3589395 -0.084176064 1.087
0.36142898 -0.085071519 1.0817647
0.35799211 -0.074819036 1.0852727
0.36069435 -0.07566686 1.0816
0.35757211 -0.064927153 1.0838332
0.3607308 -0.067222796 1.08
0.35707593 -0.054854456 1.0829129
0.35590535 -0.044607509 1.082619
0.35563341 -0.035544857 1.0822308
0.35751367 -0.025063023 1.08425
0.36117378 -0.022751255 1.0813333
0.35842934 -0.016457163 1.0861428
0.36154291 -0.014923311 1.0818421
0.36358768 -0.0045023696 1.0838695
0.36302277 0.0038731133 1.0857333
0.35925713 0.012388176 1.087
0.36116299 0.010482303 1.087
-0.10101128 0.029541036 1.087
-0.09362603 0.028826332 1.087
-0.084387824 0.028693981 1.087
-0.075282 0.028693981 1.087
-0.064713068 0.028674729 1.087
-0.054105625 0.028693981 1.087
-0.044788025 0.028588098 1.087
-0.036619995 0.028724233 1.087
-0.13055232 0.037164528 1.087
-0.12398766 0.037376292 1.087
-0.11476081 0.037164532 1.087
-0.10505263 0.035135828 1.0855768
-0.095043428 0.034786396 1.082739
-0.085294321 0.033885472 1.0816841
-0.074819744 0.033070371 1.0822858
-0.064995237 0.03376985 1.0844209
-0.055083089 0.034022473 1.0824286
-0.044257861 0.034280259 1.0833499
-0.034991056 0.034986008 1.0836666
-0.025374811 0.035242103 1.0844229
-0.016454695 0.037082799 1.0846922
-0.0047646835 0.039070401 1.087
-0.12253918 0.043325182 1.0850908
-0.11509574 0.044482574 1.0834998
-0.10698841 0.041794457 1.08
-0.0227232 0.040712401 1.08
-0.013739996 0.042170297 1.081
-0.0045447783 0.043514922 1.0828947
0.0047528045 0.045235422 1.08415
0.01490916 0.046625409 1.0828823
0.025199628 0.0462058 1.0835294
0.034075946 0.047207531 1.0857
0.045423314 0.04828212 1.087
0.053602688 0.047885068 1.087
-0.11740319 0.050180398 1.08
0.017989201 0.050180394 1.08
0.0255636 0.050180398 1.08
0.035803415 0.051335145 1.0804001
0.044554543 0.052135952 1.0813333
0.054991107 0.05245968 1.0814999
0.06528829 0.054152444 1.0838095
0.075046517 0.056040052 1.0836
0.084603496 0.055353601 1.0825555
0.094801813 0.057111859 1.0838332
0.10516274 0.057866685 1.0843749
0.11489744 0.05819463 1.0857142
0.1246433 0.059095904 1.0853333
0.13512994 0.058748659 1.0849229
0.14596294 0.058746863 1.0856364
0.15530707 0.058746859 1.0856363
0.16499776 0.058746871 1.0856363
0.17453387 0.058176085 1.0856874
0.1842164 0.057821367 1.0863571
0.19394408 0.058242146 1.085909
0.20392844 0.058129136 1.087
0.094916701 0.062252101 1.08
0.10509481 0.061541997 1.08
0.11460523 0.062511593 1.0804
0.1240308 0.062015399 1.08
0.1353924 0.061541997 1.08
0.14542498 0.063000195 1.0806667
0.15402171 0.063196875 1.0809231
0.16451551 0.062910847 1.0802857
0.17521697 0.062767744 1.0803636
0.18554147 0.062949158 1.081875
0.19515939 0.063016303 1.0821428
0.20501086 0.063050732 1.0843332
0.21463509 0.063748203 1.0842221
0.22553375 0.063405119 1.0841904
0.23516507 0.064131431 1.0851053
0.24577388 0.065302774 1.0842961
0.25501797 0.064888418 1.0851427
0.26508111 0.06507726 1.085655
0.27360493 0.065416299 1.087
0.2490084 0.071010001 1.08
0.25481546 0.073156074 1.08
0.26451153 0.074121282 1.0825999
0.27345473 0.073096856 1.086
0.24852273 0.099598095 1.082
0.2544187 0.098872967 1.08
0.24497809 0.10553692 1.0820832
0.25326902 0.10249111 1.08
0.24230523 0.11166439 1.0825
0.26571497 0.12557179 1.083647
0.27158695 0.12864645 1.087
0.2690458 0.1311876 1.087
0.27349281 0.13150525 1.087
0.0293508 0.26699758 1.08
0.031244399 0.26699758 1.08
0.028657744 0.27548558 1.0856667
0.032089002 0.27608189 1.0811428
0.028111629 0.28302217 1.087
0.03415386 0.28581175 1.0823332
0.035606124 0.29410842 1.0840588
0.041151434 0.29337755 1.0816
0.38535574 -0.4130348 1.0948334
0.39082676 -0.41184923 1.09
0.37987283 -0.40295368 1.097
0.38548166 -0.40520605 1.0928711
0.39082673 -0.40516028 1.09
0.38584864 -0.39550716 1.0942581
0.39082676 -0.39464903 1.09
0.38578036 -0.38522884 1.0944194
0.39082676 -0.38413778 1.09
0.37987283 -0.37987283 1.097
0.38586167 -0.37524834 1.0943667
0.39082676 -0.3750599 1.09
0.38697657 -0.36496982 1.0936956
0.39082673 -0.36502647 1.09
0.38603693 -0.35467285 1.092889
0.38608745 -0.34472403 1.0934616
0.39082679 -0.34495959 1.09
0.38556242 -0.33537385 1.0940667
0.39082676 -0.3382706 1.09
0.38543487 -0.32503682 1.093706
0.38542843 -0.31482086 1.0927144
0.3861025 -0.30490303 1.0930741
0.38604373 -0.29492402 1.0936522
0.38413814 -0.28555739 1.0937272
0.37987283 -0.27312374 1.097
0.3830108 -0.27498776 1.0918572
0.37987283 -0.26831523 1.097
0.38320357 -0.26519045 1.0931906
0.37910348 -0.25292799 1.097
0.38310057 -0.25527406 1.09305
0.37839171 -0.244899 1.0955
0.38243732 -0.24511012 1.0914118
0.37911397 -0.235496 1.0948182
0.38193825 -0.23512374 1.0910001
0.3780444 -0.22438988 1.0944999
0.38107648 -0.2255865 1.0915
0.37774161 -0.21499065 1.0933501
0.38158962 -0.21500249 1.09
0.3766416 -0.20487839 1.0927392
0.38127109 -0.20831352 1.09
0.37461254 -0.19506593 1.0913334
0.37320864 -0.18464732 1.0928637
0.36880288 -0.17295006 1.095143
0.37227365 -0.17588751 1.0919474
0.36903813 -0.16444468 1.0942143
0.372017 -0.16651192 1.090889
0.36849913 -0.15447693 1.0938001
0.37171543 -0.15575737 1.09
0.36742145 -0.14488271 1.0936667
0.36476627 -0.13522127 1.0931906
0.36305213 -0.12507966 1.0940589
0.35879976 -0.11351895 1.0955
0.36183724 -0.11630803 1.0919167
0.3574695 -0.10446525 1.0932001
0.36056712 -0.10670495 1.09
0.35754761 -0.095263667 1.0925386
0.35641631 -0.084953249 1.0940001
0.35488322 -0.075143151 1.0942382
0.3542414 -0.065098263 1.0928948
0.35361341 -0.05454072 1.0938751
0.35315436 -0.046158344 1.0923001
0.35451522 -0.021022467 1.09
0.35582244 -0.013412465 1.0930556
0.36024863 -0.010511233 1.09
0.35622776 -0.0046389918 1.0947918
0.36024863 -0.0047778329 1.09
0.35571921 0.0047926665 1.0937201
0.36024863 0.0047778329 1.09
-0.092323519 0.018272363 1.097
-0.083668195 0.018272363 1.097
-0.074600697 0.017997591 1.097
-0.066357531 0.018272363 1.097
-0.054336239 0.018272363 1.097
-0.045200057 0.018272363 1.097
-0.037506431 0.018272363 1.097
0.35611743 0.014054796 1.0941739
-0.13239449 0.029171668 1.097
-0.12500834 0.027219867 1.0959445
-0.11464283 0.027147477 1.0945883
-0.1050128 0.026487855 1.0922858
-0.094952814 0.023584295 1.0930001
-0.085463509 0.023219597 1.0930001
-0.075203031 0.023035023 1.093087
-0.064792521 0.023370942 1.0932175
-0.05475181 0.023237636 1.0938572
-0.044968486 0.022958802 1.0913501
-0.035030838 0.023696529 1.0928696
-0.025431223 0.026499849 1.0938801
-0.01522244 0.027702292 1.095143
-0.0076936269 0.029812803 1.097
0.35726315 0.020168155 1.0955
-0.13279971 0.033299807 1.0942858
-0.12583104 0.034205776 1.0915
-0.11631851 0.032923613 1.09
-0.10989016 0.031533699 1.09
-0.021022467 0.031533699 1.09
-0.013124452 0.034041964 1.0917144
-0.0047884849 0.034486007 1.09285
0.0047939289 0.035463382 1.09348
0.014137605 0.036035787 1.0949091
0.024220545 0.03706206 1.0958948
0.035534367 0.038414218 1.0955001
0.044464644 0.038695082 1.0966251
0.0057333997 0.041089367 1.09
0.0143335 0.04204493 1.09
0.024938934 0.041971769 1.0903637
0.036174655 0.043316562 1.0916001
0.044797204 0.043886393 1.0921053
0.05500954 0.043607511 1.0940589
0.064474717 0.045214012 1.0939231
0.074610122 0.045829531 1.0941739
0.085221641 0.047128592 1.094
0.095529199 0.048726302 1.097
0.10482566 0.04904687 1.097
0.11396185 0.04904687 1.097
0.12502144 0.04904687 1.097
0.13560018 0.04904687 1.097
0.1432938 0.04904687 1.097
0.067845233 0.050645035 1.09
0.075489767 0.050645035 1.09
0.086956568 0.050645035 1.09
0.095662355 0.052137602 1.0921818
0.104754 0.052793965 1.0925
0.11530224 0.0529401 1.0933529
0.12541215 0.053805687 1.0943183
0.13512225 0.053549796 1.0939474
0.14482696 0.053705692 1.09405
0.15467615 0.053539276 1.0937369
0.16469491 0.053555351 1.0937619
0.17512973 0.052618962 1.0938751
0.18513361 0.052755516 1.0942001
0.19498283 0.053481586 1.0938334
0.20491493 0.055636056 1.0931766
0.2146564 0.055184651 1.0940001
0.22509755 0.056481551 1.094375
0.23562394 0.056263931 1.0940557
0.24546236 0.055453833 1.0941364
0.25497201 0.055595845 1.0944737
0.26509467 0.056667294 1.095625
0.27492574 0.056468178 1.094125
0.28216335 0.057969291 1.0960001
0.22264703 0.060200702 1.09
0.23554718 0.060200699 1.09
0.24328728 0.060965151 1.09
0.25895858 0.060200699 1.09
0.26564756 0.060200699 1.09
0.27759209 0.06378407 1.09
0.28250515 0.064142682 1.0956668
0.27806988 0.0716675 1.09
0.28274077 0.07020434 1.097
0.26735353 0.13175336 1.097
0.023889167 0.27806991 1.09
0.018222393 0.28772199 1.0940001
0.023905404 0.28613701 1.0908422
0.018247377 0.29195938 1.0955
0.02513862 0.29473323 1.0934615
0.0344004 0.29845533 1.09
0.027557073 0.30388457 1.0956154
0.033496555 0.30433804 1.0916668
0.033659618 0.31063017 1.097
0.35939389 -0.43495378 1.105
0.37105441 -0.43030658 1.108
0.37360159 -0.42394745 1.1061738
0.38362619 -0.42233777 1.1038572
0.37566319 -0.41504326 1.1044332
0.38286662 -0.41616634 1.101
0.37580752 -0.40486875 1.1048528
0.38125795 -0.404423 1.1010001
0.37576729 -0.39472374 1.1045355
0.3818095 -0.39504668 1.101
0.37561062 -0.38489208 1.1037929
0.38125795 -0.38608396 1.1010001
0.37616712 -0.37526685 1.1049665
0.38184008 -0.37432897 1.1014444
0.37614372 -0.36490232 1.1055498
0.38212863 -0.36524811 1.1020525
0.37726268 -0.35522869 1.106941
0.38171732 -0.35466105 1.1023332
0.37775639 -0.34439746 1.1056315
0.38172665 -0.34599072 1.1018
0.37770945 -0.33461422 1.1047499
0.38125795 -0.33492786 1.1010001
0.37669301 -0.32502675 1.1050831
0.38110018 -0.32422954 1.1021428
0.37642086 -0.31530353 1.1066498
0.38134956 -0.31481162 1.1026667
0.37696788 -0.3054207 1.1064117
0.38177681 -0.3050473 1.1021763
0.37793511 -0.29495078 1.1062143
0.38168204 -0.29516414 1.1022307
0.37826514 -0.28512526 1.1053125
0.38116595 -0.28555515 1.1016666
0.37790608 -0.27493125 1.1051904
0.38125795 -0.27894568 1.1010001
0.37732306 -0.26496491 1.1049088
0.38125795 -0.26446754 1.1010001
0.3765648 -0.25542808 1.1050475
0.38125795 -0.25771105 1.1010001
0.37480316 -0.24498212 1.1038399
0.37484783 -0.23519932 1.1040713
0.3742896 -0.22555995 1.1046665
0.3747755 -0.21520403 1.1046665
0.37261879 -0.20494193 1.105611
0.36884588 -0.19339113 1.1057501
0.37198049 -0.19535437 1.1034704
0.36856332 -0.18464752 1.1041874
0.37160584 -0.18725073 1.1010001
0.36627513 -0.17520319 1.1041498
0.36475411 -0.16518034 1.1047406
0.36431438 -0.15514827 1.1046085
0.36289361 -0.14517643 1.1046817
0.35861909 -0.13402183 1.1062
0.36141923 -0.13517119 1.1013333
0.35735297 -0.12489415 1.1054374
0.36074722 -0.12523599 1.101
0.35712972 -0.11549519 1.1044284
0.3560338 -0.10545687 1.1035999
0.35533538 -0.094318323 1.104111
0.35259354 -0.08529155 1.1043499
0.35186258 -0.074829571 1.1049373
0.34853333 -0.063617244 1.1062
0.35150602 -0.065104298 1.1023636
0.34774312 -0.055622868 1.1053332
0.35122919 -0.055231459 1.101
0.34906089 -0.048758741 1.105
0.35133645 -0.048260503 1.1010001
0.35487556 -0.013834677 1.1010001
0.34930938 -0.0025207675 1.1062
0.35159966 -0.0051770355 1.101
-0.094436489 0.0078787012 1.1079999
-0.084269874 0.0072772107 1.1069999
-0.07497035 0.0069271075 1.1064999
-0.065300375 0.008010651 1.107625
-0.055366762 0.0087421201 1.108
-0.046624642 0.0087421201 1.108
0.34698483 0.0052368566 1.1058998
0.35133642 0.0048260503 1.101
-0.13250005 0.017957421 1.10725
-0.1245001 0.016343288 1.1054665
-0.11512417 0.014688771 1.1050831
-0.10541454 0.014384585 1.1054997
-0.09534049 0.014100086 1.1031665
-0.084998451 0.014095702 1.1028332
-0.074508771 0.013373088 1.1022631
-0.064612053 0.014163312 1.1029128
-0.055238146 0.013770553 1.1035712
-0.045460466 0.013538055 1.1033499
-0.035129879 0.014384835 1.1052221
-0.024342917 0.016359992 1.105588
-0.015040095 0.016982788 1.1069999
-0.0048567331 0.018455587 1.108
0.0019426933 0.018455587 1.108
0.3351146 0.01165616 1.108
0.34688115 0.014358883 1.1059998
0.35197988 0.015121624 1.101
-0.14179744 0.023180721 1.1069999
-0.13496286 0.024340304 1.1037198
-0.12424935 0.022205498 1.1013076
-0.11534259 0.021717226 1.101
-0.10563686 0.021127375 1.101
-0.099416628 0.020269411 1.1010001
-0.023954757 0.021497859 1.101
-0.013776871 0.02271942 1.1029375
-0.0046340912 0.024820719 1.1043926
0.0048464471 0.02519219 1.1055332
0.013946852 0.026076796 1.1054782
0.02425772 0.026196206 1.1068
0.034946341 0.027178638 1.1072499
0.044681948 0.028169053 1.108
0.34835193 0.02379109 1.1076249
0.35423723 0.024299549 1.1051921
0.016907832 0.031396501 1.102
0.025459511 0.032160986 1.1028665
0.035261683 0.032708433 1.1033635
0.045780096 0.033361629 1.1046362
0.055001903 0.0354058 1.1049998
0.064713396 0.036572408 1.1049047
0.074493825 0.037014574 1.1065787
0.084179178 0.037599571 1.1068748
0.092811301 0.038055219 1.1073999
0.10102005 0.039825212 1.108
0.12530372 0.039825212 1.108
0.16124354 0.039825212 1.108
0.34546611 0.037051797 1.1071175
0.35259882 0.033100504 1.1079999
0.075286381 0.041504029 1.1010001
0.084854461 0.042828668 1.1019999
0.09522187 0.04437235 1.1042104
0.10537174 0.044442151 1.1056188
0.11539901 0.044797283 1.1052855
0.12498627 0.044564035 1.1051998
0.13492788 0.044694092 1.1049998
0.14509523 0.044913754 1.105857
0.15498172 0.045520924 1.1049284
0.16534662 0.045351185 1.1044614
0.17529172 0.046274096 1.1052855
0.18495305 0.045707684 1.1055415
0.19490473 0.046611566 1.1045237
0.20472293 0.047540534 1.10675
0.21506014 0.046881247 1.1043333
0.22428878 0.046563059 1.105294
0.23479958 0.048187662 1.1067499
0.24615729 0.047450975 1.1047057
0.25549683 0.046444505 1.1050525
0.26417026 0.047684133 1.1059998
0.27495521 0.049222827 1.1071428
0.28314671 0.049285322 1.1023334
0.3452166 0.042544983 1.108
0.20558974 0.051707681 1.101
0.2158853 0.05115613 1.1010001
0.22489393 0.052121341 1.101
0.23411706 0.052014094 1.101
0.24419813 0.051156126 1.1010001
0.25578067 0.051156126 1.1010001
0.26543278 0.052121341 1.101
0.27558455 0.052214265 1.103
0.28489277 0.054366842 1.1040832
0.29043266 0.059252147 1.108
0.28814161 0.065558776 1.103875
0.29468095 0.066019766 1.105722
0.30341741 0.067197278 1.1073333
0.28639859 0.072857834 1.1021999
0.29438904 0.071425535 1.101
0.30169082 0.07058832 1.103
0.27197707 0.13501719 1.108
0.27586246 0.14375931 1.108
0.016449148 0.29708743 1.1038572
0.020269411 0.2982499 1.1010001
0.016467832 0.30515102 1.1049998
0.022384472 0.30574322 1.1028461
0.016689504 0.31462801 1.1079999
0.024510082 0.31487566 1.1048844
0.031585716 0.31619936 1.103
0.024280038 0.32480463 1.107857
0.030030217 0.32064521 1.105
0.35317335 -0.44196156 1.117
0.35587922 -0.43560454 1.1169354
0.36390859 -0.43291661 1.113889
0.35741156 -0.42603248 1.1182001
0.36500806 -0.42487329 1.1149731
0.37141913 -0.42016178 1.1120001
0.35806134 -0.41495878 1.1190001
0.36428192 -0.41533795 1.116931
0.37094268 -0.41487154 1.1135001
0.35806134 -0.40514883 1.1190001
0.36453661 -0.40547761 1.1166363
0.3710618 -0.40497345 1.1131251
0.36560252 -0.39557683 1.1166923
0.37110516 -0.39469695 1.1135001
0.366494 -0.38511497 1.1178
0.37116325 -0.38465068 1.1133637
0.366494 -0.37531695 1.1178
0.37167239 -0.37525126 1.1132501
0.36589053 -0.36481291 1.1168964
0.37246647 -0.36429027 1.1133125
0.36623102 -0.35448191 1.1169999
0.37284452 -0.35504952 1.1139998
0.36649695 -0.3446613 1.1176666
0.37307176 -0.34511778 1.1134999
0.36778861 -0.33517724 1.1187501
0.37297812 -0.33524516 1.1142105
0.36796969 -0.32498133 1.1183847
0.3720676 -0.32493237 1.1143124
0.36872005 -0.31478381 1.1186001
0.3723512 -0.315016 1.1148
0.36885226 -0.30508789 1.1190002
0.37327281 -0.30487272 1.1146363
0.36885226 -0.29527798 1.1190002
0.37397218 -0.29485476 1.1148261
0.36885226 -0.28546807 1.1190002
0.37449217 -0.28496847 1.1160833
0.36885226 -0.27565816 1.1190002
0.37301049 -0.27439076 1.11385
0.36983323 -0.26781026 1.1190001
0.3731916 -0.26500472 1.1159412
0.36871174 -0.25501436 1.1180835
0.37298411 -0.25616089 1.1158572
0.36742461 -0.24474816 1.1165237
0.37156153 -0.24478099 1.1124287
0.36663085 -0.23462714 1.1172223
0.37094268 -0.23525658 1.1135001
0.36685002 -0.2252937 1.1178889
0.37113765 -0.22471496 1.1135
0.36711389 -0.21472898 1.1159998
0.37228566 -0.21500933 1.1120001
0.36569983 -0.20467529 1.1151785
0.37141913 -0.20666891 1.1120001
0.36506206 -0.19487344 1.1149374
0.3635661 -0.1851704 1.114846
0.35806134 -0.17363523 1.1190001
0.36179897 -0.17483595 1.1148825
0.35789078 -0.16451675 1.1161876
0.36115548 -0.16698083 1.1138572
0.35811186 -0.15555936 1.1168751
0.36130336 -0.15540287 1.113125
0.35883954 -0.14503457 1.1153334
0.35603228 -0.13474117 1.1158948
0.35372332 -0.12466546 1.1151053
0.35345945 -0.1145615 1.1153332
0.34825146 -0.10496593 1.1190001
0.35300457 -0.10463319 1.1154399
0.34825146 -0.094175041 1.1190001
0.35177088 -0.095311619 1.1147895
0.3483471 -0.08488708 1.1156842
0.34753013 -0.075051621 1.1156086
0.34526554 -0.065772213 1.1154348
0.34474039 -0.059573006 1.1140001
-0.1275287 -0.00098099001 1.1190001
-0.11673781 -0.00098099001 1.1190001
-0.10251345 -0.001471485 1.1190001
-0.095089398 -0.002942269 1.1182001
-0.085285112 -0.002942269 1.1182002
-0.075517297 -0.002942736 1.1187335
-0.065889828 -0.002452475 1.1190002
-0.054935437 -0.00196198 1.1190002
-0.044705115 -0.0015415557 1.1190001
-0.038258608 -0.00098099001 1.1190001
-0.15205345 0.0078479201 1.1190001
-0.14363489 0.0062565007 1.118077
-0.13465224 0.0049638548 1.1161152
-0.12460498 0.0048848568 1.1156799
-0.11461814 0.005031493 1.1152692
-0.10456876 0.0048801219 1.1147599
-0.094582416 0.0031710684 1.1136876
-0.085050218 0.0026256165 1.1131539
-0.074801266 0.0022167712 1.1133637
-0.065304138 0.0033864086 1.1137648
-0.055679072 0.003905331 1.1142499
-0.045060378 0.0039881761 1.1154166
-0.034647685 0.0050981729 1.115111
-0.024727104 0.0052306503 1.1166086
-0.01630321 0.0066805985 1.1179092
-0.0078479201 0.0088289101 1.1190001
0.33918673 0.0087973503 1.115
0.3428314 0.0068378747 1.1141428
-0.15058196 0.012262376 1.1190001
-0.14445996 0.014448251 1.114579
-0.1360922 0.013983542 1.1129999
-0.12660275 0.011899523 1.1126001
-0.11990696 0.010723387 1.1120001
-0.030220453 0.010723387 1.1120001
-0.024804601 0.011589924 1.1120001
-0.01420645 0.012401057 1.1147692
-0.0048891702 0.0136881 1.1157
0.0048926347 0.014672225 1.1161906
0.014230525 0.016936189 1.1163847
0.024491087 0.017631169 1.1174001
0.033898655 0.017766818 1.1190001
0.041201577 0.01863881 1.1190001
0.33737972 0.015976371 1.1155
0.34236285 0.014916922 1.1130716
0.016255883 0.021131026 1.1125001
0.024404209 0.021474389 1.1135001
0.034536887 0.022575866 1.1136875
0.044989396 0.02366369 1.1155999
0.054952096 0.025894493 1.1171112
0.065711603 0.026479948 1.1187335
0.075536229 0.026486728 1.1190002
0.084989399 0.027200175 1.1190002
0.093913615 0.028035974 1.1182001
0.33743548 0.024955861 1.1175884
0.34422475 0.024402548 1.1134347
0.057516348 0.030220455 1.1120001
0.065827921 0.031123228 1.1133335
0.075510249 0.031498238 1.1133636
0.085172482 0.032060016 1.1130716
0.095284723 0.033745117 1.1132632
0.10453048 0.035358459 1.11436
0.11478034 0.036371663 1.1148146
0.12465958 0.036522858 1.1146666
0.13500036 0.03724106 1.1150998
0.14508924 0.037122451 1.1144999
0.15507284 0.036983851 1.1145238
0.16521321 0.037144151 1.1151251
0.17519847 0.037997741 1.1155715
0.18552162 0.037539855 1.1160002
0.19502458 0.037436295 1.1150999
0.20393251 0.036959324 1.1163077
0.21510468 0.038128693 1.1153125
0.22482833 0.037856631 1.116154
0.23393787 0.037378687 1.1178572
0.2444015 0.037304636 1.1171818
0.25483721 0.037563618 1.1163847
0.26550317 0.037586015 1.1157858
0.27378905 0.036336754 1.1156924
0.32765067 0.038258608 1.1190001
0.33517531 0.034301687 1.1179333
0.34415284 0.033468373 1.11305
0.17510256 0.041458223 1.1127501
0.18059114 0.040997751 1.1135001
0.19497067 0.041918691 1.1120001
0.20593189 0.042940885 1.1132858
0.21361853 0.04215987 1.1126667
0.2272947 0.041945651 1.1127501
0.23537925 0.042779896 1.1131053
0.24461533 0.042422462 1.1132354
0.25493851 0.041227989 1.1131251
0.26485085 0.042595994 1.1127501
0.27452409 0.044302206 1.1127499
0.28953144 0.048742667 1.1120001
0.29582137 0.047623478 1.1170001
0.30443263 0.047082674 1.1177368
0.31153604 0.04860561 1.1163334
0.32617921 0.04488029 1.1190002
0.3348459 0.044878092 1.1163714
0.34214818 0.04457207 1.1133333
0.28953144 0.052642077 1.1120001
0.29541823 0.055396274 1.1142381
0.30517024 0.055584352 1.1151032
0.31577981 0.055333901 1.1168399
0.32526878 0.054747641 1.1170604
0.33392191 0.053773515 1.1152666
0.2963554 0.062065661 1.1120001
0.30596468 0.063504718 1.1120002
0.31515503 0.064112425 1.1149999
0.32486984 0.062822804 1.1162
0.25996235 0.13831958 1.1190001
0.26830909 0.1361139 1.117
0.27287742 0.13822901 1.113
0.26977226 0.14224355 1.1190001
0.27328378 0.1446217 1.1141335
0.27565819 0.15009147 1.1190001
0.0146228 0.31780216 1.1120001
0.015627844 0.32451695 1.1145626
0.020471919 0.32852557 1.1120001
0.01764949 0.33535004 1.1185
0.022765428 0.33435133 1.1130003
0.01863881 0.3423655 1.1190001
0.021441638 0.3437669 1.1190001
0.34908009 -0.4421165 1.1242001
0.35042995 -0.44716838 1.126
0.3489182 -0.43480742 1.1246667
0.35207427 -0.43307739 1.1233751
0.34880257 -0.42836067 1.125
0.35396537 -0.42461452 1.1246955
0.3549625 -0.415795 1.1248947
0.35617548 -0.40506008 1.1242001
0.35817692 -0.39793846 1.1245
0.36187521 -0.39439955 1.1242501
0.35832697 -0.3849794 1.126
0.36228028 -0.38482624 1.1251431
0.36283314 -0.37509987 1.1243334
0.36103061 -0.36515239 1.1243638
0.35832697 -0.35635272 1.126
0.36189058 -0.35505563 1.1244
0.36236468 -0.34527424 1.1247501
0.36394659 -0.3348605 1.1246876
0.36532298 -0.32506004 1.1247501
0.36593646 -0.31524292 1.1247647
0.36570179 -0.30458802 1.1244
0.36688483 -0.29523891 1.1246667
0.36607537 -0.28447399 1.1246156
0.36579764 -0.27465776 1.1239376
0.36658946 -0.26540923 1.1245788
0.37115523 -0.26384509 1.123
0.3647953 -0.25523072 1.1249499
0.36340728 -0.245325 1.1251431
0.36311895 -0.23512921 1.1243848
0.36392877 -0.22462061 1.1243334
0.36392537 -0.21500163 1.125
0.36211371 -0.20522898 1.1255
0.35883415 -0.19354771 1.1245
0.36090666 -0.19612314 1.1242001
0.35870734 -0.18514663 1.1248751
0.36090666 -0.18193166 1.1242001
0.35748285 -0.1741837 1.124125
0.36131027 -0.1781939 1.123
0.35489088 -0.16463055 1.1245
0.35553652 -0.15430135 1.1243848
0.35562959 -0.14466852 1.1245
0.3523522 -0.1351946 1.1243846
0.34908009 -0.12753062 1.1242001
0.3511695 -0.1242804 1.1238573
0.34897599 -0.11533996 1.1245002
0.35146531 -0.11617061 1.123
0.34741974 -0.10545839 1.1242501
0.34700397 -0.09562286 1.1245002
0.34469885 -0.085587755 1.124154
0.34355387 -0.076400183 1.1245002
0.34194851 -0.066617608 1.123
-0.12832646 -0.010858393 1.126
-0.10167404 -0.010858393 1.126
-0.094764158 -0.010858393 1.126
-0.086867146 -0.010858393 1.126
-0.07206025 -0.010858393 1.126
-0.067124613 -0.010858393 1.126
-0.14382672 -0.0019739245 1.125625
-0.13454871 -0.0037275378 1.1248335
-0.12518165 -0.0047338689 1.1243498
-0.11531621 -0.004930512 1.1242632
-0.10568558 -0.0050400537 1.1243333
-0.095623732 -0.0078878086 1.1245
-0.085765615 -0.0078878086 1.1245
-0.075378269 -0.0079783835 1.1246364
-0.064453758 -0.0070318589 1.1242001
-0.05458517 -0.0061859996 1.1246365
-0.044351663 -0.005093799 1.1242502
-0.034234527 -0.0031010832 1.1249287
-0.02464164 -0.0018631116 1.1243334
-0.017768279 -0.00098712661 1.126
-0.15327719 0.0039440361 1.1251
-0.14621791 0.0025610062 1.1239002
-0.021658927 0.00098449667 1.123
-0.013797201 0.0039412747 1.1242501
-0.0047882278 0.0063341674 1.1242859
0.0049296715 0.0068983156 1.1244
0.014062938 0.0081408368 1.125625
0.022703914 0.0088841403 1.126
0.0078759734 0.010829464 1.123
0.015259699 0.012306209 1.123
0.024622235 0.012802315 1.1234
0.034334246 0.013565472 1.1239232
0.044365119 0.015969535 1.1246001
0.053867258 0.017476352 1.1246365
0.063925467 0.017872408 1.1256667
0.074231923 0.017965704 1.1260002
0.083905764 0.018755406 1.126
0.054885689 0.021412801 1.123
0.064976782 0.021658925 1.123
0.075806245 0.021658923 1.123
0.085722417 0.02266082 1.1239232
0.095839426 0.025550215 1.1249092
0.10548184 0.027601412 1.1245
0.11540256 0.027616665 1.1251001
0.12532914 0.027740754 1.1256667
0.13523635 0.027639549 1.1260002
0.14426151 0.028062603 1.126
0.15497889 0.028626675 1.126
0.16463079 0.027749231 1.126
0.17472143 0.028297633 1.126
0.18385234 0.027886331 1.126
0.19347683 0.028626673 1.126
0.20236097 0.028626673 1.126
0.2248181 0.027886331 1.126
0.2315799 0.027836973 1.126
0.24974304 0.028626673 1.126
0.25566581 0.028626675 1.126
0.26553708 0.028626675 1.126
0.32907757 0.027943164 1.125
0.33354759 0.024962062 1.1240002
0.097465172 0.030519396 1.123
0.10731014 0.030519396 1.123
0.11518612 0.030519396 1.123
0.1258125 0.03126796 1.1233751
0.13536458 0.031802043 1.124091
0.1448767 0.031536512 1.1242001
0.15460673 0.031512044 1.1233001
0.16480984 0.031779811 1.1232728
0.17453592 0.032538716 1.1248001
0.18389022 0.032359395 1.1234287
0.19490243 0.031762443 1.1241539
0.20578164 0.032339994 1.124091
0.21478909 0.033030387 1.12475
0.22437517 0.032521356 1.1242002
0.23544613 0.032862127 1.1252105
0.24570617 0.032562912 1.1256002
0.255393 0.032538716 1.1248002
0.26525339 0.032538716 1.1248002
0.27358034 0.031398192 1.1242858
0.30814746 0.038395371 1.123
0.31593165 0.037805665 1.1250001
0.32605073 0.034872632 1.1242856
0.30702233 0.042333357 1.123
0.31544888 0.044154193 1.1238179
0.32270798 0.042862862 1.1240002
0.26482961 0.13881403 1.123
0.25961432 0.14510761 1.126
0.26607886 0.14367616 1.1247145
0.27073658 0.1476745 1.123
0.2737442 0.15142335 1.12525
0.0088841403 0.32871318 1.126
0.012798456 0.32783738 1.123
0.0088841403 0.3366102 1.126
0.012947366 0.33568755 1.1238573
0.014348598 0.34508491 1.1246667
0.02067443 0.3494963 1.123
0.017768279 0.35240421 1.126
0.33790326 -0.45353121 1.1370001
0.34412071 -0.45290858 1.1337779
0.33755633 -0.44507825 1.1345716
0.34509113 -0.44409317 1.1303809
0.33813018 -0.43613863 1.1365455
0.3441101 -0.43445012 1.1319257
0.33833548 -0.42574558 1.1373334
0.34463659 -0.42463568 1.1333145
0.34530574 -0.41494635 1.1337575
0.35266545 -0.4140847 1.13
0.34595147 -0.4051168 1.1345928
0.35271493 -0.40466195 1.1308
0.34735969 -0.3952446 1.1353334
0.35463098 -0.39499047 1.1313791
0.36158118 -0.39130017 1.13
0.34843349 -0.38530317 1.1366667
0.35396042 -0.38484722 1.1328388
0.36158118 -0.38535637 1.13
0.34817868 -0.37311986 1.138
0.35461318 -0.37505248 1.1330857
0.36158118 -0.37545002 1.13
0.35500434 -0.36522976 1.1334286
0.35550416 -0.35477912 1.1336
0.36158118 -0.35365608 1.13
0.35615948 -0.34487259 1.134129
0.36158118 -0.34441018 1.13
0.35726508 -0.33496979 1.1346668
0.36158118 -0.3358247 1.13
0.35726503 -0.3251057 1.1346668
0.36257178 -0.32591841 1.13
0.35689679 -0.31537145 1.135524
0.36214706 -0.31480306 1.1309999
0.35669461 -0.30474755 1.1341668
0.36267784 -0.30404961 1.1303334
0.35681733 -0.29567325 1.1349094
0.36357123 -0.29409251 1.1322
0.35749811 -0.28370643 1.1375
0.36223564 -0.28536779 1.1333685
0.35789818 -0.27493319 1.1362857
0.3620055 -0.27472922 1.1313332
0.35789841 -0.26474991 1.1342107
0.36246169 -0.2649394 1.13
0.35663751 -0.2549147 1.1332
0.36197743 -0.25538528 1.13
0.35671729 -0.24498032 1.1332002
0.36158118 -0.24518174 1.13
0.35714105 -0.2349793 1.1348001
0.36158118 -0.23478012 1.13
0.35699031 -0.22480333 1.1348698
0.36230281 -0.22475596 1.1304001
0.35623944 -0.2153517 1.1345519
0.36246169 -0.21540771 1.13
0.35689011 -0.20538849 1.1340002
0.36158118 -0.20605174 1.13
0.35574582 -0.19555339 1.1341602
0.35537994 -0.1851539 1.1350003
0.35380515 -0.17541263 1.1347411
0.35185772 -0.16499761 1.1337999
0.34843349 -0.1561133 1.1366668
0.35176855 -0.15464848 1.1324445
0.34863597 -0.14375789 1.1356
0.35199744 -0.14627965 1.1315385
0.34801927 -0.13459113 1.1332941
0.35167482 -0.13868867 1.13
0.34677368 -0.12439257 1.1334285
0.34599772 -0.11496489 1.1337779
0.34387803 -0.10459927 1.1332382
0.34307304 -0.094877757 1.1329476
0.34183866 -0.084562592 1.1327693
0.33899704 -0.07058394 1.1339999
0.34104559 -0.07515312 1.1336924
0.33784533 -0.067351565 1.1353333
0.34157389 -0.066928238 1.131
-0.14166583 -0.02095058 1.138
-0.13468231 -0.02194823 1.1380001
-0.12869641 -0.021948226 1.138
-0.11173642 -0.02095058 1.138
-0.10450649 -0.022206925 1.1372727
-0.095219836 -0.02183738 1.138
-0.088790551 -0.02095058 1.138
-0.15333834 -0.012792905 1.1370001
-0.14450872 -0.015101899 1.1355003
-0.13494386 -0.014886916 1.1318183
-0.12506422 -0.015152746 1.133
-0.1150719 -0.014912524 1.13352
-0.1047204 -0.014812161 1.1318458
-0.094341949 -0.015892915 1.1327999
-0.084773354 -0.014738682 1.1339999
-0.074879192 -0.014443857 1.1335295
-0.064577244 -0.013913796 1.13325
-0.055029117 -0.012800586 1.1354285
-0.044450071 -0.013325771 1.1362501
-0.034707502 -0.012644096 1.1361541
-0.025240988 -0.011293803 1.1366668
-0.16191974 -0.004985116 1.1362222
-0.15496264 -0.0049730921 1.1330906
-0.14605945 -0.0061954036 1.1305
-0.13713194 -0.0080665862 1.13
-0.12382916 -0.0089157 1.13
-0.11392283 -0.0089157 1.13
-0.10797903 -0.0089157 1.13
-0.0534942 -0.0089157 1.13
-0.043918073 -0.0085854894 1.13
-0.034710389 -0.0079345349 1.1312001
-0.024798708 -0.0066981725 1.1314999
-0.014913502 -0.0047767814 1.1344001
-0.0053333305 -0.0034607705 1.1365883
0.0046969289 -0.0028491658 1.1365714
0.014943659 -0.0019938906 1.1364
0.024360564 -0.0015672296 1.1374286
0.031924695 -0.00099764671 1.138
-0.15652007 0.00099063327 1.13
-0.011887601 0.00099063327 1.13
-0.0045144428 0.0018719754 1.1308889
0.004961933 0.00198302 1.132
0.015243582 0.0034432372 1.1325884
0.025114274 0.0044212695 1.1334548
0.034850586 0.0049730842 1.1357601
0.044536423 0.0063131689 1.1373336
0.054396357 0.0072880667 1.1376926
0.064847037 0.0079811737 1.1380001
0.074574091 0.0082305856 1.138
0.084134869 0.0086462721 1.138
0.092781134 0.0089788204 1.138
0.036653433 0.010896967 1.13
0.045401253 0.011659228 1.1320001
0.05489286 0.012763515 1.1325715
0.064686388 0.013157014 1.1329999
0.07472685 0.013154604 1.13275
0.084664211 0.014144974 1.1336191
0.093750387 0.015522962 1.1352003
0.10435793 0.017498108 1.1376363
0.11469044 0.017950978 1.1376002
0.12448414 0.018068491 1.138
0.13401721 0.018622739 1.138
0.14565641 0.018456463 1.138
0.15463524 0.017957641 1.1380001
0.1646117 0.018385204 1.138
0.17359051 0.018955287 1.138
0.18489718 0.018622739 1.138
0.1940977 0.018068491 1.138
0.20351993 0.018955287 1.138
0.23344932 0.018955287 1.138
0.25739282 0.018955287 1.138
0.26494646 0.018385204 1.138
0.27135989 0.018955287 1.138
0.095024958 0.02158485 1.132
0.10492238 0.022835996 1.1326665
0.11487945 0.022840906 1.1329333
0.1251093 0.02305829 1.1321175
0.13521415 0.022809112 1.1313332
0.145423 0.023485899 1.1342499
0.15476616 0.023889836 1.1334286
0.16530563 0.02294977 1.132889
0.1757074 0.023849424 1.133778
0.18562879 0.023322944 1.1337649
0.1953115 0.024147255 1.1338001
0.20486298 0.024458652 1.1344001
0.21531004 0.0252613 1.1339999
0.22482739 0.023173608 1.133111
0.23554751 0.024172282 1.1316841
0.24498089 0.024828674 1.1332
0.25499234 0.02369279 1.1330477
0.26492009 0.023809742 1.1318002
0.27371004 0.025183124 1.1322501
0.32690901 0.027737733 1.13
0.3358247 0.020803301 1.13
0.21496743 0.030709634 1.13
0.31931412 0.034011748 1.13
0.32379797 0.032709017 1.1306667
0.26537967 0.14672379 1.13
