# .PCD v0.7 - Point Cloud Data file format
VERSION 0.7
FIELDS x y z
SIZE 4 4 4
TYPE F F F
COUNT 1 1 1
WIDTH 1438
HEIGHT 1
VIEWPOINT 0 0 0 1 0 0 0
POINTS 1438
DATA ascii
0.11738742 0.069613472 1.557
0.1228473 0.069613472 1.557
0.077453502 0.072018169 1.5500001
0.084247664 0.072018169 1.5500001
0.095118329 0.072018169 1.5500001
0.10478973 0.073485412 1.5523334
0.11420873 0.073417649 1.5508751
0.12578449 0.074323624 1.5528001
0.13439664 0.075655207 1.5530001
0.14415362 0.077117383 1.5542001
0.15560657 0.077803291 1.557
0.12773034 0.080171168 1.5500001
0.13669863 0.080714703 1.5500001
0.14548896 0.082164086 1.551
0.1550819 0.084338188 1.5517498
0.16521955 0.086867258 1.5543751
0.1745645 0.086296439 1.557
0.19655567 0.088723049 1.557
0.20429051 0.088723041 1.557
0.16623062 0.092853598 1.5500001
0.17568161 0.094822496 1.5512729
0.18527269 0.095354974 1.5539373
0.19533879 0.095725052 1.554846
0.20489495 0.095215179 1.5560665
0.21484628 0.097185858 1.557
0.22385508 0.099642806 1.557
0.18538369 0.10346545 1.5500001
0.19567199 0.10463017 1.5500001
0.20518382 0.10463017 1.5500001
0.21526177 0.10490171 1.5540833
0.22522004 0.10510269 1.557
0.2328639 0.10674065 1.557
0.19757436 0.11115257 1.5500001
0.20586324 0.11278316 1.5500001
0.22505717 0.11456575 1.5504999
0.23520991 0.11419209 1.5559999
0.24159969 0.11738742 1.557
0.20790149 0.12229499 1.5500001
0.21372508 0.12559502 1.5500001
0.23587646 0.12543763 1.55525
0.24250966 0.12557723 1.557
0.20790149 0.13180684 1.5500001
0.21563639 0.13556975 1.55
0.22483465 0.13515165 1.55
0.23476209 0.13486338 1.5538889
0.24250968 0.13331208 1.557
0.2160545 0.14539517 1.5500001
0.22477412 0.14485134 1.5538889
0.23286387 0.14168389 1.557
0.22148983 0.15083049 1.5500001
-0.18235719 -0.043875411 1.5640001
-0.18235719 -0.032906562 1.5640001
-0.17275944 -0.031535454 1.5640001
-0.16361873 -0.032449525 1.5640001
-0.15424949 -0.033592112 1.5640001
-0.14592493 -0.032710683 1.5640001
-0.13848177 -0.031535454 1.5640001
-0.20292377 -0.020566599 1.5640001
-0.19743936 -0.023308814 1.5640001
-0.18353243 -0.024092302 1.5640001
-0.17512773 -0.023807399 1.5640002
-0.16590391 -0.02879324 1.5640001
-0.14533731 -0.02879324 1.5640001
-0.1345208 -0.025746338 1.5640001
-0.1247707 -0.023308814 1.5640001
-0.11489873 -0.022211928 1.5640001
-0.10694632 -0.020566599 1.5640001
-0.20264955 -0.015630616 1.5640001
-0.19507107 -0.01483288 1.5640002
-0.18475662 -0.014739396 1.5640001
-0.17824388 -0.015082174 1.5640001
-0.10146189 -0.017824387 1.5640001
-0.094057918 -0.013985288 1.5640001
-0.20155267 -0.0095977467 1.5640001
-0.19606826 -0.0085008619 1.5640001
-0.18784161 -0.0082266405 1.5640001
-0.17961498 -0.0095977467 1.5640001
-0.084734395 -0.008500861 1.5640001
-0.074862421 -0.0057586478 1.5640001
-0.066841453 -0.00308499 1.5640001
-0.20703711 0.0082266405 1.5640001
-0.065813124 0.0013711067 1.5640001
-0.054256652 0.0033298307 1.5640001
-0.045246519 0.006855533 1.5640001
-0.038390987 0.0095977467 1.5640001
-0.20463766 0.015082174 1.5640001
-0.19812492 0.015767727 1.5640001
-0.17961498 0.017824387 1.5640001
-0.033592112 0.013025514 1.5640001
-0.02467992 0.015767727 1.5640001
-0.017824387 0.017824387 1.5640001
-0.20246673 0.02559399 1.5640001
-0.19661669 0.025228363 1.5640001
-0.18372828 0.021937706 1.5640001
-0.17961498 0.020566599 1.5640001
-0.020566599 0.021937706 1.5640001
-0.015082174 0.023651591 1.5640001
-0.0068555339 0.02879324 1.5640001
-0.21252154 0.035648774 1.5640001
-0.20566599 0.035648774 1.5639999
-0.19564639 0.035754245 1.564
-0.0041133203 0.031535454 1.5640001
0.0031992488 0.032449525 1.5640001
0.017824387 0.038390987 1.5640001
0.023308814 0.038665209 1.5640001
0.031535454 0.039762095 1.5640001
-0.21252154 0.045246523 1.5640001
-0.20566599 0.045246523 1.5640001
-0.19497137 0.045794968 1.5640001
0.027422134 0.042504307 1.5640001
0.035648771 0.044560969 1.5640001
0.045246523 0.047988731 1.5640001
-0.21343561 0.053930197 1.5640001
-0.20566602 0.05484426 1.5639999
-0.19556966 0.05347316 1.5640002
0.046617627 0.050730947 1.5640001
0.055666931 0.054021604 1.5640001
0.06627015 0.055758338 1.5640001
0.07595931 0.057312258 1.5640001
0.083637506 0.058957588 1.5640001
-0.21389264 0.065813117 1.5640001
-0.20566601 0.065813117 1.5639999
-0.19743936 0.0616998 1.5640001
0.085008606 0.0616998 1.5640001
0.094606362 0.063527942 1.5640001
0.10502677 0.06663578 1.5640001
0.11471593 0.069012366 1.5640001
0.12477071 0.068098299 1.5640001
0.13231179 0.069240883 1.5640001
-0.21448027 0.075410858 1.5640001
-0.20603995 0.075161576 1.5640002
-0.19881046 0.074039757 1.5640001
0.13711067 0.072668649 1.5640001
0.14488028 0.074039765 1.5640001
0.15356395 0.075410865 1.5640001
0.16179058 0.076781973 1.5640001
-0.21526374 0.08089529 1.5640001
0.16645235 0.081992172 1.5640001
0.17550166 0.082266398 1.5640001
0.18455096 0.088025048 1.5640001
0.19378309 0.087293796 1.5640001
0.20566601 0.086379714 1.5640001
0.21526374 0.08912193 1.5640001
0.21526374 0.091864146 1.5640001
0.22403884 0.096800134 1.5640001
0.23171702 0.097348571 1.5640001
-0.23308814 0.10694632 1.5640001
-0.20429489 0.10009079 1.5640001
0.22897482 0.10009079 1.5640001
0.23583035 0.10351855 1.5640001
0.24268588 0.10831743 1.5640001
0.2454281 0.11576057 1.5640001
0.25182658 0.1183722 1.5640001
0.24707341 0.12531915 1.5640001
0.25182661 0.12294257 1.5640001
0.23994367 0.13848177 1.5640001
0.2481703 0.13162625 1.5640001
0.25091252 0.13025513 1.5640001
0.23171702 0.14670841 1.5640001
-0.18093568 -0.044201095 1.5755
-0.17421845 -0.042172272 1.57725
-0.16472654 -0.041066278 1.5790001
-0.15503675 -0.040835571 1.5790001
-0.14534694 -0.040143441 1.5790001
-0.13565715 -0.040143441 1.5790001
-0.18053372 -0.03583112 1.572
-0.17529687 -0.036657996 1.5720001
-0.16557129 -0.036815491 1.5719999
-0.15462507 -0.037760489 1.572
-0.14401354 -0.036520179 1.572
-0.13478702 -0.034733694 1.5732728
-0.12463534 -0.033995029 1.5762002
-0.11627756 -0.031837903 1.5790001
-0.20258364 -0.02342804 1.572
-0.18053372 -0.027562398 1.572
-0.17639937 -0.028940519 1.572
-0.13229951 -0.028940519 1.572
-0.1254089 -0.0275624 1.572
-0.11541453 -0.027131664 1.5735556
-0.10441722 -0.024036359 1.5755001
-0.095895581 -0.021834435 1.5762
-0.087208167 -0.02076385 1.5790001
-0.095090277 -0.01791556 1.572
-0.085957639 -0.014936647 1.5745456
-0.075452775 -0.012989921 1.5762
-0.066805504 -0.013362738 1.5766667
-0.08130908 -0.0096468404 1.572
-0.074418485 -0.0096468404 1.572
-0.064377896 -0.0076780976 1.5719999
-0.055206627 -0.004144588 1.5743335
-0.045083813 -0.0019367319 1.5776001
-0.05099044 0.00137812 1.572
-0.044788897 0.0020671799 1.572
-0.036262758 0.0056455741 1.5745456
-0.02531974 0.0087454813 1.5755
-0.015226823 0.0096897967 1.5790001
-0.2129408 0.016594205 1.5772501
-0.20809612 0.01515932 1.572
-0.023428038 0.012403081 1.572
-0.01483857 0.014837036 1.574625
-0.0055370266 0.017995337 1.5790001
0.0013842566 0.017995337 1.5790001
-0.2122426 0.02485423 1.5755
-0.20717739 0.023887413 1.572
-0.01515932 0.0206718 1.572
-0.0052020052 0.0238804 1.574154
0.0052548568 0.025152151 1.576667
0.014880759 0.026646942 1.5790002
0.024916621 0.02906939 1.5790001
0.0082687205 0.033074882 1.572
0.015172617 0.033098403 1.5731667
0.025493944 0.034532223 1.5758183
0.034183644 0.036596887 1.5755
0.042911958 0.037374929 1.5790001
-0.21636485 0.048234198 1.572
-0.19707116 0.042721719 1.572
0.037209243 0.042721719 1.572
0.045025509 0.042536307 1.5755002
0.054937534 0.045157298 1.5757694
0.064901203 0.045563869 1.5751112
0.074253663 0.046579439 1.5782225
0.083055399 0.048448984 1.5790001
-0.22286533 0.05813878 1.5790001
-0.21820234 0.056043547 1.572
-0.19431491 0.05650292 1.572
0.056502923 0.051679499 1.572
0.064220391 0.052092932 1.572
0.075009108 0.052171681 1.5719999
0.08560247 0.054532394 1.5749168
0.095372565 0.056666568 1.576667
0.10495102 0.056934241 1.5770912
0.11454725 0.05710059 1.5790002
0.12458311 0.058138784 1.5790002
0.13288864 0.05813878 1.5790001
0.14811546 0.059523035 1.5790001
0.15503675 0.059523035 1.5790001
0.16195802 0.059523035 1.5790001
-0.22470169 0.065412603 1.5780001
-0.21912108 0.064771645 1.572
0.096468404 0.062015399 1.572
0.10565586 0.062934153 1.572
0.11538622 0.064521082 1.5720001
0.12588419 0.064023599 1.573
0.13570663 0.064647719 1.575182
0.1454514 0.065293372 1.5763751
0.15486644 0.064984895 1.5772501
0.16347554 0.066107333 1.5776001
-0.22448488 0.074552268 1.5748001
-0.21912108 0.073959105 1.572
-0.20258364 0.078552842 1.572
-0.1998274 0.078552842 1.572
0.13919012 0.070284121 1.572
0.1447026 0.070284121 1.572
0.1548088 0.072121613 1.572
0.16546758 0.074028634 1.5755001
0.17430587 0.074699894 1.5780002
0.18511286 0.076134123 1.5790004
0.1955757 0.076925121 1.5790002
0.20441045 0.076353997 1.5783638
0.21271409 0.077979796 1.5790001
0.22286533 0.078902632 1.5790001
-0.22330892 0.086422458 1.5772502
-0.21479502 0.085528031 1.5735003
-0.20592405 0.085210398 1.5745456
0.17777748 0.08130908 1.572
0.18590879 0.083122246 1.57375
0.19569305 0.082687199 1.572
0.2055252 0.082483992 1.5734
0.21505715 0.084269188 1.5758891
0.22408389 0.085757427 1.5778337
0.23428544 0.088246353 1.5790002
-0.2224039 0.094590873 1.5790001
-0.21455978 0.095513709 1.5790002
-0.20833063 0.09482158 1.5790001
0.2251848 0.093436532 1.572
0.23525508 0.094707176 1.5748001
0.24316776 0.097359389 1.5790001
-0.23109129 0.10691936 1.57375
-0.22513063 0.10600237 1.5755001
-0.21455978 0.10520351 1.5790004
-0.20717964 0.10546099 1.574
0.23841476 0.10060276 1.572
0.24592547 0.10456712 1.575182
0.25401112 0.1062417 1.5790002
-0.23290224 0.11576206 1.5720001
-0.22460486 0.11525776 1.5770911
-0.21404353 0.11508501 1.5774447
-0.20809612 0.11576208 1.572
0.24852097 0.11254647 1.572
0.25586748 0.11498164 1.5755
0.26162452 0.11766182 1.5790001
-0.23342083 0.12431002 1.5755
-0.2241431 0.12447663 1.5790004
-0.21587157 0.12442938 1.5751112
0.25523603 0.12624066 1.57375
-0.22314218 0.1353803 1.5790002
-0.21677458 0.13482662 1.5790001
-0.2173283 0.14257844 1.5790001
-0.1654568 -0.04402912 1.5860001
-0.15488981 -0.044214509 1.5860001
-0.14460091 -0.043102194 1.5860001
-0.13486814 -0.043102194 1.5860001
-0.12652579 -0.040321406 1.5860001
-0.12374501 -0.037540618 1.5860001
-0.11540264 -0.034759831 1.5860001
-0.10845068 -0.031979047 1.5860001
-0.10566989 -0.029198259 1.5860001
-0.093619823 -0.024563616 1.5860001
-0.08481399 -0.022246294 1.5860001
-0.08203321 -0.018075114 1.5860001
-0.075081244 -0.015989523 1.5860001
-0.062567696 -0.01251354 1.5860001
-0.055615734 -0.009732753 1.5860001
-0.045419514 -0.0060250373 1.5860001
-0.037540618 -0.0013903934 1.5860001
-0.033369441 0.0027807867 1.5860001
-0.025305161 0.0052834949 1.5860001
-0.018075114 0.0069519668 1.5860001
-0.006488502 0.014367398 1.5860001
0.0041711801 0.017148184 1.5860001
0.009732753 0.0208559 1.5860001
0.015294326 0.02178283 1.5860001
0.024431197 0.025225708 1.5860002
0.032905977 0.028271331 1.5860001
0.036613692 0.032905977 1.5860001
0.043565661 0.034296367 1.5860001
0.05422534 0.037540618 1.5860001
0.057006124 0.040321406 1.5860001
0.065348484 0.040321406 1.5860001
0.075081237 0.042406995 1.5860001
0.08481399 0.045419514 1.5860001
0.09315636 0.048663765 1.5860001
0.11262186 0.048663765 1.5860001
-0.22663411 0.058396518 1.5860001
0.09454675 0.051444553 1.5860001
0.10594797 0.052000713 1.5860001
0.11609784 0.052139752 1.5860001
0.12420848 0.053298414 1.5860001
0.13556334 0.058396518 1.5860001
0.14475541 0.057315096 1.5860002
0.15512817 0.055814359 1.5860002
0.16545682 0.058859985 1.5860001
0.14321052 0.062567696 1.5860001
0.1668472 0.063958086 1.5860001
0.17435531 0.065626562 1.5860002
0.18422711 0.067434072 1.5860001
0.19187428 0.068129271 1.5860001
0.20605628 0.067573115 1.5860001
-0.2294149 0.079252422 1.5860001
0.17936073 0.070910059 1.5860001
0.18631271 0.072300456 1.5860001
0.19465506 0.071836993 1.5860001
0.20661244 0.071466222 1.5860001
0.2161289 0.073999815 1.5860002
0.22454852 0.0755447 1.5860003
0.23428127 0.078557223 1.5860001
0.24053805 0.079252422 1.5860001
-0.2287197 0.08481399 1.5860001
0.2294149 0.0834236 1.5860001
0.23553264 0.083145522 1.5860001
0.24331881 0.086005762 1.5860002
-0.23219569 0.09593714 1.5860001
-0.22742863 0.09593714 1.5860002
0.24671756 0.093465321 1.5860002
0.25382403 0.095628157 1.5860002
-0.23219569 0.10149872 1.5860001
-0.22385333 0.1046271 1.5860002
0.25629583 0.10242564 1.5860001
0.26185742 0.10659683 1.5860001
-0.22246292 0.11540265 1.5860001
-0.21551096 0.11818343 1.5860001
0.26278433 0.11401226 1.5860001
-0.23497647 0.12930658 1.5860001
-0.2294149 0.12930658 1.5860001
-0.24053805 0.13625854 1.5860001
-0.23497647 0.13486816 1.5860002
-0.22848797 0.13301431 1.5860001
-0.24192843 0.14182012 1.5860001
-0.23472367 0.14422172 1.5860003
-0.2253364 0.144879 1.5860003
-0.23442033 0.15628019 1.5860002
-0.22663413 0.15572405 1.5860003
-0.23386416 0.16434449 1.5860001
-0.22607796 0.16517872 1.5860002
-0.23775727 0.17101838 1.5860001
-0.22742864 0.17340191 1.5860002
-0.18026546 -0.051704045 1.5940001
-0.18166286 -0.047511823 1.5940001
-0.17327842 -0.044717014 1.5940001
-0.16405554 -0.047232341 1.5940001
-0.15511213 -0.048210528 1.5940001
-0.14533028 -0.047511831 1.594
-0.13554843 -0.046114419 1.5940002
-0.12576661 -0.043319609 1.594
-0.11654371 -0.041642718 1.5940001
-0.11249124 -0.037031274 1.5940001
-0.1048055 -0.034469362 1.594
-0.099215873 -0.032140352 1.5940001
-0.094185211 -0.028786575 1.5940001
-0.084842548 -0.027349245 1.594
-0.077655889 -0.023356656 1.594
-0.068472929 -0.0209611 1.5940001
-0.074062549 -0.018166287 1.5940002
-0.063681819 -0.016169991 1.594
-0.054498855 -0.013974068 1.594
-0.048909232 -0.01257666 1.5940001
-0.043319605 -0.0083844401 1.5940001
-0.034935165 -0.0027948134 1.5940001
-0.027948134 -0.0013974067 1.5940001
-0.032140352 0.0013974067 1.5940001
-0.024314877 0.0019563693 1.5940001
-0.015371474 0.0046580224 1.594
-0.0083844401 0.0097818468 1.5940001
-0.0027948134 0.01257666 1.5940001
0.0064280704 0.015371474 1.5940001
0.013974067 0.01676888 1.5940001
0.018166287 0.0209611 1.5940001
0.02515332 0.021659803 1.5940001
0.035494126 0.025991764 1.5940001
0.041456398 0.028413936 1.5940002
0.047977626 0.033071958 1.5940002
0.053800158 0.034236461 1.5940001
0.063442267 0.037171014 1.5940001
0.072665147 0.037729979 1.5940001
0.076857366 0.040524792 1.5940002
0.085241802 0.041456398 1.5940002
0.095862105 0.04667338 1.5940001
0.10480551 0.047511827 1.594
0.11374891 0.04779131 1.5940001
0.12483501 0.047977626 1.594
0.13554843 0.048909232 1.5940002
0.12856141 0.051704045 1.5940001
0.13554846 0.05310145 1.594
0.14206968 0.053567257 1.5940002
0.15790695 0.051704045 1.5940001
0.16293761 0.053939898 1.5940001
0.17467582 0.060088485 1.5940002
0.18399188 0.063193835 1.594
0.19583656 0.066077374 1.594
0.20541878 0.063349105 1.594
0.21436217 0.065119155 1.594
0.22218765 0.068472929 1.5940001
0.23569594 0.074994154 1.594
0.24314876 0.076857366 1.5940001
0.25013578 0.079652183 1.5940001
0.24594358 0.083844401 1.5940001
0.25237164 0.085800774 1.5940001
0.25758862 0.091763042 1.5940002
0.26187402 0.095862098 1.5940001
0.26634571 0.10536446 1.5940001
0.26969948 0.11039513 1.5940001
-0.24175136 0.13275363 1.5940001
-0.25013578 0.1467277 1.5940002
-0.24454618 0.14707704 1.594
-0.23895654 0.14952251 1.5940001
-0.24314876 0.15511213 1.594
-0.23895654 0.15371473 1.5940001
-0.25013578 0.16768879 1.5940001
-0.2439872 0.16545294 1.594
-0.23755914 0.16768879 1.5940001
-0.24454618 0.17467581 1.594
-0.23581237 0.17502517 1.594
-0.23196951 0.18306026 1.5940001
-0.23456468 0.193441 1.594
-0.17306364 -0.053471405 1.605
-0.16498078 -0.05426947 1.6054444
-0.15477316 -0.054879624 1.605
-0.14504655 -0.054925218 1.6063334
-0.13532665 -0.053568721 1.608
-0.12553954 -0.052190598 1.6090001
-0.11989731 -0.052190598 1.6090001
-0.1810571 -0.049124017 1.6010001
-0.1754429 -0.048001181 1.6010001
-0.1684252 -0.049124017 1.6010001
-0.13474016 -0.049124017 1.6010001
-0.12501705 -0.047761384 1.6023332
-0.11464415 -0.046085317 1.6025999
-0.10524139 -0.04300683 1.6054444
-0.10386221 -0.037895668 1.6010001
-0.095186323 -0.035395417 1.6031818
-0.085308604 -0.0329425 1.6058
-0.076170057 -0.032442804 1.6090001
-0.080001973 -0.029474409 1.6010001
-0.073379844 -0.026334846 1.602
-0.065217279 -0.024871325 1.6056666
-0.055011708 -0.021158351 1.6090001
-0.049369484 -0.021158351 1.6090001
-0.060352363 -0.018246064 1.6010001
-0.05473819 -0.018246064 1.6010002
-0.045045234 -0.01548807 1.6058
-0.03667447 -0.01269501 1.6090001
-0.040702756 -0.0098248031 1.6010001
-0.034710612 -0.0078267548 1.6021427
-0.024913862 -0.0062337262 1.6044284
-0.01547112 -0.0056322911 1.6043333
-0.0098738968 -0.0014105566 1.6090001
-0.014035434 0.0014035433 1.6010001
-0.0056287837 0.0056264461 1.6056666
0.0051595732 0.0079713361 1.6054444
0.015505604 0.0084551573 1.6076669
0.0070177168 0.01263189 1.6010002
0.01656181 0.014316143 1.6010001
0.02494029 0.015726684 1.6046364
0.034558639 0.017631957 1.6090001
0.045137815 0.018337237 1.6090001
0.052190598 0.018337237 1.6090001
0.029474409 0.02105315 1.6010001
0.035881527 0.021807523 1.605
0.045774877 0.024558736 1.6046923
0.054921705 0.025342094 1.6063333
0.064804368 0.026763754 1.607
0.074676901 0.026767846 1.6072223
0.084598906 0.0267883 1.6083332
0.092626549 0.028681317 1.6090001
0.056141734 0.032281496 1.6010001
0.065164514 0.03348453 1.601
0.074788809 0.034286555 1.601
0.084249415 0.035102025 1.6016666
0.094456643 0.035242878 1.6081113
0.10365917 0.035771333 1.6066
0.11545262 0.036603462 1.6060001
0.12485329 0.036918707 1.6074002
0.13601796 0.036875982 1.6090001
0.14528733 0.038085029 1.6090001
0.15092956 0.038085029 1.6090001
0.08842323 0.040702756 1.6010001
0.095440947 0.042106301 1.601
0.10526574 0.042106301 1.601
0.11565198 0.042948429 1.6010001
0.12540755 0.042736877 1.6021429
0.13485354 0.043543741 1.6023334
0.14474556 0.044964228 1.6029998
0.15451957 0.045309111 1.6052665
0.16439967 0.046478238 1.6067142
0.17490903 0.049369484 1.6090001
0.1459685 0.051931102 1.6010001
0.15298623 0.051931102 1.6010002
0.16863385 0.054803062 1.6030002
0.1754061 0.054615986 1.6058
0.18497686 0.055178802 1.6058
0.19504151 0.054755244 1.609
0.20478563 0.055207558 1.6066
0.21419139 0.054954201 1.6074002
0.22427851 0.057832822 1.6090001
0.1880748 0.060352363 1.6010001
0.19565395 0.061475195 1.6010001
0.20281202 0.061054137 1.6010001
0.21614566 0.060352363 1.6010001
0.22553252 0.064116269 1.6049998
0.23544446 0.065697581 1.6082001
0.24543685 0.067706719 1.6090001
0.25460547 0.067706719 1.6090001
0.26095298 0.067706719 1.6090001
0.22877756 0.071580708 1.6010001
0.23439173 0.071580708 1.6010002
0.24597275 0.073286951 1.6032857
0.25480121 0.075063922 1.6080002
0.26553729 0.075817421 1.6090001
0.24842717 0.081405513 1.6010001
0.25775743 0.083212897 1.6027778
0.26501146 0.083106622 1.6067144
0.26663774 0.094974123 1.605
0.26874655 0.10130409 1.605
0.27282164 0.10445011 1.6058
-0.25123426 0.15579331 1.6010002
-0.24842717 0.15579331 1.6010002
-0.25259307 0.16261202 1.6036667
-0.24842717 0.16281103 1.6010001
-0.24445029 0.18523389 1.6031331
-0.23626311 0.18526773 1.601
-0.25248966 0.19606738 1.6090001
-0.24478666 0.19493751 1.6016666
-0.23719881 0.19789961 1.6010001
-0.25248966 0.20312016 1.6090001
-0.24421653 0.2049173 1.601
-0.2343917 0.20491731 1.601
-0.25484058 0.21675555 1.6090001
-0.2457556 0.21503775 1.6074002
-0.23697352 0.21299405 1.6090001
-0.26095298 0.22709961 1.6090001
-0.25520614 0.22559731 1.6083332
-0.24588391 0.22592989 1.6083845
-0.26264563 0.23556297 1.609
-0.25502864 0.23530269 1.6072222
-0.24519578 0.23520003 1.6082727
-0.27223742 0.24825796 1.6090001
-0.26320988 0.24571896 1.609
-0.25531074 0.24543686 1.6089998
-0.24523458 0.24466757 1.6057999
-0.27223742 0.25248966 1.6090001
-0.26941633 0.25248966 1.6090001
-0.2546055 0.25319493 1.6090001
-0.24741164 0.25361809 1.609
-0.27223742 0.26659521 1.6090001
-0.17283659 -0.060917813 1.6160001
-0.16433643 -0.060917813 1.6160001
-0.15441956 -0.060917813 1.6160001
-0.1473361 -0.060917813 1.6160001
-0.17595331 -0.056384396 1.6159999
-0.16858651 -0.058084425 1.6160001
-0.14025263 -0.058084425 1.6160001
-0.13458587 -0.058084425 1.6160001
-0.12466901 -0.05525104 1.6160001
-0.11616886 -0.052417655 1.6160001
-0.11191877 -0.049584266 1.6160001
-0.10436308 -0.046750877 1.6160001
-0.094918452 -0.041084107 1.6160001
-0.089251682 -0.041084107 1.6160001
-0.085284933 -0.036550686 1.6159999
-0.075084746 -0.034472872 1.6160001
-0.062334508 -0.028333865 1.6160001
-0.055251043 -0.024083786 1.6160001
-0.046750885 -0.022194862 1.6160001
-0.041084107 -0.018417014 1.6160001
-0.035417333 -0.015583627 1.6159999
-0.026107633 -0.013964549 1.6160001
-0.017000321 -0.01275024 1.6160001
-0.0066786977 -0.0038453101 1.6160001
0.0014166933 -0.0014166933 1.6160001
-0.0028333867 0.0014166933 1.6160001
0.0062739276 0.0026310016 1.6160001
0.016150305 0.0031167255 1.6159999
0.022194862 0.0089723906 1.6160001
0.029750559 0.01275024 1.6160001
0.036834024 0.015583627 1.6160001
0.045334186 0.01652809 1.6160001
0.05525104 0.017000321 1.6160001
0.063751198 0.018417014 1.6160001
0.065167896 0.021250401 1.6160001
0.075084746 0.021250403 1.6160001
0.082168207 0.021250401 1.6160001
0.097751841 0.029750559 1.6160001
0.10483531 0.029750559 1.6160001
0.1076687 0.032583948 1.6160001
0.11475217 0.032583948 1.6160001
0.12551901 0.033150624 1.6159999
0.13387752 0.033292297 1.6160001
0.14510988 0.033798255 1.6160001
0.15300289 0.035417333 1.6160001
0.16716981 0.043917492 1.6160001
0.17566997 0.045334183 1.6160001
0.18523265 0.047105052 1.6160001
0.19493702 0.047317557 1.6159999
0.20542054 0.048167571 1.6160001
0.21473023 0.048369955 1.6160001
0.21958746 0.052417655 1.6160001
0.22468755 0.054117687 1.6159999
0.23456395 0.056870122 1.6160001
0.24367125 0.058084425 1.6160001
0.23658779 0.060917813 1.6160001
0.24508794 0.062334504 1.6160001
0.25500482 0.064105369 1.6160001
0.26573119 0.066179819 1.6160001
0.27058843 0.066584587 1.6160001
0.29325551 0.069417976 1.6160001
0.25925487 0.072251357 1.6160001
0.26563001 0.072959706 1.6160001
0.27342182 0.075084746 1.6160001
0.29325551 0.072251357 1.6160001
0.26775503 0.087834984 1.6160001
0.27058843 0.085001603 1.6160001
0.27153289 0.094918452 1.6160001
0.27814412 0.10436308 1.6160001
0.28475535 0.106252 1.6160001
-0.25642151 0.19975376 1.6160001
-0.25500482 0.20825392 1.6160001
-0.25571316 0.21321234 1.6160001
-0.24367125 0.21958746 1.6160001
-0.23942117 0.21817076 1.6160001
-0.24508795 0.22525424 1.6160001
-0.26563001 0.23587944 1.6160001
-0.24792133 0.23942117 1.6160001
-0.27058843 0.24508794 1.6160001
-0.26662168 0.24452126 1.6159999
-0.27342179 0.25783822 1.6160001
-0.26492167 0.25500482 1.6159998
-0.25594926 0.25831044 1.6160001
-0.27342179 0.26456749 1.6160001
-0.26563001 0.26279664 1.6160001
-0.25480244 0.26330259 1.6160001
-0.28192198 0.27342182 1.6160001
-0.27578294 0.27153289 1.6160001
-0.28381088 0.28664428 1.6160001
-0.28475535 0.29467219 1.6160001
-0.25925487 0.30742246 1.6160001
-0.26208827 0.31450593 1.6160001
-0.25925487 0.31025583 1.6160001
-0.18081075 -0.064066805 1.6240001
-0.17574869 -0.065965071 1.6240003
-0.16514997 -0.064066797 1.6240001
-0.15518403 -0.064066797 1.6240001
-0.14426894 -0.063117661 1.6240002
-0.13525213 -0.061219383 1.6240001
-0.18308868 -0.057233006 1.6240002
-0.12528618 -0.058371972 1.6240001
-0.11532024 -0.055524558 1.6240002
-0.10962541 -0.052677147 1.6240001
-0.10393059 -0.048880596 1.6240001
-0.095957831 -0.04527387 1.6240002
-0.085707143 -0.042426459 1.6240002
-0.082574986 -0.038440078 1.6240001
-0.075456455 -0.037490942 1.6240001
-0.067626074 -0.033457108 1.6240001
-0.061219387 -0.029897841 1.6240001
-0.055524558 -0.028474132 1.6240002
-0.044490829 -0.025270792 1.6240003
-0.036162149 -0.022494566 1.6240002
-0.028474133 -0.021355599 1.6240001
-0.034168959 -0.018508187 1.6240001
-0.024772495 -0.017938705 1.6240002
-0.014948919 -0.01494892 1.6240001
-0.0054100854 -0.0071185334 1.6240002
0.0056948266 -0.0035592667 1.6240003
0.015660772 -0.0028474135 1.6240002
0.021355599 -0.0014237066 1.6240001
0.012813359 0.0014237066 1.6240001
0.024914866 0.0056948266 1.6240003
0.035592664 0.012813359 1.6240001
0.045084044 0.012813359 1.6240001
0.056236412 0.013525213 1.6240001
0.061219387 0.017084479 1.6240001
0.075456448 0.018508187 1.6240001
0.081151277 0.018508187 1.6240001
0.095388353 0.025626719 1.6240001
0.10535429 0.027050426 1.6240001
0.11532024 0.029897841 1.6240001
0.12528618 0.029897841 1.6240001
0.13525213 0.029897841 1.6240001
0.14521807 0.029897841 1.6240001
0.15233661 0.029897841 1.6240001
0.15803143 0.037016373 1.6240001
0.16514997 0.038440078 1.6240001
0.17796333 0.038440078 1.6240001
0.18223445 0.038440078 1.6240001
0.16230255 0.041287493 1.6240001
0.17511593 0.041287493 1.6240001
0.18508187 0.041999348 1.6240001
0.19789523 0.044134907 1.6240001
0.20501375 0.043185767 1.6240002
0.21497969 0.044134904 1.6240001
0.22352195 0.048406027 1.6240001
0.22921677 0.052677147 1.6240001
0.23491161 0.052677143 1.6240001
0.24573179 0.056094039 1.6240002
0.25413164 0.057660121 1.6240001
0.26196203 0.058371972 1.6240001
0.25769091 0.061219387 1.6240001
0.26480946 0.061219387 1.6240001
0.27572453 0.067863353 1.6240001
0.28901246 0.069761626 1.6240001
0.29185987 0.069761626 1.6240001
0.27382624 0.084947824 1.6240001
0.2761991 0.096812055 1.6240001
0.27762279 0.10108317 1.6240001
0.28189391 0.10250688 1.6240001
-0.26480943 0.26813141 1.6240002
-0.25555533 0.26836869 1.6240001
-0.28331763 0.27762279 1.6240001
-0.27420589 0.27648383 1.6240002
-0.26480946 0.27477542 1.6240004
-0.25484347 0.27192798 1.6240001
-0.2826058 0.28402945 1.6240003
-0.27518216 0.28291085 1.6240003
-0.26480946 0.28189391 1.6240003
-0.25769091 0.28331763 1.6240001
-0.28402948 0.29399544 1.6240001
-0.25626719 0.2947073 1.6240002
-0.28474131 0.30419865 1.6240002
-0.27762279 0.30324951 1.6240001
-0.26281625 0.30495796 1.6240002
-0.28388709 0.3163476 1.6240002
-0.26338574 0.31179175 1.6240001
-0.28474134 0.3217577 1.6240001
-0.26338574 0.3217577 1.6240001
-0.26480943 0.33741847 1.6240001
-0.17330274 -0.071614243 1.6337501
-0.16488566 -0.071692482 1.6355001
-0.15569901 -0.071594603 1.6380001
-0.14512253 -0.070405975 1.6390001
-0.18456288 -0.06152096 1.6320001
-0.17025568 -0.067243837 1.6320001
-0.1645328 -0.067243837 1.6320001
-0.15451775 -0.067243837 1.6320001
-0.14450271 -0.067243837 1.6320001
-0.13434707 -0.065205917 1.6346251
-0.12477771 -0.063724406 1.636
-0.11542056 -0.062941037 1.6370001
-0.11231152 -0.05794416 1.6320001
-0.10461054 -0.054458644 1.6346251
-0.095084436 -0.052085109 1.6351112
-0.086690344 -0.051247891 1.6390001
-0.091566078 -0.047213759 1.6320001
-0.083982565 -0.046150185 1.6348002
-0.075630024 -0.043374401 1.6355001
-0.067532264 -0.041668843 1.6390001
-0.071535997 -0.038629439 1.6320001
-0.064091973 -0.036656562 1.6350001
-0.054705001 -0.033399496 1.636
-0.044842627 -0.032151248 1.6350001
-0.035921413 -0.030173989 1.6390001
-0.033404946 -0.026249299 1.6331668
-0.024374403 -0.02389954 1.6355001
-0.01575633 -0.021491483 1.6343335
-0.01345736 -0.016895998 1.6334002
-0.0048754942 -0.01233733 1.6362002
0.0043105702 -0.010057997 1.6390001
0.011494854 -0.010057997 1.6390001
-0.00143072 -0.0071536 1.6320001
0.0057228799 -0.0071536 1.6320001
0.014307199 -0.0071536 1.6320001
0.024719041 -0.0046613463 1.6346251
0.033975605 -0.0033513021 1.6374445
0.04262675 -0.0023947612 1.6390001
0.02718368 0.0028614399 1.6320001
0.034351088 0.0042926711 1.6325835
0.044438232 0.0042962511 1.6351112
0.054045916 0.0052582468 1.6366668
0.064658552 0.0071842833 1.6390001
0.073279694 0.0071842833 1.6390001
0.081900828 0.0071842833 1.6390001
0.035767999 0.01001504 1.6320001
0.045067679 0.0107304 1.6320001
0.05436736 0.01001504 1.6320001
0.065050319 0.013199191 1.6327778
0.074266478 0.013347858 1.6363078
0.08496885 0.013962192 1.6377274
0.094376326 0.015338765 1.6368463
0.10479098 0.015787696 1.6374445
0.11441708 0.016754461 1.6382222
0.12500654 0.017242279 1.6390001
0.13219081 0.017242279 1.6390001
0.087273918 0.0214608 1.6320001
0.095285952 0.022033088 1.6320002
0.10444256 0.02289152 1.6320001
0.1148941 0.024070477 1.6326365
0.12453195 0.024332469 1.6327778
0.13463239 0.024345255 1.6337501
0.14470932 0.024352921 1.6343334
0.15480889 0.02464541 1.6364547
0.16482797 0.025247624 1.6390001
0.1573792 0.031475838 1.6320001
0.16424665 0.033478849 1.6320002
0.17474456 0.035135999 1.6360835
0.18531093 0.035010938 1.6350001
0.19487661 0.036446456 1.6369002
0.20560879 0.036239211 1.6372501
0.21235204 0.035866186 1.6366668
0.22558649 0.038795128 1.6390001
0.23133393 0.038795128 1.6390001
0.19457792 0.041490879 1.6320001
0.20173152 0.041490879 1.6320001
0.21484272 0.04153537 1.6337501
0.22558586 0.043639965 1.636
0.2354788 0.044508804 1.6378335
0.24570249 0.04741627 1.6390001
0.25288677 0.04741627 1.6390001
0.26725534 0.04741627 1.6390001
0.27300277 0.04741627 1.6390001
0.23463808 0.050075199 1.6320001
0.24500293 0.051577512 1.6343335
0.25485513 0.052687887 1.6355001
0.26472062 0.053322375 1.6366668
0.27285779 0.05456911 1.6381251
0.27556995 0.062562734 1.6343335
0.2836355 0.065808043 1.6390002
0.27899039 0.074397437 1.6320001
0.28593448 0.074324675 1.6390001
0.2934227 0.076785102 1.6350001
0.27731332 0.087648258 1.6390001
0.28429234 0.084774546 1.6390001
0.29240036 0.084056117 1.6390001
0.27755967 0.092996798 1.6320001
0.2848199 0.095110051 1.637091
0.29225665 0.095694646 1.6390002
0.28662089 0.10253493 1.6320001
0.29043615 0.10301184 1.6320001
-0.28471327 0.27899039 1.6320001
-0.25752959 0.27755967 1.6320001
-0.28471327 0.28185183 1.6320001
-0.27469823 0.28757471 1.6320001
-0.26468319 0.28757471 1.6320001
-0.25574121 0.28471327 1.6320001
-0.28185183 0.29615903 1.6320001
-0.2744121 0.29501444 1.6320001
-0.26468322 0.29472831 1.6320001
-0.25609887 0.29043615 1.6320001
-0.28356868 0.30588794 1.6320002
-0.27430803 0.30474332 1.6320001
-0.26525548 0.30417106 1.6320002
-0.28356868 0.31332764 1.6320002
-0.2749157 0.3150104 1.6333126
-0.26754463 0.31475839 1.6320001
-0.28320658 0.32667258 1.6343335
-0.27516708 0.32476079 1.6348002
-0.26811841 0.32403922 1.6355001
-0.29180929 0.33574608 1.6343335
-0.28377047 0.33439875 1.637091
-0.27427393 0.33622193 1.6380001
-0.26735178 0.3352648 1.6366668
-0.29455563 0.34455818 1.6390002
-0.28449759 0.34484565 1.6390001
-0.27409166 0.34440196 1.6369002
-0.26754463 0.34194207 1.6320001
-0.29340613 0.35375413 1.6390002
-0.28449762 0.35490358 1.6390001
-0.27427393 0.35509935 1.6380001
-0.28511342 0.3618826 1.6390001
-0.27731332 0.36065102 1.6390001
-0.29742932 0.3778933 1.6390001
-0.30087775 0.38593969 1.6390002
-0.29527405 0.3850776 1.6390001
-0.30030304 0.39226186 1.6390001
-0.17470826 -0.075562529 1.647
-0.16460118 -0.076525107 1.6470001
-0.15377216 -0.075803176 1.6470001
-0.14438701 -0.072915435 1.6470001
-0.13427991 -0.070749633 1.647
-0.12417282 -0.070749633 1.6470001
-0.13427991 -0.067861892 1.6470001
-0.12561668 -0.067861892 1.6470001
-0.1155096 -0.067139961 1.6470001
-0.10684638 -0.062086411 1.6470001
-0.10395864 -0.05919867 1.6470001
-0.095295422 -0.057032861 1.6470001
-0.083744459 -0.051979318 1.6470001
-0.079412848 -0.050535448 1.6470001
-0.073637366 -0.046685129 1.647
-0.063530281 -0.041872229 1.6470001
-0.05919867 -0.041872229 1.6470001
-0.053904478 -0.038021911 1.6470002
-0.04475997 -0.037059326 1.647
-0.034652881 -0.032487076 1.6470001
-0.027433529 -0.03032127 1.6470001
-0.017326441 -0.024545791 1.6470001
-0.01010709 -0.018770309 1.6470001
-0.00240645 -0.01491999 1.647
0.00288774 -0.01299483 1.6470001
0.017326441 -0.01010709 1.6470001
0.024545789 -0.01010709 1.647
0.03032127 -0.01010709 1.6470001
0.036096752 -0.00721935 1.647
0.04475997 -0.0043316097 1.647
0.053423185 -0.00144387 1.647
0.056310933 0.00144387 1.647
0.064252213 0.0036096752 1.6470001
0.075562529 0.0052941907 1.6470002
0.0866322 0.00721935 1.6470001
0.093851544 0.00721935 1.647
0.096739292 0.01010709 1.647
0.10540251 0.01010709 1.647
0.1155096 0.011550959 1.6470002
0.12561668 0.01299483 1.647
0.13716765 0.017326441 1.6470001
0.14438701 0.017326439 1.6470002
0.15449409 0.018770309 1.647
0.1631573 0.018770309 1.647
0.15738183 0.02165805 1.6470001
0.16604505 0.02165805 1.6470001
0.17470826 0.027433529 1.647
0.1732644 0.03032127 1.6470001
0.18481535 0.03032127 1.6470001
0.19492245 0.031043205 1.6470001
0.20474076 0.031476367 1.6470001
0.21609922 0.03513417 1.647
0.22476244 0.03513417 1.6470002
0.23535082 0.036096752 1.6470002
0.24208887 0.038021907 1.647
0.26422819 0.038984489 1.647
0.24690177 0.0433161 1.6470002
0.25597748 0.043934904 1.6470002
0.26386726 0.044399004 1.6470002
0.27144754 0.0433161 1.6470001
0.27866691 0.054867059 1.6470001
0.28444239 0.062086415 1.647
0.28733012 0.079412848 1.6470001
0.28516433 0.084466398 1.6470001
0.29021788 0.08807607 1.6470001
0.28733012 0.090963811 1.6470001
0.29021788 0.090963811 1.6470001
-0.2728914 0.33305266 1.6470002
-0.26711595 0.33209008 1.6470001
-0.30176884 0.35807976 1.6470001
-0.29657087 0.3566359 1.6470001
-0.27866691 0.35230428 1.6470001
-0.29454947 0.36566007 1.6470002
-0.28372043 0.3674649 1.6470001
-0.27722305 0.36529911 1.6470001
-0.30176884 0.37829393 1.6470001
-0.29393068 0.37540624 1.647
-0.28636757 0.37444362 1.6470002
-0.3053785 0.38623524 1.6470001
-0.29195052 0.38435823 1.6470001
-0.28733012 0.38406941 1.6470001
-0.30465654 0.39562035 1.6470002
-0.2952714 0.39562035 1.647
-0.1654007 -0.082700349 1.6550001
-0.15524451 -0.082700349 1.6550001
-0.17362237 -0.078831322 1.6550001
-0.1654007 -0.079798579 1.6550001
-0.15524451 -0.079798579 1.6550001
-0.14508833 -0.077622257 1.655
-0.13493216 -0.075155757 1.6550001
-0.12498324 -0.073580511 1.655
-0.11607067 -0.071093284 1.6550001
-0.11171801 -0.068191513 1.6550001
-0.10533414 -0.064709395 1.6550001
-0.094307423 -0.059486222 1.6550001
-0.085602112 -0.055617195 1.6550001
-0.075445935 -0.0522318 1.6550001
-0.071093284 -0.047879148 1.6550001
-0.065870106 -0.046138089 1.6550001
-0.055133566 -0.04280106 1.6550001
-0.047879148 -0.042075615 1.6550001
-0.0435265 -0.039173849 1.6550001
-0.034821197 -0.035546638 1.6550001
-0.024665017 -0.031919435 1.6550001
-0.015959717 -0.03046855 1.6550001
-0.023214133 -0.027566783 1.6550001
-0.014218656 -0.025825724 1.6550001
-0.0043526501 -0.018861484 1.6550001
0.0050780918 -0.015234276 1.6550001
0.014508834 -0.01305795 1.6550001
0.024665019 -0.01305795 1.6550001
0.036272082 -0.010156184 1.6550001
0.042075615 -0.010156184 1.6550001
0.046428263 -0.0058035334 1.6550001
0.055133566 -0.0036272085 1.6550001
0.062387984 -0.0014508833 1.6550001
0.066740632 0.0014508833 1.6550001
0.075445935 0.0014508833 1.6550001
0.08632756 0.0036272085 1.6550001
0.093581975 0.0036272085 1.6550001
0.10417342 0.0066740634 1.6550001
0.11171801 0.0072544166 1.6550001
0.12477596 0.010156184 1.6550001
0.13493215 0.01305795 1.6550001
0.14557196 0.01305795 1.6550001
0.15466416 0.014799011 1.6550001
0.1654007 0.016685158 1.6550001
0.16975334 0.02176325 1.6550001
0.17265512 0.024665017 1.6550001
0.18426217 0.027566783 1.6550001
0.19504018 0.026323168 1.655
0.20399418 0.026406076 1.6550001
0.21182896 0.027566783 1.6550001
0.22633779 0.027566783 1.6550001
0.23069045 0.027566783 1.6550001
0.20167278 0.03046855 1.6550001
0.21811612 0.031435806 1.6550001
0.22488691 0.030468548 1.6550001
0.23455946 0.031435806 1.6550001
0.24665016 0.037722968 1.6550001
0.25583908 0.038206592 1.6550001
0.26406077 0.036272082 1.6550001
-0.30033284 0.36707348 1.6550001
-0.30323461 0.37577879 1.6550001
-0.2820932 0.37619331 1.655
-0.30758727 0.38448408 1.6550001
-0.2843731 0.38158232 1.6550001
-0.30903816 0.39899293 1.6550001
-0.29162756 0.39754203 1.6550001
-0.28872579 0.39173847 1.6550001
-0.18369499 -0.086015902 1.6630001
-0.17543356 -0.083586074 1.6630001
-0.16547127 -0.086744852 1.6630001
-0.15366231 -0.085432746 1.6630001
-0.14433177 -0.083586074 1.6630001
-0.13631333 -0.080913268 1.6630001
-0.12683702 -0.080184318 1.6630001
-0.13558438 -0.077268526 1.6630001
-0.12489315 -0.077268526 1.6630001
-0.11590279 -0.074352726 1.6630001
-0.10788435 -0.071436934 1.6630001
-0.10351066 -0.067063242 1.6630001
-0.095346436 -0.063855872 1.6630001
-0.088931695 -0.062689558 1.6630001
-0.083586074 -0.05880183 1.6630001
-0.073623784 -0.05612902 1.6630001
-0.066577278 -0.052970245 1.6630001
-0.062689558 -0.048110589 1.6630001
-0.055400074 -0.045923747 1.6630001
-0.043736897 -0.042279001 1.6630001
-0.034989521 -0.038634259 1.6630001
-0.024055297 -0.035718471 1.6630001
-0.01562032 -0.033531625 1.6630001
-0.010205276 -0.024784243 1.6630001
-0.0043736901 -0.023326347 1.6630001
0.0043736901 -0.018952657 1.6630001
0.013607035 -0.017008794 1.6630001
0.024784243 -0.016036863 1.6630001
0.034989521 -0.01312107 1.6630001
0.045194793 -0.011177207 1.6630001
0.048110589 -0.0072894832 1.6630001
0.056274813 -0.0067063249 1.6630001
0.06560535 -0.0038877244 1.6630001
0.074352734 -0.0029157933 1.6630001
0.084349737 -0.0027075224 1.6630001
0.094763279 -0.0014578967 1.6630001
0.08455801 0.0014578967 1.6630001
0.096221179 0.0014578967 1.6630001
0.10517684 0.0027075224 1.6630001
0.11517383 0.0043736896 1.6630001
0.12440718 0.0063175522 1.6630001
0.13850018 0.0072894832 1.6630001
0.14141597 0.0072894832 1.6630001
0.13558438 0.010205276 1.6630001
0.14433177 0.010934224 1.6630001
0.15453705 0.010934224 1.6630001
0.16401337 0.012392122 1.6630001
0.17057391 0.014578966 1.6630001
0.17640549 0.023326347 1.6630001
0.18588184 0.024055295 1.6630001
0.1944834 0.022451609 1.6630001
0.20629238 0.022597399 1.6630001
0.21431081 0.024298279 1.6630001
0.22354414 0.025756173 1.6630001
0.23326346 0.026242141 1.6630001
0.23763716 0.030615829 1.6630001
0.24555145 0.032698538 1.6630001
0.25586087 0.034989521 1.6630001
0.2624214 0.033531625 1.6630001
-0.31344777 0.38925841 1.6630001
-0.28574774 0.38634261 1.6630001
-0.29012144 0.39800578 1.6630001
-0.18457866 -0.093754239 1.6710001
-0.17432427 -0.09302178 1.6710001
-0.1825278 -0.087601617 1.6710001
-0.17505673 -0.088627048 1.6710001
-0.16406992 -0.089359507 1.6710001
-0.15528046 -0.089359507 1.6710001
-0.14429364 -0.088627055 1.6710001
-0.13477172 -0.084964782 1.6710001
-0.12451735 -0.082523264 1.6710001
-0.11865771 -0.08057005 1.6710001
-0.11426298 -0.076175317 1.6710001
-0.10547352 -0.073245496 1.6710001
-0.10107879 -0.068850771 1.6710001
-0.095219158 -0.067874163 1.6710001
-0.084964782 -0.063723579 1.6710001
-0.074710406 -0.060061309 1.6710001
-0.062258672 -0.05420167 1.6710001
-0.054201666 -0.051271845 1.6710001
-0.054201674 -0.04834203 1.6710001
-0.045412213 -0.045412209 1.6710001
-0.036622748 -0.042482391 1.6710001
-0.03076311 -0.039552569 1.6710001
-0.02636838 -0.039552569 1.6710001
-0.013770154 -0.036036786 1.6710001
-0.00585964 -0.03076311 1.6710001
-0.01025437 -0.02783329 1.6710001
-0.0043947301 -0.02783329 1.6710001
0.0040285024 -0.024537245 1.6710002
0.013770154 -0.022559613 1.6710001
0.017578918 -0.019043829 1.6710001
0.02343856 -0.019043829 1.6710001
0.034864858 -0.016699973 1.6710001
0.045412213 -0.014649101 1.6710001
0.053469218 -0.010986825 1.6710001
0.064456038 -0.01025437 1.6710001
0.071780592 -0.01025437 1.6710001
0.06738586 -0.0073245498 1.6710001
0.074710406 -0.0073245498 1.6710001
0.085257761 -0.0067385859 1.6710001
0.094633184 -0.005566658 1.6710001
0.10547353 -0.00292982 1.6710002
0.11514193 -0.002636838 1.6710001
0.12305244 -0.00146491 1.6710001
0.11865771 0.00146491 1.6710001
0.1252498 0.002197365 1.6710001
0.13428341 0.0040691947 1.6710002
0.14502609 0.00585964 1.6710001
0.15528047 0.0073245498 1.6710001
0.162605 0.0073245498 1.6710001
0.1596752 0.01025437 1.6710001
0.16699973 0.01025437 1.6710001
0.1748126 0.015625708 1.6710001
0.18457866 0.018067224 1.6710001
0.19483303 0.01757892 1.6710001
0.20525016 0.017090617 1.6710002
0.2147558 0.017871901 1.6710001
0.22266632 0.019043829 1.6710001
0.18311375 0.021973649 1.6710001
0.21827158 0.021973649 1.6710001
0.22559613 0.021973649 1.6710001
0.23643649 0.024317507 1.6710001
0.24463998 0.02636838 1.6710001
0.25782415 0.02636838 1.6710001
0.26319548 0.026856683 1.6710001
0.25460136 0.03134907 1.6710001
0.2636838 0.03076311 1.6710001
-0.30763111 0.37794679 1.6710001
-0.31202582 0.38527134 1.6710001
-0.28761068 0.39406076 1.6710001
-0.1811544 -0.1016232 1.6800001
-0.17446457 -0.10365092 1.6830001
-0.16573909 -0.10210712 1.6880001
-0.1811544 -0.095732003 1.6800001
-0.1748354 -0.098182455 1.6816002
-0.16437991 -0.095918551 1.6832001
-0.15548761 -0.095152907 1.6845714
-0.14535834 -0.094730094 1.6845714
-0.13512167 -0.092547938 1.6864001
-0.12726393 -0.090268612 1.6880001
-0.1354976 -0.0898408 1.6800001
-0.12558074 -0.087171055 1.6853334
-0.1146147 -0.084784195 1.6848001
-0.10567866 -0.082033202 1.6860001
-0.099147491 -0.081389733 1.6880001
-0.11046 -0.078058399 1.6800001
-0.10395338 -0.077414922 1.6820002
-0.094571292 -0.075365983 1.6855999
-0.084349364 -0.072510853 1.6880001
-0.084571451 -0.068349607 1.6826668
-0.075317189 -0.066460356 1.6845714
-0.064985551 -0.063514151 1.6848001
-0.055493001 -0.061412252 1.6880001
-0.060384799 -0.057439201 1.6800001
-0.054005474 -0.056370366 1.6832001
-0.045781039 -0.054645892 1.6845715
-0.037735239 -0.052533373 1.6880001
-0.044183999 -0.048602398 1.6800001
-0.03476008 -0.047406126 1.6822859
-0.025082311 -0.045373637 1.6830001
-0.014763067 -0.044292703 1.6840001
-0.0191464 -0.0397656 1.6800001
-0.00405809 -0.03725921 1.6830001
0.0040607201 -0.033590361 1.684
0.014798133 -0.031076079 1.6880001
0.015709866 -0.027001334 1.6800002
0.025450509 -0.025455769 1.683
0.035431355 -0.023624413 1.684
0.045134306 -0.022937106 1.6880001
0.035347201 -0.0191464 1.6800001
0.0456568 -0.0191464 1.6799999
0.055025607 -0.017081473 1.6834285
0.064921558 -0.01475693 1.6830002
0.075739995 -0.014138879 1.6845714
0.084497415 -0.012638805 1.6844447
0.095146894 -0.012028868 1.6845715
0.10506675 -0.011542544 1.6880001
0.11542544 -0.010358693 1.6880001
0.1045688 -0.0073639997 1.6799999
0.1148784 -0.0073639997 1.6800001
0.12542924 -0.0056078611 1.6832001
0.1347051 -0.0037786285 1.6844445
0.1447926 -0.0029572889 1.6853334
0.15390059 -0.0014798134 1.6880001
0.16425928 -0.0014798134 1.6880001
0.17313816 -0.0014798134 1.6880001
0.14580721 0.0014728 1.6799999
0.15501221 0.0029491067 1.6840001
0.16476725 0.0035828114 1.6845714
0.17441106 0.0048006265 1.686
0.18497665 0.0073990668 1.6880001
0.19533536 0.0073990668 1.6880001
0.20569403 0.0073990668 1.6880001
0.21457295 0.0073990668 1.6880001
0.1782088 0.0103096 1.6800001
0.18542552 0.012531074 1.6820002
0.19517004 0.011579013 1.6811429
0.20413008 0.011487841 1.6800001
0.2153701 0.011798765 1.6826668
0.22470957 0.013271565 1.6826668
0.23407301 0.017062437 1.6822857
0.24433401 0.018452078 1.6840001
0.2545279 0.017757758 1.688
0.2633042 0.015875556 1.6849999
0.2459576 0.022092 1.6799999
0.25479439 0.023859361 1.6800001
0.26363119 0.022092 1.6799999
-0.17098507 -0.10705152 1.6960001
-0.16563249 -0.10615943 1.6960001
-0.15760362 -0.10259104 1.6960001
-0.15314315 -0.099617384 1.6960001
-0.14422219 -0.099617384 1.6960001
-0.13604464 -0.09738715 1.6960001
-0.12459607 -0.092480615 1.6960001
-0.11448565 -0.090696424 1.6960001
-0.10496996 -0.086533308 1.6960001
-0.095794119 -0.083899498 1.6960001
-0.090696424 -0.078801811 1.6960001
-0.085492529 -0.076571576 1.6960001
-0.076571569 -0.073597915 1.6960001
-0.069880851 -0.072854504 1.6960001
-0.072854504 -0.069880851 1.6960001
-0.065420374 -0.069137432 1.6960001
-0.055012587 -0.065420374 1.6960001
-0.048074063 -0.061951112 1.6960001
-0.041631147 -0.057986241 1.6960001
-0.033453599 -0.054269172 1.6960001
-0.02676288 -0.052038934 1.6960001
-0.025276054 -0.049065281 1.6960001
-0.014868267 -0.049065281 1.6960001
-0.0052038934 -0.043861385 1.6960001
0.0029736534 -0.040144321 1.6960001
0.0074341334 -0.037170667 1.6960001
0.014231056 -0.035471436 1.6960001
0.025276056 -0.031223362 1.6960001
0.034197014 -0.028249705 1.6960001
0.044604801 -0.02676288 1.6960001
0.055012587 -0.022302398 1.6960001
0.065420374 -0.019328747 1.6960001
0.075828157 -0.019328747 1.6960001
0.085492536 -0.018585334 1.6960001
0.094264805 -0.016949823 1.6960001
0.10407786 -0.014868267 1.6960001
0.11448565 -0.01338144 1.6960001
0.12415002 -0.011894614 1.6960001
0.12638026 -0.0074341334 1.6960001
0.13827488 -0.0074341334 1.6960001
0.14422219 -0.0074341334 1.6960001
0.15462998 -0.0052038934 1.6960001
0.16503777 -0.0037170667 1.6960001
0.17395872 -0.0032710186 1.6960001
0.17544556 0.0029736534 1.6960001
0.18585332 0.0029736534 1.6960001
0.19477428 0.0044604801 1.6960001
0.20518208 0.0044604801 1.6960001
0.21558987 0.0044604801 1.6960001
0.22451082 0.006244672 1.6960001
0.23045813 0.0074341334 1.6960001
0.23491862 0.011894614 1.6960001
0.2453264 0.015363876 1.6960001
0.25424734 0.01338144 1.6960001
0.26019466 0.011894614 1.6960001
-0.17189242 -0.11210375 1.705
-0.16890298 -0.11210375 1.705
-0.16292411 -0.1076196 1.705
-0.1549523 -0.10413194 1.705
-0.14498751 -0.10313544 1.705
-0.1370157 -0.10213897 1.705
-0.13004035 -0.097156584 1.705
-0.12406148 -0.095661864 1.705
-0.11509318 -0.094167151 1.705
-0.1076196 -0.091177717 1.705
-0.094167151 -0.08669357 1.705
-0.08669357 -0.082209416 1.705
-0.083704129 -0.079219982 1.705
-0.076230548 -0.077227026 1.705
-0.064272813 -0.071746394 1.705
-0.05829395 -0.070251681 1.705
-0.052315082 -0.067262247 1.705
-0.044542555 -0.063674927 1.7050002
-0.035873201 -0.05829395 1.705
-0.025410183 -0.053809799 1.705
-0.016441884 -0.052315082 1.705
-0.0029894332 -0.046336215 1.705
0.0044841501 -0.042350303 1.705
0.011957733 -0.040357351 1.705
0.019431317 -0.037367918 1.705
0.025410183 -0.035873201 1.705
0.033631124 -0.03213641 1.705
0.040357351 -0.03138905 1.705
0.047830932 -0.028399616 1.705
0.055304516 -0.025410183 1.705
0.064272813 -0.023616523 1.7050002
0.074095242 -0.023701934 1.705
0.085198849 -0.022420749 1.705
0.091177717 -0.022420749 1.705
0.095661864 -0.019431317 1.705
0.10492911 -0.018235544 1.7050002
0.11509318 -0.016441884 1.705
0.12480885 -0.014199808 1.705
0.13452449 -0.011210375 1.705
0.14573488 -0.011210375 1.705
0.1545537 -0.011060904 1.7050002
0.16591354 -0.010463017 1.705
0.17488186 -0.010463017 1.705
0.15993468 -0.0074735833 1.705
0.16591354 -0.0074735829 1.705
0.17488186 -0.0074735829 1.705
0.18470427 -0.0027759024 1.705
0.19580789 -0.0014947165 1.705
0.20178674 -0.0014947166 1.705
0.18086071 0.0014947166 1.705
0.19580787 0.0014947165 1.705
0.20477617 0.0014947165 1.705
0.2152392 0.0014947166 1.705
0.22570223 0.002242075 1.705
0.23467052 0.0059788665 1.705
0.25709128 0.0074735833 1.705
0.23765995 0.010463017 1.705
0.24513353 0.011459495 1.705
0.25559655 0.010463017 1.705
0.21623568 0.34727252 1.705
0.22570223 0.34677425 1.705
0.23168108 0.34527954 1.705
0.20776562 0.35424784 1.705
0.21523918 0.35424784 1.705
0.22532853 0.35387415 1.705
0.20656984 0.36321616 1.7050002
0.21553816 0.36441192 1.705
0.22370927 0.36371443 1.705
0.18982902 0.39311048 1.705
0.19281845 0.39311048 1.705
-0.16669203 -0.11262975 1.7130001
-0.16068511 -0.10962629 1.7130001
-0.15542905 -0.10737368 1.7130001
-0.14566781 -0.10662284 1.7129999
-0.13415454 -0.10361937 1.7130002
-0.12539445 -0.10136677 1.7130001
-0.12314186 -0.097612448 1.7130001
-0.11563321 -0.097612448 1.7129999
-0.10512109 -0.094608992 1.7130002
-0.097612448 -0.091605529 1.7130001
-0.093107261 -0.088602066 1.7130001
-0.08559861 -0.084597461 1.7129999
-0.079591691 -0.082595147 1.7130001
-0.072833903 -0.078840822 1.7130001
-0.064574391 -0.074585922 1.7129999
-0.055564005 -0.071582466 1.7129999
-0.043550171 -0.066076115 1.7130001
-0.036041521 -0.061570931 1.7130001
-0.03153633 -0.058567468 1.7130001
-0.025529409 -0.057065737 1.7130001
-0.016519031 -0.055564009 1.7130001
-0.00750865 -0.04955709 1.7130001
0.0045051901 -0.045051903 1.7130001
0.015517876 -0.041547865 1.7129999
0.034539789 -0.036041521 1.7130001
0.045051899 -0.032287192 1.7130001
0.055564012 -0.02853287 1.7129999
0.064574391 -0.027531719 1.7129999
0.075086504 -0.027782004 1.7130001
0.084997915 -0.026730794 1.7130001
0.094608992 -0.023527103 1.7129999
0.10962629 -0.01952249 1.7130001
0.11563321 -0.01952249 1.7129999
0.13515569 -0.014266435 1.7130001
0.14416608 -0.01351557 1.7130001
0.15467818 -0.014516723 1.7129999
0.16519029 -0.01351557 1.7130001
0.17720413 -0.01351557 1.7130001
0.18321106 -0.01051211 1.7130001
0.18321106 -0.00750865 1.7130001
0.19372317 -0.0045051901 1.7130001
0.20723873 -0.0015017299 1.7130001
0.21474738 -0.0015017301 1.7129999
