# .PCD v0.7 - Point Cloud Data file format
VERSION 0.7
FIELDS x y z
SIZE 4 4 4
TYPE F F F
COUNT 1 1 1
WIDTH 1464
HEIGHT 1
VIEWPOINT 0 0 0 1 0 0 0
POINTS 1464
DATA ascii
-0.095120966 -0.046481747 1.2330002
-0.08485806 -0.044774991 1.2336003
-0.074644655 -0.045439377 1.2340001
-0.065281279 -0.043642804 1.2342223
-0.05526156 -0.041391991 1.2360001
-0.044735547 -0.041330073 1.2360001
-0.03445721 -0.041825417 1.2360001
-0.022754759 -0.040091719 1.2360001
-0.018420519 -0.040091719 1.2360001
-0.24625216 -0.039421946 1.2320001
-0.07272359 -0.039241936 1.2320002
-0.064803198 -0.038881917 1.2320002
-0.055892758 -0.038611904 1.2320002
-0.045362242 -0.037261836 1.2320002
-0.035821769 -0.037981872 1.2320002
-0.025081238 -0.037801865 1.2320002
-0.014849776 -0.034721103 1.234182
-0.0059143985 -0.033233494 1.235077
0.005409033 -0.032455958 1.2340001
0.015152745 -0.032468665 1.2345002
0.025152151 -0.032375108 1.2355556
0.035261482 -0.032375108 1.2355556
0.044907544 -0.032627199 1.2360001
0.05526156 -0.032506801 1.2360001
0.064291231 -0.032145616 1.2360001
0.074765638 -0.031423241 1.2360001
0.08560124 -0.031423241 1.2360001
0.095353283 -0.031423241 1.2360001
0.10185464 -0.031423241 1.2360001
0.16795179 -0.031423241 1.2360001
0.17373079 -0.031423241 1.2360001
0.18528876 -0.031423241 1.2360001
0.19504081 -0.031423241 1.2360001
0.2056597 -0.032723513 1.2360001
0.21589933 -0.03386125 1.2360001
0.2248119 -0.034349807 1.2354287
0.23169336 -0.03248138 1.2350001
-0.012600623 -0.028441405 1.2320001
-0.0054002674 -0.028081387 1.2320002
0.0054002665 -0.02916144 1.2320001
0.015120747 -0.02916144 1.2320001
0.024841227 -0.028081387 1.2320002
0.036034506 -0.027786823 1.2320002
0.045362238 -0.027001336 1.2320002
0.055082723 -0.027001331 1.2320002
0.064803198 -0.027001329 1.2320002
0.074621394 -0.027038736 1.2336001
0.085470565 -0.027050426 1.2341335
0.095120966 -0.027025001 1.2330002
0.10522205 -0.025803555 1.2337145
0.11476531 -0.022738105 1.2350001
0.12508295 -0.024426324 1.2358183
0.13484485 -0.024186816 1.2352382
0.14504042 -0.02273255 1.2346668
0.1548647 -0.023401519 1.2342502
0.1646668 -0.02626268 1.2334287
0.17540671 -0.026739081 1.2340001
0.18519391 -0.025069304 1.2341669
0.19516517 -0.026606249 1.2336001
0.20468217 -0.028211914 1.2324446
0.21500179 -0.028090853 1.2324002
0.2246511 -0.028441405 1.2320002
0.2311314 -0.02916144 1.2320001
0.11664575 -0.018360907 1.2320001
0.12507017 -0.017928885 1.2320001
0.13500667 -0.018360907 1.2320001
0.27817217 0.16416343 1.2346667
0.28513408 0.16956837 1.2320001
0.28573215 0.17264372 1.2351112
0.29415393 0.17584601 1.2336001
0.29364476 0.18095452 1.2360001
0.025111239 0.46766308 1.2320002
0.024997378 0.47439408 1.2336472
0.027216746 0.4846749 1.2348573
0.031321548 0.48170376 1.2320001
0.027089 0.49085268 1.2360001
0.17784779 -0.49503362 1.2433333
0.18372513 -0.49400344 1.2416314
0.17790635 -0.48678669 1.245
0.18467134 -0.484943 1.2428
0.19039007 -0.48413479 1.2410001
0.18611002 -0.475575 1.2440588
0.19239858 -0.47543126 1.2410001
0.18882085 -0.4660491 1.245
0.19466281 -0.46461943 1.2416664
0.20220205 -0.46299759 1.2410001
0.19527918 -0.45496356 1.2431817
0.20272011 -0.45463943 1.2410001
0.19845134 -0.44648468 1.2445555
0.20311064 -0.44480139 1.2410001
0.19848347 -0.4384096 1.244
0.2056597 -0.43655148 1.2423334
0.21424066 -0.43313846 1.2428182
0.22085249 -0.4319135 1.2410001
0.20997307 -0.42973763 1.2410001
0.21696956 -0.42500556 1.2428666
0.23173194 -0.42321 1.2410001
0.20846695 -0.41584244 1.245
0.21537259 -0.41429123 1.2431053
0.22427174 -0.41077629 1.2410001
0.23441978 -0.41412243 1.2409999
0.21601899 -0.40585542 1.2445002
0.22503094 -0.40451708 1.2411903
0.23496188 -0.40447071 1.2421112
0.24043548 -0.40145108 1.2410001
0.22661543 -0.39585048 1.2424737
0.23557107 -0.39500412 1.2427779
0.24206741 -0.3947421 1.2410001
0.22835356 -0.38543817 1.2443334
0.23468393 -0.38493189 1.2441667
0.24309821 -0.38485092 1.2412666
0.22811306 -0.37764171 1.245
0.23488002 -0.37720507 1.245
0.24465829 -0.37484431 1.2426668
0.25131491 -0.37098867 1.2410001
0.24527679 -0.36445275 1.243
0.25131491 -0.36554897 1.2410001
0.24629314 -0.35476527 1.2444289
0.25218526 -0.3531464 1.2410001
0.24775916 -0.34623221 1.245
0.25475064 -0.34511447 1.2426841
0.26001847 -0.34270215 1.2410001
0.24921441 -0.33616659 1.245
0.25500861 -0.33502051 1.2439475
0.26074374 -0.33436128 1.2410001
0.24994205 -0.32743499 1.245
0.25544524 -0.32538682 1.2442942
0.26165035 -0.32475108 1.2410001
0.2708979 -0.3209433 1.2410001
0.25546348 -0.31555748 1.2450001
0.26388639 -0.31428775 1.2421427
0.25773814 -0.30513826 1.245
0.2648603 -0.30449206 1.244167
0.2708979 -0.30136031 1.2410001
0.2654424 -0.29489055 1.2440002
0.2708979 -0.29483265 1.2410001
0.26720539 -0.285831 1.2440768
0.27246603 -0.28357151 1.2422001
0.26958814 -0.27504539 1.245
0.27404097 -0.27482212 1.2432859
0.26958814 -0.26958814 1.245
0.27488044 -0.26460868 1.2430953
0.27683535 -0.25503963 1.2432499
0.28177732 -0.25131491 1.2410001
0.2773518 -0.2465291 1.2439332
0.28216198 -0.24406816 1.2415001
0.27831975 -0.23466174 1.245
0.28132161 -0.23443346 1.2437999
0.27831975 -0.2248387 1.245
0.28313017 -0.22428401 1.2431334
0.28437558 -0.21499367 1.2437274
0.28428531 -0.20515171 1.2435883
0.28446656 -0.19509697 1.2432611
0.27831975 -0.18663795 1.245
0.28443259 -0.18483362 1.2435457
0.28536102 -0.17530341 1.2430001
0.28416899 -0.16526468 1.2443333
0.28528869 -0.15542431 1.2436668
0.28700098 -0.14504625 1.2440001
0.28767574 -0.13565646 1.2445556
0.29048088 -0.13490497 1.2410001
0.28736478 -0.12559609 1.244
0.29048088 -0.12511349 1.2410001
0.28686944 -0.11605752 1.245
0.29071495 -0.11541229 1.2420001
-0.21064985 -0.07094425 1.245
-0.20446496 -0.071671881 1.245
-0.19497266 -0.072333366 1.245
-0.18437557 -0.07309676 1.2444668
-0.17492968 -0.072928704 1.245
-0.16449711 -0.072971225 1.245
-0.1549859 -0.073127151 1.245
-0.146036 -0.071380831 1.245
-0.24193807 -0.060757384 1.245
-0.23434989 -0.063460015 1.245
-0.22484048 -0.064465314 1.2432858
-0.21502782 -0.06547983 1.2435882
-0.20563737 -0.065302327 1.2426469
-0.19544451 -0.06696374 1.242
-0.18495035 -0.067452483 1.2410001
-0.17515889 -0.06745249 1.2410001
-0.16536738 -0.067815132 1.2410001
-0.1555759 -0.06745249 1.2410001
-0.14485192 -0.066438176 1.2423332
-0.13555862 -0.065165959 1.243
-0.12576997 -0.062807776 1.2444285
-0.11442033 -0.061666925 1.245
-0.10550684 -0.060757384 1.245
-0.098230496 -0.060029749 1.245
-0.25207409 -0.053817339 1.2426001
-0.24505061 -0.054458335 1.2423332
-0.23584904 -0.057329323 1.2416668
-0.22955604 -0.059836883 1.2410001
-0.20997307 -0.059836883 1.2410001
-0.121487 -0.059111584 1.2410001
-0.1144164 -0.056937963 1.243
-0.1047361 -0.055728391 1.2423334
-0.094724372 -0.054928973 1.2437502
-0.084797069 -0.053766165 1.2437693
-0.075507298 -0.053702407 1.2437499
-0.064905033 -0.052907854 1.2443333
-0.056209676 -0.051843874 1.245
-0.04474945 -0.051298149 1.245
-0.25185889 -0.046781562 1.2410001
-0.24913903 -0.046781559 1.2410001
-0.085947521 -0.048957448 1.2410001
-0.063166171 -0.048284754 1.2423334
-0.054639496 -0.04654811 1.243
-0.044967514 -0.046606004 1.2435
-0.034888994 -0.046884421 1.2436666
-0.025380123 -0.045001678 1.2432859
-0.015540012 -0.042806096 1.244
-0.0054572499 -0.040383648 1.245
0.0050206697 -0.04082023 1.245
0.19667928 -0.04082023 1.245
0.20603377 -0.041153584 1.2435
0.21529445 -0.042110041 1.2431818
0.22447675 -0.042749595 1.2418002
-0.011967377 -0.038078018 1.2410001
-0.004714421 -0.037715368 1.2410001
0.0054484834 -0.037051439 1.2429999
0.015255753 -0.037051443 1.243
0.025063023 -0.037051447 1.243
0.034870293 -0.037051439 1.243
0.044677559 -0.037051432 1.243
0.053727981 -0.036668334 1.2423334
0.065210849 -0.035952725 1.2427142
0.075712882 -0.035407539 1.2426666
0.085313015 -0.03521619 1.2423334
0.094774507 -0.034860473 1.2426001
0.10464455 -0.034883618 1.2434
0.11460225 -0.031652048 1.245
0.12571055 -0.034299064 1.2431173
0.13488401 -0.033599522 1.2435454
0.14409707 -0.032246679 1.2438571
0.15597424 -0.031631712 1.2442
0.16516168 -0.033787444 1.2431818
0.17516343 -0.035499685 1.2420666
0.18507539 -0.035507862 1.2423335
0.19482414 -0.035918497 1.2415333
0.20475094 -0.036772486 1.2410001
0.21541278 -0.038078018 1.2410001
0.23245722 -0.036627427 1.2410001
0.10988227 -0.029374469 1.2410001
0.11532199 -0.028286524 1.2410001
0.121487 -0.028649174 1.2410001
0.1381688 -0.029374469 1.2410001
0.14518 -0.028407408 1.2410001
0.15475993 -0.028558511 1.2410001
0.16210355 -0.029374469 1.2410001
0.28492367 0.17553408 1.2436668
0.29156882 0.17951065 1.2410001
0.2868529 0.18266903 1.245
0.29497418 0.18548115 1.242111
0.30233166 0.18663795 1.245
0.29578295 0.19209521 1.245
0.30014876 0.19100375 1.245
0.023623535 0.48517743 1.2436666
0.02833036 0.495812 1.243
0.031550355 0.49501422 1.2410001
0.15698349 -0.49582872 1.2586364
0.16399801 -0.49493954 1.2563337
0.17297307 -0.49492824 1.253077
0.15783243 -0.48894945 1.2590001
0.16499116 -0.48527363 1.2577204
0.17428724 -0.48483622 1.2534236
0.18081249 -0.48326251 1.25
0.16666222 -0.47460103 1.2589999
0.17515087 -0.47521698 1.2558639
0.1831857 -0.47350553 1.25125
0.1668199 -0.46498284 1.2589999
0.17536363 -0.46501639 1.2575188
0.1850976 -0.46470052 1.2534095
0.16886967 -0.45804518 1.2590001
0.1753777 -0.4548851 1.2582003
0.18596563 -0.4553186 1.2538098
0.19231875 -0.45203125 1.25
0.17675933 -0.44554043 1.2586002
0.1850028 -0.44549426 1.2558264
0.19365017 -0.44438782 1.2522501
0.17946541 -0.43552923 1.2590001
0.18533961 -0.43471065 1.2567781
0.19470662 -0.4345156 1.2548006
0.20482545 -0.43333867 1.2526193
0.2117749 -0.43050322 1.2516667
0.1799069 -0.42934838 1.2590001
0.18648311 -0.42601722 1.2586923
0.19488709 -0.42449662 1.257167
0.20515853 -0.42449564 1.2544447
0.21276 -0.42574352 1.251
0.18873669 -0.41610369 1.2590001
0.1963605 -0.41576537 1.2587649
0.20554467 -0.41503879 1.2549586
0.21149583 -0.41532084 1.25
0.19977392 -0.40948135 1.2590001
0.20555244 -0.40559921 1.2574211
0.21247573 -0.40389749 1.2522727
0.2202625 -0.40217084 1.25
0.20683825 -0.39584062 1.2583333
0.21472745 -0.39559028 1.2547147
0.22272097 -0.39442781 1.2523333
0.20694813 -0.38740692 1.2589999
0.21492578 -0.38517883 1.2583337
0.22418706 -0.38483226 1.2522225
0.21644245 -0.37544864 1.2585295
0.22511698 -0.37458885 1.253667
0.23555432 -0.37345439 1.251579
0.21699204 -0.36621541 1.2590001
0.2255657 -0.36505783 1.2567396
0.23636661 -0.36484689 1.2535456
0.21964094 -0.35871008 1.2590001
0.22718564 -0.35628083 1.2572501
0.23626971 -0.35532486 1.2555002
0.24213533 -0.3536897 1.2516667
0.22752467 -0.34641147 1.2589999
0.23505849 -0.34551519 1.2588185
0.2444088 -0.34420136 1.2536001
0.227066 -0.33462885 1.2589999
0.23509307 -0.33424422 1.2590003
0.24472374 -0.334438 1.2549092
0.25094584 -0.33203751 1.25
0.22847073 -0.32780582 1.2590001
0.23560245 -0.32508895 1.2589999
0.2459961 -0.32472607 1.2560002
0.25158492 -0.32221094 1.251
0.23950796 -0.31676862 1.2590001
0.24608381 -0.31521103 1.2582384
0.25378263 -0.3128725 1.2532222
0.24833775 -0.30573139 1.2590001
0.25386855 -0.30456841 1.2546365
0.25611427 -0.29514167 1.2560402
0.26151988 -0.29151356 1.2516667
0.25721416 -0.2857112 1.2583333
0.2636362 -0.28410712 1.2533159
0.25937498 -0.27703455 1.2590001
0.26521972 -0.27476612 1.255792
0.25937498 -0.26820478 1.2590001
0.26622361 -0.26512545 1.2564503
0.27067083 -0.26519167 1.25
0.26730016 -0.25544652 1.258
0.27176669 -0.25532916 1.25
0.26759145 -0.24575105 1.2581999
0.27300635 -0.24443385 1.2536473
0.26710105 -0.23509304 1.2589999
0.27399069 -0.23548162 1.2552085
0.26830262 -0.2253149 1.2574
0.27498436 -0.22469027 1.2527001
0.26820478 -0.2174335 1.2590001
0.27492675 -0.21498835 1.2562503
0.28091323 -0.21132635 1.2533334
0.27629775 -0.20475048 1.256737
0.28109223 -0.20752673 1.2525001
0.27629381 -0.19515435 1.2565004
0.28162917 -0.19177084 1.25
0.27622327 -0.18499687 1.2553501
0.28162917 -0.18081249 1.25
0.27716801 -0.17522274 1.2554212
0.28162917 -0.17533334 1.25
0.27729806 -0.16471702 1.2563336
0.28145021 -0.1659479 1.2508334
0.27816236 -0.15507796 1.2585555
0.28203273 -0.15450655 1.2524999
0.2788741 -0.14532357 1.2589999
0.28329048 -0.14446476 1.2555628
0.28407389 -0.13462554 1.255706
0.27924201 -0.12472073 1.2590001
0.28324997 -0.12479308 1.2552667
0.28328824 -0.11968473 1.2525001
-0.22295211 -0.096023932 1.2590001
-0.2174335 -0.096023932 1.2590001
-0.24314788 -0.080315813 1.2550001
-0.23509306 -0.082043424 1.2589999
-0.22449732 -0.082558498 1.2589999
-0.21469359 -0.084473386 1.2588185
-0.20534809 -0.083988942 1.2585
-0.1954934 -0.084016822 1.2583685
-0.1853077 -0.084492609 1.2581999
-0.1747068 -0.083729833 1.2575263
-0.16490662 -0.084551789 1.2574003
-0.15527771 -0.082823083 1.2574002
-0.14509717 -0.082439631 1.2589999
-0.13796541 -0.0805718 1.2590001
-0.24368148 -0.07443697 1.2536365
-0.23487604 -0.074789785 1.2535263
-0.22496478 -0.074546427 1.2545003
-0.21518275 -0.075118832 1.2531252
-0.20541655 -0.076124154 1.2518182
-0.19575341 -0.076953791 1.2514286
-0.18519582 -0.078899994 1.25
-0.17467582 -0.077365831 1.25
-0.1662014 -0.077438883 1.25
-0.15388204 -0.077490754 1.2508334
-0.14491233 -0.075371079 1.2515385
-0.13581774 -0.074293673 1.2560002
-0.1251657 -0.073188312 1.2585555
-0.11539984 -0.074229829 1.2566876
-0.10681589 -0.07345891 1.2589999
-0.2525503 -0.063195214 1.2558
-0.246151 -0.065360658 1.2511765
-0.23752187 -0.067667708 1.25
-0.22464584 -0.069037497 1.25
-0.13251004 -0.067590371 1.2521429
-0.12468654 -0.067394629 1.2520001
-0.11526513 -0.067204252 1.2503847
-0.10426944 -0.066525333 1.2535883
-0.094664529 -0.064987518 1.25415
-0.085245274 -0.064505756 1.2550954
-0.075179383 -0.063660689 1.255706
-0.065185487 -0.062990099 1.2549375
-0.055557519 -0.062393595 1.2574
-0.045230117 -0.061307933 1.2584286
-0.25094584 -0.058079164 1.25
-0.09095417 -0.058079164 1.25
-0.086570829 -0.058079164 1.25
-0.074516669 -0.058079164 1.25
-0.063832298 -0.057257287 1.25
-0.054278817 -0.055743579 1.2508334
-0.04503778 -0.055104211 1.2530529
-0.035259712 -0.054768231 1.2543335
-0.026126923 -0.05399365 1.2568572
-0.015426529 -0.053557146 1.2570001
-0.005327357 -0.053461913 1.2573334
0.0047775409 -0.052160498 1.2570001
0.012140957 -0.051874995 1.2590001
0.035319149 -0.051874995 1.2590001
0.047460105 -0.051874995 1.2590001
0.052978717 -0.051874995 1.2590001
0.096023932 -0.051874995 1.2590001
0.1041179 -0.051874995 1.2590001
0.1799069 -0.051874995 1.2590001
0.18542552 -0.051874995 1.2590001
0.19585802 -0.05351685 1.2586666
0.20518382 -0.054054979 1.2583333
0.21385007 -0.053064734 1.2581111
-0.023450833 -0.048874162 1.25
-0.014693809 -0.047378577 1.251
-0.0054866183 -0.046083737 1.2515001
0.005597298 -0.045983575 1.2517502
0.015381115 -0.04504795 1.2531002
0.025277106 -0.045066617 1.2536001
0.035159465 -0.045056939 1.2533503
0.045059439 -0.045067497 1.2536402
0.054973491 -0.045082666 1.2541002
0.0646322 -0.044737749 1.2551308
0.075329632 -0.04371576 1.2534448
0.0851916 -0.045204431 1.2546366
0.095276423 -0.044582292 1.2547144
0.10485083 -0.045380276 1.2543916
0.11493424 -0.044413421 1.2570003
0.12480112 -0.044837631 1.2565004
0.13456671 -0.044750106 1.2571504
0.14474933 -0.044787943 1.2576669
0.15484621 -0.04422754 1.2576669
0.16482942 -0.044794459 1.2578573
0.17511134 -0.045161899 1.2562804
0.18514641 -0.044919472 1.2553335
0.19466999 -0.045936584 1.2545717
0.20466192 -0.046774242 1.2532145
0.21441785 -0.04754838 1.2523078
0.22158335 -0.048713446 1.2533334
0.056983329 -0.038354166 1.25
0.064106256 -0.038354166 1.25
0.07342083 -0.038354166 1.25
0.084379166 -0.038354166 1.25
0.095337503 -0.038354166 1.25
0.10629583 -0.038354166 1.25
0.11512209 -0.036182955 1.2506667
0.12382916 -0.038354166 1.25
0.13665217 -0.037946515 1.251
0.14537896 -0.036676664 1.2525001
0.1547185 -0.036213636 1.2516668
0.16471688 -0.03777181 1.2514286
0.27943751 0.1742375 1.25
0.28338251 0.17774417 1.25
0.28674304 0.18519585 1.25
0.2962403 0.19469304 1.25
0.021916667 0.4898375 1.25
0.018763296 0.49888295 1.2590001
0.022799034 0.49642959 1.2535
0.14760786 -0.49943525 1.266
0.15284184 -0.49562949 1.2659999
0.15686943 -0.4855423 1.2658181
0.16141421 -0.48276511 1.2640001
0.15720971 -0.47477698 1.2673331
0.16178358 -0.47537774 1.2640001
0.15742284 -0.46609518 1.2675556
0.16227131 -0.46462631 1.2654544
0.1589607 -0.45909631 1.268
0.16541801 -0.45496178 1.2663999
0.17007683 -0.45020339 1.268
0.1647411 -0.44709086 1.268
0.17180458 -0.44483012 1.266
0.16785361 -0.43241757 1.268
0.17480035 -0.43489966 1.2651999
0.17572549 -0.42507407 1.2659999
0.1827556 -0.42426839 1.2646154
0.17785813 -0.41907823 1.268
0.18638897 -0.41663715 1.2664999
0.19324744 -0.41220197 1.2656666
0.18786265 -0.40462726 1.268
0.19469348 -0.40483972 1.2670908
0.20129119 -0.40432316 1.2645714
0.18786265 -0.39906919 1.268
0.19480671 -0.39474851 1.2670474
0.20240374 -0.395053 1.2644
0.19723289 -0.38668758 1.2675
0.20441584 -0.38409954 1.2651999
0.21164837 -0.38008058 1.2640001
0.20510097 -0.3745364 1.2664347
0.21164837 -0.37454003 1.2640001
0.20635778 -0.36501536 1.2655555
0.21408659 -0.36346143 1.2643077
0.20787169 -0.35793948 1.268
0.2145548 -0.35450852 1.2669998
0.22260426 -0.353827 1.2652308
0.21696672 -0.34490326 1.2679999
0.22414413 -0.34454334 1.2657499
0.23602672 -0.34462118 1.2640001
0.21787621 -0.33570725 1.268
0.22271109 -0.33402619 1.2658461
0.22658345 -0.32489637 1.2658824
0.23501936 -0.32306349 1.2640001
0.22691885 -0.31537524 1.2675998
0.23408988 -0.31425127 1.2649523
0.24311861 -0.31182122 1.2640001
0.22788073 -0.30791688 1.268
0.23445314 -0.30505362 1.2669563
0.24428715 -0.30442709 1.2640001
0.2353351 -0.29523146 1.2679999
0.24479721 -0.29450548 1.2650908
0.25154021 -0.29475638 1.2640001
0.24671264 -0.28584304 1.2662499
0.2534962 -0.28342208 1.2642858
0.24788977 -0.27679172 1.268
0.25385094 -0.27473953 1.2659999
0.26040506 -0.27259424 1.2640001
0.25537616 -0.26495558 1.2656841
0.26135486 -0.26325449 1.2640001
0.2565048 -0.25483739 1.2679999
0.26249471 -0.25463533 1.2643636
0.25789428 -0.24455494 1.268
0.26262128 -0.2448916 1.2640001
0.25773549 -0.23677363 1.268
0.26251417 -0.23454827 1.2643077
0.2649304 -0.22499706 1.2653333
0.2653054 -0.21396738 1.2662499
0.26541439 -0.20483871 1.2653912
0.27148613 -0.20499973 1.2640001
0.26677972 -0.1949185 1.2659999
0.27148613 -0.19502677 1.2640001
0.26826116 -0.18562461 1.2662222
0.27160791 -0.18386908 1.2645714
0.2678988 -0.17452328 1.268
0.2716434 -0.17486642 1.2655385
0.26817304 -0.16375011 1.2672001
0.27202374 -0.16522847 1.2649231
0.26812732 -0.15517175 1.2673334
0.27280724 -0.15470187 1.265
0.2678988 -0.14673296 1.268
0.27388787 -0.14487518 1.2648696
0.2661202 -0.13139269 1.268
0.27378905 -0.13487822 1.2658181
0.28035098 -0.13518901 1.2640001
0.27539459 -0.12716313 1.265
0.28035098 -0.12964848 1.2640001
-0.21231815 -0.11004972 1.268
-0.2118735 -0.10382469 1.268
-0.20787169 -0.10115682 1.268
-0.19897878 -0.10115682 1.268
-0.2338105 -0.09197285 1.2640001
-0.22405918 -0.093302563 1.2640001
-0.21475108 -0.095223293 1.2640001
-0.20557259 -0.095282763 1.2661052
-0.19499478 -0.095071852 1.2664999
-0.18529788 -0.093539633 1.2671999
-0.17508033 -0.094590992 1.2670767
-0.1653441 -0.093519285 1.2658181
-0.15532479 -0.093133569 1.2668571
-0.14480138 -0.091474317 1.2673334
-0.13895166 -0.091152295 1.268
-0.23233305 -0.086062945 1.2640001
-0.22568439 -0.087909788 1.2640001
-0.218297 -0.089756638 1.2640001
-0.20455649 -0.089313395 1.2640001
-0.19502677 -0.089756638 1.2640001
-0.1847768 -0.088925555 1.2640001
-0.176743 -0.089202583 1.2640001
-0.16363043 -0.089756638 1.2640001
-0.15466002 -0.08880683 1.2640001
-0.14516199 -0.087762058 1.2640001
-0.13468078 -0.084334686 1.2657499
-0.12446286 -0.083400801 1.2659999
-0.11501138 -0.083422787 1.2661538
-0.10567457 -0.08272928 1.2666667
-0.095320851 -0.081981488 1.268
-0.085594222 -0.081147775 1.268
-0.07447809 -0.081147775 1.268
-0.067808412 -0.081147775 1.268
-0.1340809 -0.078675576 1.2640001
-0.12570854 -0.077690586 1.2640001
-0.11413498 -0.078675576 1.2640001
-0.10374601 -0.076728098 1.2650908
-0.094847135 -0.07573387 1.2662221
-0.084935561 -0.075200662 1.2655555
-0.074866176 -0.075733878 1.2662221
-0.065009505 -0.075253271 1.2664443
-0.055024859 -0.072254874 1.2679999
-0.044464536 -0.071143255 1.268
-0.035015818 -0.071699075 1.2679999
-0.02512246 -0.070476286 1.268
-0.0166742 -0.070031643 1.268
-0.083108 -0.069810718 1.2640001
-0.075351253 -0.069810718 1.2640001
-0.064885803 -0.068825737 1.2640001
-0.055270579 -0.067308463 1.2645714
-0.045432374 -0.065719262 1.2640001
-0.035145048 -0.064490899 1.2644706
-0.025280667 -0.064172551 1.2654736
-0.015264959 -0.063844122 1.2665
-0.0051875287 -0.061879814 1.268
0.0033348401 -0.061138734 1.268
0.01519205 -0.061138734 1.268
0.02334388 -0.061138734 1.268
0.19715445 -0.061646324 1.2670001
0.20449968 -0.062395521 1.2664
0.21087164 -0.062153913 1.266
-0.034351308 -0.058729652 1.2640001
-0.02363961 -0.057990912 1.2640001
-0.015519922 -0.058021888 1.2646667
-0.0058245733 -0.057991497 1.266
0.0051802234 -0.056620102 1.2663332
0.015090632 -0.055989083 1.2668235
0.024750466 -0.055315807 1.2663528
0.034563564 -0.056129556 1.2670586
0.044730786 -0.055679105 1.2665713
0.055108804 -0.056222606 1.2667499
0.064389713 -0.054399792 1.2663332
0.074457921 -0.053899515 1.2676666
0.084806308 -0.054234639 1.2664615
0.094541349 -0.054746628 1.2664615
0.10521944 -0.054780826 1.2658181
0.11412796 -0.053492695 1.2674285
0.12500986 -0.053513836 1.2664001
0.13463052 -0.054846831 1.2663999
0.14428064 -0.054385483 1.2659999
0.1549132 -0.054088987 1.267077
0.1646716 -0.054029841 1.2663332
0.17493078 -0.054858301 1.2666665
0.18515198 -0.056483891 1.266857
0.19406946 -0.057945032 1.265
0.20499973 -0.058729656 1.2640001
0.21275648 -0.057621546 1.2640001
0.068702608 -0.049864799 1.2640001
0.075351253 -0.049864799 1.2640001
0.083108 -0.049864799 1.2640001
0.09197285 -0.049864799 1.2640001
0.11745931 -0.049864799 1.2640001
0.12595479 -0.049864799 1.2640001
0.13851333 -0.049864799 1.2640001
0.14442323 -0.049864799 1.2640001
0.15402682 -0.049864799 1.2640001
0.16289169 -0.049864799 1.2640001
0.135566 -0.49632835 1.278
0.14440691 -0.49508575 1.2752917
0.15177554 -0.49327055 1.273
0.14639632 -0.48885915 1.278
0.15262459 -0.48517981 1.2747858
0.14901054 -0.47167999 1.2780001
0.15268184 -0.47571158 1.2749999
0.14732997 -0.464771 1.278
0.15359749 -0.46429142 1.27425
0.1480502 -0.45535445 1.278
0.15524189 -0.45523611 1.2740002
0.1640515 -0.45197865 1.273
0.14789015 -0.44927236 1.2780001
0.15544035 -0.44526345 1.2749232
0.16509312 -0.44409227 1.273
0.17074749 -0.44193467 1.273
0.15709192 -0.43598923 1.2764615
0.16428047 -0.43477643 1.2738335
0.17074747 -0.43561068 1.273
0.15797357 -0.42462403 1.2780001
0.1646321 -0.42456794 1.2756785
0.17181401 -0.42339337 1.2735554
0.15797357 -0.41678137 1.2780001
0.16493173 -0.41471744 1.278
0.17529765 -0.41492289 1.2744287
0.18389146 -0.41428274 1.2729999
0.16917738 -0.40557757 1.2780001
0.17568393 -0.40576819 1.2757274
0.18390453 -0.40492612 1.2733126
0.16917738 -0.39997566 1.2780001
0.17477928 -0.39549413 1.278
0.18412893 -0.39523879 1.2744287
0.19083543 -0.39469084 1.273
0.16843045 -0.38653111 1.2780001
0.17533946 -0.38597092 1.278
0.18471356 -0.3856484 1.2757084
0.19430742 -0.38390282 1.2730001
0.1859241 -0.37603498 1.278
0.19530326 -0.37506759 1.2750455
0.18730716 -0.36554945 1.278
0.19585277 -0.36503983 1.2747393
0.20358969 -0.36238006 1.2729999
0.18755162 -0.356729 1.278
0.19524378 -0.35508344 1.2766364
0.20427556 -0.35417864 1.2740527
0.21092337 -0.35153896 1.273
0.18934421 -0.34843817 1.2780001
0.19643997 -0.34694436 1.278
0.20543763 -0.34580749 1.2765714
0.21266639 -0.34439638 1.2734165
0.20839067 -0.33499363 1.278
0.21407688 -0.33425528 1.2751875
0.20749435 -0.32468611 1.278
0.21604176 -0.32491875 1.2751739
0.22272106 -0.32379845 1.2729999
0.2070666 -0.31666014 1.278
0.21579586 -0.31465241 1.2765417
0.22350888 -0.31393969 1.2734998
0.21623333 -0.30474338 1.278
0.22446547 -0.30448627 1.2738698
0.2310113 -0.30020311 1.273
0.21679354 -0.29484665 1.278
0.22471267 -0.29445913 1.2763335
0.23419987 -0.29350713 1.2729999
0.22611836 -0.2849727 1.2765294
0.23520893 -0.28501493 1.2736523
0.24315427 -0.2829538 1.273909
0.2275745 -0.27372614 1.2768461
0.23473015 -0.27384609 1.2750001
0.24431339 -0.27390039 1.2757273
0.22855753 -0.26553008 1.278
0.23450415 -0.2646682 1.278
0.24556699 -0.2645981 1.27675
0.25109926 -0.26449123 1.273
0.24744107 -0.25527862 1.2771666
0.25221527 -0.25444722 1.2729999
0.24872437 -0.24536324 1.278
0.25353888 -0.24545926 1.2749231
0.24888442 -0.23575997 1.278
0.25472683 -0.23501468 1.2758124
0.26002723 -0.2310113 1.273
0.24984474 -0.22594328 1.2780001
0.25544664 -0.22519633 1.278
0.26177496 -0.22488919 1.2749999
0.25544667 -0.21511295 1.278
0.26142225 -0.21622434 1.2729999
0.25685608 -0.20570962 1.2775832
0.26023149 -0.20438433 1.2739999
0.25880778 -0.19494613 1.2780001
0.26249951 -0.1946861 1.2750832
0.25880778 -0.1848627 1.2780001
0.26351905 -0.18482746 1.2759411
0.25880778 -0.17477928 1.2780001
0.26413673 -0.17505665 1.2754999
0.25880778 -0.16917738 1.2780001
0.26392788 -0.16504966 1.2768888
0.25880778 -0.15237167 1.2780001
0.26419449 -0.15496457 1.2757778
0.25816756 -0.14356868 1.278
0.26427197 -0.14481971 1.2753685
0.24984474 -0.13780674 1.2780001
0.25606731 -0.13642116 1.2755001
0.26464 -0.13682121 1.273
-0.21224867 -0.1050056 1.27425
-0.20472874 -0.10320548 1.276125
-0.19456477 -0.10287552 1.2754999
-0.18502936 -0.10290616 1.2774444
-0.17477927 -0.10195458 1.2780001
-0.16469586 -0.10195458 1.2780001
-0.1512513 -0.10195458 1.2780001
-0.14452901 -0.10195458 1.2780001
-0.2019954 -0.099323705 1.273
-0.19306743 -0.099323712 1.273
-0.18487923 -0.098422863 1.2737142
-0.17562437 -0.099557772 1.276
-0.16537878 -0.098590054 1.2758571
-0.15518922 -0.09781152 1.2750832
-0.14463755 -0.097199477 1.2763332
-0.13474061 -0.092811815 1.2754999
-0.12523709 -0.091693632 1.2754999
-0.11526106 -0.091764636 1.2765
-0.10598795 -0.091198936 1.2780001
-0.095232293 -0.090750776 1.2780001
-0.088510022 -0.090750776 1.2780001
-0.13168761 -0.088163733 1.273
-0.12610762 -0.088163733 1.273
-0.11494765 -0.088163733 1.273
-0.10415969 -0.087419741 1.2729999
-0.094454043 -0.086633287 1.2750832
-0.085081987 -0.085257046 1.2756922
-0.074799769 -0.085242622 1.2759999
-0.064873084 -0.085009865 1.2758571
-0.056019001 -0.081787743 1.2780001
-0.053787444 -0.077427648 1.2738332
-0.044714019 -0.077132709 1.2750832
-0.034142863 -0.077490121 1.2753075
-0.024600143 -0.07548099 1.2754999
-0.015057425 -0.073921688 1.2760768
-0.0049566734 -0.071465373 1.2765714
0.0044815196 -0.071330868 1.278
0.014552666 -0.071649089 1.277
0.024648361 -0.07058394 1.2780001
0.18665531 -0.071032092 1.2780001
0.19473444 -0.071798123 1.2774444
-0.011159967 -0.066959806 1.273
-0.0040175878 -0.066290207 1.2729999
0.0047238842 -0.065520994 1.2733846
0.014376663 -0.065318629 1.273
0.024633635 -0.064968832 1.2733332
0.034657918 -0.064846374 1.2752501
0.044945765 -0.064627044 1.2753334
0.054903515 -0.064675942 1.2753686
0.064587601 -0.064074554 1.2753075
0.07409925 -0.063722022 1.2751428
0.085333295 -0.063570283 1.2761817
0.095007569 -0.063714661 1.275
0.10471481 -0.062979832 1.2752222
0.11457989 -0.061954174 1.2771667
0.12529682 -0.062650874 1.276125
0.13467254 -0.063596569 1.2760768
0.14435369 -0.063787483 1.2764615
0.15499513 -0.063670747 1.2776153
0.16481376 -0.064501621 1.27675
0.17522213 -0.064229451 1.2763333
0.18479219 -0.065055586 1.2758946
0.19488682 -0.065524481 1.274875
0.20534338 -0.066959806 1.2729999
0.21092337 -0.065843806 1.273
0.041291878 -0.059147824 1.273
0.064727806 -0.059147824 1.273
0.074771777 -0.058310822 1.2729999
0.084815748 -0.059147824 1.273
0.094859712 -0.059147824 1.273
0.10490368 -0.059147824 1.273
0.11612796 -0.057609037 1.2748181
0.12483221 -0.058191251 1.2729999
0.1350356 -0.059147824 1.273
0.14507957 -0.059147824 1.273
0.15416697 -0.058510106 1.2729999
0.1653907 -0.058701426 1.273
0.17409548 -0.059147824 1.273
0.13546962 -0.49201041 1.2848182
0.14059542 -0.49152157 1.2830001
0.12759358 -0.48666221 1.2880001
0.1354976 -0.48892051 1.2880001
0.14506693 -0.4852826 1.2853916
0.13850866 -0.47461805 1.2880001
0.14446463 -0.47559676 1.2852225
0.13813227 -0.46596122 1.2880001
0.14279519 -0.46441385 1.28425
0.13888504 -0.45956269 1.2880001
0.14380415 -0.45543775 1.2872858
0.14853519 -0.44535562 1.2846667
0.15184306 -0.44203198 1.2830001
0.14858833 -0.43674761 1.286
0.15256676 -0.43381846 1.2853334
0.14791821 -0.42455915 1.2880001
0.15319827 -0.42477521 1.2843336
0.14656325 -0.41665512 1.2880001
0.15415706 -0.41525763 1.2852731
0.1635406 -0.41098851 1.2830001
0.1566691 -0.40790421 1.2880001
0.16430363 -0.40468708 1.2851055
0.15920968 -0.3918139 1.2880001
0.16579576 -0.39494911 1.2849051
0.16596408 -0.38433337 1.2847649
0.17458457 -0.38265073 1.2848183
0.16711371 -0.37826413 1.2880001
0.17533264 -0.37548542 1.2870003
0.18221167 -0.37342143 1.2830001
0.17642918 -0.36570233 1.2880001
0.18283997 -0.36393893 1.2852727
0.17840517 -0.35793948 1.2880001
0.18417512 -0.35404104 1.2864616
0.19008501 -0.35205093 1.2830001
0.18737137 -0.34791112 1.286
0.19467825 -0.34473541 1.2845627
0.20313224 -0.34170312 1.2830001
0.19664979 -0.33547544 1.2880001
0.20364755 -0.33528721 1.2834167
0.19826719 -0.32467905 1.2874446
0.20335719 -0.3264063 1.2830001
0.19850399 -0.31774187 1.2880001
0.20428726 -0.31426963 1.2836668
0.2065587 -0.30597866 1.2864616
0.21145549 -0.30481085 1.2830001
0.20813936 -0.29658923 1.2880001
0.21331708 -0.29412964 1.2855002
0.20889214 -0.2879324 1.2880001
0.21612474 -0.28666243 1.2873751
0.22196768 -0.28322548 1.2852727
0.21792531 -0.27889922 1.2880001
0.22238673 -0.27527869 1.2856923
0.21792531 -0.26986605 1.2880001
0.22367159 -0.2650477 1.2860003
0.23732504 -0.26375699 1.2830001
0.24182412 -0.26206985 1.2830001
0.22842975 -0.25832146 1.2867501
0.23485437 -0.2562665 1.2855003
0.24252301 -0.2549856 1.2843335
0.23556611 -0.24507447 1.2865715
0.24308042 -0.24520433 1.284765
0.23625898 -0.2352214 1.2856923
0.24398875 -0.2346497 1.2837503
0.23747261 -0.22554092 1.2872858
0.24423413 -0.22493362 1.284429
0.25082222 -0.22495267 1.2830001
0.2465768 -0.2150519 1.2843336
0.25119713 -0.21407996 1.2830001
0.24688023 -0.20517118 1.2859167
0.25307176 -0.20419565 1.2830001
0.23824994 -0.19760066 1.2880001
0.24768625 -0.19577837 1.2871667
0.25424537 -0.19462112 1.2832503
0.24878865 -0.18593283 1.2880001
0.25444087 -0.1846409 1.2842501
0.25453436 -0.17541204 1.285059
0.25666517 -0.16498253 1.2841114
0.25611344 -0.15501966 1.2848752
0.25556585 -0.1451454 1.2852727
-0.18450257 -0.11223718 1.2880001
-0.17486094 -0.11394368 1.2868463
-0.16608939 -0.1129437 1.286889
-0.15808053 -0.11178552 1.2880001
-0.14453077 -0.11178552 1.2880001
-0.21115042 -0.10726893 1.2880001
-0.20575817 -0.10811529 1.2865715
-0.19433986 -0.10799306 1.2846667
-0.18433622 -0.10760237 1.2830001
-0.17552115 -0.10688794 1.2834167
-0.165382 -0.10688086 1.2833334
-0.1550363 -0.10638943 1.2853531
-0.14457229 -0.10646159 1.2840717
-0.13570717 -0.10331398 1.2869285
-0.12574588 -0.10193114 1.2880001
-0.11517295 -0.10162319 1.2880001
-0.10613979 -0.10049405 1.2880001
-0.094848312 -0.10049405 1.2880001
-0.085815139 -0.10049405 1.2880001
-0.13474664 -0.097404502 1.2830001
-0.12484872 -0.096729651 1.2830001
-0.11483544 -0.096824989 1.28425
-0.10442721 -0.09590175 1.2847859
-0.094634622 -0.09576305 1.2850834
-0.084813744 -0.09516447 1.2859412
-0.075282462 -0.094257534 1.2862353
-0.065542862 -0.09421099 1.2858572
-0.055956818 -0.0936938 1.2876431
-0.045843355 -0.091912538 1.2880001
-0.036132693 -0.091460876 1.2880001
-0.023712078 -0.091460876 1.2880001
-0.019195493 -0.091460876 1.2880001
-0.082107723 -0.088856302 1.2830001
-0.076483905 -0.088856302 1.2830001
-0.061861984 -0.088856302 1.2830001
-0.054832209 -0.086325593 1.2830002
-0.04506642 -0.085631877 1.2851876
-0.034935601 -0.085652985 1.2855003
-0.02479301 -0.085652977 1.2855
-0.015508782 -0.084605455 1.2867501
-0.00677488 -0.08016941 1.2880001
0.00677488 -0.08016941 1.2880001
0.014678908 -0.08016941 1.2880001
0.18352291 -0.081691064 1.2865715
-0.02362003 -0.079858199 1.2830001
-0.013670363 -0.078016445 1.2844287
-0.0041324114 -0.076276042 1.2857779
0.0045065051 -0.075959399 1.2855
0.01463069 -0.076544397 1.2840002
0.024809083 -0.075557858 1.2863334
0.034956619 -0.073827922 1.2862353
0.045088336 -0.074401222 1.2858126
0.055256594 -0.073302485 1.2863334
0.065343224 -0.073139027 1.287091
0.074452452 -0.073325492 1.2867501
0.084618486 -0.073339306 1.2870002
0.09464103 -0.072580405 1.286889
0.10497162 -0.072237775 1.2875001
0.11178551 -0.07339453 1.2880001
0.12646443 -0.071136236 1.2880001
0.13584229 -0.072887644 1.2870001
0.14472061 -0.072549723 1.2863334
0.15488374 -0.072472923 1.2861819
0.16499163 -0.073092692 1.2856923
0.17474422 -0.072606586 1.286
0.18481782 -0.075507239 1.2855002
0.19008501 -0.075359143 1.2830001
0.041616242 -0.068610564 1.2830001
0.052863877 -0.068610564 1.2830001
0.06636104 -0.068610564 1.2830001
0.077233747 -0.067860715 1.2830001
0.084807158 -0.068160661 1.2830001
0.094480112 -0.068610564 1.2830001
0.10549861 -0.06780041 1.2836251
0.11527888 -0.066708989 1.2857274
0.12461586 -0.067276284 1.2848182
0.13497159 -0.068610564 1.2830001
0.14584433 -0.068235643 1.2830001
0.15521733 -0.068610564 1.2830001
0.1653402 -0.068610564 1.2830001
0.17321354 -0.068610564 1.2830001
0.13025513 -0.49043888 1.2920001
0.12710044 -0.48344174 1.2945
0.13454729 -0.48495445 1.2919999
0.11938885 -0.47300726 1.2970001
0.12516539 -0.47416517 1.2935625
0.13327555 -0.47495925 1.2919999
0.11923543 -0.46671864 1.2953334
0.12521957 -0.46515098 1.2958891
0.13336566 -0.46415287 1.2937647
0.1273481 -0.45595169 1.2970001
0.13498913 -0.45512182 1.294
0.14271432 -0.45192868 1.2920001
0.13603279 -0.44518793 1.294917
0.14384699 -0.44513276 1.2919999
0.13741969 -0.43452659 1.2955
0.14449419 -0.43493888 1.2919999
0.13832931 -0.42498511 1.2955
0.14368518 -0.42506859 1.2919999
0.13840838 -0.41543189 1.2970001
0.14448382 -0.41394886 1.2936666
0.15517351 -0.41115317 1.2920001
0.13871847 -0.40705913 1.2970001
0.14563483 -0.40497908 1.2956113
0.15407467 -0.40448231 1.2927895
0.14605752 -0.39455172 1.2970001
0.15559092 -0.39555585 1.2946192
0.14586556 -0.38383105 1.2970001
0.154918 -0.38472077 1.2924545
0.16242249 -0.3848756 1.2920001
0.1459955 -0.37681395 1.2970001
0.15543279 -0.37558731 1.2950952
0.16466767 -0.37444499 1.29275
0.17178576 -0.37188783 1.2920001
0.14667773 -0.36953691 1.2970001
0.1552055 -0.36584157 1.2970002
0.16416614 -0.36477971 1.2931905
0.17232512 -0.36358172 1.2919999
0.18009187 -0.36131641 1.2920001
0.15804809 -0.35816655 1.2970001
0.16484466 -0.35524237 1.2953335
0.1742021 -0.35542664 1.2919999
0.18009187 -0.35452053 1.2920001
0.16588488 -0.34540841 1.2960627
0.17442861 -0.34545925 1.2919999
0.18397526 -0.34481204 1.2919999
0.19141841 -0.34319392 1.2920001
0.16752343 -0.33637336 1.2970001
0.17479792 -0.33484 1.2947501
0.18447313 -0.33511761 1.2924761
0.19187148 -0.33503884 1.2920001
0.1766955 -0.32564729 1.2970001
0.18519574 -0.32555982 1.2947084
0.19362773 -0.32541242 1.2927142
0.17737772 -0.31495917 1.2970001
0.18552651 -0.31514865 1.2970004
0.19428493 -0.31444141 1.2929999
0.20104598 -0.31374496 1.2920001
0.18846384 -0.30529433 1.2970001
0.19534934 -0.30500016 1.2943685
0.20236738 -0.30373991 1.2919999
0.18988512 -0.29904065 1.2970001
0.19645393 -0.29610199 1.2965833
0.20406768 -0.29413554 1.2923124
0.21180618 -0.29109192 1.2920001
0.1984129 -0.28710175 1.2970001
0.20488653 -0.28505 1.2945001
0.21432319 -0.28404427 1.2919999
0.20664923 -0.27646777 1.2956668
0.21437912 -0.27500018 1.2924999
0.20807771 -0.26720363 1.2970001
0.21443029 -0.26477608 1.2953335
0.2208674 -0.26164293 1.2920001
0.21569031 -0.25534314 1.2964447
0.22500013 -0.25446463 1.2926818
0.23219393 -0.25144905 1.2920001
0.21814862 -0.24673697 1.2970001
0.2257421 -0.24503055 1.2939999
0.23219393 -0.24465312 1.2920001
0.21944807 -0.23991473 1.2970001
0.22600059 -0.23548406 1.2954785
0.23264699 -0.23491231 1.2920001
0.22779296 -0.22552472 1.2953334
0.23411074 -0.22487524 1.2919999
0.24125516 -0.2208674 1.2920001
0.22740734 -0.21489994 1.2970001
0.23454091 -0.21521018 1.2936667
0.24238783 -0.21520413 1.2919999
0.22740734 -0.20694068 1.2970001
0.23490864 -0.20505102 1.2934583
0.24238782 -0.20501025 1.2919999
0.23459728 -0.19495499 1.2941053
0.24331452 -0.19450746 1.2919999
0.23604336 -0.18497975 1.2945001
0.24458875 -0.18447921 1.2936667
0.25031638 -0.18009187 1.2920001
0.23714851 -0.17526084 1.2962308
0.24547994 -0.17501816 1.2963752
0.25076944 -0.17374901 1.2920001
0.23855028 -0.16577995 1.2970001
0.24673697 -0.16487031 1.2970002
0.25144905 -0.16536739 1.2919999
-0.17351179 -0.15213551 1.2970001
-0.16941847 -0.15122588 1.2970001
0.23991473 -0.15691106 1.2970001
0.24719176 -0.15509179 1.2970001
0.25144902 -0.15517351 1.2919999
-0.18135735 -0.14383514 1.2970001
-0.17487624 -0.14531328 1.2970002
-0.16616979 -0.14472851 1.2970001
-0.1553192 -0.14258441 1.2970001
-0.1489518 -0.14212959 1.2970001
0.248253 -0.1455407 1.2970001
0.2519334 -0.14526016 1.2945
-0.18192586 -0.13530737 1.2970001
-0.17486934 -0.1351213 1.2952502
-0.16453877 -0.13503401 1.2944002
-0.15460783 -0.13528126 1.2967503
-0.14849699 -0.13712661 1.2970001
-0.18283549 -0.12439181 1.2970001
-0.17459738 -0.12471405 1.29325
-0.16461346 -0.12488159 1.2950002
-0.15463699 -0.12507404 1.2970002
-0.14781477 -0.12166292 1.2970001
-0.19411203 -0.11368012 1.2948571
-0.1854241 -0.11718746 1.293923
-0.17442861 -0.1189286 1.2920001
-0.16374144 -0.11770661 1.2934999
-0.15455392 -0.11595549 1.295125
-0.14563771 -0.11575712 1.2945
-0.13609384 -0.11336517 1.296375
-0.12431601 -0.11105058 1.2970001
-0.11646504 -0.11159202 1.2970001
-0.10801848 -0.11256663 1.2970001
-0.087551825 -0.11029255 1.2970001
-0.20161229 -0.10986737 1.2920001
-0.13393626 -0.10901789 1.2919999
-0.12483295 -0.10667761 1.2945
-0.11514732 -0.10682661 1.2947778
-0.10518597 -0.10486612 1.2941428
-0.095388345 -0.10561144 1.2953333
-0.085079916 -0.1050491 1.294
-0.07489977 -0.10327381 1.2945
-0.06443423 -0.10360774 1.2951251
-0.055065062 -0.10217086 1.2970001
-0.046618503 -0.10119626 1.2970001
-0.071357161 -0.098540843 1.2920001
-0.06456124 -0.098540843 1.2920001
-0.053989809 -0.097785741 1.2919999
-0.045043848 -0.096585467 1.2933636
-0.035202842 -0.096072622 1.2953334
-0.025299005 -0.09572275 1.2956363
-0.01525187 -0.094759278 1.2955714
-0.0062537016 -0.092668489 1.2970001
0.16941847 -0.092099972 1.2970001
0.17282957 -0.092099972 1.2970001
-0.011326533 -0.087214313 1.2919999
-0.0042820778 -0.085547626 1.2933888
0.0040706722 -0.085356034 1.2940588
0.014743487 -0.085061513 1.2936666
0.024805095 -0.083495922 1.2945001
0.035202846 -0.082899936 1.2953334
0.045006502 -0.082071781 1.2942222
0.054498311 -0.081749938 1.295125
0.064686164 -0.081711039 1.2945
0.074784845 -0.082625598 1.2942727
0.085181758 -0.081773281 1.2955
0.095417939 -0.081788838 1.29575
0.10519408 -0.082494266 1.2949166
0.11455507 -0.082532831 1.296091
0.12507403 -0.081866637 1.2970001
0.13530737 -0.082653813 1.2970001
0.14546891 -0.081827737 1.296375
0.15463698 -0.081487626 1.2970001
0.16600737 -0.083328553 1.2970001
0.17486542 -0.085166626 1.2952502
0.18009187 -0.083816342 1.2920001
0.035112251 -0.078153081 1.2920001
0.05436736 -0.078153081 1.2920001
0.064938791 -0.077775531 1.2919999
0.074755117 -0.078153081 1.2920001
0.084949002 -0.078153081 1.2920001
0.09530469 -0.077182233 1.2919999
0.10533676 -0.077020429 1.2919999
0.11641897 -0.075086303 1.2931538
0.12436724 -0.075562529 1.2923845
0.13358325 -0.076928176 1.2925555
0.14449421 -0.077182233 1.2919999
0.15467009 -0.077146269 1.2919999
0.16536739 -0.078153081 1.2920001
0.17491403 -0.077182233 1.2919999
0.18009187 -0.077020422 1.2920001
0.11893342 -0.48432285 1.3045001
0.1231103 -0.48445123 1.302
0.1198491 -0.47825497 1.302
0.11893342 -0.46430629 1.3045001
0.12228536 -0.46210298 1.3036667
0.12481423 -0.45548326 1.3045
0.11114293 -0.44342589 1.307
0.12788397 -0.4454568 1.3056364
0.1319215 -0.44331947 1.3040001
0.10885131 -0.43425947 1.307
0.12871189 -0.43540528 1.307
0.13326855 -0.4342972 1.3033637
0.12832996 -0.42509302 1.307
0.13308957 -0.4250648 1.302
0.12901744 -0.41546831 1.307
0.13340929 -0.41515893 1.3023846
0.12947577 -0.40446857 1.307
0.13481747 -0.40553594 1.3052353
0.14153609 -0.40235054 1.302
0.1361874 -0.39554065 1.3054616
0.14381893 -0.39531174 1.302
0.13716117 -0.38492364 1.3060001
0.14137302 -0.38596305 1.302
0.13673253 -0.37505963 1.307
0.14369437 -0.37318245 1.3023571
0.13864221 -0.36551127 1.307
0.14519821 -0.36471787 1.3041739
0.15295029 -0.36297154 1.302
0.14766508 -0.35829127 1.3057501
0.15511319 -0.35609475 1.3042221
0.16094021 -0.35041595 1.302
0.15787713 -0.34435728 1.3050001
0.16139679 -0.344024 1.302
0.15812087 -0.33572039 1.307
0.16323829 -0.33447662 1.3035386
0.16621375 -0.32604557 1.3062857
0.17298575 -0.32457015 1.3033334
0.16757374 -0.31480947 1.307
0.17418233 -0.31476811 1.3037499
0.18148577 -0.31160766 1.302
0.17655689 -0.30592063 1.3058888
0.18419664 -0.30418843 1.302
0.17805783 -0.29813802 1.307
0.18568051 -0.2959455 1.3062857
0.1924434 -0.2940298 1.302
0.18905754 -0.28759661 1.307
0.19505613 -0.28543872 1.3049998
0.19773751 -0.27679208 1.3051819
0.20286962 -0.27300802 1.3030001
0.19822398 -0.26926377 1.307
0.20500477 -0.26490802 1.3056111
0.20779662 -0.25503683 1.3056365
0.21192364 -0.25301477 1.302
0.20922367 -0.2458894 1.307
0.21445239 -0.24511935 1.3040588
0.21633065 -0.23539157 1.3045001
0.22075062 -0.23444767 1.302
0.21730605 -0.22531876 1.3060001
0.22222567 -0.22433291 1.302
0.21839011 -0.21564019 1.307
0.22271788 -0.21472283 1.3028334
0.22514579 -0.20468654 1.3052353
0.22772117 -0.19529913 1.3053334
0.23100737 -0.19098315 1.3045001
0.22801486 -0.18676594 1.307
0.23100738 -0.18526508 1.3045001
0.23205054 -0.1746925 1.3048573
0.24312246 -0.17007157 1.302
0.23376064 -0.1645707 1.3052353
0.24312246 -0.16436449 1.302
-0.17235442 -0.15670066 1.302
-0.16578643 -0.15410106 1.3042223
-0.15468346 -0.15285017 1.307
-0.14608975 -0.15198119 1.3062857
-0.13864221 -0.15010023 1.307
0.23607101 -0.15585949 1.3045002
0.24312246 -0.1540917 1.302
-0.18605146 -0.14039466 1.302
-0.16246212 -0.14800411 1.302
-0.15492183 -0.1474507 1.302
-0.14575723 -0.14560679 1.3023334
0.23855677 -0.14952601 1.302
0.24442695 -0.14789541 1.302
-0.19225097 -0.13388658 1.3053335
-0.18702982 -0.13419838 1.302
-0.14699782 -0.13492264 1.3027143
-0.20051558 -0.12030935 1.307
-0.19403343 -0.12521236 1.3052143
-0.18719287 -0.12669761 1.302
-0.14548388 -0.12536742 1.304
-0.13589227 -0.12076768 1.307
-0.12521993 -0.1209641 1.307
-0.11458033 -0.12030935 1.307
-0.10472642 -0.12076768 1.307
-0.095101677 -0.12030935 1.307
-0.084789447 -0.12030935 1.307
-0.20241708 -0.11493626 1.3045001
-0.19632424 -0.11756626 1.302
-0.1426775 -0.11908815 1.302
-0.13392662 -0.11680532 1.302
-0.12562619 -0.11607017 1.3038182
-0.11409787 -0.11524367 1.3036667
-0.10488989 -0.11433849 1.3033334
-0.094828814 -0.11425487 1.30325
-0.084344618 -0.1145202 1.3036667
-0.075460017 -0.11433789 1.3041875
-0.065568216 -0.11372107 1.3040588
-0.054799657 -0.11252894 1.3053335
-0.044686325 -0.11228873 1.307
-0.035061579 -0.11160125 1.307
-0.025207674 -0.11114293 1.307
-0.01718705 -0.11114293 1.307
-0.10158638 -0.1084349 1.302
-0.081040822 -0.1084349 1.302
-0.075333714 -0.1084349 1.302
-0.066202357 -0.1084349 1.302
-0.05440769 -0.10691301 1.302
-0.045027103 -0.10604848 1.3027143
-0.035171404 -0.10491808 1.3030527
-0.025154253 -0.10519117 1.3041873
-0.015725482 -0.1046676 1.3048124
-0.0049651479 -0.10274037 1.307
0.0011458034 -0.1019765 1.307
-0.030818339 -0.099303536 1.302
-0.025111239 -0.099303536 1.302
-0.012565263 -0.098466672 1.3030001
-0.0039997189 -0.096987903 1.3040835
0.0044974755 -0.095216706 1.3043333
0.01486695 -0.093780532 1.3045
0.024986153 -0.094712801 1.3048947
0.034397304 -0.093129285 1.3049999
0.044463255 -0.092361934 1.3065455
0.055456884 -0.09235175 1.307
0.065310791 -0.093096517 1.3069999
0.075576268 -0.09275236 1.3061668
0.084331132 -0.09235175 1.307
0.095101677 -0.09166427 1.307
0.10572641 -0.092601746 1.307
0.11381647 -0.09128233 1.307
0.12575191 -0.091377825 1.307
0.13520479 -0.09166427 1.307
0.14169769 -0.09128233 1.307
0.15640216 -0.091091365 1.307
0.16491963 -0.092853822 1.3049167
0.026252661 -0.087889336 1.302
0.035384022 -0.087889336 1.302
0.046145979 -0.086910978 1.302
0.054868706 -0.086874485 1.3038751
0.065108284 -0.086815417 1.3030001
0.075562008 -0.087432772 1.302
0.084548362 -0.086832292 1.3032501
0.094919771 -0.086916685 1.3045001
0.10440382 -0.087500274 1.3030001
0.11573728 -0.087007411 1.3034286
0.12502533 -0.086949751 1.3031112
0.13400272 -0.087432764 1.302
0.14469852 -0.086771101 1.3042223
0.15503627 -0.0864124 1.3047274
0.16396359 -0.086959198 1.3027143
0.11616885 -0.4911297 1.312
0.1207696 -0.4911297 1.312
0.11616886 -0.48882934 1.312
0.1207696 -0.48882934 1.312
0.11742972 -0.46281445 1.3132501
0.1169918 -0.45530057 1.3135002
0.12175548 -0.454981 1.3120002
0.11588704 -0.44472551 1.314
0.12322333 -0.44450882 1.3120002
0.10937183 -0.43345404 1.3132501
0.11552265 -0.43504965 1.3147779
0.12342388 -0.43468216 1.3120002
0.10737501 -0.42603633 1.317
0.11525898 -0.425832 1.3163751
0.12306998 -0.42556906 1.3120002
0.11661156 -0.41564521 1.317
0.12449803 -0.41530806 1.31375
0.11640164 -0.40462434 1.3170002
0.12525578 -0.40475094 1.3150434
0.13227147 -0.40141514 1.312
0.11690021 -0.39572889 1.317
0.12522638 -0.39503956 1.3158889
0.13188212 -0.39449942 1.3138751
0.12604183 -0.38544112 1.3150556
0.13329385 -0.38556814 1.3120002
0.12800486 -0.37550604 1.3154616
0.13342166 -0.37381065 1.3120002
0.12805821 -0.36710274 1.316
0.1343489 -0.36465362 1.3141429
0.14262316 -0.36000842 1.312
0.12584813 -0.35560757 1.317
0.13490036 -0.35513526 1.31525
0.14469346 -0.35402748 1.3120002
0.15268728 -0.35281974 1.3120002
0.12521836 -0.34710571 1.3170002
0.13508469 -0.34521645 1.3169998
0.14494358 -0.34525689 1.314059
0.15297483 -0.34505597 1.3120002
0.13825977 -0.33569121 1.317
0.14545302 -0.33526272 1.3151579
0.15418552 -0.33397791 1.3120002
0.16217633 -0.33010358 1.312
0.13970298 -0.32520387 1.317
0.1454758 -0.32558873 1.317
0.15536176 -0.3245365 1.3127501
0.1633265 -0.32320246 1.3120002
0.14564076 -0.31849638 1.317
0.15555945 -0.3162128 1.3167058
0.16281147 -0.31459612 1.3145001
0.16553904 -0.30524051 1.3143811
0.17236367 -0.30315635 1.3120002
0.16578268 -0.29509449 1.317
0.17481722 -0.29458973 1.3136668
0.18345478 -0.29243496 1.3120002
0.16562833 -0.28570354 1.3169999
0.17535962 -0.28495961 1.3160001
0.18467835 -0.28461432 1.3139048
0.19208117 -0.28179574 1.312
0.17598946 -0.27511752 1.3170002
0.18600377 -0.27502596 1.3156364
0.19399816 -0.27393612 1.3120002
0.17818864 -0.26555109 1.317
0.18529226 -0.26569468 1.3164444
0.19509558 -0.26456466 1.3133891
0.20185775 -0.26281765 1.312
0.18588576 -0.25746912 1.3170002
0.19480352 -0.25519022 1.3161665
0.20312294 -0.25488135 1.3120002
0.19756071 -0.24584417 1.3165835
0.20455162 -0.24474764 1.3120002
0.21163434 -0.240389 1.312
0.19927877 -0.23622501 1.317
0.2051691 -0.23513915 1.3148127
0.21232446 -0.23417799 1.3120002
0.1997406 -0.2274503 1.317
0.20547381 -0.22509754 1.3167498
0.21266854 -0.22495323 1.3136669
0.20712987 -0.21521184 1.3170002
0.21444896 -0.21469343 1.313316
0.2154485 -0.20508368 1.3142501
0.22198601 -0.20358305 1.312
0.21638843 -0.19539723 1.3157499
0.22284585 -0.1949731 1.3125558
0.21667428 -0.18511605 1.317
0.22454235 -0.18509288 1.3135219
0.20897716 -0.17434007 1.317
0.21538694 -0.17475834 1.3166667
0.22474976 -0.17518692 1.313316
-0.14432125 -0.16163979 1.317
0.21761113 -0.16804023 1.3151251
0.22566661 -0.1658569 1.3120002
-0.16217633 -0.1552752 1.312
-0.15642539 -0.1552752 1.312
-0.14407578 -0.15586148 1.3147779
-0.1382114 -0.15667227 1.3160001
-0.12815727 -0.15817609 1.317
0.22773695 -0.15987594 1.312
0.23118752 -0.15872577 1.312
-0.20435889 -0.13162097 1.317
-0.19783211 -0.13342166 1.312
-0.14339103 -0.13501407 1.314273
-0.12815727 -0.13046642 1.317
-0.1039113 -0.13046642 1.317
-0.20468804 -0.12481993 1.3148572
-0.1989823 -0.12767071 1.312
-0.14241947 -0.12783289 1.3136667
-0.13492621 -0.1260584 1.3154616
-0.12449687 -0.1257564 1.3138185
-0.11516478 -0.12553252 1.3136668
-0.10497375 -0.12570843 1.3137858
-0.09491916 -0.12510313 1.3140001
