# .PCD v0.7 - Point Cloud Data file format
VERSION 0.7
FIELDS x y z
SIZE 4 4 4
TYPE F F F
COUNT 1 1 1
WIDTH 1464
HEIGHT 1
VIEWPOINT 0 0 0 1 0 0 0
POINTS 1464
DATA ascii
0.094616555 -0.047310743 1.284875
0.10432179 -0.047521252 1.2830001
0.11565951 -0.047133233 1.2844286
0.12525269 -0.046368964 1.2855002
0.13527881 -0.046223056 1.2859167
0.14422219 -0.046574913 1.2843636
0.15457006 -0.046814479 1.2852727
0.16514628 -0.046865553 1.2850001
0.17447069 -0.048402518 1.284
0.18446118 -0.048364822 1.2830001
0.19008501 -0.048364822 1.2830001
-0.20305024 -0.03158652 1.2867501
-0.19431525 -0.034402031 1.2845912
-0.1847765 -0.036057904 1.2851877
-0.17582919 -0.036794715 1.2837694
-0.16630431 -0.038723998 1.2830001
-0.0011247633 -0.039366715 1.2830001
0.0041241325 -0.039366715 1.2830001
0.01012287 -0.039366715 1.2830001
-0.20209336 -0.026459333 1.28425
-0.19614041 -0.024596011 1.2837144
0.33855376 -0.024369871 1.2830001
0.3408033 -0.021370504 1.2830001
-0.19342142 -0.016899697 1.2852223
-0.18614832 -0.012372397 1.2830001
0.34499523 -0.019145815 1.2846667
0.20445608 0.30560544 1.2841538
0.19985896 0.31616107 1.2880001
0.20498444 0.31512418 1.2863336
0.21033074 0.31268421 1.2830001
0.2224419 0.31954852 1.2880001
0.19985896 0.32180679 1.2880001
0.20737 0.3237069 1.2865715
0.21396457 0.32626787 1.2830001
0.22144556 0.3228693 1.2855
0.20889214 0.33083996 1.2880001
0.2144817 0.33532432 1.2847859
0.21641977 0.34288421 1.2880001
0.30603784 -0.4953106 1.2970001
0.31203926 -0.49510595 1.2943333
0.30813694 -0.48437762 1.2970001
0.3117221 -0.48445556 1.2947272
0.30813694 -0.47869244 1.2970001
0.31414092 -0.4749037 1.2948127
0.31533384 -0.46505278 1.2957503
0.3205409 -0.46212256 1.2920001
0.31774148 -0.45558357 1.2965455
0.32239494 -0.4532789 1.292625
0.31849664 -0.44458136 1.2970001
0.32385099 -0.44477201 1.2940588
0.31874928 -0.43510604 1.2970001
0.32468784 -0.43439096 1.2945
0.3195073 -0.42752576 1.2970001
0.32661659 -0.42538887 1.2950002
0.32746655 -0.4147341 1.2970001
0.33174023 -0.41408366 1.2947272
0.3286036 -0.40137395 1.2970001
0.33345622 -0.40488747 1.2946666
0.3286036 -0.39000356 1.2970001
0.33364007 -0.39492387 1.2945001
0.3286036 -0.38659245 1.2970001
0.33403468 -0.38509113 1.2941428
0.33598733 -0.37527743 1.2941053
0.34092864 -0.37037763 1.2920001
0.33732542 -0.36491039 1.2955714
0.34138173 -0.36494088 1.2920001
0.33951914 -0.35543767 1.2970001
0.34176436 -0.35439035 1.2927142
0.33997396 -0.34565914 1.2970001
0.34467155 -0.34534091 1.2940588
0.3390643 -0.33724508 1.2970001
0.34470513 -0.33491334 1.2941053
0.34631026 -0.32496718 1.2940456
0.34684312 -0.31515157 1.2955717
0.3522552 -0.3148776 1.2920001
0.34879935 -0.30698797 1.2960001
0.35200182 -0.3048315 1.2947778
0.34907025 -0.29904065 1.2970001
0.35497555 -0.29480806 1.2950557
0.35537979 -0.28603694 1.2966877
0.36076903 -0.28498361 1.295125
0.35740849 -0.2759209 1.2970001
0.363572 -0.27457353 1.2942222
0.37113273 -0.27145925 1.2920001
0.36461791 -0.26495788 1.2956959
0.37216681 -0.2644394 1.2934999
0.36623201 -0.25542405 1.2963752
0.37529144 -0.2547332 1.2940456
0.36746958 -0.24591006 1.2970001
0.37548333 -0.24503186 1.294
0.38245928 -0.24389803 1.2919999
0.36888716 -0.23634121 1.2970001
0.3758727 -0.23603491 1.2941053
0.38215727 -0.23627147 1.2920001
0.36953691 -0.22740734 1.2970001
0.37823427 -0.22739381 1.2947778
0.38421237 -0.22456995 1.2933333
0.3861531 -0.21532744 1.2961667
0.39033011 -0.21389516 1.2948571
0.38659245 -0.20466658 1.2970001
0.39213234 -0.20407487 1.29325
0.38659245 -0.1955703 1.2970001
0.39173338 -0.19724485 1.2941428
0.38659245 -0.18988512 1.2970001
0.29676658 -0.080729604 1.2970001
0.30548385 -0.081487626 1.2970001
0.31483233 -0.082091875 1.2956363
0.32472402 -0.081749938 1.295125
0.33201468 -0.081866637 1.2970001
0.23650362 -0.071633309 1.2970001
0.24218881 -0.071633309 1.2970001
0.25810733 -0.071633309 1.2970001
0.26532042 -0.072613329 1.2964444
0.27567425 -0.072613321 1.2964444
0.28532562 -0.073970564 1.2952144
0.29474401 -0.07680992 1.2947778
0.30457047 -0.077247091 1.2936666
0.31450006 -0.078153081 1.2920001
0.32884702 -0.07739798 1.2920001
0.33487415 -0.076055586 1.2948571
-0.18192586 -0.060262945 1.2970001
-0.17510363 -0.060262945 1.2970001
-0.16600735 -0.060262945 1.2970001
-0.15349995 -0.060262945 1.2970001
-0.14529163 -0.061727371 1.2958889
-0.13483472 -0.060846306 1.2955714
-0.12848514 -0.060262945 1.2970001
-0.11597773 -0.060262945 1.2970001
-0.085277751 -0.060262941 1.2970001
-0.076181464 -0.060262945 1.2970001
0.13417032 -0.060262945 1.2970001
0.14440365 -0.060262945 1.2970001
0.16941847 -0.060262945 1.2970001
0.17510365 -0.060262945 1.2970001
0.18618976 -0.061115723 1.2970001
0.19547552 -0.061370943 1.296375
0.20496747 -0.062222727 1.2937857
0.21492477 -0.064878434 1.2954377
0.22503704 -0.065720603 1.2937647
0.23503195 -0.066799134 1.2943333
0.2448011 -0.06621512 1.2947778
0.25477993 -0.067952186 1.2942222
0.26410899 -0.069145337 1.293
0.27410209 -0.069091856 1.2920001
-0.19386475 -0.051735166 1.2970001
-0.18466812 -0.054109577 1.2970002
-0.17480806 -0.054489817 1.2948127
-0.16526254 -0.055495098 1.2953334
-0.15461712 -0.055574533 1.2936666
-0.14724493 -0.05776532 1.2920001
-0.13672744 -0.05647086 1.2919999
-0.12445671 -0.055786442 1.2938181
-0.11526528 -0.055760249 1.293923
-0.10549153 -0.055236135 1.293923
-0.09490899 -0.055177577 1.295
-0.08557304 -0.056102861 1.2928332
-0.074826345 -0.056688551 1.29325
-0.064385734 -0.055313561 1.2941875
-0.054926932 -0.054475624 1.2945
-0.045393799 -0.054474749 1.2945
-0.035695046 -0.052595031 1.2947778
-0.025135284 -0.052056719 1.2948571
-0.014755576 -0.052524127 1.2947272
-0.004230076 -0.0531248 1.2942727
0.0046623084 -0.052526355 1.2931111
0.014777531 -0.052283961 1.2965
0.025000924 -0.0518918 1.2961667
0.035180196 -0.052205063 1.2945
0.045829326 -0.052865803 1.2939999
0.054105237 -0.054865204 1.2947778
0.064172335 -0.055269178 1.2946923
0.07485155 -0.0533063 1.2936666
0.084926836 -0.054946713 1.2941428
0.095602252 -0.054793611 1.2931111
0.10503528 -0.054735638 1.2933636
0.11575419 -0.055609595 1.2945
0.12486739 -0.05497802 1.2948571
0.13501959 -0.05446621 1.2942501
0.14481631 -0.054916654 1.2934285
0.15515399 -0.054269496 1.2938422
0.16517621 -0.055760249 1.293923
0.17465363 -0.055574533 1.2936666
0.18445261 -0.055709723 1.2930714
0.19413678 -0.057312261 1.2920001
-0.21035178 -0.042070355 1.2970001
-0.20378223 -0.043839078 1.2970001
-0.19533552 -0.045430228 1.2954375
-0.18528132 -0.045755044 1.2939445
-0.17556126 -0.048704091 1.2920001
-0.011704084 -0.04794899 1.2920001
-0.00679592 -0.048704091 1.2920001
0.0079285735 -0.048704091 1.2920001
0.014724493 -0.048704091 1.2920001
0.024691842 -0.048251029 1.2920001
0.03058164 -0.048704091 1.2920001
-0.21035178 -0.039796282 1.2970001
-0.20462085 -0.037663992 1.2947272
-0.19821434 -0.039642867 1.2920001
-0.19658081 -0.0132289 1.2936667
0.34628245 -0.017010255 1.2936667
0.35134432 -0.01364444 1.2970001
0.20047964 0.30808169 1.2920001
0.20047964 0.3126123 1.2920001
0.19821434 0.32620418 1.2920001
0.20326772 0.32663983 1.2919999
0.22539802 0.3205409 1.2920001
0.19898142 0.33428878 1.2970001
0.20588019 0.33571285 1.2948124
0.21180618 0.33866334 1.2920001
0.20856541 0.34445989 1.2953334
0.21250339 0.34608862 1.2934999
0.21295072 0.35329357 1.2970001
0.29614908 -0.4951075 1.3043078
0.30224806 -0.49469143 1.302
0.29805231 -0.48673138 1.306375
0.30383101 -0.4851535 1.3038181
0.30590597 -0.47489521 1.3034706
0.31160766 -0.47483072 1.302
0.30617556 -0.4653492 1.3034706
0.31160766 -0.46569937 1.302
0.30655348 -0.45569843 1.3053333
0.31296194 -0.45422208 1.3031764
0.3082211 -0.4445717 1.307
0.31357548 -0.4448472 1.3040588
0.30730444 -0.43609276 1.307
0.31423599 -0.43475461 1.3039047
0.31627488 -0.42473006 1.3046471
0.32302189 -0.42289615 1.302
0.31675407 -0.41467673 1.3058461
0.32352394 -0.41521311 1.3027143
0.31836966 -0.40512329 1.307
0.32562679 -0.40551046 1.3033043
0.31967914 -0.39988536 1.307
0.32534978 -0.39527094 1.3043809
0.32702076 -0.38509551 1.304
0.33215323 -0.38237572 1.302
0.3289434 -0.37614202 1.3051251
0.33218902 -0.37299785 1.3034286
0.32884556 -0.36551127 1.307
0.33316791 -0.36482432 1.3039231
0.33569622 -0.35547963 1.30425
0.33621746 -0.34522751 1.3045
0.33525068 -0.33540577 1.3040001
0.34128457 -0.33329463 1.302
0.33734125 -0.32542226 1.3037857
0.34128457 -0.32530469 1.302
0.337313 -0.31514856 1.3043078
0.34201801 -0.31403896 1.3026251
0.33801198 -0.3082211 1.307
0.34419116 -0.30492198 1.3035909
0.35041595 -0.30247629 1.302
0.34506956 -0.29528725 1.3046471
0.35041595 -0.29448637 1.302
0.34566799 -0.28607342 1.3037857
0.35184273 -0.28449893 1.302
0.34699166 -0.27850646 1.302
0.35399309 -0.27464595 1.3027894
0.35600168 -0.26497415 1.3045
0.36183015 -0.26366803 1.302
0.3574138 -0.25556585 1.3053335
0.36206257 -0.25375849 1.3038751
0.35787258 -0.24787545 1.307
0.36336732 -0.24534716 1.3034286
0.3653051 -0.23508538 1.3043529
0.37438577 -0.23284967 1.302
0.36585394 -0.22478633 1.3043683
0.37438577 -0.22400366 1.302
0.38123429 -0.22143549 1.302
0.3672137 -0.2150666 1.3049167
0.37501448 -0.21494666 1.3041874
0.38256595 -0.21477722 1.302
0.36722997 -0.2073904 1.307
0.37451416 -0.20571114 1.3060474
0.38231233 -0.20507561 1.3023846
0.3758235 -0.19822398 1.307
0.38351625 -0.19558305 1.3046924
0.38600063 -0.18628354 1.3065455
0.38751066 -0.17714119 1.307
0.31393641 -0.10235679 1.306
0.30745724 -0.09128233 1.307
0.31506041 -0.094234034 1.3044999
0.32410273 -0.09341608 1.3026668
0.33297044 -0.091435105 1.307
0.2394729 -0.081352033 1.307
0.2417645 -0.081352033 1.307
0.26559719 -0.081810348 1.307
0.27600437 -0.082172483 1.306375
0.28573117 -0.083859242 1.3052143
0.29505324 -0.084630914 1.3045001
0.30441037 -0.086009629 1.3027693
0.31454274 -0.086910978 1.302
0.32530472 -0.086747922 1.302
0.33561432 -0.084833719 1.3032501
0.34144938 -0.082497835 1.307
-0.12260096 -0.072185613 1.307
-0.096629411 -0.072185613 1.307
0.209682 -0.072185613 1.307
0.2152061 -0.072116576 1.30575
0.22528799 -0.073192455 1.3045
0.23510824 -0.076085895 1.3043078
0.24487771 -0.074975081 1.3047274
0.25520784 -0.07526207 1.3046666
0.2639958 -0.077418521 1.3025
0.27508223 -0.077616565 1.302
0.28535497 -0.078757979 1.302
0.29106209 -0.078757979 1.302
0.33900174 -0.078757979 1.302
0.3430835 -0.077767782 1.3045001
-0.20204331 -0.062255319 1.307
-0.19455004 -0.062288597 1.3047274
-0.18520786 -0.063677162 1.3033637
-0.17464265 -0.066119269 1.3038419
-0.16449849 -0.065452687 1.3036667
-0.15528139 -0.064990237 1.3037857
-0.1443835 -0.066861466 1.3036667
-0.13489446 -0.065620951 1.3040001
-0.12533984 -0.065648578 1.3045
-0.11500218 -0.065850995 1.304
-0.10517194 -0.065166131 1.3039999
-0.095064886 -0.065349981 1.3038749
-0.084714174 -0.066113181 1.3046668
-0.075031437 -0.065746434 1.3041877
-0.065490201 -0.064798474 1.3046085
-0.055042021 -0.063538671 1.304143
-0.044963606 -0.063116483 1.3055714
-0.034802992 -0.062825046 1.3066154
-0.025665995 -0.062560856 1.307
-0.017464185 -0.062703699 1.306375
-0.0045832135 -0.060727578 1.307
0.0045832135 -0.060727578 1.307
0.014895444 -0.060727578 1.307
0.025207672 -0.060727578 1.307
0.034374103 -0.060727578 1.307
0.045545682 -0.061586931 1.307
0.054945964 -0.061815303 1.30575
0.065441489 -0.062388193 1.30575
0.075078346 -0.062491167 1.3055
0.085150018 -0.062491167 1.3055001
0.095213391 -0.062822305 1.3062857
0.10527427 -0.062789738 1.3065455
0.11380519 -0.062743559 1.306
0.1251875 -0.061642818 1.3047777
0.13499789 -0.063382819 1.3050001
0.14399748 -0.063168615 1.3047777
0.15492776 -0.061897442 1.3047777
0.16468008 -0.061757226 1.3045001
0.17553926 -0.06441173 1.3056365
0.18520629 -0.066311575 1.3040835
0.19549294 -0.06688229 1.3040835
0.20574982 -0.068585463 1.303875
0.21344554 -0.069626622 1.302
0.22029406 -0.069626622 1.302
0.24768813 -0.069626622 1.302
-0.2111627 -0.0513639 1.302
-0.204841 -0.054173548 1.302
-0.1959981 -0.055929571 1.302
-0.1883343 -0.058212418 1.302
-0.10158638 -0.058212418 1.302
-0.098162115 -0.058212418 1.302
-0.05364674 -0.058212418 1.302
-0.045656797 -0.058212418 1.302
-0.034470886 -0.056842715 1.302
-0.024994645 -0.056715362 1.3025556
-0.014848201 -0.057247501 1.3031112
-0.0052566687 -0.057800561 1.3030001
0.0044095083 -0.057329863 1.304143
0.01486695 -0.057182778 1.3045
0.025159895 -0.056497045 1.3045001
0.034919094 -0.05701869 1.3036667
0.044234343 -0.057624049 1.3034286
0.055929575 -0.058212418 1.302
0.0684852 -0.058212418 1.302
0.075333714 -0.058212418 1.302
0.084465079 -0.058212418 1.302
0.094737865 -0.058212418 1.302
0.10615206 -0.058212418 1.302
0.11604436 -0.058212418 1.302
-0.2131919 -0.045529973 1.302
-0.20659702 -0.04777658 1.302
-0.21344554 -0.0399497 1.302
0.34546664 -0.014172894 1.3040001
0.3524667 -0.010853352 1.3032501
0.3544246 -0.0066351397 1.3050001
0.1997485 0.33900174 1.302
0.20203134 0.33900174 1.302
0.19913869 0.34455347 1.3040001
0.20387207 0.34550238 1.3028334
0.20579694 0.35438854 1.3052143
0.21344554 0.35863414 1.302
0.20876536 0.36276132 1.307
0.21502909 0.3655113 1.307
0.21747348 0.37330276 1.307
0.28694463 -0.49571806 1.317
0.29276431 -0.4937298 1.3133638
0.28880742 -0.48541424 1.317
0.29451123 -0.48465523 1.3145001
0.3001987 -0.4819282 1.312
0.28979707 -0.47914654 1.317
0.29641977 -0.47643974 1.3163334
0.30160245 -0.4751164 1.3136668
0.2967245 -0.46529168 1.317
0.3017779 -0.46534005 1.3138752
0.29771417 -0.45605516 1.317
0.3019754 -0.45458278 1.3133638
0.29903364 -0.44566402 1.317
0.30441532 -0.44536299 1.3142223
0.29903364 -0.43642744 1.317
0.30443653 -0.43442053 1.3151579
0.31170058 -0.43132001 1.312
0.3058044 -0.42597231 1.3163334
0.3119202 -0.42500547 1.3138185
0.30728054 -0.41614002 1.317
0.31262064 -0.41501954 1.3145001
0.32090208 -0.41061664 1.312
0.30827019 -0.40871778 1.317
0.31367719 -0.40475234 1.3149999
0.3151755 -0.39518347 1.3149999
0.32090208 -0.39566422 1.312
0.31676087 -0.38650987 1.3166429
0.32340178 -0.38505521 1.3135387
0.3187896 -0.37549177 1.317
0.32477888 -0.37511331 1.3147779
0.33010358 -0.3715103 1.312
0.31889224 -0.36599869 1.317
0.32529154 -0.3648665 1.3147779
0.33010358 -0.36115861 1.312
0.3252764 -0.35527003 1.31575
0.33125377 -0.35425746 1.3120002
0.32564551 -0.34546924 1.3164117
0.33177692 -0.3450748 1.3125558
0.32682481 -0.33516994 1.3166155
0.33210006 -0.33356476 1.3124547
0.32812878 -0.32720512 1.317
0.33261362 -0.32455865 1.3128335
0.33348107 -0.31460288 1.3151251
0.33630508 -0.30454722 1.3147779
0.34160542 -0.30249909 1.312
0.33766556 -0.29577318 1.3153335
0.34160542 -0.29444778 1.312
0.34293607 -0.2842288 1.3150769
0.34496731 -0.27466348 1.31475
0.35080692 -0.27374443 1.312
0.34587517 -0.26563519 1.3164117
0.35179278 -0.26405001 1.3120002
0.34769055 -0.25548983 1.3170002
0.35328171 -0.25497606 1.3140835
0.34868014 -0.24476883 1.317
0.35492888 -0.24494246 1.3145001
0.36115861 -0.24268937 1.3120002
0.34983471 -0.23899598 1.317
0.35574761 -0.23570268 1.3166667
0.36144617 -0.23377544 1.3120002
0.35791671 -0.22658435 1.317
0.36104259 -0.22467859 1.3126252
0.35860944 -0.21405728 1.317
0.36313474 -0.21468888 1.3133335
0.35791671 -0.20666802 1.317
0.36450008 -0.20457909 1.3140589
0.37553594 -0.20185775 1.312
0.36719385 -0.19720486 1.3155
0.37493962 -0.19422394 1.3145
0.38128689 -0.19380645 1.312
0.37538922 -0.18527 1.317
0.38323474 -0.18451123 1.3140835
0.37477344 -0.17618738 1.317
0.38489071 -0.17592974 1.3145002
0.37523526 -0.16510351 1.317
0.3843821 -0.16624017 1.3155714
0.37523526 -0.15586695 1.317
0.38216266 -0.15817609 1.317
0.30537686 -0.10261802 1.3152144
0.31170058 -0.10006624 1.312
0.36676839 -0.10429616 1.317
0.27825138 -0.091211028 1.317
0.28622839 -0.092890404 1.3170002
0.29521844 -0.094565988 1.3154376
0.30452874 -0.094918355 1.3137648
0.31246737 -0.096999072 1.312
0.33879703 -0.092192456 1.3145001
0.34406185 -0.091788314 1.317
0.36599869 -0.098138452 1.317
-0.17664921 -0.081974469 1.317
0.22591086 -0.082359329 1.317
0.23552361 -0.084543101 1.3154616
0.2442674 -0.085524671 1.3153335
0.25531325 -0.08335904 1.3156365
0.26514956 -0.085772887 1.3150003
0.27441645 -0.086864755 1.3147273
0.28427362 -0.088237226 1.3128334
0.29444778 -0.088564374 1.312
0.33930507 -0.088564374 1.312
0.34638646 -0.08591152 1.3146926
0.35214385 -0.084283613 1.317
-0.19204348 -0.07196819 1.317
-0.18419603 -0.072989658 1.3150771
-0.17524534 -0.076096959 1.315125
-0.16511282 -0.075725123 1.3153334
-0.155075 -0.074658841 1.3156364
-0.14581284 -0.075463593 1.3155715
-0.13529713 -0.072648786 1.3153335
-0.12481929 -0.076081388 1.3148572
-0.11584166 -0.075429216 1.3143077
-0.10486643 -0.074215353 1.3145001
-0.094263658 -0.075368181 1.3145001
-0.085757837 -0.074763887 1.3150771
-0.074913502 -0.074456356 1.3146669
-0.064418539 -0.072873697 1.3147779
-0.054863177 -0.071342006 1.3155715
-0.044564154 -0.071825303 1.3156365
-0.034622304 -0.071549915 1.316375
-0.026151991 -0.071153916 1.3161666
-0.01731855 -0.070428766 1.317
0.015009411 -0.070428766 1.317
0.02424597 -0.070428766 1.317
0.038100809 -0.070428766 1.317
0.046677612 -0.071418397 1.317
0.055364568 -0.071516499 1.3157501
0.064533189 -0.071449652 1.3145001
0.074724987 -0.071261272 1.3163751
0.085792109 -0.071303807 1.3148572
0.094306834 -0.071787991 1.3136668
0.10463917 -0.071751587 1.3142728
0.11528255 -0.072168253 1.3150001
0.12469355 -0.071198478 1.317
0.13508469 -0.071583346 1.3170002
0.14529172 -0.072648779 1.3153335
0.15471238 -0.071583338 1.317
0.16543339 -0.072572984 1.3170002
0.17550258 -0.073571853 1.3153335
0.18483351 -0.073951058 1.314353
0.19549949 -0.075019419 1.3140589
0.20512317 -0.075187482 1.314
0.21522216 -0.077068515 1.3148572
0.22498462 -0.078407697 1.3131112
0.23233771 -0.079362877 1.312
0.24844033 -0.078212693 1.312
0.25304106 -0.079362877 1.312
0.34850657 -0.079362877 1.312
-0.20128267 -0.065560639 1.312
-0.19667332 -0.067223541 1.3145
-0.1874804 -0.067861013 1.312
-0.054058775 -0.067861013 1.312
-0.044857282 -0.067861013 1.312
-0.034505602 -0.067861013 1.312
-0.024551196 -0.067137331 1.3128333
-0.013594118 -0.064972214 1.3140001
-0.0046095131 -0.064535379 1.3145001
0.0046098791 -0.065709308 1.3149167
0.014976388 -0.065663502 1.3140002
0.025345379 -0.065667666 1.3140836
0.034549434 -0.065646842 1.3136668
0.044308487 -0.066178836 1.3128335
0.055208959 -0.06671083 1.3120002
0.063643664 -0.067094222 1.3120002
0.075049683 -0.066998377 1.3120002
0.084347032 -0.067094222 1.3120002
0.094085276 -0.06740094 1.312
0.10505038 -0.067477621 1.3120002
0.1162441 -0.066753931 1.3128334
0.12512423 -0.066491187 1.3138185
0.13572203 -0.067861013 1.312
0.14561363 -0.06740094 1.312
0.154764 -0.06658303 1.3120002
0.16512424 -0.066896096 1.3131113
0.17482837 -0.067861013 1.312
-0.21359545 -0.054264791 1.317
0.33828902 -0.01039113 1.317
0.34369189 -0.011236237 1.3145001
0.34793681 -0.0057690153 1.3163751
0.35405043 -0.0036644668 1.3147274
0.3554793 0.0039768526 1.317
0.19591512 0.34773979 1.312
0.19709307 0.35431078 1.3133639
0.20204945 0.35694125 1.312
0.19820908 0.36415595 1.3145001
0.20451549 0.36527035 1.3137859
0.21163434 0.36920992 1.312
0.1997406 0.37292612 1.317
0.20490624 0.37511334 1.3147779
0.2136061 0.3747966 1.3120002
0.20683742 0.38456717 1.3164445
0.2125525 0.38244876 1.3153334
0.27500868 -0.49493295 1.324077
0.28301641 -0.49394593 1.3220001
0.27648446 -0.48485863 1.3248235
0.28460586 -0.48411137 1.3220003
0.27782443 -0.47854367 1.3260001
0.28419644 -0.47506559 1.3237146
0.29205623 -0.47517085 1.322
0.28624675 -0.46574205 1.3244708
0.29205626 -0.46474028 1.3220001
0.28783962 -0.45600441 1.3275001
0.29402208 -0.45385745 1.3223753
0.28889126 -0.44522843 1.3280001
0.29460594 -0.44480628 1.3220003
0.28988913 -0.43890843 1.3280001
0.2945579 -0.43577719 1.3240002
0.3001689 -0.4322896 1.322
0.29604506 -0.42496291 1.3255297
0.30179146 -0.42394513 1.3220001
0.2963486 -0.41518733 1.327143
0.30304125 -0.4143337 1.3224003
0.29920283 -0.40747464 1.3280001
0.30504239 -0.40544415 1.3235793
0.30644527 -0.39524767 1.3241003
0.31175846 -0.39172623 1.322
0.30671182 -0.38495341 1.3246251
0.31381884 -0.38387111 1.322
0.30830246 -0.37547654 1.3252728
0.31443298 -0.37541172 1.3220003
0.30888611 -0.36745518 1.3256
0.31441179 -0.36479956 1.3234289
0.32103008 -0.36275238 1.322
0.31453064 -0.35498849 1.3252727
0.32103008 -0.35463971 1.322
0.31511256 -0.34543547 1.3248421
0.32180274 -0.34536812 1.322
0.31658265 -0.33545578 1.324625
0.32250515 -0.33451611 1.3220001
0.31783023 -0.32947236 1.3280001
0.32458034 -0.3253583 1.326
0.3303017 -0.32218903 1.322
0.32654852 -0.31423098 1.3256
0.3303017 -0.31523532 1.322
0.32656491 -0.30568936 1.3230911
0.33133191 -0.30480471 1.322
0.32947236 -0.29920283 1.3280001
0.33458886 -0.29428297 1.3245715
0.32947236 -0.28057542 1.3280001
0.33589661 -0.28540853 1.3248421
0.34189123 -0.28626147 1.322
0.32947236 -0.27708277 1.3280001
0.33544347 -0.27473676 1.3232503
0.34189123 -0.27467194 1.322
0.33742216 -0.26541895 1.3247693
0.34235483 -0.26354599 1.322
0.33894354 -0.25612515 1.3268001
0.34272206 -0.25434193 1.3238463
0.33878604 -0.24564902 1.3280001
0.34343594 -0.24513584 1.3237649
0.34620667 -0.23547095 1.3245264
0.35193551 -0.23333593 1.322
0.3476474 -0.2273923 1.3262857
0.35377654 -0.22406384 1.3235791
0.3480998 -0.21537946 1.3280001
0.3537924 -0.21531998 1.3236668
0.35411295 -0.20660974 1.3220001
0.3612071 -0.20127155 1.322
0.36738822 -0.19180678 1.322
0.36715826 -0.18522859 1.3224618
0.37619627 -0.18381001 1.322
0.35624927 -0.17579621 1.3280001
0.36623394 -0.17508066 1.3234289
0.37516975 -0.17467082 1.3220003
0.38216487 -0.17413275 1.322
0.36647075 -0.16618608 1.3270768
0.37436849 -0.1644879 1.3232001
0.38228902 -0.16473696 1.3219999
0.36812428 -0.1576345 1.3280001
0.37410727 -0.15500684 1.3242105
0.38204449 -0.15365003 1.3238001
0.3745541 -0.14494084 1.3251767
0.38221228 -0.14469557 1.3268001
0.37625262 -0.1349429 1.3280001
0.38186195 -0.13504876 1.3280001
0.36905563 -0.12689926 1.3280001
0.37413406 -0.12549014 1.3253751
0.38069776 -0.12922768 1.3280001
0.2980386 -0.11060026 1.3280001
0.30139565 -0.11104327 1.324
0.36831221 -0.11399785 1.3253334
0.37197775 -0.11794288 1.3268001
0.28683308 -0.10166073 1.3268001
0.2952511 -0.10411216 1.3237145
0.30094153 -0.10507844 1.322
0.34577137 -0.10128656 1.3280001
0.35542426 -0.10227057 1.3273335
0.36450171 -0.10407839 1.325
-0.174632 -0.09197285 1.3280001
-0.16648251 -0.09197285 1.3280001
0.22935003 -0.09197285 1.3280001
0.23557711 -0.092915364 1.3266667
0.24429685 -0.094322175 1.3252728
0.25496271 -0.09197285 1.3280001
0.26526126 -0.092852019 1.3262857
0.27469942 -0.093826711 1.3240002
0.2839689 -0.097063959 1.3233335
0.29089728 -0.098511033 1.322
0.34630543 -0.096458234 1.3256001
0.35458261 -0.09531758 1.323059
0.36269042 -0.095390908 1.3225456
-0.19209521 -0.082659148 1.3280001
-0.18470758 -0.085261501 1.3238463
-0.17483392 -0.085874461 1.3236669
-0.16480444 -0.085888453 1.3238752
-0.15520579 -0.086109392 1.3241179
-0.14530998 -0.08533214 1.3248236
-0.13473123 -0.084775895 1.3280001
-0.1254041 -0.084767096 1.3245
-0.11504532 -0.084836788 1.3256001
-0.10484343 -0.08474195 1.3274547
-0.095321715 -0.084863089 1.3260001
-0.085075647 -0.0849014 1.3266156
-0.075005643 -0.083528019 1.3253334
-0.06519594 -0.082659148 1.3280001
-0.054718025 -0.081494927 1.3280001
-0.044739056 -0.081661247 1.3280001
-0.0349264 -0.081494935 1.3280001
-0.026311222 -0.080796406 1.3280001
-0.018627413 -0.080330722 1.3280001
0.016298987 -0.080330722 1.3280001
0.047732748 -0.080330722 1.3280001
0.075673863 -0.080330722 1.3280001
0.084987573 -0.080330722 1.3280001
0.095465496 -0.080330722 1.3280001
0.1047792 -0.080330722 1.3280001
0.11459185 -0.081328623 1.3280001
0.1222424 -0.080330722 1.3280001
0.13854139 -0.080330722 1.3280001
0.14552666 -0.080330722 1.3280001
0.15484037 -0.080330722 1.3280001
0.1653183 -0.080330722 1.3280001
0.174632 -0.081494935 1.3280001
0.18423676 -0.083532311 1.3280001
0.19605884 -0.084067732 1.3272501
0.20528971 -0.085328765 1.3260002
0.21443209 -0.085793756 1.326
0.22458699 -0.086983614 1.3254287
0.23341319 -0.088775828 1.322
0.24917497 -0.088080451 1.322
0.25496972 -0.088080458 1.322
0.26308241 -0.089239396 1.322
0.35603088 -0.087640114 1.3228571
0.36043447 -0.089239404 1.322
-0.20049892 -0.074173011 1.322
-0.19553196 -0.076656483 1.3220003
-0.18592922 -0.078974403 1.3219999
-0.14139231 -0.077649869 1.322
-0.13443859 -0.078808837 1.322
-0.12864383 -0.079967782 1.322
-0.11195489 -0.079040624 1.322
-0.1048025 -0.078974403 1.3219999
-0.095034167 -0.079967782 1.322
-0.084024116 -0.079388306 1.322
-0.076104604 -0.079581469 1.322
-0.064901389 -0.07822936 1.322
-0.056074519 -0.076182917 1.3233333
-0.045199182 -0.076954499 1.3220001
-0.034768596 -0.076490924 1.322
-0.02506653 -0.07590127 1.3238001
-0.015096201 -0.07456506 1.3248001
-0.0042594308 -0.072426692 1.3253334
0.0049145939 -0.073528461 1.3247694
0.015104383 -0.074752197 1.3253332
0.025553256 -0.074345015 1.3250002
0.034858771 -0.0743699 1.3254286
0.043945253 -0.075506426 1.3250002
0.055123236 -0.076815479 1.3253334
0.065048665 -0.07666713 1.325
0.075243667 -0.075881556 1.324182
0.084947422 -0.07636486 1.3238001
0.095199741 -0.076656498 1.3219999
0.10460962 -0.076757178 1.3237144
0.11451436 -0.07682471 1.3227501
0.12545048 -0.075970694 1.325
0.13474366 -0.076667123 1.325
0.1442026 -0.077322289 1.3230001
0.15529975 -0.076490924 1.322
0.16387601 -0.077186301 1.322
0.17500195 -0.079040624 1.322
0.18543254 -0.079967782 1.322
0.19431783 -0.079967782 1.322
0.20397578 -0.079967782 1.322
-0.20281683 -0.068378247 1.322
-0.011589533 -0.068378247 1.322
-0.0046358136 -0.068378247 1.322
0.33957332 -0.00695372 1.322
0.34521592 -0.0044071786 1.3232002
0.34793428 0.0039562215 1.3256
0.35222682 0.0051697823 1.3236365
0.35486239 0.011327411 1.325
0.19760154 0.37434193 1.322
0.20049892 0.37897775 1.322
0.19768342 0.38302618 1.3280001
0.20234752 0.38535461 1.324
0.21770789 0.38768303 1.3280001
0.2053885 0.39418393 1.3263637
0.21188682 0.39816093 1.3280001
0.20740202 0.4040449 1.3272501
0.21172641 0.40445396 1.327
0.24661905 -0.49646381 1.3380002
0.25766462 -0.49695253 1.3380002
0.26583499 -0.49537346 1.335857
0.26671872 -0.48635611 1.3368235
0.27288118 -0.48349163 1.3346667
0.2671462 -0.47710964 1.3380002
0.2748574 -0.47488737 1.3357272
0.2816318 -0.47094446 1.3330001
0.27601245 -0.46544695 1.3366112
0.28234705 -0.46444142 1.3336251
0.27557546 -0.45566347 1.3376429
0.28304824 -0.45492864 1.334875
0.27682328 -0.44573238 1.3380002
0.28414613 -0.44524878 1.3355
0.27752709 -0.43658313 1.3380001
0.28494754 -0.43504485 1.3376
0.29144803 -0.43401679 1.3330001
0.27799627 -0.42813769 1.3380001
0.28540632 -0.42525297 1.3376875
0.29198223 -0.42587 1.3330001
0.28676656 -0.41572949 1.3373334
0.293403 -0.41357401 1.3343638
0.28878766 -0.40749326 1.3380001
0.29531261 -0.40546975 1.33675
0.30126423 -0.40269843 1.3330001
0.29585159 -0.39581558 1.3379998
0.30149794 -0.39498568 1.3330001
0.29697719 -0.38505736 1.3380002
0.3018443 -0.38484448 1.3335001
0.29754591 -0.37574464 1.3380002
0.30409431 -0.37528387 1.3350589
0.29910991 -0.36948869 1.3380001
0.30556867 -0.36400449 1.3360555
0.31083971 -0.36010486 1.3380001
0.29910991 -0.35463095 1.3379999
0.30511689 -0.35421208 1.3371176
0.31083971 -0.35306701 1.3379999
0.29910991 -0.34837505 1.3380001
0.30615115 -0.34511936 1.33675
0.31230569 -0.34213561 1.3342501
0.30802456 -0.33523768 1.3380001
0.31279233 -0.33426043 1.3355001
0.31591618 -0.32489881 1.3363333
0.32239825 -0.32181394 1.3348751
0.31712466 -0.31499675 1.3366365
0.32318911 -0.31565231 1.3341112
0.31787759 -0.30732077 1.3380001
0.32366109 -0.30467784 1.3358946
0.32632303 -0.29582554 1.3379999
0.33118027 -0.2951875 1.3330001
0.32670262 -0.28542888 1.3364615
0.33164772 -0.28677359 1.3330001
0.32744426 -0.27529776 1.3352729
0.33071285 -0.27345163 1.3330001
0.32960737 -0.26743942 1.3380001
0.33394235 -0.26479799 1.3353333
0.32960737 -0.25219071 1.3380001
0.33507693 -0.25541186 1.3364376
0.34006163 -0.25358549 1.3330001
0.32960737 -0.2474988 1.3379999
0.33503023 -0.24482998 1.3362499
0.34006163 -0.24189951 1.3330001
0.33723179 -0.23576899 1.3380002
0.34212956 -0.23486027 1.3352729
0.34480309 -0.22438341 1.3359412
0.33899122 -0.21934725 1.3380001
0.34552136 -0.21564524 1.3360555
0.34804741 -0.20918079 1.33675
0.35140541 -0.20787929 1.3346667
0.35875916 -0.18113248 1.3330001
0.36318681 -0.18334956 1.3342501
0.35875916 -0.1741209 1.3330001
0.3621012 -0.17461784 1.3338333
0.36423582 -0.1632477 1.3348751
0.36442608 -0.1540781 1.335647
0.37044513 -0.15191756 1.3330001
0.36546227 -0.14559206 1.3374118
0.37091258 -0.14420483 1.3330001
0.35189402 -0.13020077 1.3380001
0.36620435 -0.13395432 1.3379999
0.37200323 -0.13568705 1.3330001
0.34837505 -0.1231629 1.3379999
0.35423994 -0.12433589 1.3379999
0.3644301 -0.12441498 1.3358572
0.37044513 -0.12581891 1.3330001
0.3821311 -0.12737703 1.3330001
0.28972605 -0.11260608 1.3380001
0.29497945 -0.11401313 1.3357275
0.30032933 -0.11335388 1.3330001
0.34790587 -0.11424825 1.3380001
0.35474208 -0.11464463 1.3374444
0.36377108 -0.1149242 1.3342501
0.22755811 -0.10204926 1.3380001
0.23476358 -0.10305467 1.3380002
0.24522495 -0.10411869 1.3365715
0.25570965 -0.10204926 1.3380001
0.26587546 -0.10283124 1.3380002
0.27491447 -0.1038771 1.3363334
0.28545818 -0.10563365 1.3363334
0.29242203 -0.1076128 1.3342501
0.34748074 -0.10590497 1.3358573
0.35435128 -0.10733963 1.3348184
0.36296612 -0.10774461 1.3330001
-0.18341514 -0.093465291 1.3360001
-0.17468119 -0.095304802 1.3355001
-0.16408156 -0.095426284 1.3349999
-0.15429562 -0.095211118 1.3356925
-0.14648442 -0.09433832 1.3367501
-0.13431634 -0.093669593 1.3374447
-0.12427835 -0.093795113 1.3373752
-0.11573402 -0.09344741 1.3380002
-0.10556821 -0.09344741 1.3380002
-0.096016787 -0.093335688 1.3380002
-0.084454559 -0.092665419 1.3380001
-0.075774513 -0.092196226 1.3380001
-0.066468865 -0.091101445 1.3380002
-0.059821978 -0.090319462 1.3380001
-0.03636238 -0.090319462 1.3380001
-0.0293245 -0.090319462 1.3380001
0.11495204 -0.090319462 1.3380001
0.12785482 -0.090319462 1.3380001
0.13411072 -0.090319462 1.3379999
0.16773614 -0.090319462 1.3380001
0.17575149 -0.092274427 1.3380002
0.18572183 -0.09344741 1.3380002
0.19487433 -0.092865378 1.3375002
0.20539504 -0.094904825 1.3364618
0.21563378 -0.09457536 1.3348184
0.22468506 -0.09596356 1.334875
0.23446296 -0.097843409 1.3330001
0.24540529 -0.099330716 1.3330001
0.25507259 -0.097117722 1.3346667
0.2647818 -0.097553946 1.3348184
0.27439943 -0.099003285 1.3338333
0.2816318 -0.099330716 1.3330001
0.34123021 -0.096993521 1.3330001
-0.18697546 -0.089981943 1.3330001
-0.1425688 -0.089981943 1.3330001
-0.13625838 -0.089514509 1.3330001
-0.12503985 -0.089981943 1.3330001
-0.11452247 -0.089981943 1.3330001
-0.10493998 -0.089514509 1.3330001
-0.09582492 -0.089981943 1.3330001
-0.085697085 -0.08959242 1.3330001
-0.074289359 -0.088646397 1.3330001
-0.065043904 -0.08678399 1.335143
-0.055046778 -0.086672515 1.3360002
-0.044512425 -0.086680517 1.3361251
-0.03512365 -0.086640514 1.3355001
-0.025433056 -0.085668653 1.3352729
-0.016510421 -0.084050566 1.3366365
-0.0046919198 -0.08093562 1.3380001
0.0053895717 -0.081344321 1.3370001
0.014578647 -0.083114214 1.3352729
0.025757344 -0.08195737 1.3355001
0.03512365 -0.08195737 1.3355001
0.043632686 -0.082581669 1.3361251
0.055027056 -0.08195737 1.3355001
0.065849371 -0.082873456 1.3348184
0.074703403 -0.084733717 1.3344287
0.084801055 -0.084804714 1.3342501
0.096333772 -0.084636129 1.3346667
0.1053052 -0.085417129 1.3346667
0.11413295 -0.086086623 1.3330001
0.12484604 -0.084222861 1.3353529
0.13496011 -0.08481095 1.3359412
0.14442049 -0.08426784 1.3350002
0.15501456 -0.085001871 1.3355001
0.16478892 -0.085325964 1.3358572
0.17444974 -0.086004741 1.3339092
0.18463828 -0.088229045 1.3330001
0.19489595 -0.087904431 1.3330001
0.20333582 -0.089981943 1.3330001
0.21619038 -0.089981943 1.3330001
0.22086477 -0.089981943 1.3330001
-0.011685967 -0.078295976 1.3330001
-0.0051752138 -0.077294312 1.3330001
0.0035057899 -0.078295976 1.3330001
0.026877724 -0.078295976 1.3330001
0.03155211 -0.078295976 1.3330001
0.34655115 -0.0011707883 1.3355
0.34576896 0.0050054472 1.336182
0.34772193 0.011123586 1.3355
0.35474667 0.014635949 1.3355001
0.36127782 0.017594701 1.3380001
0.19905096 0.38758457 1.3330001
0.21619038 0.38797408 1.3330001
0.19810668 0.39575118 1.3340001
0.20275152 0.39673859 1.3330001
0.21434587 0.3944774 1.3342501
0.1979723 0.40456724 1.3348184
0.20362796 0.40462661 1.3330001
0.19823362 0.41523492 1.3380001
0.20445614 0.41427678 1.3343158
0.21245086 0.41438437 1.3330001
0.20683546 0.42292443 1.3380002
0.21230938 0.4222728 1.3380001
0.23749669 -0.49611059 1.3463334
0.24436922 -0.49376684 1.3445793
0.25489917 -0.49390388 1.3430003
0.26019728 -0.49213785 1.3430001
0.24701045 -0.48574632 1.348143
0.25444081 -0.48510766 1.3440591
0.26137465 -0.48507369 1.3430002
0.2483509 -0.47659719 1.3490001
0.2548503 -0.47511718 1.3455266
0.26365086 -0.47510526 1.3430003
0.24953352 -0.46536231 1.3490001
0.2554518 -0.46493375 1.3483337
0.26481503 -0.46494454 1.3434618
0.27197093 -0.46505854 1.3430001
0.24953352 -0.45767522 1.3490001
0.25662926 -0.45708391 1.3490001
0.26529679 -0.45459789 1.3455718
0.27244186 -0.45375586 1.3430001
0.26652011 -0.44523907 1.34679
0.27314827 -0.44504333 1.3430002
0.26771361 -0.43614277 1.3482502
0.27377802 -0.43545663 1.344412
0.26845551 -0.42929226 1.3490001
0.27500466 -0.4252767 1.3441432
0.28197852 -0.42267343 1.3430001
0.27701351 -0.41788751 1.3475001
0.28215799 -0.41332704 1.3446364
0.27791649 -0.4056398 1.3490001
0.28382573 -0.40443349 1.3450003
0.29080874 -0.40265825 1.3430001
0.28482658 -0.3953284 1.345667
0.29198611 -0.39441669 1.3430001
0.28621173 -0.38560182 1.3456253
0.2923072 -0.38478374 1.3430003
0.28745607 -0.37572411 1.3473636
0.29352573 -0.37412989 1.3430003
0.30375975 -0.37086946 1.3430001
0.28974271 -0.36543059 1.3490001
0.29436234 -0.3649213 1.3440591
0.30179748 -0.36419773 1.3430001
0.29557261 -0.35548851 1.3454002
0.30022764 -0.35438636 1.3430001
0.29699963 -0.34573123 1.3468183
0.30281785 -0.34261268 1.3430002
0.2984153 -0.33665344 1.3490001
0.30399072 -0.33416921 1.3433753
0.31200129 -0.3308391 1.3430001
0.30538166 -0.32500789 1.3454549
0.31200129 -0.32495227 1.3430001
0.30797562 -0.31859556 1.3460001
0.31265864 -0.31462619 1.3450001
0.30866468 -0.30511683 1.3490001
0.31439349 -0.30464867 1.3440913
0.32142019 -0.30022764 1.3430001
0.30866468 -0.29920369 1.3490001
0.31498224 -0.29493076 1.3457005
0.3222051 -0.29355592 1.3430001
0.31727251 -0.28498814 1.3474002
0.32259756 -0.28492194 1.3430002
0.31850159 -0.27647382 1.3466001
0.32289985 -0.274492 1.3446003
0.32548231 -0.26532 1.3457005
0.3308391 -0.26255202 1.3430001
0.32585502 -0.25502059 1.3467504
0.3308391 -0.2566652 1.3430001
0.32717314 -0.24533135 1.3465
0.3308391 -0.24253684 1.3430001
0.3293131 -0.23555827 1.348
0.33348867 -0.23437423 1.3434619
0.32995191 -0.2282463 1.3490001
0.33510327 -0.2249959 1.3452109
0.340258 -0.22605374 1.3430001
0.33621132 -0.21588413 1.3456668
0.34167084 -0.21404465 1.3430001
0.3473222 -0.20839331 1.3430001
0.35858855 -0.14209683 1.3470001
0.36214596 -0.14262007 1.3445002
0.35753283 -0.13402978 1.3450001
0.36268893 -0.13649388 1.3438572
0.27791649 -0.12417545 1.3490001
0.28028172 -0.12299283 1.3490001
0.23770729 -0.11234922 1.3490001
0.24480304 -0.11234923 1.3490001
0.25189877 -0.11353184 1.3490001
0.26845551 -0.11234922 1.3490001
0.2760289 -0.11439157 1.3475002
0.28482893 -0.11587703 1.3456671
0.29198611 -0.11773634 1.3430001
-0.1833066 -0.10146908 1.3490001
-0.17446496 -0.10185026 1.3456668
-0.16559638 -0.10308881 1.3454001
-0.15486482 -0.1036419 1.3455716
-0.14543667 -0.10186365 1.3468183
-0.13481906 -0.10170561 1.3490001
-0.12536556 -0.10200046 1.3476667
-0.11589708 -0.10170561 1.3490001
-0.104822 -0.10225966 1.3485001
-0.09489271 -0.10263255 1.3484546
-0.085148878 -0.10170561 1.3490001
-0.075687893 -0.1017056 1.3490001
-0.065044284 -0.10170561 1.3490001
-0.055583298 -0.10052297 1.3490001
-0.042574439 -0.10052298 1.3490001
-0.03902657 -0.10052298 1.3490001
0.17621088 -0.10052297 1.3490001
0.18519881 -0.10099603 1.3490001
0.19572416 -0.10140995 1.3490001
0.20531882 -0.10148206 1.3460001
0.21551692 -0.10232576 1.3478
0.22520937 -0.10482948 1.3462729
0.23467113 -0.10817325 1.3451819
0.24440083 -0.10912168 1.3442
0.25534502 -0.10730195 1.345
0.26463401 -0.10761523 1.3443847
0.27479663 -0.10902385 1.3430001
0.28315589 -0.10890611 1.3430001
-0.19040236 -0.095792487 1.3490001
-0.1853779 -0.096616559 1.344
-0.14246096 -0.096543789 1.3430001
-0.13421941 -0.097721159 1.3430001
-0.12480051 -0.097721159 1.3430001
-0.11459669 -0.096936248 1.3430001
-0.10512173 -0.097048379 1.3430002
-0.09368448 -0.096711986 1.3430002
-0.084819466 -0.096598357 1.3437501
-0.075395301 -0.096598364 1.3437501
-0.06429898 -0.095863052 1.3448462
-0.054279692 -0.094404727 1.3460002
-0.04482824 -0.094378099 1.3456253
-0.035197791 -0.094818391 1.3447145
-0.024510538 -0.094512299 1.3448949
-0.014810881 -0.093878783 1.3476155
-0.0055189091 -0.091850422 1.3490001
0.0045615472 -0.092075683 1.3490001
0.014191479 -0.092244625 1.3490001
0.025032192 -0.09283594 1.3490001
0.0354787 -0.092244625 1.3490001
0.044939686 -0.092244618 1.3490001
0.054400675 -0.092244618 1.3490001
0.065569893 -0.092113219 1.3490001
0.075932473 -0.092458814 1.3463334
0.084562741 -0.092832685 1.3472
0.09460213 -0.093101762 1.3473637
0.10543786 -0.094033919 1.3463339
0.1156376 -0.095582962 1.3460002
0.1246793 -0.093379736 1.3451819
0.13463637 -0.094317928 1.3448001
0.14353135 -0.093522221 1.3475002
0.15511015 -0.093170747 1.3477145
0.165139 -0.093778782 1.3455001
0.17329183 -0.09650033 1.3447143
0.18484604 -0.097721159 1.3430001
0.19520684 -0.097250208 1.3430001
0.20603858 -0.097721159 1.3430001
0.21310276 -0.097721159 1.3430001
-0.01228498 -0.086340263 1.3438572
-0.004718658 -0.086111009 1.3455001
0.0043912232 -0.08623331 1.3440911
0.014363833 -0.087831303 1.3430001
0.024756718 -0.087243237 1.3448002
0.035338655 -0.087174192 1.3437501
0.045304503 -0.087405801 1.3447144
0.054279692 -0.087322131 1.3460001
0.063823961 -0.087742187 1.3447144
0.087124884 -0.088302247 1.3430001
0.094189063 -0.088302247 1.3430001
0.14717041 -0.088302247 1.3430001
0.15305723 -0.088302247 1.3430001
0.34829879 0.015325448 1.3445001
0.35407144 0.017221065 1.3454001
0.35635537 0.020059887 1.3460001
0.36284664 0.020651197 1.3460001
0.1954423 0.41443187 1.3430002
0.19779441 0.42442825 1.3464286
0.20368385 0.42708856 1.3430002
0.21310276 0.42738286 1.3430001
0.20538226 0.43481117 1.3490001
0.21405482 0.43165752 1.3490001
0.20769899 -0.49839815 1.3590001
0.21534374 -0.49710751 1.3590001
0.22526731 -0.49566042 1.3576362
0.23415683 -0.49403217 1.3540001
0.24096236 -0.49023375 1.3540001
0.21802437 -0.48251295 1.3590001
0.22483312 -0.4847962 1.3581666
0.23508182 -0.48411238 1.3543127
0.24286158 -0.48406133 1.3540001
0.22641346 -0.47749504 1.3582859
0.23570088 -0.47444403 1.3578888
0.24424945 -0.47452873 1.3540001
0.25045842 -0.47361565 1.3540001
0.23580799 -0.46566209 1.3585001
0.24452336 -0.46530661 1.3540001
0.25362375 -0.46332827 1.3540001
0.23668388 -0.45533016 1.3586428
0.24435894 -0.45533574 1.3545556
0.25488991 -0.45478183 1.3540001
0.23708659 -0.44633797 1.3590001
0.245488 -0.44587448 1.3578887
0.25510672 -0.44563594 1.3547895
0.26248845 -0.44302449 1.3548335
0.238278 -0.43962291 1.3590001
0.24602205 -0.43560198 1.3589998
0.25440913 -0.43479946 1.3573334
0.26351231 -0.43415046 1.3572352
0.2490005 -0.42373767 1.3590001
0.25463402 -0.42398816 1.3580624
0.26541644 -0.42427376 1.3570951
0.27182454 -0.42376137 1.3540001
0.2490005 -0.41817787 1.3590001
0.25429556 -0.41553032 1.3590001
0.26560888 -0.41517404 1.3586428
0.27397624 -0.4146924 1.3566316
0.26687133 -0.40268981 1.3590001
0.27459672 -0.40440455 1.3554285
0.26806274 -0.39673287 1.3590001
0.27454811 -0.39459494 1.35575
0.28132057 -0.39289919 1.3540001
0.27580956 -0.38500109 1.3580475
0.28234071 -0.38357794 1.3546251
0.27878526 -0.37528786 1.3590001
0.28470179 -0.37402362 1.3570769
0.28562874 -0.36499882 1.3572353
0.29081663 -0.36203703 1.3540001
0.28677782 -0.35602194 1.3582308
0.29187176 -0.35438743 1.3540001
0.28688672 -0.34645623 1.3590001
0.29326773 -0.34425449 1.3553637
0.28950778 -0.33954614 1.3590001
0.29480401 -0.33455116 1.356941
0.3003127 -0.33117485 1.3540001
0.29788658 -0.32507324 1.3568573
0.30089319 -0.32385367 1.3548335
0.29856235 -0.31476524 1.3590001
0.30497581 -0.31472284 1.35575
0.30581889 -0.30522612 1.3565001
0.3091009 -0.29550752 1.3568573
0.3125641 -0.29117462 1.3556668
0.30881777 -0.28596061 1.3580002
0.31275654 -0.28516799 1.3565001
0.30857 -0.27997664 1.3590001
0.31509677 -0.27535278 1.3569411
0.3177081 -0.26495552 1.3573335
0.32167882 -0.26470247 1.3540001
0.31735808 -0.25602886 1.3583751
0.32143825 -0.25463206 1.3560002
0.32332152 -0.24498776 1.3570769
0.32571867 -0.23530979 1.3570001
0.32691285 -0.22691062 1.358
0.33059496 -0.22356708 1.3565001
0.32763225 -0.21802437 1.3590001
0.33220133 -0.21745016 1.3554287
-0.17364509 -0.13343568 1.3590001
-0.16520607 -0.1350242 1.3590001
-0.1547105 -0.13326548 1.3590001
-0.14892375 -0.13224429 1.3590001
0.35728902 -0.13887978 1.3540001
-0.18347406 -0.12152178 1.3590001
-0.17401302 -0.12425497 1.3589998
-0.16441181 -0.12509593 1.3589997
-0.15551145 -0.12551646 1.3589998
-0.14892375 -0.12867013 1.3590001
0.23867513 -0.12112465 1.3590001
0.24525616 -0.12237277 1.3590001
0.25465962 -0.12390455 1.3590001
0.2659778 -0.12241532 1.3590001
0.2741439 -0.12545034 1.3576667
0.28606859 -0.12226168 1.3540001
-0.18460287 -0.11444389 1.3585457
-0.17579727 -0.11484003 1.3587058
-0.16451871 -0.1142455 1.3574374
-0.15473826 -0.11427153 1.3577501
-0.14677033 -0.11342894 1.3583752
-0.13621558 -0.11079928 1.3590001
-0.12509595 -0.11079927 1.3590001
-0.11437343 -0.11079927 1.3590001
-0.10460404 -0.11127583 1.3590001
-0.096026026 -0.11127581 1.3590001
-0.085780077 -0.11079927 1.3590001
-0.075057566 -0.11079927 1.3590001
-0.065526448 -0.11079928 1.3590001
0.17989989 -0.11079927 1.3590001
0.18625396 -0.11079928 1.3590001
0.19538796 -0.11079927 1.3590001
0.20508929 -0.11182047 1.3590001
0.21491389 -0.11261507 1.3569168
0.22515911 -0.11443827 1.3572354
0.23493749 -0.11547303 1.3553637
0.24499817 -0.11703886 1.3540001
0.25494775 -0.11564939 1.3549092
0.26552728 -0.11603303 1.3565
0.27372375 -0.11798847 1.3540001
-0.19110808 -0.10326958 1.3540001
-0.18622847 -0.10584216 1.3565001
-0.17657864 -0.10689708 1.3548335
-0.16499393 -0.10801761 1.3540001
-0.15668488 -0.10801761 1.3540001
-0.14419882 -0.10696357 1.3556668
-0.13556862 -0.10703004 1.3565001
-0.12565315 -0.10700017 1.3540001
-0.11540341 -0.10669871 1.3540001
-0.10445659 -0.1068306 1.3540001
-0.094248332 -0.1075428 1.3540001
-0.08529491 -0.10666103 1.3540001
-0.074374646 -0.10687599 1.3562224
-0.064216711 -0.10703004 1.3565001
-0.054446436 -0.10509007 1.3560002
-0.045585204 -0.1046531 1.3565001
-0.035437234 -0.10370116 1.3565001
-0.024348132 -0.10366014 1.3570001
-0.014992665 -0.10401484 1.3575001
-0.0083397301 -0.10126815 1.3590001
0.014296679 -0.10126815 1.3590001
0.02541632 -0.10166528 1.3590001
0.035741702 -0.10126815 1.3590001
0.044081431 -0.10126815 1.3590001
0.055518769 -0.1017447 1.3590001
0.064335063 -0.10126815 1.3590001
0.075057566 -0.10126815 1.3590001
0.086130396 -0.10302534 1.3570001
0.09501002 -0.10322949 1.3562728
0.10458517 -0.1033996 1.3556668
0.11421356 -0.102979 1.3558183
0.12504286 -0.10334478 1.3584446
0.13591506 -0.10326416 1.3567275
0.14548005 -0.10351544 1.357182
0.15484771 -0.1045384 1.3572142
0.16476808 -0.10438931 1.3565001
0.17515005 -0.105502 1.3565
0.1850346 -0.10596819 1.3553637
0.19443171 -0.1061184 1.3540001
0.20416513 -0.1068306 1.3540001
0.21395795 -0.10712735 1.3540001
0.22276159 -0.10722627 1.3540001
-0.011474398 -0.097730219 1.3540001
-0.0040905266 -0.096492171 1.3551112
0.0048842998 -0.097060151 1.3556668
0.01424408 -0.097334541 1.3540001
0.024630388 -0.097631298 1.3540001
0.035610199 -0.097334541 1.3540001
0.045300249 -0.097216949 1.3547144
0.054602306 -0.097334549 1.3540001
0.063702695 -0.096938871 1.3540001
0.074253865 -0.097466432 1.3540001
0.086255819 -0.097730219 1.3540001
0.094723135 -0.098046757 1.3540001
0.10208257 -0.098521553 1.3540001
0.12582271 -0.098521553 1.3540001
0.13413174 -0.098521553 1.3540001
0.14659533 -0.097928047 1.3540001
0.15359867 -0.098046757 1.3540001
0.16380692 -0.098521553 1.3540001
0.34779295 0.015431087 1.3540001
0.35513377 0.021570133 1.356143
0.36515805 0.026275251 1.3574617
0.37131655 0.028196231 1.3590001
0.36337394 0.032167532 1.3590001
0.37052229 0.032167532 1.3590001
0.19348209 0.41901335 1.3540001
0.1946691 0.42494839 1.3540001
0.19775531 0.43373221 1.3540001
0.20060413 0.43563142 1.3540001
0.21445525 0.43722281 1.3552501
0.19896212 0.44557983 1.3590001
0.20408639 0.44471931 1.3548824
0.21314798 0.44517735 1.3582858
0.20702043 -0.49660972 1.3649999
0.21479867 -0.49481475 1.3649999
0.21599533 -0.48673737 1.3649999
0.21818918 -0.47905886 1.3650001
0.22616686 -0.47609574 1.3649999
0.23095345 -0.47267675 1.3650001
0.23266293 -0.46378735 1.3649999
0.22856015 -0.45472699 1.365
0.23175122 -0.4551259 1.3649999
0.22856015 -0.44515383 1.365
0.23312917 -0.44482747 1.3649999
0.23813334 -0.43917054 1.365
0.24257804 -0.43506771 1.3649999
0.24618354 -0.42524588 1.3649999
0.25488645 -0.42361408 1.365
0.24770655 -0.41404089 1.365
0.25454456 -0.41318613 1.3649999
0.26411775 -0.41250235 1.3649999
0.25640947 -0.40588191 1.3649999
0.26445964 -0.4047941 1.3649999
0.25807753 -0.39529335 1.3650001
0.26565629 -0.3950654 1.3649999
0.2673316 -0.38532132 1.3649999
0.2722379 -0.38412467 1.365
0.26924625 -0.37694475 1.365
0.27463114 -0.37574807 1.3649999
0.28121275 -0.37215814 1.365
0.26924625 -0.36737156 1.3650001
0.27541846 -0.36510426 1.3649999
0.28121275 -0.36497825 1.365
0.27605793 -0.35393226 1.3649999
0.2833401 -0.35380951 1.3649999
0.27522951 -0.34702849 1.3649999
0.28480268 -0.34391722 1.3649999
0.28719601 -0.33745527 1.365
0.29126459 -0.334344 1.365
0.29386306 -0.32514691 1.3649999
0.29413655 -0.3158358 1.3649999
0.29796585 -0.30514574 1.365
0.30275247 -0.30422527 1.3649999
0.29796585 -0.2967692 1.365
0.30418843 -0.29461521 1.3649999
0.3053633 -0.28491145 1.3649999
0.3078382 -0.27672529 1.3649999
0.31292397 -0.27343452 1.365
0.30993235 -0.2680496 1.365
0.31352231 -0.26565629 1.3649999
0.31493652 -0.2544513 1.3649999
0.31791002 -0.24451548 1.3649999
0.32189885 -0.2417233 1.365
0.31870779 -0.23414451 1.3649999
0.32189885 -0.2345434 1.365
0.31870779 -0.22776239 1.3650001
0.3240746 -0.22464384 1.3649999
0.32572812 -0.21802962 1.365
0.33147204 -0.215397 1.365
-0.16250508 -0.14192268 1.365
-0.15596338 -0.14280024 1.3649999
-0.14878349 -0.14080583 1.3650001
-0.18228967 -0.13123262 1.3650001
-0.17830084 -0.13043486 1.365
-0.1627444 -0.13761474 1.365
-0.15580383 -0.13713607 1.365
-0.14814527 -0.13426414 1.365
0.25548476 -0.13103318 1.365
0.26565629 -0.13043486 1.365
0.27163956 -0.13043486 1.365
-0.18428409 -0.12564826 1.3649999
-0.17650588 -0.12624657 1.365
-0.15197454 -0.12325495 1.3650001
-0.14821365 -0.12393875 1.3649999
0.22568817 -0.12134031 1.365
0.23454338 -0.12265663 1.3649999
0.2441166 -0.12564825 1.365
0.2560831 -0.1268449 1.3649999
0.26416048 -0.12594742 1.3649999
-0.19026735 -0.11846835 1.365
-0.14308515 -0.11539125 1.3649999
-0.13415776 -0.11447951 1.3649999
-0.1244516 -0.11487839 1.3649999
-0.11463907 -0.11559639 1.3649999
-0.10541398 -0.11629263 1.3649999
-0.095405646 -0.11629263 1.3649999
-0.084962152 -0.11607505 1.3649999
-0.074192308 -0.11607506 1.3649999
-0.06472788 -0.11520476 1.3649999
-0.055524565 -0.11320309 1.3649999
-0.045472704 -0.11248509 1.3649999
-0.035899501 -0.11208621 1.3649999
-0.024597805 -0.11235213 1.3649999
-0.01603511 -0.11224578 1.365
0.11128845 -0.11128845 1.365
0.15676115 -0.11128845 1.3650001
0.16593546 -0.11208621 1.3649999
0.17488183 -0.11231415 1.3649999
0.18428411 -0.11308342 1.365
0.19607964 -0.11436554 1.3649999
0.20558448 -0.11559639 1.365
0.214679 -0.1179897 1.365
0.22138025 -0.11846835 1.365
-0.05384925 -0.10889515 1.365
-0.0454727 -0.10889515 1.365
-0.035899498 -0.10889515 1.365
-0.027044291 -0.10841648 1.365
-0.01316315 -0.10809738 1.3650001
-0.0052994499 -0.10342475 1.3649999
0.0050259302 -0.10219391 1.365
0.01507779 -0.10458721 1.365
0.024531325 -0.10410855 1.365
0.035899498 -0.10410855 1.365
0.04619069 -0.10362989 1.365
