# .PCD v0.7 - Point Cloud Data file format
VERSION 0.7
FIELDS x y z
SIZE 4 4 4
TYPE F F F
COUNT 1 1 1
WIDTH 1449
HEIGHT 1
VIEWPOINT 0 0 0 1 0 0 0
POINTS 1449
DATA ascii
-0.15366635 0.066282146 1.5430001
-0.14203314 0.068987526 1.5430001
-0.13526967 0.068987526 1.5430001
-0.12580079 0.068987526 1.5430001
-0.10145225 0.068987526 1.5430001
-0.097394161 0.068987526 1.5430001
-0.08521989 0.068987526 1.5430001
-0.19073023 0.079809099 1.5430001
-0.18531944 0.078456402 1.5430001
-0.1765269 0.076427363 1.5430001
-0.16367629 0.073496521 1.5430001
-0.15420742 0.071692921 1.5430001
-0.14473854 0.073045619 1.5430001
-0.13526967 0.071692921 1.5430001
-0.1244481 0.07385724 1.5430001
-0.11497921 0.073045619 1.5430001
-0.10551033 0.073496513 1.5430001
-0.094688758 0.07385724 1.5430001
-0.08521989 0.073045619 1.5430001
-0.075300112 0.076201916 1.5430001
-0.065298364 0.074644268 1.5430001
-0.05395757 0.076201916 1.5430001
-0.044638991 0.077103712 1.5430001
-0.034719218 0.079809099 1.5430001
-0.02434854 0.079809099 1.5430001
-0.014879663 0.079809099 1.5430001
0.12399719 0.079809099 1.5430001
0.14744394 0.079809099 1.5430001
0.15014933 0.079809099 1.5430001
-0.2015518 0.087925285 1.5430001
-0.19377381 0.086234421 1.5430001
-0.18734848 0.084543541 1.5430001
-0.035170116 0.082514495 1.5430001
-0.024078 0.083055571 1.5430001
-0.014879663 0.083596654 1.5430001
-0.0054107867 0.087925285 1.5430001
0.00405809 0.087925285 1.5430001
0.10686304 0.086121686 1.5430001
0.1155203 0.08413773 1.5430001
0.12363647 0.083055571 1.5430001
0.1358494 0.084060431 1.5430001
0.14419746 0.083596654 1.5430001
0.15195292 0.083416291 1.5430001
-0.2024536 0.091532469 1.5430001
-0.19468427 0.09375228 1.543
-0.18633397 0.095365107 1.5430001
-0.0048310598 0.091790125 1.5430001
0.0045991689 0.091171756 1.5430001
0.014203316 0.092659719 1.5430001
0.02434854 0.096041463 1.5430001
0.034719214 0.096943259 1.5430001
0.047344383 0.098746859 1.5430001
0.055460561 0.096041463 1.5430001
0.065741062 0.093336068 1.5430001
0.075751007 0.092434265 1.5430001
0.08521989 0.093336068 1.5430001
0.095268488 0.092176609 1.5430001
0.10145225 0.09198337 1.5430001
-0.18430492 0.10449581 1.5430001
-0.18261404 0.11497921 1.5430001
-0.17855597 0.11633191 1.5430001
-0.18261404 0.1217427 1.5430001
-0.17855597 0.1217427 1.5430001
-0.14744394 0.14473854 1.5430001
-0.14203314 0.15285473 1.5430001
-0.13932775 0.15556012 1.5430001
0.4687975 -0.40085584 1.5500001
-0.16243143 0.04777395 1.557
-0.19519071 0.057328742 1.557
-0.18586342 0.055736274 1.557
-0.17482117 0.054703798 1.5569999
-0.16497575 0.05453385 1.55525
-0.15556246 0.054582313 1.5565623
-0.14332184 0.058693711 1.557
-0.13513203 0.057328742 1.557
-0.12830718 0.058693711 1.557
-0.20338054 0.06654229 1.557
-0.19549403 0.066580206 1.557
-0.18547827 0.065459877 1.5556873
-0.17554028 0.065155417 1.555923
-0.16609123 0.065119475 1.55
-0.15572229 0.061691035 1.5500001
-0.14538552 0.06463664 1.5523334
-0.13567843 0.064187549 1.5519092
-0.12487281 0.064368241 1.5521538
-0.11425597 0.065608695 1.5527998
-0.10478768 0.065771729 1.5523334
-0.095261522 0.0653181 1.5523334
-0.084709056 0.066729508 1.5535001
-0.074588671 0.067574091 1.5550001
-0.065611139 0.068879709 1.5528001
-0.054598801 0.068248495 1.557
-0.046408981 0.066883527 1.557
-0.21490698 0.075680003 1.557
-0.20474549 0.075073354 1.557
-0.19509457 0.075034484 1.5562223
-0.18490335 0.073417656 1.5508751
-0.17705029 0.072180793 1.5535001
-0.16713649 0.072018169 1.5500001
-0.10734783 0.072018169 1.5500001
-0.080171168 0.072018169 1.5500001
-0.076547615 0.072924055 1.5500001
-0.0611475 0.072018169 1.5500001
-0.054353334 0.072018169 1.5500001
-0.044162083 0.072697587 1.5500001
-0.035408419 0.0749005 1.5535001
-0.02467203 0.075827867 1.5538889
-0.015660334 0.076945908 1.5535001
0.10783263 0.077803291 1.557
0.11547647 0.077257298 1.557
0.12529495 0.076263428 1.5535001
0.13513203 0.077803291 1.557
0.14469472 0.077117383 1.5542001
0.15083049 0.077453502 1.5500001
-0.21527527 0.084043153 1.5569999
-0.20526853 0.083803937 1.5553845
-0.19684324 0.082492575 1.5528001
-0.036688499 0.080171168 1.5500001
-0.014947167 0.080171168 1.5500001
-0.0059886859 0.083579645 1.5528001
0.0055677895 0.085495561 1.5525455
0.014947168 0.08696533 1.5500001
0.02183952 0.088723049 1.557
0.035489224 0.088723049 1.557
0.069300503 0.088324167 1.5500001
0.074956752 0.088590086 1.5546666
0.085021943 0.08637955 1.5542001
0.095647432 0.084743224 1.5541998
0.10418103 0.083312847 1.5523334
0.11323611 0.081077062 1.5500001
0.1263715 0.080171168 1.5500001
0.13506803 0.080714703 1.5500001
0.14403632 0.080171168 1.5500001
0.15354817 0.080171168 1.5500001
-0.2224901 0.092817962 1.557
-0.21507441 0.095130481 1.5546665
-0.20578775 0.096175194 1.5500001
-0.19612496 0.099194832 1.5500001
0.016306 0.091041833 1.5500001
0.024489682 0.092503458 1.5517501
0.035937022 0.093380429 1.5528001
0.044932868 0.093943596 1.5531112
0.053873546 0.093549214 1.5530001
0.063185751 0.091721252 1.5500001
0.076094672 0.091041833 1.5500001
0.085606508 0.091041833 1.5500001
0.091041833 0.091041833 1.5500001
-0.21152504 0.10281839 1.5500001
-0.20484412 0.10429046 1.5500001
-0.19589241 0.10475034 1.5517501
-0.18887784 0.10598899 1.5500001
-0.20201555 0.11056257 1.557
-0.19382574 0.11329252 1.557
-0.18706606 0.11429298 1.5500001
-0.18616016 0.12093616 1.5500001
-0.16498983 0.039762095 1.5640001
-0.15493506 0.039762095 1.5640001
-0.19410953 0.046813499 1.5640001
-0.18418533 0.04616059 1.5640001
-0.17537703 0.045495808 1.5640002
-0.16465746 0.04499723 1.5640002
-0.15493505 0.045246519 1.5640001
-0.21361843 0.056763817 1.5640001
-0.20566601 0.05484426 1.5639999
-0.19606824 0.052102048 1.5640001
-0.18578495 0.051416501 1.5640001
-0.17504461 0.05438723 1.5640001
-0.14579435 0.055529822 1.5640001
-0.13345438 0.053473163 1.5640001
-0.12531915 0.056763817 1.5640001
-0.11517296 0.058957588 1.5640001
-0.10338144 0.058409143 1.5640001
-0.094606362 0.05758648 1.5640001
-0.088207863 0.058043513 1.5640001
-0.22373968 0.066187061 1.5640002
-0.21501446 0.066187054 1.5640002
-0.20703712 0.064784795 1.5640001
-0.19515419 0.062613875 1.5640001
-0.11654407 0.0616998 1.5640001
-0.10694632 0.0616998 1.5640001
-0.093235254 0.0616998 1.5640001
-0.085008606 0.062385358 1.5640001
-0.076781973 0.063070908 1.5640001
-0.065225504 0.065225504 1.5640001
-0.055301305 0.066879533 1.5640001
-0.044854779 0.067184225 1.5640001
-0.036105808 0.069012366 1.5640001
-0.027422134 0.069926441 1.5640001
0.13025513 0.069926441 1.5640001
-0.2248615 0.075136647 1.5640001
-0.21526374 0.072668649 1.5640001
-0.024222882 0.072668649 1.5640001
-0.015082174 0.074039757 1.5640001
-0.0095977467 0.078153081 1.5640001
0.09597747 0.078153081 1.5640001
0.10146189 0.078153081 1.5640001
0.11791517 0.074039757 1.5640001
0.1247707 0.072668649 1.5640001
0.13436845 0.074725315 1.5640001
0.14122398 0.075410865 1.5640001
-0.23240256 0.086379722 1.5640001
-0.22523545 0.085382544 1.5640002
-0.21800596 0.08912193 1.5640001
-0.0027422132 0.08089529 1.5640001
0.0041133198 0.08089529 1.5640001
0.013711067 0.083637506 1.5640001
0.02559399 0.087293781 1.5640001
0.035648771 0.086379722 1.5640001
0.045246523 0.08912193 1.5640001
0.050730947 0.08912193 1.5640001
0.065813124 0.08912193 1.5640001
0.078153081 0.085008614 1.5640001
0.085008614 0.082266398 1.5640001
0.091864146 0.08089529 1.5640001
-0.22531854 0.094606362 1.5640001
0.054844268 0.091864146 1.5640001
-0.22074817 0.10009079 1.5640001
-0.19698232 0.11471593 1.5640001
0.46926302 -0.43188807 1.5790001
0.47514611 -0.43292627 1.5790002
0.46926302 -0.42219827 1.5790001
0.4740957 -0.42434156 1.5766667
0.47533497 -0.41592485 1.5762002
-0.20071721 0.037374929 1.5790001
-0.19317542 0.037857447 1.5762
-0.18600513 0.037747364 1.5755
-0.17502123 0.039965481 1.572
-0.16469704 0.037262425 1.5743333
-0.15607429 0.035907827 1.5755
-0.22424959 0.046372596 1.5790002
-0.21429153 0.045313861 1.575182
-0.20540629 0.04388047 1.5757695
-0.19675805 0.042751376 1.5731667
-0.18832356 0.04276621 1.57375
-0.17777748 0.042721719 1.572
-0.15054953 0.044191889 1.5755
-0.14530039 0.045021828 1.5755001
-0.13591607 0.046531711 1.576667
-0.12652107 0.04678788 1.5790001
-0.10797202 0.048448984 1.5790001
-0.095513709 0.048448984 1.5790001
-0.23246007 0.05668088 1.5770003
-0.22496903 0.055202533 1.5743335
-0.21754609 0.053746674 1.5719999
-0.1447026 0.050990444 1.572
-0.13551514 0.050990444 1.572
-0.12406801 0.052662741 1.575
-0.11552513 0.05405917 1.5739093
-0.1052 0.053537395 1.5732728
-0.095090277 0.052368555 1.572
-0.08507134 0.055635989 1.5735558
-0.07514666 0.057567962 1.572875
-0.064333305 0.058257304 1.5748
-0.055100627 0.058261137 1.5770003
-0.047064729 0.059523035 1.5790001
0.15642101 0.059523035 1.5790001
-0.23489457 0.064938873 1.5760835
-0.22187732 0.062015399 1.572
-0.21912108 0.062015399 1.572
-0.08130908 0.062015399 1.572
-0.07166224 0.062015399 1.572
-0.065690383 0.062934145 1.572
-0.054297924 0.063117899 1.572
-0.044144329 0.062084436 1.57375
-0.035544124 0.064876735 1.574625
-0.024916621 0.067828573 1.5790001
0.12596735 0.067828573 1.5790001
0.13223289 0.066805512 1.5766668
0.1467312 0.067828573 1.5790001
0.15365249 0.067828573 1.5790001
-0.24224491 0.073365606 1.5790001
-0.23547418 0.074410975 1.5760003
-0.022049919 0.070284121 1.572
-0.014470261 0.07097318 1.572
-0.0055267983 0.075270154 1.5755001
0.0055293567 0.076046653 1.5772504
0.014872321 0.07643646 1.5781252
0.024916619 0.077518374 1.5790002
0.034606416 0.078902632 1.5790001
0.08622174 0.076549128 1.5762001
0.095231421 0.074064799 1.5743334
0.10462578 0.075271703 1.5755002
0.11546075 0.073226213 1.576
0.12540892 0.070284121 1.572
0.13653719 0.071714409 1.5731667
0.14506903 0.072433457 1.5760002
0.15350384 0.073291972 1.5774447
-0.23417287 0.083267264 1.5743333
0.0096468404 0.08130908 1.572
0.01584838 0.08199814 1.572
0.024806159 0.082687199 1.572
0.035306245 0.083039239 1.575
0.04506601 0.084046818 1.5769002
0.055565707 0.085415728 1.576667
0.064963922 0.085232258 1.5766667
0.073834911 0.084269196 1.5758891
0.082687199 0.08130908 1.572
-0.23014604 0.09233404 1.572
0.45604905 -0.48524728 1.5860001
0.46207404 -0.48339343 1.5860001
0.45743939 -0.47412413 1.5860001
0.46355715 -0.47523642 1.5860001
0.46856254 -0.46022019 1.5860001
0.47134334 -0.46161059 1.5860001
0.46856254 -0.45743939 1.5860001
0.47134334 -0.45465863 1.5860001
0.46856254 -0.44075468 1.5860001
0.47356796 -0.44186702 1.5860001
0.46612936 -0.43554074 1.5860002
0.47273374 -0.43797389 1.5860001
0.46737078 -0.42605624 1.5860002
0.47134337 -0.42592382 1.5860001
0.46856254 -0.41850838 1.5860001
0.4741241 -0.4146153 1.5860001
0.46717215 -0.37401581 1.5860001
0.36752728 -0.15247981 1.5860001
0.37540621 -0.15155287 1.5860001
0.36150226 -0.14877209 1.5860001
0.37401581 -0.14877209 1.5860001
-0.19256948 0.028503062 1.5860001
-0.1877031 0.029198259 1.5860001
-0.15618752 0.0273444 1.5860001
-0.23497647 0.037540618 1.5860001
-0.22524373 0.034759834 1.5860003
-0.21551096 0.036150225 1.5860001
-0.2061574 0.034507036 1.5860003
-0.19604547 0.033568066 1.5860002
-0.18492232 0.035157088 1.5860002
-0.17553715 0.035455029 1.5860002
-0.166152 0.033369441 1.5860001
-0.15572405 0.033369441 1.5860001
-0.25305158 0.047273375 1.5860001
-0.24563617 0.045419514 1.5860003
-0.23497647 0.044492587 1.5860003
-0.2258396 0.041513175 1.5860002
-0.21690136 0.040321406 1.5860001
-0.14321052 0.040321406 1.5860001
-0.13486816 0.042406999 1.5860001
-0.12453952 0.044293962 1.5860002
-0.11540265 0.047273379 1.5860001
-0.10474297 0.046809912 1.5860001
-0.09593714 0.045882981 1.5860001
-0.26000354 0.05422534 1.5860001
-0.25339919 0.054920536 1.5860002
-0.24470922 0.055615727 1.5860003
-0.23664494 0.053669184 1.5860001
-0.083887063 0.052371483 1.5860001
-0.075776435 0.05422534 1.5860001
-0.066738874 0.055615734 1.5860001
-0.057006128 0.057006128 1.5860001
-0.045882981 0.057933059 1.5860001
0.15294327 0.059786912 1.5860001
-0.24575201 0.065348484 1.5860002
-0.025027078 0.065348484 1.5860001
-0.01668472 0.068129271 1.5860001
0.11818343 0.068129271 1.5860001
0.12096422 0.068129271 1.5860001
0.13625854 0.066738874 1.5860001
0.14552784 0.065348484 1.5860001
0.15433367 0.064553969 1.5860002
-0.25258812 0.074617773 1.5860001
-0.24635242 0.075207628 1.5860003
0.009732753 0.070910059 1.5860001
0.015294326 0.071836986 1.5860001
0.025027078 0.073690847 1.5860001
0.032905977 0.075544707 1.5860001
0.044492587 0.079252422 1.5860001
0.056079194 0.077089578 1.5860002
0.064951226 0.077266142 1.5860002
0.075279877 0.078060649 1.5860002
0.08481399 0.07276392 1.5860001
0.091765955 0.070910059 1.5860001
0.10566989 0.07160525 1.5860001
0.11401226 0.070910059 1.5860001
-0.24331883 0.08203321 1.5860001
0.062567696 0.08203321 1.5860001
0.073690847 0.08203321 1.5860001
0.41502976 -0.49887419 1.5940002
0.4206194 -0.49607936 1.5940002
0.43645668 -0.49794257 1.5940002
0.44437531 -0.49408311 1.594
0.45491937 -0.49430087 1.594
0.44507405 -0.48559883 1.594
0.45415714 -0.4842014 1.594
0.46533641 -0.48210528 1.5940002
0.44605222 -0.47427982 1.594
0.45527509 -0.47502518 1.594
0.46493715 -0.47332159 1.594
0.47232345 -0.47092605 1.5940001
0.44521379 -0.46533638 1.594
0.4555546 -0.46533641 1.594
0.46498707 -0.46533638 1.594
0.47372085 -0.46533644 1.5940001
0.44633168 -0.45611352 1.594
0.4555546 -0.4555546 1.594
0.46533641 -0.4555546 1.594
0.47448304 -0.45542756 1.594
0.44856754 -0.4401831 1.5940001
0.45583406 -0.44428217 1.594
0.46505696 -0.44521374 1.594
0.47302216 -0.44786882 1.5940001
0.44856754 -0.43179867 1.5940001
0.45555457 -0.43459353 1.594
0.46365952 -0.43403453 1.5940001
0.44763592 -0.42527744 1.5940002
0.45555457 -0.4248116 1.594
0.46477747 -0.42425269 1.594
0.44717014 -0.41223496 1.5940001
0.45555457 -0.41502979 1.594
0.46533638 -0.41502973 1.594
0.47332162 -0.41423127 1.594
0.44763592 -0.40291893 1.5940002
0.45671913 -0.40594664 1.594
0.46533641 -0.40524793 1.594
0.47427979 -0.40888119 1.5940001
0.45974678 -0.39686349 1.5940001
0.46645436 -0.39546603 1.5940001
0.46693346 -0.38508537 1.594
0.47092605 -0.38428685 1.5940002
0.46673381 -0.37729979 1.5940001
0.47092605 -0.37869722 1.5940001
0.36751795 -0.16349658 1.5940001
0.37031275 -0.16209918 1.5940001
0.36472318 -0.15464635 1.594
0.37171018 -0.15511215 1.5940001
-0.19423954 0.018166287 1.5940002
-0.26131505 0.02934554 1.5940001
-0.25153321 0.02934554 1.5940001
-0.2439872 0.028227616 1.5940001
-0.23489136 0.026804803 1.594
-0.224703 0.025991764 1.594
-0.21504536 0.027171796 1.594
-0.20541877 0.026550725 1.594
-0.19633563 0.023988813 1.594
-0.18445767 0.025852025 1.594
-0.17467585 0.025991764 1.594
-0.16476695 0.026804799 1.594
-0.15511213 0.026550727 1.5940001
-0.26243296 0.035494126 1.5940001
-0.25432801 0.034935165 1.594
-0.24454618 0.034935161 1.594
-0.23616172 0.033537757 1.594
-0.21659803 0.032140352 1.5940002
-0.18166286 0.032140352 1.5940001
-0.17467582 0.032140352 1.5940001
-0.16629139 0.032140352 1.5940001
-0.15231733 0.03353776 1.5940001
-0.14571141 0.035189237 1.594
-0.13554846 0.037729979 1.5940002
-0.12576661 0.037729979 1.5940001
-0.26434276 0.045415714 1.594
-0.25642413 0.043319602 1.594
-0.24314876 0.0419222 1.5940001
-0.13554844 0.040524792 1.5940001
-0.12436919 0.0419222 1.5940001
-0.11458734 0.041922197 1.594
-0.10550421 0.042620905 1.5940001
-0.094424769 0.043319609 1.594
-0.085241809 0.046114426 1.594
-0.077556074 0.048210528 1.5940001
-0.067075521 0.048909232 1.5940001
-0.26480857 0.053800154 1.594
-0.25852025 0.054498859 1.5940001
-0.088036619 0.051704045 1.5940001
-0.073363855 0.05240275 1.5940001
-0.064280711 0.05310145 1.594
-0.053939898 0.053380929 1.5940001
-0.046114415 0.055430461 1.5940002
-0.037729979 0.057293672 1.5940001
0.15371473 0.057293672 1.5940001
-0.26410985 0.06078719 1.5940001
-0.25521728 0.064661808 1.594
-0.040524792 0.060088485 1.5940001
-0.034236461 0.06078719 1.5940001
-0.026084924 0.061951697 1.594
-0.014672771 0.06637682 1.5940001
0.01257666 0.065678112 1.5940001
0.086639211 0.068472929 1.5940001
0.095023654 0.068472929 1.5940001
0.1048055 0.068472929 1.5940002
0.11598476 0.067541324 1.5940002
0.12576659 0.065678112 1.5940001
0.13554844 0.064280704 1.5940001
0.14486448 0.062417496 1.594
-0.25572541 0.071267739 1.5940002
-0.00419222 0.071267739 1.5940002
0.00419222 0.071267739 1.5940001
0.018166287 0.071267739 1.5940001
0.02515332 0.071267739 1.5940001
0.035633869 0.074062556 1.5940001
0.04471701 0.075459957 1.594
0.053380936 0.072944626 1.5940001
0.064480342 0.072465517 1.594
0.074528359 0.074062556 1.594
0.083844401 0.071267739 1.5940001
0.11039513 0.071267739 1.5940001
0.40624034 -0.49510536 1.6090001
0.41445348 -0.49538174 1.6026
0.42607567 -0.49504977 1.601
0.43471563 -0.49519566 1.601
0.40539399 -0.48466724 1.609
0.41445345 -0.48554707 1.6025999
0.42545071 -0.48582646 1.6016666
0.43509841 -0.48562598 1.601
0.44492319 -0.48382139 1.601
0.40671051 -0.47723833 1.6090001
0.41546819 -0.47531673 1.604111
0.42527363 -0.47439757 1.601
0.43509841 -0.47439769 1.601
0.44211614 -0.47439763 1.6010001
0.41785049 -0.46600467 1.6068183
0.42527363 -0.46457291 1.601
0.43509841 -0.46457288 1.601
0.44211614 -0.46316931 1.6010001
0.47159055 -0.46737993 1.6010001
0.4179163 -0.45503995 1.606091
0.42540482 -0.4555414 1.6024544
0.43481141 -0.45463273 1.6014705
0.44387054 -0.45369539 1.601
0.45053741 -0.45053741 1.6010001
0.41736636 -0.44598234 1.6071537
0.42528489 -0.44538763 1.6055715
0.43387875 -0.44512644 1.6029998
0.44492325 -0.44492328 1.601
0.45147312 -0.44679463 1.6010002
0.4192974 -0.43899608 1.605
0.42408437 -0.43564248 1.6082001
0.43495706 -0.43536204 1.6051903
0.44492328 -0.43509841 1.601
0.45053741 -0.43790552 1.6010001
0.42467499 -0.42346993 1.6078571
0.435361 -0.42514956 1.6024547
0.44457233 -0.42562452 1.601
0.45053741 -0.42387009 1.6010001
0.42445847 -0.41529801 1.6076666
0.43417367 -0.41516843 1.6032857
0.44466808 -0.41557646 1.601
0.45053741 -0.41591668 1.6010002
0.42457756 -0.40482977 1.6090001
0.43609872 -0.40460971 1.6036667
0.44466802 -0.40409288 1.601
0.45396832 -0.40312883 1.601
0.46737993 -0.40000984 1.6010001
0.47605637 -0.40383768 1.601
0.48141536 -0.40422046 1.6010001
0.42457756 -0.39918754 1.6090001
0.43717963 -0.3957724 1.6066002
0.44430363 -0.39371291 1.603
0.454748 -0.39439571 1.601
0.46457285 -0.39399466 1.601
0.47499916 -0.3947967 1.601
0.42457756 -0.38508198 1.6090001
0.43868312 -0.38649255 1.6090001
0.44566053 -0.38547274 1.6072856
0.45517102 -0.38492808 1.6024998
0.46363714 -0.384103 1.601
0.44827491 -0.37774706 1.609
0.45569208 -0.37524331 1.6077691
0.46390885 -0.37448037 1.6075455
0.45843092 -0.36674476 1.6090001
0.33853358 -0.32019636 1.6090001
0.34502217 -0.32132483 1.609
0.34593904 -0.31490675 1.6090001
0.35122859 -0.31314355 1.6090001
0.33994415 -0.30468023 1.6090001
0.34558639 -0.3060908 1.6090001
0.35193387 -0.30679607 1.6090001
0.36582598 -0.16181074 1.605
0.36632481 -0.15860039 1.6010001
-0.22427851 0.0098738968 1.6090001
-0.21205367 0.0089335255 1.6090001
-0.20453072 0.0098738968 1.6090001
-0.19465682 0.0098738968 1.6090001
-0.25248966 0.018337237 1.6090001
-0.24375823 0.015495862 1.6072223
-0.23527014 0.015845969 1.6070001
-0.22540678 0.015493331 1.607
-0.2144925 0.015847722 1.6070001
-0.20490433 0.015718395 1.603909
-0.19456302 0.013852961 1.6032858
-0.18561223 0.01687145 1.604
-0.17490903 0.018337237 1.6090001
-0.16503513 0.017631959 1.6090001
-0.15798235 0.018337237 1.6090001
-0.27364796 0.028211134 1.6090001
-0.26447937 0.028916411 1.6090001
-0.25508651 0.024490384 1.6058
-0.24542436 0.02282073 1.6019999
-0.23439173 0.021754922 1.6010001
-0.22503479 0.02105315 1.6010002
-0.21567781 0.022924542 1.601
-0.20632088 0.02105315 1.6010002
-0.18386418 0.02105315 1.6010002
-0.17414194 0.021123284 1.6063334
-0.16512498 0.021781223 1.6030002
-0.15309344 0.024679292 1.6021429
-0.14527556 0.027524451 1.6044285
-0.13524687 0.02958487 1.6070001
-0.12553954 0.029621691 1.6090001
-0.27297118 0.035176251 1.605
-0.26737499 0.03438681 1.6010001
-0.14175788 0.032281496 1.6010001
-0.13474014 0.033685036 1.601
-0.12491536 0.03368504 1.601
-0.11643779 0.035788748 1.6045556
-0.10458838 0.037049975 1.6050001
-0.09380202 0.037379749 1.6090001
-0.08557377 0.037144657 1.6090001
-0.077580616 0.038085029 1.6090001
-0.27429387 0.04522207 1.6063334
-0.26807678 0.040702756 1.6010001
-0.10386221 0.040702756 1.6010001
-0.092633858 0.040702756 1.6010001
-0.08337047 0.041264176 1.6010001
-0.074468836 0.044492293 1.6027777
-0.06455043 0.046103213 1.6045556
-0.054963786 0.047918018 1.6076669
-0.049369484 0.049369484 1.6090001
-0.022568908 0.049369484 1.6090001
0.15516123 0.049369484 1.6090001
-0.2746678 0.054933559 1.6067144
-0.26941633 0.057832822 1.6090001
-0.063159451 0.051931102 1.6010001
-0.057545274 0.051931102 1.6010001
-0.04356996 0.053609293 1.6032858
-0.035176247 0.055340458 1.605
-0.025336837 0.054893062 1.6056666
-0.015490408 0.056326419 1.6063334
0.0056422269 0.057832822 1.6090001
0.015516124 0.057832822 1.6090001
0.026236355 0.057268601 1.609
0.035263915 0.056422267 1.6090001
0.044291478 0.057268601 1.609
0.052190598 0.057832822 1.6090001
0.1269501 0.057832822 1.6090001
0.13494326 0.057832822 1.6090001
0.14610498 0.055904161 1.6076669
0.15434818 0.054260116 1.6054444
-0.27223742 0.060653936 1.6090001
-0.26246262 0.065966539 1.6010002
-0.25965551 0.065966539 1.6010001
-0.022456694 0.060352363 1.6010001
-0.015438977 0.061755907 1.601
-0.0056282002 0.064717293 1.6049999
0.0056229392 0.064677835 1.604
0.015715206 0.064517647 1.6031818
0.02531112 0.064677835 1.6039999
0.035133585 0.064639553 1.603
0.045025602 0.064717293 1.6049997
0.054874945 0.064717285 1.605
0.064724304 0.064717285 1.6049998
0.074573644 0.064717293 1.6049999
0.0840225 0.064115271 1.6049999
0.095031105 0.06440936 1.6060001
0.10522752 0.06516771 1.609
0.11507564 0.063866839 1.6060909
0.12501706 0.061806168 1.6023334
0.13523422 0.061686642 1.6044285
0.14175788 0.061755907 1.6010001
0.00421063 0.071580708 1.6010001
0.036492124 0.071580708 1.6010001
0.044913385 0.071580708 1.6010001
0.075791344 0.071580708 1.6010001
0.080001973 0.071580708 1.6010001
0.39809081 -0.49442598 1.6160001
0.40234089 -0.49442598 1.6160001
0.39809081 -0.48309243 1.6160001
0.40186867 -0.48450914 1.6160001
0.39667413 -0.47742566 1.6160001
0.4056465 -0.47459227 1.6160001
0.41225776 -0.47317559 1.6160001
0.4072206 -0.46577728 1.6160001
0.41414663 -0.46451801 1.6160001
0.40871602 -0.45405018 1.6160001
0.4129661 -0.45546693 1.6160001
0.4084799 -0.44578615 1.6160001
0.41402858 -0.44377917 1.6160001
0.4150911 -0.43492484 1.6160001
0.42406356 -0.43445262 1.6160001
0.43209147 -0.43209147 1.6160001
0.40942439 -0.42359129 1.6160001
0.41509107 -0.42500797 1.6159998
0.42359132 -0.42642471 1.6160001
0.40942439 -0.41509116 1.6160001
0.4150911 -0.4150911 1.6160001
0.42288297 -0.41438282 1.6160001
0.41534865 -0.40556067 1.6159999
0.42453575 -0.40517426 1.6159998
0.43209147 -0.40517429 1.6160001
0.41603556 -0.3947852 1.6160001
0.42462161 -0.39525744 1.6159999
0.43411532 -0.39485267 1.6160001
0.4154059 -0.38644248 1.6160001
0.4249135 -0.38524619 1.6159997
0.43466723 -0.38546941 1.6159999
0.4415361 -0.38203499 1.6160001
0.42472467 -0.37655705 1.6159999
0.43492484 -0.37825713 1.6160001
0.44484171 -0.3754237 1.6159998
0.45192516 -0.37259033 1.6160001
0.47317556 -0.3754237 1.6160001
0.44909179 -0.36975697 1.6160001
0.45475858 -0.36773309 1.6160001
0.4646754 -0.36550689 1.6160001
0.47270334 -0.36881247 1.6160001
0.3385897 -0.34142309 1.6160001
0.34567317 -0.34283975 1.6160001
0.35559008 -0.34283981 1.6160001
0.36550689 -0.34354815 1.6160001
0.3357563 -0.33170864 1.6160001
0.34567311 -0.33433962 1.6159997
0.35559008 -0.33433962 1.6159998
0.36409017 -0.33433962 1.6159998
0.32725614 -0.32158938 1.6160001
0.33395326 -0.32468039 1.6159999
0.34567317 -0.32631171 1.6160001
0.35559005 -0.32442278 1.6160001
0.36328062 -0.32482752 1.6160001
0.32725614 -0.31308922 1.6160001
0.33433962 -0.31450593 1.6159997
0.34198976 -0.31422257 1.6159999
0.35665256 -0.31556845 1.6160001
0.3624711 -0.31470829 1.6160001
0.31781152 -0.30270013 1.6160001
0.32442281 -0.30458906 1.6160001
0.33433962 -0.30458906 1.6159998
0.3456732 -0.30175567 1.6160001
0.3563996 -0.30418426 1.6160001
0.36125681 -0.30742246 1.6160001
0.31781152 -0.29797783 1.6160001
0.32442281 -0.29467222 1.6159998
0.33433962 -0.29467219 1.6159997
0.34567311 -0.29467225 1.6159997
0.35346499 -0.29679725 1.6160001
0.32725614 -0.28475535 1.6160001
0.33433962 -0.28475538 1.6159998
0.34482312 -0.28503865 1.6159999
0.33405629 -0.27512181 1.6159997
0.34354815 -0.27838024 1.6160001
-0.24225456 -0.25075471 1.6160001
-0.2521714 -0.24792133 1.6160001
-0.24473378 -0.24544214 1.6160001
-0.23942117 -0.24650463 1.6160001
-0.21351592 -0.24427842 1.6160001
-0.20730947 -0.24697687 1.6160001
-0.24367125 -0.23800448 1.6160001
-0.23942117 -0.23800448 1.6160001
-0.22667092 -0.23942117 1.6160001
-0.2153374 -0.23942117 1.6160001
-0.26208827 -0.22808762 1.6160001
0.36550689 -0.16575313 1.6160001
-0.22525424 -0.0028333867 1.6160001
-0.21958746 -0.0014166933 1.6160001
-0.28286645 0.0089723906 1.6160001
-0.27423134 0.0087025445 1.6160001
-0.26444945 0.0080279289 1.6160001
-0.25472149 0.0073668053 1.6159999
-0.24473378 0.0074376399 1.6160001
-0.23506211 0.0066475617 1.6159998
-0.22525424 0.0042500799 1.6160001
-0.21628185 0.0051945425 1.6159998
-0.20542052 0.0062739276 1.6160001
-0.19570605 0.0058691581 1.6160001
-0.18558681 0.0085001606 1.6160001
-0.17897558 0.0089723906 1.6160001
-0.16575313 0.0099168532 1.6160001
-0.29042214 0.018417014 1.6160001
-0.28394583 0.015988396 1.6160001
-0.27483848 0.015583627 1.6159998
-0.26492167 0.015583626 1.6160001
-0.25513363 0.015326047 1.6159999
-0.23658778 0.01275024 1.6160001
-0.21817076 0.01275024 1.6160001
-0.18558683 0.012750241 1.6160001
-0.17566997 0.014166933 1.6160001
-0.16480868 0.014166933 1.6160001
-0.15583625 0.017000321 1.6160001
-0.30458906 0.021250401 1.6160001
-0.29268888 0.026067156 1.6159999
-0.28475532 0.025500478 1.6159998
-0.27522483 0.024083788 1.6159999
-0.26527584 0.023729615 1.6160001
-0.15300289 0.021250401 1.6160001
-0.14450273 0.024083788 1.6160001
-0.13458587 0.025500482 1.6160001
-0.12551901 0.026917171 1.6159999
-0.11758555 0.029750559 1.6160001
-0.29231104 0.033528414 1.6160001
-0.28475535 0.035417333 1.6160001
-0.27908859 0.035417333 1.6160001
-0.11333546 0.034000643 1.6160001
-0.10341862 0.035417333 1.6160001
-0.094918452 0.034472872 1.6160001
-0.08452937 0.033528414 1.6160001
-0.28286645 0.046278644 1.6160001
-0.27908859 0.042500801 1.6160001
-0.072251357 0.041084107 1.6160001
-0.063751198 0.042028572 1.6160001
-0.055251043 0.043917492 1.6160001
-0.04533419 0.047459226 1.6160001
-0.036125679 0.04887592 1.6160001
-0.025783818 0.047884233 1.6159999
-0.014166933 0.049584266 1.6160001
0.0028333867 0.049584266 1.6160001
0.018417014 0.049584266 1.6160001
0.032583948 0.049584266 1.6160001
0.14648609 0.04845091 1.6159999
0.15441957 0.045334186 1.6160001
0.26548833 0.045617528 1.6159999
0.27247736 0.044861954 1.6160001
-0.28381088 0.053362116 1.6160001
-0.034000643 0.052417655 1.6160001
-0.015583627 0.052417655 1.6160001
-0.0058691576 0.056870114 1.6160001
0.005059619 0.054036733 1.6160001
0.015583627 0.054117687 1.6159999
0.024650464 0.054117687 1.6159999
0.035417333 0.052417655 1.6160001
0.045617528 0.054117687 1.6159999
0.05666773 0.058084425 1.6160001
0.065451235 0.057517748 1.6159999
0.075084746 0.057376079 1.6160001
0.083584905 0.057376079 1.6160001
0.094918452 0.058084425 1.6160001
0.10058523 0.058084425 1.6160001
0.11475217 0.058084425 1.6160001
0.12561347 0.055251043 1.6160001
0.13499062 0.054441504 1.6160001
0.14251935 0.053551007 1.6159999
-0.27058843 0.063751198 1.6160001
0.094918452 0.060917813 1.6160001
0.10483531 0.061862275 1.6160001
0.11191877 0.060917813 1.6160001
0.38772276 -0.49877191 1.6240001
0.39436674 -0.49544993 1.6240004
0.40006158 -0.49117881 1.6240001
0.39436674 -0.48548397 1.6240003
0.39721414 -0.4740943 1.6240001
0.40148529 -0.47409436 1.6240002
0.39721414 -0.46839949 1.6240001
0.40362087 -0.46519616 1.6240003
0.40490216 -0.45644036 1.6240003
0.4048073 -0.44656929 1.6240002
0.4073835 -0.43504408 1.6240003
0.41145122 -0.43565422 1.6240001
0.40656996 -0.42528152 1.6240003
0.40601528 -0.41611061 1.6240004
0.41145122 -0.41145122 1.6240001
0.40601528 -0.40446213 1.6240004
0.41240034 -0.40338358 1.6240002
0.40575644 -0.39436674 1.6240003
0.41315967 -0.39550573 1.6240002
0.4313831 -0.39721414 1.6240001
0.40689534 -0.38696343 1.6240002
0.41493136 -0.38329342 1.6240003
0.43612877 -0.38202795 1.6240001
0.41657653 -0.37471956 1.6240003
0.42487475 -0.37402806 1.6240003
0.43565425 -0.37443486 1.6240004
0.44562018 -0.37158743 1.6240001
0.46697581 -0.37158743 1.6240001
0.4712469 -0.37158743 1.6240001
0.3402659 -0.36019778 1.6240001
0.41999346 -0.36589262 1.6240001
0.42663741 -0.36494347 1.6240003
0.43814573 -0.36553669 1.6240003
0.44562021 -0.3644689 1.6240004
0.45511159 -0.36328253 1.6240004
0.46555209 -0.36418417 1.6240002
0.4712469 -0.36589262 1.6240001
0.33457103 -0.35307923 1.6240002
0.34346926 -0.35343516 1.6240003
0.35450295 -0.35165557 1.6240001
0.36589259 -0.35165554 1.6240001
0.4180952 -0.3535538 1.6240001
0.4260442 -0.35414702 1.6240003
0.43992534 -0.35592666 1.6240001
0.44514558 -0.35545209 1.6240002
0.45416239 -0.3552148 1.6240003
0.32765594 -0.34392685 1.6240003
0.33457109 -0.34453702 1.6240004
0.34311333 -0.34690988 1.6240002
0.35450295 -0.34880814 1.6240001
0.36399436 -0.34690985 1.6240002
0.37215692 -0.3436828 1.6240002
0.41999346 -0.34738442 1.6240001
0.42711198 -0.34738442 1.6240001
0.45302349 -0.34596074 1.6240002
0.32602882 -0.33457109 1.6240003
0.33400157 -0.33627948 1.6240002
0.37301114 -0.33457109 1.6240002
0.32531697 -0.32436782 1.6240004
0.36873999 -0.32318142 1.6240001
0.37215692 -0.32545933 1.6240002
0.31748658 -0.31179175 1.6240001
0.32318142 -0.31463915 1.6240003
0.36802816 -0.31463915 1.6240001
0.37158743 -0.31463918 1.6240001
0.30823249 -0.30253765 1.6240001
0.3143228 -0.30483139 1.6240003
0.32033399 -0.30894434 1.6240001
0.36351979 -0.30419865 1.6240002
0.30752063 -0.2947073 1.6240002
0.31463918 -0.2947073 1.6240003
0.32033399 -0.29328358 1.6240001
0.35663852 -0.29399544 1.6240001
0.36019778 -0.29613099 1.6240001
0.30894434 -0.28901246 1.6240001
0.31504592 -0.28697857 1.6240003
0.32361948 -0.28441274 1.6240004
0.35379109 -0.28474131 1.6240003
0.31748658 -0.27477539 1.6240001
0.32460511 -0.27477536 1.6240004
0.34514716 -0.27477539 1.6240003
0.35165554 -0.27762279 1.6240001
-0.24345385 -0.26148745 1.6240001
-0.23491161 -0.26053831 1.6240001
0.31748658 -0.26338574 1.6240001
0.32432035 -0.26509422 1.6240004
0.33421513 -0.26658908 1.6240003
0.3402659 -0.26908055 1.6240001
-0.26765686 -0.25484347 1.6240001
-0.25270793 -0.25413164 1.6240001
-0.24500699 -0.25510237 1.6240004
-0.23633529 -0.2548435 1.6240002
-0.22399652 -0.25294521 1.6240002
-0.21497971 -0.25341979 1.6240002
-0.20786119 -0.25341979 1.6240001
0.31748658 -0.25769091 1.6240001
0.32318139 -0.25769091 1.6240001
-0.24487755 -0.24345385 1.6240001
-0.23491162 -0.24487753 1.6240004
-0.22453889 -0.24548766 1.6240004
-0.21640341 -0.24914867 1.6240001
-0.25199607 -0.23206419 1.6240001
-0.24487756 -0.23348789 1.6240003
-0.23491161 -0.23491161 1.6240003
-0.22494566 -0.23491162 1.6240004
-0.21782711 -0.23775901 1.6240001
-0.26310101 -0.22409144 1.6240003
-0.25484347 -0.22494566 1.6240004
-0.24548768 -0.22535244 1.6240004
-0.23491161 -0.22779305 1.6240002
-0.22921677 -0.22921677 1.6240001
-0.26302981 -0.21533562 1.6240003
-0.25448754 -0.21462378 1.6240003
-0.24630123 -0.21497971 1.6240003
-0.26338574 -0.20928487 1.6240001
-0.25199607 -0.20928487 1.6240001
-0.24914867 -0.20928487 1.6240001
0.36304519 -0.16514997 1.6240001
-0.28331763 -0.0014237066 1.6240001
-0.27477539 -0.0014237066 1.6240001
-0.2645247 -0.0019931891 1.6240002
-0.25555533 -0.0021355599 1.6240001
-0.24426739 -0.0026440267 1.6240003
-0.23491161 -0.0042711203 1.6240003
-0.22481623 -0.0058242548 1.6240004
-0.21592884 -0.003321982 1.6240002
-0.20786117 -0.0014237066 1.6240001
-0.19220039 -0.0014237066 1.6240001
-0.18935299 -0.0014237066 1.6240001
-0.29308018 0.0063049868 1.6240003
-0.28521588 0.0045084045 1.6240004
-0.27477539 0.0028474133 1.6240002
-0.26516536 0.0032033399 1.6240003
-0.25484347 0.0028474133 1.6240001
-0.24573179 0.0019931893 1.6240002
-0.23491159 0.0014237066 1.6240001
-0.21213229 0.0014237066 1.6240001
-0.20501375 0.0014237066 1.6240001
-0.19504781 0.0021355599 1.6240001
-0.186031 0.0033219822 1.6240002
-0.17454644 0.008257499 1.6240002
-0.16562454 0.0085422406 1.6240002
-0.15803143 0.0099659469 1.6240001
-0.30609694 0.015660774 1.6240001
-0.29506323 0.015304849 1.6240003
-0.28901246 0.014237067 1.6240001
-0.16087885 0.012813359 1.6240001
-0.15518403 0.015660772 1.6240001
-0.14664179 0.018508187 1.6240001
-0.12955731 0.018508187 1.6240001
-0.30324951 0.021355599 1.6240001
-0.2975547 0.022779306 1.6240001
-0.14308253 0.022067454 1.6240001
-0.13525213 0.021355599 1.6240001
-0.12467603 0.023389468 1.6240003
-0.11475076 0.028189391 1.6240002
-0.10748985 0.029185988 1.6240001
-0.095388345 0.029897841 1.6240001
-0.089693516 0.029897841 1.6240001
-0.29280901 0.037490942 1.6240001
-0.11247282 0.032745253 1.6240001
-0.10535429 0.032745253 1.6240001
-0.096812055 0.032745253 1.6240001
-0.085422397 0.034168959 1.6240001
-0.074032746 0.038440078 1.6240001
-0.064636283 0.037870597 1.6240002
-0.055524558 0.037016373 1.6240002
-0.04650775 0.037490942 1.6240002
-0.014237067 0.038440078 1.6240001
0.15233661 0.038440078 1.6240001
-0.29185987 0.046033185 1.6240001
-0.28806332 0.044609476 1.6240002
-0.065490507 0.041287493 1.6240001
-0.055524558 0.041287493 1.6240001
-0.044948451 0.042507816 1.6240003
-0.035185896 0.044134911 1.6240003
-0.026101289 0.043185771 1.6240003
-0.015945513 0.044704389 1.6240003
-0.0048406026 0.049260251 1.6240002
0.0056948266 0.048406027 1.6240001
0.015660774 0.048880596 1.6240001
0.025626719 0.049829733 1.6240001
0.035592668 0.048880596 1.6240001
0.046033185 0.049829733 1.6240001
0.055524558 0.049829733 1.6240001
0.062643096 0.049829733 1.6240001
0.12955731 0.049829733 1.6240001
0.13525213 0.049829733 1.6240001
0.14436385 0.046412837 1.6240002
0.15233661 0.041287493 1.6240001
-0.29185987 0.054100852 1.6240001
-0.28901246 0.054100852 1.6240001
-0.0054100854 0.053246628 1.6240002
0.0099659469 0.052677147 1.6240001
0.015660774 0.052677147 1.6240001
0.025626719 0.052677147 1.6240001
0.046982318 0.052677147 1.6240001
0.055524562 0.054100852 1.6240002
0.065287121 0.053897467 1.6240003
0.075456455 0.05381611 1.6240002
0.085625783 0.054711014 1.6240003
0.094981566 0.055524562 1.6240003
0.10582886 0.056948263 1.6240002
0.11389653 0.055524558 1.6240001
0.12291334 0.054575425 1.6240001
0.38426363 -0.49545029 1.6343334
0.39058653 -0.49359837 1.6320001
0.38514325 -0.48566675 1.6380668
0.39257571 -0.48379377 1.6343335
0.38938817 -0.47559956 1.6390001
0.39462528 -0.47571677 1.6358184
0.39686534 -0.46572953 1.6364547
0.40203232 -0.46355328 1.6320001
0.39763424 -0.45642266 1.6355001
0.40214485 -0.4548862 1.6348002
0.3980093 -0.44542557 1.6390001
0.40370056 -0.44503167 1.6349168
0.3980093 -0.43536758 1.6390001
0.40275943 -0.43505582 1.6339092
0.39730954 -0.42442697 1.6374445
0.40237474 -0.42643538 1.6334002
0.39722207 -0.41588128 1.6372501
0.40211272 -0.41439179 1.6340001
0.39674291 -0.40502703 1.6351112
0.4021261 -0.40451476 1.6343335
0.39687195 -0.39401048 1.6343334
0.40203232 -0.39487872 1.6320001
0.39709458 -0.38445762 1.6376002
0.40428516 -0.38522348 1.6370001
0.41204736 -0.38200223 1.6320001
0.33717653 -0.37161604 1.6366668
0.34508011 -0.37379679 1.6378335
0.40566325 -0.37554553 1.6360835
0.41316018 -0.37341791 1.6320001
0.4220624 -0.37055647 1.6320001
0.43350816 -0.37055647 1.6320001
0.46784544 -0.37055647 1.6320001
0.30605048 -0.36639845 1.6390001
0.31610847 -0.36208785 1.6390001
0.32472959 -0.36424315 1.6390001
0.33514595 -0.36522785 1.6337501
0.34553248 -0.36558557 1.6337501
0.3539457 -0.36496159 1.6390001
0.36496159 -0.36065102 1.6390001
0.37214586 -0.36065102 1.6390001
0.40609893 -0.36464328 1.6358184
0.41490877 -0.36483356 1.6320001
0.42377925 -0.3642613 1.6320002
0.43555206 -0.36442479 1.6320001
0.46784544 -0.36769503 1.6320001
0.27731332 -0.35202989 1.6390001
0.2816239 -0.35202989 1.6390001
0.30892417 -0.3577773 1.6390001
0.31467161 -0.35490358 1.6390001
0.32441446 -0.35464519 1.6357694
0.33335778 -0.35767999 1.6320001
0.34623423 -0.35911071 1.6320001
0.35386476 -0.3572031 1.6320001
0.36545953 -0.35571593 1.6348002
0.37501958 -0.35562202 1.6390001
0.38076702 -0.35202989 1.6390001
0.40663043 -0.35490361 1.6390001
0.41513252 -0.3555617 1.6345001
0.42322725 -0.35519442 1.6337501
0.43636954 -0.35481855 1.6320001
0.44438162 -0.35167092 1.6320002
0.4506768 -0.35338783 1.6320001
0.27731332 -0.34484559 1.6390001
0.28210285 -0.34532455 1.6390001
0.30796626 -0.34388769 1.6390001
0.31525242 -0.34527156 1.6363078
0.32380298 -0.34529853 1.6343335
0.37777114 -0.34530059 1.6343335
0.383066 -0.34398347 1.6390002
0.404982 -0.34503517 1.6385334
0.4145824 -0.3452509 1.6341002
0.42513534 -0.34404275 1.6358184
0.43522367 -0.34481546 1.6345456
0.44495079 -0.34358907 1.6350001
0.45227492 -0.34433654 1.6343335
0.27731332 -0.33766133 1.6390001
0.2816239 -0.33478761 1.6390001
0.30777469 -0.33536234 1.6390002
0.31567091 -0.33516961 1.6352668
0.32191199 -0.33478844 1.6320001
0.37914079 -0.33478844 1.6320001
0.38364074 -0.33622447 1.6390001
0.40450066 -0.33456787 1.6357694
0.41462263 -0.33488387 1.6320001
0.42538625 -0.33542365 1.6374445
0.43249384 -0.33478761 1.6390001
0.44722164 -0.33514684 1.6390001
0.45509449 -0.33449674 1.6376002
0.2836355 -0.32214326 1.6390002
0.30892417 -0.32472962 1.6390001
0.31514901 -0.32508326 1.6357694
0.32191199 -0.32620415 1.6320001
0.37627935 -0.32477343 1.6320001
0.38076702 -0.32472962 1.6390001
0.40806729 -0.32904017 1.6390001
0.41551283 -0.32512143 1.6390001
0.4243952 -0.32512146 1.6390001
0.43249387 -0.32760331 1.6390001
0.44973615 -0.32904017 1.6390001
0.28388181 -0.3150821 1.6390001
0.30777469 -0.31409687 1.6390002
0.31439248 -0.3153483 1.6325835
0.37511763 -0.31354961 1.6331668
0.41668844 -0.31754532 1.6390001
0.42243588 -0.31610847 1.6390001
0.28497657 -0.30557153 1.6390001
0.29742932 -0.30317676 1.6390001
0.3037442 -0.30505267 1.6364547
0.36769503 -0.30331263 1.6320001
0.37283888 -0.30535161 1.6378335
0.42387271 -0.30461362 1.6390001
0.28593448 -0.2945556 1.6390001
0.29742932 -0.2945556 1.6390001
0.30302581 -0.29443127 1.6343335
0.3650589 -0.29552293 1.6330001
0.42099896 -0.2945556 1.6390001
0.28593448 -0.28737134 1.6390001
0.29742932 -0.28497657 1.6390001
0.30373362 -0.28467637 1.6365001
0.31368536 -0.28364024 1.6320001
0.35911071 -0.28471327 1.6320001
0.36352473 -0.28737134 1.6390001
0.41920096 -0.28614399 1.6320001
0.4220624 -0.28614399 1.6320001
-0.21265478 -0.27156591 1.6390001
-0.20834422 -0.27156591 1.6390001
0.28401867 -0.2744396 1.6390001
0.29742932 -0.27300277 1.6390001
0.30498224 -0.27473739 1.6368463
0.31397277 -0.27454743 1.633077
0.34697986 -0.27242285 1.6355001
0.35439429 -0.27691445 1.6366668
-0.26198685 -0.26102898 1.6390001
-0.25414282 -0.26561004 1.6355001
-0.24577224 -0.26541987 1.6340001
-0.23526765 -0.26516625 1.6350001
-0.22547944 -0.26505512 1.6382222
-0.2151465 -0.26534954 1.6360835
-0.20535928 -0.26424125 1.6381251
-0.19972308 -0.26581848 1.6390001
0.28306076 -0.26581848 1.6390001
0.29742932 -0.26438165 1.6390001
0.30392036 -0.26475415 1.6375
0.31362358 -0.26493686 1.6335557
0.33564693 -0.26239404 1.6320002
0.34364322 -0.26514828 1.6378335
-0.27441457 -0.25385645 1.6326365
-0.26596314 -0.25736347 1.6355001
-0.25752959 -0.25609887 1.6320001
-0.23225355 -0.25514504 1.6320001
-0.22462304 -0.25800648 1.6320001
-0.214608 -0.25896031 1.6320001
-0.20440447 -0.25646299 1.6343335
0.28593448 -0.25144991 1.6390001
0.30483654 -0.25498599 1.6380001
0.31500733 -0.25481647 1.6348001
0.32508573 -0.25347742 1.6335557
0.33378655 -0.25606969 1.6355002
-0.27755967 -0.24751456 1.6320001
0.28593448 -0.24570249 1.6390001
0.30700836 -0.2466604 1.6390001
0.31452093 -0.24558452 1.6382222
0.32433772 -0.24596372 1.6390001
0.31179789 -0.23995507 1.6390001
-0.27156591 -0.22558649 1.6390001
-0.26754463 -0.21317728 1.6320001
-0.25896031 -0.21890016 1.6320001
0.36783531 -0.17098594 1.6390001
0.36352473 -0.16811223 1.6390001
-0.29383719 -0.010776426 1.6390001
-0.28737134 -0.010057997 1.6390001
-0.27156591 -0.010057997 1.6390001
-0.26338688 -0.014036985 1.6390001
-0.25450116 -0.013502158 1.6383002
-0.24556887 -0.013488042 1.6362002
-0.23555137 -0.013728663 1.6355001
-0.22571763 -0.014123851 1.6340001
-0.21546724 -0.011277316 1.6370001
-0.20738631 -0.011015902 1.6390001
-0.30481887 -0.0034895095 1.6390001
-0.29385811 -0.0043044332 1.6351112
-0.28461742 -0.0049416726 1.6351112
-0.27458742 -0.0055316417 1.6350001
-0.26468319 -0.0060090241 1.6320002
-0.25405499 -0.0059272684 1.6320001
-0.24465312 -0.0071536 1.6320001
-0.212605 -0.0060090241 1.6320002
-0.20456128 -0.004659812 1.6346251
-0.19624847 -0.0046264622 1.6366668
-0.18679136 -0.0014368567 1.6390001
-0.30520263 0.0046613463 1.6363751
-0.29830509 0.0035768 1.6320001
-0.18313216 0.00143072 1.6320001
-0.17492218 0.0028645082 1.6355001
-0.16452552 0.0034798658 1.636
-0.15763061 0.0054539191 1.6376002
-0.30408135 0.013839839 1.6335557
-0.29902047 0.01001504 1.6320001
-0.15289198 0.012529539 1.6337501
-0.14478445 0.013938761 1.6351819
-0.13544492 0.01504455 1.6349168
-0.12525603 0.017484238 1.6348002
-0.11638539 0.018679136 1.6390001
-0.30188191 0.02289152 1.6320001
-0.1216112 0.0214608 1.6320001
-0.11463939 0.02292604 1.6346251
-0.10466655 0.025805121 1.6355001
-0.095651351 0.026303506 1.6366668
-0.063221693 0.027300276 1.6390001
-0.054045916 0.026303507 1.6366668
-0.044447437 0.025805121 1.6355001
-0.034138277 0.024954667 1.6362002
-0.024042804 0.024756629 1.6372501
-0.014955432 0.026018715 1.636
-0.0071842833 0.027300276 1.6390001
0.25360522 0.026581848 1.6390001
-0.10158112 0.03004512 1.6320001
-0.084529072 0.031045981 1.6343335
-0.074556991 0.03440785 1.6355001
-0.064423606 0.032926723 1.6330001
-0.05436736 0.031475838 1.6320001
-0.043994639 0.032548878 1.6320001
-0.034337278 0.034337278 1.6320001
-0.02432224 0.034337278 1.6320001
-0.014316405 0.03375436 1.6335001
-0.0045640063 0.034817293 1.6364547
0.003896533 0.036695141 1.6370001
0.013410662 0.037837226 1.6390001
0.025144991 0.038076699 1.6390001
0.034484558 0.038795128 1.6390001
0.041668843 0.038795128 1.6390001
0.087648258 0.038795128 1.6390001
0.093874633 0.037837226 1.6390001
0.10489053 0.038795128 1.6390001
0.11063796 0.038795128 1.6390001
0.14799623 0.038795128 1.6390001
0.15086995 0.038795128 1.6390001
0.24857621 0.031610847 1.6390001
0.25432363 0.030173989 1.6390001
0.27558345 0.035883062 1.6372501
-0.29329759 0.044352319 1.6320001
-0.035767999 0.041490879 1.6320001
-0.01001504 0.044352319 1.6320001
-0.0046498398 0.043994639 1.6320001
0.0047009368 0.043534763 1.6320001
0.013917003 0.04409219 1.6320001
0.02432224 0.044352319 1.6320001
0.034496356 0.044124547 1.6332729
0.044415731 0.044411644 1.6343334
0.053968865 0.04536818 1.6343334
0.065067604 0.046145275 1.6348002
0.074599184 0.04590347 1.6363751
0.084951185 0.044802051 1.6355001
0.094732828 0.044491928 1.6372501
0.10484212 0.044520054 1.6382222
0.11494853 0.044542551 1.6390001
0.12443179 0.046266783 1.6390002
0.1349678 0.045410454 1.6358889
0.14465766 0.04296609 1.6337501
0.15022559 0.041490879 1.6320001
0.27815187 0.044441301 1.6355001
0.28018704 0.043105699 1.6390001
0.044352319 0.050075199 1.6320001
0.05579808 0.050075199 1.6320001
0.067243837 0.050075199 1.6320001
0.074397437 0.050075199 1.6320001
0.084412478 0.050075199 1.6320001
0.094427519 0.051029012 1.6320001
0.10485133 0.052119084 1.6320001
0.1149345 0.051982827 1.6320001
0.12375727 0.05079056 1.6320001
0.37685007 -0.49524742 1.6470002
0.34508494 -0.48658419 1.6470001
0.35086042 -0.48658419 1.6470001
0.37713888 -0.48600665 1.6470001
0.38479134 -0.48153067 1.6470001
0.38551331 -0.47503322 1.6470002
0.39128876 -0.4721455 1.6470001
0.38666838 -0.46752509 1.6470001
0.3932139 -0.46508661 1.6470002
0.39500159 -0.45523152 1.6470002
0.39562038 -0.44471192 1.6470002
0.38840103 -0.43171713 1.6470001
0.39453745 -0.43424392 1.6470002
0.38840103 -0.42449778 1.6470001
0.39273262 -0.42449781 1.6470002
0.38840103 -0.41583455 1.6470001
0.39273262 -0.41439071 1.6470002
0.39417651 -0.40572748 1.6470001
0.27520162 -0.3918663 1.6470001
0.28485492 -0.39335141 1.6470002
0.39475405 -0.39475402 1.6470001
0.27446654 -0.38577583 1.6470001
0.28444239 -0.38551331 1.6470002
0.29743722 -0.38262555 1.6470001
0.30465657 -0.38262555 1.6470001
0.3133198 -0.38262555 1.6470001
0.32487074 -0.38262555 1.647
0.33497787 -0.38358811 1.6470002
0.34219718 -0.38262555 1.6470001
0.35230428 -0.38262555 1.6470001
0.38840103 -0.38551328 1.6470001
0.39417648 -0.38510078 1.6470002
0.26711595 -0.37829393 1.6470001
0.27443159 -0.37569502 1.6469998
0.28444239 -0.37540624 1.647
0.29743719 -0.37396231 1.6470002
0.30439404 -0.37580001 1.6470001
0.31447485 -0.37511745 1.6469998
0.3248708 -0.37540624 1.647
0.33440033 -0.37742764 1.6470001
0.34580684 -0.37829393 1.6470001
0.35637334 -0.37580001 1.6470001
0.36298892 -0.3762725 1.6470001
0.37877521 -0.37203717 1.647
0.38623521 -0.37396234 1.6470002
0.39562035 -0.37540624 1.6469998
0.40283975 -0.37396231 1.647
0.27505726 -0.36421621 1.6470002
0.28444239 -0.36529911 1.6470002
0.29494324 -0.36503661 1.6470001
0.3042956 -0.36529914 1.6470002
0.3133198 -0.36602104 1.6470002
0.35952362 -0.36674297 1.6470001
0.36578038 -0.36529911 1.6470002
0.37576717 -0.36566013 1.6470002
0.38551331 -0.36529911 1.6470002
0.39562035 -0.3658767 1.6470001
0.40356168 -0.36457717 1.6470001
0.27409467 -0.35495135 1.647
0.28485492 -0.35746095 1.6470002
0.29454947 -0.35519204 1.6469998
0.30465654 -0.35519198 1.647
0.31043205 -0.35519201 1.6470001
0.37973779 -0.35807976 1.6470001
0.38583416 -0.35631502 1.6470002
0.39677545 -0.35634708 1.6470001
0.40283975 -0.3566359 1.647
0.26615337 -0.34412232 1.647
0.2728914 -0.34508491 1.6470002
0.28733012 -0.34508491 1.647
0.29494324 -0.34534743 1.6470001
0.30383149 -0.34549743 1.6470002
0.38743845 -0.34701011 1.647
0.39642251 -0.3444432 1.6470002
0.43749261 -0.34219718 1.6470001
0.44038033 -0.34219718 1.6470001
0.26711595 -0.33497784 1.6470001
0.27433532 -0.33497784 1.647
0.28588626 -0.33353397 1.6470002
0.29657087 -0.33526665 1.6470001
0.304079 -0.33440033 1.6470001
0.38743845 -0.33401528 1.6470002
0.3954891 -0.3358967 1.6470001
0.40428358 -0.33064622 1.6470001
0.4288294 -0.33353397 1.647
0.43749261 -0.33642173 1.647
0.44326809 -0.33405903 1.6470001
0.45626292 -0.3342559 1.6470001
0.46059453 -0.3364217 1.6470001
0.26711595 -0.32631463 1.6470001
0.27472913 -0.32513329 1.6470001
0.28372046 -0.32631463 1.6470001
0.29635429 -0.3245098 1.6470002
0.30465657 -0.32487077 1.6470002
0.38695717 -0.32487074 1.6470002
0.39128876 -0.32631463 1.6470001
0.40572745 -0.32487077 1.6470002
0.41222489 -0.3241488 1.6470001
0.4288294 -0.32487074 1.647
0.43364227 -0.32294559 1.647
0.44615582 -0.32775849 1.647
0.45481905 -0.32487077 1.6470002
0.27577919 -0.31476364 1.647
0.28155464 -0.3133198 1.647
0.29454947 -0.31476361 1.6469998
0.30357364 -0.31584656 1.6470002
0.37973779 -0.31043205 1.6470001
0.38334748 -0.31692946 1.6470001
0.40737757 -0.31496996 1.6470002
0.41412812 -0.31436986 1.6470001
0.42489156 -0.31331977 1.6470001
0.43316099 -0.31476367 1.6470002
0.27577919 -0.30465657 1.6470002
0.28270975 -0.30407903 1.6470001
0.2931056 -0.30465654 1.6470002
0.37829393 -0.30465657 1.6470001
0.40717134 -0.30465654 1.6470002
0.41439068 -0.30465657 1.6470002
0.4213213 -0.304079 1.6470001
-0.24690177 -0.29599336 1.6470001
0.27577919 -0.29454947 1.647
0.28347981 -0.29470989 1.6470002
0.2931056 -0.29454947 1.647
0.36818686 -0.29166174 1.6470001
0.37251845 -0.29743722 1.6470001
0.40765262 -0.29454947 1.6470002
0.41439068 -0.29454947 1.647
0.42016616 -0.29454947 1.6470001
0.27577916 -0.28444239 1.6470002
0.28408143 -0.28408143 1.6470002
0.29368314 -0.28444239 1.6470001
0.36385524 -0.2829985 1.6470001
0.4086152 -0.28733012 1.6470001
0.41475159 -0.28480336 1.6470002
0.4213213 -0.28386483 1.6470001
-0.27096626 -0.27192882 1.647
-0.26340315 -0.27247888 1.6470002
-0.25614253 -0.27404651 1.6470001
-0.24483909 -0.274129 1.6470002
-0.23493828 -0.27371648 1.6470002
