# .PCD v0.7 - Point Cloud Data file format
VERSION 0.7
FIELDS x y z
SIZE 4 4 4
TYPE F F F
COUNT 1 1 1
WIDTH 1457
HEIGHT 1
VIEWPOINT 0 0 0 1 0 0 0
POINTS 1457
DATA ascii
-0.024812296 -0.027203843 1.7050002
-0.014648223 -0.024214409 1.7050002
0.0074735833 -0.022420749 1.705
0.014947167 -0.022420749 1.705
0.025410183 -0.022420749 1.705
0.034378484 -0.022420749 1.705
0.27726993 -0.025410183 1.705
0.28250146 -0.023915466 1.705
-0.0044841501 -0.0179366 1.705
0.0044841501 -0.019431317 1.705
0.015843997 -0.01883343 1.7050002
0.025410181 -0.0179366 1.705
0.034752168 -0.016815562 1.705
0.044433847 -0.016170116 1.705
0.056051876 -0.015694525 1.705
0.064272806 -0.01524611 1.7050002
0.074735835 -0.01345245 1.7050002
0.085198849 -0.011957734 1.705
0.094167151 -0.011658791 1.7050002
0.10562664 -0.011459495 1.705
0.11509319 -0.011957734 1.705
0.12406147 -0.011957734 1.705
0.13452449 -0.011957732 1.705
0.14349279 -0.011957734 1.705
0.15096638 -0.010463017 1.705
0.28848031 -0.019431317 1.705
0.2938613 -0.01524611 1.7050002
0.30043805 -0.010463017 1.705
0.085946202 -0.0067262249 1.705
0.094167151 -0.0067262249 1.705
0.10373334 -0.0068756966 1.7050002
0.11509318 -0.0074735829 1.705
0.12406148 -0.0074735833 1.705
0.14797695 -0.0059788665 1.705
0.15582421 -0.0048578293 1.705
0.16890298 -0.0074735833 1.705
0.29744861 -0.0074735833 1.705
0.30193275 -0.0044841501 1.705
0.15993468 0.0029894332 1.705
0.16441883 0.0029894332 1.705
0.3345176 0.0062778099 1.7050002
0.33406916 0.014199808 1.705
-0.022420749 0.34826899 1.705
-0.014947167 0.34826899 1.705
-0.03138905 0.35723728 1.705
-0.024812296 0.35364994 1.7050002
-0.019431317 0.35125843 1.705
-0.042151012 0.3620204 1.7050002
-0.035125844 0.36246881 1.705
-0.0059788665 0.37816331 1.705
-0.0059788665 0.38115275 1.705
-0.056799233 0.45738328 1.705
-0.049325649 0.46485686 1.705
0.15668049 -0.49206686 1.7129999
0.16519029 -0.49406919 1.7129999
0.17570241 -0.49406916 1.7130002
0.1847128 -0.49406916 1.7130002
0.1952249 -0.49607149 1.7130002
0.20573699 -0.4955709 1.7130002
0.21399653 -0.49632174 1.7130001
0.22375776 -0.49707261 1.7129999
0.23727334 -0.49256742 1.7130001
0.29704219 -0.49406919 1.7130001
0.30184773 -0.49406919 1.7129999
0.31648961 -0.49519545 1.7130002
0.32544634 -0.49406916 1.7130002
0.33488578 -0.49449825 1.7130002
0.3408927 -0.49406919 1.7129999
0.35591 -0.49106571 1.7130001
0.14566781 -0.48806223 1.7130001
0.15617992 -0.48505875 1.7130002
0.16478072 -0.48533183 1.7130001
0.17607786 -0.48543423 1.7130002
0.1841121 -0.48686084 1.7130001
0.24478197 -0.48706111 1.7129999
0.25379238 -0.48205534 1.7129999
0.29734254 -0.48656052 1.7130001
0.30184773 -0.48656052 1.7130001
0.32437366 -0.48806223 1.7130001
0.33388463 -0.48706111 1.7129999
0.34189388 -0.48706111 1.7129999
0.35891348 -0.48806223 1.7130001
0.14566781 -0.47079235 1.7130001
0.15567935 -0.47404608 1.7130002
0.16488992 -0.47464675 1.7129998
0.17269894 -0.47154322 1.7130001
0.25679582 -0.47805071 1.7129999
0.26460481 -0.47364563 1.7130001
0.3408927 -0.47004148 1.7130001
0.38894805 -0.47154322 1.7130001
0.39195153 -0.47304496 1.7130001
0.13966089 -0.46103111 1.7130001
0.14566781 -0.46403456 1.7130002
0.1546782 -0.46403456 1.7130002
0.16519028 -0.46403453 1.7129999
0.17450103 -0.46403456 1.7130001
0.18170933 -0.4655363 1.7130001
0.2748166 -0.46703804 1.7129999
0.28532869 -0.46328369 1.7130001
0.2938385 -0.46203223 1.7129999
0.32737714 -0.46253282 1.7130001
0.33488575 -0.46403462 1.7130002
0.34422988 -0.46336713 1.7130002
0.35290655 -0.46103111 1.7130001
0.387146 -0.46463528 1.7130001
0.13665743 -0.45562488 1.7130001
0.14867127 -0.45502421 1.7129999
0.15467818 -0.45502412 1.7130002
0.16505377 -0.45529729 1.7130001
0.17269894 -0.45502418 1.7130001
0.29659167 -0.45727676 1.7130001
0.30184773 -0.45652592 1.7130001
0.32812801 -0.45427331 1.7130001
0.33488578 -0.45502418 1.7130002
0.34509754 -0.45472383 1.7130001
0.35590997 -0.45502421 1.7129999
0.36567125 -0.4527716 1.7130001
0.38474321 -0.45502418 1.7130001
0.13537022 -0.44386846 1.7130002
0.14867127 -0.44451207 1.7130001
0.15467821 -0.44451204 1.7129999
0.16218683 -0.44451207 1.7130002
0.30635291 -0.44751555 1.7130001
0.31636444 -0.44501266 1.7130002
0.32614842 -0.44492167 1.7130001
0.33515882 -0.44492161 1.7130001
0.34539792 -0.4445121 1.7129998
0.37573284 -0.44511279 1.7130001
0.38294116 -0.44451207 1.7130001
0.1357993 -0.43357089 1.7130002
0.14867127 -0.43399999 1.7129999
0.15467821 -0.43399993 1.7130002
0.16218685 -0.43399999 1.7130002
0.33788925 -0.43700343 1.7130001
0.34389615 -0.43700346 1.7129999
0.13515571 -0.42498958 1.7130002
0.14867127 -0.42498958 1.7129999
0.1546782 -0.42498958 1.7130002
0.16283043 -0.42541865 1.7130002
0.13605674 -0.41567889 1.7130001
0.14716953 -0.41522837 1.7130001
0.15467818 -0.41597921 1.7130002
0.16218685 -0.41597918 1.7130002
0.13573331 -0.40604466 1.7129999
0.1450671 -0.40576744 1.7130001
0.1546782 -0.40546703 1.7129999
0.1646897 -0.40446591 1.7129999
0.17510171 -0.40216327 1.7130001
0.14491695 -0.39570588 1.7130001
0.1546782 -0.39495501 1.7130002
0.16519029 -0.39495501 1.7129999
0.17520183 -0.39395383 1.7130002
0.14566781 -0.3859446 1.7129999
0.15505365 -0.38632002 1.7130002
0.16519029 -0.3859446 1.7129999
0.17870587 -0.38894805 1.7130001
0.14566781 -0.37993768 1.7130001
0.15768164 -0.37843597 1.7130001
0.16583391 -0.37586159 1.7129999
0.17269894 -0.37242904 1.7130001
0.16669203 -0.36492041 1.7130002
0.1734498 -0.36416951 1.7130001
-0.19071971 -0.35290655 1.7130001
-0.1841121 -0.35410795 1.7130001
-0.17570241 -0.35290655 1.7129999
0.16849411 -0.35651073 1.7130001
0.175327 -0.35553458 1.7130002
0.18170933 -0.35290655 1.7130001
-0.19071971 -0.34840137 1.7130001
0.16969548 -0.34840137 1.7130001
0.17570241 -0.34539795 1.7129999
0.18404534 -0.34422991 1.7130002
0.19071971 -0.3408927 1.7130001
-0.15768164 -0.33488578 1.7130001
0.18571395 -0.33588696 1.7130002
0.19334775 -0.33451036 1.7130002
-0.14341521 -0.32662627 1.7130001
-0.13537024 -0.32415915 1.7130002
-0.12664589 -0.32487425 1.7129999
0.18771625 -0.3258754 1.7129999
0.19481534 -0.32560232 1.7130001
0.18771625 -0.31536329 1.7130001
0.19492455 -0.3156637 1.7129998
0.20273356 -0.31386158 1.7129999
0.18771625 -0.30785465 1.7130001
0.1952249 -0.30485114 1.7129999
0.20523643 -0.30385002 1.7130002
0.19822836 -0.29584077 1.7130002
0.20573699 -0.29584083 1.7130002
0.21174394 -0.29433906 1.7130001
0.19822836 -0.28983387 1.7130001
0.2070242 -0.28683043 1.7130002
0.21362111 -0.2842024 1.7130002
0.20874047 -0.27782005 1.7130001
0.21512283 -0.27519202 1.7130002
0.22075431 -0.2748166 1.7129999
0.21674968 -0.26780853 1.7129999
0.22315708 -0.2652055 1.7130001
0.22856331 -0.25739652 1.7130001
0.23426987 -0.25379238 1.7130001
0.23877507 -0.24778545 1.7130001
0.24403112 -0.24553284 1.7130001
0.2507889 -0.24177852 1.7130001
0.25679582 -0.23877507 1.7130001
0.26430446 -0.23426989 1.7130001
0.26880968 -0.22976469 1.7130001
0.2748166 -0.22475892 1.7129999
0.28532869 -0.22075431 1.7130001
0.28833216 -0.21775085 1.7130001
0.29433906 -0.21324566 1.7130001
0.28863251 -0.20513633 1.7130001
0.29584083 -0.20573699 1.7130002
0.30485117 -0.20523643 1.7130002
0.31235984 -0.20273355 1.7130001
0.28883272 -0.19422375 1.7130002
0.29584083 -0.19672662 1.7130002
0.30545187 -0.19582558 1.7130001
0.3108581 -0.19522491 1.7130001
0.28863251 -0.1847128 1.7130001
0.29283735 -0.18621451 1.7130001
0.30635291 -0.18471278 1.7130002
0.3108581 -0.18771625 1.7130001
0.28683043 -0.17570241 1.7130002
0.30485117 -0.17870587 1.7130001
0.27782005 -0.16368856 1.7129999
0.28382698 -0.16519029 1.7130001
0.27782005 -0.15317646 1.7130001
0.28345153 -0.15505365 1.7130002
0.28232524 -0.14566781 1.7130002
0.30485117 -0.14867127 1.7130001
0.27782005 -0.13815916 1.7130001
0.2808235 -0.13966089 1.7130001
-0.24478199 -0.12164012 1.7129999
-0.27331486 -0.11262975 1.7130001
-0.26730794 -0.11262975 1.7130001
-0.25439307 -0.11323044 1.7130001
-0.24478197 -0.1156332 1.7130002
-0.23652248 -0.11338061 1.7130001
-0.22826296 -0.11262975 1.7130001
-0.28382695 -0.10962629 1.7129999
-0.27782005 -0.10962629 1.7130001
-0.2507889 -0.10962629 1.7130001
-0.24628371 -0.10962629 1.7130001
-0.23502076 -0.10887542 1.7130001
-0.22475892 -0.10762398 1.7130002
-0.21474738 -0.1051211 1.7129999
-0.20616607 -0.10276123 1.7130002
-0.19732733 -0.10181729 1.7130001
-0.21399653 -0.096861586 1.7130001
-0.20498614 -0.096861579 1.7130001
-0.19472432 -0.095610157 1.7130002
-0.18428372 -0.093750857 1.7130002
-0.17870587 -0.093107261 1.7130001
-0.18351141 -0.086799994 1.7130001
-0.17570242 -0.08559861 1.7130002
-0.16819376 -0.082595147 1.7130001
-0.17527334 -0.077446356 1.7130002
-0.16669202 -0.075086504 1.7129999
0.33188233 -0.070581309 1.7130001
-0.16268742 -0.064574383 1.7129999
-0.15587959 -0.064574391 1.7130001
-0.14641866 -0.062321793 1.7130001
-0.13425466 -0.062171619 1.7130001
-0.12464359 -0.063072659 1.7130002
-0.11763552 -0.062572084 1.7129999
0.32887888 -0.064574391 1.7129999
0.33368441 -0.063373007 1.7130001
-0.13665743 -0.058567468 1.7130001
-0.12389272 -0.057816602 1.7130001
-0.11520415 -0.05642214 1.7130002
-0.1062474 -0.054813143 1.7130002
-0.094608985 -0.054062281 1.7130002
-0.08559861 -0.052560549 1.7129999
-0.07808996 -0.052560549 1.7130001
0.32737714 -0.055564012 1.7130002
0.33488575 -0.055564005 1.7130002
-0.084096879 -0.04955709 1.7130001
-0.075253353 -0.045552477 1.7130002
-0.064574391 -0.041748099 1.7130001
-0.054813147 -0.041297577 1.7130001
-0.047304496 -0.041297577 1.7130001
0.32887888 -0.048055358 1.7130001
0.33518609 -0.045952938 1.7130001
0.3408927 -0.04955709 1.7130001
-0.041547865 -0.036542095 1.7129999
-0.034539789 -0.034539789 1.7129999
-0.024778545 -0.033788923 1.7130001
-0.016519031 -0.03153633 1.7129999
0.28683043 -0.03153633 1.7130001
0.33488578 -0.034539789 1.7130001
-0.014116262 -0.027932178 1.7130001
-0.0045051901 -0.024027681 1.7130002
0.0045051901 -0.025028834 1.7130002
0.015660899 -0.026816608 1.7130002
0.025529411 -0.026280275 1.7130001
0.034539789 -0.024328027 1.7130001
0.045051899 -0.022525949 1.7130001
0.052560549 -0.022525949 1.7130001
0.13665743 -0.022525949 1.7130001
0.28733101 -0.025529409 1.7130002
0.29283735 -0.024027679 1.7130001
0.04955709 -0.01952249 1.7130001
0.055564005 -0.01952249 1.7129999
0.064574383 -0.01952249 1.7129999
0.07598754 -0.018921796 1.7130001
0.08559861 -0.01802076 1.7130002
0.094608985 -0.017019609 1.7130002
0.10411995 -0.015517878 1.7130002
0.11563321 -0.016519031 1.7129999
0.12464359 -0.016519031 1.7129999
0.13515569 -0.018020758 1.7130002
0.14609686 -0.016089965 1.7130002
0.1546782 -0.013014995 1.7130002
0.1645467 -0.011799308 1.7130002
0.29784313 -0.016519031 1.7129999
0.3041003 -0.012764705 1.7130001
0.16569087 -0.0045051901 1.7130002
0.30635291 -0.0060069198 1.7130001
0.31311071 -0.0060069202 1.7130001
0.33488575 0.0045051901 1.7129999
-0.03153633 0.34990308 1.7130001
-0.025529409 0.34750032 1.7130001
-0.01802076 0.34539789 1.7130001
-0.043550175 0.35891351 1.7129999
-0.033788923 0.3566609 1.7130001
-0.02853287 0.35440826 1.7130001
-0.037543248 0.36191693 1.7130001
-0.00750865 0.37393078 1.7129999
-0.061570931 0.44901726 1.7130001
-0.061570931 0.45502418 1.7130001
0.1132215 -0.49968421 1.7220001
0.14492354 -0.49402317 1.7220001
0.15448445 -0.49616179 1.7220001
0.24682286 -0.49289089 1.7220001
0.26720273 -0.49515533 1.7220001
0.27626047 -0.49515536 1.7220001
0.28531817 -0.49474362 1.7220001
0.29286626 -0.49515539 1.7220001
0.30712378 -0.49532306 1.7220001
0.31507924 -0.4927831 1.7220001
0.32154906 -0.49062648 1.7220001
0.33422989 -0.4930419 1.7220001
0.34691069 -0.49485344 1.7220001
0.35389808 -0.49364576 1.7220001
0.14582929 -0.48488998 1.7220001
0.15247162 -0.48458803 1.7220001
0.25512579 -0.48760727 1.7220001
0.26418349 -0.48307839 1.7220001
0.27726689 -0.48257521 1.7220001
0.28833741 -0.48760727 1.7220001
0.2943759 -0.48609766 1.7220001
0.30532062 -0.48421067 1.7220001
0.31551057 -0.48458803 1.7220001
0.32456827 -0.48458803 1.7220001
0.33527285 -0.48431361 1.7220001
0.34608039 -0.48421067 1.7220001
0.35476074 -0.48458803 1.7220001
0.36502609 -0.48458806 1.7220001
0.37589538 -0.48156878 1.7220001
0.38193387 -0.48156878 1.7220001
0.13586581 -0.47402066 1.7220001
0.1441687 -0.47666249 1.7220001
0.15247162 -0.47703993 1.7220001
0.27496651 -0.47466764 1.7220001
0.31852981 -0.47854954 1.7220001
0.32758754 -0.4755303 1.7220001
0.33513561 -0.4755303 1.7220001
0.34608039 -0.47590774 1.7220001
0.35375428 -0.47653672 1.7220001
0.36683765 -0.4762851 1.7220001
0.37649924 -0.47613415 1.7220001
0.38495311 -0.4755303 1.7220001
0.39250118 -0.47854954 1.7220001
0.13469166 -0.46479523 1.7220001
0.14039466 -0.46798217 1.7220001
0.28733101 -0.46848539 1.7220001
0.2943759 -0.46828407 1.7220001
0.30300233 -0.46647257 1.7220001
0.31551057 -0.46345335 1.7220001
0.32423285 -0.46445975 1.7220001
0.33060679 -0.46949181 1.7220001
0.34872222 -0.46949181 1.7220001
0.35519204 -0.46604127 1.7220001
0.36532804 -0.46496299 1.7220001
0.3762728 -0.46383077 1.7220001
0.38322783 -0.46560988 1.7220001
0.13254464 -0.45379177 1.7220001
0.30796248 -0.45439562 1.7220001
0.3155106 -0.45439565 1.7220001
0.32356188 -0.45540202 1.7220001
0.36381841 -0.45741487 1.7220001
0.37632671 -0.45525828 1.7220001
0.3826887 -0.45515046 1.7220001
0.1283177 -0.44533789 1.7220001
0.13133694 -0.44533789 1.7220001
0.12731129 -0.43577695 1.7220001
0.1319408 -0.43386477 1.7220001
0.12711 -0.42480707 1.7220001
0.13133694 -0.42420322 1.7220001
0.12680808 -0.41514552 1.7220001
0.13133694 -0.41816473 1.7220001
0.14945237 -0.41816473 1.7220001
0.12711 -0.40669164 1.7220001
0.13385297 -0.40256533 1.7220001
0.14718795 -0.40306854 1.7220001
0.13586581 -0.39703006 1.7220001
0.14442031 -0.39401084 1.7220001
0.14492352 -0.38595951 1.7220001
0.15347803 -0.38294029 1.7220001
0.14492352 -0.37589538 1.7220001
0.15511344 -0.37551802 1.7220001
0.16152933 -0.37438577 1.7220001
0.14643314 -0.36532801 1.7220001
0.15649728 -0.36516029 1.7220001
0.16213317 -0.36442226 1.7220001
0.15750368 -0.35677353 1.7220001
0.16417116 -0.35438332 1.7220001
-0.15247162 -0.34268373 1.7220001
-0.14643314 -0.34343857 1.7220001
0.166813 -0.34645778 1.7220001
0.17058706 -0.34419334 1.7220001
-0.15376557 -0.33578262 1.7220001
-0.14492349 -0.33578262 1.7220001
-0.13435619 -0.33362603 1.7220001
-0.12529846 -0.3327634 1.7220001
-0.11825357 -0.33161321 1.7220001
0.17738034 -0.33890969 1.7220001
0.18387172 -0.33302218 1.7220001
-0.14945237 -0.32758754 1.7220001
-0.13435619 -0.32758754 1.7220001
0.18417364 -0.3245683 1.7220001
0.18492845 -0.31475574 1.7220001
0.18719287 -0.30494323 1.7220001
0.19323136 -0.30041438 1.7220001
0.18870249 -0.29739514 1.7220001
0.19323136 -0.2943759 1.7220001
0.19776022 -0.2868278 1.7220001
0.20379868 -0.28531817 1.7220001
0.20883077 -0.27626047 1.7220001
0.21285641 -0.27173162 1.7220001
0.21738528 -0.26569313 1.7220001
0.22292055 -0.26217064 1.7220001
0.22644299 -0.2566354 1.7220001
0.23248148 -0.25210655 1.7220001
0.23701034 -0.2490873 1.7220001
0.24455844 -0.24455844 1.7220001
0.25512579 -0.24002957 1.7220001
0.258145 -0.23701034 1.7220001
0.26418349 -0.2339911 1.7220001
0.27475083 -0.22493339 1.7220001
0.28229895 -0.22191414 1.7220001
0.28582135 -0.21587564 1.7220001
0.29135665 -0.21436603 1.7220001
0.28632459 -0.20530832 1.7220001
0.30645287 -0.2037987 1.7220001
0.28607297 -0.19549578 1.7220001
0.28607297 -0.18568327 1.7220001
0.27798575 -0.17446895 1.7220001
0.28290278 -0.1760217 1.7220001
0.27626047 -0.16454858 1.7220001
0.2770153 -0.15624566 1.7220001
0.2777701 -0.14592993 1.7220001
-0.24002957 -0.13435619 1.7220001
-0.23701034 -0.13586581 1.7220001
0.27626047 -0.13737541 1.7220001
-0.25361615 -0.12227922 1.7220001
-0.24391147 -0.12572977 1.7220001
-0.23338726 -0.12348691 1.7220001
-0.22795261 -0.12227922 1.7220001
-0.28229895 -0.1132215 1.7220001
-0.27424765 -0.11523432 1.7220001
-0.26418349 -0.11548593 1.7220001
-0.25572962 -0.11805228 1.7220001
-0.24002957 -0.11925998 1.7220001
-0.2339911 -0.11775035 1.7220001
-0.22450207 -0.11624074 1.7220001
-0.21587567 -0.11624072 1.7220001
-0.2053083 -0.1132215 1.7220001
-0.1951184 -0.11284409 1.7220001
-0.18525194 -0.11235886 1.7220001
-0.17964478 -0.11171187 1.7220001
-0.2037987 -0.10718302 1.7220001
-0.19373457 -0.10517019 1.7220001
-0.18568327 -0.10416377 1.7220001
-0.17511593 -0.10416377 1.7220001
-0.16681302 -0.10340897 1.7220001
-0.18719289 -0.098125301 1.7220001
-0.17421016 -0.095407978 1.7220001
-0.1660582 -0.095106065 1.7220001
-0.17058706 -0.087557957 1.7220001
-0.16575627 -0.086652189 1.7220001
-0.16152933 -0.072461754 1.7220001
-0.1560947 -0.072159842 1.7220001
-0.14945237 -0.07095214 1.7220001
-0.13133694 -0.07095214 1.7220001
-0.12605327 -0.071706951 1.7220001
-0.11775036 -0.07095214 1.7220001
-0.16152933 -0.067932896 1.7220001
-0.15398124 -0.067932896 1.7220001
-0.14492351 -0.066423282 1.7220001
-0.13496003 -0.066725209 1.7220001
-0.12529846 -0.067932896 1.7220001
-0.11355697 -0.065584593 1.7220001
-0.1056734 -0.061894421 1.7220001
-0.081519485 -0.061894421 1.7220001
-0.073971376 -0.061894421 1.7220001
0.3253231 -0.062649235 1.7220001
-0.10416377 -0.058875185 1.7220001
-0.095106065 -0.058875185 1.7220001
-0.084538713 -0.057365555 1.7220001
-0.073593974 -0.056233343 1.7220001
-0.065344982 -0.054993305 1.7220001
-0.055855941 -0.052836701 1.7220001
-0.049817462 -0.052836701 1.7220001
0.316517 -0.054849524 1.7220001
0.32305869 -0.055855941 1.7220001
-0.071958549 -0.048811048 1.7220001
-0.06491366 -0.047660861 1.7220001
-0.056233343 -0.047175627 1.7220001
-0.044876888 -0.04624927 1.7220001
-0.035152577 -0.042916339 1.7220001
-0.026267389 -0.041967433 1.7220001
-0.016605821 -0.040759739 1.7220001
0.30947208 -0.04830784 1.7220001
0.3159419 -0.047660861 1.7220001
0.3245683 -0.045288604 1.7220001
0.33287123 -0.041514549 1.7220001
-0.034721259 -0.037740499 1.7220001
-0.02566354 -0.037740499 1.7220001
-0.014592994 -0.035727669 1.7220001
0.00603848 -0.031702019 1.7220001
0.015398124 -0.032305866 1.7220001
0.02566354 -0.031702019 1.7220001
0.033211641 -0.031702019 1.7220001
0.32607794 -0.034721259 1.7220001
0.33324862 -0.034721259 1.7220001
-0.0045288601 -0.028682778 1.7220001
0.00301924 -0.02868278 1.7220001
0.01056734 -0.02868278 1.7220001
0.02566354 -0.02868278 1.7220001
0.034721259 -0.028682778 1.7220001
0.045288596 -0.02566354 1.7220001
0.055855941 -0.024153918 1.7220001
0.06491366 -0.022644302 1.7220001
0.073971376 -0.022644302 1.7220001
0.085185699 -0.023938259 1.7220001
0.095106065 -0.024153918 1.7220001
0.10416379 -0.024153918 1.7220001
0.11537809 -0.023938257 1.7220001
0.12529846 -0.025663542 1.7220001
0.13397877 -0.026040943 1.7220001
0.14298259 -0.024800899 1.7220001
0.2951307 -0.026418351 1.7220001
0.32637984 -0.026267389 1.7220001
0.33211643 -0.02717316 1.7220001
0.095106058 -0.01962506 1.7220001
0.10416377 -0.01962506 1.7220001
0.11473112 -0.01962506 1.7220001
0.12529846 -0.01962506 1.7220001
0.14945237 -0.01962506 1.7220001
0.15549086 -0.017612234 1.7220001
0.16152933 -0.016605821 1.7220001
0.30544645 -0.015599407 1.7220001
0.3155106 -0.01207696 1.7220001
0.32230386 -0.013586581 1.7220001
0.31551057 -0.0075480998 1.7220001
-0.040759739 0.33815485 1.7220001
-0.035023183 0.33604139 1.7220001
-0.025663536 0.33604139 1.7220001
-0.017360631 0.33589044 1.7220001
-0.040759739 0.34268373 1.7220001
-0.034721259 0.34570301 1.7220001
-0.026166746 0.34469655 1.7220001
-0.01358658 0.34494814 1.7220001
-0.0075480998 0.34721261 1.7220001
-0.043778982 0.35777995 1.7220001
-0.036230877 0.35476068 1.7220001
-0.063404039 0.45590526 1.7220001
0.088422351 -0.49547008 1.7390002
0.096035883 -0.49512196 1.7339092
0.10470819 -0.4947083 1.7310003
0.11533076 -0.49470827 1.7310004
0.12595333 -0.4947083 1.7310003
0.13505839 -0.4947083 1.7310003
0.14112844 -0.49774328 1.7310001
0.15023349 -0.49774328 1.7310001
0.24431911 -0.49926078 1.7310001
0.25494167 -0.49622577 1.7310001
0.26477367 -0.49402708 1.7318001
0.27365765 -0.49420241 1.7310001
0.28225684 -0.49319077 1.7310001
0.35206231 -0.49926078 1.7310001
0.38452616 -0.4909108 1.7336668
0.088422351 -0.48479843 1.7390002
0.095643453 -0.48460406 1.7368183
0.10459264 -0.48437077 1.7342001
0.11533076 -0.48408568 1.7310003
0.12595333 -0.48408568 1.7310001
0.13505839 -0.48408568 1.7310001
0.14112844 -0.48560321 1.7310001
0.27284831 -0.48469272 1.7310002
0.28570575 -0.48408565 1.7310002
0.29548088 -0.48321858 1.7310001
0.30674067 -0.48317394 1.7350001
0.31409544 -0.48072037 1.7342001
0.32474715 -0.48105067 1.7310001
0.35661486 -0.48105067 1.7310001
0.36656502 -0.48215526 1.7350001
0.37753782 -0.48540726 1.733
0.38513589 -0.48692477 1.733
0.39161253 -0.4858478 1.7336668
0.088422351 -0.4771758 1.7390001
0.0962587 -0.47429615 1.7374003
0.10486481 -0.47469601 1.7336668
0.11533076 -0.47498068 1.7310003
0.12595333 -0.47498062 1.7310001
0.13202336 -0.47498062 1.7310001
0.27315181 -0.47801566 1.7310001
0.28594226 -0.47671491 1.7310001
0.29591444 -0.47649813 1.7310001
0.30530423 -0.47541967 1.7326
0.31455812 -0.47411346 1.7310001
0.32285023 -0.47536001 1.7310001
0.35762653 -0.47599232 1.7310001
0.36481869 -0.47745577 1.7363334
0.37664598 -0.47437364 1.7310002
0.096044973 -0.46497959 1.7390002
0.10489754 -0.46521235 1.7342001
0.11533076 -0.4658756 1.7310003
0.12595333 -0.46587563 1.7310001
0.13202336 -0.46891057 1.7310001
0.30805454 -0.46587554 1.7310001
0.31108955 -0.46435806 1.7310001
0.37785998 -0.46739307 1.7310001
0.096426107 -0.45545134 1.7390002
0.10539743 -0.45601869 1.7374001
0.11549426 -0.45590654 1.7335002
0.12567744 -0.45566684 1.7310002
0.31108955 -0.45980552 1.7310001
0.089946873 -0.4436363 1.7390001
0.09604498 -0.44516078 1.7390002
0.1051921 -0.44516084 1.7390002
0.11519374 -0.4449335 1.7355716
0.12413231 -0.44523746 1.7310002
0.089946873 -0.43753821 1.7390001
0.096044973 -0.43448913 1.7390002
0.10481098 -0.4348703 1.7390002
0.11598895 -0.43511963 1.7318001
0.12413231 -0.43491834 1.7310002
0.096044965 -0.42534199 1.7390002
0.10520105 -0.42477638 1.7342001
0.11533076 -0.42490277 1.7310004
0.12352531 -0.42459932 1.7310002
0.096654788 -0.4152801 1.7390001
0.10510912 -0.41435003 1.737667
0.11533076 -0.41428027 1.7310003
0.12291831 -0.41428027 1.7310001
0.1051921 -0.4039987 1.7390002
0.11509871 -0.40513712 1.7328465
0.12494165 -0.40416348 1.7310001
0.10606326 -0.39528713 1.7390002
0.11584279 -0.39497375 1.7342002
0.12595333 -0.39455259 1.7310003
0.13475487 -0.39364204 1.7310002
0.10671663 -0.38875344 1.7390001
0.11433926 -0.3857044 1.7390002
0.12466902 -0.3846682 1.7343335
0.13505839 -0.38393003 1.7310001
0.14112844 -0.38393006 1.7310001
0.15023349 -0.38241252 1.7310001
0.11662604 -0.37731951 1.7390001
0.12450918 -0.37475929 1.7363336
0.1350584 -0.374825 1.7310001
0.14188719 -0.3740662 1.7310001
0.15099224 -0.3740662 1.7310001
0.1257235 -0.36498132 1.7383336
0.13495016 -0.36507216 1.7331821
0.14264594 -0.36571991 1.7310001
0.1514475 -0.36571988 1.7310002
-0.14178067 -0.35521397 1.739
-0.13720711 -0.35368943 1.7390001
-0.1112902 -0.35216489 1.7390001
0.12775506 -0.35643357 1.7390001
0.13585985 -0.35549274 1.7374001
0.14432767 -0.35550353 1.7330003
0.15418361 -0.35478303 1.7334619
0.16237357 -0.35054481 1.7310001
-0.14214011 -0.3464981 1.7310001
-0.13519555 -0.34483168 1.7327778
-0.12516083 -0.34562415 1.7353637
-0.11473586 -0.34513065 1.7358001
-0.10663598 -0.34580383 1.737667
0.13669892 -0.34708318 1.7390002
0.14467853 -0.34571147 1.7372223
0.15495172 -0.34605324 1.7375457
0.16407692 -0.34411055 1.7330002
0.17147863 -0.34143975 1.7310001
-0.12595333 -0.33840472 1.7310001
-0.11533076 -0.33739302 1.7310001
-0.10824116 -0.33996871 1.7390001
0.13873163 -0.33996871 1.7390001
0.14521085 -0.33730078 1.7390002
0.15600955 -0.33895239 1.739
0.16524626 -0.33571902 1.7384288
0.17436865 -0.33506846 1.7326
0.18058369 -0.3338522 1.7310001
0.16820574 -0.32675615 1.739
0.17530026 -0.3252826 1.7360911
0.1811907 -0.32383662 1.7310002
0.17570132 -0.31595746 1.7390002
0.1817977 -0.31412452 1.7310002
0.17735286 -0.30592099 1.7390002
0.18307382 -0.30410716 1.7354445
0.1864523 -0.29531908 1.7354445
0.19056542 -0.29118395 1.7390001
0.19529785 -0.28594622 1.7350003
0.20284051 -0.28175101 1.7310001
0.19971256 -0.27898777 1.7390001
0.20634891 -0.27631572 1.7350001
0.21093389 -0.27163428 1.7310001
0.21429385 -0.26800141 1.7336668
0.2225804 -0.262218 1.7390001
0.22746898 -0.25482625 1.7336668
0.23423305 -0.25096774 1.7350001
0.23796678 -0.24709989 1.7363335
0.24487901 -0.24336149 1.7350001
0.25190666 -0.24128409 1.7310001
0.24621052 -0.23858789 1.7390001
0.25499594 -0.23534888 1.7360909
0.26262537 -0.23220503 1.7350001
0.25503096 -0.22323377 1.7390002
0.26534897 -0.22467653 1.7367145
0.27444685 -0.22282171 1.732
0.28073934 -0.22003895 1.7310001
0.25561175 -0.21597414 1.7390002
0.26526707 -0.21495777 1.7390002
0.27551091 -0.21462816 1.7363334
0.28225684 -0.21396892 1.7310001
0.25497654 -0.20542952 1.7390002
0.26526704 -0.20581065 1.7390002
0.27579612 -0.2057039 1.7381113
0.28247309 -0.20501931 1.7323333
0.25662807 -0.19615535 1.7390002
0.26526704 -0.19513898 1.7390002
0.27565509 -0.19646557 1.7372224
0.28268933 -0.1960627 1.7336668
0.25764444 -0.18446732 1.739
0.26526707 -0.18446732 1.7390002
0.27487853 -0.18527882 1.7323335
0.28225684 -0.18665373 1.7310001
0.26526707 -0.17532016 1.7390002
0.27315179 -0.17451364 1.7310001
0.26557195 -0.16495344 1.7390002
0.27336103 -0.16553599 1.7323333
0.26766273 -0.15441243 1.7390002
0.27330872 -0.15487282 1.732
0.26984063 -0.14482972 1.739
0.27452153 -0.14454417 1.7355716
-0.24128409 -0.13202336 1.7310001
-0.23557173 -0.13222675 1.7336668
0.26907834 -0.1349203 1.7390001
0.27360153 -0.1360399 1.7358001
-0.25342417 -0.12595333 1.7310001
-0.24128409 -0.12898836 1.7310001
-0.23481885 -0.12850058 1.7326
-0.22419646 -0.12624857 1.735
-0.21446159 -0.12586851 1.7350001
-0.20584045 -0.12542081 1.7355716
-0.19513899 -0.12501091 1.7390002
-0.18385752 -0.12348638 1.7390001
-0.17532018 -0.12119961 1.7390001
0.26679158 -0.12856813 1.739
-0.26252922 -0.11988329 1.7310001
-0.22610898 -0.11988329 1.7310001
-0.21093389 -0.11988329 1.7310001
-0.20486385 -0.11988329 1.7310001
-0.19500002 -0.11912454 1.7310001
-0.18614788 -0.11836579 1.7310001
-0.1747825 -0.11399325 1.7336668
-0.16731066 -0.11408093 1.7350001
-0.16403782 -0.10560556 1.7358001
-0.16147439 -0.09597367 1.7376667
-0.15473911 -0.093758181 1.7390001
-0.14482972 -0.092995919 1.739
-0.16237357 -0.084980555 1.7310001
-0.15491883 -0.085058138 1.7325004
-0.14466082 -0.085279204 1.7370003
-0.13573639 -0.084308498 1.7358001
-0.12607978 -0.083040059 1.7380003
-0.11544806 -0.081335202 1.7374003
-0.16237357 -0.07739301 1.7310001
-0.15377435 -0.076381333 1.7310001
-0.14416344 -0.074357986 1.7310001
-0.13543777 -0.074737363 1.7310001
-0.12534633 -0.076179005 1.7310002
-0.11477496 -0.075000755 1.7318001
-0.10513678 -0.074665025 1.7381114
-0.096807234 -0.07241486 1.7390001
-0.084611729 -0.072865151 1.7367144
-0.075311452 -0.072872214 1.7390001
-0.068603553 -0.071652599 1.7390001
-0.14112844 -0.068287946 1.7310001
-0.10427462 -0.066120073 1.7310001
-0.095652223 -0.065287992 1.7318889
-0.085587569 -0.065859929 1.7310002
-0.074357986 -0.066120073 1.7310001
-0.065318383 -0.06532307 1.7327778
-0.055387449 -0.064828269 1.7358001
-0.044820987 -0.063725069 1.7390001
-0.038113084 -0.062505454 1.7390001
-0.063735418 -0.05918289 1.7310001
-0.054630361 -0.057665378 1.7310001
-0.043704286 -0.055540871 1.7310002
-0.034943055 -0.054698739 1.7330003
-0.026126498 -0.054335717 1.7346367
-0.017616866 -0.052856613 1.7367145
-0.033385217 -0.047042809 1.7310001
-0.025038915 -0.046284057 1.7310001
-0.014681731 -0.045067776 1.7327778
-0.0045735701 -0.041162129 1.739
0.0045735701 -0.041162129 1.739
0.016159948 -0.041771941 1.7390001
0.025916895 -0.042686652 1.7390002
0.035064038 -0.042686652 1.7390002
0.042178478 -0.042178478 1.739
0.056407362 -0.041162129 1.739
0.065554507 -0.042686652 1.7390002
0.074701644 -0.041162129 1.739
0.099094018 -0.041162129 1.7390001
0.10580192 -0.042381749 1.7390001
0.11433925 -0.042686652 1.7390002
0.12435754 -0.042468864 1.7390002
0.13568258 -0.041162129 1.739
0.14482972 -0.041162129 1.739
0.16922209 -0.041162129 1.7390001
0.17339239 -0.041067451 1.7350001
0.30719143 -0.04497344 1.7390001
0.31460381 -0.042555738 1.7336668
0.3201946 -0.040972769 1.7310001
-0.004559543 -0.034961175 1.7336668
0.0041249669 -0.035819974 1.7332858
0.014965327 -0.036662072 1.7321428
0.025797673 -0.036420237 1.7310001
0.035361353 -0.035794921 1.7321428
0.044143382 -0.035014942 1.7363335
0.054798681 -0.035014946 1.7363334
0.065453976 -0.035014942 1.7363334
0.074587092 -0.035014942 1.7363334
0.085242391 -0.035014946 1.7363335
0.095897689 -0.035014942 1.7363335
0.10497548 -0.034997024 1.7354445
0.11537343 -0.034917343 1.7316669
0.12595333 -0.034902733 1.7310001
0.13519865 -0.034941692 1.732778
0.14438555 -0.034961179 1.7336668
0.15397686 -0.033539515 1.7390002
0.1647871 -0.034786854 1.7390002
0.1733924 -0.034983382 1.735
0.29575753 -0.032014988 1.7390001
0.30338013 -0.035064038 1.7390002
0.31659266 -0.036080386 1.7390002
0.32171214 -0.034902733 1.7310001
0.044007789 -0.028832689 1.7310001
0.055540867 -0.028225685 1.7310002
0.06525293 -0.027315179 1.7310001
0.074357986 -0.027315179 1.7310001
0.084070049 -0.028225685 1.7310002
0.095603131 -0.028832689 1.7310001
0.10470819 -0.028832689 1.7310001
0.11442026 -0.028225685 1.7310002
0.14568096 -0.028832689 1.7310001
0.1542311 -0.025557991 1.7350003
0.16485582 -0.026165396 1.7368184
0.17285113 -0.026431326 1.7326
0.29894948 -0.028832689 1.7310001
0.30535865 -0.025466291 1.7378572
0.31710082 -0.025154635 1.7390001
0.32342348 -0.025449259 1.7367144
0.15782103 -0.019727631 1.7310001
0.1660156 -0.018513624 1.7310002
0.30751741 -0.018746348 1.7336668
0.31509241 -0.018268565 1.7363335
0.32321429 -0.019014463 1.7350001
-0.024392374 0.31862536 1.7390001
-0.01372071 0.31862536 1.739
-0.033462368 0.32853609 1.7350001
-0.025838582 0.32524154 1.7336669
-0.015192633 0.32511708 1.7330003
-0.033385217 0.3323347 1.7310001
-0.025797669 0.3323347 1.7310001
-0.013151754 0.33435807 1.7310001
-0.0052511361 0.33658087 1.7390002
0.0015245234 0.33691967 1.7390001
-0.042490281 0.3475098 1.7310001
-0.01214008 0.34143975 1.7310001
-0.0051665474 0.34296936 1.7326
-0.044007789 0.35357979 1.7310001
0.08275032 -0.49496952 1.748
0.39842749 -0.49190468 1.748
0.078153081 -0.48730743 1.748
0.08275032 -0.48577502 1.748
0.31107992 -0.48271018 1.748
0.084665835 -0.47581437 1.748
0.090412386 -0.47351572 1.748
0.086121634 -0.46432123 1.7479999
0.091178589 -0.46355501 1.748
0.085815139 -0.45512676 1.748
0.090412386 -0.45512676 1.748
0.086581357 -0.44669849 1.748
0.090412386 -0.44593227 1.748
0.078153081 -0.43367299 1.748
0.086325951 -0.43622699 1.748
0.090412386 -0.43367299 1.748
0.085815147 -0.42371228 1.748
0.090412386 -0.4244785 1.748
0.091638312 -0.41467109 1.7479999
0.096542038 -0.40608951 1.748
0.097563647 -0.39791664 1.748
0.10267169 -0.39383021 1.748
0.10757542 -0.38524872 1.7479999
0.11186618 -0.38157091 1.748
0.1144202 -0.37544128 1.748
-0.13791719 -0.36011714 1.748
0.11646342 -0.36624679 1.748
0.12106065 -0.36164954 1.748
-0.13229835 -0.35500908 1.748
-0.12412548 -0.35398749 1.748
-0.11646342 -0.35398749 1.748
-0.10497031 -0.3532213 1.748
0.12500115 -0.35442528 1.748
0.13025513 -0.35092264 1.748
-0.10267169 -0.3463254 1.748
0.13331996 -0.34530377 1.748
0.15170892 -0.34172818 1.748
0.13842799 -0.33764172 1.748
0.14481306 -0.33329988 1.748
0.15439065 -0.33521539 1.748
0.16090339 -0.33406609 1.748
0.14634547 -0.32870269 1.748
0.15538672 -0.32824293 1.7479999
0.16430876 -0.32504189 1.748
0.17009787 -0.32180679 1.748
0.16703305 -0.31567717 1.748
0.17132381 -0.31353179 1.7479999
0.17438862 -0.30433729 1.7479999
0.17775995 -0.29882059 1.748
0.1833788 -0.29371253 1.748
0.18695444 -0.28962612 1.748
0.1946165 -0.28349647 1.748
0.2068758 -0.27430198 1.748
0.21607028 -0.26817232 1.748
0.22679716 -0.25591302 1.748
0.23139441 -0.25284821 1.748
0.23629813 -0.24549261 1.7479999
0.24058889 -0.24212131 1.748
0.23752406 -0.23752406 1.748
0.2453564 -0.23479976 1.748
0.25438061 -0.23139441 1.748
0.24710163 -0.22488165 1.748
0.25438061 -0.22832958 1.748
0.24610558 -0.21576378 1.7479999
0.2538698 -0.21402705 1.748
0.24518614 -0.20534338 1.7479997
0.25284821 -0.2053434 1.748
0.24710165 -0.19499961 1.748
0.25407416 -0.19400354 1.7479999
0.24825096 -0.185422 1.748
0.25438061 -0.185422 1.748
0.24901715 -0.17699374 1.748
0.25591302 -0.17469512 1.7479998
0.24825096 -0.16550063 1.748
0.25591305 -0.16396822 1.748
0.26204267 -0.16090339 1.748
0.25629613 -0.15515685 1.748
0.26326859 -0.15416077 1.7479999
0.25897786 -0.14557926 1.748
0.26510748 -0.14557926 1.748
-0.23139441 -0.13331996 1.748
-0.22465178 -0.13454589 1.7479999
-0.21607028 -0.13383077 1.748
-0.2053434 -0.13331994 1.7479999
-0.19505432 -0.13244429 1.748
-0.18480906 -0.13148107 1.7479999
-0.17500159 -0.13086811 1.7479999
-0.16703305 -0.13025513 1.748
0.25897786 -0.13944961 1.748
0.26449451 -0.13546534 1.7479999
-0.18542202 -0.12719031 1.748
-0.17392889 -0.12527479 1.748
-0.16703303 -0.12412548 1.748
0.26204267 -0.12719031 1.748
-0.16396822 -0.11339859 1.748
-0.16090339 -0.10573652 1.748
-0.15707237 -0.10497031 1.748
-0.15416077 -0.098380938 1.7479999
-0.14557926 -0.098074459 1.748
-0.13536318 -0.093477212 1.748
-0.12412548 -0.090412386 1.748
-0.12412548 -0.08734756 1.748
-0.11493101 -0.086121634 1.7479999
-0.10573652 -0.082750328 1.748
-0.097308248 -0.081984118 1.748
-0.08734756 -0.081217907 1.748
-0.094352879 -0.076839589 1.748
-0.084282734 -0.078153081 1.748
-0.075088255 -0.077131473 1.748
-0.065893777 -0.073045038 1.748
-0.058231708 -0.072023429 1.748
-0.044439986 -0.072023429 1.748
-0.052102052 -0.068958603 1.748
-0.04367378 -0.0681924 1.748
-0.034862407 -0.066276878 1.748
-0.026488859 -0.06501811 1.748
-0.018388961 -0.064361356 1.748
-0.0229862 -0.059764121 1.748
-0.013791719 -0.056316189 1.748
0.12106065 -0.050569639 1.748
-0.0045972397 -0.044439986 1.748
0.0045972397 -0.044439986 1.748
0.015324133 -0.045206193 1.748
0.026051028 -0.047504812 1.748
0.035245508 -0.047504812 1.748
0.045206193 -0.044439986 1.748
0.054247428 -0.04382702 1.7479999
0.065893769 -0.047504812 1.748
0.074322045 -0.045206193 1.748
0.084282734 -0.04137516 1.748
0.094498821 -0.042907577 1.748
0.10497031 -0.046738606 1.748
0.11493101 -0.047504812 1.748
0.12412548 -0.047504812 1.748
0.13255376 -0.045206193 1.748
0.14711168 -0.044439986 1.748
0.15553994 -0.042141367 1.748
0.16396822 -0.042907577 1.748
0.1731627 -0.044439986 1.748
0.30801508 -0.042907573 1.748
0.31107992 -0.04137516 1.748
0.15477374 -0.038310334 1.748
0.16396822 -0.038310334 1.748
0.29779899 -0.036267117 1.748
0.31312314 -0.034223899 1.748
0.31458259 -0.026926693 1.748
-0.026051024 0.31720957 1.748
-0.015324133 0.31720957 1.748
0.0033713095 0.3147577 1.7479999
-0.033713095 0.32487163 1.748
-0.029115854 0.32027438 1.748
-0.019921374 0.32027438 1.748
-0.0076620667 0.32793647 1.748
0.0015324133 0.32027438 1.748
-0.0030648266 0.33406609 1.748
0.077015169 -0.49520752 1.7570001
0.07670711 -0.48457941 1.7570002
0.075474866 -0.47595373 1.7570001
0.082662947 -0.47389999 1.7570001
0.075474866 -0.46517158 1.7570001
0.082252197 -0.46547967 1.7570002
0.077323228 -0.45500559 1.7570002
0.081636079 -0.45438948 1.7570001
0.07635504 -0.4447076 1.7570001
0.082868323 -0.44576377 1.7570002
0.074242622 -0.43652195 1.7570002
0.082868323 -0.43528971 1.7570002
0.077015169 -0.42512375 1.7570001
0.083946534 -0.42473868 1.7570001
0.078555472 -0.4158819 1.7570001
0.084716685 -0.41434163 1.7570001
0.090877898 -0.41126099 1.7570001
0.085596859 -0.4055399 1.7570001
0.090877898 -0.40509978 1.7570001
0.087797292 -0.39893857 1.7570001
0.093958504 -0.39585799 1.7570001
0.10011972 -0.39277735 1.7570001
0.096012242 -0.38866988 1.7570001
0.10388491 -0.38456243 1.7570001
0.1073078 -0.37532058 1.7570001
0.11244214 -0.37275341 1.7570001
-0.14016761 -0.3650519 1.7570001
-0.1340064 -0.36197129 1.7570001
0.10936154 -0.3681325 1.7570001
0.11429051 -0.36381966 1.7570002
-0.13092579 -0.35889068 1.7570001
-0.12476457 -0.35889068 1.7570001
-0.11552275 -0.35889068 1.7570001
-0.10381645 -0.35704231 1.7570002
-0.072394259 -0.35581008 1.7570001
0.11706305 -0.35735038 1.7570001
0.12168396 -0.35426977 1.7570001
-0.10011972 -0.34964886 1.7570001
0.12599681 -0.34780049 1.7570002
0.13246609 -0.34194735 1.7570001
0.137087 -0.33732644 1.7570001
0.14016761 -0.33270553 1.7570001
0.14632882 -0.32705775 1.7570001
0.15618676 -0.32438788 1.7570002
0.16173185 -0.32346371 1.7570001
0.16481246 -0.31576219 1.7570002
0.16789307 -0.30960098 1.7570001
0.17200054 -0.3054935 1.7570001
0.17713489 -0.29727855 1.7570001
0.18021549 -0.29727855 1.7570001
0.18945731 -0.28803673 1.7570001
0.19407822 -0.28341582 1.7570001
0.22180368 -0.26493219 1.7570001
0.22642459 -0.25723067 1.7570001
0.2325858 -0.25106946 1.7570001
0.23412611 -0.24490823 1.7570001
0.23772015 -0.23566641 1.7570001
0.24336793 -0.2325858 1.7570001
0.23874702 -0.22488429 1.7570001
0.24244376 -0.22580847 1.7570002
0.2295052 -0.21102156 1.7570001
0.23689866 -0.21286993 1.7570002
0.24182762 -0.21718277 1.7570001
0.2295052 -0.20486034 1.7570001
0.23566641 -0.20486034 1.7570001
0.23751478 -0.19623464 1.7570002
0.24259777 -0.19484837 1.7570001
0.23772015 -0.18534984 1.7570001
0.24358797 -0.18461636 1.7570001
0.24490823 -0.17405428 1.7570001
0.25106946 -0.17097367 1.7570001
0.24402806 -0.16437237 1.7570001
0.25106946 -0.16173185 1.7570001
0.24490823 -0.15557064 1.7570001
0.25183961 -0.15480049 1.7570001
-0.22422417 -0.14148787 1.7570001
-0.21438223 -0.14436843 1.7570001
-0.20524542 -0.14286314 1.7570001
-0.19623464 -0.14139985 1.7570002
-0.1848364 -0.14016761 1.7570001
-0.17405428 -0.14016761 1.7570001
-0.16789307 -0.14016761 1.7570001
0.24644853 -0.14940943 1.7570001
0.2547662 -0.14540464 1.7570002
-0.23412611 -0.137087 1.7570001
-0.2295052 -0.137087 1.7570001
-0.21718277 -0.137087 1.7570001
-0.20177974 -0.137087 1.7570001
-0.19407822 -0.137087 1.7570001
-0.1848364 -0.13606013 1.7570001
-0.17343816 -0.13585475 1.7570002
-0.16789307 -0.1355467 1.7570001
0.25723067 -0.137087 1.7570001
0.26031128 -0.1340064 1.7570001
-0.16358021 -0.12414845 1.7570002
-0.15711094 -0.12322427 1.7570001
0.26031128 -0.12476457 1.7570001
-0.16250201 -0.1162929 1.7570001
-0.15557064 -0.11552276 1.7570001
-0.14694494 -0.11367439 1.7570002
-0.15372227 -0.10689706 1.7570002
-0.14478852 -0.10628093 1.7570001
-0.1340064 -0.10320032 1.7570001
-0.12707503 -0.10243017 1.7570001
-0.1340064 -0.097039111 1.7570001
-0.12476457 -0.095498808 1.7570001
-0.11596284 -0.09307833 1.7570001
-0.10540076 -0.092198156 1.7570001
-0.095498808 -0.090877898 1.7570001
-0.087797292 -0.090877898 1.7570001
-0.10474063 -0.087797292 1.7570001
-0.093518421 -0.085596859 1.7570001
-0.084331609 -0.085101761 1.7570001
-0.0759883 -0.083689816 1.7570001
-0.064692743 -0.081636079 1.7570001
-0.072394259 -0.078555472 1.7570001
-0.064032607 -0.077235214 1.7570001
-0.053525541 -0.075859942 1.7570001
-0.044668797 -0.075859942 1.7570001
-0.035426978 -0.073934563 1.7570001
-0.025304984 -0.073714517 1.7570001
-0.01386273 -0.072394259 1.7570001
-0.02310455 -0.069313653 1.7570001
-0.012707503 -0.065847971 1.7570001
-0.0053910618 -0.051600162 1.7570001
0.0046209102 -0.05083001 1.7570001
0.01386273 -0.05083001 1.7570001
0.024644854 -0.05083001 1.7570001
0.035426978 -0.05083001 1.7570001
0.043128494 -0.05083001 1.7570001
0.053910617 -0.05083001 1.7570001
0.064692743 -0.05083001 1.7570001
0.075474866 -0.05083001 1.7570001
0.090877898 -0.05083001 1.7570001
0.10474063 -0.05083001 1.7570001
0.1162929 -0.051600162 1.7570001
0.12476457 -0.051856879 1.7570001
0.1340064 -0.05083001 1.7570001
0.14940943 -0.05083001 1.7570001
-0.0046209102 -0.047749404 1.7570001
0.0046209102 -0.047749404 1.7570001
0.01386273 -0.047749404 1.7570001
0.046209101 -0.047749404 1.7570001
0.053910617 -0.047749404 1.7570001
0.06007183 -0.047749404 1.7570001
0.077015169 -0.047749404 1.7570001
0.084716685 -0.046209101 1.7570001
0.093958504 -0.046979252 1.7570001
0.10011972 -0.047749404 1.7570001
0.1355467 -0.047749404 1.7570001
0.14376165 -0.046722535 1.7570001
0.15403034 -0.044668797 1.7570001
0.16789307 -0.047749404 1.7570001
-0.032346372 0.30960098 1.7570001
-0.02405243 0.3058095 1.7570001
-0.01386273 0.3049801 1.7570001
-0.0015403033 0.30652037 1.7570001
0.0023104551 0.30575022 1.7570001
-0.035041902 0.31614727 1.7570001
-0.024644854 0.31422189 1.7570001
-0.01386273 0.31422189 1.7570001
-0.0015403033 0.31576219 1.7570001
0.0015403033 0.31268159 1.7570001
-0.035426978 0.3219234 1.7570001
-0.0046209102 0.32397714 1.7570001
-0.0025671723 0.33219209 1.7570001
0.0015403033 0.33270553 1.7570001
0.069668703 -0.49232548 1.766
0.073539183 -0.49464774 1.766
0.068430148 -0.48396525 1.766
0.07276509 -0.48613268 1.766
0.067014657 -0.47529534 1.7659999
0.068120509 -0.46600625 1.7659999
0.069668703 -0.45516884 1.766
0.073384367 -0.4548592 1.766
0.057283152 -0.4412351 1.766
0.066572316 -0.44355738 1.7659999
0.07276509 -0.44742787 1.766
0.066959366 -0.43542936 1.7659999
0.07276509 -0.43349415 1.766
0.06889461 -0.42652726 1.766
0.07276509 -0.42575315 1.7660002
0.069668703 -0.4195604 1.766
0.075242206 -0.41429654 1.766
0.076248527 -0.40446553 1.7659999
0.082828343 -0.40330437 1.766
0.07740967 -0.39478931 1.7659999
0.085150629 -0.39478931 1.7659999
0.091343403 -0.39324111 1.766
0.075861476 -0.38859653 1.766
0.08559297 -0.38638481 1.7659999
0.094052739 -0.38511309 1.7659999
0.10063256 -0.38395196 1.766
-0.1377892 -0.37001821 1.766
0.09576682 -0.37621096 1.7659999
0.1033419 -0.3738887 1.7659999
-0.13391872 -0.3661477 1.766
-0.12540366 -0.36537364 1.7659999
-0.1161145 -0.36537361 1.7659999
-0.10476109 -0.36485755 1.7659999
-0.094439805 -0.36382544 1.7659999
-0.085150629 -0.36227724 1.766
-0.07276509 -0.36072904 1.766
0.10721239 -0.36421245 1.7659999
0.11301811 -0.36072904 1.766
-0.095059067 -0.35639411 1.766
-0.086698823 -0.35763267 1.766
0.10992172 -0.35608447 1.766
0.1161145 -0.35402024 1.7659999
0.12488759 -0.34524712 1.7659999
0.12695184 -0.33905435 1.766
0.13469283 -0.33647403 1.7659999
0.14398198 -0.32770094 1.7660002
0.15450969 -0.32295313 1.766
0.15946391 -0.31737962 1.766
0.16410848 -0.31428325 1.766
0.16875307 -0.30809048 1.766
0.17184946 -0.30499408 1.766
0.17804223 -0.29570493 1.766
0.18268681 -0.29415673 1.766
0.18733139 -0.28951216 1.766
0.1945563 -0.28331938 1.7660002
0.20281333 -0.28022298 1.766
0.2074579 -0.27557841 1.766
0.21365067 -0.27093384 1.766
0.21829526 -0.26783744 1.766
0.22242379 -0.26267681 1.7660002
0.22603622 -0.25545189 1.766
0.23068081 -0.25235552 1.766
0.22758442 -0.24616276 1.7660002
0.23145491 -0.24538866 1.766
0.23412125 -0.2354974 1.7659999
0.22448803 -0.22139165 1.766
0.23377721 -0.22448802 1.7659999
0.21519887 -0.21334104 1.766
0.22448805 -0.21519886 1.7659999
0.23377718 -0.21674706 1.7659999
0.21564122 -0.20502506 1.7659999
0.22448802 -0.2059097 1.7659999
0.23068081 -0.20590971 1.766
0.21829526 -0.19971694 1.766
0.22448803 -0.19507235 1.7660002
0.2331579 -0.19445308 1.766
0.22448802 -0.18578321 1.7659999
0.23470612 -0.18423501 1.766
0.24306636 -0.18733139 1.766
0.22526214 -0.17417175 1.766
0.2353254 -0.17494585 1.7660002
0.22758442 -0.16875307 1.766
0.23574762 -0.16593817 1.766
-0.22139165 -0.15327114 1.766
-0.21519887 -0.15223901 1.7660002
-0.20590971 -0.15172294 1.7659999
-0.19816875 -0.15017475 1.766
-0.18733139 -0.15017475 1.766
0.2359889 -0.15526168 1.7660002
0.24306636 -0.15017475 1.766
-0.2337772 -0.14088559 1.766
-0.22139165 -0.14707837 1.766
-0.20281333 -0.14707837 1.766
-0.19507237 -0.14553018 1.766
-0.18423501 -0.14522053 1.766
-0.17494585 -0.14553018 1.7659999
-0.16720489 -0.14243379 1.766
0.23893784 -0.14604624 1.7660002
0.24616273 -0.14398199 1.7659999
0.25235552 -0.14243379 1.766
-0.16410848 -0.1346928 1.7659999
-0.15585147 -0.13262856 1.7659999
-0.14707837 -0.13159643 1.766
0.24771094 -0.1377892 1.766
0.25506485 -0.13430578 1.7659999
-0.1625603 -0.12850004 1.766
-0.15327114 -0.12617776 1.7659999
-0.14486668 -0.12496132 1.7659999
0.2563366 -0.12496132 1.7659999
-0.15017475 -0.11921088 1.766
-0.14294985 -0.11714663 1.7659999
-0.13557751 -0.11567216 1.7659999
-0.12540366 -0.11301812 1.7660002
-0.1346928 -0.10992172 1.7660002
-0.12424251 -0.10643829 1.7659999
-0.11680259 -0.104073 1.7659999
-0.1088896 -0.10166469 1.7660002
-0.1145663 -0.097536176 1.766
-0.10434823 -0.096916899 1.766
-0.093997456 -0.095324464 1.7659999
-0.085150637 -0.09443979 1.7659999
-0.075861476 -0.093555108 1.7659999
-0.065540187 -0.091343403 1.7660002
-0.057283152 -0.091343403 1.766
-0.074829347 -0.087214887 1.7660002
-0.065024123 -0.086698815 1.7659999
-0.054186769 -0.085150629 1.7659999
-0.044897605 -0.085150629 1.7659999
-0.036227725 -0.083292805 1.766
-0.026319286 -0.082054242 1.7660002
-0.035608448 -0.078957863 1.7660002
-0.023842176 -0.078338578 1.766
-0.013933741 -0.07740967 1.7659999
-0.0053326655 -0.063819975 1.7659999
0.0038704835 -0.061153635 1.766
0.010837353 -0.060379539 1.766
0.038704835 -0.060379539 1.766
0.052638572 -0.060379539 1.766
0.085150629 -0.060379539 1.766
0.091343403 -0.060379539 1.766
0.10837353 -0.060379539 1.766
0.1161145 -0.060379539 1.7660002
0.12230727 -0.060379539 1.766
-0.0040253028 -0.056044597 1.766
0.0046445802 -0.055734958 1.7659999
0.013933741 -0.055425324 1.766
0.023738964 -0.055218894 1.7659999
0.035608444 -0.055734958 1.7659999
0.045339946 -0.055071451 1.7659999
0.054186765 -0.055734962 1.7659999
0.065024123 -0.055734958 1.7659999
0.075861476 -0.055734958 1.7659999
0.085150629 -0.054186765 1.7659999
0.094826832 -0.054573815 1.7659999
0.10527714 -0.055734958 1.7659999
0.11549522 -0.056044597 1.766
0.12602292 -0.056044597 1.766
0.13469282 -0.055734958 1.7659999
0.14353964 -0.053302083 1.7659999
0.15389042 -0.052948214 1.766
0.16875307 -0.051090378 1.766
0.17184946 -0.051090378 1.766
0.15636753 -0.047993992 1.7660002
0.16410848 -0.047993992 1.766
0.17494583 -0.047993992 1.7660002
-0.025287157 0.28951216 1.7660002
-0.015481934 0.28951216 1.766
-0.032512061 0.29570493 1.7660002
-0.024771092 0.29570487 1.7660002
-0.01393374 0.2957049 1.7659999
0.0046445802 0.2988013 1.766
-0.033750616 0.30561334 1.766
-0.027351415 0.30292982 1.7660002
-0.0055292621 0.30455178 1.7659999
0.0030963868 0.3018977 1.766
-0.035608448 0.31118685 1.766
-0.0061927736 0.31428325 1.7659999
-0.0046445802 0.32434648 1.766
0.0015481933 0.32821697 1.766
0.066949278 -0.49511328 1.7760001
0.070063196 -0.49978417 1.7760001
0.063056879 -0.48343608 1.7760001
0.05760752 -0.4748728 1.7760001
0.062589787 -0.47424999 1.7760003
0.05760752 -0.46553105 1.7760001
0.062945664 -0.46508619 1.7760001
0.056361951 -0.4555665 1.7760003
0.063835353 -0.45618927 1.7760001
0.054210518 -0.44543216 1.7760003
0.061967004 -0.44684753 1.7760003
0.056050565 -0.43439186 1.7760001
0.061967008 -0.43376905 1.7760003
0.056829039 -0.42582855 1.7760001
0.063835353 -0.42505008 1.7760001
0.05760752 -0.41882223 1.7760001
0.064354345 -0.41622731 1.7760001
0.070063196 -0.4157083 1.7760001
0.066949278 -0.40480959 1.7760001
0.071101174 -0.40377164 1.7760001
0.066170797 -0.39468938 1.7760001
0.072732277 -0.39346603 1.7760001
0.07594505 -0.38526106 1.7760001
0.085010014 -0.38270077 1.7760003
-0.14168335 -0.37522736 1.7760001
-0.13389856 -0.37211344 1.7760001
-0.12673655 -0.37335902 1.7760003
-0.11521503 -0.37211344 1.7760001
-0.10639226 -0.37315142 1.7760001
0.077848002 -0.37834129 1.7760001
0.086670779 -0.37626532 1.7760001
0.09310621 -0.37460458 1.7760003
0.1012024 -0.37211344 1.7760001
-0.094974563 -0.36588559 1.7760001
-0.086151786 -0.36588559 1.7760001
-0.075512558 -0.36355016 1.7760001
0.095864251 -0.36633044 1.7760001
0.10198088 -0.36510712 1.7760001
-0.085632801 -0.3581008 1.7760001
0.098088481 -0.35965776 1.7760001
0.1050948 -0.35887927 1.7760001
0.11490364 -0.35156161 1.7760003
0.11864035 -0.34471095 1.7760003
0.12299984 -0.3425312 1.7760001
0.12689224 -0.33708182 1.7760001
0.13545552 -0.33318943 1.7760001
0.14687324 -0.32436666 1.7760001
0.15258208 -0.32229072 1.7760001
0.15725295 -0.31917679 1.7760001
0.16244282 -0.31502491 1.7760001
0.16815168 -0.30827808 1.7760001
0.17437953 -0.30205023 1.7760001
0.18372127 -0.29270849 1.7760001
0.18839216 -0.2880376 1.7760001
0.19773392 -0.28180975 1.7760001
0.20603772 -0.27558193 1.7760001
0.2101896 -0.272468 1.7760001
0.2152198 -0.26480296 1.7760004
0.22264528 -0.26001233 1.7760001
