# .PCD v0.7 - Point Cloud Data file format
VERSION 0.7
FIELDS x y z
SIZE 4 4 4
TYPE F F F
COUNT 1 1 1
WIDTH 1438
HEIGHT 1
VIEWPOINT 0 0 0 1 0 0 0
POINTS 1438
DATA ascii
-0.16558357 0.0056176796 1.6033999
-0.15513197 0.0061910194 1.6058
-0.14585157 0.0087454515 1.609
-0.13541344 0.0098738968 1.6090001
-0.12836066 0.0098738968 1.6090001
-0.25531074 0.015516124 1.6090001
-0.24452688 0.015458264 1.603
-0.23495314 0.013754725 1.6010001
-0.15158269 0.014035434 1.6010001
-0.14421408 0.015088091 1.601
-0.13482344 0.014043325 1.6019999
-0.12471877 0.01510387 1.603
-0.11587556 0.016417533 1.6054444
-0.10579175 0.018337237 1.6090001
-0.25499573 0.025356704 1.607
-0.24717879 0.025278684 1.602
-0.1131256 0.022175986 1.6010001
-0.10526574 0.022456693 1.601
-0.095390983 0.023571715 1.6027777
-0.08428964 0.026424779 1.6054444
-0.077580616 0.029621691 1.6090001
-0.069117278 0.029621691 1.6090001
-0.2539002 0.035263915 1.6090001
-0.24619843 0.035915654 1.6021429
-0.073163092 0.032362148 1.605
-0.066076413 0.032335263 1.6036667
-0.053403024 0.03512891 1.6030002
-0.04496599 0.03653596 1.603
-0.038085029 0.038085029 1.6090001
-0.2539002 0.045137811 1.6090001
-0.24610096 0.044827875 1.6024544
-0.040702756 0.040702756 1.6010001
-0.034386814 0.042808071 1.6010001
-0.025263779 0.044913385 1.601
-0.016034057 0.04528106 1.6042001
-0.0053502964 0.048194747 1.6074002
0.0042316699 0.049369484 1.6090001
0.01692668 0.049369484 1.6090001
0.025390022 0.049369484 1.6090001
0.03385336 0.049369484 1.6090001
0.1170762 0.049369484 1.6090001
0.12532915 0.047877103 1.6063334
0.13507681 0.046429142 1.605
0.14501645 0.045049265 1.6060001
0.15384279 0.045392439 1.6046364
0.20735183 0.04654837 1.6090001
0.21111332 0.047488738 1.6090001
-0.25248966 0.052190598 1.6090001
-0.24667522 0.053157736 1.6042001
-0.0042117988 0.053377897 1.6023334
0.0059089088 0.054335274 1.6058
0.015490408 0.054915864 1.6063334
0.025347939 0.05491586 1.6063333
0.035224952 0.054947808 1.6072222
0.044641908 0.055920132 1.6081113
0.054071337 0.056892451 1.6090001
0.064885609 0.057832822 1.6090001
0.075464785 0.057127543 1.6090001
0.084028877 0.056623779 1.6090001
0.094608799 0.05551083 1.6054444
0.10524186 0.055609155 1.6060001
0.11530359 0.053431958 1.6040001
0.12210827 0.051931102 1.6010001
0.1361437 0.051931102 1.6010001
0.21863629 0.052190598 1.6090001
0.018246064 0.060352363 1.6010001
0.026105907 0.060913779 1.6010001
0.035088584 0.060352366 1.6010002
0.043977693 0.061288059 1.601
0.05473819 0.061755907 1.601
0.064562991 0.061755903 1.601
0.073686026 0.061054137 1.6010001
0.081405513 0.060352363 1.6010001
0.21639787 0.087777413 1.6063334
0.22145739 0.088865072 1.6090001
0.21614566 0.091230318 1.6010001
0.22145739 0.091686182 1.6090001
0.20819227 0.10713714 1.6010002
0.21418071 0.10695001 1.6010001
0.2082399 0.11538161 1.605
0.21460712 0.11420055 1.6042
0.2203563 0.11228347 1.6010001
0.45688361 -0.49442598 1.6160001
0.46042532 -0.49584267 1.6160001
0.45759195 -0.48450914 1.6160001
0.46285394 -0.48309237 1.6160001
0.47742566 -0.48309243 1.6160001
0.48309243 -0.48025903 1.6160001
0.45759195 -0.47742566 1.6160001
0.4648042 -0.47484982 1.6159999
0.47459227 -0.47378272 1.6160001
0.48228288 -0.47499701 1.6160001
0.46892548 -0.4646754 1.6160001
0.47459224 -0.4648042 1.6159999
0.48309243 -0.46467543 1.6160001
0.46892548 -0.45475855 1.6160001
0.47459227 -0.45475858 1.6160001
0.48228285 -0.45435381 1.6160001
0.46750879 -0.44484168 1.6160001
0.47459224 -0.44484174 1.6159998
0.48356462 -0.44389725 1.6159998
0.46750879 -0.43350816 1.6160001
0.47345892 -0.43605822 1.6159999
0.48592582 -0.43775824 1.6160001
0.47427744 -0.42453578 1.6160001
0.47459224 -0.4150911 1.6160001
0.48096737 -0.41438282 1.6160001
0.47530061 -0.40552846 1.6160001
0.48187807 -0.40578145 1.6160001
0.47600895 -0.39809081 1.6160001
0.48592582 -0.39809081 1.6160001
0.47459227 -0.37259033 1.6160001
-0.26421332 -0.0021250399 1.6160001
-0.25484741 -0.0036204383 1.6160001
-0.24468319 -0.0034405407 1.6160001
-0.23517108 -0.0050596194 1.6159998
-0.22525425 -0.0056667733 1.6160001
-0.21533738 -0.0049584266 1.6160001
-0.20506635 -0.004604253 1.6160001
-0.19589005 -0.0045076604 1.6159999
-0.18728685 -0.0042500799 1.6159999
-0.17141989 -0.0014166933 1.6160001
-0.16433643 -0.0014166933 1.6160001
-0.15725295 -0.0014166933 1.6160001
-0.27271345 0.0070834667 1.6160001
-0.26517925 0.0052804025 1.6159999
-0.25535899 0.0035417329 1.6160001
-0.24792133 0.0014166933 1.6160001
-0.18275344 0.0014166933 1.6160001
-0.17566997 0.0014166933 1.6160001
-0.16858651 0.0014166933 1.6160001
-0.15347511 0.0033056177 1.6160001
-0.14355826 0.005194542 1.6160001
-0.13458587 0.0070834667 1.6160001
-0.12466902 0.009208506 1.6160001
-0.27342182 0.014450272 1.6159999
-0.26492167 0.015583628 1.6160001
-0.11475215 0.012750241 1.6160001
-0.10436308 0.01652809 1.6160001
-0.094918452 0.018417014 1.6160001
-0.086418293 0.018417014 1.6160001
-0.27285513 0.025783816 1.6159999
-0.26492167 0.025500478 1.6159998
-0.092085063 0.021250401 1.6160001
-0.085001595 0.021958748 1.6160001
-0.074376397 0.028333865 1.6160001
-0.065451235 0.028617203 1.6159999
-0.05525104 0.029750559 1.6160001
-0.26322162 0.03598401 1.6159999
-0.25925487 0.035417333 1.6160001
-0.060917813 0.032583948 1.6160001
-0.05525104 0.032583948 1.6160001
-0.045334186 0.032583948 1.6160001
-0.036361795 0.036361795 1.6160001
-0.029750559 0.036834024 1.6160001
-0.015583627 0.038250718 1.6160001
0.14875279 0.038250718 1.6160001
0.15300289 0.038250718 1.6160001
-0.25925487 0.04533419 1.6160001
-0.032583948 0.041084107 1.6160001
-0.02550048 0.041084107 1.6160001
-0.01487528 0.041792456 1.6160001
-0.0059501114 0.044484168 1.6159999
0.0061390041 0.049584266 1.6160001
0.016055858 0.045806412 1.6160001
0.025972709 0.045806412 1.6160001
0.035417333 0.048167571 1.6160001
0.045806419 0.049584266 1.6160001
0.052417655 0.049584266 1.6160001
0.062334508 0.049584266 1.6160001
0.093501762 0.049584266 1.6160001
0.11191877 0.049584266 1.6160001
0.12466901 0.044625841 1.6160001
0.13458587 0.042028572 1.6160001
0.14237769 0.041792452 1.6160001
0.15725295 0.041084107 1.6160001
0.20683722 0.047459226 1.6160001
0.21572374 0.045462977 1.6159999
0.22468758 0.04845091 1.6159999
0.23092102 0.049584266 1.6160001
0.046750885 0.052417655 1.6160001
0.055723269 0.054306578 1.6160001
0.065167896 0.053834349 1.6160001
0.07451807 0.053551007 1.6159999
0.085851617 0.052984335 1.6159999
0.097751841 0.052417655 1.6160001
0.10341861 0.052417655 1.6160001
0.20825392 0.055251036 1.6160001
0.21495099 0.055508625 1.6159999
0.2245459 0.053126 1.6160001
0.20825392 0.062334508 1.6160001
0.2110873 0.062334508 1.6160001
0.21817076 0.076501444 1.6160001
0.22242086 0.077918135 1.6160001
0.21845409 0.083018228 1.6159999
0.22383755 0.086418293 1.6160001
0.4285357 -0.4954499 1.6240001
0.4313831 -0.4954499 1.6240001
0.44668797 -0.49580583 1.6240003
0.45390356 -0.4953205 1.6240004
0.47694173 -0.49972105 1.6240001
0.42782384 -0.48477212 1.6240001
0.43470511 -0.48500934 1.6240002
0.44656929 -0.48500943 1.6240002
0.45416239 -0.48548397 1.6240003
0.42758656 -0.47599259 1.6240002
0.4348633 -0.4753598 1.6240003
0.44704387 -0.47551805 1.6240003
0.45530137 -0.47523326 1.6240004
0.46555209 -0.47195876 1.6240001
0.48263657 -0.4712469 1.6240001
0.4285357 -0.46697581 1.6240001
0.43351868 -0.46555209 1.6240001
0.44562021 -0.46590799 1.6240003
0.45558617 -0.46555209 1.6240004
0.46555212 -0.46555212 1.6240003
0.47694173 -0.46555209 1.6240001
0.48589072 -0.46636564 1.6240003
0.4313831 -0.45558614 1.6240001
0.44533548 -0.45644036 1.6240003
0.45558617 -0.45558617 1.6240004
0.46529323 -0.4559744 1.6240004
0.48833141 -0.45606068 1.6240001
0.49117881 -0.45558614 1.6240001
0.4313831 -0.4470439 1.6240001
0.44562018 -0.44846758 1.6240001
0.45558611 -0.44562018 1.6240004
0.46412838 -0.44562018 1.6240002
0.48833138 -0.44846758 1.6240001
0.49402621 -0.44467103 1.6240001
0.44846758 -0.4313831 1.6240001
0.45558617 -0.43565419 1.6240004
0.4649826 -0.43565425 1.6240003
0.4712469 -0.43565422 1.6240001
0.4313831 -0.42284086 1.6240001
0.44846758 -0.42568827 1.6240001
0.45629796 -0.4260442 1.6240003
0.46555212 -0.4256883 1.6240003
0.47195876 -0.42568827 1.6240001
0.44562015 -0.41524777 1.6240002
0.45558614 -0.41358677 1.6240001
0.46555212 -0.41572234 1.6240004
0.47181639 -0.41543761 1.6240002
0.45558614 -0.40860382 1.6240001
0.46555209 -0.40433267 1.6240004
0.47346157 -0.4048073 1.6240003
0.48358572 -0.40101072 1.6240001
0.46555212 -0.39436674 1.6240003
0.47551802 -0.39436674 1.6240004
0.4846704 -0.39477351 1.6240003
0.46839949 -0.3829771 1.6240001
0.47668287 -0.38478908 1.6240004
0.48263657 -0.3858245 1.6240001
0.47480616 -0.37514672 1.6240001
-0.23491161 -0.28047022 1.6240001
-0.23409806 -0.27518216 1.6240003
-0.25199607 -0.26196203 1.6240001
-0.24914867 -0.26338574 1.6240001
-0.23206419 -0.26765686 1.6240001
-0.22352195 -0.26338571 1.6240001
-0.22067453 -0.25769091 1.6240001
-0.26053831 -0.012813359 1.6240001
-0.25626719 -0.012813359 1.6240001
-0.24426739 -0.014033682 1.6240003
-0.23526752 -0.015304847 1.6240003
-0.22514904 -0.014033682 1.6240003
-0.21426785 -0.013525213 1.6240001
-0.20472901 -0.015091291 1.6240003
-0.19504781 -0.014237066 1.6240002
-0.18792927 -0.012813359 1.6240001
-0.29280901 -0.0033219822 1.6240001
-0.28417182 -0.0037016373 1.6240003
-0.27503422 -0.0053065429 1.6240004
-0.265284 -0.007434913 1.6240003
-0.25484347 -0.008257499 1.6240002
-0.24582671 -0.0090168091 1.6240002
-0.23206419 -0.0099659469 1.6240001
-0.22494565 -0.0099659469 1.6240001
-0.21497969 -0.0092540942 1.6240001
-0.20501375 -0.0099659469 1.6240001
-0.19504781 -0.0099659469 1.6240001
-0.18365814 -0.0063419668 1.6240004
-0.17511591 -0.0052202577 1.6240003
-0.1654347 -0.0065490506 1.6240003
-0.15589587 -0.0035592664 1.6240001
-0.14806549 -0.0014237066 1.6240001
-0.28413114 0.0061016008 1.6240004
-0.2761991 0.0028474133 1.6240001
-0.15233661 0.0014237066 1.6240001
-0.14521807 0.0014237066 1.6240001
-0.13596399 0.0035592664 1.6240001
-0.12670989 0.0061693955 1.6240001
-0.11532024 0.0099659469 1.6240001
-0.10962541 0.0099659469 1.6240001
-0.28417185 0.015091291 1.6240003
-0.27477539 0.017084479 1.6240001
-0.10535429 0.012813359 1.6240001
-0.096100196 0.01494892 1.6240001
-0.086276621 0.017369222 1.6240002
-0.28118208 0.023491161 1.6240001
-0.27518216 0.025423335 1.6240003
-0.081151277 0.021355599 1.6240001
-0.075456448 0.023389468 1.6240003
-0.065205768 0.025341978 1.6240002
-0.055524558 0.028189391 1.6240002
-0.046412837 0.029328357 1.6240002
-0.27287713 0.03369439 1.6240001
-0.26813141 0.03369439 1.6240001
-0.034453701 0.034453701 1.6240002
-0.024558939 0.035948597 1.6240003
-0.015254001 0.035592668 1.6240003
-0.0071185329 0.037490942 1.6240001
0.0099659469 0.038440078 1.6240001
0.014237067 0.038440078 1.6240001
0.024203014 0.038440078 1.6240001
0.13382843 0.038440078 1.6240001
0.14664179 0.037016373 1.6240001
0.15518403 0.037016373 1.6240001
0.21640341 0.038440078 1.6240001
0.22067453 0.038440078 1.6240001
-0.26338574 0.041287493 1.6240001
-0.0048406026 0.042426459 1.6240002
0.0056948271 0.044134911 1.6240004
0.014237067 0.042711202 1.6240001
0.02591146 0.042426459 1.6240002
0.036162149 0.04527387 1.6240002
0.044948451 0.046575546 1.6240003
0.056094043 0.048121285 1.6240002
0.065775253 0.048121285 1.6240002
0.075456455 0.049829733 1.6240001
0.085422397 0.049829733 1.6240001
0.095388345 0.047931459 1.6240001
0.10535429 0.049829733 1.6240001
0.11532024 0.046982318 1.6240001
0.12528619 0.042711198 1.6240001
0.13809955 0.041287493 1.6240001
0.21782711 0.041287493 1.6240001
0.22209823 0.042711198 1.6240001
0.22494565 0.056948267 1.6240001
0.21640341 0.062643096 1.6240001
0.22181349 0.06349732 1.6240002
0.21782711 0.072609037 1.6240001
0.22352195 0.075456455 1.6240001
0.23206419 0.078303866 1.6240001
0.22636935 0.082574986 1.6240001
0.23206419 0.082574986 1.6240001
0.40950415 -0.49571553 1.6390001
0.41564649 -0.49579 1.6383002
0.42436317 -0.49492195 1.6330001
0.43780035 -0.49502912 1.6320001
0.44431803 -0.49423429 1.6320001
0.40950415 -0.48996812 1.6390001
0.41582638 -0.48623234 1.6390002
0.42305109 -0.48516142 1.6349168
0.43636957 -0.48501408 1.6320001
0.4435232 -0.48358339 1.6320001
0.41668844 -0.47847328 1.6390001
0.4245761 -0.47532147 1.6357694
0.43694192 -0.47414058 1.6320002
0.4435232 -0.47547594 1.6320001
0.42513087 -0.46502572 1.6358184
0.43601191 -0.46462631 1.6320001
0.4440001 -0.46403018 1.6320001
0.4181253 -0.45835727 1.6390001
0.42493552 -0.45546654 1.636
0.43541577 -0.45496896 1.6320001
0.44323701 -0.45468283 1.6320002
0.4506768 -0.45353824 1.6320001
0.49752456 -0.45593855 1.6355001
0.42589033 -0.44599181 1.6377274
0.43548933 -0.44455358 1.6331668
0.44495392 -0.44495392 1.6320001
0.4506768 -0.44495392 1.6320001
0.49645984 -0.44781536 1.6320001
0.42835641 -0.43601146 1.6378335
0.43546247 -0.43527335 1.6343334
0.44495392 -0.43493891 1.6320001
0.4506768 -0.43780032 1.6320001
0.42818332 -0.4253096 1.6390001
0.4346244 -0.42447373 1.6332729
0.44457 -0.42539349 1.6327002
0.4556843 -0.42528152 1.6320001
0.42818329 -0.41525158 1.6390001
0.43547457 -0.41485831 1.6329334
0.44495392 -0.4144319 1.6320001
0.45480999 -0.41602159 1.6320001
0.46212256 -0.41490877 1.6320001
0.42866221 -0.4061515 1.6390001
0.43539 -0.40485719 1.636
0.44423366 -0.40413055 1.6337501
0.45496896 -0.40489376 1.6320001
0.46212256 -0.40489376 1.6320001
0.42962015 -0.3980093 1.6390001
0.4345465 -0.39554611 1.6390001
0.44542536 -0.39559063 1.6375
0.45496896 -0.39487872 1.6320001
0.46355328 -0.393448 1.6320001
0.4721376 -0.39058656 1.6320001
0.48501408 -0.39058656 1.6320001
0.43536755 -0.38651446 1.6390001
0.44829929 -0.3850776 1.6390001
0.45572117 -0.38459295 1.6357334
0.46456289 -0.38411883 1.6332729
0.47242373 -0.38486367 1.6320002
0.44829929 -0.3778933 1.6390001
0.45584279 -0.37537879 1.6390001
0.4652814 -0.37605086 1.6372501
0.47289625 -0.3754462 1.6346251
0.45835727 -0.36927217 1.6390001
0.35346675 -0.35202989 1.6390001
0.45835727 -0.35634047 1.6390001
0.34628245 -0.34484559 1.6390001
0.35464236 -0.34445369 1.6390001
0.36424315 -0.34484556 1.6390001
0.37214586 -0.34197187 1.6390001
0.3545444 -0.33514681 1.6390001
0.36514774 -0.33540088 1.6380001
0.37214586 -0.33478761 1.6390001
0.34656984 -0.32386747 1.6390002
0.35502818 -0.32499596 1.6383637
0.36496159 -0.32472959 1.6390001
0.34596315 -0.31403297 1.6390001
0.35431555 -0.31497508 1.6376002
0.36270365 -0.31467161 1.6390001
0.33622447 -0.30030304 1.6390001
0.34484559 -0.30461365 1.6390001
0.35452464 -0.3042838 1.6372501
0.36180049 -0.30662519 1.6390002
-0.24282877 -0.29168192 1.6390001
-0.23657303 -0.29249382 1.6355001
0.33514681 -0.2941964 1.6390001
0.34459707 -0.29434493 1.6378335
0.35274833 -0.29527405 1.6390001
-0.26458687 -0.28141862 1.6390001
-0.25375968 -0.28411967 1.6380001
-0.24546927 -0.28566584 1.6374445
-0.23468767 -0.28519654 1.6332729
-0.22481661 -0.2816695 1.6376002
-0.21840221 -0.2816239 1.6390001
0.33478761 -0.28708398 1.6390002
0.34388769 -0.28785029 1.6390001
-0.26390266 -0.27348173 1.6390001
-0.25317702 -0.27452114 1.6332729
-0.24474056 -0.27479488 1.6325835
-0.23428041 -0.2736252 1.6320001
-0.22490919 -0.27383977 1.6320002
-0.21674083 -0.27334937 1.6346251
-0.2630145 -0.26556483 1.6374445
-0.25543824 -0.26484185 1.6330001
-0.24420011 -0.26711616 1.6337501
-0.23520041 -0.26406041 1.6325835
-0.22462304 -0.26468319 1.6320002
-0.21662499 -0.2653262 1.6337501
-0.26007107 -0.25719735 1.6390001
-0.25323743 -0.25896031 1.6320001
-0.23263507 -0.25781575 1.6320002
-0.22510171 -0.25520816 1.6355001
-0.21890016 -0.25896031 1.6320001
-0.27443963 -0.030173989 1.6390001
-0.26677638 -0.031131893 1.6390001
-0.25623944 -0.032089796 1.6390001
-0.24570249 -0.030173989 1.6390001
-0.23626029 -0.031405579 1.6390001
-0.2255865 -0.030173989 1.6390001
-0.21840221 -0.030173989 1.6390001
-0.28388181 -0.023605499 1.6390001
-0.27465904 -0.024111576 1.6369002
-0.26428598 -0.02441889 1.6384168
-0.25432363 -0.024426563 1.6390001
-0.24535407 -0.024394516 1.6366668
-0.23488916 -0.024351388 1.6337501
-0.22515829 -0.024382927 1.6358889
-0.21506824 -0.024378488 1.6355001
-0.20537783 -0.023551149 1.6350001
-0.19637041 -0.022510752 1.6390001
-0.18822822 -0.02155285 1.6390001
-0.30892417 -0.017242279 1.6390001
-0.29314607 -0.014157166 1.6380001
-0.28481504 -0.014313848 1.6325835
-0.27458817 -0.015297698 1.6320001
-0.26531908 -0.015419981 1.6320001
-0.25450915 -0.016691733 1.6320001
-0.24465312 -0.018599359 1.6320001
-0.23177664 -0.018599359 1.6320001
-0.22462304 -0.017883999 1.6320001
-0.21556181 -0.017645547 1.6320001
-0.20459296 -0.018599359 1.6320001
-0.19388272 -0.018043028 1.6334002
-0.18450207 -0.016125515 1.6346251
-0.17522353 -0.014671355 1.6352309
-0.16516575 -0.013861659 1.6351112
-0.15632722 -0.011679956 1.636
-0.14655939 -0.010057997 1.6390001
-0.29433054 -0.0057305507 1.6337501
-0.28757471 -0.0071536 1.6320001
-0.15308703 -0.0057228799 1.6320001
-0.14445341 -0.0046636476 1.6355001
-0.13736007 -0.003351643 1.6378335
-0.29186687 0.0028614399 1.6320001
-0.13305695 0.00143072 1.6320001
-0.12473959 0.0038203674 1.6355001
-0.11476213 0.0057359207 1.6363751
-0.10560896 0.0064658551 1.6390001
-0.09914311 0.0071842833 1.6390001
-0.10444256 0.01001504 1.6320001
-0.093926556 0.011253645 1.6340001
-0.084533162 0.013369751 1.6343335
-0.074903667 0.016019251 1.6345456
-0.064658552 0.018679136 1.6390001
-0.041668843 0.018679136 1.6390001
-0.070105277 0.0214608 1.6320001
-0.063667037 0.02217616 1.6320001
-0.054483961 0.022937544 1.6355001
-0.044436868 0.024364516 1.6351112
-0.034398135 0.024361618 1.6349168
-0.024380196 0.024376106 1.6358889
-0.014926741 0.024966326 1.6369002
-0.0043105702 0.027300276 1.6390001
0.0043105702 0.027300276 1.6390001
0.014368567 0.027300276 1.6390001
0.024426563 0.027300276 1.6390001
0.033047702 0.027300276 1.6390001
0.22271279 0.024426563 1.6390001
-0.034337278 0.03004512 1.6320001
-0.024894528 0.031189695 1.6320002
-0.0143072 0.030998932 1.6320001
-0.0045601013 0.033995062 1.6345456
0.004301365 0.034404781 1.6355001
0.014662385 0.033397291 1.6346924
0.024639681 0.034377169 1.6341002
0.034412455 0.034405552 1.6355001
0.04450028 0.035884596 1.6374445
0.054121599 0.036879323 1.6390001
0.064658552 0.037358273 1.6390001
0.075108416 0.036182668 1.6390001
0.084774546 0.035921413 1.6390001
0.093754895 0.036999058 1.6390001
0.10345368 0.038795128 1.6390001
0.1192591 0.038795128 1.6390001
0.12558842 0.038035277 1.6372501
0.13470629 0.035822462 1.6346251
0.1441759 0.03525462 1.6348002
0.1540533 0.031841762 1.6362002
0.21865425 0.033689424 1.6355001
0.22576018 0.034077629 1.6383637
0.23499137 0.035137679 1.6390001
0.0214608 0.041490879 1.6320001
0.035767999 0.041490879 1.6320001
0.044352319 0.042206239 1.6320001
0.054398812 0.042943846 1.6328751
0.064520471 0.043010581 1.6355001
0.074559025 0.044443343 1.6355001
0.084612258 0.044453915 1.6358889
0.094550863 0.043834649 1.6341002
0.10464302 0.044432778 1.6351112
0.11414228 0.043457828 1.6343334
0.12447264 0.041490879 1.6320001
0.22685592 0.042504013 1.6343335
0.23338659 0.044132024 1.6390001
0.22748448 0.05865952 1.6320001
0.23277077 0.056037411 1.6390001
0.21890016 0.067243837 1.6320001
0.22676912 0.065097757 1.6320001
0.23133393 0.064658552 1.6390001
0.22613229 0.072783247 1.6370001
0.23372494 0.075751998 1.6381251
0.24282877 0.079027116 1.6390001
0.23500876 0.084622875 1.636
0.24282877 0.081900828 1.6390001
0.23564449 0.090521969 1.6390001
0.40572745 -0.49524742 1.6470002
0.40717134 -0.48658419 1.6470002
0.4127405 -0.48452154 1.6470002
0.4086152 -0.47503322 1.6470001
0.41439068 -0.47503322 1.6470002
0.4208881 -0.47431129 1.6470001
0.41583461 -0.46492618 1.6470002
0.42132124 -0.46694756 1.6470001
0.41554579 -0.45481905 1.6470001
0.42016616 -0.45481905 1.647
0.41727844 -0.44471195 1.6470001
0.42247638 -0.4444232 1.6470001
0.41612333 -0.43402728 1.6470001
0.42363149 -0.43489361 1.6470001
0.41496825 -0.42449778 1.6470001
0.42305389 -0.42449775 1.647
0.41727844 -0.41294682 1.6470001
0.42305395 -0.41439068 1.6470002
0.41727844 -0.4086152 1.6470001
0.42449778 -0.40543866 1.6470001
0.41727844 -0.39995199 1.6470001
0.42491028 -0.39623913 1.647
0.43243906 -0.39345455 1.6470001
0.44254613 -0.39345455 1.6470001
0.42786682 -0.38743845 1.647
0.43377981 -0.38510078 1.6470002
0.44362903 -0.38587427 1.6470002
0.4288294 -0.37973779 1.6470001
0.43486741 -0.37580001 1.6470001
0.44698089 -0.3756125 1.6470002
0.45385647 -0.37299976 1.6470002
0.46636999 -0.37179652 1.6470001
0.47310805 -0.37203717 1.647
0.34436297 -0.36313331 1.6470001
0.35086042 -0.36241138 1.6470001
0.43604875 -0.36818686 1.6470001
0.44904357 -0.36818686 1.6470001
0.45517999 -0.36566013 1.6470002
0.46348232 -0.36529911 1.6470002
0.4721455 -0.36241138 1.6470001
0.33750463 -0.35410911 1.6470002
0.34482238 -0.35558578 1.6470001
0.3547982 -0.35584828 1.6470001
0.36529911 -0.35422945 1.6470002
0.37203717 -0.351823 1.647
0.45770678 -0.35807976 1.6470001
0.46492615 -0.35759845 1.6470002
0.33642173 -0.34508491 1.6470002
0.34364104 -0.34508491 1.6470002
0.35086045 -0.34508491 1.647
0.37685004 -0.34508491 1.6470001
0.38262555 -0.34219718 1.6470001
0.32775849 -0.33353397 1.6470001
0.33497778 -0.33497778 1.6469998
0.34508491 -0.33497784 1.647
0.35302624 -0.3356998 1.6470001
0.37757203 -0.33497784 1.6470002
0.38262555 -0.33930945 1.6470001
0.32703656 -0.32414883 1.6470001
0.33497787 -0.3248708 1.647
0.34219718 -0.32487074 1.647
0.37648913 -0.32523173 1.6470002
0.31909525 -0.31043205 1.6470001
0.32513329 -0.31436986 1.6470001
0.33497778 -0.31476361 1.6469998
0.34315977 -0.31813267 1.647
0.36818686 -0.31428239 1.647
0.37231222 -0.31538248 1.6470002
-0.2353508 -0.30176884 1.6470001
0.31813267 -0.30658174 1.647
0.32487074 -0.30465657 1.6470002
0.3344003 -0.30523407 1.6470001
0.36529911 -0.30393463 1.6470001
-0.27058122 -0.29368314 1.6470001
-0.2650533 -0.29351813 1.6470002
-0.25556496 -0.2931056 1.6470002
-0.24642049 -0.29551205 1.6470002
-0.2353508 -0.29599333 1.6470001
-0.2266876 -0.29021788 1.647
-0.21224889 -0.29021788 1.6470001
0.32487077 -0.29454947 1.647
0.33122379 -0.29541582 1.6470001
0.35746095 -0.29393068 1.6470002
0.36241138 -0.29888108 1.6470001
-0.27371648 -0.28485492 1.6470002
-0.26422822 -0.28660819 1.6470001
-0.25845271 -0.28733012 1.6470001
-0.22524373 -0.28733012 1.6470001
-0.21431157 -0.28485492 1.6470002
-0.20743601 -0.28347981 1.6470002
0.32631463 -0.28444239 1.6470002
0.33468908 -0.28415364 1.6470001
0.34549743 -0.28361732 1.6470002
0.3520155 -0.28501993 1.6470001
-0.27144754 -0.27866691 1.6470001
-0.26567209 -0.27866691 1.6470001
-0.21321148 -0.27770433 1.647
-0.20936115 -0.27722305 1.6470001
0.32775849 -0.27722305 1.6470001
0.33458406 -0.27604172 1.6470001
0.34315977 -0.27770433 1.647
-0.2266876 -0.24978951 1.6470001
-0.26365066 -0.043027326 1.6470001
-0.25628692 -0.042594165 1.6470001
-0.2459392 -0.041872229 1.647
-0.23823854 -0.041872229 1.6470001
-0.3133198 -0.03032127 1.6470001
-0.29214302 -0.032246429 1.6470002
-0.28444239 -0.033209011 1.6470002
-0.27454159 -0.035271678 1.647
-0.26365066 -0.035230428 1.6470001
-0.25492322 -0.035455029 1.6470002
-0.24585167 -0.036359273 1.6470001
-0.23493828 -0.036921822 1.6470002
-0.22572504 -0.035374817 1.647
-0.21477567 -0.033569977 1.6470002
-0.20551082 -0.032246429 1.6470002
-0.19636631 -0.03032127 1.6470001
-0.31187594 -0.024545789 1.6470002
-0.3032127 -0.02165805 1.6470001
-0.29454947 -0.024545789 1.6470001
-0.28588626 -0.027433529 1.6470001
-0.20358567 -0.027433529 1.647
-0.19434491 -0.026278432 1.6470001
-0.18465495 -0.02422493 1.6470002
-0.17470826 -0.02310192 1.6470002
-0.166767 -0.022379985 1.6470001
-0.30369395 -0.014919988 1.6470002
-0.29772598 -0.014727473 1.6470001
-0.177596 -0.018770309 1.6470001
-0.1631573 -0.018770309 1.647
-0.15449411 -0.0144387 1.6470001
-0.14390571 -0.011069669 1.647
-0.30176884 -0.00721935 1.6470001
-0.13370237 -0.0049091582 1.6470001
-0.12633863 -0.0021658051 1.6470001
-0.11839734 -0.00144387 1.6470001
-0.29743722 0.0057754801 1.6470001
-0.12272895 0.00144387 1.6470001
-0.1155096 0.00144387 1.6470001
-0.10540251 0.0033690303 1.647
-0.095295414 0.0064974148 1.6470001
-0.08807607 0.00721935 1.6470001
-0.083744459 0.01010709 1.6470001
-0.075562529 0.011069669 1.647
-0.065696083 0.015160635 1.6470001
-0.055348348 0.017326439 1.6470002
-0.045481905 0.017326441 1.6470001
-0.034171592 0.01780773 1.6470002
-0.024545789 0.017326439 1.6470002
-0.015160635 0.018048374 1.6470001
0.22765017 0.01780773 1.647
0.23679468 0.018770309 1.6470001
0.24112628 0.018770309 1.6470001
-0.011550959 0.02165805 1.6470001
-0.0043316102 0.024545791 1.647
0.0036096752 0.023823855 1.6470001
0.01299483 0.024545791 1.647
0.025989659 0.024545791 1.6470001
0.033786558 0.026278432 1.6470001
0.076525107 0.027433529 1.6470001
0.085188329 0.027433529 1.647
0.092407681 0.027433529 1.6470001
0.15593797 0.027433529 1.6470001
0.22604585 0.02486665 1.6470002
0.23571178 0.024906756 1.6470002
0.24437499 0.025628692 1.6470002
0.02165805 0.03032127 1.6470001
0.04475997 0.03032127 1.647
0.054867059 0.032487076 1.6470001
0.065696083 0.032487076 1.6470001
0.075081237 0.031043205 1.6470001
0.085188329 0.03032127 1.647
0.095914222 0.032383941 1.6470002
0.10540251 0.036096752 1.6470001
0.11502831 0.037540618 1.6470002
0.12417282 0.036096748 1.6470001
0.13427991 0.031765141 1.6470001
0.14409824 0.031476367 1.6470001
0.15160635 0.03032127 1.6470001
0.2353508 0.03032127 1.6470001
0.24585167 0.033209011 1.6470001
0.23751661 0.057032868 1.6470001
0.24112628 0.056310929 1.6470001
0.23679467 0.064974152 1.6470002
0.24112628 0.064974152 1.647
0.23751661 0.072915435 1.6470001
0.24365306 0.074720263 1.6470002
0.24690177 0.082300588 1.6470001
0.3970584 -0.49571848 1.6550001
0.40189469 -0.49475121 1.6550001
0.40576369 -0.4850786 1.655
0.41059998 -0.48024237 1.6550001
0.40697277 -0.47516429 1.6550001
0.41156721 -0.47250435 1.6550001
0.40769821 -0.46863532 1.6550001
0.41205084 -0.46573353 1.6550001
0.40769821 -0.45557737 1.6550001
0.41350174 -0.45661369 1.655
0.41524282 -0.44484085 1.6550001
0.40769821 -0.43091235 1.6550001
0.41253448 -0.43574861 1.655
0.40769821 -0.42655969 1.6550001
0.4113254 -0.4243834 1.6550001
0.41422716 -0.41519439 1.6550001
0.41455695 -0.40506026 1.655
0.42220706 -0.40769821 1.6550001
0.41567805 -0.39584935 1.6550001
0.42365792 -0.3917385 1.6550001
0.44251943 -0.39318937 1.6550001
0.41930529 -0.38593495 1.6550001
0.42510885 -0.38448408 1.655
0.43091235 -0.38448408 1.6550001
0.44251943 -0.38303322 1.6550001
0.33660495 -0.372877 1.6550001
0.34240848 -0.372877 1.6550001
0.42510882 -0.37751985 1.6550001
0.43163776 -0.37505335 1.6550001
0.44459209 -0.37577876 1.655
0.32717419 -0.3619954 1.6550001
0.33515406 -0.36562261 1.6550001
0.34494752 -0.36816165 1.655
0.3554664 -0.36658987 1.6550001
0.36465535 -0.36223722 1.6550001
0.372877 -0.36126995 1.6550001
0.4174917 -0.36525989 1.655
0.42510882 -0.36562264 1.6550001
0.43485048 -0.36500075 1.6550001
0.44542119 -0.36562261 1.6550001
0.45315924 -0.36320448 1.6550001
0.46863532 -0.36562258 1.6550001
0.47298795 -0.36852437 1.6550001
0.32681146 -0.35510367 1.655
0.33341298 -0.35604677 1.6550001
0.36707348 -0.35836819 1.6550001
0.37635916 -0.35604677 1.6550001
0.38158232 -0.35256463 1.6550001
0.41814455 -0.35546643 1.6550001
0.42510888 -0.3554664 1.655
0.43526497 -0.3554664 1.6550001
0.4465819 -0.35662714 1.6550001
0.45557737 -0.3554664 1.655
0.4663139 -0.35372534 1.6550001
0.31542203 -0.34502006 1.6550001
0.3260023 -0.3451986 1.6550001
0.33225229 -0.34676111 1.6550001
0.38448405 -0.34560043 1.6550001
0.40769821 -0.348212 1.6550001
0.41613969 -0.34596971 1.655
0.42402068 -0.34639841 1.655
0.4355998 -0.34564501 1.6550001
0.44832295 -0.34966287 1.6550001
0.45847911 -0.34966287 1.6550001
0.4628318 -0.34966287 1.6550001
0.32499784 -0.33486387 1.655
0.38375863 -0.33442861 1.6550001
0.31716311 -0.32412735 1.6550001
0.32296661 -0.32557818 1.655
0.37868056 -0.32064521 1.6550001
0.38303322 -0.32499787 1.6550001
-0.26406077 -0.31193992 1.6550001
0.30903816 -0.31193992 1.6550001
0.31484172 -0.31484169 1.655
0.32064521 -0.31629258 1.6550001
0.37771332 -0.31484169 1.6550001
0.38158232 -0.31629258 1.6550001
0.43816674 -0.31193992 1.6550001
-0.27421695 -0.30033284 1.6550001
-0.26406077 -0.3046855 1.655
-0.25680637 -0.30240554 1.655
-0.24577963 -0.3020739 1.6550001
-0.2359136 -0.30265427 1.6550001
-0.22778869 -0.30033284 1.6550001
0.30686182 -0.30323458 1.655
0.31457791 -0.30428979 1.655
0.32064521 -0.30178374 1.6550001
0.36900797 -0.30323461 1.6550001
0.37384427 -0.3080709 1.6550001
0.42801058 -0.30033284 1.6550001
0.43381414 -0.3061364 1.6550001
-0.27615145 -0.29356205 1.6550001
-0.2645444 -0.29549658 1.6550001
-0.25970811 -0.29743108 1.6550001
-0.2316577 -0.29646385 1.6550001
-0.22561236 -0.29452932 1.6550001
-0.21400529 -0.29416656 1.655
-0.20493728 -0.29416662 1.655
-0.19877101 -0.29307842 1.6550001
0.30649909 -0.29489201 1.655
0.31484169 -0.29452932 1.655
0.32064521 -0.29452932 1.6550001
0.36417171 -0.29525477 1.6550001
-0.20392972 -0.28453434 1.655
-0.19877101 -0.28437313 1.6550001
0.30845779 -0.28524366 1.6550001
0.31484172 -0.28437313 1.6550001
0.32257974 -0.2838895 1.655
0.34966287 -0.28002048 1.6550001
0.35619187 -0.2843731 1.6550001
0.36126995 -0.28872579 1.6550001
-0.21182895 -0.27276608 1.6550001
-0.20457456 -0.27421695 1.655
-0.19659469 -0.2749424 1.6550001
0.31484169 -0.27421692 1.655
0.32460216 -0.27395314 1.655
0.33515406 -0.27131519 1.6550001
0.34468842 -0.27421695 1.655
0.42220706 -0.27131519 1.6550001
-0.21327984 -0.26841342 1.6550001
0.31629255 -0.26551163 1.6550001
0.32499781 -0.26551166 1.6550001
0.33515406 -0.26551166 1.655
0.34168303 -0.26623708 1.6550001
0.31774345 -0.25825721 1.6550001
0.3249979 -0.25825724 1.655
0.33442861 -0.25898266 1.6550001
-0.22778869 -0.24665016 1.6550001
0.36707348 -0.16975334 1.6550001
-0.28147137 -0.050780915 1.6550001
-0.27421692 -0.050780911 1.6550001
-0.26551166 -0.050780911 1.6550001
-0.31193992 -0.0435265 1.6550001
-0.30105829 -0.044251941 1.6550001
-0.29416659 -0.044614658 1.655
-0.28437313 -0.044977382 1.6550001
-0.27421695 -0.044977382 1.655
-0.26623708 -0.047153708 1.6550001
-0.25535545 -0.046428263 1.6550001
-0.24519928 -0.044251941 1.6550001
-0.23442128 -0.043733768 1.655
-0.22488691 -0.0435265 1.6550001
-0.21811612 -0.043042872 1.6550001
-0.31310064 -0.036272079 1.6550001
-0.3029708 -0.034953099 1.655
-0.29549658 -0.037239339 1.6550001
-0.285824 -0.039173849 1.6550001
-0.22198515 -0.039173849 1.6550001
-0.21473074 -0.039173849 1.6550001
-0.20457454 -0.037722964 1.6550001
-0.19441836 -0.034821197 1.6550001
-0.18426219 -0.033370316 1.655
-0.17555688 -0.031919435 1.6550001
-0.16975334 -0.031919435 1.6550001
-0.30577365 -0.025753178 1.655
-0.18426219 -0.027566783 1.6550001
-0.17555688 -0.027566783 1.6550001
-0.16491707 -0.025148643 1.6550001
-0.30903816 -0.015959717 1.6550001
-0.15524451 -0.017894229 1.6550001
-0.14653921 -0.014508834 1.6550001
-0.13493215 -0.010156184 1.6550001
-0.12912862 -0.010156184 1.6550001
-0.13203038 -0.0072544166 1.6550001
-0.12477597 -0.0058035334 1.6550001
-0.11461978 -0.0029017667 1.6550001
-0.10881625 -0.0014508833 1.6550001
-0.10301271 0.0014508833 1.6550001
-0.094887778 0.0031919435 1.6550001
-0.08560212 0.0043526501 1.6550001
-0.075445935 0.0072544166 1.6550001
-0.065289751 0.0072544166 1.6550001
-0.054511759 0.0060108029 1.655
-0.045702823 0.006528975 1.6550001
-0.03046855 0.0072544166 1.6550001
-0.072544165 0.010156184 1.6550001
-0.064709395 0.01131689 1.6550001
-0.054843388 0.012767774 1.655
-0.044977378 0.012228874 1.655
-0.035304826 0.012735532 1.655
-0.024665019 0.011607067 1.6550001
-0.01426702 0.013299763 1.6550001
-0.0014508833 0.018861484 1.6550001
0.0043526501 0.018861484 1.6550001
0.013638303 0.018281132 1.6550001
0.023214133 0.018861484 1.6550001
0.03046855 0.018861484 1.6550001
0.22778869 0.01305795 1.6550001
0.23488188 0.014992461 1.655
0.24519928 0.016443344 1.6550001
0.25535548 0.018861484 1.6550001
-0.0043526501 0.02176325 1.6550001
0.0058035334 0.02176325 1.6550001
0.015379364 0.022343602 1.6550001
0.023939576 0.022488691 1.6550001
0.034821201 0.023214132 1.6550001
0.044977382 0.0261159 1.6550001
0.055133566 0.027566783 1.6550001
0.065289751 0.027566783 1.6550001
0.076316461 0.026406074 1.6550001
0.086327568 0.023939576 1.6550001
0.094307423 0.024665017 1.6550001
0.10156183 0.027566783 1.6550001
0.13638303 0.027566783 1.6550001
0.14595887 0.026986429 1.6550001
0.15379363 0.0261159 1.6550001
0.23359221 0.02176325 1.6550001
0.24665016 0.02176325 1.6550001
0.25535548 0.024374839 1.655
0.26260987 0.027566783 1.6550001
0.056584451 0.030468548 1.6550001
0.063838869 0.03046855 1.6550001
0.071093284 0.03046855 1.6550001
0.10475378 0.031629257 1.6550001
0.11461978 0.034337569 1.6550001
0.1256465 0.032789964 1.6550001
0.13348126 0.03046855 1.6550001
0.14073569 0.03046855 1.6550001
0.256226 0.031629257 1.6550001
0.24302295 0.054408126 1.6550001
0.24665016 0.065289743 1.6550001
0.24810106 0.072544165 1.6550001
0.3960619 -0.49519888 1.6630001
0.40092158 -0.49131116 1.6630001
0.40310842 -0.48620856 1.6630001
0.40558687 -0.47556591 1.6630001
0.40821102 -0.46506906 1.6630001
0.41433421 -0.45282269 1.6630001
0.40966895 -0.44465849 1.6630001
0.41258475 -0.44611639 1.6630001
0.40675315 -0.43382838 1.6630001
0.40723911 -0.42424789 1.6630001
0.40821102 -0.41550055 1.6630001
0.41258475 -0.41841635 1.6630001
0.40675315 -0.40529528 1.6630001
0.40675315 -0.39683944 1.6630001
0.41477162 -0.39290315 1.6630001
0.33385834 -0.38634261 1.6630001
0.34552151 -0.38051102 1.6630001
0.35135311 -0.38051102 1.6630001
0.40966895 -0.38488472 1.6630001
0.41550061 -0.38488472 1.6630001
0.42133212 -0.38196892 1.6630001
0.31927937 -0.37322155 1.6630001
0.32569411 -0.37292999 1.6630001
0.3343443 -0.37565136 1.6630001
0.34625047 -0.37686628 1.6630001
0.3546854 -0.37551254 1.6630001
0.36010048 -0.37467945 1.6630001
0.40966895 -0.37467945 1.6630001
0.41550055 -0.37467945 1.6630001
0.42424792 -0.37584573 1.6630001
0.43007952 -0.37467945 1.6630001
0.3076162 -0.36447418 1.6630001
0.31563464 -0.36398816 1.6630001
0.32446301 -0.36528409 1.6630001
0.33094254 -0.36884785 1.6630001
0.36593205 -0.36738995 1.6630001
0.37467945 -0.3649601 1.6630001
0.3824549 -0.36253032 1.6630001
0.40966895 -0.36593208 1.6630001
0.41383439 -0.36384934 1.6630001
0.30688727 -0.35426891 1.6630001
0.31490567 -0.35426888 1.6630001
0.32219517 -0.35426891 1.6630001
0.38634259 -0.35426888 1.6630001
0.4077251 -0.35329697 1.6630001
0.41491738 -0.35601836 1.6630001
0.44611642 -0.35426891 1.6630001
0.4543778 -0.35232505 1.6630001
0.3061583 -0.34552148 1.6630001
0.31344777 -0.34468842 1.6630001
0.32219517 -0.34552151 1.6630001
0.38925841 -0.34843731 1.6630001
0.39217421 -0.34552154 1.6630001
0.40723911 -0.34454957 1.6630001
0.41433421 -0.34552151 1.6630001
0.42716372 -0.34260571 1.6630001
0.43299532 -0.34552154 1.6630001
0.44611642 -0.34552154 1.6630001
0.45486379 -0.34552148 1.6630001
0.46215323 -0.34552154 1.6630001
0.30636659 -0.33594108 1.6630001
0.31461412 -0.33560789 1.6630001
0.32219517 -0.33968991 1.6630001
0.38925841 -0.33531624 1.6630001
0.39217421 -0.33968991 1.6630001
0.41622952 -0.33750308 1.6630001
0.42473388 -0.3372601 1.6630001
0.43591115 -0.33518371 1.6630001
0.442909 -0.336191 1.6630001
0.45389184 -0.33871797 1.6630001
0.46215323 -0.33968991 1.6630001
0.3061583 -0.32219517 1.6630001
0.31308329 -0.32547542 1.6630001
0.38731456 -0.32511094 1.6630001
0.42716372 -0.32365304 1.6630001
0.43627557 -0.32511097 1.6630001
0.44174269 -0.32511094 1.6630001
-0.2609635 -0.31053197 1.6630001
-0.2580477 -0.31198987 1.6630001
-0.23763716 -0.31053197 1.6630001
0.29595301 -0.31150392 1.6630001
0.30528358 -0.31432253 1.6630001
0.31053197 -0.31782147 1.6630001
0.38196892 -0.31344777 1.6630001
0.42716372 -0.31490567 1.6630001
0.43518215 -0.31490567 1.6630001
0.4427146 -0.31636357 1.6630001
-0.2609635 -0.3076162 1.6630001
-0.25318804 -0.3047004 1.6630001
-0.24492663 -0.3076162 1.6630001
-0.23277749 -0.3047004 1.6630001
-0.22480766 -0.30295092 1.6630001
-0.21358186 -0.30251357 1.6630001
-0.20653534 -0.30421445 1.6630001
-0.17640549 -0.3017846 1.6630001
0.29485962 -0.30433592 1.6630001
0.30353409 -0.30586672 1.6630001
0.37467945 -0.3047004 1.6630001
0.42716372 -0.3047004 1.6630001
0.43299532 -0.30644989 1.6630001
-0.22305819 -0.29813987 1.6630001
-0.21722659 -0.29741091 1.6630001
-0.20264764 -0.29886881 1.6630001
-0.19519617 -0.29465711 1.6630001
-0.18806867 -0.29595304 1.6630001
-0.17582233 -0.29420358 1.6630001
0.29813984 -0.29522407 1.6630001
0.30275655 -0.29352319 1.6630001
0.36690399 -0.29303724 1.6630001
0.37176365 -0.29886881 1.6630001
0.42716372 -0.29012144 1.6630001
0.43007952 -0.29012144 1.6630001
-0.19473335 -0.28387332 1.6630001
0.3047004 -0.28428987 1.6630001
0.36155838 -0.28574774 1.6630001
0.42424792 -0.28137407 1.6630001
-0.19778799 -0.27457055 1.6630001
0.3047004 -0.27554247 1.6630001
0.31053197 -0.27554247 1.6630001
0.34843731 -0.27262667 1.6630001
0.35281098 -0.27700037 1.6630001
0.42327598 -0.27554247 1.6630001
0.30664429 -0.26630914 1.6630001
0.31247583 -0.26485121 1.6630001
0.34552151 -0.26446244 1.6630001
0.41841635 -0.2667951 1.6630001
0.42133212 -0.26825297 1.6630001
0.3076162 -0.2565898 1.6630001
0.31450805 -0.25486681 1.6630001
0.32511094 -0.253674 1.6630001
0.33531624 -0.2551319 1.6630001
0.34260571 -0.2580477 1.6630001
0.32656884 -0.24930033 1.6630001
0.33094254 -0.24930033 1.6630001
0.36884785 -0.1734897 1.6630001
0.37176365 -0.1734897 1.6630001
-0.31344777 -0.051026382 1.6630001
-0.30275655 -0.051998317 1.6630001
-0.29340172 -0.052848753 1.6630001
-0.28477582 -0.054428142 1.6630001
-0.27554247 -0.055400074 1.6630001
-0.26533717 -0.052484281 1.6630001
-0.25513193 -0.051026385 1.6630001
-0.24463506 -0.051609538 1.6630001
-0.31461412 -0.045194797 1.6630001
-0.30644989 -0.045777954 1.6630001
-0.29886881 -0.048110589 1.6630001
-0.25221613 -0.048110589 1.6630001
-0.24492665 -0.048110589 1.6630001
-0.23472136 -0.048110589 1.6630001
-0.22451608 -0.048110589 1.6630001
-0.21394633 -0.045559272 1.6630001
-0.20592791 -0.044830326 1.6630001
-0.19535816 -0.042279001 1.6630001
-0.31198987 -0.034503553 1.6630001
-0.3076162 -0.033531625 1.6630001
-0.19244236 -0.039363209 1.6630001
-0.18515289 -0.039363209 1.6630001
-0.17640549 -0.036447417 1.6630001
-0.16668618 -0.031587761 1.6630001
-0.16328442 -0.027700037 1.6630001
-0.15793879 -0.022840381 1.6630001
-0.15162125 -0.018952657 1.6630001
-0.14238791 -0.015064932 1.6630001
-0.13631333 -0.013850018 1.6630001
-0.12537912 -0.010934224 1.6630001
-0.11808963 -0.010205276 1.6630001
-0.12100542 -0.0072894832 1.6630001
-0.11444488 -0.0065605352 1.6630001
-0.10434376 -0.0031240641 1.6630001
-0.094034337 -0.0029157936 1.6630001
-0.084266424 -0.003207373 1.6630001
-0.073988259 -0.0040092161 1.6630001
-0.066334292 -0.0021868451 1.6630001
-0.055400074 -0.0014578967 1.6630001
-0.046652693 -0.0014578967 1.6630001
-0.030615829 -0.0014578967 1.6630001
-0.014578966 -0.0014578967 1.6630001
-0.091847487 0.0014578967 1.6630001
-0.08310011 0.003207373 1.6630001
-0.074352734 0.0029157931 1.6630001
-0.065605342 0.0029157933 1.6630001
-0.056274809 0.0020410554 1.6630001
-0.044611637 0.0026242142 1.6630001
-0.035387129 0.004108618 1.6630001
-0.024784243 0.0043736901 1.6630001
-0.014578965 0.0043736901 1.6630001
0.24201085 0.0072894832 1.6630001
-0.033531625 0.010205276 1.6630001
-0.0047381641 0.015672388 1.6630001
0.0043736901 0.014578965 1.6630001
0.014578967 0.014578965 1.6630001
0.024784245 0.017008794 1.6630001
0.036447417 0.018952657 1.6630001
0.042279001 0.018952657 1.6630001
0.077268526 0.018952657 1.6630001
0.08455801 0.018952657 1.6630001
0.093305387 0.018952657 1.6630001
0.23617926 0.010205276 1.6630001
0.24589856 0.011177207 1.6630001
0.25440297 0.015307914 1.6630001
0.26504561 0.017786339 1.6630001
0.037905313 0.021868451 1.6630001
0.045194793 0.021868451 1.6630001
0.055400074 0.023326347 1.6630001
0.06560535 0.023326347 1.6630001
0.073769569 0.023034768 1.6630001
0.08310011 0.021868451 1.6630001
0.096221179 0.021868451 1.6630001
0.10496856 0.024784245 1.6630001
0.11517383 0.027700037 1.6630001
0.12635104 0.026728103 1.6630001
0.13485545 0.025513191 1.6630001
0.14578967 0.024784243 1.6630001
0.15599494 0.022840381 1.6630001
0.26606613 0.02441977 1.6630001
0.10934225 0.030615829 1.6630001
0.11517383 0.031344779 1.6630001
0.12392122 0.030615829 1.6630001
0.2565898 0.036447417 1.6630001
0.2638793 0.031587761 1.6630001
0.25221613 0.045194797 1.6630001
0.24784243 0.058315866 1.6630001
0.25294507 0.05685797 1.6630001
0.25476742 0.065969817 1.6630001
0.2609635 0.06560535 1.6630001
0.253674 0.074352734 1.6630001
-0.014578966 0.40966895 1.6630001
0.38820115 -0.49806941 1.6710001
0.39536294 -0.49497679 1.6710002
0.39918798 -0.48561767 1.6710001
0.40285024 -0.48488522 1.6710001
0.40460816 -0.47492379 1.6710001
0.40578008 -0.46379051 1.6710001
0.40797743 -0.45485458 1.6710001
0.41163972 -0.4541221 1.6710001
0.40675667 -0.4454954 1.6710002
0.39992043 -0.43361336 1.6710001
0.40382686 -0.43507826 1.6710001
0.4041059 -0.42419606 1.6710002
0.39992043 -0.41749933 1.6710001
0.40402216 -0.4151555 1.6710001
0.28858727 -0.40285024 1.6710001
0.40285024 -0.40578008 1.6710001
0.28565744 -0.39512616 1.6710002
0.29151708 -0.39552569 1.6710001
0.40578008 -0.39442703 1.6710002
0.41163972 -0.39406079 1.6710001
0.28565744 -0.38563758 1.6710002
0.29151708 -0.38527131 1.6710001
0.30909601 -0.3823415 1.6710001
0.31495565 -0.3823415 1.6710001
0.3263087 -0.38417262 1.6710002
0.33546439 -0.3849051 1.6710002
0.3438876 -0.38563755 1.6710002
0.35471749 -0.38401571 1.6710002
0.36329767 -0.3823415 1.6710001
0.39552569 -0.38380644 1.6710001
0.40614629 -0.38563758 1.6710002
0.27979782 -0.37062222 1.6710001
0.28595045 -0.37413797 1.6710002
0.292689 -0.37413803 1.6710001
0.3051008 -0.37408474 1.6710002
0.31466264 -0.37501699 1.6710002
0.32491705 -0.37882572 1.6710001
0.33253458 -0.3794117 1.6710001
0.36643675 -0.37564477 1.6710002
0.37611565 -0.37245336 1.6710002
0.38462025 -0.37387756 1.6710002
0.39581868 -0.37530994 1.6710002
0.40675673 -0.37485418 1.6710002
0.27833292 -0.36549506 1.6710001
0.28565747 -0.3647626 1.6710002
0.29386091 -0.3641766 1.6710001
0.30323637 -0.3647626 1.6710002
0.31495565 -0.3647626 1.6710001
0.3794117 -0.36769241 1.6710001
0.38673624 -0.36769241 1.6710001
0.39288887 -0.36534852 1.6710001
0.40724495 -0.36476257 1.6710001
0.41163972 -0.36183277 1.6710001
0.27686799 -0.35464138 1.6710002
0.28565747 -0.35450819 1.6710001
0.29444689 -0.35450822 1.6710002
0.30265039 -0.35480118 1.6710002
0.39357248 -0.35548481 1.6710001
0.4050476 -0.35524067 1.6710002
0.41163972 -0.35890296 1.6710001
0.27540308 -0.34425387 1.6710001
0.28565744 -0.34425387 1.6710002
0.29444689 -0.34425387 1.6710001
0.30177146 -0.34425387 1.6710001
0.39816254 -0.34483981 1.6710001
0.40504763 -0.34498632 1.6710001
0.41456953 -0.341324 1.6710001
0.43214846 -0.34132403 1.6710001
0.44679755 -0.34132403 1.6710001
0.27628201 -0.33575737 1.6710002
0.28565744 -0.33546439 1.6710002
0.29151708 -0.33546439 1.6710001
0.30239931 -0.33504584 1.6710002
0.39479327 -0.33619684 1.6710001
0.40870988 -0.33839419 1.6710001
0.41163972 -0.33839419 1.6710001
0.42445767 -0.33473194 1.6710002
0.43361336 -0.33619684 1.6710001
0.44826245 -0.33546439 1.6710001
0.45558703 -0.33497608 1.6710001
0.46144664 -0.33692929 1.6710001
0.27745396 -0.32726091 1.6710001
0.28565747 -0.32521001 1.6710001
0.29151708 -0.32521003 1.6710001
0.30372468 -0.32618663 1.6710001
0.38820115 -0.32081529 1.6710001
0.39259586 -0.32667494 1.6710001
0.42531219 -0.32569832 1.6710002
0.43312505 -0.32472172 1.6710001
0.44826245 -0.32521001 1.6710002
0.4541221 -0.32667494 1.6710001
-0.26221889 -0.31495565 1.6710001
-0.25416186 -0.31275827 1.6710001
-0.24463995 -0.31202582 1.6710001
-0.23438561 -0.31202582 1.6710001
-0.22559613 -0.31349075 1.6710002
-0.21436517 -0.31300244 1.6710001
-0.20948213 -0.31202582 1.6710001
0.28565747 -0.31495562 1.6710002
0.29486546 -0.31495565 1.6710002
0.30177146 -0.31788546 1.6710001
0.38527131 -0.31397903 1.6710001
0.42511687 -0.31436968 1.6710001
0.43312505 -0.31690887 1.6710001
0.44679755 -0.31788546 1.6710001
-0.25342944 -0.30909601 1.6710001
-0.23292069 -0.30909601 1.6710001
-0.22461952 -0.30811939 1.6710001
-0.21592772 -0.30792409 1.6710001
-0.20362251 -0.30518958 1.6710001
-0.19424707 -0.30265039 1.6710001
-0.1834393 -0.30291083 1.6710002
-0.17608218 -0.30382234 1.6710001
0.28565747 -0.3047013 1.6710001
0.29486546 -0.30407348 1.6710002
0.37794679 -0.30323637 1.6710001
0.3823415 -0.30909601 1.6710001
0.42702127 -0.30470127 1.6710001
0.43361336 -0.30030656 1.6710001
-0.1919032 -0.29298198 1.6710001
-0.18457867 -0.29481316 1.6710002
-0.17139447 -0.29151708 1.6710001
0.2788212 -0.2924937 1.6710001
0.28565747 -0.29444686 1.6710002
0.29408067 -0.29444689 1.6710002
0.30030656 -0.29151708 1.6710001
0.37208712 -0.29591182 1.6710001
0.42775372 -0.29444692 1.6710001
0.43214846 -0.29444692 1.6710001
-0.1919032 -0.28712237 1.6710001
-0.18897338 -0.28858727 1.6710001
0.27979782 -0.28712237 1.6710001
0.28565747 -0.2856575 1.6710002
0.29444689 -0.28602368 1.6710002
0.30030656 -0.28565744 1.6710001
0.35890296 -0.28272763 1.6710001
0.36622751 -0.28712237 1.6710001
0.42687479 -0.28624338 1.6710001
0.43214846 -0.28858727 1.6710001
-0.19336811 -0.27979782 1.6710001
0.28565747 -0.27540305 1.6710001
0.29347026 -0.27540308 1.6710001
0.30089253 -0.27452415 1.6710001
0.35401991 -0.27393818 1.6710001
0.41749933 -0.27393818 1.6710001
0.42160112 -0.27569607 1.6710001
0.28602368 -0.26551494 1.6710002
0.29151708 -0.2651487 1.6710001
0.30323634 -0.2651487 1.6710002
0.35011348 -0.2666136 1.6710001
0.41749933 -0.2651487 1.6710001
0.42042917 -0.2636838 1.6710001
0.28712237 -0.25489432 1.6710002
0.29151708 -0.25489432 1.6710001
0.30483446 -0.25529388 1.6710002
0.31495565 -0.25049961 1.6710001
0.3222802 -0.25049961 1.6710001
0.3374176 -0.2514762 1.6710001
0.34425387 -0.25489435 1.6710001
0.28741533 -0.24522594 1.6710001
0.29151708 -0.24463998 1.6710001
0.30909601 -0.24610487 1.6710001
0.31495565 -0.24547707 1.6710002
0.32472169 -0.24561657 1.6710002
0.33399948 -0.24756978 1.6710001
0.41310462 -0.24756978 1.6710001
0.28858727 -0.23731542 1.6710001
0.29151708 -0.23585051 1.6710001
0.31495565 -0.23878033 1.6710001
0.40578008 -0.22706105 1.6710001
0.36769241 -0.17139447 1.6710001
0.37355205 -0.17725413 1.6710001
-0.29444692 -0.060061309 1.6710001
-0.28565744 -0.060061309 1.6710001
-0.27540308 -0.060061309 1.6710001
-0.26221889 -0.060061309 1.6710001
-0.25342941 -0.060061309 1.6710001
-0.24581189 -0.062405162 1.6710001
-0.32081529 -0.051271848 1.6710001
-0.3155416 -0.053615708 1.6710001
-0.30543375 -0.055300351 1.6710002
-0.29591182 -0.057131488 1.6710001
-0.28565744 -0.057131488 1.6710001
-0.27100834 -0.057131488 1.6710001
-0.26514873 -0.055666577 1.6710001
-0.25489432 -0.055666581 1.6710002
-0.24463996 -0.05595956 1.6710001
-0.23621675 -0.05383544 1.6710002
-0.22596237 -0.053102985 1.6710002
-0.21631837 -0.053225059 1.6710001
-0.20508739 -0.051271848 1.6710001
-0.32081529 -0.04834203 1.6710001
-0.31202582 -0.04687712 1.6710001
-0.20166928 -0.047365423 1.6710001
-0.19483304 -0.04687712 1.6710001
-0.18662953 -0.043654319 1.6710001
-0.18018393 -0.039552569 1.6710001
-0.17432429 -0.038087659 1.6710001
-0.16406992 -0.032228019 1.6710001
-0.15674537 -0.024903471 1.6710001
-0.14649099 -0.019043829 1.6710001
-0.1333068 -0.01611401 1.6710001
-0.1252498 -0.013916645 1.6710001
-0.11572789 -0.01171928 1.6710001
-0.074710406 -0.01025437 1.6710001
-0.10547352 -0.0073245498 1.6710001
-0.097172357 -0.0043947301 1.6710001
-0.085453086 -0.0024415166 1.6710001
-0.077640228 -0.0073245498 1.6710001
-0.063479431 -0.00585964 1.6710001
-0.054201674 -0.00585964 1.6710001
-0.044679757 -0.0036622752 1.6710001
-0.035785656 -0.0031390931 1.6710002
-0.024903471 -0.00292982 1.6710001
-0.014356119 -0.004980694 1.6710001
-0.00146491 -0.00146491 1.6710001
0.00585964 -0.00146491 1.6710001
-0.0043947301 0.0043947301 1.6710002
0.0043947301 0.0043947306 1.6710002
0.0146491 0.0063479431 1.6710001
0.23878033 0.0043947301 1.6710001
0.24505852 0.003557639 1.6710002
0.25123206 0.005127185 1.6710001
-0.0043947301 0.01025437 1.6710001
0.0043947301 0.01025437 1.6710001
0.015528046 0.010840334 1.6710001
0.024171013 0.01318419 1.6710001
0.035157837 0.01611401 1.6710001
0.04687712 0.019043829 1.6710001
