# .PCD v0.7 - Point Cloud Data file format
VERSION 0.7
FIELDS x y z
SIZE 4 4 4
TYPE F F F
COUNT 1 1 1
WIDTH 1489
HEIGHT 1
VIEWPOINT 0 0 0 1 0 0 0
POINTS 1489
DATA ascii
0.0047866004 -0.15915444 1.365
0.01364181 -0.15676114 1.365
0.024232162 -0.15287203 1.3649999
0.21898694 -0.15197454 1.365
0.22377355 -0.15197454 1.365
0.23095345 -0.15197454 1.365
0.24435595 -0.15245321 1.365
0.25648198 -0.15277231 1.3650001
0.26844847 -0.15277231 1.3650001
0.27471665 -0.15300025 1.3649999
0.28531557 -0.15300025 1.3649999
0.29497421 -0.15406869 1.3649999
0.30035916 -0.15436785 1.365
0.02752295 -0.14958125 1.365
0.035899498 -0.14958125 1.365
0.046669349 -0.14958125 1.365
0.055045899 -0.14958125 1.365
0.065017983 -0.14878349 1.3649999
0.0741923 -0.14778627 1.365
0.084962144 -0.1459913 1.3649999
0.09556105 -0.14582035 1.3649999
0.10450744 -0.14639018 1.3649999
0.11527728 -0.14878349 1.3650001
0.12445159 -0.14778627 1.365
0.13474278 -0.14431599 1.365
0.14376894 -0.14274324 1.3649999
0.15516563 -0.14280023 1.3649999
0.16513769 -0.14479464 1.365
0.1739929 -0.14431599 1.365
0.18428409 -0.14479464 1.365
0.19465506 -0.14519353 1.3649999
0.20606312 -0.14575197 1.365
0.21539699 -0.14898293 1.365
0.22497019 -0.14958125 1.365
0.23574005 -0.14958125 1.3650001
0.24770655 -0.14958125 1.365
0.25488645 -0.1491026 1.365
0.26485851 -0.14878349 1.3649999
0.28121275 -0.14958125 1.365
-0.16370173 0.02560831 1.3649999
-0.15915444 0.029916249 1.365
-0.16314328 0.035101734 1.3649999
-0.156326 0.037096146 1.3649999
-0.16394106 0.043079399 1.365
-0.1555645 0.043079402 1.3649999
-0.14898293 0.043677725 1.365
0.085646823 -0.49534789 1.3760003
0.094942287 -0.49520358 1.374091
0.10496221 -0.49445572 1.3712633
0.11529922 -0.49482578 1.3700002
0.12518625 -0.49470294 1.3730003
0.13504487 -0.49507356 1.3747368
0.14446591 -0.49518791 1.3750527
0.1547417 -0.49518797 1.3750525
0.1644928 -0.49496996 1.3734287
0.17482069 -0.49449298 1.3727275
0.18335713 -0.49383879 1.3706
0.087255217 -0.48774457 1.376
0.094740421 -0.48539385 1.3760002
0.10518035 -0.4853448 1.3749566
0.11565268 -0.48549503 1.3742001
0.12395775 -0.48598042 1.3750001
0.132451 -0.4866187 1.376
0.14596149 -0.48854879 1.376
0.15583116 -0.48525894 1.3760003
0.16436708 -0.48487619 1.3756471
0.17519709 -0.48495817 1.3753999
0.18512268 -0.48492005 1.3717649
0.19542529 -0.48401642 1.37
0.094814658 -0.47793341 1.376
0.10523135 -0.47577628 1.376
0.11580417 -0.47648585 1.3760003
0.12321425 -0.47579661 1.3760002
0.15681814 -0.47889844 1.376
0.16482353 -0.47648591 1.3760003
0.17491251 -0.47568166 1.3759999
0.18594608 -0.47571647 1.3753333
0.19456738 -0.47560912 1.3700002
0.20383251 -0.47509453 1.3700001
0.21443065 -0.47422343 1.3700001
0.22555406 -0.4724865 1.3700001
0.17732511 -0.46924815 1.376
0.18654078 -0.46575025 1.3755386
0.19499186 -0.46581203 1.3730004
0.20392638 -0.4653196 1.370706
0.2152378 -0.4661907 1.3700004
0.22579424 -0.46600094 1.3700002
0.23179944 -0.46840301 1.3700001
0.1875786 -0.45899463 1.376
0.19602267 -0.45778835 1.3760002
0.20540662 -0.45654646 1.3749412
0.21489105 -0.45598498 1.3720874
0.22472225 -0.45545471 1.3708001
0.21640904 -0.44898239 1.376
0.22514254 -0.44511658 1.3742354
0.23445794 -0.44065869 1.3715001
0.21713279 -0.43788448 1.376
0.22540632 -0.43419209 1.3740002
0.23475507 -0.4348143 1.3747371
0.2428125 -0.433732 1.3721428
0.2147202 -0.42823413 1.376
0.22485308 -0.42630404 1.3760002
0.23522718 -0.42509776 1.3760002
0.24423055 -0.42494559 1.3724
0.2368356 -0.41536698 1.376
0.24439903 -0.41495916 1.3727273
0.253418 -0.41315547 1.37
0.26226819 -0.41367993 1.3707501
0.2702325 -0.41195443 1.3700001
0.23643349 -0.40893343 1.376
0.24575527 -0.40601915 1.3756666
0.25490651 -0.40616429 1.3730004
0.26460078 -0.40504679 1.3732001
0.27343524 -0.40421444 1.37
0.24777265 -0.39614671 1.3760002
0.25568926 -0.39585021 1.3743336
0.26571873 -0.39580834 1.3740003
0.27263182 -0.39521903 1.3709229
0.24849643 -0.38963273 1.376
0.25607887 -0.38653085 1.3760002
0.26681015 -0.38612354 1.3760003
0.27468047 -0.38481027 1.3724707
0.28344387 -0.38072756 1.3700001
0.25831908 -0.3768805 1.3760002
0.26719397 -0.37937927 1.376
0.27575675 -0.37547567 1.3754001
0.28498259 -0.37446073 1.3710002
0.29425317 -0.37592342 1.3700001
0.27805063 -0.36611003 1.376
0.28548229 -0.364925 1.373
0.29281193 -0.36343268 1.3700001
0.28887656 -0.35868904 1.3730001
0.29483274 -0.35489532 1.3733335
0.29655352 -0.34538063 1.3740001
0.30145937 -0.34469655 1.3700002
0.29689091 -0.33785534 1.3742858
0.3030524 -0.33416852 1.3725716
0.30570179 -0.32695344 1.3743638
0.31339586 -0.32253951 1.3718001
0.31501088 -0.31477383 1.3736001
0.32067591 -0.31106764 1.3700001
0.31626952 -0.30496672 1.374154
0.32363227 -0.30441573 1.3700001
0.33028418 -0.30266041 1.3700001
0.31839889 -0.29832205 1.3740001
0.32475963 -0.29511145 1.3728424
0.33108485 -0.29465351 1.37
0.32734206 -0.28588134 1.3748001
0.33151245 -0.28531486 1.3706667
0.32931808 -0.27865377 1.376
0.334838 -0.27397519 1.3724707
0.33610857 -0.2650249 1.3731579
0.34229448 -0.26422733 1.3700001
0.33641994 -0.2551766 1.3730001
0.3358168 -0.24915831 1.3730001
0.34701037 -0.24487753 1.376
-0.072062008 -0.21498497 1.37
-0.065177441 -0.21347399 1.3740002
-0.063933544 -0.20868875 1.376
-0.054283198 -0.18215029 1.376
-0.071661659 -0.17495053 1.3700002
-0.064612962 -0.17562929 1.3721429
-0.055088338 -0.17537048 1.3720002
-0.045992903 -0.17648298 1.3723079
-0.035258185 -0.17463119 1.3723079
-0.024160799 -0.17487624 1.3727692
-0.014924901 -0.17405288 1.373
-0.0048251734 -0.17008735 1.376
0.0048251734 -0.17008735 1.376
0.012062933 -0.17008735 1.376
-0.061252698 -0.16934569 1.3700001
-0.05524753 -0.16934569 1.3700001
-0.0108093 -0.16934569 1.3700001
-0.0048041334 -0.16574262 1.37
0.0051374258 -0.1648929 1.371091
0.014454481 -0.1650255 1.3740001
0.024404239 -0.16489102 1.3760002
0.034120865 -0.16284962 1.3760002
0.045839146 -0.16164333 1.3760002
0.055489495 -0.16164333 1.3760002
0.06272725 -0.16043702 1.376
0.094492972 -0.16043702 1.376
0.10374123 -0.16043702 1.376
0.12183563 -0.16043702 1.376
0.2151223 -0.16043702 1.376
0.22437055 -0.16043702 1.376
0.23160832 -0.16043702 1.376
0.24487758 -0.16164331 1.3760002
0.25633734 -0.16305067 1.3760003
0.2750349 -0.16164331 1.376
0.285638 -0.16174254 1.3748
0.01621395 -0.15913692 1.3700001
0.024020668 -0.1579359 1.37
0.035230603 -0.15535024 1.3721429
0.045737457 -0.15527609 1.3730001
0.055268139 -0.15499075 1.3705001
0.064950489 -0.155163 1.3720001
0.074625991 -0.1540738 1.3730003
0.08425644 -0.15407416 1.3730003
0.094508275 -0.15373158 1.3723333
0.10530277 -0.15441616 1.3736668
0.11513527 -0.15449235 1.3721428
0.12543873 -0.15432423 1.3727695
0.13474682 -0.15403278 1.3748
0.14427269 -0.15271673 1.3760002
0.1546468 -0.15271671 1.3760002
0.16447757 -0.15378881 1.3745003
0.17478365 -0.15429595 1.3750001
0.18536702 -0.15292016 1.3754548
0.1952775 -0.15308966 1.3750001
0.20520908 -0.15346928 1.375077
0.21390776 -0.15458928 1.3730003
0.22477861 -0.1555873 1.3738183
0.23499735 -0.15553281 1.3735002
0.24424085 -0.15652074 1.37075
0.25380704 -0.15554367 1.3706666
0.26410764 -0.15501937 1.3725001
0.27548876 -0.15772177 1.37075
0.28584591 -0.1579359 1.37
0.29281193 -0.15781578 1.3700001
0.097283699 -0.1477271 1.3700001
0.1261085 -0.1477271 1.3700001
0.13451573 -0.1477271 1.3700001
0.14541747 -0.14644693 1.3708572
0.15428305 -0.14706896 1.37225
0.16574261 -0.1477271 1.3700001
0.17535086 -0.1477271 1.3700001
0.18495913 -0.1477271 1.3700001
0.19496775 -0.1477271 1.3700002
0.20297463 -0.1477271 1.3700002
-0.16814467 0.026422733 1.3700001
-0.17008735 0.032569919 1.376
-0.16694365 0.03570345 1.37
-0.17008735 0.045839146 1.376
-0.16513124 0.046352334 1.3718464
-0.15544283 0.047166772 1.3724
-0.17008735 0.051870614 1.376
-0.16284959 0.053318165 1.376
-0.15436444 0.055474039 1.3756251
-0.14815842 0.056613382 1.3740001
-0.15078667 0.06272725 1.376
-0.14837408 0.06272725 1.376
0.075455762 -0.49435079 1.3847899
0.08215306 -0.49343723 1.3809999
0.12712105 -0.49032405 1.381
0.13801715 -0.49032405 1.381
0.14487766 -0.49032405 1.381
0.15133458 -0.49032405 1.381
0.07682509 -0.48383227 1.3870001
0.084375083 -0.48408437 1.3831179
0.091406092 -0.48366535 1.381
0.12815876 -0.48375177 1.3809999
0.13624769 -0.48361871 1.3810003
0.14528121 -0.4842706 1.3810003
0.15214171 -0.48346353 1.381
0.079035886 -0.47664717 1.3870001
0.085280269 -0.47431606 1.3853338
0.0943138 -0.4735693 1.382412
0.10290752 -0.47216392 1.381
0.11530024 -0.47189775 1.3820003
0.12584227 -0.47368255 1.3825002
0.13543424 -0.47462097 1.3843002
0.14566149 -0.47460279 1.3846004
0.15491553 -0.4740591 1.3822635
0.1637104 -0.47283649 1.381
0.17151253 -0.47176036 1.381
0.18039082 -0.47337458 1.381
0.085115567 -0.46813563 1.3870001
0.095799185 -0.46618193 1.3864546
0.10457208 -0.46510491 1.3844739
0.11316422 -0.46620902 1.3855001
0.12299862 -0.46598658 1.3864
0.13679287 -0.46509576 1.3870001
0.14591241 -0.46448791 1.3870003
0.15546763 -0.46459088 1.3855002
0.16480678 -0.46477899 1.3817061
0.17433742 -0.4648999 1.3810003
0.18160149 -0.46489984 1.381
0.12524147 -0.45354438 1.3870001
0.13800882 -0.45384836 1.3870001
0.14599347 -0.45500362 1.3870003
0.15574881 -0.45524377 1.3866253
0.16519071 -0.45540559 1.386053
0.17462999 -0.4551886 1.3838425
0.18392856 -0.4549773 1.3823335
0.1945961 -0.45432663 1.3810003
0.20508865 -0.45206666 1.381
0.21186842 -0.4515824 1.381
0.12524147 -0.44624877 1.3870001
0.13837358 -0.44673514 1.3870001
0.14570776 -0.44765317 1.3863333
0.15563989 -0.44705939 1.3870001
0.16488101 -0.44673514 1.3870001
0.17460021 -0.44758612 1.3855
0.18498981 -0.44516459 1.3845298
0.19493128 -0.44549122 1.3833482
0.20581503 -0.44552898 1.3810003
0.21515451 -0.44501013 1.3810003
0.22215918 -0.44371301 1.381
0.18597125 -0.43514705 1.3865
0.19535799 -0.43562451 1.3841581
0.20581505 -0.43584356 1.3810003
0.21515454 -0.4353247 1.3810003
0.22236095 -0.43624714 1.381
0.18566416 -0.4252972 1.3870002
0.19552416 -0.42581451 1.3845458
0.20565224 -0.42497766 1.3818575
0.21550044 -0.42373687 1.3810003
0.22470157 -0.42204189 1.3810002
0.23275258 -0.42403948 1.381
0.18482238 -0.41949815 1.3870001
0.2054933 -0.41889018 1.3870001
0.21523787 -0.41529286 1.3834709
0.22518587 -0.4140515 1.3810003
0.23317632 -0.41429359 1.3810002
0.26271683 -0.41041937 1.381
0.21680753 -0.4050726 1.3855001
0.22467582 -0.4041284 1.3831003
0.23487128 -0.40436602 1.3810003
0.2418932 -0.40267104 1.381
0.21643673 -0.39761129 1.3870001
0.22634952 -0.39501706 1.3859415
0.23522766 -0.3940624 1.3831003
0.24312587 -0.39435035 1.3810002
0.26271683 -0.39346993 1.381
0.22798812 -0.38727582 1.3870001
0.23540536 -0.38593826 1.3870001
0.24475391 -0.38464919 1.3832108
0.25242609 -0.38378453 1.381
0.26320109 -0.38523731 1.381
0.23808041 -0.37426531 1.3870001
0.24571936 -0.37518272 1.3862002
0.2538788 -0.37519529 1.3818575
0.26569974 -0.37471578 1.3817062
0.27361292 -0.37288839 1.381
0.23953952 -0.36599693 1.3870001
0.24558379 -0.36533579 1.3855885
0.2542206 -0.36554646 1.382059
0.26577088 -0.36535013 1.3837277
0.27464604 -0.3644639 1.3818573
0.28208765 -0.36199233 1.381
0.24683516 -0.35870132 1.3870001
0.25532013 -0.35625318 1.3838003
0.26509675 -0.35538509 1.3852355
0.27584884 -0.35525697 1.384429
0.28547752 -0.35569677 1.3810003
0.29177308 -0.35351759 1.381
0.25702217 -0.3460454 1.3859092
0.26476699 -0.34575361 1.3858001
0.27501762 -0.34550598 1.3862944
0.28501549 -0.34521362 1.3825003
0.29246491 -0.34400514 1.3809999
0.25777858 -0.3380304 1.3870001
0.26385826 -0.33778721 1.3870001
0.27513334 -0.33703551 1.3870001
0.28485787 -0.33546221 1.3853335
0.29452351 -0.33328962 1.3818003
0.2861422 -0.32599545 1.3858001
0.29519752 -0.32484272 1.3817062
0.30409995 -0.3234708 1.3810002
0.28736636 -0.31898072 1.3870001
0.29497895 -0.31589612 1.3853338
0.30432671 -0.31426591 1.3825004
0.3111439 -0.31477594 1.381
0.29790449 -0.3052001 1.3870001
0.30450252 -0.30450502 1.3838575
0.31252751 -0.30387983 1.3809999
0.30647179 -0.29582354 1.3851539
0.31419018 -0.294534 1.3832108
0.3208293 -0.29419443 1.381
0.30763197 -0.28817698 1.3870001
0.31498209 -0.28480801 1.3847147
0.32316503 -0.28461024 1.3815002
0.31698534 -0.27508232 1.3870002
0.32480982 -0.27572614 1.3825004
0.33051473 -0.27482361 1.381
0.31874913 -0.2645531 1.3870001
0.32509381 -0.26524431 1.382895
0.33172539 -0.26362485 1.381
0.31857541 -0.25777856 1.3870001
0.32526314 -0.25492683 1.3834002
0.33172539 -0.25424212 1.381
0.34635317 -0.24611978 1.383
-0.064569421 -0.21751826 1.381
-0.057584904 -0.21430711 1.3858001
-0.061744511 -0.20944706 1.381
-0.05471715 -0.19090205 1.3870001
-0.063896596 -0.18408132 1.3827143
-0.056236267 -0.18550469 1.3845001
-0.04602237 -0.18530732 1.3848183
-0.034400694 -0.18314165 1.3850002
-0.024169939 -0.18354155 1.3848183
-0.01470355 -0.18253455 1.3850001
-0.032688271 -0.17796947 1.381
-0.012106767 -0.17796947 1.381
-0.0047455565 -0.17581619 1.3848183
0.0043689562 -0.17552355 1.3846
0.015058151 -0.17414176 1.3852001
0.024283664 -0.17363171 1.3850002
0.034455229 -0.1734066 1.3846924
0.044768576 -0.17343676 1.3870001
0.053501211 -0.17144707 1.3870001
0.20792517 -0.17144707 1.3870001
0.21400484 -0.17144707 1.3870001
0.22575891 -0.17185237 1.3870001
0.23629703 -0.1730683 1.3870001
0.24445905 -0.17360926 1.3848183
0.25479439 -0.17229217 1.3840001
0.26479146 -0.17126164 1.3855001
0.03712742 -0.16747694 1.381
0.046005711 -0.16707338 1.381
0.055783831 -0.16734755 1.3832502
0.065667838 -0.16477945 1.3848182
0.075144835 -0.16420028 1.384231
0.0848701 -0.16368154 1.3830003
0.094602413 -0.16556023 1.3835002
0.10483022 -0.16574085 1.3840001
0.1142526 -0.16339546 1.3840002
0.12419144 -0.16367257 1.3855001
0.13589035 -0.16258572 1.3840002
0.14559679 -0.16258572 1.3840001
0.15547577 -0.16302989 1.3843334
0.16494876 -0.16374071 1.3835001
0.17477195 -0.16474828 1.3838001
0.18423547 -0.16425571 1.3846925
0.19499269 -0.16362646 1.3840002
0.20514819 -0.16493767 1.3827649
0.21494712 -0.16571514 1.3828462
0.2250945 -0.16633016 1.3833078
0.23550873 -0.16537978 1.3827145
0.24455668 -0.16707337 1.381
0.25343499 -0.16747694 1.381
0.26618421 -0.16445865 1.3814002
0.27466211 -0.16643955 1.3832502
0.28370512 -0.16529578 1.383
0.29060885 -0.16658333 1.3870001
0.078693986 -0.15859865 1.381
0.12712105 -0.15859865 1.381
0.13922782 -0.15859865 1.381
0.14608832 -0.15779154 1.381
0.15456305 -0.15779154 1.381
0.16102 -0.15859865 1.381
0.18402286 -0.15859865 1.381
0.19411182 -0.15819509 1.381
0.20460434 -0.15859865 1.381
-0.17312676 0.049637742 1.381
-0.14891323 0.044795036 1.381
-0.17216505 0.056180596 1.383
-0.16520232 0.056681678 1.3810002
-0.14891323 0.052059095 1.381
-0.17193344 0.065417394 1.3870001
-0.1651011 0.065558016 1.3847504
-0.15563162 0.065785185 1.3822861
-0.14831828 0.068301387 1.383
-0.17318413 0.074519552 1.3870001
-0.16512419 0.075144887 1.3870003
-0.15583923 0.075124189 1.3866003
-0.14862876 0.073406368 1.3840001
-0.1671913 0.083291665 1.3870001
-0.15807176 0.081467755 1.3870001
-0.14956021 0.081467755 1.3870001
0.037829921 -0.49789056 1.3920001
0.043734599 -0.4954246 1.3953751
0.05478505 -0.4957653 1.3944547
0.065897278 -0.49544993 1.3920001
0.071998879 -0.49178895 1.3920001
0.05502845 -0.48528498 1.3950003
0.065897286 -0.4856874 1.3920001
0.072487012 -0.48593146 1.3920001
0.05483241 -0.47593135 1.3972943
0.065022208 -0.47551784 1.3947275
0.07513684 -0.47557613 1.3920001
0.12813359 -0.47226384 1.3920001
0.13057424 -0.47226384 1.3920001
0.1403368 -0.47226384 1.3920001
0.056070287 -0.46602675 1.398
0.06507697 -0.46524826 1.3957145
0.075659841 -0.46494192 1.3920001
0.085422397 -0.46372163 1.3920001
0.094452769 -0.46225721 1.3920001
0.10421534 -0.46054873 1.3920001
0.11544226 -0.46225721 1.3920001
0.12547107 -0.46294507 1.3920001
0.13321511 -0.4649114 1.3924001
0.1403368 -0.46494192 1.3920001
0.056070283 -0.45683497 1.398
0.065168075 -0.45579779 1.3970528
0.075966559 -0.45579246 1.3976252
0.085790612 -0.45591575 1.3980001
0.095439412 -0.45517999 1.3957502
0.10508789 -0.45456684 1.3938751
0.11471008 -0.45395902 1.3920001
0.12419102 -0.45405293 1.3920001
0.13279301 -0.45407 1.3920001
0.15742128 -0.45151839 1.3920001
0.05760226 -0.4473367 1.3980001
0.065820858 -0.44618326 1.3980001
0.075985953 -0.44611111 1.3980001
0.085790604 -0.44611111 1.3980001
0.095595241 -0.44611114 1.3980001
0.10537062 -0.44599047 1.3976252
0.11477123 -0.44443381 1.39275
0.12441665 -0.44425699 1.3932859
0.13391545 -0.44452819 1.3941431
0.14410122 -0.44329265 1.3930001
0.15518743 -0.44402784 1.3938751
0.16649479 -0.44376221 1.3953334
0.17565693 -0.44342175 1.3928573
0.18182768 -0.44175583 1.3920001
0.0674069 -0.43875766 1.3980001
0.075985961 -0.43916616 1.3980001
0.086525954 -0.439493 1.3980001
0.096361235 -0.43584689 1.3980001
0.10539988 -0.43508095 1.3980002
0.11510458 -0.43470487 1.3968003
0.12423471 -0.43506977 1.3965884
0.13554914 -0.43622476 1.3980001
0.14461842 -0.43508086 1.3980002
0.15442309 -0.43508095 1.3980002
0.16403419 -0.43533891 1.3980002
0.17450766 -0.43472803 1.3947276
0.18182768 -0.43443394 1.3920001
0.079662703 -0.42527625 1.3980001
0.099271983 -0.42527628 1.3980001
0.10539988 -0.42405063 1.3980001
0.11479599 -0.42466345 1.3979999
0.12378359 -0.42527628 1.398
0.14706959 -0.42527628 1.3980001
0.15599883 -0.42562646 1.398
0.16422769 -0.42405066 1.3980001
0.17476322 -0.42433184 1.3941001
0.18365815 -0.42406118 1.3920001
0.1952512 -0.4210104 1.3920001
0.20379344 -0.4210104 1.3920001
0.10662546 -0.41792277 1.3980001
0.11479599 -0.4171057 1.3980001
0.16667888 -0.41424602 1.398
0.17462382 -0.41472024 1.3959004
0.18549617 -0.41498843 1.3960003
0.19575614 -0.41475201 1.3956002
0.20523773 -0.41427007 1.3948424
0.21257973 -0.41320032 1.3920001
0.16667888 -0.40811813 1.3980001
0.17280678 -0.40811813 1.3980001
0.18604305 -0.40272561 1.3980001
0.19694127 -0.40472424 1.398
0.20547242 -0.40433833 1.3968002
0.21233568 -0.40514621 1.3920001
0.18628819 -0.39463675 1.3980001
0.19633789 -0.39439166 1.3980001
0.20574892 -0.39429644 1.3955296
0.21471088 -0.39399385 1.3933334
0.22171125 -0.39405441 1.3928573
0.1867784 -0.38654789 1.398
0.19709553 -0.38561201 1.3979999
0.20589745 -0.38483211 1.3980001
0.21535192 -0.38535735 1.398
0.22477326 -0.38471869 1.3953751
0.23430143 -0.38277373 1.3920001
0.24040304 -0.38318047 1.3920001
0.21937881 -0.37870422 1.3980001
0.2266566 -0.37593868 1.3975385
0.23395276 -0.37585858 1.3920001
0.24040304 -0.37707889 1.3920001
0.22734506 -0.36552924 1.398
0.23470382 -0.36549899 1.3944002
0.24162336 -0.36243504 1.3920001
0.22918347 -0.35174146 1.3980001
0.23531137 -0.35541815 1.3980001
0.24408181 -0.35499239 1.3936667
0.25169098 -0.35328263 1.3920001
0.22918347 -0.34806472 1.3980001
0.23631412 -0.34661633 1.3979999
0.24471755 -0.34505534 1.3957502
0.25238436 -0.34379742 1.3920001
0.26480943 -0.34290993 1.3920001
0.2389881 -0.33703449 1.3980001
0.24529108 -0.33615908 1.398
0.2553055 -0.33483964 1.3956668
0.26641202 -0.33484459 1.3940001
0.27456146 -0.33251992 1.3930911
0.24715863 -0.32886398 1.3980001
0.25539201 -0.32666418 1.398
0.26325458 -0.32673961 1.398
0.27617365 -0.32696334 1.396
0.28250015 -0.32342687 1.3935001
0.26349971 -0.31987637 1.3980001
0.27820665 -0.31865078 1.3980001
0.28494406 -0.31614706 1.3957502
0.29254088 -0.31140476 1.3945715
0.28556013 -0.30762058 1.3980001
0.29424939 -0.30403963 1.3957897
0.29738635 -0.29697958 1.396
0.30234671 -0.29367346 1.3952727
0.30625859 -0.28511864 1.3950001
0.3111816 -0.28189391 1.3920001
0.30790067 -0.27667993 1.3965001
0.31175712 -0.27485207 1.3955002
0.31390333 -0.26561129 1.3946252
0.31578937 -0.2574214 1.3954287
0.32094416 -0.25382656 1.3920001
-0.05471978 -0.19349727 1.3940002
-0.0440262 -0.19322874 1.395
-0.034078788 -0.19311263 1.3954287
-0.023679644 -0.19309546 1.3970002
-0.01469118 -0.19343519 1.3965
0.020834859 -0.19241606 1.3980001
0.19647151 -0.19403088 1.3920001
0.20467186 -0.19241606 1.3980001
-0.042711198 -0.1891496 1.3920001
-0.034413021 -0.18866149 1.3920001
-0.0244064 -0.1891496 1.3920001
-0.014469507 -0.1881036 1.3920001
-0.0048918002 -0.1858937 1.3950002
0.0048136013 -0.18572813 1.3956001
0.014781814 -0.18519855 1.3961539
0.024231069 -0.18578109 1.3960001
0.034240846 -0.18466894 1.3950001
0.043628193 -0.1838972 1.3953334
0.053516995 -0.18220289 1.3980001
0.064955734 -0.18016025 1.3980001
0.075985961 -0.18016025 1.3980001
0.086199127 -0.18016024 1.3980001
0.096003771 -0.18097733 1.3980001
0.10539988 -0.18138586 1.398
0.11479599 -0.1809773 1.3980001
0.12378358 -0.18016024 1.3980001
0.20589744 -0.18016025 1.3980001
0.21570209 -0.18016025 1.3980001
0.2267323 -0.18156092 1.398
0.23413137 -0.1827096 1.3966668
0.24040304 -0.18182768 1.3920001
-0.0061015999 -0.17938703 1.3920001
0.0073219198 -0.17938703 1.3920001
0.01464384 -0.17938703 1.3920001
0.0244064 -0.17938703 1.3920001
0.034168959 -0.17938703 1.3920001
0.044745069 -0.17857349 1.3920001
0.054935005 -0.17578964 1.3925
0.06553515 -0.17498685 1.3943079
0.075768545 -0.17476 1.3940001
0.085545145 -0.17475998 1.3940001
0.095286213 -0.17469645 1.3935002
0.10494751 -0.17450576 1.3920001
0.1148749 -0.17475998 1.3940001
0.1244344 -0.17425041 1.3952727
0.13514806 -0.17258392 1.3979999
0.14514367 -0.17385726 1.398
0.15428691 -0.17362382 1.398
0.16422772 -0.17403236 1.398
0.17459695 -0.1746022 1.396
0.18513447 -0.17493005 1.397
0.19642705 -0.1750351 1.3979999
0.20516104 -0.17514175 1.3952727
0.2152392 -0.17610744 1.395
0.22489984 -0.17601208 1.3942502
0.23511499 -0.17775995 1.3920001
0.24447078 -0.17857349 1.3920001
0.25016561 -0.1769464 1.3920001
0.26349971 -0.17525794 1.3980001
0.067117602 -0.16962449 1.3920001
0.076066613 -0.16962449 1.3920001
0.085422397 -0.16962448 1.3920001
0.093964636 -0.16962448 1.3920001
0.10250688 -0.16962448 1.3920001
0.11544228 -0.16913633 1.3920001
0.12537824 -0.16811748 1.3930001
0.133503 -0.16669571 1.3920001
0.14399776 -0.16840415 1.3920001
0.15498064 -0.16840416 1.3920001
0.16596352 -0.16962448 1.3920001
0.17450576 -0.16962448 1.3920001
0.18670897 -0.16962449 1.3920001
0.1952512 -0.16962448 1.3920001
-0.17450576 0.06223632 1.3920001
-0.17328544 0.079320796 1.3920001
-0.16962448 0.079320796 1.3920001
-0.15131968 0.079320796 1.3920001
-0.14765872 0.075659841 1.3920001
-0.17511024 0.085255712 1.3938463
-0.16490577 0.08596082 1.3952727
-0.15495154 0.085743271 1.3932002
-0.14765872 0.084202081 1.3920001
-0.18179436 0.093552597 1.3980001
-0.17581899 0.093012571 1.396
-0.16349237 0.092408732 1.3980001
-0.15515843 0.092408732 1.3980001
-0.1531975 0.10662546 1.3980001
0.0451308 -0.49192572 1.4040002
0.045335937 -0.48515609 1.4040002
0.03815604 -0.47387341 1.404
0.046156496 -0.47571963 1.4040002
0.05046444 -0.47387338 1.404
0.052222785 -0.46684003 1.4040002
0.054332796 -0.45417997 1.4040002
0.060311161 -0.45294911 1.404
0.055661321 -0.44570085 1.4040002
0.060926579 -0.44371781 1.404
0.056864806 -0.43645588 1.404
0.064619102 -0.43592253 1.4040002
0.073932447 -0.43547118 1.4039999
0.084927954 -0.43530712 1.4039998
0.092928417 -0.43387109 1.404
0.1292382 -0.43448651 1.4039999
0.13317689 -0.43350181 1.404
0.16862507 -0.43202484 1.404
0.064960994 -0.42737496 1.4040002
0.074096568 -0.42611685 1.4039999
0.084927954 -0.42623267 1.4039999
0.095721483 -0.42596531 1.404
0.1169298 -0.42402437 1.404
0.12712818 -0.42428809 1.4040002
0.13539241 -0.42587066 1.4039999
0.14376211 -0.4251321 1.4040002
0.153855 -0.42463976 1.4040002
0.073850393 -0.41725475 1.404
0.085543387 -0.41633159 1.4040002
0.099698037 -0.41602391 1.404
0.10544197 -0.41520333 1.4040002
0.11471429 -0.41553155 1.4040002
0.12480716 -0.41651621 1.4040002
0.13617568 -0.41680714 1.4040002
0.14523911 -0.41602394 1.4039999
0.15508585 -0.41602391 1.4039999
0.16247088 -0.41602388 1.4040002
0.18339515 -0.4123314 1.404
0.088796318 -0.40670469 1.4040002
0.097728692 -0.40445405 1.404
0.10407436 -0.40686095 1.4040002
0.11200644 -0.40986973 1.404
0.1261611 -0.40802348 1.404
0.13826436 -0.40822864 1.4039999
0.14600842 -0.40556183 1.4039999
0.15501344 -0.40552559 1.4039999
0.16465907 -0.40439934 1.4039998
0.1749965 -0.40407756 1.4039999
0.18396322 -0.40665066 1.404
0.19218686 -0.40424299 1.4040002
0.14811109 -0.39592019 1.4039999
0.153855 -0.39756131 1.404
0.16862507 -0.39756131 1.404
0.1753068 -0.3942205 1.404
0.18093348 -0.3938688 1.404
0.19324188 -0.39017627 1.404
0.17785639 -0.38525289 1.404
0.18401058 -0.38299641 1.4040002
0.19433594 -0.3819707 1.4040002
0.20431945 -0.38032955 1.404
0.21490467 -0.38082188 1.404
0.22032036 -0.38279125 1.404
0.1784718 -0.37786788 1.404
0.18445016 -0.37681291 1.4040002
0.1944727 -0.37663707 1.4040002
0.20487891 -0.37540624 1.4040002
0.21416615 -0.3741754 1.4039999
0.22228971 -0.37368304 1.4040002
0.20678112 -0.36802116 1.404
0.21416613 -0.36432865 1.4039999
0.2235395 -0.36385524 1.404
0.23016708 -0.36063612 1.404
0.20637083 -0.35160995 1.4039999
0.21424821 -0.35423574 1.4039999
0.22401291 -0.35448188 1.4039999
0.23016708 -0.35694361 1.404
0.20678112 -0.34832773 1.404
0.215397 -0.34692103 1.4040002
0.22425908 -0.34488133 1.4039999
0.23330015 -0.34340432 1.4040002
0.22573607 -0.33749634 1.404
0.23468019 -0.33560905 1.4040002
0.24288577 -0.33273706 1.4040002
0.23705979 -0.32568026 1.404
0.2448076 -0.32474738 1.4039998
0.25513554 -0.32265592 1.4040002
0.26763928 -0.32453147 1.4040002
0.27393025 -0.32398444 1.4040002
0.23755212 -0.31878754 1.404
0.24586029 -0.31786442 1.4040002
0.25667748 -0.31575778 1.404
0.26463059 -0.31558737 1.4040002
0.27626762 -0.31498316 1.4040002
0.28473434 -0.31222311 1.4040002
0.24986053 -0.30278665 1.404
0.25663015 -0.30483809 1.4040002
0.26339975 -0.30524835 1.4040002
0.27716276 -0.30558404 1.4040002
0.28547284 -0.30500218 1.4039999
0.24986053 -0.29909411 1.404
0.25909182 -0.29724786 1.404
0.26298949 -0.29745302 1.4039999
0.276939 -0.29909411 1.4039999
0.28621766 -0.29606441 1.404
0.29458106 -0.29458103 1.4040002
0.28924739 -0.28801656 1.404
0.29564777 -0.28580108 1.4039999
0.30261084 -0.28502738 1.4040002
0.29768744 -0.276939 1.4040002
0.30439624 -0.27542406 1.404
0.29909411 -0.26709229 1.404
0.30524835 -0.26586142 1.4039999
0.31140253 -0.26463062 1.404
0.29786327 -0.2560147 1.404
0.30507252 -0.25865224 1.4040002
0.31263337 -0.25847641 1.404
-0.017231759 -0.20062692 1.404
-0.052926119 -0.19816524 1.4039999
-0.044310238 -0.19816524 1.404
-0.034709685 -0.1976729 1.404
-0.025437361 -0.19734468 1.4040002
-0.014770079 -0.19816524 1.404
-0.0054508629 -0.19429691 1.4040002
0.00492336 -0.19262646 1.404
0.014770079 -0.19262645 1.4040002
0.025144303 -0.1939452 1.4040002
0.033936016 -0.19183519 1.4040002
0.1939452 -0.19429687 1.4040002
0.2034989 -0.19160074 1.4040002
0.21047364 -0.19078019 1.404
0.045541078 -0.18831854 1.4039999
0.054156959 -0.18585683 1.404
0.064003676 -0.18339516 1.404
0.074588895 -0.1838875 1.404
0.085631296 -0.18339515 1.4040002
0.095595241 -0.18503629 1.4040002
0.10585225 -0.1866774 1.4040002
0.11610924 -0.18503629 1.4040002
0.12480718 -0.18339515 1.404
0.1353924 -0.18093348 1.404
0.14523911 -0.18093348 1.404
0.155332 -0.18142581 1.404
0.16506931 -0.18257459 1.4040002
0.17425179 -0.18198848 1.4040002
0.184626 -0.18093348 1.404
0.19529326 -0.18175404 1.4040002
0.20443134 -0.18496166 1.4040002
0.21416616 -0.18585683 1.4040002
0.2236772 -0.18608063 1.4040002
0.1292382 -0.17724097 1.404
0.1346539 -0.17797947 1.404
0.14450061 -0.17797947 1.404
0.15508583 -0.1784718 1.404
0.16493255 -0.1784718 1.404
0.17108676 -0.1784718 1.404
0.18339516 -0.1784718 1.404
0.19201103 -0.1784718 1.404
-0.18093348 0.08985132 1.404
-0.17601013 0.08985132 1.404
-0.1661634 0.08985132 1.404
-0.15139332 0.08985132 1.404
-0.18093348 0.098467201 1.404
-0.17421982 0.097012565 1.4040002
-0.16526824 0.097460143 1.4040002
-0.15475014 0.097460151 1.4040002
-0.17662555 0.10277513 1.404
-0.16370173 0.10506899 1.4040002
-0.15590639 0.10503168 1.4040002
-0.16124004 0.1169298 1.404
-0.15779369 0.11496045 1.404
0.036298383 -0.48223385 1.4116668
0.041285742 -0.48529285 1.4100001
0.035890732 -0.47380885 1.4118181
0.043488245 -0.4741005 1.41
0.03613418 -0.46403587 1.4138463
0.04453795 -0.465184 1.41125
0.050680101 -0.46230137 1.4100001
0.036222111 -0.45476118 1.4150001
0.044576742 -0.45444864 1.4125003
0.050680101 -0.45488483 1.4100001
0.035974018 -0.44161206 1.4150001
0.044657398 -0.44409302 1.4150003
0.051674567 -0.4443467 1.411875
0.037214503 -0.43665013 1.4150001
0.044657398 -0.43416914 1.4150003
0.053746872 -0.4342415 1.4117858
0.060568899 -0.43510717 1.4100001
0.045325354 -0.42491323 1.4150002
0.054789234 -0.42443085 1.4133334
0.063489661 -0.42299387 1.4108334
0.073547944 -0.42212814 1.4100001
0.086527005 -0.42274618 1.4100001
0.093119539 -0.42233419 1.41
0.1297905 -0.4215101 1.4100001
0.057062231 -0.41680241 1.4150001
0.064741582 -0.4147644 1.4141669
0.074169867 -0.41379368 1.4114707
0.08303079 -0.41496581 1.4103845
0.09479937 -0.4156149 1.41
0.1075407 -0.41656569 1.4100001
0.11866561 -0.41409349 1.41
0.12661195 -0.41479987 1.41
0.13402855 -0.41479984 1.41
0.057475727 -0.40150309 1.4150001
0.064859554 -0.40422037 1.4150002
0.074428998 -0.40439761 1.4150003
0.083992146 -0.40423131 1.4126472
0.094730213 -0.40532839 1.41
0.10536179 -0.40423736 1.4109091
0.11432735 -0.40506339 1.4109523
0.12398095 -0.40460742 1.4125003
0.13462697 -0.40507036 1.4126194
0.14276955 -0.40420467 1.4100001
0.15616064 -0.40338063 1.4100002
0.056648742 -0.39736816 1.4150001
0.06450513 -0.39819515 1.4150001
0.074677095 -0.39769894 1.4150001
0.084973104 -0.39530075 1.4150001
0.094158605 -0.39522043 1.4132502
0.1038436 -0.39484927 1.4138892
0.11440207 -0.39455557 1.4133334
0.12414651 -0.39441934 1.4133335
0.13518822 -0.39500877 1.4134214
0.14456315 -0.39442086 1.4109374
0.15574038 -0.39476922 1.4105883
0.16504356 -0.39434642 1.4110526
0.1718179 -0.39307982 1.4100001
0.088074319 -0.38827127 1.4150001
0.09461505 -0.38601586 1.4150001
0.10334181 -0.38483608 1.4150002
0.11412448 -0.38454986 1.4150003
0.12390835 -0.38474298 1.4134377
0.13387677 -0.38483614 1.4150002
0.14421335 -0.38689291 1.4134616
0.15331511 -0.38804114 1.4141668
0.16703738 -0.38587496 1.4146155
0.17446481 -0.38481346 1.4114287
0.10047915 -0.37462598 1.4150001
0.11561306 -0.37537023 1.4150001
0.12442887 -0.3749955 1.4140627
0.16888294 -0.37515759 1.4150001
0.17603572 -0.37459862 1.4135296
0.18548153 -0.37332332 1.4113636
0.1953038 -0.37330219 1.41
0.20395651 -0.37305501 1.4100001
0.11784592 -0.36842355 1.4150001
0.12504072 -0.36594254 1.4150001
0.16746525 -0.36718306 1.4150001
0.17707899 -0.36687291 1.4150001
0.18646169 -0.36566234 1.4139287
0.19600193 -0.36570999 1.4130559
0.20497285 -0.36532161 1.4113333
0.18756106 -0.35552257 1.4150001
0.1954236 -0.35510024 1.4126667
0.20484082 -0.35651436 1.4104166
0.2138453 -0.35970509 1.4100001
0.18780917 -0.34758341 1.4150001
0.19563486 -0.34593296 1.4130001
0.20570326 -0.34548399 1.4110714
0.21392027 -0.34400353 1.4104999
0.2212619 -0.34239969 1.4100001
0.2084012 -0.33865196 1.4150001
0.21692023 -0.33662152 1.4139287
0.22470838 -0.33413678 1.4120001
0.23238678 -0.33251092 1.41
0.21832508 -0.32748759 1.4150001
0.22574693 -0.32486993 1.4133335
0.23369122 -0.32395282 1.4104166
0.26823369 -0.3201499 1.4100001
0.27565029 -0.3201499 1.4100001
0.22742194 -0.31715024 1.4150001
0.23562133 -0.31622937 1.4145833
0.24464071 -0.31375584 1.4114286
0.25309148 -0.31242427 1.41
0.26823369 -0.3139694 1.4100001
0.27247176 -0.31308645 1.41
0.24517736 -0.30461973 1.4125001
0.25438938 -0.3038334 1.4100001
0.26823369 -0.30408061 1.4100001
0.27235404 -0.30394328 1.41
0.24577098 -0.29514113 1.4128572
0.25480729 -0.29438546 1.4109375
0.26533729 -0.29387552 1.4107692
0.2744742 -0.29425618 1.4103124
0.28306693 -0.2929557 1.41
0.24851017 -0.28820562 1.4150001
0.25429907 -0.28841236 1.4150001
0.26457739 -0.2872605 1.4150001
0.27590418 -0.28582203 1.4142309
0.28448957 -0.28449121 1.4109375
0.29147238 -0.28257245 1.4100001
0.27786827 -0.27910876 1.4150001
0.28499258 -0.27508238 1.4134377
0.29394457 -0.274167 1.41
0.25678006 -0.26422295 1.4150001
0.27910876 -0.2667039 1.4150001
0.28492928 -0.26511061 1.4131252
0.29432163 -0.26464155 1.410625
0.3003723 -0.26411334 1.4100002
0.28728148 -0.25880295 1.4125001
0.29419178 -0.25834489 1.4100001
-0.052579179 -0.21496087 1.41125
-0.044643153 -0.21453971 1.4145833
-0.036222115 -0.21509984 1.4150001
-0.028531117 -0.21212265 1.4150001
-0.0523482 -0.20486289 1.4105555
-0.044539046 -0.20537777 1.4112502
-0.034649976 -0.20542355 1.4115627
-0.024743916 -0.2053778 1.41125
-0.014762392 -0.20581771 1.4123077
-0.0057889223 -0.20302576 1.4150001
0.004961933 -0.20219879 1.4150001
0.014141509 -0.20269498 1.4150001
0.021088216 -0.20219879 1.4150001
-0.0042027398 -0.19851765 1.4100001
0.0050861281 -0.1975992 1.4116666
0.014663503 -0.19805339 1.4107143
0.025502235 -0.19879994 1.4120001
0.035646912 -0.19777107 1.4143751
0.044247556 -0.19522145 1.4132144
0.054147799 -0.19385341 1.4144444
0.06450513 -0.19351541 1.4150001
0.074251786 -0.19333819 1.4150001
0.083821237 -0.19333819 1.4150001
0.094191261 -0.19334555 1.4137501
0.10411074 -0.19334555 1.4137501
0.11412447 -0.19351541 1.4150001
0.12418617 -0.1939289 1.4150001
0.15754138 -0.19227491 1.4150001
0.16569273 -0.19295052 1.413125
0.17366767 -0.19227491 1.4150001
0.1956457 -0.19193521 1.4125001
0.056242548 -0.18850526 1.4100001
0.064306237 -0.18797104 1.410625
0.073710136 -0.1882554 1.4114286
0.084203832 -0.18822253 1.4125
0.093943603 -0.1891233 1.4100001
0.1013602 -0.1891233 1.4100001
0.11495731 -0.1891233 1.4100001
0.1260822 -0.18747516 1.41
0.13436073 -0.18684994 1.4131818
0.14518234 -0.18619572 1.4127778
0.15453185 -0.18713582 1.4120833
0.16485278 -0.18836388 1.41125
0.17621487 -0.18777323 1.4122223
0.18619376 -0.18619573 1.4127778
0.19487731 -0.18721262 1.4104999
0.2027204 -0.1891233 1.4100001
-0.18192148 0.10519561 1.4116668
-0.17459913 0.10599557 1.41
-0.16852163 0.10671663 1.4100002
-0.17449611 0.11279729 1.4138889
-0.16594642 0.11511181 1.41
-0.15945689 0.1149573 1.4100001
-0.17242718 0.12404834 1.4150001
-0.16580896 0.12497134 1.4114287
-0.15945689 0.12608221 1.4100001
-0.18235105 0.13769364 1.4150001
-0.16543537 0.13363388 1.4150001
-0.15945689 0.13473488 1.4100002
-0.16250332 0.14017461 1.4150001
0.032389328 -0.47462821 1.4210001
0.032389324 -0.45469633 1.4210001
0.028177995 -0.44560632 1.4222
0.034702849 -0.44633198 1.4210002
0.02763316 -0.43518925 1.4235715
0.034050316 -0.43517968 1.4210004
0.028712586 -0.42943779 1.424
0.035132602 -0.42558429 1.4232106
0.041940022 -0.42313752 1.4210001
0.037113097 -0.41547212 1.427
0.044647343 -0.41591612 1.421706
0.053982209 -0.4152478 1.4210004
0.036279093 -0.40607566 1.427
0.04487931 -0.4058094 1.4221251
0.054141924 -0.40678316 1.4210002
0.062287167 -0.40735808 1.4210001
0.044890158 -0.39593905 1.4225001
0.054333575 -0.3954756 1.4210002
0.064778648 -0.39561248 1.4210002
0.074631341 -0.39467412 1.4210004
0.082841933 -0.39365491 1.4210001
0.13080305 -0.39490062 1.4210001
0.046958826 -0.3874037 1.4246002
0.054686327 -0.38570586 1.4228946
0.064531043 -0.38566667 1.4216666
0.074744597 -0.38618049 1.4210001
0.084461406 -0.38593134 1.4210001
0.093929045 -0.38294148 1.4210001
0.10837967 -0.38493466 1.4210001
0.13495554 -0.38493466 1.4210001
0.14492147 -0.38327369 1.4210001
0.1548119 -0.3847082 1.4210004
0.16288094 -0.38462323 1.4210002
0.048789129 -0.37655202 1.427
0.055313826 -0.37681356 1.4265385
0.065436102 -0.37550887 1.4241765
0.074845135 -0.37605935 1.424158
0.084793933 -0.37589434 1.4235264
0.094508074 -0.37595925 1.4226668
0.10517634 -0.3762145 1.4210002
0.1121169 -0.37496877 1.4210001
0.1208371 -0.37247726 1.4210001
0.13454029 -0.37621444 1.4210001
0.14450622 -0.37621444 1.4210001
0.15447214 -0.37621444 1.4210001
0.16357568 -0.37592703 1.4210002
0.073308803 -0.36604357 1.427
0.085099131 -0.36547768 1.4262941
0.095083654 -0.36495987 1.423
0.10473027 -0.36530727 1.4222
0.11441169 -0.36474046 1.421
0.12357773 -0.36251134 1.4210002
0.13473886 -0.36553741 1.4230999
0.14487021 -0.36592212 1.4245999
0.15460104 -0.36530727 1.4222
0.16402288 -0.36458752 1.421
0.17382272 -0.36367401 1.4210001
0.18383613 -0.36322317 1.4210002
0.19309022 -0.36749429 1.4210001
0.085741848 -0.35595858 1.427
0.095076256 -0.35528493 1.427
0.10479558 -0.35557362 1.427
0.11487566 -0.35463169 1.4243751
0.12457432 -0.35379106 1.4210001
0.13485815 -0.35553512 1.427
0.14529511 -0.35564238 1.427
0.15504092 -0.35509688 1.42625
0.16465345 -0.35425428 1.4228749
0.17440407 -0.35379103 1.4210001
0.18287514 -0.35354191 1.4210002
0.087570235 -0.34902993 1.427
0.092157245 -0.34819594 1.427
0.11654355 -0.34588075 1.4264001
0.12503459 -0.34509349 1.42625
0.13260636 -0.34902993 1.427
0.1488694 -0.34902993 1.427
0.15512441 -0.34652796 1.427
0.16538265 -0.34552717 1.427
0.17490605 -0.34482229 1.4251251
0.18412088 -0.34357598 1.4210001
0.19402453 -0.34164509 1.4210002
0.20336759 -0.34226796 1.4210002
0.11784451 -0.33702031 1.427
0.12510033 -0.33651993 1.427
0.16638345 -0.33902189 1.427
0.17632309 -0.33593541 1.4264547
0.18470831 -0.33447167 1.4236251
0.19449081 -0.33412188 1.4221251
0.20430189 -0.33385921 1.4210001
0.21279563 -0.33351946 1.4210004
0.17805946 -0.32817987 1.427
0.185761 -0.32582888 1.4265385
0.19490044 -0.32483119 1.4251251
0.20484036 -0.32474473 1.42475
0.21407798 -0.32373425 1.4214001
0.22149315 -0.32214922 1.4210001
0.1889015 -0.31900585 1.427
0.19515653 -0.31900585 1.427
0.20552197 -0.31578898 1.427
0.21488687 -0.3148357 1.4251251
0.22421286 -0.3137655 1.4214001
0.23419976 -0.31143582 1.4210002
0.24042846 -0.31143582 1.4210001
0.20891756 -0.30774683 1.427
0.2157087 -0.30560225 1.427
0.22482425 -0.30475894 1.4247501
0.23432204 -0.30411986 1.4217502
0.24042846 -0.3039614 1.4210001
0.226932 -0.29573721 1.427
0.23487534 -0.29484788 1.4251251
0.24198563 -0.29306111 1.4210002
0.25786886 -0.2902582 1.4210001
0.27032632 -0.2902582 1.4210001
0.2278613 -0.2857649 1.427
0.2361474 -0.28575298 1.4265
0.24454899 -0.28447589 1.4232501
0.25448754 -0.2834956 1.4210002
0.2634747 -0.28299138 1.4210004
0.2725178 -0.28332475 1.4223335
0.22893362 -0.27647173 1.427
0.24603064 -0.27563775 1.427
0.25513795 -0.27514741 1.426625
0.26409757 -0.27406356 1.4210001
0.27463686 -0.27464214 1.424
0.28029224 -0.27406353 1.4210001
0.24769866 -0.26896572 1.427
0.25413164 -0.26783481 1.4210001
0.26451281 -0.26617384 1.4210002
0.27444491 -0.26571769 1.4230002
0.28029224 -0.26409757 1.4210001
-0.028773077 -0.22142759 1.427
-0.0324222 -0.21698946 1.4225
-0.025100039 -0.21564354 1.4236668
-0.01498048 -0.21409866 1.4240001
-0.0047538127 -0.21191998 1.427
0.0055288863 -0.21211088 1.4244287
0.014240399 -0.21156439 1.4246
0.021267056 -0.21141957 1.427
0.038781103 -0.21267056 1.427
0.045036122 -0.21517254 1.427
0.051291138 -0.21141957 1.427
0.081315219 -0.21392156 1.427
0.095826857 -0.21492238 1.427
-0.0041524777 -0.20720865 1.4210001
0.0049829734 -0.2067934 1.4210002
0.01548281 -0.20697138 1.4210002
0.025322996 -0.20633028 1.4248183
0.034928154 -0.20521581 1.4230002
0.045202684 -0.20483576 1.4210002
0.054610897 -0.20422772 1.4222
0.065014794 -0.20322223 1.4237275
0.074929133 -0.2035598 1.4245001
0.084559016 -0.204264 1.4244287
0.095234938 -0.20420273 1.4240001
0.10489213 -0.20353211 1.4259092
0.11525464 -0.2033772 1.4248182
0.12499845 -0.20434414 1.423
0.13510837 -0.20516457 1.427
0.14386538 -0.20436844 1.427
0.15345642 -0.20307954 1.427
0.16388144 -0.20141153 1.427
0.17388946 -0.20141153 1.427
0.056058452 -0.19807319 1.4210001
0.064778656 -0.19807319 1.4210001
0.074993744 -0.1975749 1.4210001
0.085457996 -0.1975749 1.4210001
0.094676495 -0.19807319 1.4210001
0.10464244 -0.19807319 1.4210001
0.11460839 -0.19807319 1.4210001
0.12415909 -0.19807319 1.4210001
0.13500255 -0.19545573 1.4228463
0.14450255 -0.19491823 1.4234
0.15448724 -0.19626246 1.4242729
0.16395216 -0.19766086 1.4240001
0.17533836 -0.19651599 1.4210002
0.18461917 -0.1945851 1.4210001
0.19059873 -0.19558172 1.4210001
-0.18289669 0.11434171 1.427
-0.1778945 0.11672422 1.424
-0.18282519 0.12635133 1.427
-0.17727163 0.12483733 1.4240001
-0.18310711 0.13395853 1.4228003
-0.17470337 0.13482624 1.4214001
-0.16817535 0.13827752 1.4210001
-0.18174335 0.14574601 1.4258001
-0.17495637 0.14496648 1.4254999
-0.16682646 0.1449205 1.4236668
-0.17388946 0.1513714 1.427
-0.16781317 0.15458825 1.427
-0.16888545 0.16137943 1.427
0.024572089 -0.43225145 1.4375001
0.026629068 -0.42459762 1.4340912
0.03224409 -0.42252326 1.4330001
0.025663663 -0.41456684 1.4330003
0.03224409 -0.4145669 1.4330001
0.02572378 -0.40511972 1.4364288
0.03419828 -0.40298137 1.4330001
0.025771121 -0.3959381 1.4389999
0.035226654 -0.39508405 1.43525
0.041456688 -0.3906979 1.4330001
0.017661326 -0.38224158 1.439
0.025230467 -0.38602611 1.4389998
0.035322651 -0.38602614 1.4389998
0.044236451 -0.384325 1.4350001
0.017030565 -0.37782624 1.439
0.025314569 -0.37618625 1.4389998
0.035322655 -0.37593389 1.4389998
0.045108531 -0.37526432 1.4374001
0.055275586 -0.37185392 1.4330001
0.064571932 -0.37110022 1.4330001
0.077469565 -0.3714352 1.4330001
0.02649199 -0.36962634 1.439
0.035322651 -0.36584172 1.4389998
0.045376372 -0.36555478 1.4378749
0.0553752 -0.36498016 1.4356251
0.0653418 -0.3644107 1.4333754
0.075665712 -0.3640264 1.4330003
0.034565739 -0.35902953 1.439
0.04583535 -0.3578521 1.439
0.05550703 -0.35574955 1.4389998
0.065581135 -0.35565594 1.4386249
0.075491518 -0.35481989 1.4352503
0.082662128 -0.3525075 1.4330001
0.097988538 -0.35049745 1.4330001
0.10606451 -0.35265106 1.433
0.13818896 -0.35175371 1.4330001
0.14373009 -0.35199833 1.434
0.05699791 -0.34600142 1.439
0.065599211 -0.34565741 1.4389998
0.075631894 -0.34538481 1.4378748
0.085603431 -0.34493282 1.4359999
0.095888585 -0.34453642 1.4354001
0.10555274 -0.34430522 1.4333754
0.11306371 -0.34421614 1.4330001
0.13521768 -0.34442282 1.4338576
0.14512046 -0.34528375 1.4365294
0.15514828 -0.34172243 1.4336668
0.16205797 -0.34170362 1.4330001
0.05777777 -0.33682674 1.439
0.065938987 -0.33600631 1.4385713
0.075330965 -0.33610588 1.4389999
0.085783578 -0.33808827 1.439
0.096055992 -0.33610588 1.4389999
0.10588411 -0.33529985 1.4378749
0.11515753 -0.33423769 1.4362309
0.12569012 -0.33182645 1.4337502
0.13506648 -0.33509684 1.4357693
0.14391071 -0.33546817 1.4389999
0.15380219 -0.33600318 1.4371539
0.16522779 -0.33512512 1.4361767
0.17291506 -0.33356968 1.4345002
0.099660344 -0.32925758 1.439
0.10565257 -0.32768071 1.439
0.11615718 -0.325376 1.4389999
0.12615234 -0.32547301 1.4389998
0.13750604 -0.32925758 1.439
0.14381365 -0.32925758 1.439
0.15415815 -0.32572532 1.439
0.16425034 -0.32572541 1.4389998
0.17477277 -0.32470247 1.4364735
0.1838332 -0.32202217 1.4330001
0.10786025 -0.31664234 1.439
0.11601939 -0.31653318 1.4384999
0.12640463 -0.31563315 1.4389998
0.16487139 -0.31547791 1.4389999
0.17462569 -0.31536716 1.4376665
0.18546353 -0.31484002 1.4368824
0.19574963 -0.31407335 1.4340591
0.20426843 -0.31130204 1.4330001
0.16610056 -0.30823219 1.439
0.17409022 -0.30781171 1.439
0.18498518 -0.30632079 1.439
0.1945269 -0.30537274 1.4389998
0.20486248 -0.30435112 1.4355263
0.21482104 -0.30150321 1.4330001
0.22235861 -0.30024692 1.4330001
0.18670544 -0.29898104 1.439
0.19517568 -0.29753929 1.439
0.20368749 -0.29587573 1.4389999
0.21480666 -0.29528055 1.437125
0.22282097 -0.29382363 1.4360001
0.19805916 -0.28384274 1.439
0.2038051 -0.2844865 1.4380001
0.21656153 -0.28552479 1.439
0.22353898 -0.28414983 1.436
0.23460719 -0.28234518 1.4330001
0.21698201 -0.27879664 1.439
0.22461304 -0.27805954 1.4378
0.2363171 -0.27568001 1.4330001
0.24316224 -0.27535206 1.4342
-0.023968942 -0.23085876 1.439
-0.016399803 -0.23085876 1.439
-0.032662846 -0.22361487 1.4330001
-0.024431473 -0.22543922 1.4366001
-0.015121184 -0.22557993 1.4375
-0.0047937883 -0.2212712 1.439
0.0052983975 -0.2217758 1.439
0.01513828 -0.22139734 1.439
0.025230467 -0.22328962 1.439
0.032379102 -0.22160761 1.439
0.054245502 -0.22076659 1.439
0.06812226 -0.22076659 1.439
-0.022612739 -0.21984608 1.4330001
-0.014321402 -0.21934357 1.4330001
-0.0052142884 -0.21664675 1.4355716
0.0050285603 -0.21763688 1.4350001
0.01509357 -0.21693292 1.4345
0.025536263 -0.21562566 1.4368182
0.034999747 -0.21609455 1.4345002
0.055019997 -0.21560591 1.435182
0.065839976 -0.21516599 1.4368182
0.075433984 -0.21624793 1.4341252
0.085329264 -0.21559413 1.4330003
0.094219752 -0.21356475 1.4330001
0.10607438 -0.2144095 1.4336002
0.11558762 -0.21478073 1.4383334
0.12236776 -0.21319744 1.439
0.031406581 -0.20979598 1.4330001
0.059044376 -0.20979598 1.4330001
0.065074436 -0.20929348 1.4330001
0.075375795 -0.20979598 1.4330001
0.087938428 -0.20979598 1.4330001
0.092963487 -0.20979598 1.4330001
0.10577737 -0.20929348 1.4330001
0.11482247 -0.20929348 1.4330001
0.12185755 -0.20979598 1.4330001
0.14865783 -0.20644593 1.4330001
0.15787043 -0.20393342 1.4330001
0.16205797 -0.20477092 1.4330001
-0.18529883 0.11620436 1.4330001
-0.18676448 0.12437006 1.4330001
-0.18354332 0.15462998 1.434
-0.17558695 0.15548676 1.4330003
-0.16582677 0.15954544 1.4330001
-0.18229012 0.16084422 1.439
-0.17485489 0.16414379 1.4375001
-0.16835968 0.16656354 1.4347143
-0.18165936 0.17535174 1.439
-0.17453261 0.1749904 1.4379091
-0.16836786 0.17441265 1.4354001
-0.19049002 0.18796697 1.439
-0.18292089 0.18544392 1.439
-0.17282869 0.18039782 1.439
0.021535316 -0.40157032 1.4450001
0.018157229 -0.39228058 1.4450001
0.021535316 -0.39650318 1.4450001
0.016045922 -0.38552439 1.4450001
0.016749691 -0.37482706 1.4449999
0.024702275 -0.37180093 1.4450001
0.017915936 -0.3653765 1.4449999
0.025335666 -0.36483362 1.4449998
0.01900175 -0.3572329 1.4450001
0.026017781 -0.35538143 1.4449998
0.035723288 -0.35444599 1.4449998
0.045258712 -0.35320222 1.4449998
0.051938117 -0.35089898 1.4450001
0.027446972 -0.34752092 1.4450001
0.035469931 -0.34752092 1.4450001
0.046286318 -0.34524715 1.4449998
0.05278264 -0.34372056 1.4450001
0.048560027 -0.33738661 1.4450001
0.055251237 -0.33394358 1.4449998
0.063339166 -0.33316401 1.4450001
0.078962825 -0.3323195 1.4450001
0.086141266 -0.33316407 1.4449998
0.095008746 -0.33164388 1.4450001
0.13427904 -0.33063045 1.4450001
0.14568008 -0.33569759 1.4450001
0.1554524 -0.33316401 1.4449999
0.16088149 -0.33316401 1.4450001
0.051938117 -0.32809687 1.4450001
0.079807349 -0.32809687 1.4450001
0.086901344 -0.32759017 1.4450001
0.095370688 -0.32628721 1.4449999
0.10366509 -0.32387426 1.4449998
0.11173029 -0.32454988 1.4450001
0.12034442 -0.32809687 1.4450001
0.13554583 -0.32429656 1.4449998
0.14441329 -0.32429653 1.4449998
0.15433644 -0.32366315 1.4449998
0.16088149 -0.32176298 1.4450001
0.097542316 -0.31796262 1.4450001
0.10260946 -0.31796262 1.4450001
0.13554582 -0.31542906 1.4449999
0.14477524 -0.31470513 1.4449998
0.15454757 -0.31416222 1.4449998
0.16151488 -0.31226209 1.4450001
0.14694688 -0.30782834 1.4450001
0.15581435 -0.3045347 1.4449999
0.16459738 -0.30377468 1.4449998
0.17481609 -0.3027612 1.4449998
0.18295969 -0.30312318 1.4449999
0.19128428 -0.30529478 1.4450001
0.16594861 -0.29769409 1.4450001
0.175359 -0.29660827 1.4449999
0.1857949 -0.29473829 1.4449998
0.19459739 -0.29321164 1.4449998
0.20690794 -0.29178244 1.4450001
0.21155281 -0.29136017 1.4450001
0.18875071 -0.28755981 1.4450001
0.19508463 -0.28755981 1.4450001
0.20648567 -0.28692642 1.4450001
0.21281959 -0.28502622 1.4450001
-0.0054893945 -0.22647269 1.4449999
0.0042226105 -0.2259097 1.4450001
0.014948043 -0.22523408 1.4450001
0.024068883 -0.22928779 1.4450001
0.057005249 -0.22168708 1.4450001
0.064605951 -0.22168708 1.4450001
0.059538815 -0.21915351 1.4450001
0.062072381 -0.21915351 1.4450001
0.11527728 -0.21915351 1.4450001
-0.18400028 0.16626532 1.4449999
-0.17861645 0.16721541 1.4450001
-0.18549328 0.17318738 1.4449999
-0.17734966 0.17101575 1.4450001
-0.18524271 0.18426824 1.4449998
-0.17439383 0.18565413 1.4449999
-0.16848218 0.18621714 1.4450001
0.01527504 -0.39078644 1.452
0.014059979 -0.37450674 1.4580001
0.016547959 -0.36023635 1.452
0.029367894 -0.34474957 1.4565001
0.035413556 -0.34404528 1.4547691
0.042854976 -0.3432641 1.452
0.037466105 -0.33550212 1.4570001
0.045064066 -0.33455601 1.4531249
0.076375201 -0.33223212 1.452
0.039623581 -0.32849225 1.4580001
0.046809211 -0.32674161 1.4574547
0.053462639 -0.32841337 1.452
0.086558565 -0.32714045 1.452
0.095468998 -0.32332167 1.452
0.13620244 -0.31186539 1.452
0.14256704 -0.31186539 1.452
0.13789965 -0.30847093 1.452
0.14511287 -0.30677369 1.4519999
0.15351415 -0.3052462 1.452
0.17863309 -0.29319593 1.452
0.18330048 -0.29277161 1.452
