# .PCD v0.7 - Point Cloud Data file format
VERSION 0.7
FIELDS x y z
SIZE 4 4 4
TYPE F F F
COUNT 1 1 1
WIDTH 1464
HEIGHT 1
VIEWPOINT 0 0 0 1 0 0 0
POINTS 1464
DATA ascii
-0.026122762 0.0067251157 1.1753531
-0.017791731 0.0074768709 1.1765001
-0.18415536 0.014966791 1.1745386
-0.17775418 0.014837335 1.1730002
-0.16761778 0.01131163 1.1730001
-0.02159493 0.01131163 1.1730001
-0.014154879 0.012355301 1.1745001
-0.0053229742 0.01390408 1.1750001
0.0056631207 0.01492978 1.1746669
0.015449228 0.016239172 1.1748463
0.02559779 0.017194603 1.175154
0.03491481 0.016138949 1.1752223
0.043817986 0.018299323 1.1760001
0.054343391 0.019260952 1.177
0.063973874 0.019604897 1.177
0.075324073 0.019604897 1.177
0.081515096 0.019604897 1.177
0.17850775 0.019604897 1.177
0.18538666 0.019604897 1.177
0.19472258 0.018658096 1.1752224
0.20470715 0.018267423 1.1755456
0.21479012 0.01882269 1.1765001
0.22459646 0.019604897 1.177
0.23422691 0.019604897 1.177
0.24499676 0.018766101 1.1762002
0.25568911 0.018160325 1.177
0.2647275 0.016823914 1.1750001
0.27091193 0.018543255 1.1750001
-0.17923275 0.022663586 1.1750001
0.046274852 0.021594932 1.1730001
0.055345058 0.022393793 1.1745001
0.06489525 0.022660078 1.1750001
0.075174756 0.023168109 1.1746669
0.085668303 0.02317483 1.1750002
0.094972983 0.024101846 1.1750002
0.10455258 0.026265372 1.1750001
0.11478912 0.025907109 1.1743336
0.12484544 0.025256718 1.1746473
0.13471159 0.024817299 1.1748002
0.14515932 0.025735138 1.1743335
0.15573435 0.025480978 1.1745001
0.1653868 0.023814278 1.1738573
0.175276 0.0233921 1.1738001
0.18525544 0.02264167 1.1740001
0.19435437 0.02159493 1.1730001
0.20498045 0.021937707 1.1730002
0.21673883 0.02385195 1.1737275
0.22480665 0.02367425 1.1742309
0.23469594 0.022439685 1.1742002
0.24577086 0.022182548 1.1730002
0.25579709 0.022880342 1.1730002
0.26513776 0.023480201 1.1730002
0.27263314 0.027014483 1.1762002
0.26839414 0.031878229 1.1730001
0.27368551 0.035034757 1.1754
0.26930937 0.042305302 1.177
0.27320442 0.041239277 1.1760001
0.26594999 0.099173494 1.1743335
0.27250746 0.098719679 1.1730001
0.2664718 0.10240979 1.177
0.27332261 0.10468647 1.175154
0.27526456 0.11082864 1.1760001
0.036052916 0.32756475 1.1750001
0.034439724 0.33559495 1.1752859
0.036076061 0.34325272 1.1758001
0.041299641 0.34671706 1.1735716
0.044442754 0.35422209 1.1748463
0.050388169 0.35477385 1.1730001
0.046260674 0.36389437 1.177
0.30298328 -0.46124616 1.1876668
0.29915637 -0.45446754 1.189
0.30471852 -0.45474648 1.1863331
0.29915637 -0.44925573 1.189
0.3061825 -0.44513494 1.1868061
0.31163836 -0.44002092 1.1810001
0.30697399 -0.43544456 1.1889999
0.31242186 -0.43454 1.183
0.30957994 -0.42528152 1.189
0.31345838 -0.42452958 1.185842
0.31580794 -0.41476813 1.1854444
0.31625581 -0.4048003 1.1851737
0.30957994 -0.39088374 1.189
0.31628335 -0.39515117 1.1866771
0.32287923 -0.39298674 1.1810001
0.30957994 -0.38879904 1.189
0.31664681 -0.38523471 1.1867597
0.32199177 -0.38721842 1.1810001
0.31794766 -0.37509176 1.1862631
0.3216106 -0.37185866 1.1842
0.3172147 -0.36535731 1.1881112
0.32298565 -0.36493441 1.1843599
0.31661299 -0.35447535 1.1886667
0.32302177 -0.35493347 1.1844544
0.31699222 -0.34548333 1.189
0.32220045 -0.34506884 1.1855999
0.31732315 -0.33370301 1.189
0.32274181 -0.33455238 1.184818
0.31791878 -0.3246941 1.189
0.32269546 -0.32452518 1.1845198
0.32425541 -0.31542224 1.1858331
0.31791878 -0.30749524 1.189
0.32329318 -0.30500156 1.1857998
0.32397905 -0.29517034 1.1868459
0.32483584 -0.28523836 1.1859089
0.33441588 -0.28471941 1.1810001
0.3250896 -0.27521726 1.1852666
0.3251186 -0.26490501 1.1866469
0.32605848 -0.25537881 1.1870798
0.33027452 -0.25365913 1.1810001
0.32663685 -0.24509624 1.1874443
0.32616678 -0.23492992 1.1865237
0.33234519 -0.23295225 1.1810001
0.32576087 -0.22529948 1.1862172
0.33027452 -0.2246695 1.1810001
0.32497481 -0.21546179 1.1860368
0.33027452 -0.21845745 1.1810001
0.32580161 -0.20534566 1.1865999
0.32375056 -0.19481997 1.1860907
0.32226843 -0.1848034 1.1860526
0.32244951 -0.17520115 1.1856666
0.31891993 -0.1641348 1.1850001
0.32161152 -0.16520371 1.1842
0.31834885 -0.1550872 1.1872858
0.32128957 -0.15500982 1.1844286
0.31789404 -0.14456341 1.1863332
0.32166275 -0.14753102 1.1823335
0.31805301 -0.13487014 1.185842
0.32199177 -0.13355929 1.1810001
0.31808805 -0.12570052 1.18625
0.32235298 -0.12230844 1.1823335
0.31783184 -0.11513609 1.185421
0.32217237 -0.11671589 1.1816669
0.31751028 -0.10522923 1.1842942
0.32199177 -0.10871105 1.1810001
0.31761676 -0.094694555 1.1843998
0.31791878 -0.088600315 1.189
0.32202625 -0.087510325 1.1836667
0.325719 -0.041206665 1.1810001
0.32552299 -0.033976085 1.1842726
0.33372569 -0.031060303 1.1810001
0.31791878 -0.021889489 1.189
0.32491332 -0.024840808 1.1870868
0.33452773 -0.024856657 1.1813999
0.34062797 -0.02174221 1.1810001
-0.1803277 -0.011465923 1.189
-0.17511591 -0.011465923 1.189
-0.16406694 -0.011882866 1.189
-0.15579222 -0.013229912 1.189
-0.14488758 -0.012508279 1.189
-0.1350712 -0.013387308 1.1886923
-0.12543026 -0.011465923 1.189
-0.11153216 -0.011465923 1.189
-0.10527802 -0.011465923 1.189
-0.094787829 -0.011458208 1.1882001
-0.084430888 -0.011465923 1.189
-0.075049683 -0.011465923 1.189
-0.068795539 -0.011465923 1.189
0.32466298 -0.015609049 1.1869999
0.3349579 -0.015553433 1.1829197
0.34181118 -0.017600836 1.1810001
-0.19430757 -0.0037402213 1.1889999
-0.1846282 -0.0053078821 1.1872855
-0.17514668 -0.0051084151 1.1853635
-0.16508907 -0.0051992987 1.1843599
-0.15491611 -0.0061213253 1.1827999
-0.14448336 -0.0075905174 1.1843848
-0.13506936 -0.007612389 1.1836668
-0.12545465 -0.0050252001 1.1843331
-0.11502934 -0.0046336609 1.1849999
-0.10492001 -0.0059780735 1.1827142
-0.094409205 -0.0063838405 1.1820525
-0.084828377 -0.0064191073 1.1842941
-0.075385362 -0.0051945546 1.1836085
-0.065401688 -0.0051983171 1.1841999
-0.055222195 -0.0044067521 1.1842381
-0.045014102 -0.003813792 1.1849999
-0.034540925 -0.0036124336 1.1854706
-0.0249587 -0.0031229788 1.1863334
-0.017958298 -0.0028651655 1.1875001
0.0072964965 -0.0010423567 1.189
0.32571486 -0.00537762 1.1876664
0.33446729 -0.0056068096 1.1855998
-0.20117484 0.0052117831 1.189
-0.19461077 0.0048050098 1.187095
-0.18707803 0.0044880463 1.1818889
-0.11906448 0.0010353433 1.1810001
-0.051767167 0.0010353433 1.1810001
-0.04348442 0.0010353433 1.1810001
-0.034166329 0.0010353433 1.1810001
-0.024404522 0.0019227804 1.1810001
-0.014456801 0.0040848032 1.1831175
-0.0051931278 0.0051866756 1.1846799
0.0051962137 0.0051894803 1.1853198
0.015596918 0.0051927064 1.1861198
0.024814302 0.0066825794 1.1864287
0.033575237 0.0085876072 1.1875
0.045603104 0.0085994415 1.189
0.055227019 0.0083356965 1.1886001
0.065668471 0.0093812095 1.189
0.075049683 0.0093812095 1.189
0.084430888 0.0093812095 1.189
0.094854459 0.0093812095 1.189
0.1011086 0.0093812095 1.189
0.16990414 0.0093812095 1.189
0.17511591 0.0093812095 1.189
0.18519203 0.0093812095 1.189
0.19492069 0.0093812095 1.189
0.2062377 0.0087855766 1.189
0.21460967 0.0079913996 1.189
0.23869967 0.0093812095 1.189
0.24495383 0.0093812095 1.189
0.25651449 0.0076755346 1.189
0.26246539 0.0077134394 1.189
0.31722388 0.008686305 1.189
0.32428268 0.0049923398 1.1889998
0.33209485 0.0018762421 1.189
-0.18946783 0.012424121 1.1810001
-0.0044864877 0.011388776 1.1810001
0.0051767165 0.011388777 1.1810001
0.01604782 0.012165285 1.1810001
0.024848239 0.012424121 1.1810001
0.034194384 0.012317655 1.1818889
0.045094855 0.013862619 1.1824999
0.05507059 0.014351077 1.1828947
0.065572128 0.01476937 1.1836665
0.07558772 0.015375855 1.1840907
0.085008353 0.015147048 1.1839999
0.094459608 0.015563954 1.1840397
0.10443586 0.016590362 1.1868947
0.11564063 0.017076796 1.1871176
0.12533431 0.017061945 1.1861765
0.13464928 0.016406916 1.1865554
0.14451385 0.016821617 1.1877367
0.15528475 0.016167089 1.1866361
0.16528867 0.015586257 1.1857998
0.17520306 0.015577266 1.1849998
0.18491356 0.015057363 1.1849999
0.19475178 0.013867164 1.1849999
0.20523755 0.013188102 1.1856155
0.21525718 0.01375797 1.18475
0.22528298 0.015236078 1.1854444
0.23524052 0.014738679 1.1859089
0.24512658 0.013771322 1.1844667
0.2550343 0.013354148 1.1842
0.26154503 0.012091864 1.1823335
0.27699247 0.019067792 1.1863333
0.28317353 0.017951697 1.189
0.30957994 0.019804776 1.189
0.31479168 0.015635349 1.1889999
0.32167128 0.012299808 1.189
0.09732227 0.02174221 1.1810001
0.10518879 0.022695243 1.1827779
0.11408927 0.022344355 1.1815716
0.12389608 0.02174221 1.1810001
0.14494807 0.02174221 1.1810001
0.15426615 0.02174221 1.1810001
0.27737495 0.024487179 1.1850001
0.28512877 0.024941767 1.1881577
0.29478797 0.025623037 1.1882
0.30486035 0.025072303 1.1887646
0.31166464 0.023974203 1.189
0.27828187 0.033358395 1.1818001
0.28531057 0.034083333 1.1841666
0.29447627 0.033685401 1.1854707
0.30177495 0.031216346 1.187
0.27813157 0.041806772 1.1823335
0.28379044 0.041184925 1.1843334
0.26606125 0.1059921 1.1842728
0.27125996 0.10871105 1.1810001
0.26824802 0.11380681 1.1885556
0.27329272 0.11556998 1.1847335
0.036237016 0.32613316 1.1810001
0.02800161 0.33809525 1.1830001
0.030024957 0.33752191 1.1810001
0.026663816 0.34524447 1.1850001
0.032106943 0.3458201 1.1814445
0.026362536 0.35398233 1.1870002
0.033969235 0.35454398 1.1840907
0.041413732 0.3582288 1.1810001
0.028143629 0.36169776 1.189
0.03530664 0.36443257 1.1864736
0.041827872 0.36485496 1.181
0.036456533 0.37187093 1.1882
0.042161532 0.37461439 1.185889
0.29710573 -0.46458784 1.1956668
0.30016276 -0.46331748 1.1930001
0.29517806 -0.45480722 1.1940002
0.29583493 -0.44513887 1.1944119
0.30076042 -0.44359547 1.193
0.29761133 -0.43603486 1.1962
0.30249283 -0.43414414 1.1933076
0.29872069 -0.42429528 1.197
0.30456251 -0.42555091 1.193167
0.31062141 -0.42148292 1.1930001
0.29802108 -0.4165999 1.197
0.30491057 -0.41491371 1.1946554
0.31166726 -0.41520771 1.193
0.30590189 -0.40438139 1.1950002
0.31140581 -0.40553349 1.193
0.30724582 -0.39544016 1.1955715
0.31062141 -0.39638221 1.1930001
0.30956414 -0.38564348 1.197
0.31166619 -0.38415095 1.194
0.30956414 -0.37147698 1.197
0.31306028 -0.37518495 1.1943333
0.30956414 -0.36518076 1.197
0.31340921 -0.3647739 1.1940668
0.30851477 -0.3557364 1.1970001
0.31239134 -0.35470855 1.193
0.30903944 -0.34786618 1.197
0.3131308 -0.3445338 1.1940666
0.31408533 -0.33581159 1.1942501
0.31564352 -0.32486024 1.1945999
0.3155368 -0.31470153 1.1938002
0.32108003 -0.31689659 1.1930001
0.31579024 -0.30458507 1.1939414
0.31628424 -0.29459611 1.1948825
0.31696206 -0.28541982 1.1946473
0.32108003 -0.2855207 1.1930001
0.31751129 -0.27439752 1.1946665
0.32200968 -0.27459723 1.193
0.31765112 -0.26540974 1.1952858
0.32167765 -0.26549989 1.193
0.31834504 -0.2552003 1.1955001
0.32125828 -0.25463542 1.1936666
0.31816092 -0.2448025 1.1954
0.32193792 -0.24566199 1.1933637
0.31770918 -0.23515901 1.1954615
0.3218644 -0.23610365 1.193
0.3184737 -0.22523758 1.1950001
0.32108003 -0.22590648 1.1930001
0.31847373 -0.21580727 1.1950001
0.3207393 -0.21289499 1.1943334
0.31841651 -0.20478806 1.1952224
0.32197648 -0.20454098 1.193
0.31829476 -0.19525811 1.1938888
0.32108003 -0.19871403 1.1930001
0.31754369 -0.18579203 1.1942308
0.31742343 -0.17456952 1.1944286
0.31557399 -0.16403818 1.1948668
0.31431299 -0.15429123 1.1953532
0.31385425 -0.14545009 1.195182
0.31428322 -0.13514253 1.1950001
0.31441364 -0.12382719 1.1945
0.31364262 -0.11547931 1.193889
0.31480637 -0.10598134 1.194
0.3134982 -0.094034918 1.1939999
-0.18363975 -0.022876266 1.197
-0.17524479 -0.02203677 1.197
-0.1640515 -0.02238656 1.197
-0.15399505 -0.022823799 1.197
-0.14481306 -0.023086142 1.197
-0.13711768 -0.02273635 1.197
-0.11018385 -0.02203677 1.197
-0.10808511 -0.02203677 1.197
0.32108003 -0.02823831 1.1930001
-0.20413294 -0.01273133 1.1958572
-0.19526815 -0.014237013 1.1948824
-0.18549989 -0.015883593 1.1943338
-0.17477193 -0.016073985 1.1943916
-0.16491415 -0.01717622 1.1937059
-0.15436944 -0.018198023 1.193
-0.14537501 -0.017779676 1.1930001
-0.13436699 -0.01814992 1.1943334
-0.12447643 -0.016118266 1.1950955
-0.11487836 -0.016216032 1.1949049
-0.10555115 -0.016332041 1.1948825
-0.095884383 -0.01519687 1.1953335
-0.084892452 -0.012840318 1.1955001
-0.074133761 -0.014549257 1.1947778
-0.0648707 -0.01339498 1.1956668
-0.055373851 -0.01286811 1.1959091
-0.046288878 -0.012709038 1.197
-0.034862407 -0.012475844 1.197
-0.025814503 -0.011962818 1.197
-0.01783929 -0.01154307 1.197
0.31675878 -0.014723967 1.1940668
-0.21057096 -0.0057662749 1.1950001
-0.20505865 -0.0052324729 1.1934001
-0.1968838 -0.0083669061 1.193
-0.18930127 -0.0094127702 1.1930001
-0.12027428 -0.0094127702 1.1930001
-0.11713669 -0.0094127702 1.1930001
-0.054384891 -0.0094127702 1.1930001
-0.044075668 -0.0088151339 1.193
-0.033990558 -0.0086283721 1.193
-0.025120007 -0.0083747972 1.194
-0.014874403 -0.0059384811 1.1948667
-0.0056120586 -0.0036408994 1.1958238
0.0050884238 -0.0032955154 1.1952858
0.015364458 -0.0026210872 1.1950001
0.024712104 -0.0019478282 1.1958572
0.034629211 -0.00104937 1.197
0.047221649 -0.00104937 1.197
0.20882463 -0.00104937 1.197
0.21302211 -0.00104937 1.197
0.25394753 -0.00104937 1.197
0.30624714 -0.0017483655 1.1963334
0.31550369 -0.0050643566 1.1950003
0.32108003 -0.0052293167 1.1930001
-0.20342042 0.0015687949 1.1930001
-0.1997599 0.0031375899 1.1930001
0.025449341 0.0017431056 1.193
0.034931511 0.0036320295 1.1946472
0.0446917 0.0036338861 1.1953533
0.055567984 0.0031434344 1.1959336
0.065006584 0.0041913432 1.1960002
0.074422278 0.0052386676 1.1956668
0.084768414 0.0053897467 1.1958572
0.095386304 0.0052386676 1.1956668
0.10451084 0.007339356 1.1961111
0.11438133 0.0094443299 1.197
0.12487502 0.0094443299 1.197
0.13606833 0.00909454 1.197
0.14526279 0.0085448707 1.1969999
0.15410134 0.0083854925 1.1958001
0.16493735 0.0076525579 1.1948463
0.17509034 0.0065240855 1.1948464
0.18585996 0.0062882048 1.1958574
0.19587325 0.0059972773 1.1948184
0.20509738 0.0041202749 1.1956669
0.21446726 0.0031410963 1.1951541
0.22533213 0.0074789682 1.1947143
0.23562711 0.0064630443 1.1939412
0.24565567 0.0053809802 1.1938571
0.25421017 0.0032890027 1.1947145
0.29749641 0.0068209055 1.197
0.30508125 0.0052413796 1.1958804
0.31456679 0.0047559966 1.1939093
0.32108003 0.0031375901 1.1930001
0.10772392 0.012550361 1.193
0.11536119 0.0127163 1.1947143
0.12480637 0.011853117 1.193
0.13491638 0.011504496 1.1930001
0.14615348 0.011859547 1.1936666
0.15374191 0.011504496 1.1930001
0.22486061 0.011504496 1.1930001
0.28865826 0.017082434 1.193
0.29542184 0.015820237 1.1954004
0.30454808 0.015696786 1.1938003
0.31241432 0.014492677 1.193
0.32108003 0.01568795 1.1930001
0.29597929 0.021963129 1.1930001
0.30574071 0.022660375 1.1930001
0.30748382 0.030330036 1.1930001
0.26355755 0.10563219 1.1930001
0.26560962 0.11461671 1.194
0.26893812 0.12215079 1.1960001
0.27387488 0.12423044 1.1944546
0.2801818 0.12487503 1.197
0.025727345 0.36568776 1.1952224
0.030330038 0.36709806 1.1930001
0.026467446 0.37252635 1.197
0.033647094 0.37597451 1.1941429
0.035071056 0.38467693 1.1970003
0.04082286 0.38520294 1.194
0.038302004 0.39298907 1.197
0.040925428 0.39246437 1.197
0.2776621 -0.47502708 1.2052001
0.28448626 -0.47353375 1.2047272
0.29261819 -0.47352231 1.205
0.27805936 -0.46625164 1.2060001
0.28511661 -0.46529889 1.205619
0.29265761 -0.46544304 1.2029999
0.28706154 -0.45577845 1.2053334
0.29150859 -0.45431671 1.2033334
0.2877754 -0.44535539 1.2056365
0.292099 -0.4443579 1.2035384
0.28769219 -0.4347688 1.2060002
0.29403839 -0.43461075 1.2044346
0.28863198 -0.42501852 1.2060001
0.29447466 -0.4251923 1.2043998
0.29500166 -0.41511804 1.2045
0.3010222 -0.41272005 1.202
0.29697502 -0.40604413 1.205
0.30163237 -0.40492761 1.2023333
0.29841164 -0.3951509 1.2060002
0.30400556 -0.39399582 1.2042856
0.29920459 -0.38695717 1.2060001
0.30556113 -0.38475356 1.2043999
0.31085724 -0.38251245 1.202
0.30616531 -0.37502012 1.2053684
0.31085724 -0.3772437 1.202
0.30507967 -0.36498502 1.2045454
0.3050327 -0.35542148 1.2045715
0.30679941 -0.34607407 1.2050588
0.31085724 -0.34246981 1.202
0.30917305 -0.33605766 1.2060002
0.3119027 -0.33421215 1.2037143
0.30823937 -0.32400209 1.2060002
0.31274697 -0.32583314 1.2036002
0.30808559 -0.31464052 1.2060002
0.31160718 -0.31612325 1.2025715
0.30924854 -0.30607677 1.2060001
0.3131986 -0.30491883 1.2041539
0.30907235 -0.29673764 1.2060002
0.31274068 -0.29477915 1.2052001
0.30977717 -0.28863198 1.2060001
0.31363174 -0.28391451 1.2045716
0.30977717 -0.27594486 1.2060001
0.31401125 -0.27527034 1.2037144
0.30977717 -0.26748678 1.2060001
0.31466034 -0.2651276 1.2041539
0.30977717 -0.25268513 1.2060001
0.31499341 -0.25443238 1.2049334
0.30977717 -0.24634159 1.2060001
0.31444639 -0.24556331 1.2034118
0.31400925 -0.23531617 1.2043999
0.31479958 -0.22500965 1.2049999
0.31562302 -0.21549033 1.2045882
0.31574506 -0.20552024 1.2039999
0.31465414 -0.195575 1.2044444
0.31471431 -0.1846946 1.2038667
0.30935428 -0.17275627 1.2060001
0.31368366 -0.17426878 1.2047694
0.30872416 -0.16500695 1.2054287
0.31261137 -0.16573538 1.2024444
0.30942476 -0.15576965 1.2060002
0.31120849 -0.15560424 1.202
0.30977717 -0.14590189 1.2060001
0.3122941 -0.14387415 1.2045001
0.30977717 -0.13321477 1.2060001
0.31253237 -0.13409248 1.2044001
0.30977717 -0.12369943 1.2060001
0.31285357 -0.12531109 1.2032001
0.30977717 -0.11524133 1.2060001
0.31213871 -0.1145182 1.2033334
0.30977717 -0.10466874 1.2060001
0.31333241 -0.10419259 1.2039999
0.30871993 -0.098325178 1.2060001
0.31242824 -0.098162115 1.204
-0.19136406 -0.03066054 1.2060001
-0.18411425 -0.031264689 1.2060002
-0.17491779 -0.031600326 1.2060002
-0.16493255 -0.03066054 1.2060001
-0.15488859 -0.031453483 1.2060002
-0.14531451 -0.031600326 1.2060002
-0.13638656 -0.03066054 1.2060001
-0.21145201 -0.020087941 1.2060001
-0.20423177 -0.021401187 1.2055001
-0.19535781 -0.024098925 1.2045451
-0.18501623 -0.026390174 1.2040001
-0.17500409 -0.026019603 1.2019999
-0.16585682 -0.026514659 1.2028571
-0.15520799 -0.026894378 1.2029999
-0.14441085 -0.027407056 1.2024
-0.13464437 -0.025817515 1.2041818
-0.12454902 -0.023978086 1.2040001
-0.11552537 -0.024681671 1.2030666
-0.1041445 -0.023513954 1.2034285
-0.095072456 -0.022185221 1.2050002
-0.086483873 -0.020510845 1.2060001
-0.07453683 -0.020087941 1.2060001
-0.064492859 -0.020087941 1.2060001
-0.054977521 -0.020087941 1.2060001
-0.04546218 -0.020087941 1.2060001
-0.034889579 -0.020087941 1.2060001
-0.22096734 -0.01162986 1.2060001
-0.21362525 -0.014618418 1.2053335
-0.20579281 -0.016281258 1.2024444
-0.19915938 -0.017913807 1.202
-0.093784042 -0.017913807 1.202
-0.085496038 -0.016889861 1.2040002
-0.075254239 -0.017582426 1.2033334
-0.06380555 -0.017138395 1.2030001
-0.054945707 -0.017010588 1.202
-0.044365868 -0.016386494 1.2023635
-0.034612555 -0.016588924 1.2030908
-0.023969319 -0.015981885 1.2037144
-0.015193684 -0.014562836 1.2036002
-0.0060700402 -0.01240834 1.2045001
-0.21568105 -0.0095153395 1.2060001
-0.01264504 -0.0094837798 1.202
-0.0044784518 -0.008693465 1.202
0.0052775331 -0.0084458068 1.2039999
0.014982934 -0.007810398 1.2036
0.024114594 -0.0067843976 1.2034285
0.034332015 -0.0049528969 1.2035384
0.045214709 -0.0033180579 1.2034285
0.054855954 -0.0031671042 1.2033334
0.064350262 -0.0031671044 1.2033331
0.074607693 -0.002843502 1.2038461
0.08572077 -0.0026419812 1.2046667
0.094783083 -0.0027464214 1.204
0.10371493 -0.0016609075 1.2054287
0.13638656 -0.00105726 1.2060001
0.14519703 -0.0014096798 1.2060002
0.15541723 -0.00105726 1.2060001
0.16651845 -0.00158589 1.2060001
0.17444789 -0.0021145199 1.2060002
0.18572535 -0.0022319932 1.2060002
0.19555828 -0.003019741 1.2048572
0.20509481 -0.0031674642 1.2035383
0.21518347 -0.0040140813 1.2044002
0.22208948 -0.0023252706 1.2052
0.23629761 -0.00105726 1.2060001
0.24611497 -0.0031715101 1.2056925
0.25236955 -0.0051022 1.2036667
0.30874974 -0.0063225199 1.202
0.31085724 -0.0052687661 1.202
0.07481648 0.0010537533 1.202
0.085705273 0.0014050044 1.202
0.0948378 0.0010537533 1.202
0.10556772 0.002779033 1.2030908
0.11508951 0.0042202733 1.2043999
0.12511097 0.0048552132 1.2046667
0.13421002 0.0040513999 1.2034736
0.14426164 0.0034249178 1.2022499
0.15503965 0.003162195 1.2030666
0.1645795 0.0027787143 1.2027272
0.17427562 0.0018449449 1.2030001
0.18400668 0.0019908126 1.2024444
0.1952078 0.0018440683 1.202
0.20232064 0.0010537533 1.202
0.2253973 0.0023228158 1.2048
0.2344873 0.0018453832 1.2035002
0.24552453 0.0010537533 1.202
0.29715845 0.0073762732 1.202
0.29294342 0.011591286 1.202
0.26449209 0.10853659 1.202
0.26493216 0.11294273 1.204
0.26889646 0.12581395 1.2060001
0.27521124 0.12758902 1.2028
0.28135213 0.12750416 1.202
0.27453518 0.1321575 1.2060002
0.28123116 0.13004299 1.2060001
0.022333164 0.3762272 1.2027272
0.025714606 0.38417751 1.2034999
0.031963851 0.38813248 1.202
0.02747298 0.3930839 1.2053335
0.033576835 0.39510134 1.2022856
0.033832319 0.40070152 1.2060001
0.25701192 -0.49104774 1.2190001
0.26182088 -0.49051341 1.2190001
0.25840122 -0.48666626 1.2190001
0.26537475 -0.48443398 1.2167368
0.27440065 -0.48384571 1.2147778
0.25754628 -0.4789719 1.2190001
0.26673737 -0.47667038 1.2176111
0.27300173 -0.47480115 1.2123126
0.29807544 -0.47522348 1.21
0.30019698 -0.47522348 1.21
0.26823282 -0.46914026 1.2190001
0.27421752 -0.46491197 1.2143
0.28181034 -0.46214068 1.21
0.27636668 -0.45508671 1.2152501
0.28245324 -0.45468321 1.21
0.27749887 -0.44539618 1.2166471
0.28322467 -0.44446123 1.2100002
0.27853516 -0.43505809 1.2173332
0.28362256 -0.43494362 1.2103077
0.27864042 -0.42506373 1.2170769
0.28453392 -0.42493248 1.2108693
0.29171082 -0.42112437 1.21
0.28529364 -0.41517586 1.2143333
0.29171082 -0.41475973 1.21
0.28609154 -0.40513724 1.215
0.29340807 -0.40478855 1.21
0.2869342 -0.39512172 1.2158501
0.2936565 -0.39506584 1.2109524
0.28853729 -0.38471639 1.219
0.29442912 -0.38543618 1.2117499
0.3010456 -0.38251245 1.21
0.28889349 -0.37866068 1.2190001
0.29425961 -0.37496483 1.2124616
0.30137557 -0.37562931 1.21
0.29441091 -0.36470073 1.2131737
0.30062127 -0.36554021 1.21
0.29605022 -0.35500631 1.2138999
0.30113989 -0.35488537 1.21
0.29701629 -0.34544411 1.2164118
0.30260134 -0.34390056 1.2100002
0.29830614 -0.33532512 1.2181667
0.30354062 -0.33487388 1.2129613
0.29815522 -0.32594028 1.2190001
0.30317986 -0.32551637 1.2130909
0.29875895 -0.31296679 1.2156668
0.30309579 -0.3154012 1.2117894
0.29860801 -0.30713972 1.2165
0.30435812 -0.30475521 1.2125186
0.31080464 -0.30762231 1.21
0.30586064 -0.2944366 1.2124999
0.31080464 -0.29171082 1.21
0.30592117 -0.28525025 1.2139049
0.31080464 -0.28428549 1.21
0.3074047 -0.27607906 1.2148236
0.31080464 -0.27420819 1.21
0.3080878 -0.2646645 1.216643
0.31231999 -0.26413086 1.21
0.30536544 -0.25457403 1.2140911
0.31250185 -0.25903922 1.21
0.30676213 -0.24521908 1.2146
0.31080464 -0.2418548 1.21
0.30790931 -0.23468226 1.2146924
0.31115821 -0.23442943 1.21
0.30622554 -0.22500306 1.2138333
0.31080464 -0.22488253 1.21
0.30695719 -0.21552134 1.214389
0.31160021 -0.21454006 1.21
0.30764776 -0.20498283 1.2148666
0.31174752 -0.20519942 1.21
0.30645666 -0.19506133 1.2144737
0.31122893 -0.19539322 1.21
0.30657429 -0.18522376 1.2142777
0.31160018 -0.18483859 1.21
0.30665141 -0.17585759 1.2130001
0.31186539 -0.17926957 1.21
0.30663076 -0.16457458 1.2145001
0.30651343 -0.15450208 1.2154443
0.30664709 -0.14503205 1.2138234
0.31080464 -0.14108196 1.21
0.30656797 -0.13519055 1.21425
0.31080464 -0.13542454 1.21
0.30606094 -0.12485522 1.2151999
0.31080464 -0.12835276 1.21
0.30588412 -0.11516968 1.213762
0.30570045 -0.10558629 1.21165
-0.20304477 -0.041677609 1.2190001
-0.19532613 -0.042694978 1.2175
-0.18515952 -0.042215008 1.2168572
-0.17525971 -0.041677609 1.2190001
-0.16528556 -0.042033833 1.219
-0.15471774 -0.042627528 1.219
-0.1459785 -0.042105071 1.2190001
-0.13785671 -0.041677609 1.2190001
-0.22121193 -0.030991044 1.2190001
-0.21366911 -0.033299547 1.2180909
-0.20471522 -0.034946565 1.2147143
-0.1954625 -0.035503246 1.2123998
-0.18590254 -0.036283791 1.2109411
-0.17518325 -0.03695561 1.2129374
-0.16475986 -0.036145404 1.2124999
-0.1545814 -0.037072185 1.2127334
-0.14469627 -0.036747176 1.2123572
-0.13500161 -0.035516649 1.2134763
-0.12479188 -0.034243751 1.214474
-0.11527823 -0.032695822 1.215
-0.1059126 -0.031547226 1.2168572
-0.095191598 -0.031529065 1.2161429
-0.084356375 -0.030965621 1.2180001
-0.075019702 -0.031418506 1.2190001
-0.06839402 -0.030991044 1.2190001
-0.054501489 -0.030991044 1.2190001
-0.2237642 -0.025628662 1.2179285
-0.21525559 -0.024681443 1.212684
-0.20597659 -0.026533196 1.2106154
-0.19624183 -0.028640701 1.21
-0.13153507 -0.027579933 1.21
-0.12676162 -0.028110318 1.21
-0.1145628 -0.028640701 1.21
-0.10420585 -0.028061599 1.2111429
-0.093776159 -0.026895842 1.2110001
-0.084736407 -0.025371389 1.2120001
-0.075534023 -0.025249254 1.2119046
-0.064874165 -0.025048239 1.2131366
-0.05452244 -0.02572624 1.2144737
-0.045107469 -0.024319947 1.214
-0.034823246 -0.022772236 1.2135333
-0.024370084 -0.023669247 1.2137144
-0.015620447 -0.022726998 1.215
-0.0053432835 -0.021373132 1.219
0.0056486134 -0.022289125 1.219
0.014961194 -0.02244179 1.219
0.023968441 -0.020915138 1.219
0.033840794 -0.020304477 1.2190001
-0.22170024 -0.015911499 1.21
-0.21851794 -0.015911499 1.21
-0.01275024 -0.017002072 1.2120001
-0.0047819247 -0.016475489 1.2123333
0.0053171585 -0.014893075 1.2131001
0.014890566 -0.014894838 1.2133126
0.024488281 -0.014908942 1.2144001
0.035200581 -0.014937742 1.2167499
0.044769607 -0.014926675 1.2158751
0.05404738 -0.014582084 1.2167779
0.065080509 -0.013872665 1.2169999
0.075074024 -0.0137052 1.2166923
0.084315978 -0.0138777 1.2174615
0.094194449 -0.012365885 1.219
0.10259104 -0.011755223 1.2190001
0.16742288 -0.012467661 1.219
0.17498848 -0.0128058 1.2171249
0.1848776 -0.011755223 1.2190001
0.19633712 -0.013032789 1.2184999
0.20531209 -0.013460253 1.2184999
0.21493377 -0.013346153 1.21775
0.22393021 -0.013236001 1.2175
0.2354607 -0.013180098 1.219
0.24350606 -0.013842332 1.2143999
-0.2195787 -0.0095469002 1.21
0.027579933 -0.0095469002 1.21
0.035950597 -0.0089497641 1.2111429
0.045641016 -0.0084924456 1.2107999
0.055159867 -0.0084861331 1.21
0.064706773 -0.008486134 1.21
0.075732015 -0.0079636397 1.211
0.084576242 -0.0078647528 1.212
0.094601907 -0.0077695581 1.2124616
0.10507926 -0.0063195974 1.214
0.11496516 -0.0045477776 1.214842
0.12506856 -0.00523892 1.215591
0.13486852 -0.0057392865 1.215
0.14484993 -0.006391502 1.2138124
0.15503246 -0.0064013228 1.215889
0.16462138 -0.0062846043 1.21385
0.17537318 -0.0074424315 1.2124001
0.18522218 -0.0068739429 1.2119334
0.19494393 -0.0082937051 1.2125
0.20506635 -0.0085019134 1.2120001
0.21509916 -0.0083787907 1.2113333
0.22562587 -0.0065143458 1.2125626
0.23478957 -0.0059021576 1.2128636
0.24386586 -0.0076047904 1.2103333
0.1241097 0.0010607666 1.21
0.26731318 0.11880587 1.21
0.26736107 0.12519556 1.2168181
0.2704955 0.12623124 1.21
0.25968358 0.13678804 1.2190001
0.26578632 0.13503705 1.2160001
0.27448094 0.13507853 1.2103078
0.28185821 0.13614962 1.2132502
0.28212535 0.14426865 1.2190001
0.017189804 0.38503814 1.2147144
0.020578872 0.38675553 1.21
0.016695533 0.39467505 1.2156667
0.023294205 0.39604768 1.2115999
0.01552516 0.40443712 1.2182307
0.024481708 0.40558434 1.2142859
0.031469408 0.40556645 1.21
0.018167162 0.4114328 1.2190001
0.024792088 0.41564134 1.2184737
0.03159463 0.41464421 1.2148335
0.2391573 -0.49229828 1.2270001
0.24630752 -0.49369445 1.226143
0.25338793 -0.49283776 1.223
0.23987441 -0.48835421 1.2270001
0.24616501 -0.48523986 1.2261997
0.25463879 -0.48569009 1.2229998
0.26053569 -0.48569 1.223
0.24914691 -0.4789651 1.2250001
0.25459775 -0.47466829 1.2249998
0.26344588 -0.47343674 1.2229998
0.25559366 -0.46482682 1.2265294
0.26482436 -0.46531886 1.2229998
0.27125731 -0.46210238 1.223
0.2557964 -0.45529315 1.2264544
0.26477599 -0.45552123 1.2238886
0.27197209 -0.45423985 1.223
0.25780222 -0.44712019 1.2270001
0.26570472 -0.44558388 1.2257825
0.2730718 -0.44445291 1.2229998
0.26738343 -0.4362303 1.22675
0.27340168 -0.43529823 1.2229999
0.2689175 -0.42488971 1.2270001
0.27404061 -0.4248096 1.2238419
0.26945531 -0.41574645 1.2270001
0.27613547 -0.41502509 1.224391
0.28197896 -0.41063854 1.223
0.26999316 -0.40983027 1.2270001
0.27655289 -0.40559745 1.2256665
0.28197896 -0.40420556 1.223
0.27716032 -0.39517716 1.2261578
0.28273019 -0.39410588 1.2237271
0.27644718 -0.38508987 1.2270001
0.28346163 -0.38501078 1.2240525
0.27725393 -0.37729126 1.2270001
0.28452855 -0.37543705 1.2251817
0.29055625 -0.374185 1.223
0.28570512 -0.36518902 1.2251999
0.29091361 -0.36489293 1.223
0.28525099 -0.35524943 1.2256666
0.29162839 -0.35488605 1.2229999
0.28518021 -0.34579208 1.226238
0.29250562 -0.34494415 1.2229999
0.2865833 -0.33458704 1.2258888
0.29377279 -0.33558705 1.2229998
0.28581184 -0.32478902 1.227
0.29443324 -0.32476461 1.2237271
0.28757712 -0.31672886 1.2265557
0.2945115 -0.31521076 1.2233999
0.28899667 -0.3044146 1.2270001
0.29457739 -0.30468693 1.2244997
0.30235004 -0.30127791 1.223
0.28935522 -0.29580924 1.2270001
0.29565951 -0.29478419 1.2251816
0.30235007 -0.2948449 1.2229999
0.29673028 -0.2852287 1.2255882
0.30144095 -0.28499061 1.2236668
0.29703858 -0.2758325 1.2270001
0.30322963 -0.27510914 1.2243998
0.29715383 -0.26649725 1.2270001
0.30226448 -0.26542234 1.2241111
0.2971538 -0.25574052 1.2270001
0.30063015 -0.25504091 1.2252223
0.29796058 -0.24525276 1.2270001
0.30211061 -0.24473789 1.2240664
0.29796058 -0.23557171 1.2270001
0.30254197 -0.23531131 1.2244736
0.29796058 -0.22624926 1.2270001
0.30154452 -0.22470157 1.2247144
0.30268806 -0.21509042 1.2250001
0.30290347 -0.20529307 1.22525
0.30195791 -0.19449989 1.2257693
0.3018955 -0.18510284 1.2248464
0.29796058 -0.17533422 1.2270001
0.30242866 -0.17465812 1.2247777
0.29796058 -0.16457751 1.2270001
0.3022936 -0.1647784 1.2255
0.29796058 -0.15453793 1.2270001
0.30197126 -0.15507498 1.2251539
0.30193245 -0.14505765 1.2256668
0.29796058 -0.13123174 1.2270001
0.30164084 -0.13491786 1.225154
0.29819518 -0.12405308 1.2262001
0.30154473 -0.12594487 1.2240911
0.29796058 -0.11563452 1.2270001
0.30114949 -0.11505651 1.2246667
0.29796058 -0.10864267 1.2270001
0.30069491 -0.10846558 1.2250001
-0.21190698 -0.050556488 1.2270001
-0.20401876 -0.051273599 1.2270001
-0.19375506 -0.053380121 1.227
-0.18525428 -0.054381091 1.2269999
-0.17524953 -0.053758781 1.2263998
-0.1650832 -0.0535549 1.2260588
-0.15524702 -0.052826177 1.2261429
-0.14613746 -0.051171154 1.2270001
-0.13732721 -0.051273603 1.2270001
-0.23288256 -0.042488966 1.2270001
-0.22455917 -0.044964179 1.226294
-0.21511993 -0.044922724 1.2251176
-0.20574765 -0.045769125 1.2247498
-0.19521219 -0.047194909 1.2235
-0.18515435 -0.046432912 1.2229998
-0.17476264 -0.046103019 1.2229998
-0.16521062 -0.046297964 1.2229999
-0.15565862 -0.046882775 1.2229999
-0.14453565 -0.046290006 1.223857
-0.13457574 -0.045116525 1.2252856
-0.12506519 -0.043894902 1.2257694
-0.11509669 -0.043026797 1.2270001
-0.10433998 -0.041951131 1.2270001
-0.096810296 -0.041951131 1.2270001
-0.23338942 -0.035797548 1.2241763
-0.2253236 -0.035607111 1.2229998
-0.21665949 -0.037360769 1.2229998
-0.1318761 -0.039670043 1.223
-0.12544312 -0.039670043 1.223
-0.11437241 -0.038126085 1.225
-0.10434646 -0.037202552 1.2255
-0.094906725 -0.036650691 1.225
-0.08497563 -0.036356058 1.2253157
-0.075086586 -0.035641994 1.2251821
-0.065174527 -0.034738891 1.2254444
-0.055196736 -0.034207687 1.2260588
-0.044870425 -0.033140946 1.2266365
-0.035019033 -0.032389618 1.2270001
-0.025058435 -0.032999147 1.2263848
-0.01721072 -0.0322701 1.2270001
0.00430268 -0.03119443 1.2270001
0.23557173 -0.03119443 1.2270001
-0.23137286 -0.027232949 1.223
-0.22622646 -0.026804084 1.223
-0.045030862 -0.028948409 1.223
-0.035884399 -0.028016418 1.2238889
-0.025195839 -0.028948409 1.223
-0.014262991 -0.027148988 1.2247144
-0.0051917662 -0.026320308 1.2253333
0.0049750837 -0.027609663 1.2240909
0.014578843 -0.027776184 1.2252858
0.024484903 -0.024683665 1.2240909
0.035796639 -0.023091255 1.225
0.045104496 -0.021480089 1.2250001
0.054789037 -0.02148675 1.2254002
0.065531716 -0.02148675 1.2254002
0.075237282 -0.021496745 1.2260001
0.084977932 -0.02043773 1.2270001
0.095734626 -0.02043773 1.2270001
0.10218865 -0.02043773 1.2270001
0.16888019 -0.02043773 1.2270001
0.17103153 -0.02043773 1.2270001
0.1968476 -0.02043773 1.2270001
0.20475736 -0.021776481 1.2251819
0.21534002 -0.021356868 1.2247778
0.22510976 -0.022386415 1.2256666
0.23519123 -0.023604617 1.2267894
0.24202575 -0.02043773 1.2270001
0.057896823 -0.018226776 1.223
0.065401964 -0.018226776 1.223
0.075051434 -0.018226776 1.223
0.085464187 -0.017879324 1.2236668
0.095704086 -0.016281014 1.2243333
0.10496205 -0.015500844 1.2252858
0.11445591 -0.0136379 1.2254616
0.12514739 -0.012767093 1.2247778
0.13520788 -0.013791573 1.2256669
0.14489983 -0.013955658 1.2243332
0.15575616 -0.014223041 1.2242498
0.16441232 -0.01610538 1.2245386
0.17417021 -0.016908929 1.2245002
0.1853137 -0.015322461 1.2244546
0.19440082 -0.016952103 1.2237999
0.2047832 -0.017614111 1.2230002
0.21496876 -0.017422652 1.223
0.22643887 -0.01701848 1.2241429
0.23394604 -0.01694018 1.2229999
0.24123675 -0.018226776 1.223
0.1082885 -0.0096494695 1.223
0.11472148 -0.0096494695 1.223
0.12329878 -0.0085773058 1.223
0.13830908 -0.0096494695 1.223
0.15117502 -0.0096494695 1.223
0.2641091 0.12586483 1.2243333
0.26577479 0.13472803 1.2238572
0.27170092 0.13746309 1.2250001
0.26590526 0.1418153 1.2255002
0.27660459 0.14465278 1.2255454
0.2827456 0.14539471 1.2240001
0.27859852 0.15166947 1.2270001
0.28159496 0.15262154 1.2260002
0.013938123 0.38919529 1.223
0.013938123 0.39884475 1.223
0.013938123 0.40849423 1.223
0.015509429 0.41510174 1.2240909
0.020371104 0.41921586 1.223
0.01721072 0.42166263 1.2270001
0.024552034 0.42549947 1.2244998
0.026891749 0.43134367 1.2270001
0.21795036 -0.49549648 1.2360001
0.2248068 -0.49544182 1.2360001
0.23462103 -0.49492347 1.2343638
0.24193195 -0.49790457 1.2320001
0.21942089 -0.48706019 1.2360001
0.2246303 -0.48485142 1.2360001
0.2371929 -0.48426566 1.2347502
0.24270341 -0.48247525 1.2320002
0.22429691 -0.47784996 1.2360001
0.238538 -0.47413489 1.2360001
0.24523401 -0.47518626 1.2337393
0.25165242 -0.47198331 1.2320001
0.2383832 -0.46918148 1.2360001
0.24561365 -0.4650493 1.2342402
0.25165242 -0.46766308 1.2320001
0.24797891 -0.45592248 1.2343335
0.25176814 -0.45367697 1.2325716
0.24813524 -0.44967741 1.2360001
0.25465465 -0.44475704 1.2340955
0.26101288 -0.44246185 1.2320001
0.25776687 -0.4352299 1.2360001
0.26307017 -0.4345648 1.233778
0.25824848 -0.42475554 1.2360001
0.26415023 -0.42459187 1.2337779
0.25897083 -0.41717058 1.2360001
0.26577449 -0.41478992 1.2344002
0.2710934 -0.41798064 1.2320001
0.26757213 -0.40539926 1.2356924
0.27205342 -0.40453994 1.2320002
0.2677941 -0.3956542 1.2360001
0.27217343 -0.39529952 1.2320002
0.26884329 -0.38514537 1.2360001
0.27215526 -0.38510182 1.2323638
0.26980644 -0.37816244 1.2360001
0.27519765 -0.37450686 1.2341055
0.28189391 -0.37153834 1.2320001
0.27700785 -0.3652513 1.2345884
0.28189391 -0.365058 1.2320001
0.27750313 -0.35563472 1.2335001
0.28189391 -0.35317743 1.2320001
0.27730626 -0.34614685 1.2346668
0.28215343 -0.34207633 1.233143
0.27847493 -0.33590358 1.2360001
0.28213343 -0.33492628 1.2340001
0.28157622 -0.32356644 1.2344002
0.28530458 -0.31560832 1.2345002
0.28542203 -0.30549416 1.2337779
0.28721878 -0.29551029 1.2340001
0.2912544 -0.29125437 1.2320001
0.28931051 -0.28064203 1.2360001
0.29253414 -0.28486598 1.2338183
0.28931051 -0.27522424 1.2360001
0.29325226 -0.2751008 1.2325336
0.28931051 -0.26980644 1.2360001
0.29348063 -0.26473784 1.2331766
0.29393959 -0.25484273 1.2340002
0.29534873 -0.2451473 1.2334288
0.2953628 -0.23477601 1.2341335
0.29683903 -0.22521311 1.2345456
0.29765519 -0.21539584 1.2346668
0.30133489 -0.21169046 1.2320001
0.29824057 -0.20539317 1.2344002
0.30133489 -0.20629019 1.2320001
0.29872638 -0.19491501 1.2335001
0.30133489 -0.19980986 1.2320001
0.2980198 -0.1848724 1.2345456
0.29601473 -0.17427835 1.2347693
0.29553404 -0.16486973 1.234154
0.29622778 -0.15471555 1.2341335
0.2974945 -0.14496326 1.2340002
0.29731449 -0.13558702 1.2340002
0.29634649 -0.1249102 1.2342224
0.29638031 -0.11471901 1.2334547
-0.19470766 -0.06263458 1.2348573
-0.18587287 -0.062267881 1.2337143
-0.17445317 -0.061762918 1.2360001
-0.16470112 -0.061762918 1.2360001
-0.15624936 -0.062196344 1.2360001
-0.23367976 -0.051808991 1.2348573
-0.22481115 -0.053654257 1.2345716
-0.21568586 -0.054092959 1.2340002
-0.2053882 -0.056102403 1.2340001
-0.19683972 -0.057512842 1.2320002
-0.18252902 -0.059402931 1.2320001
-0.17496863 -0.059402931 1.2320001
-0.16439705 -0.058813315 1.2325716
-0.15404822 -0.058202602 1.2340002
-0.14502819 -0.056000393 1.2338462
-0.13484068 -0.054804914 1.233778
-0.1255845 -0.053294577 1.2334288
-0.11485736 -0.050927319 1.2360001
-0.10618888 -0.050927319 1.2360001
-0.24163388 -0.0433424 1.2360001
-0.23589024 -0.046512961 1.2338462
-0.22789125 -0.048602398 1.2320001
-0.13284655 -0.048602398 1.2320001
-0.12528619 -0.048602398 1.2320001
-0.1155657 -0.047522347 1.2320002
-0.10485496 -0.046484374 1.2330668
-0.09514755 -0.045413673 1.2333335
-0.085452072 -0.044017844 1.2338464
-0.074620932 -0.044342037 1.2336003
-0.06525673 -0.04362683 1.2337779
-0.057970457 -0.04280062 1.2360001
-0.044425957 -0.041391991 1.2360001
-0.034312736 -0.040814094 1.2360001
-0.024921879 -0.040091719 1.2360001
-0.018420519 -0.040091719 1.2360001
-0.083164103 -0.039961971 1.2320001
-0.074523687 -0.039961971 1.2320001
-0.064803198 -0.039961971 1.2320001
-0.054156959 -0.039344795 1.2320002
-0.045362242 -0.038341891 1.2320002
-0.036034506 -0.036230877 1.2320002
-0.024224054 -0.037184693 1.2320002
-0.014700999 -0.034811731 1.2332002
-0.0057171197 -0.03338372 1.2340001
0.0056790463 -0.032725967 1.2340001
0.015145293 -0.032455958 1.2340002
0.024912411 -0.032496631 1.2356001
0.035223689 -0.032341208 1.2342223
0.044679753 -0.03249409 1.2355001
0.054539185 -0.031784426 1.2360001
0.064796887 -0.031856664 1.2360001
0.075849198 -0.031423241 1.2360001
0.085601248 -0.031423241 1.2360001
0.095353283 -0.031423241 1.2360001
0.20804352 -0.031423241 1.2360001
0.21779555 -0.031423241 1.2360001
0.22473034 -0.03229009 1.2360001
0.23271175 -0.031389344 1.2346667
-0.011880587 -0.02916144 1.2320001
-0.0061203022 -0.02916144 1.2320001
0.018360907 -0.02916144 1.2320001
0.025766985 -0.028544266 1.2320002
0.03564176 -0.028081391 1.2320002
0.045387957 -0.027017111 1.2326669
0.055093706 -0.027007641 1.2322669
0.064803198 -0.027001334 1.2320002
0.074653655 -0.027050424 1.2341335
0.085462734 -0.025966864 1.2340002
0.094944239 -0.02563105 1.2331766
0.10453859 -0.024874147 1.2335557
0.11449554 -0.022545634 1.2352729
0.12460939 -0.02275476 1.2360001
0.13513541 -0.022599967 1.2360001
0.14519703 -0.022754759 1.2360001
0.15533185 -0.022405982 1.235077
0.16516012 -0.024085816 1.2338948
0.17492366 -0.024519024 1.2348237
0.18519914 -0.023828328 1.2354001
0.19502264 -0.024500048 1.2338825
0.20547372 -0.027242124 1.2346668
0.21539585 -0.027062112 1.2346668
0.22486956 -0.027461758 1.2332003
0.23204663 -0.028668754 1.2340001
0.10908539 -0.018360907 1.2320001
0.11654607 -0.017752249 1.2325716
0.12548958 -0.017310658 1.2340001
0.13414152 -0.017752249 1.2325716
0.14472714 -0.018360907 1.2320001
0.15336756 -0.018360907 1.2320001
0.1782088 -0.018360907 1.2320001
0.18522914 -0.018360907 1.2320001
0.26201463 0.12362051 1.2333335
0.2677249 0.14739151 1.2344002
0.27210683 0.14668737 1.2333335
0.27694076 0.15361689 1.2340001
0.28189391 0.15660773 1.2320001
0.0097520398 0.41933772 1.2360001
0.011880587 0.41690058 1.2320001
0.0090296669 0.42403314 1.2360001
0.014551586 0.42588246 1.2332308
0.0081267012 0.43504933 1.2360001
0.014965008 0.43494201 1.2350589
0.022905545 0.43558151 1.2334547
0.0065013599 0.44209248 1.2360001
0.015711619 0.44335672 1.2360001
0.022921462 0.44467643 1.2360001
0.024921879 0.45184451 1.2360001
0.2078535 -0.49473694 1.2428824
0.21354 -0.49413103 1.2413077
0.23245722 -0.49138772 1.2410001
0.21564817 -0.48534992 1.2438573
0.22200759 -0.48301405 1.2426001
0.23281986 -0.48522273 1.2410001
0.21938145 -0.47623602 1.245
0.22520119 -0.47472405 1.2419999
0.23419505 -0.47528479 1.2418888
0.22595988 -0.46489689 1.2424546
0.23574053 -0.46506298 1.2436668
0.24136801 -0.46330842 1.2410001
0.22698632 -0.45704976 1.2442727
0.2351815 -0.45523858 1.2450002
0.24321353 -0.45417172 1.2419999
0.23715648 -0.44640306 1.245
0.24547964 -0.44533747 1.2430871
0.25175008 -0.44322816 1.2410001
0.23902754 -0.43985435 1.245
0.2455925 -0.43556616 1.244091
0.25397998 -0.43490699 1.2412667
0.24745509 -0.42526299 1.2447649
0.25435111 -0.42488673 1.2416666
0.2611064 -0.42103407 1.2410001
0.2488506 -0.41475096 1.245
0.25526655 -0.41511899 1.2435265
0.26146904 -0.41305584 1.2410001
0.2488506 -0.40820229 1.245
0.25527459 -0.40473175 1.2444003
0.26237568 -0.40489623 1.2410001
0.25623956 -0.39554393 1.2446666
0.26280531 -0.39481556 1.2414705
0.25867364 -0.38746476 1.245
0.26410195 -0.385169 1.2435265
0.2667926 -0.37515202 1.2433532
0.27133307 -0.37359971 1.2410001
0.266316 -0.36404079 1.2437501
0.27228254 -0.36465883 1.2410001
0.25867364 -0.35908705 1.245
0.26625633 -0.35541058 1.2450002
0.27271846 -0.35448387 1.2420909
0.26886049 -0.34562585 1.245
0.27363408 -0.34426209 1.2421428
0.26958814 -0.33507514 1.245
0.27462295 -0.33502129 1.2425555
0.28177732 -0.33182272 1.2410001
0.26958814 -0.32743499 1.245
0.27576017 -0.32550606 1.2424997
0.28177732 -0.32855886 1.2410001
0.27680445 -0.31540075 1.2436001
0.282399 -0.31472644 1.2410001
0.27820125 -0.30509683 1.2436666
0.28264767 -0.303101 1.2410001
0.27857608 -0.2955901 1.2442
0.28328732 -0.29430133 1.2423332
0.29048088 -0.29048088 1.2410001
0.27695543 -0.28623277 1.245
0.28447482 -0.28517124 1.2437274
0.29048088 -0.28612909 1.2410001
0.28579056 -0.27525628 1.2432222
0.28586698 -0.26513746 1.2446003
0.29048088 -0.26437026 1.2410001
0.28636128 -0.25565228 1.2447144
0.29120618 -0.25385344 1.2410001
0.2879245 -0.2464494 1.245
0.29203695 -0.24518175 1.243
0.28923425 -0.23466174 1.245
0.29196808 -0.23481019 1.2432222
0.28923425 -0.2248387 1.245
0.29316252 -0.22492291 1.2431539
0.28923425 -0.21446992 1.245
0.29317263 -0.21512911 1.2438573
0.28879768 -0.20541088 1.245
0.29430687 -0.20520173 1.2431176
0.28923425 -0.19536954 1.245
0.29463229 -0.19536822 1.2436668
0.28923425 -0.18445505 1.245
0.29365212 -0.18491277 1.2435
0.28923425 -0.174632 1.245
0.29269046 -0.17522289 1.243
0.28861055 -0.16449711 1.245
0.29186404 -0.16499829 1.2427778
0.28923425 -0.1549859 1.245
0.29260162 -0.15516354 1.2424546
0.28923425 -0.14952865 1.245
0.29315752 -0.1449466 1.2431334
0.28923425 -0.13206545 1.245
0.29342473 -0.13535672 1.2428463
0.28887045 -0.12478911 1.245
0.29309508 -0.12530401 1.2428668
0.28923425 -0.1178766 1.245
0.29276076 -0.1164524 1.2414446
-0.20191824 -0.07094425 1.245
-0.19355047 -0.071671881 1.245
-0.1839513 -0.072791323 1.245
-0.17499582 -0.072399519 1.245
-0.16480896 -0.0720357 1.245
-0.15651393 -0.071817413 1.245
-0.23284267 -0.061485011 1.245
-0.22433095 -0.063938975 1.2446001
-0.21502213 -0.065259114 1.2442943
-0.20524196 -0.065211266 1.2433531
-0.19499645 -0.067540154 1.2426001
-0.18451519 -0.066799723 1.2410001
-0.1752332 -0.066393994 1.2415333
-0.16541268 -0.066382952 1.2413335
-0.15552154 -0.066749737 1.2419231
-0.14527373 -0.064789534 1.2426474
-0.13608076 -0.064334884 1.2437999
-0.12551674 -0.06133949 1.245
-0.11460225 -0.060029753 1.245
-0.10805355 -0.060029749 1.245
-0.24276838 -0.054183017 1.2428181
-0.23528199 -0.056641869 1.2425001
-0.22613679 -0.059215207 1.2410001
-0.21541278 -0.059836883 1.2410001
-0.20888512 -0.059836883 1.2410001
-0.14143264 -0.059836883 1.2410001
-0.13272908 -0.059836883 1.2410001
-0.12438819 -0.058386292 1.2410001
-0.11472798 -0.055732455 1.2429999
-0.10506816 -0.055429943 1.2434615
-0.095178321 -0.053277534 1.2438573
-0.085133098 -0.052389596 1.245
-0.075706944 -0.052687265 1.245
-0.064613551 -0.052250013 1.2445556
-0.056755401 -0.051298149 1.245
-0.24369931 -0.047869507 1.2410001
-0.091387242 -0.048957448 1.2410001
-0.084925331 -0.048996896 1.242
-0.075068094 -0.048957448 1.2410001
-0.063933924 -0.048380852 1.2421429
-0.054407079 -0.046697535 1.2431538
-0.044958528 -0.046596583 1.2432501
-0.035424493 -0.046327304 1.2433335
-0.025265135 -0.044289757 1.2431818
-0.015540012 -0.042806096 1.244
-0.0054572499 -0.040383648 1.245
0.0050206697 -0.04082023 1.245
0.01418885 -0.040383648 1.245
0.025103351 -0.040383648 1.245
0.21588881 -0.04082023 1.245
0.22431336 -0.041765276 1.2427778
-0.011967377 -0.038078018 1.2410001
-0.0054397164 -0.038078018 1.2410001
0.0054484834 -0.037051439 1.243
0.015255753 -0.037051439 1.243
0.025037423 -0.037014622 1.2418001
0.034870289 -0.037051439 1.243
0.044693343 -0.037063017 1.2434
0.055079505 -0.03571336 1.2427778
0.06483607 -0.035688881 1.243
0.074956991 -0.034559552 1.2424546
0.084960833 -0.034857582 1.2425001
0.094774507 -0.034860473 1.2426001
0.1044713 -0.033534348 1.2427778
0.1113279 -0.031652048 1.245
0.1254333 -0.031631708 1.2442
0.13486274 -0.03202761 1.2426001
0.14297995 -0.031652048 1.245
0.15534972 -0.031652048 1.245
0.16542634 -0.0324325 1.2435
0.17466824 -0.033410642 1.2426667
0.18442626 -0.033930752 1.2427142
0.19531047 -0.034273069 1.2421763
0.20551443 -0.035223395 1.2425555
0.21543591 -0.03558626 1.2416154
0.22466029 -0.036446102 1.2410001
0.2331825 -0.035176836 1.2410001
0.10988227 -0.028286526 1.2410001
0.11546271 -0.02832203 1.2425001
0.12511349 -0.028286526 1.2410001
0.13490498 -0.028286526 1.2410001
0.1448378 -0.028314929 1.2422001
0.15542303 -0.027998423 1.2413636
0.16427945 -0.029374471 1.2410001
0.17733477 -0.029374471 1.2410001
0.18495038 -0.029374469 1.2410001
0.19401656 -0.029374471 1.2410001
0.20126952 -0.029374469 1.2410001
0.26958814 0.1549859 1.245
0.27416521 0.15637766 1.2424285
0.28177732 0.15992767 1.2410001
0.27322629 0.16117078 1.245
0.28113997 0.1623648 1.243
0.0076296297 0.44810554 1.2436666
0.014143264 0.44823265 1.2410001
0.0098230503 0.45076886 1.245
0.016059907 0.45326358 1.245
0.022276726 0.45503071 1.2438571
0.1799069 -0.49998668 1.2590001
0.18747529 -0.49777922 1.2589999
0.19518241 -0.49512893 1.2578804
0.20276357 -0.49512979 1.2523078
0.19683066 -0.48441198 1.2590002
0.20514253 -0.48543206 1.2543707
0.21247572 -0.48294088 1.2522727
0.19800797 -0.47504252 1.2589999
0.20531805 -0.47470796 1.2576669
0.21437794 -0.47501895 1.2523915
0.22026248 -0.47303471 1.25
0.19889095 -0.46731645 1.2590001
0.20553781 -0.4651581 1.2590002
0.21435729 -0.46479961 1.2553217
0.22114041 -0.46375039 1.2514286
0.20816222 -0.45451325 1.2590001
0.21509956 -0.45493281 1.2576669
0.22435869 -0.45445982 1.2525001
0.23450834 -0.45148334 1.25
0.2075 -0.44700792 1.2589999
0.21556962 -0.445207 1.2583337
0.22526167 -0.44511291 1.254385
0.23453565 -0.44448495 1.2511765
0.21919946 -0.43552923 1.2590001
0.22599417 -0.43492067 1.2565004
0.23629351 -0.43516937 1.2541115
0.24217917 -0.43358472 1.25
0.21964094 -0.42382973 1.2590001
0.22550163 -0.42467448 1.2564548
0.23634477 -0.42483702 1.2556193
0.24302864 -0.42442411 1.251
0.21964094 -0.41720742 1.2590001
0.22634366 -0.41584608 1.2575266
0.23553291 -0.41513103 1.2584002
0.2438724 -0.4152436 1.2530911
0.227367 -0.40644613 1.2589999
0.23498796 -0.40538183 1.2590002
0.24563807 -0.40484664 1.2569603
0.25094584 -0.40436253 1.25
0.235369 -0.39527094 1.2590001
0.24600175 -0.39485592 1.2572861
0.25325587 -0.39423198 1.2521429
0.23536898 -0.38602728 1.2589999
0.24582997 -0.38573822 1.2586002
0.25515619 -0.3845664 1.2543603
0.26190415 -0.38134998 1.25
0.24789627 -0.37504521 1.2590001
0.25538525 -0.37516749 1.2561157
0.26275015 -0.37530831 1.2505555
0.24833775 -0.36533242 1.2590001
0.2550343 -0.36537501 1.2556541
0.26278085 -0.36754251 1.25
0.25619206 -0.35597304 1.2557276
0.26243782 -0.35348296 1.25125
0.25689161 -0.34518948 1.2590001
0.26430404 -0.34519997 1.2528261
0.25797027 -0.33482954 1.2589999
0.26474178 -0.33515009 1.2548336
0.25760904 -0.32648134 1.2590001
0.26573774 -0.32515568 1.2550871
0.27067083 -0.32327083 1.25
0.26668936 -0.31497848 1.2578949
0.27212015 -0.31381482 1.2516428
0.26619801 -0.30492866 1.2589999
0.2731356 -0.30435613 1.2538
0.26701584 -0.2946012 1.2586
