# .PCD v0.7 - Point Cloud Data file format
VERSION 0.7
FIELDS x y z
SIZE 4 4 4
TYPE F F F
COUNT 1 1 1
WIDTH 1463
HEIGHT 1
VIEWPOINT 0 0 0 1 0 0 0
POINTS 1463
DATA ascii
0.3007412 -0.42297658 1.202
0.29814732 -0.4155032 1.2060002
0.30332339 -0.41494453 1.2039999
0.29793587 -0.40577641 1.2060002
0.30436638 -0.40473634 1.204
0.29920459 -0.39858702 1.2060001
0.30641177 -0.39545256 1.2050476
0.31130609 -0.39383698 1.2025715
0.30813256 -0.38519505 1.2060002
0.31386068 -0.38396174 1.2037144
0.30977717 -0.37321278 1.2060001
0.31563547 -0.37513891 1.2048331
0.32034978 -0.37109825 1.2060001
0.31523043 -0.36475474 1.206
0.32267267 -0.36486155 1.2030525
0.31659061 -0.35606167 1.2060002
0.32467723 -0.35507265 1.2031851
0.31823525 -0.34889579 1.2060001
0.32628044 -0.34563848 1.2041665
0.33193231 -0.34141606 1.202
0.34584183 -0.34162682 1.202
0.35441238 -0.3420015 1.202
0.36098152 -0.34198242 1.204
0.31823525 -0.33620867 1.2060001
0.32615405 -0.3354505 1.2047999
0.33345848 -0.33376202 1.2037143
0.34696594 -0.33511367 1.2035384
0.35534486 -0.33531472 1.2057894
0.32880786 -0.32880786 1.2060001
0.33591887 -0.32572052 1.2051303
0.34527394 -0.32499135 1.2047199
0.35167834 -0.32844198 1.2046667
0.33642009 -0.31527498 1.2060001
0.34339806 -0.31527495 1.2060002
0.33790031 -0.30681688 1.2060002
0.3434585 -0.30585024 1.2060002
0.34360951 -0.29920459 1.2060001
-0.25338998 -0.060968656 1.2060001
-0.20405118 -0.06026382 1.2060001
-0.1955931 -0.06026382 1.2060001
-0.1845506 -0.061203606 1.2060002
-0.17444789 -0.06026382 1.2060001
-0.16528498 -0.060263824 1.2060001
-0.26027706 -0.051633913 1.202
-0.25388765 -0.056230884 1.2032307
-0.24582489 -0.054904178 1.2043335
-0.23522647 -0.053983878 1.2040001
-0.22473164 -0.054727711 1.2041051
-0.21491103 -0.056280535 1.2036668
-0.20500618 -0.056088839 1.2033334
-0.19533315 -0.055962779 1.2043998
-0.18491203 -0.055733681 1.2025332
-0.17425153 -0.056749798 1.2032001
-0.16529451 -0.055753496 1.2031429
-0.15483303 -0.055464432 1.204353
-0.14513189 -0.05330513 1.204
-0.13445748 -0.052726433 1.2055557
-0.12490772 -0.052711964 1.2060002
-0.11947038 -0.051805738 1.2060001
0.2167383 -0.051805738 1.2060001
0.22202459 -0.051805738 1.2060001
-0.23077197 -0.049526405 1.202
-0.13362037 -0.049230088 1.2033334
-0.12506741 -0.048410509 1.2033334
-0.11498535 -0.046769578 1.2033333
-0.104494 -0.044861078 1.204
-0.095450059 -0.04498177 1.2044002
-0.085496046 -0.043488629 1.2040001
-0.074657679 -0.043137517 1.2042857
-0.064671203 -0.043116976 1.2037143
-0.05561924 -0.041892394 1.2046667
-0.044515882 -0.041798212 1.2048572
-0.034312733 -0.042762045 1.2043334
-0.024656171 -0.042503513 1.2038181
-0.015435996 -0.04207895 1.2060001
-0.0031717799 -0.041233141 1.2060001
0.00563872 -0.041585561 1.2060002
0.01480164 -0.041233141 1.2060001
0.0211452 -0.041233141 1.2060001
0.049691219 -0.041233141 1.2060001
0.051805738 -0.041233141 1.2060001
0.16598982 -0.041233141 1.2060001
0.17491779 -0.042172924 1.2060002
0.18578547 -0.043174487 1.2056925
0.19506821 -0.045986589 1.2045454
0.20520054 -0.04734391 1.2041538
0.21451709 -0.047639571 1.2037144
0.22463316 -0.047169112 1.2038462
0.23595619 -0.047193389 1.2044616
0.24474955 -0.047937892 1.2044002
0.25162786 -0.047576699 1.2060001
-0.053741418 -0.038988873 1.202
-0.045838267 -0.038988873 1.202
-0.013708437 -0.038494434 1.2030001
-0.0052743773 -0.037961066 1.2028
0.0052687665 -0.037935119 1.2019999
0.01511042 -0.037598282 1.2024444
0.02425877 -0.036915965 1.2030666
0.034820147 -0.037565514 1.2035999
0.045693617 -0.0372555 1.2035387
0.055308901 -0.037367038 1.2040001
0.064543709 -0.036231171 1.2036667
0.074940979 -0.035890739 1.2039999
0.085127831 -0.035532083 1.2037778
0.095385537 -0.034400046 1.2036
0.104485 -0.033985328 1.2038667
0.11554581 -0.033254649 1.2052941
0.12523358 -0.034709428 1.20425
0.13486838 -0.035765808 1.20425
0.14369972 -0.035889979 1.2039999
0.15520243 -0.036427252 1.2043333
0.16515426 -0.03767132 1.2027272
0.17492306 -0.038286369 1.202
0.18440683 -0.038988873 1.202
0.11380535 -0.02845134 1.202
0.16239509 0.22398114 1.202
0.15700924 0.24973954 1.202
0.16716358 0.24705726 1.2019999
0.17703056 0.24973954 1.202
0.18651433 0.24868578 1.202
0.158326 0.25543612 1.204
0.16521408 0.25515446 1.2037777
0.17459846 0.25577387 1.2025
0.18314233 0.2554298 1.2019999
0.15964626 0.26325774 1.2060001
0.16493256 0.26325774 1.2060002
0.1744777 0.26497868 1.2049998
0.18182242 0.26421535 1.2023332
0.17746866 0.27383032 1.2060002
0.18079145 0.27488759 1.2060001
0.17867693 0.2801739 1.2060001
0.18079145 0.2801739 1.2060001
0.17656241 0.29180378 1.2060001
0.26787895 -0.49529505 1.2146428
0.27180758 -0.49462876 1.2103333
0.26874697 -0.48523939 1.2165
0.27416858 -0.48410124 1.2112499
0.26823282 -0.47982684 1.2190001
0.27398145 -0.47533822 1.214138
0.27510631 -0.46491304 1.2152691
0.28216392 -0.46355501 1.21
0.27789214 -0.45526475 1.2145294
0.2832247 -0.45431128 1.21
0.27844939 -0.44750351 1.2182857
0.28404388 -0.44424722 1.21244
0.2849043 -0.4351466 1.2140769
0.29171082 -0.43385354 1.21
0.28565857 -0.42530432 1.2134666
0.29288948 -0.42442453 1.21
0.28789082 -0.41599438 1.2162857
0.29312775 -0.41487569 1.2107059
0.28853729 -0.40502089 1.219
0.29341993 -0.404917 1.2129048
0.28853729 -0.39647162 1.219
0.29495934 -0.39508563 1.2140001
0.30231848 -0.39354444 1.21
0.29605043 -0.38507435 1.214
0.30364102 -0.3846969 1.2101997
0.31080464 -0.38081524 1.21
0.29667246 -0.3756645 1.216
0.30454823 -0.37464526 1.2114229
0.31080464 -0.37445062 1.21
0.29744276 -0.36619303 1.219
0.30412346 -0.36448535 1.2135667
0.31122893 -0.36511591 1.21
0.30754432 -0.35618141 1.216
0.31310752 -0.35392576 1.2111666
0.30884176 -0.34945074 1.2190001
0.31513104 -0.34500727 1.2135001
0.32201844 -0.34444609 1.21
0.36172143 -0.34050611 1.21
0.31665048 -0.33515692 1.2153158
0.32186612 -0.33399421 1.2105715
0.36291721 -0.33737466 1.2140001
0.3164399 -0.32497805 1.2170001
0.32469466 -0.32496044 1.2113748
0.33286855 -0.32310951 1.21
0.34793144 -0.32459462 1.21
0.3532353 -0.32883766 1.21
0.31798384 -0.31798384 1.2180002
0.32561803 -0.31498832 1.2131113
0.3326261 -0.31413847 1.21
0.34687069 -0.31646204 1.21
0.32644284 -0.30540296 1.2165456
0.33383229 -0.3035574 1.2125998
0.34333479 -0.30090415 1.21
0.32765013 -0.29559043 1.2190001
0.33615381 -0.29541817 1.2173043
0.34235758 -0.29450881 1.2128
0.33662683 -0.28640002 1.219
0.34442088 -0.28521895 1.2168126
0.34409478 -0.27534688 1.2147778
0.3460668 -0.26768053 1.2165
-0.25113431 -0.11434627 1.2190001
-0.24674933 -0.11230133 1.2171249
-0.25113431 -0.071599998 1.2190001
-0.24386744 -0.07202746 1.2190001
-0.23510446 -0.071599998 1.2190001
-0.22762388 -0.071599998 1.2190001
-0.20518208 -0.071599998 1.2190001
-0.19556417 -0.071599998 1.2190001
-0.18487762 -0.07195621 1.219
-0.17739701 -0.071599998 1.2190001
-0.25168607 -0.065687932 1.2124001
-0.24474934 -0.064764477 1.2126957
-0.2347935 -0.064685248 1.2127919
-0.22477782 -0.065161608 1.2131741
-0.21506628 -0.064792335 1.2131739
-0.20519604 -0.065264583 1.212762
-0.19509639 -0.066034757 1.2114118
-0.18579687 -0.066464774 1.2110667
-0.17542996 -0.06592568 1.2127998
-0.16472308 -0.064922057 1.2138948
-0.15481983 -0.06474226 1.2141362
-0.14567624 -0.062812895 1.2143077
-0.13618293 -0.061565012 1.2160001
-0.12482593 -0.060813487 1.2170002
-0.11381194 -0.060913429 1.2190001
-0.099385068 -0.060913429 1.2190001
0.2244179 -0.060913429 1.2190001
0.24472237 -0.060913432 1.2190001
0.25220299 -0.060913429 1.2190001
0.26716417 -0.063050739 1.2190001
-0.24362274 -0.05834217 1.21
-0.2354902 -0.058342166 1.21
-0.22806484 -0.058342166 1.21
-0.14452945 -0.057546586 1.21
-0.13460356 -0.057027161 1.2107273
-0.12433221 -0.057096664 1.2121819
-0.11497055 -0.055482294 1.2143333
-0.1051929 -0.055206846 1.2146317
-0.095237918 -0.054112568 1.2158237
-0.084403604 -0.052978717 1.2166667
-0.075803109 -0.052517973 1.2154286
-0.065016158 -0.052381277 1.2157857
-0.0546772 -0.052091915 1.2161428
-0.044791535 -0.051192511 1.2165
-0.035976756 -0.050899595 1.215875
-0.02523675 -0.050480071 1.2164999
-0.014940738 -0.050870627 1.2173334
-0.004541791 -0.051028356 1.219
0.0056066122 -0.051002603 1.2183751
0.014319999 -0.050654329 1.2190001
0.021373134 -0.050226863 1.2190001
0.034197014 -0.050226863 1.2190001
0.045952234 -0.050226863 1.2190001
0.054501493 -0.05022686 1.2190001
0.061982084 -0.050226863 1.2190001
0.16564178 -0.05022686 1.2190001
0.17596734 -0.051468045 1.2179999
0.18518315 -0.053258371 1.2171818
0.19521773 -0.054602694 1.2151875
0.20512606 -0.054811269 1.2145883
0.21482451 -0.055909202 1.214625
0.22515965 -0.055887386 1.2149333
0.23504172 -0.054776561 1.2138236
0.24451871 -0.055167481 1.2113156
0.25438896 -0.055350438 1.2141252
0.26074696 -0.056406487 1.2140001
-0.11350203 -0.049856033 1.21
-0.1050159 -0.04906046 1.21
-0.094408236 -0.048795268 1.21
-0.084154159 -0.04702732 1.21
-0.075314425 -0.047734499 1.21
-0.064100616 -0.047734499 1.21
-0.054338824 -0.046234604 1.2110909
-0.045826867 -0.045829207 1.211
-0.035800874 -0.046938922 1.21
-0.023951508 -0.046844196 1.2113334
-0.014581756 -0.045686368 1.2119092
-0.0056903921 -0.045212999 1.2125882
0.0051595592 -0.045842402 1.212
0.014895152 -0.045748707 1.2134999
0.024834016 -0.045059301 1.2140001
0.035095725 -0.044673309 1.21315
0.044962574 -0.044594072 1.212706
0.054887898 -0.045128316 1.2136471
0.064981416 -0.044744544 1.2150999
0.075105734 -0.044479296 1.2142777
0.084696814 -0.045020349 1.2161111
0.094875053 -0.044777069 1.216
0.10467426 -0.044406403 1.2168125
0.11459825 -0.044428855 1.2174375
0.12475518 -0.044789068 1.2163002
0.13535443 -0.044600513 1.2157369
0.14517425 -0.044091888 1.2146667
0.15477042 -0.044940244 1.2157894
0.16462465 -0.045278948 1.2142942
0.17485052 -0.046441816 1.2114545
0.18505555 -0.047927368 1.21
0.22700407 -0.049856033 1.21
0.23336866 -0.049856033 1.21
0.25352323 -0.049856033 1.21
0.035005301 -0.039248366 1.21
0.066828303 -0.039248366 1.21
0.08804363 -0.039248366 1.21
0.094105147 -0.038642216 1.21
0.10602732 -0.038679283 1.2111429
0.11487401 -0.038469013 1.2105001
0.12410971 -0.039248366 1.21
0.13259584 -0.039248366 1.21
0.14744657 -0.039248366 1.21
0.15593271 -0.039248366 1.21
0.16441883 0.26837397 1.21
0.16542411 0.27476066 1.2143002
0.17324838 0.27601674 1.2102858
0.16849346 0.28438464 1.218375
0.1754133 0.28545779 1.2142633
0.17513768 0.29225627 1.2181667
0.24704558 -0.49492773 1.2270001
0.25479579 -0.49501157 1.225857
0.26353776 -0.49512511 1.2229998
0.24847977 -0.48942986 1.2270001
0.25478405 -0.48511326 1.2258798
0.26375219 -0.48569003 1.2229998
0.25689825 -0.47521377 1.22675
0.26479051 -0.47495821 1.2236152
0.25923645 -0.46468943 1.2270001
0.26511675 -0.46512958 1.2248181
0.27125731 -0.4649615 1.223
0.25923645 -0.45823544 1.2270001
0.26627776 -0.45544109 1.2259997
0.27324852 -0.45536307 1.2229998
0.26734534 -0.44590664 1.2270001
0.27495831 -0.44464344 1.2235712
0.26937848 -0.43656835 1.2270001
0.27557716 -0.43532646 1.2244543
0.27647701 -0.42548043 1.2252398
0.28269374 -0.42207494 1.223
0.27737033 -0.41533923 1.2263335
0.28340182 -0.41453469 1.2237056
0.27764237 -0.40600568 1.2270001
0.28313109 -0.40535125 1.2241764
0.27859852 -0.39692223 1.2270001
0.28441894 -0.39518005 1.2250869
0.29127103 -0.39205441 1.223
0.28548366 -0.38526815 1.2259474
0.29162839 -0.38490662 1.2229999
0.28632957 -0.37556225 1.2263333
0.29227167 -0.37482834 1.2229999
0.28854847 -0.36545885 1.2270001
0.29374444 -0.3647655 1.2239521
0.30127791 -0.36131904 1.223
0.28935522 -0.35497111 1.2270001
0.29566666 -0.35516614 1.2252606
0.30385107 -0.35388535 1.2229998
0.28935522 -0.3460072 1.2270001
0.29494309 -0.34544063 1.2268094
0.30470788 -0.34492537 1.2245383
0.31199953 -0.34309226 1.223
0.29688489 -0.33453336 1.2270001
0.30513471 -0.33501023 1.2254515
0.31328613 -0.33494383 1.2229999
0.29652634 -0.32234243 1.2270001
0.30576637 -0.32494122 1.2258798
0.31280366 -0.32406136 1.223
0.30627078 -0.31548649 1.2262379
0.31472021 -0.3145051 1.2239997
0.32129163 -0.31271431 1.223
0.30752209 -0.30560979 1.2270001
0.31492162 -0.30503473 1.2260398
0.32164904 -0.30556655 1.2229999
0.31552288 -0.29550248 1.2257367
0.32390052 -0.2944161 1.2229998
0.33374915 -0.2930069 1.2230002
0.34309226 -0.29055625 1.223
0.32599592 -0.28554839 1.2262501
0.33356735 -0.28357899 1.2247777
0.34202009 -0.28197896 1.223
0.32700366 -0.27322018 1.2270001
0.33581686 -0.27515316 1.2248331
0.34202009 -0.27554595 1.223
0.32807934 -0.26999316 1.2270001
0.33539394 -0.26633587 1.2269999
0.34324721 -0.26550889 1.2255882
0.33704329 -0.25780222 1.2270001
0.34221673 -0.25616309 1.2270001
0.34313872 -0.24632843 1.2270001
-0.23478939 -0.082239859 1.2270001
-0.22601025 -0.081870444 1.2270001
-0.214673 -0.081597254 1.2270001
-0.20637497 -0.081289925 1.2270001
-0.19469626 -0.080675252 1.2270001
-0.1860909 -0.080675252 1.2270001
-0.16242617 -0.080675252 1.2270001
-0.2452313 -0.075435646 1.2244545
-0.23505974 -0.076208919 1.2243332
-0.22475532 -0.075780064 1.2243332
-0.21542677 -0.074936032 1.2238419
-0.20491575 -0.076174788 1.2238001
-0.19496545 -0.076387003 1.2245386
-0.18533994 -0.076202363 1.2242309
-0.17472279 -0.075549103 1.2252221
-0.16481557 -0.075429946 1.2252221
-0.15552317 -0.074221812 1.2246001
-0.14517483 -0.073663823 1.2266668
-0.13768576 -0.073145561 1.2270001
-0.16618532 -0.069690615 1.223
-0.15224719 -0.069690615 1.223
-0.14389454 -0.068193272 1.2240909
-0.13475023 -0.066510074 1.2251538
-0.12547132 -0.064935096 1.2251817
-0.11496268 -0.064927809 1.2255715
-0.1048962 -0.063568518 1.2257693
-0.09517882 -0.062738471 1.2254001
-0.085784689 -0.062119938 1.2270001
-0.075296901 -0.06131319 1.2270001
-0.06561587 -0.06131319 1.2270001
-0.057010513 -0.061313193 1.2270001
0.18824224 -0.06131319 1.2270001
0.1962876 -0.061703481 1.2262001
0.20495296 -0.062591366 1.2251819
0.21544823 -0.063180365 1.2244284
0.22466302 -0.06379275 1.225
0.23561381 -0.062591366 1.2251819
0.24563527 -0.0651711 1.2253332
0.25516731 -0.066264354 1.2256665
0.26488179 -0.065675795 1.224565
-0.092849344 -0.05811125 1.223
-0.085505024 -0.058164865 1.223
-0.074695639 -0.058132645 1.2247144
-0.065444753 -0.057935394 1.2238002
-0.054320421 -0.057638839 1.2237275
-0.045129042 -0.056950897 1.2256669
-0.035444509 -0.056067452 1.2251332
-0.024570225 -0.055454981 1.22525
-0.015580852 -0.056055676 1.2256668
-0.0056363093 -0.054480232 1.2245002
0.005847075 -0.054781239 1.2252223
0.015324691 -0.054959107 1.2248181
0.024698796 -0.053477194 1.2248666
0.035835657 -0.053412665 1.2251821
0.0451045 -0.053160623 1.2250001
0.054371741 -0.0539825 1.2248183
0.06551864 -0.052631639 1.2251819
0.07517416 -0.051549751 1.2250001
0.084839419 -0.051549751 1.2250001
0.095550813 -0.052072685 1.2246666
0.10466611 -0.051916681 1.2252222
0.11537547 -0.051781368 1.2254002
0.12531009 -0.052458476 1.2247142
0.13457772 -0.053097192 1.2252858
0.14486843 -0.052312382 1.2254617
0.15559836 -0.052583694 1.2240666
0.16529316 -0.054742277 1.2243333
0.17441851 -0.056758385 1.2246
0.18480642 -0.057740241 1.2242
0.19513372 -0.058968984 1.223
0.20799968 -0.058968984 1.223
0.23408897 -0.05896898 1.223
0.26375219 -0.058968984 1.223
0.1082885 -0.048247349 1.223
0.11400671 -0.048247349 1.223
0.13616474 -0.048247349 1.223
0.14581421 -0.048247349 1.223
0.15903756 0.27911985 1.223
0.16189666 0.27983463 1.223
0.15748563 0.28425339 1.2254001
0.16407968 0.28596792 1.2245384
0.1655056 0.29384819 1.2254001
0.17333306 0.29651272 1.223
0.16816308 0.30082902 1.2270001
0.17354143 0.30154613 1.2270001
0.17302057 0.31763977 1.2258574
0.17318287 0.32216316 1.2270001
0.22863115 -0.49952117 1.2360001
0.23946676 -0.49735403 1.2360001
0.24405617 -0.49469268 1.2347693
0.24631287 -0.48539779 1.2343159
0.25075236 -0.48094165 1.2346667
0.24813524 -0.47676641 1.2360001
0.2528598 -0.47485179 1.2338462
0.25638595 -0.46517387 1.2340002
0.25805342 -0.45599246 1.2355001
0.26137292 -0.4536224 1.2320002
0.25897083 -0.44859385 1.2360001
0.26358911 -0.44451761 1.2337145
0.26726297 -0.43485126 1.2349335
0.2710934 -0.43094128 1.2320001
0.2688846 -0.42566505 1.2355001
0.27229345 -0.42326087 1.2320002
0.26944527 -0.41536471 1.2360001
0.2729044 -0.41461518 1.2330911
0.2748552 -0.40509117 1.2332308
0.27652425 -0.39498696 1.2344002
0.28189391 -0.39313942 1.2320001
0.27768776 -0.3850747 1.2336472
0.28158092 -0.38264659 1.233
0.27824786 -0.37731469 1.2350001
0.28312334 -0.37418306 1.2336001
0.28554651 -0.36528057 1.2341539
0.28689742 -0.35568619 1.234286
0.28814673 -0.34604883 1.2345002
0.29183042 -0.34237689 1.2320001
0.28931051 -0.33698717 1.2360001
0.29314873 -0.3354066 1.2330911
0.29584056 -0.32559773 1.2329414
0.30133489 -0.32725614 1.2320001
0.29667962 -0.31557003 1.2351112
0.30226064 -0.31583843 1.2320002
0.29802388 -0.30841345 1.2344
0.30412617 -0.30503532 1.2341055
0.30885404 -0.29695415 1.2340002
0.3143785 -0.29201999 1.2342224
0.32077584 -0.29053435 1.2320001
0.30881459 -0.28822696 1.2360001
0.31543362 -0.28513217 1.2345456
0.32293597 -0.28535008 1.2320002
0.31775397 -0.27657869 1.2360001
0.32444069 -0.27602303 1.2328002
0.33157638 -0.27865374 1.2320001
0.32730708 -0.2654483 1.2341179
0.33250213 -0.26307014 1.2320002
0.32831869 -0.25680372 1.2360001
0.33464637 -0.2546733 1.2345264
0.34130502 -0.25300366 1.2333335
0.33725807 -0.24623899 1.2360001
0.34252903 -0.24674878 1.2345002
0.33915427 -0.23188183 1.2360001
0.34132141 -0.23621607 1.2360001
-0.24376768 -0.082579076 1.2340002
-0.2346264 -0.086858965 1.2333335
-0.22441411 -0.086523794 1.2336668
-0.21563677 -0.087394021 1.2345001
-0.20494844 -0.086581796 1.2345002
-0.19549869 -0.084586352 1.2343335
-0.18454711 -0.083887063 1.2346668
-0.17460045 -0.083513759 1.2348573
-0.16497405 -0.083301455 1.2340002
-0.15518053 -0.082462072 1.2344002
-0.14573884 -0.082621448 1.2360001
-0.13869569 -0.081266999 1.2360001
-0.25030234 -0.079099879 1.2360001
-0.24733222 -0.078843892 1.2320001
-0.15336758 -0.078843892 1.2320001
-0.14519002 -0.077918135 1.2320002
-0.13460459 -0.074478336 1.2336001
-0.12474365 -0.07265462 1.2342857
-0.11501543 -0.072271854 1.2332308
-0.10547459 -0.072177447 1.2344615
-0.095275253 -0.070374414 1.2350001
-0.086143017 -0.070431396 1.2360001
-0.035757478 -0.070431396 1.2360001
0.19829148 -0.070431396 1.2360001
0.20425107 -0.070431396 1.2360001
0.21655722 -0.071050577 1.2360001
0.22573905 -0.07272213 1.2350001
0.23513252 -0.070431396 1.2360001
0.24620876 -0.071429484 1.2345001
0.25470975 -0.074543715 1.2348573
0.26467219 -0.074475087 1.2337145
-0.13284656 -0.068043359 1.2320001
-0.12312607 -0.068043359 1.2320001
-0.11664576 -0.068043359 1.2320001
-0.10476518 -0.068043359 1.2320001
-0.094890408 -0.067117594 1.2320002
-0.084828608 -0.06646011 1.2326669
-0.07460434 -0.065956905 1.2333336
-0.06487333 -0.065956905 1.2333335
-0.05515724 -0.06453231 1.2336668
-0.045002129 -0.064138286 1.2335387
-0.035442986 -0.064690061 1.2330528
-0.025098689 -0.064712942 1.2334738
-0.0153291 -0.064026177 1.2343334
-0.0051770094 -0.062726088 1.2360001
0.0057763569 -0.063371606 1.2356668
0.015373459 -0.064743586 1.2349335
0.024642227 -0.064175941 1.2355001
0.034673922 -0.062846482 1.2360001
0.044425961 -0.063141994 1.2360001
0.055743143 -0.06272608 1.2360001
0.065013602 -0.062846489 1.2360001
0.07383687 -0.062382098 1.2360001
0.08560124 -0.062726088 1.2360001
0.095353283 -0.061762918 1.2360001
0.1029382 -0.061762918 1.2360001
0.12786007 -0.061762918 1.2360001
0.13219431 -0.061762918 1.2360001
0.15819976 -0.061762918 1.2360001
0.1651655 -0.062691681 1.2360001
0.1745591 -0.063703358 1.2345716
0.18477733 -0.06508816 1.2341053
0.19487874 -0.065683633 1.2340001
0.20500149 -0.067343779 1.2340001
0.21432453 -0.06772016 1.2326669
0.22465108 -0.068043359 1.2320001
0.23459776 -0.067029588 1.2332002
0.24193195 -0.068043359 1.2320001
-0.032401599 -0.059402931 1.2320001
-0.024121193 -0.059402931 1.2320001
-0.011880587 -0.058322877 1.2320001
-0.005883018 -0.058464307 1.2324446
0.0045902268 -0.058592886 1.2320002
0.015120747 -0.059402931 1.2320001
0.025651269 -0.058592886 1.2320002
0.035200313 -0.058267158 1.2333335
0.044511173 -0.058126152 1.2324002
0.055562742 -0.058442891 1.2320002
0.065211535 -0.058005717 1.2328891
0.074604325 -0.057307117 1.2333335
0.085379623 -0.057281397 1.2328002
0.094952121 -0.057751991 1.2336003
0.10499958 -0.057373643 1.2347693
0.11557207 -0.056362331 1.234182
0.12486383 -0.058528602 1.2337779
0.13568306 -0.058528602 1.2337779
0.14548914 -0.057807751 1.2348001
0.15469836 -0.05841931 1.2340001
0.1646152 -0.059075058 1.2326669
0.15876783 0.28837425 1.2320001
0.16092795 0.28837425 1.2320001
0.1561757 0.29442257 1.2320002
0.16164799 0.29629463 1.2320002
0.15711619 0.30318007 1.2360001
0.16518724 0.3058551 1.2332634
0.17369002 0.30767009 1.2325002
0.15928333 0.31098172 1.2360001
0.16626433 0.31484762 1.2351112
0.17465094 0.31384948 1.2328002
0.16749887 0.32308847 1.2353334
0.17076275 0.32616138 1.2344
0.21865381 -0.49551833 1.245
0.22517446 -0.49500084 1.2421852
0.23512377 -0.49508122 1.2419523
0.24136801 -0.49377084 1.2410001
0.22732857 -0.48546872 1.2424288
0.23537719 -0.48480582 1.2433158
0.24221393 -0.48358133 1.2414446
0.22811306 -0.47914654 1.245
0.23497766 -0.47649789 1.2445
0.24469286 -0.47447553 1.2422307
0.25185886 -0.47271138 1.2410001
0.23902754 -0.46714059 1.245
0.24581209 -0.46501994 1.2440002
0.25269955 -0.46415618 1.2410001
0.24703148 -0.45525593 1.2450002
0.25415236 -0.4542636 1.2422501
0.24921441 -0.44603923 1.245
0.25527367 -0.44527933 1.2432222
0.26137841 -0.44306493 1.2410001
0.24994205 -0.43767145 1.245
0.25617889 -0.4367359 1.245
0.2623986 -0.43499884 1.2427143
0.25785506 -0.42457405 1.245
0.26409197 -0.42474011 1.2421428
0.25823706 -0.41453272 1.245
0.26466331 -0.41459113 1.2423912
0.2708979 -0.41015464 1.2410001
0.25830984 -0.40565553 1.245
0.26508406 -0.40471905 1.2443603
0.27198583 -0.40471488 1.2410001
0.25867364 -0.39837924 1.245
0.26551497 -0.39506537 1.2441112
0.27252978 -0.39492345 1.2410001
0.26714423 -0.38569745 1.2444668
0.27294105 -0.38432696 1.2419231
0.26886049 -0.3761864 1.245
0.27563572 -0.37442109 1.2436086
0.28145865 -0.37237382 1.2420001
0.26958814 -0.36563575 1.245
0.27578571 -0.36482984 1.2447335
0.28218395 -0.36402822 1.2420001
0.27769604 -0.35503307 1.245
0.28228334 -0.35418156 1.2425998
0.27831975 -0.34489816 1.245
0.28441283 -0.34483755 1.2434763
0.2858566 -0.33592457 1.2445557
0.29156882 -0.33291066 1.2410001
0.28603244 -0.32480425 1.2432859
0.29156882 -0.32529506 1.2410001
0.28707629 -0.31611109 1.2443846
0.29242486 -0.31420827 1.2423334
0.28850663 -0.30815271 1.245
0.2950933 -0.30454487 1.2438573
0.30168176 -0.30204558 1.2423334
0.29602548 -0.29578295 1.245
0.30374616 -0.29465961 1.2418694
0.31006384 -0.29265675 1.2410001
0.29796585 -0.28923425 1.245
0.30484051 -0.28556192 1.2435263
0.31159279 -0.28296837 1.2421429
0.30888036 -0.27831975 1.245
0.3144179 -0.27493754 1.243737
0.3216686 -0.27162316 1.2410001
0.30888036 -0.26303944 1.245
0.31539726 -0.26486376 1.244167
0.32340261 -0.26390451 1.2415333
0.30888036 -0.25867364 1.245
0.31544295 -0.25539777 1.244158
0.32486895 -0.25438201 1.2412221
0.33291066 -0.25240284 1.2410001
0.31870341 -0.2488506 1.245
0.32592079 -0.24525921 1.2434
0.33428875 -0.2439169 1.2409999
0.34270215 -0.24152343 1.2410001
0.32628104 -0.23513018 1.2447648
0.33425018 -0.23457257 1.2423334
0.34052625 -0.23717165 1.2410001
0.32678014 -0.22723989 1.245
0.33547944 -0.22600448 1.2435265
0.34107023 -0.22792412 1.2410001
0.33725801 -0.21647091 1.245
-0.25212494 -0.11023645 1.245
-0.25267065 -0.10587065 1.245
-0.24121045 -0.09059035 1.245
-0.23392534 -0.091948599 1.2436668
-0.22427051 -0.094940238 1.2427143
-0.21545935 -0.095969871 1.2431178
-0.20539267 -0.094380476 1.2431333
-0.19508711 -0.093732312 1.2431999
-0.1846752 -0.093976311 1.2432224
-0.1749251 -0.093458116 1.2427777
-0.16466682 -0.092695624 1.2439334
-0.15492409 -0.09164542 1.2444999
-0.14504537 -0.091336176 1.244
-0.1375227 -0.09059035 1.245
-0.2444848 -0.086770274 1.245
-0.19039008 -0.088123411 1.2410001
-0.18495035 -0.088123411 1.2410001
-0.17515889 -0.088123411 1.2410001
-0.16536738 -0.088123411 1.2410001
-0.15526506 -0.087501727 1.2410001
-0.14397117 -0.086914584 1.2410001
-0.13512121 -0.084998101 1.2430001
-0.12551674 -0.082950197 1.245
-0.11553778 -0.082482435 1.245
-0.10587064 -0.081858747 1.245
0.22811306 -0.081858747 1.245
0.23138739 -0.081858747 1.245
0.2488506 -0.081858747 1.245
0.25539929 -0.081858747 1.245
0.2661579 -0.082482435 1.245
0.27286249 -0.081858747 1.245
-0.13272908 -0.079419866 1.2410001
-0.12519203 -0.078383118 1.2418001
-0.11532199 -0.078331918 1.2410001
-0.10522573 -0.078105025 1.2420911
-0.094532065 -0.075872973 1.2430001
-0.085288644 -0.075797483 1.2427142
-0.074939817 -0.074255653 1.2426844
-0.064631499 -0.073201165 1.2435715
-0.055921685 -0.071502812 1.2438571
-0.044922385 -0.072291926 1.2442727
-0.034893084 -0.07349465 1.2437999
-0.025069688 -0.071944527 1.2434
-0.015275477 -0.072007209 1.2445
-0.0054572499 -0.07094425 1.245
0.0054572499 -0.07094425 1.245
0.015720012 -0.071749531 1.2427143
0.02386608 -0.072081 1.2436666
0.033834949 -0.07094425 1.245
0.046932351 -0.07094425 1.245
0.0545725 -0.07094425 1.245
0.062212646 -0.07094425 1.245
0.073127151 -0.07094425 1.245
0.15826026 -0.07094425 1.245
0.16556133 -0.071734346 1.2444999
0.17511055 -0.071863778 1.2441112
0.18508975 -0.072381109 1.2434001
0.19465519 -0.073134027 1.2424285
0.20479275 -0.075004168 1.2431818
0.21464255 -0.07518138 1.2428461
0.22476718 -0.07775525 1.2422
0.23610014 -0.076523632 1.2428463
0.24442491 -0.076693945 1.2424116
0.25408798 -0.079035886 1.2418001
0.2643702 -0.079419866 1.2410001
0.27386242 -0.078651905 1.2426001
-0.053364158 -0.068614073 1.2423334
-0.045693621 -0.068540432 1.2410001
-0.017407093 -0.068540432 1.2410001
-0.005443925 -0.067496672 1.2418001
0.0045071938 -0.06791874 1.2410001
0.011967377 -0.068540432 1.2410001
0.027198583 -0.068540432 1.2410001
0.035313513 -0.067671016 1.2421429
0.044367 -0.067779705 1.2420001
0.055520177 -0.067496665 1.2418001
0.065330952 -0.067507714 1.242
0.075693883 -0.066982158 1.2423333
0.085029215 -0.067589678 1.2435
0.095319085 -0.066817172 1.2431538
0.10523361 -0.065032013 1.2432222
0.11499162 -0.064334042 1.2437693
0.12482797 -0.064637512 1.2431539
0.13570347 -0.065947108 1.2433333
0.14482741 -0.065218501 1.2431056
0.15535137 -0.065700226 1.2421112
0.16500473 -0.067089833 1.2410001
0.17443359 -0.068177782 1.2410001
0.11423405 -0.059836883 1.2410001
0.1548506 0.30643737 1.2410001
0.15571615 0.31470418 1.2421428
0.16282885 0.3180421 1.2410001
0.15725109 0.32307735 1.2444286
0.16326696 0.32545084 1.2422308
0.16644612 0.33261937 1.245
0.17265792 0.33290839 1.2418001
0.19977392 -0.49998668 1.2590001
0.20576032 -0.49568138 1.2582942
0.2138523 -0.4947235 1.2532176
0.2202625 -0.49202916 1.25
0.2068868 -0.4857609 1.2589999
0.21483253 -0.48475292 1.2567148
0.22336079 -0.4850587 1.253158
0.21790864 -0.47522736 1.2582726
0.22545397 -0.47515014 1.2540004
0.23466489 -0.47308692 1.25
0.21890514 -0.4683466 1.2590001
0.22586706 -0.46520963 1.2563466
0.23588924 -0.46454048 1.2534586
0.2417686 -0.46195802 1.2516667
0.22685297 -0.45539859 1.2582
0.23493232 -0.45518905 1.2568949
0.24279219 -0.45476407 1.2523078
0.22540484 -0.44529104 1.2590002
0.23485206 -0.44490066 1.2572861
0.24430019 -0.4446547 1.2534169
0.227367 -0.43486699 1.2589999
0.23484778 -0.43511224 1.2590002
0.24571531 -0.43496141 1.255042
0.25386807 -0.4330368 1.25
0.22847073 -0.42824465 1.2590001
0.23386669 -0.42554662 1.2590002
0.24585995 -0.42491227 1.2576402
0.25355247 -0.4246825 1.2513334
0.23509307 -0.41831115 1.2590001
0.24824896 -0.41482028 1.2575454
0.25417051 -0.4152216 1.2528423
0.24833775 -0.40837765 1.2590001
0.25394985 -0.40501773 1.2550001
0.24833775 -0.39623669 1.2590001
0.25610411 -0.39617345 1.2562729
0.26132774 -0.39309075 1.2525001
0.25750715 -0.38502958 1.2589999
0.26309764 -0.3843329 1.2533889
0.25827128 -0.37636968 1.2589999
0.26511046 -0.37485182 1.2553335
0.27176666 -0.3714875 1.25
0.25805053 -0.36533242 1.2589999
0.26553589 -0.36514229 1.2568403
0.27204064 -0.36326873 1.25
0.25863919 -0.35797426 1.2590001
0.26600301 -0.35539207 1.2580477
0.27395448 -0.35505074 1.2520589
0.26710105 -0.34656912 1.2589999
0.27452618 -0.3457289 1.2564403
0.26820478 -0.33222073 1.2590001
0.27497742 -0.33518225 1.2572762
0.28240284 -0.33375093 1.2515
0.27607352 -0.32475787 1.2565714
0.28196537 -0.32431188 1.2515
0.27688739 -0.31514981 1.2590001
0.28340364 -0.3140645 1.2537895
0.27924201 -0.30683509 1.2590001
0.28553411 -0.30469078 1.2563047
0.29094374 -0.30299792 1.25
0.2868363 -0.29550496 1.2584286
0.29310456 -0.29391456 1.2542107
0.28733596 -0.28660014 1.2590001
0.29490137 -0.28472349 1.254704
0.30354583 -0.28272501 1.25
0.295735 -0.2756885 1.2571906
0.3042897 -0.27494401 1.2527201
0.31055915 -0.27330083 1.25
0.29717749 -0.26572138 1.2589999
0.30507377 -0.26514184 1.2559094
0.31012082 -0.26847917 1.25
0.30618584 -0.25537375 1.2574288
0.31219357 -0.25298899 1.250625
0.3062011 -0.24551211 1.2586666
0.31435886 -0.24511029 1.25463
0.32107916 -0.24437083 1.25
0.30720299 -0.23877215 1.2590001
0.31445646 -0.23514771 1.2565773
0.32170957 -0.23557706 1.2509091
0.31551817 -0.22588864 1.2575504
0.32469964 -0.22433984 1.2534169
0.3342292 -0.22182798 1.25
0.31701386 -0.21743351 1.2589999
0.32556087 -0.21571627 1.2573916
0.3335475 -0.21410525 1.2517896
0.32658345 -0.20660873 1.2566364
0.33313334 -0.20820834 1.25
-0.22361434 -0.13222605 1.2590001
-0.2174335 -0.13189493 1.2590001
-0.24207354 -0.12241598 1.2580001
-0.23464702 -0.12478958 1.2582
-0.22494708 -0.1249326 1.2587895
-0.2159021 -0.1252711 1.2575266
-0.25094584 -0.11067916 1.25
-0.24473798 -0.11472385 1.2547003
-0.23529145 -0.11536377 1.2555718
-0.22612512 -0.11534608 1.2576669
-0.21836451 -0.11689912 1.2580001
-0.25374934 -0.10275035 1.253
-0.24526869 -0.10448761 1.2546005
-0.23544638 -0.1045206 1.2550005
-0.22538415 -0.10554969 1.2541002
-0.21492507 -0.10587522 1.2558949
-0.20533608 -0.10562318 1.2572943
-0.19515213 -0.10474502 1.2576668
-0.18549895 -0.10509299 1.2577692
-0.17514539 -0.10404249 1.2575001
-0.16431451 -0.10256118 1.2579334
-0.15528637 -0.1017786 1.2585
-0.14458776 -0.10043882 1.2590001
-0.13796541 -0.10154255 1.2590001
-0.26158243 -0.096023932 1.2590001
-0.25451857 -0.095361695 1.2589999
-0.24591541 -0.095043659 1.2545884
-0.23595756 -0.096305676 1.251875
-0.2282986 -0.098990284 1.25
-0.21149583 -0.099720836 1.25
-0.20492084 -0.099720836 1.25
-0.19505833 -0.099720836 1.25
-0.18519583 -0.099720836 1.25
-0.17642917 -0.099720836 1.25
-0.1655997 -0.097607195 1.251
-0.15433799 -0.096276335 1.2518182
-0.14415023 -0.096471652 1.2533
-0.1349088 -0.094080038 1.2540714
-0.12581268 -0.092738375 1.2576667
-0.11478722 -0.091609038 1.2590001
-0.098231375 -0.091609038 1.2590001
-0.089401588 -0.091609038 1.2590001
0.20860371 -0.091609038 1.2590001
0.21559395 -0.091976941 1.2589999
0.22515956 -0.092712767 1.2589999
0.23288564 -0.09271276 1.2589999
0.24392284 -0.091609038 1.2590001
0.25551197 -0.091609038 1.2590001
0.26489359 -0.091609038 1.2590001
0.27151594 -0.091609038 1.2590001
-0.25295305 -0.087401919 1.2556001
-0.24835527 -0.088150293 1.2516667
-0.13204792 -0.088214576 1.25
-0.12498583 -0.087711051 1.250625
-0.11473374 -0.087044567 1.2519232
-0.10466611 -0.08677569 1.255
-0.095108591 -0.085472174 1.2534446
-0.085218519 -0.085837364 1.2552223
-0.074977495 -0.084332116 1.2546667
-0.065036446 -0.084881037 1.2574002
-0.055557519 -0.082235374 1.2574
-0.045208119 -0.081598736 1.2578
-0.034903705 -0.081928879 1.2572223
-0.025688559 -0.082320958 1.2571539
-0.01542758 -0.081547536 1.2570001
-0.0066223401 -0.0805718 1.2590001
0.015452126 -0.0805718 1.2590001
0.025385637 -0.0805718 1.2590001
0.035319146 -0.0805718 1.2590001
0.044700794 -0.0805718 1.2590001
0.055186167 -0.0805718 1.2590001
0.067327119 -0.0805718 1.2590001
0.074992701 -0.081611529 1.258
0.084040642 -0.0812025 1.2589999
0.094920211 -0.0805718 1.2590001
0.10485373 -0.0805718 1.2590001
0.11147606 -0.0805718 1.2590001
0.13686168 -0.0805718 1.2590001
0.14458777 -0.0805718 1.2590001
0.15452127 -0.0805718 1.2590001
0.16568115 -0.081798159 1.2589999
0.17565073 -0.083192416 1.2573532
0.18524656 -0.083261669 1.2567145
0.19510327 -0.084454753 1.2567393
0.20514143 -0.085625328 1.2568827
0.21463248 -0.085635766 1.2561431
0.22506511 -0.085900366 1.2536316
0.23594408 -0.085982539 1.2541333
0.24508718 -0.08601632 1.2550001
0.25524715 -0.086922124 1.2550001
0.26500285 -0.087211885 1.2543076
0.27554926 -0.086114161 1.2539166
0.28055525 -0.084716685 1.2550001
-0.095337503 -0.079995833 1.25
-0.083283335 -0.079995833 1.25
-0.0756125 -0.079995833 1.25
-0.064654171 -0.078899987 1.25
-0.054353334 -0.076050825 1.25
-0.044685651 -0.076830082 1.25
-0.035066664 -0.077804163 1.25
-0.025212493 -0.076739445 1.2505
-0.015347694 -0.076747231 1.250625
-0.0057918448 -0.075460084 1.2546667
0.0060085384 -0.075603329 1.2553846
0.015007949 -0.076509029 1.2526667
0.026246203 -0.076351695 1.2522727
0.035274249 -0.075096831 1.2517859
0.044614851 -0.075223938 1.2520589
0.054949835 -0.075833343 1.2535834
0.065216161 -0.075306602 1.2534118
0.07558503 -0.075005271 1.2520001
0.08505372 -0.074930653 1.2527779
0.094839357 -0.074546173 1.2536471
0.10473301 -0.074980885 1.2547898
0.1153608 -0.074688077 1.2557369
0.1253117 -0.075139053 1.2571177
0.1350432 -0.074618466 1.2545265
0.14487655 -0.075000443 1.2547648
0.15467699 -0.074887693 1.2532105
0.16493949 -0.076229274 1.2535455
0.17511174 -0.077002995 1.2527778
0.1849528 -0.076933831 1.2516667
0.19505833 -0.077804163 1.25
0.20419027 -0.079265274 1.25
0.21478333 -0.079447918 1.25
0.22135833 -0.079995833 1.25
0.1052 -0.069037497 1.25
0.11469722 -0.068672217 1.25
0.124925 -0.069037497 1.25
0.13150001 -0.069037497 1.25
0.14793751 -0.069037497 1.25
0.15501495 0.32759443 1.251875
0.15528095 0.33565131 1.2553159
0.16405502 0.33698872 1.2513636
0.17273402 0.33996695 1.2550001
0.14876595 0.34822428 1.2570001
0.15443715 0.34564036 1.2587897
0.1643851 0.34561414 1.2560955
0.1715191 0.34524083 1.2541667
0.14789893 0.35208774 1.2590001
0.15341754 0.35208774 1.2590001
0.16611037 0.35484704 1.2589999
0.17107712 0.35208774 1.2590001
0.19669883 -0.49570483 1.2667499
0.20158073 -0.49452558 1.2648
0.19897878 -0.48577502 1.268
0.20426401 -0.48480764 1.2658666
0.20691086 -0.47896972 1.2666668
0.21300454 -0.47503957 1.2665262
0.21514753 -0.46472961 1.267
0.22106728 -0.46374264 1.2640001
0.21642213 -0.45529577 1.2677332
0.22157575 -0.45608446 1.2644445
0.21824674 -0.44538641 1.268
0.2216624 -0.44411632 1.2651428
0.21898782 -0.43797565 1.268
0.22340751 -0.43489113 1.2654999
0.23824294 -0.43437782 1.2640001
0.2263198 -0.42490631 1.2654999
0.23824294 -0.42551297 1.2640001
0.24045914 -0.42440486 1.2640001
0.22800933 -0.41789532 1.2666668
0.23437858 -0.41479248 1.2661538
0.24322627 -0.41506553 1.2650526
0.23670574 -0.40562123 1.2676363
0.2452703 -0.40431863 1.2654544
0.23677364 -0.39795756 1.268
0.24508724 -0.3944295 1.2656
0.25264832 -0.39337787 1.2640001
0.24787267 -0.38638073 1.2665
0.252846 -0.38453799 1.265
0.24788977 -0.37683693 1.268
0.25311375 -0.37449896 1.2651111
0.26040506 -0.37343195 1.2640001
0.25342146 -0.36496806 1.2649412
0.25614908 -0.35439095 1.2662499
0.26173478 -0.35259956 1.2640001
0.25769001 -0.34433007 1.2670001
0.26378772 -0.34392136 1.2640001
0.25856125 -0.33637422 1.268
0.26454559 -0.33447421 1.2651428
0.26604223 -0.32482097 1.265
0.27148613 -0.32356715 1.2640001
0.2662499 -0.3148323 1.2677143
0.27208927 -0.31406894 1.2652308
0.2678988 -0.30791688 1.268
0.2747924 -0.30510864 1.2651428
0.28090504 -0.30195907 1.2640001
0.2760812 -0.2946876 1.2655385
0.28236571 -0.29445416 1.2640001
0.27812925 -0.28637594 1.2668571
0.28440073 -0.28450239 1.2645454
0.28522927 -0.27477002 1.2655237
0.29290953 -0.27296361 1.2640001
0.2867181 -0.26491979 1.2656469
0.29394376 -0.26409876 1.2640001
0.3002969 -0.26262128 1.2640001
0.28716674 -0.25826481 1.268
0.29460049 -0.25508419 1.2661998
0.30140501 -0.25486451 1.2640001
0.29685688 -0.24466713 1.2666665
0.30195904 -0.24452221 1.2640001
0.29768404 -0.23570177 1.2675556
0.30438107 -0.2345483 1.2644
0.30593896 -0.22532104 1.2655237
0.31137797 -0.22383755 1.2640001
0.3074986 -0.21710475 1.2662858
0.31431857 -0.21448988 1.26525
0.32245904 -0.21164839 1.2640001
0.31838709 -0.20684986 1.2672001
0.32274908 -0.20454936 1.2651428
0.32542479 -0.19703345 1.268
-0.23121557 -0.1411749 1.268
-0.22426255 -0.14277534 1.2664
-0.21787621 -0.1411749 1.268
-0.2339769 -0.13456364 1.2662222
-0.22542055 -0.13629711 1.2640001
-0.21489778 -0.13515681 1.2665454
-0.23602672 -0.12909442 1.2640001
-0.21309137 -0.12097473 1.266
-0.22051322 -0.11524309 1.2640001
-0.2143219 -0.1154174 1.2651764
-0.20514372 -0.11471207 1.2657499
-0.19493264 -0.11450263 1.2661538
-0.18506984 -0.11418508 1.2662857
-0.17464279 -0.11452799 1.2665714
-0.16523699 -0.11376105 1.2665454
-0.1550083 -0.11251998 1.268
-0.14450973 -0.11004972 1.268
-0.13895166 -0.11004972 1.268
-0.20056731 -0.10970256 1.2640001
-0.19502677 -0.10970256 1.2640001
-0.18394572 -0.10970256 1.2640001
-0.17441599 -0.10925932 1.2640001
-0.16510789 -0.10859446 1.2640001
-0.15483274 -0.10708341 1.2640001
-0.14516197 -0.10527014 1.2640001
-0.13421369 -0.10445706 1.2666665
-0.12534896 -0.10245883 1.2675999
-0.11513138 -0.10179203 1.268
-0.10560326 -0.10115681 1.268
0.22565751 -0.10115682 1.268
0.23380934 -0.10115681 1.268
0.24566655 -0.10115682 1.268
0.25544876 -0.10160146 1.268
0.26382288 -0.1018979 1.268
-0.26091179 -0.094236404 1.2646667
-0.25818884 -0.093080953 1.2640001
-0.1340809 -0.098621495 1.2640001
-0.12427881 -0.097066447 1.2647272
-0.11495582 -0.096695788 1.2655385
-0.10515775 -0.09523607 1.2654736
-0.094625123 -0.095934957 1.2663529
-0.084713846 -0.0954298 1.2665881
-0.074954458 -0.094100319 1.2673846
-0.064371876 -0.093229994 1.266
-0.054266941 -0.092263907 1.2679999
-0.044464532 -0.091152295 1.268
-0.035412826 -0.0922639 1.268
-0.024084955 -0.091522835 1.268
-0.015340264 -0.091819264 1.268
-0.0044464534 -0.090040676 1.268
0.0044464534 -0.090040676 1.268
0.0166742 -0.090040676 1.268
0.024455495 -0.090040676 1.268
0.031125173 -0.090040676 1.268
0.065585189 -0.090040676 1.268
0.07447809 -0.090040676 1.268
0.082259387 -0.090040676 1.268
0.16785361 -0.090040676 1.268
0.17452329 -0.091819264 1.268
0.18452781 -0.092263907 1.268
0.19521177 -0.09302485 1.267
0.20421425 -0.093229994 1.266
0.21473306 -0.095836028 1.2662222
0.2243425 -0.097194977 1.2656
0.23528777 -0.096921712 1.2654544
0.2449034 -0.095828868 1.2654999
0.25467545 -0.096357934 1.2654285
0.26458076 -0.096269265 1.2642858
0.27390924 -0.094759487 1.2666668
0.28123817 -0.090040676 1.268
-0.26040506 -0.087540425 1.2640001
-0.25818884 -0.088648528 1.2640001
-0.080891788 -0.089756638 1.2640001
-0.076016113 -0.089313395 1.2640001
-0.065378293 -0.089756638 1.2640001
-0.055405334 -0.087540433 1.2640001
-0.045432374 -0.086432323 1.2640001
-0.03545941 -0.087540433 1.2640001
-0.025486451 -0.08776205 1.2640001
-0.0147512 -0.087241545 1.2646154
-0.0048549799 -0.084491372 1.2659999
0.005054276 -0.08409144 1.2657778
0.014754551 -0.085677877 1.2668571
0.024852017 -0.085322052 1.2664616
0.034745552 -0.085677877 1.2668571
0.045037623 -0.085005604 1.2662857
0.054831333 -0.085096054 1.26675
0.064465396 -0.084748887 1.2664
0.074382715 -0.08659783 1.2663999
0.085269384 -0.085675515 1.2661817
0.094718575 -0.085677885 1.266857
0.10479107 -0.085322052 1.2664615
0.11416145 -0.083883613 1.2665454
0.12507667 -0.082893804 1.2663332
0.13495435 -0.084047496 1.267
0.14521527 -0.084599741 1.2664
0.15527695 -0.085321285 1.2666665
0.16433419 -0.086053282 1.2658181
0.17460595 -0.08880683 1.2640001
0.18505383 -0.089123435 1.2640001
0.19502677 -0.089756638 1.2640001
0.28367531 -0.087540425 1.2640001
-0.0011081067 -0.078675576 1.2640001
0.0022162134 -0.078675576 1.2640001
0.14848629 0.35681036 1.2640001
0.15561339 0.3566927 1.2648889
0.16156195 0.35614547 1.2640001
0.14784457 0.36127433 1.268
0.15525533 0.36164486 1.268
0.16448517 0.36431554 1.2663332
0.16711253 0.37090829 1.268
0.16843045 -0.49782217 1.2780001
0.17583279 -0.49569663 1.2766843
0.18464138 -0.49514499 1.2740526
0.19262104 -0.49505615 1.2729999
0.17718008 -0.48672509 1.278
0.18486749 -0.48522916 1.2763929
0.19462086 -0.48512265 1.2736523
0.2019954 -0.48211056 1.273
0.18641399 -0.47581676 1.278
0.19544932 -0.47533989 1.2740002
0.20512019 -0.47519138 1.273
0.21092337 -0.47206658 1.273
0.18822384 -0.46831885 1.2780001
0.19608262 -0.46564674 1.2758847
0.20500931 -0.46492574 1.2734548
0.21092337 -0.46537063 1.273
0.19662669 -0.45767522 1.2780001
0.20483533 -0.45513937 1.2761821
0.21265939 -0.45470667 1.2729999
0.20573765 -0.44522214 1.2775652
0.21415104 -0.44474968 1.275143
0.20663008 -0.43454739 1.278
0.21586356 -0.43464312 1.2765001
0.22208333 -0.43412271 1.273
0.20771845 -0.42820925 1.2780001
0.21602644 -0.42467204 1.2768
0.22272106 -0.4242382 1.2729999
0.21696967 -0.41530782 1.2775455
0.22401766 -0.41440839 1.2745001
0.21847411 -0.40893871 1.2780001
0.2263307 -0.40586969 1.2762352
0.23378639 -0.4042626 1.2733572
0.22690992 -0.39562595 1.278
0.23541312 -0.39508066 1.2745001
0.24174142 -0.39222476 1.2746667
0.22743714 -0.38541067 1.278
0.23472655 -0.38510132 1.2740526
0.24381471 -0.38535959 1.2757778
0.22893099 -0.37906191 1.2780001
0.23514017 -0.37510487 1.2772501
0.2441915 -0.37507433 1.2759999
0.23575996 -0.36556405 1.278
0.24536029 -0.36553487 1.2764783
0.25109926 -0.36269891 1.273
0.2376806 -0.35644087 1.278
0.24632172 -0.35560432 1.2774737
0.25220084 -0.35441935 1.2735554
0.23864093 -0.34507707 1.2780001
0.24844429 -0.3456372 1.278
0.25384352 -0.34500527 1.2747858
0.23864093 -0.33947513 1.2780001
0.24984474 -0.33723438 1.2780001
0.2552948 -0.33479571 1.2772501
0.26002723 -0.331451 1.273
0.2567707 -0.32521573 1.278
0.26177496 -0.32437068 1.2749999
0.25691175 -0.31534389 1.278
0.26238501 -0.31385455 1.2763332
0.25880778 -0.30810449 1.2780001
0.26549515 -0.30502295 1.2760556
0.27136323 -0.30263162 1.2738333
0.26634488 -0.29445621 1.278
0.27155721 -0.29440051 1.2754999
0.26777083 -0.28793767 1.2780001
0.2742964 -0.28463113 1.2756191
0.28011516 -0.28011516 1.273
0.27631733 -0.27463728 1.277375
0.28085914 -0.27379116 1.2729999
0.27852648 -0.26508188 1.2780001
0.28224835 -0.26436314 1.2750832
0.2850357 -0.25515825 1.2762352
0.29194859 -0.25263745 1.2739999
0.28672269 -0.24602871 1.2775832
0.29196781 -0.24521235 1.2745383
0.28793767 -0.23752055 1.2780001
0.29381794 -0.23542015 1.2758949
0.29680315 -0.22661531 1.2775832
0.30158913 -0.22410814 1.2746665
0.29914147 -0.2139926 1.2780001
0.30457309 -0.21452141 1.2752223
0.31303707 -0.21148138 1.273
0.30741352 -0.20845082 1.2770001
0.31428474 -0.20460467 1.2766364
0.32029104 -0.2019954 1.273
0.31508753 -0.19516584 1.2772501
0.32268247 -0.19434284 1.2729999
0.31543791 -0.18516828 1.278
0.32322633 -0.18549794 1.2764615
0.31818792 -0.17702004 1.2780001
0.32154906 -0.17814042 1.2780001
-0.22071485 -0.1512513 1.2780001
-0.21479462 -0.15214869 1.276125
-0.20689683 -0.15199822 1.278
-0.19830726 -0.1512513 1.2780001
-0.22208333 -0.14731157 1.273
-0.21538599 -0.1457058 1.2752223
-0.20562284 -0.14484563 1.2770475
-0.2408817 -0.13780674 1.2780001
-0.23770729 -0.13682118 1.273
-0.21231715 -0.137022 1.2737142
-0.20747399 -0.13434376 1.278
-0.21194351 -0.12515819 1.2746667
-0.20517725 -0.12497541 1.276611
-0.19507059 -0.12361525 1.278
-0.1848627 -0.1232418 1.278
-0.17490375 -0.12361525 1.278
-0.16519381 -0.12311731 1.278
-0.15573283 -0.12212142 1.2780001
-0.2031114 -0.11941164 1.273
-0.19529942 -0.11941163 1.273
-0.18525545 -0.11941164 1.273
-0.17521147 -0.11941163 1.273
-0.1638222 -0.11884093 1.2737142
-0.15407249 -0.11737434 1.2750832
-0.14477369 -0.11632081 1.2757779
-0.13483328 -0.11196864 1.2757777
-0.12615478 -0.11136577 1.2780001
-0.11539914 -0.11091761 1.2780001
0.2296779 -0.11091762 1.2780001
0.2352798 -0.11091762 1.2780001
0.25880778 -0.11091762 1.2780001
-0.1339196 -0.10825168 1.273
-0.12451334 -0.1072951 1.2729999
-0.11470576 -0.1064605 1.2741538
-0.10475913 -0.10476205 1.2757777
-0.094703585 -0.10346895 1.2759166
-0.085125305 -0.10327114 1.2757777
-0.075812377 -0.10232804 1.278
-0.067222804 -0.10195458 1.2780001
-0.057139378 -0.10195458 1.2780001
0.1848627 -0.10195458 1.2780001
0.19494613 -0.10195458 1.2780001
0.20552142 -0.10360191 1.2775832
0.21548162 -0.10413023 1.2753334
0.22523104 -0.10564892 1.2756667
0.2350733 -0.10556295 1.2751428
0.2457457 -0.10429887 1.2765
0.25513217 -0.10567209 1.2754999
0.26406199 -0.10607283 1.2736249
0.27264419 -0.10256854 1.2763335
0.2948758 -0.10277112 1.2770001
-0.2644912 -0.099323705 1.273
-0.073854648 -0.098741718 1.2737142
-0.064854927 -0.098402768 1.2754999
-0.054399136 -0.09781152 1.2750832
-0.044727534 -0.0972853 1.2754999
-0.034104377 -0.097098581 1.2754999
-0.024600143 -0.096166387 1.2754999
-0.014218218 -0.096167639 1.2754999
-0.004843778 -0.094282284 1.2752222
0.0052167512 -0.093495905 1.2746667
0.0145401 -0.094167389 1.2756667
0.02451144 -0.094896294 1.2761817
0.035163235 -0.093114406 1.2749231
0.044714015 -0.092782237 1.2750832
0.055152759 -0.093538776 1.2752223
0.064739406 -0.093630828 1.2749231
0.074891008 -0.093892746 1.2749999
0.08554104 -0.093931466 1.2754999
0.095400311 -0.094062433 1.27575
0.10506319 -0.094512492 1.2749445
0.11428259 -0.093022294 1.2762144
0.12565304 -0.092690997 1.2766362
0.13505122 -0.093481958 1.2756472
0.14557411 -0.093977116 1.2761251
0.15471579 -0.094412111 1.2764211
0.16466215 -0.095094532 1.2760954
0.17510343 -0.096910238 1.27425
0.18537742 -0.097156733 1.2738332
0.19449247 -0.097603925 1.2743635
0.20498785 -0.098461747 1.2746665
0.21360175 -0.098877296 1.273
0.27653238 -0.097692393 1.275
0.28535175 -0.093630828 1.2749231
0.29271156 -0.096489668 1.2757272
0.11717964 -0.087047733 1.2729999
0.12432203 -0.087717339 1.273
0.13325 -0.087717339 1.273
0.14396356 -0.088163733 1.273
0.15177554 -0.088163733 1.273
0.29498005 -0.01456494 1.278
-0.24984474 0.00784266 1.2780001
0.14786956 0.36716291 1.273
0.15480468 0.36732227 1.2729999
0.16181952 0.36827892 1.273
0.14789015 0.37420693 1.2780001
0.15546471 0.37510273 1.2772307
0.16387025 0.37622747 1.274875
0.16665652 0.38345003 1.278
0.15920968 -0.49795368 1.2880001
0.16643256 -0.49524498 1.2856667
0.17190364 -0.49228606 1.2850001
0.16711371 -0.48779136 1.2880001
0.1739094 -0.48461804 1.2851056
0.17613296 -0.47529396 1.2874739
0.18285123 -0.47406301 1.2839091
0.1776524 -0.46709037 1.2880001
0.18485762 -0.46502918 1.2857779
0.1910491 -0.46292046 1.2830001
0.18574463 -0.45673987 1.2880001
0.19422567 -0.45412609 1.2841909
0.18856747 -0.44601294 1.2880001
0.19495794 -0.44537082 1.2855002
0.20133263 -0.44428149 1.2830001
0.19615611 -0.43566826 1.2859548
0.20216964 -0.43471912 1.2835556
0.20585781 -0.42616415 1.2857274
0.21053566 -0.42331976 1.2842501
0.21349344 -0.41480625 1.2848182
0.21561375 -0.40456948 1.2851433
0.22247213 -0.40592837 1.2838334
0.21597217 -0.39620078 1.2875835
0.22190779 -0.39503559 1.2849231
0.21679616 -0.3895556 1.2880001
0.22239707 -0.38433567 1.2861252
0.22527775 -0.37527093 1.2858948
0.23057649 -0.37342143 1.2830001
0.22844443 -0.36547747 1.2872858
0.23177692 -0.36310938 1.2841111
0.22921677 -0.35793948 1.2880001
0.23449574 -0.35476372 1.2856473
0.24294889 -0.35467538 1.2830001
0.23587155 -0.34525847 1.2863334
0.24449542 -0.34473997 1.2830002
0.25082222 -0.3408033 1.2830001
0.23823695 -0.33578807 1.2857274
0.24490744 -0.33484149 1.2841114
0.25082222 -0.33405471 1.2830001
0.23779394 -0.32614115 1.2872858
0.24505648 -0.32517603 1.2855002
0.25225374 -0.32485208 1.2830001
0.23824994 -0.31841937 1.2880001
0.24529678 -0.31584236 1.2869475
0.25254712 -0.31412303 1.2834547
0.25634259 -0.30511108 1.2847502
0.26263225 -0.30199897 1.2830001
0.25765795 -0.29550555 1.2858572
0.26275879 -0.2942664 1.2836251
0.26471788 -0.28460553 1.2849568
0.27106795 -0.28231561 1.2830001
0.26651475 -0.27537477 1.2858572
0.27219272 -0.27444226 1.2830001
0.26888821 -0.26578307 1.2873751
0.27428773 -0.26528791 1.2833334
0.27511254 -0.25597063 1.284389
0.28070882 -0.25435719 1.2830001
0.27778554 -0.24658529 1.2863334
0.2822265 -0.24483761 1.2833848
0.27889922 -0.23373336 1.2880001
0.28460908 -0.23477207 1.2841368
0.29131371 -0.23170125 1.2830001
0.28506565 -0.22455907 1.2861253
0.29356411 -0.22362863 1.2837144
0.2879324 -0.21792531 1.2880001
0.29547638 -0.21716392 1.2835001
0.30256131 -0.2133301 1.2830001
