# .PCD v0.7 - Point Cloud Data file format
VERSION 0.7
FIELDS x y z
SIZE 4 4 4
TYPE F F F
COUNT 1 1 1
WIDTH 1474
HEIGHT 1
VIEWPOINT 0 0 0 1 0 0 0
POINTS 1474
DATA ascii
0.43507826 -0.47902557 1.6710001
0.44240281 -0.47756064 1.6710001
0.35670558 -0.42116159 1.6710001
0.36280939 -0.42140579 1.6710001
0.35513601 -0.41498807 1.6710002
0.36476257 -0.41408122 1.6710001
0.37404037 -0.41554615 1.6710001
0.38820115 -0.41163972 1.6710001
0.34571874 -0.40431517 1.6710001
0.35128543 -0.40636605 1.6710001
0.39552569 -0.40724498 1.6710001
0.34425387 -0.39552569 1.6710001
0.35011348 -0.39699063 1.6710001
0.40870988 -0.3969906 1.6710001
0.41749933 -0.39113095 1.6710001
0.46584138 -0.39259586 1.6710001
0.47121271 -0.39210758 1.6710001
0.49513957 -0.39259589 1.6710001
0.33766174 -0.38527131 1.6710001
0.34278893 -0.38527131 1.6710001
0.42775372 -0.38820115 1.6710001
0.43507826 -0.38527134 1.6710001
0.46657383 -0.38600379 1.6710001
0.47389838 -0.38563752 1.6710002
0.48488522 -0.38585728 1.6710001
0.49220976 -0.38820115 1.6710001
0.33839419 -0.37501696 1.6710001
0.34257966 -0.3752262 1.6710002
0.45705193 -0.37355205 1.6710001
0.4651089 -0.37574941 1.6710001
0.47414255 -0.37745845 1.6710002
0.482932 -0.37843511 1.6710001
0.34249598 -0.36534852 1.6710001
0.47902557 -0.36769241 1.6710001
0.48342031 -0.36769241 1.6710001
0.33839419 -0.35450822 1.6710001
0.34257966 -0.35471752 1.6710002
0.33766174 -0.34352142 1.6710001
0.34425387 -0.34425387 1.6710001
0.33692929 -0.33546439 1.6710001
0.33692929 -0.32521001 1.6710002
0.34278893 -0.3222802 1.6710001
0.33722228 -0.31436968 1.6710001
0.34383532 -0.31411856 1.6710002
-0.11572789 -0.30030656 1.6710001
0.33672002 -0.30532908 1.6710002
0.34230065 -0.30811942 1.6710001
-0.162605 -0.29444692 1.6710001
-0.14209627 -0.29444692 1.6710001
-0.13233019 -0.29542351 1.6710001
-0.12549396 -0.29249367 1.6710001
-0.11631385 -0.29327497 1.6710001
-0.10840334 -0.29151708 1.6710001
0.33546439 -0.29444692 1.6710001
-0.12158753 -0.28858727 1.6710001
-0.11572789 -0.28858727 1.6710001
0.33722228 -0.28624344 1.6710001
0.34425387 -0.28272763 1.6710001
0.33839419 -0.27833289 1.6710001
0.34366789 -0.27481708 1.6710002
-0.089359507 -0.26807854 1.6710001
0.34462008 -0.26551494 1.6710002
-0.11865771 -0.25342944 1.6710001
0.34392831 -0.2550571 1.6710002
0.34483981 -0.24522594 1.6710001
0.34718367 -0.23585051 1.6710001
0.35011348 -0.23292069 1.6710001
-0.16455822 -0.22510783 1.6710001
-0.1596752 -0.22559613 1.6710001
0.34718367 -0.22559613 1.6710001
0.35011348 -0.22559613 1.6710001
-0.162605 -0.21241195 1.6710001
-0.15235063 -0.21241195 1.6710001
0.34718367 -0.21680668 1.6710001
0.3510901 -0.21338856 1.6710001
0.35597312 -0.20655231 1.6710001
0.36183277 -0.19776285 1.6710001
0.37062222 -0.1919032 1.6710001
0.37501696 -0.18897338 1.6710001
0.38380641 -0.18164885 1.6710001
0.38820115 -0.17725411 1.6710001
0.39479321 -0.17432429 1.6710001
0.3984555 -0.16846465 1.6710001
0.40578008 -0.16455822 1.6710001
0.40773329 -0.15430386 1.6710001
0.40724501 -0.14502609 1.6710001
0.39992043 -0.1333068 1.6710001
0.40343618 -0.13565066 1.6710001
0.39992043 -0.12451734 1.6710001
0.40285024 -0.12451734 1.6710001
0.39992043 -0.11572789 1.6710001
0.40358272 -0.11499543 1.6710001
0.38820115 -0.10107879 1.6710001
0.39552569 -0.10840334 1.6710001
-0.1919032 -0.071780592 1.6710001
-0.18750848 -0.073245496 1.6710001
-0.22266632 -0.060061309 1.6710001
-0.21592772 -0.061233234 1.6710001
-0.20533156 -0.06421189 1.6710001
-0.19525157 -0.066758037 1.6710002
-0.18311377 -0.065920949 1.6710002
-0.17432429 -0.062991127 1.6710002
-0.16699974 -0.062991127 1.6710001
0.45851684 -0.064456038 1.6710001
0.46730629 -0.065920949 1.6710001
-0.22193387 -0.053469218 1.6710001
-0.21576032 -0.055038761 1.6710002
-0.20948213 -0.057131488 1.6710001
-0.18018393 -0.057131488 1.6710001
-0.17491026 -0.05595956 1.6710001
-0.16480237 -0.054934125 1.6710001
-0.15488094 -0.053935323 1.6710002
-0.14561205 -0.05244378 1.6710001
-0.13447873 -0.051857818 1.6710001
-0.12598225 -0.051271848 1.6710001
0.46730629 -0.05420167 1.6710001
-0.22559613 -0.046144668 1.6710001
-0.1596752 -0.04834203 1.6710001
-0.14209627 -0.04834203 1.6710001
-0.13477172 -0.04834203 1.6710001
-0.12354074 -0.046388816 1.6710001
-0.11768111 -0.043458998 1.6710001
0.42775372 -0.042482391 1.6710001
0.43214846 -0.042482391 1.6710001
0.46730629 -0.04834203 1.6710001
-0.12158753 -0.039552569 1.6710001
-0.11475129 -0.036134444 1.6710001
-0.10791504 -0.031739715 1.6710001
0.42738748 -0.035524067 1.6710002
0.43214846 -0.03076311 1.6710001
-0.103032 -0.026856683 1.6710001
-0.09521915 -0.024903469 1.6710001
-0.084964782 -0.02343856 1.6710001
-0.076175317 -0.021973649 1.6710001
0.42746073 -0.025489435 1.6710001
-0.08057005 -0.019043829 1.6710001
-0.073245496 -0.019043829 1.6710001
-0.064163052 -0.015528046 1.6710001
-0.054934122 -0.010986825 1.6710001
-0.04834203 -0.01025437 1.6710001
-0.035157841 -0.01025437 1.6710001
-0.024903469 -0.01025437 1.6710001
0.42531219 -0.015625706 1.6710001
0.46437648 -0.01025437 1.6710001
-0.044679757 -0.0065920949 1.6710001
-0.035157841 -0.00585964 1.6710002
-0.024903471 -0.00585964 1.6710001
-0.0146491 -0.0053713364 1.6710001
-0.00292982 -0.00146491 1.6710001
0.005127185 -0.002197365 1.6710001
0.0146491 -0.00146491 1.6710001
0.021973649 -0.00146491 1.6710001
0.42482388 -0.0043947301 1.6710001
0.46144664 -0.0073245498 1.6710001
-0.01025437 0.0043947301 1.6710001
-0.0043947301 0.0043947301 1.6710002
0.0043947306 0.0043947306 1.6710002
0.0146491 0.0043947301 1.6710001
0.024903469 0.0043947306 1.6710002
0.034425382 0.0054934123 1.6710002
0.042482391 0.0073245498 1.6710001
0.41749933 0.0043947301 1.6710001
0.42042917 0.00146491 1.6710001
0.44777417 0.0043947301 1.6710001
0.45265719 0.00146491 1.6710001
-0.0043947301 0.01025437 1.6710001
0.02783329 0.01025437 1.6710001
0.035157841 0.01025437 1.6710001
0.045412213 0.011719279 1.6710001
0.054787628 0.011426298 1.6710001
0.064456038 0.011719279 1.6710002
0.074710414 0.01318419 1.6710001
0.084598549 0.012451735 1.6710002
0.09521915 0.014356119 1.6710001
0.10547352 0.01757892 1.6710002
0.11572789 0.019043829 1.6710001
0.12451735 0.019043829 1.6710001
0.1318419 0.019043829 1.6710001
0.41456953 0.01025437 1.6710001
0.44679755 0.01025437 1.6710001
0.10986825 0.021973649 1.6710001
0.11631385 0.023145577 1.6710001
0.12451734 0.02343856 1.6710001
0.13418576 0.024903473 1.6710002
0.34132403 0.02636838 1.6710001
0.35597312 0.02783329 1.6710001
0.36183277 0.02783329 1.6710001
0.13623662 0.03076311 1.6710001
0.14502609 0.035157841 1.6710001
0.15576877 0.03369293 1.6710001
0.16553484 0.03369293 1.6710001
0.17432429 0.032716323 1.6710001
0.18457867 0.03369293 1.6710001
0.19410057 0.034425385 1.6710001
0.20571521 0.033274382 1.6710002
0.21534179 0.03369293 1.6710001
0.22519661 0.036889099 1.6710002
0.23658296 0.035890296 1.6710001
0.24171014 0.035157841 1.6710001
0.36622751 0.03076311 1.6710001
0.37413803 0.034278892 1.6710001
0.3833181 0.034669537 1.6710001
0.42921862 0.03076311 1.6710001
0.41163972 0.04834203 1.6710001
0.40870988 0.055666581 1.6710001
0.41163972 0.051271848 1.6710001
0.39992043 0.068850771 1.6710001
0.3984555 0.071780592 1.6710001
0.38820115 0.086429685 1.6710001
0.39406076 0.081546657 1.6710001
0.37648186 0.092289329 1.6710001
0.38673624 0.092289329 1.6710001
0.052736759 0.39992043 1.6710001
0.02783329 0.40578008 1.6710001
0.036622752 0.40724495 1.6710001
0.045412216 0.40578005 1.6710002
0.051271848 0.40724498 1.6710001
0.036622748 0.41456953 1.6710002
0.042482391 0.41456953 1.6710001
0.051271848 0.41749933 1.6710001
0.019043829 0.42775372 1.6710001
0.025196454 0.42570281 1.6710002
0.035450824 0.42511687 1.671
0.044435605 0.42335901 1.6710001
0.051271848 0.42042917 1.6710001
0.01757892 0.43507826 1.6710001
0.024903471 0.43507826 1.6710002
0.035157841 0.43507826 1.6710001
0.044993665 0.43591532 1.6710002
0.015625706 0.44630924 1.6710001
0.024637125 0.44573221 1.6710002
0.035060178 0.4456256 1.671
0.044435602 0.44484437 1.6710002
0.01611401 0.45265719 1.6710001
0.024317505 0.45382911 1.6710001
0.01611401 0.46730629 1.6710001
0.024903471 0.46730629 1.6710001
0.056154881 0.46632969 1.6710001
0.018067224 0.47463083 1.6710001
0.024903471 0.4746308 1.6710001
0.034819786 0.47564495 1.6710001
0.045998171 0.47521681 1.6710002
0.053935323 0.47449771 1.6710002
0.019043829 0.48488522 1.6710001
0.024903469 0.48488516 1.6710002
0.035157841 0.48488519 1.6710001
0.045412205 0.48488516 1.6710002
0.052004308 0.48415276 1.6710001
0.037041299 0.49283761 1.6710002
0.044826247 0.49191681 1.6710001
0.051271848 0.49074486 1.6710001
0.39609671 -0.49771056 1.6880001
0.40102941 -0.4972173 1.6880001
0.41508764 -0.49351773 1.6880001
0.42520541 -0.49537876 1.6836923
0.43122879 -0.49318931 1.6826668
0.449204 -0.4978064 1.6800001
0.45542368 -0.49534822 1.6866666
0.46416816 -0.49475089 1.6880001
0.47307459 -0.49255762 1.6832001
0.40990829 -0.48981822 1.6880001
0.41582754 -0.48537874 1.6879998
0.42453751 -0.48518527 1.6873332
0.43234676 -0.48517674 1.6832001
0.44036719 -0.48455119 1.6800001
0.45526356 -0.48568535 1.6868571
0.46444997 -0.4885498 1.688
0.47442234 -0.4852463 1.6835556
0.41667315 -0.47544289 1.688
0.42448276 -0.47476837 1.6871111
0.43390575 -0.47544622 1.683077
0.44429466 -0.47473252 1.6800002
0.45282286 -0.47502005 1.6880001
0.34775612 -0.46614119 1.6880001
0.4264822 -0.46673313 1.6880001
0.43476826 -0.46498871 1.6862221
0.444722 -0.46539828 1.6853333
0.45134306 -0.46614122 1.6880001
0.31668007 -0.45134306 1.6880001
0.32555893 -0.45134306 1.6880001
0.33295798 -0.45134306 1.6880001
0.42766604 -0.45282286 1.6880001
0.43506512 -0.4543027 1.6879998
0.44394398 -0.45282286 1.6880001
0.31668007 -0.44394398 1.6880001
0.32555896 -0.44542381 1.6879998
0.33554769 -0.44505382 1.688
0.34405658 -0.4432041 1.6880001
0.42766604 -0.44838345 1.6880001
0.43506512 -0.4473969 1.6880001
0.44542381 -0.44542381 1.688
0.45134306 -0.44394398 1.6880001
0.29596266 -0.43062568 1.6880001
0.30706125 -0.43284541 1.6880001
0.31756797 -0.43417725 1.6880001
0.32513615 -0.43569931 1.6879998
0.33538693 -0.43586001 1.6853333
0.34491447 -0.43555099 1.6872727
0.3550978 -0.43625358 1.6858181
0.36471263 -0.43566126 1.686
0.37439275 -0.43210548 1.6880001
0.38179183 -0.43062568 1.6880001
0.42766604 -0.43654492 1.6880001
0.43506512 -0.43506512 1.688
0.44575268 -0.43424302 1.688
0.45134306 -0.43506512 1.6880001
0.29670256 -0.4247064 1.6880001
0.30716699 -0.42428359 1.688
0.3148303 -0.42507637 1.688
0.32537588 -0.42606068 1.684
0.33432561 -0.42563918 1.6800002
0.34518415 -0.42555568 1.6807274
0.35452399 -0.42648077 1.6800002
0.36613807 -0.42799568 1.6800001
0.37556401 -0.42416635 1.6800002
0.38527608 -0.42489576 1.6864001
0.39215052 -0.42174679 1.6880001
0.43654492 -0.42343801 1.688
0.44542381 -0.4247064 1.688
0.45134306 -0.42470643 1.6880001
0.29670256 -0.41508764 1.6880001
0.30632135 -0.4158276 1.688
0.31634492 -0.41568285 1.684
0.32548881 -0.41532961 1.6800002
0.33432558 -0.41532955 1.6800002
0.34463516 -0.41532958 1.6800002
0.35199919 -0.41680241 1.6799999
0.38440076 -0.41876614 1.6799999
0.39491379 -0.41705841 1.684
0.40250921 -0.41434771 1.6880001
0.42766604 -0.41878718 1.6880001
0.43595299 -0.41819531 1.6880001
0.44579378 -0.41619751 1.688
0.45387986 -0.41498193 1.688
0.46120849 -0.41385445 1.6880001
0.29597268 -0.4045611 1.6868571
0.30547574 -0.40546888 1.6879998
0.31520024 -0.40546891 1.6879998
0.32426256 -0.40530536 1.683077
0.33432558 -0.40502 1.6800002
0.34139502 -0.40560913 1.6800001
0.4079656 -0.40502 1.6800001
0.41632199 -0.40303171 1.684
0.42371988 -0.40201595 1.6880001
0.43876469 -0.40620878 1.6880001
0.44571459 -0.40520766 1.6873845
0.4548946 -0.40606079 1.688
0.46452063 -0.4054237 1.6855
0.47276878 -0.4035472 1.6800001
0.48241913 -0.40102941 1.6880001
0.4986971 -0.40102941 1.6880001
0.28856361 -0.39363033 1.6880001
0.29432416 -0.39403799 1.6850001
0.3052451 -0.3948411 1.6879998
0.31520024 -0.39511013 1.688
0.32512876 -0.39541361 1.6842667
0.33432558 -0.39471042 1.6800002
0.34021679 -0.39618316 1.6799999
0.41827521 -0.39765599 1.6800001
0.42614591 -0.39518207 1.682
0.43539914 -0.39551958 1.6849999
0.44593632 -0.39441425 1.683077
0.4557825 -0.39511013 1.6880001
0.46355328 -0.39564666 1.684
0.47571436 -0.39814696 1.6799999
0.48521397 -0.3946695 1.6840001
0.49420857 -0.39613694 1.6848001
0.28856361 -0.38771111 1.6880001
0.29462376 -0.3847183 1.6872727
0.30632135 -0.38475147 1.6879998
0.31507459 -0.38459894 1.6873332
0.32474354 -0.38443631 1.6853334
0.33395737 -0.38403261 1.6800002
0.4468475 -0.38498992 1.6800001
0.45514831 -0.38665408 1.688
0.46421719 -0.38492447 1.6874665
0.29448283 -0.37439278 1.688
0.30632135 -0.37439275 1.688
0.31520021 -0.37439275 1.688
0.32485697 -0.37481868 1.6850909
0.33432558 -0.37556398 1.6800002
0.4536224 -0.37850961 1.6800001
0.46687761 -0.37850961 1.6800001
0.28757706 -0.3635408 1.6880001
0.29402077 -0.36493957 1.6853334
0.30524516 -0.36524484 1.6879998
0.31629959 -0.3650808 1.686
0.32575658 -0.3648527 1.6800002
0.33432558 -0.3652544 1.6800002
0.34021679 -0.3667272 1.6799999
0.2870838 -0.3551552 1.688
0.29367104 -0.35416806 1.6833334
0.30484155 -0.35515523 1.6879998
0.31560805 -0.35506502 1.6845714
0.32548881 -0.3549448 1.6800002
0.33432561 -0.35494477 1.6800002
0.2870838 -0.34627631 1.6880001
0.29448283 -0.34627631 1.6880001
0.30632135 -0.34553638 1.688
0.31609476 -0.34517413 1.6843077
0.32527083 -0.34454459 1.681231
0.33373648 -0.34522432 1.6800001
0.30928099 -0.33887726 1.6880001
0.31520024 -0.33591762 1.688
0.32452446 -0.33485743 1.6826668
0.33285281 -0.33432558 1.6800002
0.31546929 -0.32596254 1.6879998
0.32446888 -0.32552889 1.6845714
0.33285281 -0.32548881 1.6800002
-0.13318321 -0.3122406 1.6880001
-0.12578413 -0.3122406 1.6880001
-0.11681525 -0.31347379 1.6866668
0.31604582 -0.31477743 1.688
0.32520273 -0.31529394 1.684
0.33334371 -0.31567013 1.6800002
-0.13397746 -0.30522904 1.684
-0.1253867 -0.30535814 1.6826667
-0.11693231 -0.30612999 1.6822857
0.31618679 -0.30533481 1.688
0.32536343 -0.30465922 1.6869999
0.33285281 -0.30486959 1.6800002
-0.1354976 -0.29897839 1.6800001
-0.12322426 -0.29799652 1.6799999
-0.11438747 -0.29701465 1.6799999
-0.1075144 -0.29603279 1.6800001
0.31697601 -0.29507476 1.6880001
0.32555893 -0.29448286 1.6879998
0.33305007 -0.29473448 1.6810002
0.31815988 -0.28560397 1.6880001
0.32703874 -0.28560394 1.688
0.33395737 -0.2838822 1.6800002
0.31815988 -0.27672508 1.6880001
0.32703876 -0.27524528 1.6879998
0.33450094 -0.27555776 1.680889
0.34021679 -0.2739408 1.6800001
0.32740873 -0.26488659 1.688
0.33458862 -0.26531205 1.6813334
0.34119868 -0.26412213 1.6800002
-0.1163512 -0.25773999 1.6800001
0.32802528 -0.25469232 1.688
0.33466226 -0.25468779 1.6832001
0.34021679 -0.25479439 1.6799999
0.32851857 -0.24416922 1.6880001
0.33574995 -0.24492344 1.6858181
0.34250781 -0.24333927 1.6800002
0.32999837 -0.23824994 1.6880001
0.33591762 -0.23529032 1.688
0.34406555 -0.23479313 1.6844445
0.33813733 -0.22715135 1.6880001
0.34407794 -0.22504258 1.6858181
0.34709409 -0.21652825 1.6848001
0.35135746 -0.21111186 1.684
0.356635 -0.20766713 1.6880001
0.36255425 -0.20273443 1.6880001
0.36847353 -0.19681518 1.6880001
0.37143314 -0.19385554 1.6880001
0.38179183 -0.18793629 1.6880001
0.38919091 -0.17905742 1.6880001
0.39372751 -0.1729017 1.6857144
0.39611658 -0.16553922 1.686
0.40444568 -0.16292675 1.6844444
0.38771111 -0.15242077 1.6880001
0.39511019 -0.15538038 1.688
0.40342516 -0.15523452 1.6832001
0.38721782 -0.14452845 1.688
0.39575988 -0.14550711 1.6862857
0.4035472 -0.14580721 1.6800002
0.38707688 -0.134663 1.688
0.39566323 -0.13504975 1.6822859
0.4020744 -0.139916 1.6800001
0.38800707 -0.1251922 1.6880001
0.39517507 -0.12533705 1.6820002
0.38792253 -0.11605965 1.688
0.39478749 -0.11528377 1.6816001
0.4020744 -0.1163512 1.6800001
0.38919091 -0.10506675 1.6880001
0.39176479 -0.1060416 1.6800001
-0.20421425 -0.081389733 1.6880001
-0.19596957 -0.08308094 1.688
-0.18491279 -0.083520234 1.6844443
-0.17432201 -0.083757423 1.688
-0.16573909 -0.082869545 1.6880001
-0.21407966 -0.074483939 1.6880001
-0.20537223 -0.075354367 1.6853333
-0.1962506 -0.075480998 1.6800002
-0.18409999 -0.076585598 1.6800002
-0.17544866 -0.075195402 1.681778
-0.16527562 -0.075264178 1.6833334
-0.1553804 -0.074624874 1.688
-0.14724143 -0.073250756 1.6880001
-0.22049218 -0.069551229 1.6880001
-0.21502878 -0.067748807 1.6800002
-0.2076648 -0.069221601 1.6800001
-0.17526321 -0.069221601 1.6799999
-0.16316922 -0.066743895 1.681143
-0.15476672 -0.064858146 1.6813335
-0.14503808 -0.065288998 1.6848
-0.13548428 -0.063603215 1.6872
-0.12615409 -0.063262023 1.688
-0.11749717 -0.061856199 1.6880001
-0.2253384 -0.054493599 1.6800001
-0.1605352 -0.057439201 1.6800001
-0.14433441 -0.057439201 1.6800001
-0.13647947 -0.056457337 1.6800002
-0.12548138 -0.05609848 1.684
-0.11528458 -0.054690558 1.686
-0.23178014 -0.04724532 1.684
-0.228284 -0.048602398 1.6800001
-0.1125114 -0.046677243 1.6813335
-0.10605329 -0.044887673 1.6880001
-0.097667679 -0.042914588 1.6880001
-0.11046 -0.0397656 1.6800001
-0.10444606 -0.037279371 1.6840001
-0.094942294 -0.035199922 1.6869333
-0.084349357 -0.03225993 1.6880001
-0.076950297 -0.031076079 1.6880001
0.41876614 -0.031910669 1.6799999
0.42441624 -0.034632716 1.6810001
-0.092786402 -0.0279832 1.6800001
-0.085422397 -0.0279832 1.6800001
-0.075291641 -0.026577026 1.684
-0.065058015 -0.025139293 1.6866666
-0.054753095 -0.024311218 1.688
-0.046244171 -0.024786873 1.688
-0.03600879 -0.024170285 1.688
-0.025896734 -0.022937108 1.6880001
-0.019237572 -0.0221972 1.6880001
0.40842849 -0.0221972 1.6880001
0.41608831 -0.024788944 1.6814548
0.42416641 -0.025037602 1.6800002
-0.061857596 -0.0191464 1.6800001
-0.054144938 -0.017068449 1.6822857
-0.045469545 -0.01565446 1.6840003
-0.035433698 -0.01624405 1.684
-0.025077343 -0.01623119 1.6826668
-0.014478326 -0.015075862 1.6853334
-0.0044394401 -0.010358693 1.6880001
0.0044394401 -0.010358693 1.6880001
0.013910244 -0.010950617 1.6880001
0.025156826 -0.010358693 1.6880001
0.40990829 -0.017757758 1.6880001
0.41697428 -0.01577065 1.6866666
0.42344487 -0.013275363 1.6830001
-0.0044289199 -0.0059087332 1.6840001
0.0038419042 -0.0062068002 1.6847999
0.015399276 -0.0061216382 1.6845714
0.025492465 -0.0052700192 1.6822859
0.034326758 -0.0033243201 1.684
0.0443944 -0.0014798134 1.6880001
0.41804725 -0.005179347 1.6880001
0.42332655 -0.0047953669 1.6840001
0.0397656 0.0014728 1.6800001
0.046141721 0.003578804 1.6822859
0.054639321 0.004425413 1.6844444
0.06459599 0.0046957452 1.6850909
0.07499858 0.0052800379 1.6868571
0.083680287 0.0062082028 1.6864001
0.094708055 0.0059192535 1.688
0.10506675 0.0073990668 1.6880001
0.110986 0.0073990668 1.6880001
0.41878715 0.0044394401 1.6880001
0.42174679 0.0014798134 1.6880001
0.45726231 0.0044394401 1.6880001
0.075112797 0.0103096 1.6800001
0.097204797 0.0103096 1.6800001
0.10535991 0.011507477 1.6832001
0.11568633 0.012685716 1.6832001
0.12504335 0.013643563 1.6830002
0.13472614 0.015730906 1.6826668
0.14458969 0.018035486 1.6864001
0.15390059 0.019237572 1.6880001
0.20865367 0.019237572 1.6880001
0.22493161 0.019237572 1.6880001
0.2352903 0.019237572 1.6880001
0.3578904 0.0176736 1.6800001
0.36348179 0.018432792 1.6820002
0.4109112 0.0132552 1.6800001
0.44879371 0.019191986 1.684
0.4521496 0.0132552 1.6800001
0.14751378 0.025072666 1.6826668
0.15488945 0.025072668 1.6826667
0.16415252 0.02574205 1.6835557
0.1748945 0.026368128 1.6845714
0.18497668 0.028116455 1.6880001
0.19583429 0.026829004 1.6868572
0.20555981 0.025928294 1.6834286
0.21445021 0.025363719 1.6824001
0.22504257 0.024851428 1.6858181
0.2352421 0.02547681 1.6849999
0.2454199 0.026100509 1.6853334
0.25008845 0.0221972 1.6880001
0.3555339 0.02327024 1.6800001
0.36525437 0.024301201 1.6800002
0.37542549 0.025123514 1.686
0.38444874 0.026614429 1.6866666
0.39511013 0.028116455 1.6880001
0.43643972 0.027001331 1.6799999
0.44257641 0.027246799 1.6800001
0.45134306 0.0221972 1.6880001
0.14727999 0.0309288 1.6800001
0.1516984 0.0309288 1.6800001
0.162008 0.0309288 1.6800001
0.1782088 0.0309288 1.6800001
0.1855728 0.0309288 1.6800001
0.19588239 0.0309288 1.6799999
0.2032464 0.0309288 1.6800001
0.2253384 0.0309288 1.6799999
0.23476431 0.032107037 1.6800001
0.2444848 0.0309288 1.6800001
0.37703681 0.0309288 1.6800001
0.38501564 0.030977892 1.6826668
0.39029199 0.0309288 1.6800001
0.42563921 0.0397656 1.6800001
0.43432522 0.036995333 1.6880001
0.44246417 0.031076079 1.6880001
0.41974801 0.047129601 1.6800001
0.42517748 0.045770183 1.6840001
0.43136558 0.045134306 1.6880001
0.41680241 0.0559664 1.6800001
0.4247064 0.054753091 1.688
0.43210551 0.054753091 1.6880001
0.40926075 0.066491075 1.6853334
0.41517529 0.060576499 1.6853334
0.43062568 0.060672347 1.6880001
0.39795059 0.087484315 1.6800001
0.40207443 0.086895198 1.6799999
0.38292798 0.1016232 1.6800001
0.057712719 0.38919091 1.6880001
0.060672347 0.38919091 1.6880001
0.036471669 0.39627323 1.6866666
0.045850053 0.39588553 1.687111
0.055175893 0.39511013 1.688
0.019237572 0.40990829 1.6880001
0.025865173 0.40498492 1.686
0.034819797 0.40342656 1.6832001
0.045784444 0.40203929 1.6847999
0.054753095 0.40102944 1.6880001
0.018235834 0.41697422 1.6866666
0.025063897 0.41582227 1.6820002
0.0309288 0.41532958 1.6800001
0.048602398 0.41680241 1.6799999
0.051548 0.41532961 1.6800001
0.0073990668 0.42470643 1.6880001
0.015271144 0.42458642 1.6862222
0.023564801 0.42269361 1.6800001
0.046638668 0.42662108 1.6799999
0.053020798 0.42563921 1.6800001
0.005179347 0.43728483 1.6880001
0.012975445 0.43443936 1.6862222
0.048679546 0.43221068 1.6826668
0.052827232 0.4317576 1.6832001
0.0073815333 0.44584107 1.6840001
0.011790582 0.44366226 1.6813335
0.0073815333 0.45470595 1.684
0.013844321 0.45745167 1.6800001
0.035347201 0.45583162 1.6800001
0.042914588 0.45726231 1.6880001
0.01587351 0.46327746 1.6800002
0.0250376 0.46393204 1.6800002
0.035756778 0.46599019 1.6853334
0.046106435 0.46712303 1.6844444
0.052824426 0.46717501 1.6832001
0.014279147 0.4752562 1.6853334
0.038292799 0.47276878 1.6800001
0.044292703 0.47241461 1.684
0.062449057 0.47843322 1.6826668
0.013621452 0.48576063 1.6853334
0.057439201 0.48749679 1.6800001
0.062004875 0.48570839 1.6840001
0.0254058 0.49596539 1.6800002
0.033137999 0.49707001 1.6800001
0.047129601 0.4992792 1.6800001
0.055298381 0.49471176 1.6820002
0.39661101 -0.49548495 1.6960001
0.40627539 -0.49474156 1.6960001
0.41383341 -0.4970957 1.6960001
0.42077196 -0.49808693 1.6960001
0.46612015 -0.49734351 1.6960001
0.47132406 -0.49660009 1.6960001
0.40620103 -0.48559755 1.6960001
0.41185099 -0.48470548 1.6960001
0.45942944 -0.48173183 1.6960001
0.46612018 -0.48470551 1.6960001
0.47392601 -0.48284701 1.6960001
0.35237792 -0.47132406 1.6960001
0.41432902 -0.47429773 1.6960001
0.42225879 -0.47132406 1.6960001
0.4564558 -0.47727135 1.6960001
0.32858869 -0.46240309 1.6960001
0.33453599 -0.46240309 1.6960001
0.3464306 -0.46835041 1.6960001
0.35237792 -0.46835041 1.6960001
0.41779828 -0.46835041 1.6960001
0.42523244 -0.46537673 1.6960001
0.45348212 -0.46240309 1.6960001
0.29885215 -0.45050848 1.6960001
0.30777311 -0.45050848 1.6960001
0.31561276 -0.45429316 1.6960002
0.32635847 -0.45719922 1.6960001
0.33496079 -0.4573054 1.6960001
0.34434906 -0.45288745 1.6960001
0.4253976 -0.45447335 1.6960001
0.44604802 -0.45942944 1.6960001
0.45178291 -0.45433173 1.6960001
0.28918779 -0.44381773 1.6960001
0.2958785 -0.44456115 1.6960001
0.30658364 -0.44396645 1.6960001
0.3128708 -0.44413638 1.6960001
0.34791744 -0.44753483 1.6960001
0.35460815 -0.44530463 1.6960001
0.3627857 -0.44456118 1.6960001
0.37021983 -0.44158751 1.6960001
0.42709094 -0.44456118 1.6960001
0.43648985 -0.44456118 1.6960001
0.44307435 -0.44307435 1.6960001
0.45744702 -0.44356999 1.6960001
0.46636796 -0.44555238 1.6960001
0.28780717 -0.43564019 1.6960001
0.2954537 -0.43648985 1.6960001
0.30361003 -0.43504548 1.6960001
0.31372043 -0.43648985 1.6960001
0.37691057 -0.43787047 1.6960001
0.38508809 -0.43415338 1.6960001
0.42597583 -0.43601191 1.6960001
0.43564022 -0.43266657 1.6960001
0.44456118 -0.43861386 1.6960001
0.45546457 -0.43464899 1.6960001
0.28770098 -0.42671928 1.6960001
0.29417926 -0.42502004 1.6960001
0.30281705 -0.42622364 1.6960001
0.39400902 -0.42572799 1.6960001
0.42746264 -0.42523244 1.6960001
0.43504548 -0.42850342 1.6960001
0.45794261 -0.42523244 1.6960001
0.46388993 -0.42374563 1.6960001
0.49808693 -0.42969289 1.6960001
0.28636283 -0.41422993 1.6960001
0.29409432 -0.41482463 1.6960001
0.30182582 -0.41482463 1.6960001
0.40887734 -0.41185099 1.6960001
0.41185099 -0.41185099 1.6960001
0.42582718 -0.41482463 1.6960001
0.43564022 -0.41482463 1.6960001
0.44307435 -0.41482463 1.6960001
0.46735919 -0.41680706 1.6960001
0.47429767 -0.41284218 1.6960001
0.27803659 -0.40441686 1.6960001
0.28547069 -0.40590367 1.6960001
0.29290485 -0.4059037 1.6960001
0.30182582 -0.40293002 1.6960001
0.41779828 -0.40887734 1.6960001
0.42629448 -0.4071781 1.6960001
0.43526849 -0.4059037 1.6960001
0.44158751 -0.40293002 1.6960001
0.48470548 -0.40516028 1.6960001
0.49570805 -0.40411949 1.6960001
0.27744186 -0.39460382 1.6960001
0.28444135 -0.39583901 1.696
0.29290485 -0.39995638 1.6960001
0.30182582 -0.39549589 1.6960001
0.49213964 -0.39995638 1.6960001
0.27803659 -0.38806176 1.6960001
0.28596631 -0.38508809 1.6960001
0.29290485 -0.38508812 1.6960001
0.30182582 -0.38508809 1.6960001
0.28844437 -0.37468031 1.6960001
0.30182582 -0.37468031 1.6960001
0.28398389 -0.36427253 1.6960001
0.28249708 -0.35535157 1.6960001
0.285099 -0.34531549 1.6960001
0.2958785 -0.34197012 1.6960001
0.30430385 -0.34345695 1.6960001
0.29625019 -0.33490771 1.6960001
0.30777311 -0.33453599 1.6960001
0.31074676 -0.33453599 1.6960001
-0.12043296 -0.32412821 1.6960001
-0.1174593 -0.32264137 1.6960001
0.29686972 -0.32611066 1.6960001
0.30777311 -0.32561505 1.6960001
0.31149018 -0.32487163 1.6960001
-0.13232757 -0.31669408 1.6960001
-0.12489343 -0.31718966 1.6960001
-0.1174593 -0.31966773 1.6960001
0.29885215 -0.31520724 1.6960001
0.30678189 -0.31421605 1.6960001
0.31173798 -0.31619844 1.6960001
0.29885215 -0.30479947 1.6960001
0.30628628 -0.30479947 1.6960001
0.3122336 -0.30479944 1.6960001
0.29885215 -0.29290485 1.6960001
0.30628628 -0.29736534 1.6960001
0.3128708 -0.2954537 1.6960001
0.31446382 -0.28497511 1.6960001
0.32264137 -0.28547072 1.6960001
0.31570286 -0.27506292 1.6960001
0.32264137 -0.27506292 1.6960001
0.31780919 -0.26577029 1.6960001
0.3236326 -0.26415953 1.6960001
0.31966773 -0.25722101 1.6960001
0.32383084 -0.25365263 1.6960001
0.32487163 -0.24606982 1.6960001
0.32759747 -0.23838788 1.6960001
0.33230576 -0.23268837 1.6960001
0.33651844 -0.22649325 1.6960001
0.34048331 -0.22153717 1.6960001
0.34643063 -0.21558987 1.6960001
0.35535157 -0.20766012 1.6960001
0.3627857 -0.20220843 1.6960001
0.37616715 -0.19180064 1.6960001
0.37914079 -0.18882698 1.6960001
0.38508809 -0.18486209 1.6960001
0.39103541 -0.17395872 1.6960001
0.38806176 -0.16206411 1.6960001
0.39351344 -0.16454215 1.6960001
0.38508812 -0.15399276 1.6960001
0.39103541 -0.15760362 1.6960001
0.38330391 -0.14481691 1.6960001
0.37914079 -0.13381439 1.6960001
0.38330391 -0.13530122 1.6960001
0.37914076 -0.12340661 1.6960001
0.38409692 -0.12538904 1.6960001
0.37914079 -0.1174593 1.6960001
0.38508809 -0.11448566 1.6960001
0.38707054 -0.10754713 1.6960001
-0.19180064 -0.090696424 1.6960001
-0.18585332 -0.090696424 1.6960001
-0.17480835 -0.091970846 1.6960001
-0.20741232 -0.084005699 1.6960001
-0.19477428 -0.087722771 1.6960001
-0.18882698 -0.087722771 1.6960001
-0.17693236 -0.087722771 1.6960001
-0.16429435 -0.085492529 1.6960001
-0.15462998 -0.083262287 1.6960001
-0.14422219 -0.083262295 1.6960001
-0.13827488 -0.081775464 1.6960001
-0.21261621 -0.078801811 1.6960001
-0.15413438 -0.078801811 1.6960001
-0.1437974 -0.076677777 1.6960001
-0.13530123 -0.075828157 1.6960001
-0.12548818 -0.075233422 1.6960001
-0.11448564 -0.074043967 1.6960001
-0.10853834 -0.072854504 1.6960001
-0.13431001 -0.068889625 1.6960001
-0.12390222 -0.068889633 1.6960001
-0.11382484 -0.066576786 1.6960001
-0.10754713 -0.064429156 1.6960001
-0.10556468 -0.055012584 1.6960001
-0.097634949 -0.05402137 1.6960001
-0.10358226 -0.048074063 1.6960001
-0.09456218 -0.045794263 1.6960001
-0.08474911 -0.041631144 1.6960001
-0.078801811 -0.040144321 1.6960001
-0.062446721 -0.040144321 1.6960001
-0.053525761 -0.040144321 1.6960001
-0.049065281 -0.040144321 1.6960001
-0.08474911 -0.036427252 1.6960001
-0.075332552 -0.034692623 1.6960001
-0.064825639 -0.033602279 1.6960001
-0.055012587 -0.034197014 1.6960001
-0.044604797 -0.034197014 1.6960001
-0.034791745 -0.032412823 1.6960001
-0.024532642 -0.031966772 1.6960001
-0.014372657 -0.032214578 1.6960001
-0.055012587 -0.028249707 1.6960001
-0.043117974 -0.028249707 1.6960001
-0.034197014 -0.028249705 1.6960001
-0.024681324 -0.027060244 1.6960001
-0.014462769 -0.025546389 1.6960002
-0.0044604801 -0.014868267 1.6960001
0.0048321867 -0.015983386 1.6960001
0.014868267 -0.015611682 1.6960001
0.025276056 -0.012191979 1.6960001
0.034197014 -0.010407787 1.6960001
0.40828261 -0.015760362 1.6960001
0.41333783 -0.011894614 1.6960001
0.035683841 -0.0074341334 1.6960001
0.044604804 -0.0052038934 1.6960001
0.055012587 -0.0029736534 1.6960001
0.064429156 -0.0024780445 1.6960001
0.07523343 -0.0026762881 1.6960001
0.08474911 -0.0014868267 1.6960001
0.095156908 -0.0014868267 1.6960001
0.40887734 -0.0074341334 1.6960001
0.41532025 -0.0044604801 1.6960001
0.069880851 0.0014868267 1.6960001
0.077314988 0.0014868267 1.6960001
0.085492536 0.00223024 1.6960001
0.095156901 0.0014868267 1.6960001
0.10556469 0.0029736534 1.6960001
0.11448564 0.004956089 1.6960001
0.12538904 0.0054516979 1.6960001
0.13331878 0.0064429156 1.6960001
0.41660881 0.0038657493 1.6960001
0.12935393 0.010407787 1.6960001
0.13604464 0.0111512 1.6960001
0.14347878 0.01338144 1.6960001
0.1561168 0.017346311 1.6960001
0.16503777 0.01784192 1.6960001
0.17395873 0.019328747 1.6960001
0.20815572 0.01784192 1.6960001
0.21618459 0.018139284 1.6960001
0.22451083 0.016355094 1.6960001
0.23491861 0.016355094 1.6960001
0.2453264 0.018139284 1.6960001
0.25127369 0.01784192 1.6960001
0.36724618 0.016355094 1.6960001
0.37438294 0.018139284 1.6960001
0.41631144 0.010407787 1.6960001
0.4564558 0.019328747 1.6960001
0.16801141 0.0223024 1.6960001
0.17544556 0.0223024 1.6960001
0.18659674 0.024532642 1.6960001
0.19477428 0.02329362 1.6960001
0.20369524 0.022302398 1.6960001
0.23343179 0.0223024 1.6960001
0.24383956 0.0223024 1.6960001
0.38211444 0.0223024 1.6960001
0.44753483 0.0223024 1.6960001
0.45348215 0.0223024 1.6960001
0.43861386 0.035683841 1.6960001
0.4425787 0.036179449 1.6960001
0.43663144 0.048074063 1.6960001
0.4425787 0.042126756 1.6960001
0.41601411 0.06631247 1.6960001
0.42612448 0.062149357 1.6960001
0.41333783 0.072854504 1.6960001
0.035188232 0.38607931 1.6960001
0.044109195 0.38607934 1.6960001
0.055012587 0.38657495 1.6960001
0.060959894 0.38657492 1.6960001
0.016355095 0.39846954 1.6960001
0.025647761 0.39735442 1.6960001
0.033602282 0.39222488 1.6960001
0.044902168 0.39163014 1.6960001
0.053525761 0.39400908 1.6960001
0.016355092 0.4059037 1.6960001
0.022302398 0.4059037 1.6960001
0.0074341334 0.41482463 1.6960001
0.013009734 0.41445291 1.6960001
0.0066907201 0.42597583 1.6960001
0.0111512 0.4237456 1.6960001
0.0044604801 0.43415341 1.6960001
0.010407787 0.43266657 1.6960001
0.0032710186 0.44396645 1.6960001
0.0044604801 0.4564558 1.6960001
0.047578454 0.45942944 1.6960001
0.010407787 0.46835041 1.6960001
0.035683841 0.46537673 1.6960001
0.044604804 0.46388993 1.6960001
0.0111512 0.47355428 1.6960001
0.010407787 0.48321867 1.6960001
0.39344266 -0.49408686 1.705
0.40207878 -0.49176177 1.705
0.39684728 -0.48802495 1.705
0.40387243 -0.48458713 1.7050002
0.4663516 -0.48279348 1.705
0.29670125 -0.47681463 1.705
0.30043805 -0.47531992 1.705
0.40634939 -0.47596052 1.705
0.41304001 -0.47432342 1.705
0.45887801 -0.47382519 1.705
0.46386036 -0.47731283 1.705
0.47083575 -0.47830933 1.705
0.27951202 -0.46485686 1.705
0.28648734 -0.46535516 1.705
0.29403213 -0.46400276 1.705
0.30598989 -0.46400276 1.705
0.31538519 -0.46485686 1.705
0.32435352 -0.46435866 1.705
0.33571333 -0.46665055 1.7050002
0.34442541 -0.46528393 1.705
0.35125843 -0.4678463 1.705
0.39908934 -0.4678463 1.705
0.40357351 -0.4678463 1.705
0.41403651 -0.4678463 1.705
0.42263111 -0.4644832 1.705
0.45813066 -0.46410951 1.705
0.46448323 -0.46448317 1.705
0.27689624 -0.45551488 1.705
0.28549087 -0.4558886 1.705
0.29445919 -0.4558886 1.705
0.30556282 -0.4567427 1.705
0.31239578 -0.45887801 1.705
0.34826899 -0.45887801 1.705
0.35424784 -0.45489207 1.705
0.41403651 -0.45588857 1.705
0.42121115 -0.45648646 1.7050002
0.45887801 -0.4558886 1.705
0.46485689 -0.45588854 1.705
0.47980404 -0.45289916 1.705
0.27679434 -0.44583321 1.705
0.28489298 -0.4460234 1.7050002
0.30402535 -0.44632238 1.7050002
0.35723728 -0.44990972 1.705
0.36421263 -0.44891322 1.705
0.37517387 -0.44542557 1.705
0.38264745 -0.44243613 1.705
0.40805766 -0.44243613 1.705
0.41403648 -0.44243613 1.705
0.42188376 -0.44617292 1.705
0.45887801 -0.44542557 1.705
0.46515584 -0.44512662 1.7050002
0.47561884 -0.44632238 1.7050002
0.48615658 -0.44729394 1.705
0.49275827 -0.4449273 1.705
0.27652258 -0.43496254 1.705
0.28324881 -0.43496254 1.705
0.3871316 -0.43795198 1.705
0.39550203 -0.43526149 1.7050002
0.40357348 -0.43346781 1.705
0.41602945 -0.43695548 1.705
0.42350304 -0.43496254 1.705
0.45887801 -0.43795198 1.705
0.46545476 -0.43675622 1.7050002
0.47083575 -0.43496254 1.705
0.48877233 -0.43496254 1.705
0.49774066 -0.43346781 1.705
0.26516274 -0.42121118 1.7050002
0.27532682 -0.42439985 1.705
0.28515872 -0.42400131 1.705
0.29146975 -0.42001539 1.705
0.39908934 -0.42898369 1.705
0.40456998 -0.42549601 1.705
0.41602945 -0.42101184 1.705
0.42263111 -0.42524689 1.705
0.4678463 -0.42748898 1.705
0.49774066 -0.42898369 1.705
0.26493853 -0.41403654 1.705
0.27502787 -0.41403651 1.705
0.28549087 -0.41553122 1.705
0.41523227 -0.41523227 1.7050002
0.42225748 -0.41627857 1.705
0.48578295 -0.41104707 1.705
0.49774066 -0.41403651 1.705
0.26605958 -0.40506819 1.705
0.27353317 -0.40506825 1.705
0.49176177 -0.40805766 1.705
0.26605955 -0.39460519 1.705
0.2732614 -0.39474106 1.705
0.26605958 -0.38414216 1.705
0.27502787 -0.38414216 1.705
0.28324881 -0.38339481 1.705
0.26755428 -0.37666857 1.705
0.27543551 -0.37544566 1.705
0.28399616 -0.37517384 1.705
0.27751908 -0.3652091 1.705
0.28250146 -0.36770028 1.705
0.27801731 -0.35424784 1.705
0.27801731 -0.34527957 1.705
0.28474352 -0.34303749 1.705
0.30342749 -0.3422901 1.705
0.27851555 -0.33830419 1.705
0.28549087 -0.33481655 1.705
0.29206768 -0.33451757 1.7050002
0.30492222 -0.33481652 1.705
-0.13004035 -0.32136407 1.705
-0.12505795 -0.32435349 1.705
0.28648737 -0.32535002 1.705
0.2940855 -0.32435355 1.705
0.30556279 -0.32478055 1.705
0.29445919 -0.31538519 1.705
0.30417484 -0.31613258 1.705
0.29545566 -0.30542046 1.705
0.30282956 -0.30402535 1.7050002
0.2953133 -0.29488626 1.705
0.30492222 -0.2940855 1.705
0.2959539 -0.28549087 1.705
0.30529588 -0.28549087 1.705
0.31239578 -0.28848031 1.705
0.2959539 -0.27652261 1.705
0.30492216 -0.27502787 1.705
0.31239578 -0.27353314 1.705
0.30043805 -0.26605958 1.705
0.31453109 -0.26413777 1.705
0.31762728 -0.2563439 1.705
0.32136407 -0.25410181 1.705
0.32285878 -0.24513356 1.705
0.32734296 -0.23616523 1.705
0.33033237 -0.2331758 1.705
0.33631125 -0.22570221 1.705
0.34527954 -0.21673392 1.705
0.35125843 -0.21075505 1.705
0.35424784 -0.20776561 1.705
0.36172146 -0.20328146 1.705
0.36819854 -0.19780083 1.705
0.37367916 -0.19431317 1.705
0.37816331 -0.18982902 1.705
0.38414216 -0.18335192 1.705
0.39012104 -0.18086071 1.705
0.38638425 -0.17562921 1.705
0.39012107 -0.17488186 1.705
0.38593584 -0.16531567 1.7050002
0.39012104 -0.16740826 1.705
0.38314569 -0.15644701 1.705
0.37816331 -0.14349279 1.705
0.38115275 -0.14498752 1.705
0.37816331 -0.13452451 1.705
0.38115275 -0.13452449 1.705
0.37816331 -0.12406149 1.705
0.37816331 -0.11658789 1.705
0.38264745 -0.11359847 1.705
-0.18385015 -0.10164073 1.705
-0.17573598 -0.10270839 1.705
-0.16890298 -0.10014602 1.705
0.38474005 -0.10672276 1.7050002
0.39012104 -0.10313545 1.705
-0.20477618 -0.091177717 1.705
-0.19730261 -0.091177717 1.705
-0.18534487 -0.095661871 1.705
-0.17488186 -0.097156584 1.705
-0.1677072 -0.093569264 1.7050002
-0.15694524 -0.091177717 1.705
-0.14349279 -0.091177717 1.705
-0.20328146 -0.088188283 1.705
-0.16292411 -0.088188283 1.705
-0.15545052 -0.088188283 1.705
-0.14498751 -0.088188283 1.705
-0.13469058 -0.084866688 1.705
-0.12605445 -0.083205886 1.705
-0.11210375 -0.082209416 1.705
-0.12256676 -0.079219982 1.705
-0.11509318 -0.078472629 1.705
-0.10522805 -0.074436896 1.7050002
-0.10228132 -0.064699881 1.705
-0.097156584 -0.0627781 1.705
-0.093569264 -0.055902403 1.7050002
-0.08594621 -0.053062443 1.705
-0.091177717 -0.049325649 1.705
-0.085198849 -0.047830936 1.705
-0.075234078 -0.043346781 1.705
-0.064699881 -0.044200905 1.705
-0.055304516 -0.043346781 1.7050002
-0.045482092 -0.042492662 1.705
-0.034378484 -0.040357351 1.705
-0.025410183 -0.040357351 1.705
-0.013452451 -0.040357351 1.705
-0.073241115 -0.037367918 1.705
-0.067262247 -0.037367918 1.705
-0.033631124 -0.036620557 1.705
-0.02600807 -0.036172144 1.7050002
-0.015445407 -0.03637144 1.705
-0.0044841496 -0.032584824 1.7050002
0.0044841501 -0.03213641 1.705
0.010463017 -0.03138905 1.705
-0.0044841501 -0.025410181 1.705
0.0044841501 -0.025410183 1.705
0.014539517 -0.025138415 1.705
0.022420749 -0.022420749 1.705
-0.0044841501 -0.019431317 1.705
0.0014947166 -0.019431317 1.705
0.016441884 -0.019431317 1.705
0.024812296 -0.017637657 1.7050002
0.034378488 -0.014947166 1.705
0.044200905 -0.011744202 1.705
0.05331156 -0.011459495 1.705
0.40656292 -0.014448927 1.705
0.049325649 -0.0074735833 1.705
0.055304516 -0.0074735829 1.705
0.065020174 -0.0067262249 1.705
0.074735828 -0.0064771059 1.705
0.084600963 -0.0056799236 1.7050002
0.094167151 -0.0056799236 1.7050002
0.10503782 -0.004755917 1.705
0.11466612 -0.0036300265 1.705
0.12406147 -0.0029894335 1.705
0.13103683 -0.0024911945 1.705
0.40544191 -0.0041104709 1.705
0.41254181 -0.0029894332 1.705
0.11658789 0.0014947166 1.705
0.12406149 0.0014947165 1.705
0.1370157 0.0034876724 1.705
0.14319384 0.0050820364 1.7050002
0.19879732 0.0074735833 1.705
0.20776561 0.0074735833 1.705
0.2152392 0.0074735833 1.705
0.22570221 0.0074735829 1.705
0.23168108 0.0074735833 1.705
0.25858599 0.0074735833 1.705
0.40656292 0.0014947166 1.705
0.41403651 0.0044841496 1.7050002
0.14648223 0.011957733 1.705
0.15545054 0.014448927 1.705
0.16591354 0.013452451 1.705
0.17445479 0.014306573 1.705
0.18484662 0.01743836 1.705
0.19640578 0.015545052 1.7050002
0.2045044 0.014539517 1.705
0.21507314 0.012455971 1.705
0.22570221 0.011957732 1.705
0.23467052 0.011957732 1.705
0.24529964 0.012455972 1.705
0.2548492 0.011210375 1.705
0.26307011 0.010463017 1.705
0.37592125 0.014199808 1.705
0.38414219 0.019431317 1.705
0.41403651 0.011957733 1.705
0.46186745 0.010463017 1.705
0.18534487 0.022420749 1.705
0.19281845 0.022420749 1.705
0.3871316 0.022420749 1.705
0.44990972 0.025410183 1.705
0.45289916 0.025410183 1.705
0.44094142 0.043346781 1.705
0.42659217 0.066066466 1.7050002
0.42001539 0.071746394 1.705
0.055304516 0.36919501 1.705
0.025410183 0.37816331 1.705
0.034976371 0.37696755 1.7050002
0.043346781 0.37741596 1.705
0.055304516 0.37517387 1.705
0.061283384 0.37666857 1.705
0.02590842 0.38513866 1.705
0.033382002 0.38314569 1.705
0.045482092 0.38243392 1.705
0.055304516 0.38264748 1.705
0.061283384 0.38264745 1.705
0.016815562 0.39348418 1.705
0.024983121 0.39225632 1.705
0.010463017 0.40656292 1.705
0.010463017 0.41104707 1.705
0.0044841501 0.45289916 1.705
0.0074735829 0.47681463 1.705
0.28532869 -0.49106571 1.7130001
0.29584083 -0.49406916 1.7130002
0.30184773 -0.49406919 1.7129999
0.38680273 -0.49364012 1.7130002
0.39195153 -0.49106571 1.7130001
0.25829756 -0.48205534 1.7130001
0.2658062 -0.48355705 1.7130001
0.2748166 -0.48280618 1.7130001
0.28562903 -0.48475844 1.7130001
0.29546538 -0.48543423 1.7130002
0.30334947 -0.48430791 1.7130001
0.31235984 -0.48205534 1.7130001
0.3868027 -0.48548788 1.7130002
0.39495498 -0.48505878 1.7130002
0.40196303 -0.48305646 1.7129999
0.47755015 -0.48205534 1.7130001
0.25859791 -0.47604841 1.7130001
0.26580623 -0.47454664 1.7129999
0.2748166 -0.4745467 1.7129999
0.28532869 -0.47604838 1.7129999
0.29546538 -0.4737958 1.7130002
0.30545187 -0.47394595 1.7130001
0.3152478 -0.47558635 1.7129999
0.3258754 -0.47404611 1.7130002
0.33368441 -0.47364563 1.7130001
0.36792386 -0.47604841 1.7130001
0.3721287 -0.47664911 1.7130001
0.3865453 -0.4751474 1.7130001
0.39468193 -0.47468325 1.7130001
0.4043408 -0.47492209 1.7130002
0.41297576 -0.47304496 1.7130001
0.46603689 -0.47504726 1.7129999
0.47274461 -0.47454667 1.7130001
0.25799721 -0.46343389 1.7130001
0.2658062 -0.46403462 1.7130002
0.27444115 -0.46441001 1.7130002
0.28382698 -0.46628717 1.7130001
0.30485117 -0.46403456 1.7129999
0.34990308 -0.4655363 1.7130001
0.3539077 -0.46403456 1.7129999
0.38744631 -0.46403459 1.7130002
0.39495501 -0.46403462 1.7130002
0.40546706 -0.46403456 1.7129999
0.41597921 -0.46403456 1.7130002
0.47404611 -0.46303341 1.7129999
0.2597993 -0.45502421 1.7129999
0.2658062 -0.45502418 1.7130002
0.27181312 -0.45502421 1.7129999
0.30485117 -0.45652592 1.7130001
0.35741174 -0.45802766 1.7130001
0.36567125 -0.45427334 1.7130001
0.37543249 -0.45352247 1.7130002
0.3859446 -0.45502418 1.7130002
0.39395383 -0.45552477 1.7130002
0.40663511 -0.45569161 1.7130002
0.41597921 -0.45464876 1.7130002
0.47554782 -0.45552477 1.7130002
0.48806223 -0.45502418 1.7130001
0.25919861 -0.44361106 1.7130001
0.26607928 -0.44410256 1.7130001
0.27241382 -0.44421172 1.7130001
0.37993768 -0.44901726 1.7130001
0.38694575 -0.44701496 1.7130002
0.39457956 -0.44563839 1.7130002
0.40546706 -0.4445121 1.7129999
0.41522837 -0.44676465 1.7130001
0.4771747 -0.44338578 1.7130002
0.48468336 -0.44263494 1.7130002
0.49406919 -0.44150862 1.7130002
0.24778545 -0.43099651 1.7130001
0.25570366 -0.43372691 1.7130001
0.2658062 -0.43399996 1.7130002
0.27181312 -0.43550169 1.7130001
0.40997228 -0.43399993 1.7129999
0.41560379 -0.43362454 1.7130002
0.42198613 -0.43399993 1.7129999
0.47529754 -0.43399996 1.7130002
0.48605993 -0.43600225 1.7129999
0.49444461 -0.43362454 1.7130002
0.24628371 -0.42574045 1.7130001
0.25529411 -0.42498961 1.7129999
0.26505533 -0.42724219 1.7130001
0.27181312 -0.42799306 1.7130001
0.40997228 -0.42649132 1.7130001
0.41497803 -0.42599073 1.7130002
0.47504726 -0.42498958 1.7129999
0.49466985 -0.42559028 1.7130001
0.24628371 -0.41898265 1.7130001
0.25570366 -0.41597918 1.7130001
0.26280275 -0.41597921 1.7130001
0.47905186 -0.41898265 1.7130001
0.48806223 -0.41597921 1.7130001
0.49444461 -0.41635463 1.7130002
0.25712955 -0.40630135 1.7130002
0.26280275 -0.40546709 1.7130001
0.49707264 -0.40997228 1.7130001
0.25765395 -0.39452595 1.7130002
0.26280275 -0.39495501 1.7129999
0.25679585 -0.3859446 1.7130002
0.26280275 -0.3859446 1.7129999
0.25808305 -0.37693423 1.7130002
0.26520553 -0.3748318 1.7130001
0.27181312 -0.37242904 1.7130001
0.26580623 -0.36492038 1.7130002
0.27331486 -0.36492038 1.7130002
0.26618165 -0.35628545 1.7130002
0.27331486 -0.35591003 1.7130002
0.26640692 -0.34569827 1.7130001
0.27331486 -0.34539789 1.7130002
0.26730794 -0.33788925 1.7130001
0.2748166 -0.33488575 1.7130002
0.2808235 -0.33338404 1.7130001
0.27581775 -0.32687655 1.7130002
0.2828258 -0.32487425 1.7130002
0.27782005 -0.31986848 1.7130001
0.28532872 -0.31536329 1.7129998
0.2868304 -0.30485117 1.7130002
0.29283735 -0.30485117 1.7129999
0.2868304 -0.29584083 1.7130002
0.29283735 -0.29433906 1.7130001
0.30485117 -0.29283735 1.7130001
0.28783157 -0.28582928 1.7130002
0.29283735 -0.28532869 1.7130001
0.30585232 -0.2848281 1.7130002
0.28908303 -0.27556744 1.7130001
0.29463944 -0.27361521 1.7130001
0.30635291 -0.2748166 1.7130002
0.2966989 -0.26623526 1.7130002
0.3057093 -0.26537713 1.7130002
0.3108581 -0.2658062 1.7129999
0.29884428 -0.25679582 1.7129999
0.30485117 -0.25589481 1.7130001
0.31411186 -0.25454324 1.7129999
0.30485117 -0.24778545 1.7130001
0.3165313 -0.24544941 1.7130002
0.32287195 -0.24177852 1.7130001
0.31986848 -0.23877507 1.7130001
0.3258754 -0.23652248 1.7130001
0.33488575 -0.22676122 1.7129999
0.3408927 -0.22075431 1.7130001
0.34689963 -0.21474738 1.7129999
0.3566609 -0.20573699 1.7130001
0.36191693 -0.20273355 1.7130001
0.36592153 -0.19622606 1.7130002
0.37333009 -0.19192109 1.7130001
0.37584206 -0.18498583 1.7130001
0.38294116 -0.18170933 1.7130001
0.37730965 -0.17607786 1.7130002
0.38414252 -0.17510171 1.7130001
0.37607607 -0.16476123 1.7129999
0.38354182 -0.16609135 1.7130001
0.37543249 -0.15467821 1.7129999
0.36792386 -0.14266434 1.7130001
0.37453148 -0.14596815 1.7130001
0.36792386 -0.13515571 1.7130001
0.37393078 -0.13515571 1.7129999
0.36792386 -0.12464359 1.7129999
0.37393078 -0.12464359 1.7130002
-0.17420068 -0.11262975 1.7130001
-0.16969548 -0.11262975 1.7130001
0.37493193 -0.11563321 1.7130002
-0.19447404 -0.10324393 1.7130002
-0.18521337 -0.10662284 1.7130002
-0.17450102 -0.10782421 1.7130001
-0.16797923 -0.10576469 1.7130002
0.37806052 -0.1062474 1.7130002
0.38444287 -0.10361937 1.7130001
-0.20273355 -0.091605529 1.7130001
-0.19612594 -0.095810369 1.7130001
-0.16308787 -0.094008304 1.7130001
-0.1540775 -0.093407609 1.7130001
-0.14566782 -0.094608992 1.7130001
-0.13615684 -0.092606694 1.7130002
-0.12764704 -0.091605529 1.7130001
-0.13215223 -0.088602066 1.7130001
-0.12364244 -0.086599767 1.7130002
-0.11606227 -0.08559861 1.7130002
-0.10576469 -0.083882347 1.7130002
-0.10136678 -0.077339098 1.7130001
-0.097011752 -0.075386845 1.7130001
-0.094108425 -0.064574383 1.7130002
-0.088602066 -0.061570931 1.7130001
-0.091605529 -0.058567468 1.7130001
-0.084997915 -0.057366084 1.7130001
-0.076087654 -0.053561702 1.7130002
-0.064574391 -0.052560549 1.7129999
-0.055564005 -0.052560549 1.7129999
-0.04955709 -0.052560549 1.7130001
-0.073584773 -0.048055362 1.7130002
-0.064574383 -0.04955709 1.7129999
-0.056164701 -0.048355706 1.7130001
-0.044408303 -0.047411762 1.7130002
-0.034539789 -0.045051899 1.7130002
-0.025529409 -0.044050749 1.7130002
-0.015517876 -0.044551324 1.7130002
-0.00750865 -0.040546712 1.7130001
-0.0045051896 -0.036792386 1.7130001
0.0045051901 -0.035540942 1.7129999
0.0150173 -0.032287195 1.7130001
0.01952249 -0.02853287 1.7130001
0.025028832 -0.025529409 1.7130002
0.034539789 -0.022525949 1.7129999
0.02853287 -0.01952249 1.7130001
0.034539789 -0.01952249 1.7129999
0.045051903 -0.017269896 1.7130002
0.055564012 -0.0150173 1.7130002
0.064574391 -0.01201384 1.7130002
0.074871965 -0.011799307 1.7130002
0.08559861 -0.01051211 1.7129999
0.094608985 -0.01051211 1.7129999
0.10512111 -0.01051211 1.7130001
0.11563321 -0.01051211 1.7129999
0.39495498 -0.01051211 1.7130001
0.40346479 -0.013014995 1.7130002
0.088602066 -0.00750865 1.7130001
0.094608992 -0.00750865 1.7130001
0.11713494 -0.00750865 1.7130001
0.12464359 -0.00750865 1.7129999
0.13515571 -0.0037543247 1.7130001
0.18771625 -0.0015017299 1.7130001
0.19973008 -0.0015017299 1.7130001
0.20573701 -0.0015017301 1.7129999
0.21474738 -0.0015017301 1.7129999
0.22075431 -0.0015017299 1.7130001
0.2597993 -0.0015017299 1.7130001
0.38894805 -0.0030034599 1.7130001
0.39345324 -0.00750865 1.7130001
0.40171278 -0.0052560549 1.7130001
0.14767011 0.0045051901 1.7129999
0.15467818 0.00750865 1.7129999
0.16669202 0.0057923873 1.7130002
0.17570242 0.0045051905 1.7130002
0.1847128 0.0045051896 1.7130002
0.19481535 0.0042321482 1.7130001
0.20536156 0.0041297576 1.7130002
0.21474738 0.0030034601 1.7130002
0.2252595 0.0030034599 1.7130002
0.23614705 0.0041297572 1.7130002
0.24478197 0.0045051901 1.7130002
0.25488451 0.0042321491 1.7130001
0.26543078 0.0041297576 1.7130002
0.3776851 0.0060069202 1.7130001
0.38556919 0.0045051905 1.7130002
0.40653974 0.0053633219 1.7130002
0.41297576 0.0060069198 1.7130001
0.46403456 0.00750865 1.7130001
0.14867127 0.01051211 1.7130001
0.15467818 0.01051211 1.7129999
0.16519031 0.01051211 1.7130001
0.17720413 0.01051211 1.7130001
0.18531348 0.011713494 1.7130001
0.19222143 0.01201384 1.7130001
