# .PCD v0.7 - Point Cloud Data file format
VERSION 0.7
FIELDS x y z
SIZE 4 4 4
TYPE F F F
COUNT 1 1 1
WIDTH 1481
HEIGHT 1
VIEWPOINT 0 0 0 1 0 0 0
POINTS 1481
DATA ascii
0.080009863 -0.45439562 1.7220001
0.058120374 -0.44533789 1.7220001
0.06491366 -0.44533789 1.7220001
0.071706951 -0.44458309 1.7220001
0.046798222 -0.43326095 1.7220001
0.055855941 -0.43477061 1.7220001
0.06518814 -0.43518227 1.7220001
0.072246097 -0.4354175 1.7220001
0.046798222 -0.42377189 1.7220001
0.056233346 -0.42420322 1.7220001
0.067932896 -0.42420319 1.7220001
0.07095214 -0.42420325 1.7220001
0.037740499 -0.41212624 1.7220001
0.042571284 -0.41514549 1.7220001
0.058875181 -0.41665512 1.7220001
0.035476066 -0.40382335 1.7220001
0.045172475 -0.40422982 1.7220001
0.052836701 -0.40306854 1.7220001
0.027927969 -0.39325601 1.7220001
0.034721259 -0.39401081 1.7220001
0.044785395 -0.39501727 1.7220001
0.052836701 -0.39703006 1.7220001
0.025059691 -0.38555694 1.7220001
0.034721259 -0.38797233 1.7220001
0.018417364 -0.37529153 1.7220001
0.0226443 -0.37891462 1.7220001
0.01419043 -0.36472416 1.7220001
0.00603848 -0.35476074 1.7220001
0.01056734 -0.35627031 1.7220001
-0.0049601803 -0.34484032 1.7220001
0.0053915 -0.34527165 1.7220001
0.01056734 -0.34570298 1.7220001
-0.01056734 -0.33060679 1.7220001
-0.0049062651 -0.33702266 1.7220001
0.00150962 -0.33966449 1.7220001
-0.012723939 -0.32413697 1.7220001
-0.16756782 -0.31551057 1.7220001
-0.0150962 -0.31551057 1.7220001
-0.15398124 -0.30041438 1.7220001
-0.033211641 -0.30041438 1.7220001
-0.025059691 -0.30433941 1.7220001
-0.016605822 -0.30494323 1.7220001
-0.15247162 -0.29739514 1.7220001
-0.14609766 -0.29370493 1.7220001
-0.13737541 -0.29135665 1.7220001
-0.043778975 -0.29135665 1.7220001
-0.034343854 -0.29399851 1.7220001
-0.02566354 -0.29437593 1.7220001
-0.017813517 -0.29558358 1.7220001
-0.1434139 -0.28833741 1.7220001
-0.13375233 -0.28712973 1.7220001
-0.12469461 -0.2871297 1.7220001
-0.1156369 -0.28471431 1.7220001
-0.10718302 -0.28229895 1.7220001
-0.080009863 -0.28229895 1.7220001
-0.074726187 -0.28305376 1.7220001
-0.065668471 -0.28305376 1.7220001
-0.055855941 -0.28380856 1.7220001
-0.045288604 -0.2853182 1.7220001
-0.034721259 -0.2853182 1.7220001
-0.02566354 -0.2853182 1.7220001
-0.01962506 -0.28531817 1.7220001
-0.15247162 -0.27475086 1.7220001
-0.10366058 -0.27575728 1.7220001
-0.096917607 -0.27565664 1.7220001
-0.083958104 -0.27440247 1.7220001
-0.073669448 -0.27565664 1.7220001
-0.06521558 -0.27565661 1.7220001
-0.055554021 -0.27565664 1.7220001
-0.046127278 -0.27693141 1.7220001
-0.034721259 -0.2777701 1.7220001
-0.02717316 -0.27927971 1.7220001
-0.14945237 -0.26116425 1.7220001
-0.14824469 -0.25452191 1.7220001
-0.15247162 -0.24002957 1.7220001
-0.14815842 -0.24520542 1.7220001
-0.15398124 -0.23550072 1.7220001
-0.1585101 -0.22795261 1.7220001
-0.12328563 -0.18367045 1.7220001
-0.15247162 -0.17360631 1.7220001
-0.14643314 -0.17461272 1.7220001
-0.13435619 -0.17964478 1.7220001
-0.072461754 -0.17662553 1.7220001
-0.064158849 -0.17587073 1.7220001
-0.05510113 -0.17360631 1.7220001
-0.048811048 -0.17159347 1.7220001
-0.15247162 -0.16756782 1.7220001
-0.14824468 -0.16515243 1.7220001
-0.043778982 -0.16555499 1.7220001
-0.034721259 -0.16253574 1.7220001
-0.02717316 -0.16152933 1.7220001
-0.01962506 -0.16152933 1.7220001
-0.02415392 -0.1585101 1.7220001
-0.015398124 -0.15549085 1.7220001
-0.0037740502 -0.1434139 1.7220001
0.0045288601 -0.14039466 1.7220001
0.0045288601 -0.13737541 1.7220001
0.015096201 -0.13586581 1.7220001
0.02566354 -0.13435619 1.7220001
0.034721259 -0.13133694 1.7220001
0.037740499 -0.1283177 1.7220001
0.0452886 -0.1275629 1.7220001
0.055855941 -0.12529846 1.7220001
0.06491366 -0.12378883 1.7220001
0.073971383 -0.12227922 1.7220001
0.073971376 -0.11925998 1.7220001
0.084538713 -0.11925998 1.7220001
0.094351254 -0.11699555 1.7220001
0.10416379 -0.1132215 1.7220001
0.11473112 -0.11246669 1.7220001
0.12529846 -0.11020226 1.7220001
0.13435619 -0.11020226 1.7220001
0.14643313 -0.11020226 1.7220001
0.14039466 -0.10718302 1.7220001
0.15700048 -0.10718302 1.7220001
0.17612232 -0.10617661 1.7220001
0.18492845 -0.10340898 1.7220001
0.19474097 -0.10114453 1.7220001
0.20480512 -0.10114453 1.7220001
0.20681794 -0.098125301 1.7220001
0.21587567 -0.098125301 1.7220001
0.22493339 -0.098125301 1.7220001
0.23474592 -0.09737049 1.7220001
0.24380364 -0.095106065 1.7220001
0.25512579 -0.092841633 1.7220001
0.26357967 -0.093294516 1.7220001
0.27324122 -0.092086822 1.7220001
0.27475083 -0.089067578 1.7220001
0.28531817 -0.088061161 1.7220001
0.29480723 -0.086910985 1.7220001
0.30162206 -0.085444495 1.7220001
0.089533091 -0.49015573 1.7310001
0.094591446 -0.4911674 1.7310001
0.10268483 -0.4911674 1.7310001
0.11617383 -0.49285352 1.7310001
0.12595333 -0.49470827 1.7310003
0.13505839 -0.4947083 1.7310003
0.14416344 -0.49470827 1.7310003
0.15478602 -0.4947083 1.7310004
0.16540858 -0.49470827 1.7310003
0.17451365 -0.4947083 1.7310003
0.18243721 -0.49438149 1.732143
0.19666351 -0.49851912 1.7390001
0.20581067 -0.49508893 1.7390002
0.21495779 -0.49547011 1.7390002
0.22349513 -0.49364066 1.7390001
0.23020302 -0.49394554 1.7390001
0.088319086 -0.48469266 1.7310002
0.095603123 -0.48408568 1.7310001
0.10470819 -0.48408568 1.7310001
0.11533076 -0.48408565 1.7310003
0.12615204 -0.48483139 1.7336668
0.13505837 -0.48408568 1.7310001
0.14430839 -0.48458278 1.732778
0.15478604 -0.48408565 1.7310003
0.16540858 -0.48408568 1.7310001
0.17473489 -0.48358831 1.7331818
0.18294279 -0.4847984 1.7390002
0.20608783 -0.4852142 1.7390002
0.21495779 -0.4847984 1.7390002
0.22207223 -0.48530662 1.7390002
0.23020302 -0.48937199 1.7390001
0.089533091 -0.47498062 1.7310001
0.095603131 -0.47498062 1.7310001
0.10470819 -0.47498062 1.7310001
0.11533076 -0.47498068 1.7310003
0.12637605 -0.47480851 1.7326
0.13512929 -0.47522295 1.731889
0.14416344 -0.47498062 1.7310001
0.15478604 -0.47498068 1.7310003
0.16535114 -0.47428316 1.7353079
0.17523952 -0.47451562 1.7382002
0.18294279 -0.47412673 1.7390002
0.07739301 -0.46284056 1.7310001
0.086498074 -0.46630913 1.7310001
0.095169559 -0.46630913 1.7310001
0.10470819 -0.46587563 1.7310001
0.11442025 -0.46617907 1.7310002
0.12492876 -0.46554115 1.7378575
0.1348159 -0.4654811 1.7318001
0.14416344 -0.46587557 1.7310001
0.15333934 -0.4654811 1.7318001
0.16464852 -0.46497962 1.7390002
0.17483647 -0.46509337 1.7380003
0.18294281 -0.46497962 1.7390002
0.076786004 -0.45434251 1.7310002
0.085284062 -0.45515177 1.7310004
0.095603131 -0.45525298 1.7310003
0.10470819 -0.45525301 1.7310003
0.11394709 -0.45577601 1.7330003
0.12496123 -0.45565775 1.7383336
0.135502 -0.4554098 1.7331821
0.14416344 -0.45525298 1.7310003
0.15372184 -0.45617229 1.7360911
0.16464852 -0.45583245 1.7390002
0.17554303 -0.45622978 1.7382002
0.18294281 -0.45583251 1.7390002
0.076634258 -0.44538918 1.7310001
0.084980555 -0.44463047 1.7310003
0.095603123 -0.44463041 1.7310001
0.10504693 -0.44545478 1.7366003
0.11449055 -0.44545904 1.7366002
0.12447037 -0.44464371 1.7358003
0.13542484 -0.44430223 1.7356668
0.14466316 -0.44464353 1.7370001
0.15397686 -0.44516084 1.7390002
0.16464852 -0.44516081 1.7390002
0.17559737 -0.44557664 1.7390002
0.18316059 -0.44581419 1.7390002
0.06221791 -0.43249035 1.7310001
0.076634258 -0.43476662 1.7310001
0.084980555 -0.43552539 1.7310003
0.096043535 -0.43514729 1.7339092
0.10469364 -0.43520576 1.7358001
0.11399326 -0.43517998 1.7336668
0.12521532 -0.43508253 1.7383336
0.13568257 -0.43448913 1.7390002
0.14482972 -0.43448919 1.7390002
0.15397686 -0.43448916 1.7390002
0.16268842 -0.4340536 1.7390002
0.17532018 -0.43448916 1.7390001
0.18446732 -0.43753821 1.7390001
0.046284057 -0.42414406 1.7310001
0.05311285 -0.42186776 1.7310001
0.06424126 -0.42439696 1.7310001
0.075369656 -0.42439696 1.7310001
0.085004665 -0.42502418 1.7315004
0.095390804 -0.42438501 1.7326
0.10520526 -0.42477924 1.7342001
0.11392114 -0.4259133 1.7368183
0.1250834 -0.42565843 1.7383848
0.13568257 -0.42534199 1.7390002
0.14482971 -0.42534196 1.7390002
0.15397686 -0.42534199 1.7390002
0.16495343 -0.42595181 1.7390001
0.17532019 -0.42534199 1.739
0.045019463 -0.41326857 1.7310001
0.054216493 -0.41400433 1.7310002
0.06525293 -0.41428021 1.7310001
0.074357986 -0.41428021 1.7310001
0.085577838 -0.41498831 1.7359233
0.095970161 -0.41434887 1.737667
0.10499281 -0.41387025 1.7356669
0.11425275 -0.41434893 1.7376667
0.12501091 -0.41467029 1.7390002
0.13568258 -0.41467032 1.7390002
0.14482974 -0.41467032 1.7390002
0.15214743 -0.41497526 1.7390001
0.16210765 -0.41517851 1.739
0.17532018 -0.4192439 1.7390001
0.044007789 -0.40214014 1.7310001
0.057665378 -0.40517518 1.7310001
0.06525293 -0.40517521 1.7310001
0.074357986 -0.40517518 1.7310001
0.085223526 -0.40457863 1.7334619
0.095994323 -0.40379217 1.7381114
0.1051921 -0.40399867 1.7390002
0.11433925 -0.40399867 1.7390002
0.12409619 -0.40430361 1.7390001
0.13568258 -0.40582809 1.7390001
0.14482972 -0.40437981 1.7390002
0.15519647 -0.40338883 1.7390001
0.1610913 -0.40501499 1.739
0.044614796 -0.39121407 1.7310002
0.055447478 -0.39373547 1.7310003
0.065305524 -0.39485654 1.7323335
0.074473716 -0.39515686 1.7336668
0.084775425 -0.3949382 1.7355717
0.09604498 -0.39485154 1.7390002
0.1051921 -0.39485157 1.7390002
0.11433925 -0.39485154 1.7390002
0.12424864 -0.39713833 1.7390001
0.15600955 -0.39688423 1.739
0.16007495 -0.39637607 1.7390001
0.027618682 -0.38332301 1.7310002
0.034902729 -0.38393003 1.7310001
0.044007789 -0.38393003 1.7310001
0.054630365 -0.38393006 1.7310003
0.065388523 -0.3847155 1.7345557
0.074552029 -0.38491267 1.7354445
0.085373305 -0.38570443 1.7390002
0.096044965 -0.38722894 1.7390002
0.10458229 -0.38753381 1.7390001
0.11494906 -0.38753381 1.7390001
0.12653543 -0.3857044 1.7390001
0.019727631 -0.37178996 1.7310001
0.025797671 -0.37482494 1.7310001
0.034902733 -0.37482497 1.7310001
0.044007793 -0.374825 1.7310001
0.054675948 -0.37511489 1.7323335
0.065554507 -0.37503269 1.7390002
0.074701644 -0.37503275 1.7390002
0.085068397 -0.37472782 1.7390002
0.092995919 -0.37198371 1.7390001
0.10214306 -0.37655726 1.7390001
0.019727631 -0.36571991 1.7310001
0.025797671 -0.36571991 1.7310001
0.034902733 -0.36571991 1.7310001
0.044341721 -0.36507082 1.7331818
0.054836266 -0.36517447 1.7342002
0.065554507 -0.36436108 1.7390002
0.074701644 -0.36436108 1.7390002
0.085373312 -0.36436108 1.7390002
0.015825462 -0.35466382 1.7310003
0.025797671 -0.35509732 1.7310003
0.034902729 -0.35509732 1.7310003
0.043830529 -0.3551673 1.7358001
0.054746687 -0.35555521 1.7383848
0.065118924 -0.35608506 1.7390002
0.074701644 -0.35673845 1.7390002
0.083848782 -0.35673845 1.7390002
0.0060700402 -0.34143975 1.7310001
0.015588966 -0.34419888 1.7310002
0.025797671 -0.34447479 1.7310001
0.035014942 -0.34553611 1.7363335
0.042178478 -0.3480995 1.739
-0.0037937751 -0.33309346 1.7310001
0.0045525301 -0.33536971 1.7310001
0.015532309 -0.3350198 1.7316157
0.025870727 -0.33474812 1.7356669
0.033539515 -0.33539513 1.7390002
-0.0045525297 -0.32474715 1.7310003
0.0045583737 -0.32524157 1.7336669
0.014920222 -0.32543766 1.7363335
0.025535766 -0.32510462 1.7390002
0.032014988 -0.32624799 1.7390001
-0.01062257 -0.31108955 1.7310001
-0.0045657773 -0.31492642 1.7354445
0.0045735701 -0.31557634 1.7390002
0.015245233 -0.31557634 1.7390002
0.023884198 -0.31760898 1.739
-0.010622571 -0.30501953 1.7310001
-0.0045735701 -0.30490461 1.7390002
0.0045735696 -0.30490467 1.7390002
0.014059491 -0.30710673 1.7390002
-0.15326852 -0.29591444 1.7310001
-0.013224015 -0.29504728 1.7310001
-0.0045735696 -0.29423296 1.7390002
0.0041924389 -0.29461414 1.7390002
-0.15023349 -0.28529188 1.7310001
-0.14416344 -0.28438136 1.7310002
-0.13549197 -0.28290722 1.7310001
-0.12638691 -0.28290722 1.7310001
-0.11642777 -0.28196725 1.7323333
-0.10774321 -0.28073934 1.7310001
-0.022762651 -0.28073934 1.7310001
-0.014124515 -0.28494167 1.7310003
-0.0045735701 -0.28508586 1.7390002
0.002744142 -0.28508586 1.7390001
-0.15023349 -0.27466929 1.7310001
-0.14416344 -0.27466932 1.7310001
-0.13505837 -0.27466932 1.7310001
-0.12505372 -0.27540937 1.7339092
-0.11433925 -0.27898777 1.739
-0.092568107 -0.27163428 1.7310001
-0.089533091 -0.27163428 1.7310001
-0.075875498 -0.27163428 1.7310001
-0.063735418 -0.27163428 1.7310001
-0.055136193 -0.27163428 1.7310001
-0.043501955 -0.27365765 1.7310001
-0.034902733 -0.27315184 1.7310001
-0.025797671 -0.27466932 1.7310001
-0.015200231 -0.27519473 1.7343335
-0.0045735701 -0.27898777 1.7390001
-0.15124516 -0.2675876 1.7310001
-0.14416344 -0.26556423 1.7310001
-0.13505839 -0.26556426 1.7310001
-0.12777436 -0.26617128 1.7310002
-0.08346305 -0.2675876 1.7310001
-0.073924415 -0.26643142 1.7310001
-0.065252922 -0.26556423 1.7310001
-0.054649647 -0.26566535 1.7316669
-0.044075586 -0.26596868 1.7336667
-0.034662351 -0.26544112 1.7342001
-0.026138611 -0.26512113 1.7353638
-0.016159948 -0.26923078 1.7390001
-0.14315178 -0.25544751 1.7310001
-0.13505839 -0.25494167 1.7310003
-0.12898836 -0.25645918 1.7310001
-0.14329629 -0.24388553 1.7310001
-0.13505839 -0.24431913 1.7310001
-0.12898836 -0.24431911 1.7310001
-0.15225685 -0.23420238 1.7310001
-0.14416344 -0.23521405 1.7310001
-0.13505839 -0.23521405 1.7310001
-0.1535625 -0.22501755 1.7343334
-0.14460762 -0.22527765 1.7363337
-0.13715337 -0.22583094 1.7355715
-0.15448503 -0.21394144 1.7390002
-0.14482972 -0.21495779 1.7390002
-0.13796937 -0.21419552 1.7390001
-0.1570259 -0.2088597 1.7390001
-0.14686242 -0.20377795 1.739
-0.13669893 -0.20784335 1.739
-0.15397684 -0.19361447 1.7390002
-0.14543954 -0.19513901 1.7390001
-0.13690218 -0.19300465 1.7390001
-0.12805995 -0.19056542 1.7390001
-0.15323491 -0.18368095 1.7363335
-0.14454818 -0.18323648 1.7355716
-0.13537048 -0.18556754 1.7350001
-0.12836944 -0.18621714 1.7363335
-0.07132297 -0.18058369 1.7310001
-0.066770434 -0.18058369 1.7310001
-0.15225685 -0.17552531 1.7310001
-0.14719847 -0.17754866 1.7310001
-0.042584959 -0.1733959 1.7350001
-0.035005592 -0.17200696 1.7363335
-0.15326852 -0.16540858 1.7310001
-0.042490281 -0.16844361 1.7310001
-0.034295727 -0.16722961 1.7310002
-0.025415195 -0.16660938 1.7344286
-0.016310135 -0.16508546 1.7367145
-0.012645918 -0.15731519 1.7310001
-0.0049476875 -0.15342216 1.7370001
0.0038113082 -0.15169007 1.7390001
0.012958448 -0.15169007 1.7390001
-0.0030350201 -0.14719847 1.7310001
0.0045615472 -0.14532216 1.7344285
0.01479375 -0.14419422 1.7346367
0.025430221 -0.14367902 1.7355716
0.035064038 -0.14178067 1.739
0.01821012 -0.13809341 1.7310001
0.025797671 -0.13809341 1.7310001
0.034958836 -0.13678865 1.7336668
0.044099741 -0.13534048 1.7345557
0.054798681 -0.13547918 1.7363335
0.065099731 -0.1351489 1.7370001
0.073939383 -0.13339578 1.7390001
0.054630361 -0.12898836 1.7310001
0.066011682 -0.1282296 1.7310001
0.074417599 -0.1275702 1.7323335
0.085179269 -0.12624906 1.7350003
0.095900029 -0.12482155 1.7363334
0.1051921 -0.12348638 1.7390001
0.11433925 -0.12196186 1.7390002
0.12470601 -0.12104714 1.7390001
0.13568258 -0.12119959 1.7390001
0.14635424 -0.12043734 1.7390001
0.15245233 -0.12043734 1.7390001
0.097120643 -0.11988329 1.7310001
0.1041012 -0.11806228 1.7310002
0.11624126 -0.11624126 1.7310002
0.1261497 -0.11551077 1.7336668
0.13516007 -0.11542077 1.7323333
0.14401542 -0.11491185 1.7344286
0.15451629 -0.11399326 1.7336668
0.16434413 -0.11413305 1.7358
0.17491692 -0.11255873 1.735
0.182522 -0.11255874 1.7350001
0.19208995 -0.1112902 1.7390001
0.18795295 -0.10588584 1.7336668
0.19540463 -0.10672702 1.7355716
0.20584047 -0.10585789 1.7355715
0.21453397 -0.10498872 1.7355716
0.22465998 -0.10464294 1.7354445
0.23560941 -0.1030811 1.7376667
0.24544828 -0.10366759 1.7390002
0.2545954 -0.10214307 1.739
0.26526707 -0.10214306 1.7390001
0.28203681 -0.10519211 1.7390001
0.29626569 -0.10315941 1.739
0.30033109 -0.10214306 1.7390001
0.24735413 -0.098638147 1.7310001
0.25544751 -0.097626477 1.7310001
0.26663333 -0.097993366 1.733
0.27530402 -0.097348571 1.7350001
0.28503853 -0.095524758 1.7350003
0.29542476 -0.096083693 1.7346364
0.28984439 -0.089533091 1.7310001
0.18848686 -0.49496952 1.748
0.1946165 -0.49496952 1.748
0.20074613 -0.49496952 1.748
0.22832958 -0.49496949 1.748
0.23599164 -0.49496949 1.748
0.24212129 -0.49496952 1.748
0.18848686 -0.48577499 1.748
0.1946165 -0.48577499 1.748
0.20151237 -0.48500881 1.748
0.22710364 -0.48577499 1.7479999
0.23445924 -0.48577499 1.748
0.24212131 -0.48883986 1.748
0.18848684 -0.47504812 1.748
0.1946165 -0.47504809 1.7479998
0.20534338 -0.47504809 1.7479997
0.21607028 -0.47504809 1.7479998
0.22526477 -0.47504807 1.7479998
0.2332333 -0.47780648 1.7479999
0.18848686 -0.46432123 1.748
0.1946165 -0.46432126 1.748
0.20534338 -0.46432129 1.7479998
0.21607029 -0.4643212 1.748
0.22526476 -0.4643212 1.748
0.18848686 -0.45512676 1.748
0.1946165 -0.45512676 1.748
0.20534338 -0.45512673 1.7479998
0.21607026 -0.45512676 1.748
0.22526474 -0.45550987 1.748
0.1731627 -0.44286746 1.748
0.18644363 -0.44593227 1.748
0.19499959 -0.44631544 1.748
0.20534338 -0.44593227 1.7479998
0.2176027 -0.4474647 1.748
0.22587773 -0.44654527 1.7479999
0.16703303 -0.43673781 1.748
0.1752059 -0.43597165 1.7479998
0.18367068 -0.43454865 1.748
0.19691512 -0.43750402 1.748
0.20442393 -0.43704429 1.7479999
0.21607028 -0.43367296 1.748
0.22832958 -0.43367296 1.748
0.15630615 -0.42141366 1.748
0.16396822 -0.4229461 1.748
0.17535186 -0.42404065 1.748
0.18388961 -0.42447853 1.748
0.2068758 -0.42447853 1.748
0.21402705 -0.42652169 1.748
0.22832958 -0.42754331 1.748
0.15599969 -0.41467103 1.7479999
0.16440606 -0.41528401 1.748
0.17427717 -0.41556263 1.7479999
0.1838896 -0.41681641 1.748
0.2053434 -0.41834885 1.748
0.21300545 -0.41834885 1.748
0.13434158 -0.4040463 1.748
0.14557926 -0.4030247 1.748
0.15324132 -0.40685576 1.748
0.16498983 -0.40557873 1.748
0.17272486 -0.4069652 1.748
0.12374238 -0.3934471 1.748
0.1347502 -0.39546481 1.7479997
0.14557926 -0.39536259 1.7479998
0.15439063 -0.39421332 1.748
0.16458119 -0.3947497 1.7479999
0.17193677 -0.3956691 1.7479999
0.095666371 -0.38288441 1.748
0.10617435 -0.38376004 1.748
0.11449317 -0.38376006 1.748
0.12374238 -0.38425264 1.748
0.13485236 -0.38463572 1.7479998
0.14557928 -0.38463572 1.748
0.15477376 -0.38463569 1.748
0.16396822 -0.38616815 1.748
0.17009787 -0.38770056 1.748
0.097417705 -0.37587911 1.748
0.10573651 -0.37544128 1.748
0.114931 -0.37631696 1.748
0.12324982 -0.37587911 1.748
0.13561858 -0.37697369 1.748
0.14557926 -0.37544128 1.748
0.15426295 -0.37441969 1.748
0.096070528 -0.36436075 1.7479998
0.10389762 -0.36685973 1.7479999
0.114931 -0.3677792 1.748
0.12412548 -0.3693116 1.748
0.13944961 -0.3677792 1.748
0.14557926 -0.36808568 1.7479999
0.15324134 -0.3677792 1.748
0.06742619 -0.35398749 1.748
0.075088255 -0.35398749 1.748
0.084282734 -0.35398749 1.748
0.092711009 -0.35628611 1.748
0.038310334 -0.34172818 1.748
0.043418378 -0.34479299 1.748
0.053634465 -0.34785783 1.748
0.038310334 -0.3355985 1.748
0.04137516 -0.33559856 1.748
0.029115854 -0.32180679 1.748
0.035858475 -0.32425869 1.7479999
0.04137516 -0.32640404 1.748
0.026434131 -0.31376165 1.748
0.034019578 -0.31537068 1.7479999
0.016856547 -0.30363673 1.748
0.024518613 -0.30801508 1.748
0.0076620667 -0.29269093 1.748
0.013791719 -0.29575577 1.748
-0.0045972401 -0.28043163 1.748
0.005910737 -0.2839343 1.748
0.013110648 -0.28588021 1.748
-0.0045972397 -0.27583441 1.748
0.0030648266 -0.27736682 1.748
-0.050569639 -0.26204267 1.748
-0.044439986 -0.26204267 1.748
-0.036777921 -0.26204267 1.748
-0.0229862 -0.26204267 1.748
-0.014906203 -0.26482886 1.7479999
-0.033202291 -0.25693464 1.748
-0.026926693 -0.25635085 1.748
-0.019921374 -0.25897786 1.748
-0.15375213 -0.2181135 1.748
-0.15375215 -0.20551366 1.748
-0.14426577 -0.2068758 1.748
-0.13638479 -0.2024975 1.748
-0.15170892 -0.19155167 1.748
-0.14251444 -0.19155167 1.748
-0.13331996 -0.19563811 1.748
-0.12719031 -0.1961489 1.748
-0.15170892 -0.18848684 1.748
-0.14557926 -0.18848684 1.748
-0.026051024 -0.1731627 1.748
-0.018388961 -0.1731627 1.748
-0.012259306 -0.16550064 1.748
-0.0061296532 -0.16090339 1.748
-0.0015324133 -0.15783857 1.748
0.005210205 -0.15661265 1.7479999
0.015324133 -0.15477374 1.748
0.024518613 -0.15170892 1.748
0.019921374 -0.14864409 1.748
0.027583439 -0.14864409 1.748
0.035245508 -0.14557926 1.748
0.044439986 -0.14251444 1.748
0.055166878 -0.14251444 1.748
0.062828943 -0.14251444 1.748
0.068958603 -0.13944961 1.748
0.075088255 -0.13791719 1.748
0.084282734 -0.13331996 1.748
0.095009625 -0.13102134 1.748
0.1042041 -0.13025513 1.748
0.10726893 -0.12719031 1.748
0.11493101 -0.12719031 1.748
0.12412548 -0.12596437 1.7479999
0.13463345 -0.12587681 1.748
0.14481306 -0.12335928 1.748
0.15538672 -0.12412548 1.7479999
0.16396822 -0.12106065 1.748
0.17469512 -0.11799583 1.748
0.18618822 -0.11569721 1.748
0.19538271 -0.1141648 1.748
0.20534337 -0.11288779 1.748
0.21530408 -0.11263238 1.748
0.22373235 -0.11186618 1.748
0.28349647 -0.11263238 1.748
0.21913511 -0.10880134 1.748
0.22219993 -0.10880134 1.748
0.23445922 -0.10803513 1.748
0.24518614 -0.10880134 1.748
0.25591305 -0.10726892 1.748
0.26510751 -0.10726893 1.748
0.27481282 -0.10573652 1.748
0.28533536 -0.10573652 1.7479999
0.29345715 -0.10573652 1.748
0.24798883 -0.49443737 1.7570001
0.25415006 -0.49443737 1.7570001
0.26031128 -0.49443737 1.7570001
0.24490823 -0.48519558 1.7570001
0.25376499 -0.48558065 1.7570001
0.26031128 -0.48827615 1.7570001
0.23654659 -0.47551367 1.7570001
0.24490824 -0.47718596 1.7570002
0.25106946 -0.47595373 1.7570001
0.23566644 -0.46517161 1.7570001
0.24446814 -0.46363133 1.7570001
0.25106946 -0.46465817 1.7570001
0.21410216 -0.45130888 1.7570001
0.22642459 -0.45284918 1.7570001
0.23566641 -0.45438951 1.7570001
0.24490823 -0.45438951 1.7570001
0.25106946 -0.45438948 1.7570001
0.18945731 -0.44360736 1.7570001
0.19253792 -0.44360736 1.7570001
0.21533442 -0.44453153 1.7570002
0.22449921 -0.44399247 1.7570001
0.23566641 -0.44514766 1.7570001
0.24490823 -0.44514766 1.7570001
0.25106946 -0.44514766 1.7570001
0.18945731 -0.43590584 1.7570001
0.19473836 -0.43546578 1.7570001
0.20486034 -0.43282524 1.7570001
0.21371709 -0.43590587 1.7570001
0.22446422 -0.4359059 1.7570001
0.23566641 -0.43590587 1.7570001
0.24490823 -0.43590587 1.7570001
0.25183961 -0.436676 1.7570001
0.18945731 -0.42512372 1.7570001
0.19561853 -0.42512378 1.7570001
0.20239587 -0.42604789 1.7570002
0.2146156 -0.42306998 1.7570001
0.22457626 -0.42481562 1.7570001
0.23489626 -0.42666405 1.7570001
0.24490823 -0.42820433 1.7570001
0.1832961 -0.4128013 1.7570001
0.19253792 -0.41742221 1.7570001
0.20640065 -0.4143416 1.7570001
0.21410216 -0.41434163 1.7570001
0.22437085 -0.4153685 1.7570001
0.2325858 -0.4158819 1.7570001
0.17559458 -0.40355948 1.7570001
0.18291102 -0.40548488 1.7570001
0.20640065 -0.40664008 1.7570001
0.21410218 -0.40633202 1.7570002
0.22026338 -0.40818039 1.7570001
0.137087 -0.39585796 1.7570001
0.15249003 -0.39585796 1.7570001
0.1746704 -0.39524183 1.7570002
0.18291102 -0.39547291 1.7570001
0.137087 -0.38045493 1.7570001
0.15557064 -0.38045493 1.7570001
0.16481246 -0.38199523 1.7570001
0.17433433 -0.38465577 1.7570001
0.1832961 -0.3850759 1.7570001
0.10936154 -0.37275341 1.7570001
0.11552275 -0.37275341 1.7570001
0.12630488 -0.37352356 1.7570001
0.1340064 -0.37429374 1.7570001
0.14016761 -0.37737432 1.7570001
0.15865125 -0.37429371 1.7570001
0.16481246 -0.37429374 1.7570001
0.17251398 -0.37506387 1.7570001
0.18514445 -0.37490982 1.7570002
0.1073078 -0.36402503 1.7570001
0.11552275 -0.36466685 1.7570001
0.12388439 -0.36549202 1.7570001
0.1340064 -0.3665922 1.7570001
0.14495966 -0.36402506 1.7570001
0.15601073 -0.36417174 1.7570001
0.16327216 -0.36582205 1.7570001
0.17097367 -0.3681325 1.7570001
0.047749404 -0.35272947 1.7570001
0.053910617 -0.35272947 1.7570001
0.064692743 -0.35272947 1.7570001
0.075474866 -0.35272947 1.7570001
0.084716685 -0.35272947 1.7570001
0.094574623 -0.35396171 1.7570002
0.10371376 -0.35786381 1.7570001
0.11552275 -0.35889068 1.7570001
0.12322427 -0.35889068 1.7570001
0.14324822 -0.35812053 1.7570001
0.15634079 -0.35812053 1.7570001
0.16173185 -0.35889068 1.7570001
0.17097367 -0.35889068 1.7570001
0.045989059 -0.34436783 1.7570001
0.053602558 -0.34471995 1.7570002
0.064692743 -0.34502795 1.7570001
0.075194806 -0.34488797 1.7570001
0.083946534 -0.34887871 1.7570001
0.093958504 -0.34656826 1.7570001
0.046209101 -0.33424583 1.7570001
0.053910617 -0.33424583 1.7570001
0.064692743 -0.33424589 1.7570001
0.074704714 -0.33578613 1.7570001
0.081636079 -0.33732644 1.7570001
0.045548972 -0.32456392 1.7570001
0.053910617 -0.32500401 1.7570001
0.061612133 -0.32500401 1.7570001
0.036967281 -0.31422189 1.7570001
0.044668797 -0.31576219 1.7570001
0.053910617 -0.31576219 1.7570001
0.061612133 -0.31576219 1.7570001
0.025158288 -0.30412436 1.7570001
0.033578612 -0.30713648 1.7570002
0.053910617 -0.30883083 1.7570001
0.061612137 -0.30960098 1.7570001
0.020023944 -0.29419795 1.7570001
0.015916469 -0.28392926 1.7570001
0.020023944 -0.28495613 1.7570001
-0.0046209102 -0.2726337 1.7570001
0.0050609969 -0.27483413 1.7570001
0.013422644 -0.27659446 1.7570001
0.020023944 -0.27879491 1.7570001
-0.05083001 -0.26031128 1.7570001
-0.043128494 -0.26031128 1.7570001
-0.038507584 -0.26031128 1.7570001
-0.01386273 -0.26031128 1.7570001
-0.0050609969 -0.26735264 1.7570001
0.0038507585 -0.26878294 1.7570001
0.010782124 -0.2695531 1.7570001
-0.035426978 -0.25723067 1.7570001
-0.022224378 -0.25370997 1.7570001
-0.01386273 -0.25415006 1.7570001
-0.01386273 -0.24798883 1.7570001
-0.15865125 -0.18945731 1.7570001
-0.012835861 -0.17200054 1.7570001
-0.010782124 -0.16789307 1.7570001
-0.0046209102 -0.16378559 1.7570001
0.010782124 -0.16173185 1.7570001
0.01386273 -0.15865125 1.7570001
0.024644854 -0.15480049 1.7570001
0.032346372 -0.15249003 1.7570001
0.035426978 -0.14940943 1.7570001
0.043898646 -0.14709897 1.7570001
0.053910617 -0.14632882 1.7570001
0.065206178 -0.14427508 1.7570001
0.072394259 -0.14324822 1.7570001
0.084716685 -0.137087 1.7570001
0.094728656 -0.1355467 1.7570001
0.10381645 -0.1340064 1.7570002
0.11552275 -0.13092579 1.7570001
0.12476457 -0.13092579 1.7570001
0.137087 -0.13092579 1.7570001
0.15403034 -0.13092579 1.7570001
0.14632882 -0.12784518 1.7570001
0.15557064 -0.12784518 1.7570001
0.16481246 -0.12630488 1.7570001
0.1736692 -0.12437949 1.7570001
0.1832961 -0.12322427 1.7570001
0.18945731 -0.11860336 1.7570001
0.19561853 -0.11860336 1.7570001
0.20486034 -0.11706305 1.7570001
0.21410216 -0.11757649 1.7570001
0.22488429 -0.1147526 1.7570001
0.2325858 -0.11244214 1.7570001
0.24490823 -0.11244214 1.7570001
0.25415006 -0.11244214 1.7570001
0.26493219 -0.11244214 1.7570001
0.27571431 -0.11244214 1.7570001
0.27571431 -0.10782123 1.7570001
0.26628923 -0.49387369 1.7659999
0.27403021 -0.49387372 1.7659999
0.28022298 -0.49697006 1.766
0.25751615 -0.48252025 1.7660002
0.26474106 -0.48458448 1.7659999
0.27299809 -0.48561665 1.7659999
0.24616273 -0.47529534 1.7659999
0.25700009 -0.47529534 1.7659999
0.26474106 -0.47529534 1.7659999
0.27093384 -0.47529534 1.7660002
0.24719487 -0.46807048 1.7660002
0.2563366 -0.46644855 1.7659999
0.26474106 -0.46600622 1.7659999
0.27299809 -0.46497408 1.7659999
0.28331938 -0.46290982 1.766
0.25700009 -0.45516884 1.7659999
0.26474103 -0.45516887 1.7660002
0.27248204 -0.45826522 1.766
0.28331938 -0.45981342 1.766
0.25730973 -0.44495076 1.766
0.26474106 -0.44433147 1.7659999
0.27093384 -0.4412351 1.766
0.2563366 -0.43460003 1.7659999
0.26241875 -0.43581644 1.766
0.23842177 -0.42420498 1.766
0.24616273 -0.42420498 1.7659999
0.25506487 -0.42614019 1.7659999
0.26370892 -0.42781743 1.7660002
0.19517556 -0.41460618 1.7660003
0.20281333 -0.4149158 1.766
0.22603622 -0.4118194 1.766
0.23635752 -0.41388369 1.7660002
0.24585311 -0.41584474 1.766
0.2531296 -0.41723812 1.766
0.18733139 -0.40253025 1.766
0.19549461 -0.40407845 1.766
0.20546736 -0.4031938 1.7659999
0.21519889 -0.40363616 1.7659999
0.22448802 -0.40407848 1.7659999
0.2353254 -0.40407851 1.7660002
0.24306636 -0.40098208 1.766
0.19507237 -0.39478931 1.7660002
0.2059097 -0.39478928 1.7659999
0.21519889 -0.39633748 1.7659999
0.22448802 -0.39788568 1.7660002
0.2353254 -0.39788568 1.766
0.19391122 -0.38666129 1.7659999
0.20590971 -0.38859653 1.766
0.16565669 -0.37001821 1.766
0.17627287 -0.3739993 1.7659999
0.18290798 -0.37311459 1.7659999
0.19042778 -0.37775916 1.766
0.12850004 -0.36382541 1.7660002
0.13469282 -0.36227727 1.7659999
0.14707837 -0.36072904 1.766
0.1672049 -0.36382541 1.7659999
0.1753329 -0.36421245 1.7659999
0.18423502 -0.36382544 1.7659999
0.094439782 -0.35143986 1.7660002
0.10589641 -0.353917 1.766
0.1161145 -0.35453627 1.7659999
0.12540366 -0.35453629 1.7659999
0.13469282 -0.35453629 1.7659999
0.14436904 -0.35414925 1.7659999
0.1543971 -0.35425481 1.766
0.16526964 -0.35492334 1.7659999
0.17494586 -0.35453629 1.7659999
0.18423501 -0.35685858 1.766
0.057283152 -0.34524712 1.766
0.078957863 -0.34834349 1.766
0.085537672 -0.34486002 1.7659999
0.09443979 -0.34486008 1.7659999
0.10527714 -0.34524706 1.7660002
0.1161145 -0.34524712 1.7659999
0.12540364 -0.34524712 1.7659999
0.13469282 -0.34524712 1.7659999
0.14398198 -0.34524712 1.7659999
0.15481932 -0.34524706 1.7660002
0.16521434 -0.3461318 1.7659999
0.1753882 -0.3461318 1.7659999
0.076480754 -0.33471939 1.766
0.085537679 -0.33557093 1.7659999
0.094439782 -0.33595797 1.7659999
0.10544917 -0.33699012 1.7659999
0.1161145 -0.33750618 1.7659999
0.12462956 -0.33828026 1.766
0.13531211 -0.33781579 1.766
0.14398199 -0.33828026 1.766
0.15439709 -0.33623946 1.766
0.068120509 -0.3251206 1.7659999
0.075861476 -0.32512057 1.7660002
0.085150622 -0.3251206 1.7660002
0.09382052 -0.32852665 1.766
0.038704835 -0.31118685 1.766
0.044897605 -0.31118685 1.7660002
0.068120509 -0.31428322 1.7659999
0.075861469 -0.31428325 1.7659999
0.082054242 -0.31428322 1.7660002
0.029415673 -0.30344588 1.766
0.036640581 -0.30396196 1.7659999
0.044897605 -0.30499411 1.7659999
0.054186769 -0.30460706 1.7659999
0.065024123 -0.30499411 1.7660002
0.074829347 -0.30602622 1.7659999
0.082054242 -0.30809048 1.766
0.026319284 -0.2957049 1.7659999
0.035608448 -0.2957049 1.7659999
0.044897605 -0.2957049 1.7659999
0.053799719 -0.29609197 1.7659999
0.063991994 -0.29776919 1.7659999
0.026319286 -0.28486758 1.7660002
0.035608448 -0.28486755 1.7660002
0.044278331 -0.28548685 1.766
0.052122507 -0.28848001 1.7660002
0.015481934 -0.27248204 1.766
0.024771089 -0.27403021 1.7660002
0.035608452 -0.27403024 1.7659999
0.043039773 -0.2746495 1.766
-0.0040253028 -0.26288325 1.766
0.0050316285 -0.26435399 1.7659999
0.013933741 -0.26474106 1.7659999
0.023738964 -0.26680529 1.7659999
0.035608448 -0.26783744 1.7660002
-0.0046445802 -0.25545189 1.7659999
0.0046445802 -0.25545189 1.7659999
0.01161145 -0.256226 1.766
-0.020126512 -0.24925913 1.766
-0.012901612 -0.248227 1.7660002
-0.0046445797 -0.24925913 1.7660002
0.0058831344 -0.24740131 1.766
0.010837353 -0.24616273 1.7660002
-0.010837353 -0.17494585 1.766
-0.0077409665 -0.17184946 1.766
-0.0046445802 -0.16772096 1.7660002
0.0046445802 -0.1625603 1.7660002
0.01393374 -0.1625603 1.766
0.017030127 -0.15946391 1.766
0.024771092 -0.15868981 1.766
0.036227725 -0.15512897 1.766
0.044897605 -0.15172294 1.766
0.054186765 -0.15017475 1.7660002
0.066572316 -0.14707837 1.7660002
0.076635569 -0.14398198 1.766
0.085150622 -0.14212415 1.766
0.094439782 -0.14088559 1.7660002
0.10372895 -0.14088559 1.7660002
0.1161145 -0.14088559 1.766
0.09443979 -0.1377892 1.766
0.10759943 -0.1370151 1.766
0.1161145 -0.136241 1.7659999
0.12540366 -0.136241 1.7659999
0.13366069 -0.13417675 1.7659999
0.14398198 -0.13159643 1.7660002
0.15636753 -0.1346928 1.7659999
0.16565669 -0.13469282 1.7659999
0.17391372 -0.13366069 1.7659999
0.18423501 -0.13237053 1.766
0.17804223 -0.12850004 1.766
0.18423502 -0.12850004 1.7660002
0.19507235 -0.12385546 1.7659999
0.20436153 -0.12230727 1.766
0.21519887 -0.12230727 1.7660002
0.25751615 -0.12437153 1.7660002
0.26267681 -0.12643579 1.7660002
0.27403021 -0.12230727 1.766
0.2090061 -0.11921088 1.766
0.21829526 -0.11921088 1.766
0.22448803 -0.11921088 1.7660002
0.23554656 -0.11567216 1.7659999
0.24678202 -0.11735306 1.766
0.25545189 -0.11766269 1.7659999
0.26474106 -0.11766269 1.7659999
0.27341095 -0.11673377 1.766
0.28177118 -0.1161145 1.766
0.28520676 -0.49468863 1.7760003
0.29177433 -0.49480191 1.7760003
0.27745026 -0.48359174 1.7760003
0.28492367 -0.48421457 1.7760001
0.29239711 -0.48359174 1.7760003
0.27713889 -0.4748728 1.7760001
0.28492367 -0.4748728 1.7760001
0.29337573 -0.47442794 1.7760001
0.27869585 -0.46553105 1.7760001
0.28492364 -0.46597591 1.7760001
0.29426542 -0.46553102 1.7760001
0.27602676 -0.45529956 1.7760001
0.28492367 -0.45618927 1.7760001
0.29426545 -0.45618927 1.7760001
0.30049327 -0.45307535 1.7760001
0.26935408 -0.44061968 1.7760001
0.27586502 -0.4454321 1.7760003
0.28492364 -0.44529057 1.7760004
0.29426545 -0.4452906 1.7760004
0.30111605 -0.44435638 1.7760003
0.31606287 -0.44061968 1.7760001
0.26748574 -0.43501464 1.7760003
0.27558196 -0.43439183 1.7760001
0.28492367 -0.43439183 1.7760001
0.29426542 -0.43439186 1.7760001
0.30405205 -0.43528149 1.7760001
0.31450593 -0.43594879 1.7760001
0.26530597 -0.42442727 1.7760003
0.27558193 -0.42505005 1.7760001
0.28492367 -0.42505005 1.7760001
0.2938762 -0.4254393 1.7760001
0.30672112 -0.42505008 1.7760001
0.24755664 -0.41259441 1.7760001
0.25503007 -0.41446275 1.7760003
0.26468319 -0.4157083 1.7760004
0.27519268 -0.41609755 1.7760001
0.28616923 -0.41695389 1.7760003
0.29218951 -0.41778424 1.7760001
0.19150607 -0.40636656 1.7760001
0.24622211 -0.40503201 1.7760001
0.25378448 -0.4048095 1.7760004
0.26278025 -0.40602058 1.7760001
0.27558193 -0.40948048 1.7760001
0.20396176 -0.39079696 1.7760001
0.21552776 -0.39213151 1.7760001
0.22575919 -0.39391088 1.7760001
0.23510095 -0.39391088 1.7760001
0.24444273 -0.39391088 1.7760001
0.25378445 -0.39546788 1.7760001
0.26001233 -0.39702481 1.7760001
0.19617696 -0.38301215 1.7760001
0.20396177 -0.38456911 1.7760001
0.21486048 -0.38456908 1.7760004
0.22575919 -0.38456911 1.7760001
0.23510092 -0.38456911 1.7760001
0.24399789 -0.3854588 1.7760001
0.19500923 -0.37483811 1.7760001
0.20396177 -0.37522736 1.7760001
0.21486048 -0.37522733 1.7760004
0.22575919 -0.37522733 1.7760001
0.23510095 -0.37522733 1.7760001
0.31917679 -0.37834129 1.7760001
0.32384768 -0.37834129 1.7760001
0.19461998 -0.36588562 1.7760001
0.20396177 -0.36588559 1.7760001
0.21486048 -0.36588559 1.7760004
0.22575919 -0.36588559 1.7760001
0.23510097 -0.36588559 1.7760001
0.16970864 -0.35342991 1.7760001
0.18527824 -0.3530407 1.7760001
0.19462 -0.35965776 1.7760001
0.20396177 -0.35965776 1.7760001
0.21486048 -0.35965776 1.7760001
0.22575921 -0.35965776 1.7760001
0.16721751 -0.3422198 1.7760003
0.17531368 -0.34221983 1.7760003
0.18527824 -0.3440882 1.7760001
0.10369353 -0.33287805 1.7760003
0.11521504 -0.3331894 1.7760001
0.12650301 -0.33435714 1.7760001
0.13501067 -0.33385667 1.7760001
0.14479728 -0.33435714 1.7760001
0.15413904 -0.33163247 1.7760001
0.16546237 -0.33446327 1.7760003
0.17593649 -0.33474636 1.7760001
0.18527824 -0.33474636 1.7760001
0.095419407 -0.32451493 1.7760001
0.10431632 -0.32540464 1.7760001
0.11521504 -0.32540464 1.7760004
0.12611376 -0.32540461 1.7760001
0.13545553 -0.32540464 1.7760001
0.14479728 -0.32540464 1.7760001
0.15413904 -0.32540467 1.7760001
0.16503777 -0.32540464 1.7760004
0.17593649 -0.32540464 1.7760001
0.18527824 -0.32540464 1.7760001
0.087189764 -0.31606287 1.7760001
0.094974563 -0.31606287 1.7760001
0.10431631 -0.31606287 1.7760001
0.11521503 -0.3160629 1.7760004
0.12611376 -0.31606287 1.7760001
0.13545553 -0.31606287 1.7760001
0.14479727 -0.31606287 1.7760001
0.15413904 -0.31606287 1.7760001
0.16461313 -0.31634596 1.7760003
0.17682616 -0.31650773 1.7760001
0.18527824 -0.31606287 1.7760001
0.07732901 -0.30256921 1.7760001
0.085915886 -0.30473951 1.7760003
0.09497457 -0.30516419 1.7760004
0.10431632 -0.30516419 1.7760004
0.11521505 -0.30516413 1.7760005
0.12611376 -0.30516413 1.7760004
0.13545552 -0.30516413 1.7760004
0.14479728 -0.30516419 1.7760004
0.15351626 -0.30796668 1.7760003
0.16486476 -0.30395317 1.7760001
0.17827192 -0.30594265 1.7760001
0.18527824 -0.30672112 1.7760001
0.05760752 -0.29270849 1.7760001
0.064280197 -0.29337573 1.7760001
0.07411129 -0.2948882 1.7760003
0.085632801 -0.29582241 1.7760001
0.09186063 -0.29426542 1.7760001
0.10392708 -0.29387623 1.7760001
0.11521503 -0.29530343 1.7760001
0.12507579 -0.29530343 1.7760001
0.13337956 -0.29634139 1.7760001
0.14479728 -0.29737934 1.7760001
0.16555674 -0.29634139 1.7760001
0.048265759 -0.28336671 1.7760001
0.054882843 -0.28453442 1.7760001
0.063446119 -0.28531292 1.7760001
0.071101166 -0.28699961 1.7760001
0.096531518 -0.28570217 1.7760001
0.10431631 -0.28492367 1.7760001
0.11054417 -0.28492367 1.7760001
0.12299984 -0.28648064 1.7760001
0.047487278 -0.27480343 1.7760001
0.054493602 -0.27558196 1.7760001
0.060721438 -0.27869585 1.7760001
0.088746719 -0.27402496 1.7760001
0.094974563 -0.27519268 1.7760001
0.10431632 -0.2755819 1.7760001
0.11262011 -0.27454397 1.7760001
0.12299984 -0.272468 1.7760001
0.01712656 -0.26001233 1.7760001
0.025534142 -0.26250345 1.7760003
0.035810083 -0.26312622 1.7760001
0.045151833 -0.26468319 1.7760004
0.05293664 -0.26624015 1.7760001
0.094974555 -0.26935408 1.7760001
0.10431632 -0.26935408 1.7760001
0.11365808 -0.26935408 1.7760001
0.015569601 -0.25378445 1.7760001
0.023700394 -0.25447643 1.7760001
0.035810079 -0.2568984 1.7760001
0.042037919 -0.2568984 1.7760001
-0.0046708803 -0.24755664 1.7760001
0.0031139199 -0.24755664 1.7760001
0.015880993 -0.2450655 1.7760003
0.021797439 -0.24444272 1.7760001
0.16036688 -0.22575919 1.7760001
-0.0046708803 -0.17386054 1.7760001
0.0062278397 -0.17282256 1.7760001
-0.0015569599 -0.16970864 1.7760001
0.0052936641 -0.16784029 1.7760003
0.014012639 -0.16555674 1.7760001
0.024688939 -0.16392565 1.7760001
0.035187297 -0.16161245 1.7760003
0.042037919 -0.16036688 1.7760001
0.045930319 -0.15647449 1.7760001
0.053870816 -0.15538462 1.7760003
0.06383536 -0.15102512 1.7760001
0.070063196 -0.15102512 1.7760001
0.088746719 -0.15102512 1.7760001
0.077848002 -0.14791121 1.7760001
0.085632801 -0.14713272 1.7760001
0.094974555 -0.14635424 1.7760001
0.10431632 -0.14479728 1.7760001
0.11499261 -0.14346275 1.7760001
0.12533528 -0.14246184 1.7760001
0.13389856 -0.14168335 1.7760001
0.15725295 -0.14168335 1.7760001
0.16503777 -0.14168335 1.7760001
0.17437953 -0.14168335 1.7760001
0.13701248 -0.13856944 1.7760001
0.14479728 -0.136234 1.7760001
0.15206309 -0.13753147 1.7760001
0.17801243 -0.13753147 1.7760001
0.18527824 -0.13732389 1.7760003
0.25586042 -0.13337956 1.7760001
0.26105028 -0.13337956 1.7760001
0.19462 -0.12922768 1.7760001
0.20458455 -0.12798211 1.7760003
0.21369277 -0.12689224 1.7760001
0.22575921 -0.1245568 1.7760001
0.23510097 -0.12299984 1.7760001
0.2452212 -0.12377831 1.7760001
0.25339523 -0.12650301 1.7760001
0.26572117 -0.12507579 1.7760001
0.27558193 -0.12299984 1.7760001
0.23665792 -0.11988592 1.7760001
0.24288577 -0.11988592 1.7760001
0.27869585 -0.11832896 1.7760001
0.28180975 -0.11988592 1.7760001
0.29763445 -0.49605745 1.7850001
0.30201605 -0.49449259 1.7850001
0.29826039 -0.48604241 1.7850001
0.30483276 -0.48416463 1.7850001
0.31244838 -0.48249543 1.7850002
0.29888636 -0.47727925 1.7850001
0.30514574 -0.4741495 1.7850001
0.31364062 -0.47414953 1.785
0.30514574 -0.46476051 1.7850001
0.31218755 -0.46397805 1.7850001
0.30603996 -0.45581847 1.785
0.31414363 -0.45498013 1.785
0.30702358 -0.44660816 1.7850001
0.31414363 -0.44637346 1.785
0.32079425 -0.44285256 1.7850001
0.30648705 -0.43346342 1.785
0.31296998 -0.43189859 1.7850001
0.29888636 -0.42250949 1.7850001
0.30514574 -0.42368317 1.785
0.31492609 -0.42368317 1.785
0.32157668 -0.42485678 1.7850001
0.27384874 -0.41155556 1.7850001
0.2842811 -0.41398975 1.7850001
0.29614785 -0.41429403 1.785
0.30514574 -0.41468525 1.7850001
0.31244838 -0.41677174 1.7850002
0.26680693 -0.40529618 1.7850001
0.27384877 -0.40529615 1.7850001
0.28480271 -0.40529612 1.785
0.29530951 -0.40619034 1.785
0.25507054 -0.39277735 1.7850002
0.26485085 -0.39551586 1.785
0.27384874 -0.39590704 1.7850001
0.28386378 -0.39621997 1.7850001
0.24630737 -0.38151044 1.7850001
0.25507054 -0.38495311 1.785
0.26445964 -0.38495311 1.785
0.27384877 -0.38495311 1.785
0.28413206 -0.38450602 1.785
0.31641266 -0.38276231 1.7850001
0.32183746 -0.38443148 1.7850002
0.24568145 -0.37399912 1.7850001
0.25507057 -0.37399912 1.7850001
0.26445964 -0.37399915 1.7850001
0.27295455 -0.37444621 1.785
0.28532431 -0.37556398 1.785
0.3166213 -0.37608561 1.7850002
0.32235909 -0.37556398 1.7850001
0.23629233 -0.36398411 1.7850001
0.2446382 -0.36565325 1.785
0.25454894 -0.36565328 1.785
0.26758936 -0.36773974 1.7850001
0.27228391 -0.36461005 1.785
0.19560623 -0.35522094 1.7850001
0.20499536 -0.35522094 1.7850001
0.21438445 -0.35522094 1.7850001
0.22377354 -0.35522094 1.7850001
0.2347275 -0.355221 1.785
0.24255174 -0.35835063 1.7850001
0.19560625 -0.34583187 1.7850001
0.20499536 -0.34583187 1.7850001
0.21438444 -0.34583187 1.7850001
0.22377355 -0.34583187 1.7850001
0.2347275 -0.34583187 1.785
0.19560625 -0.33487788 1.785
0.20421293 -0.33644274 1.785
0.21438444 -0.3380076 1.785
0.22405805 -0.33530465 1.785
0.23316264 -0.33778405 1.785
0.19560625 -0.32392392 1.7850001
0.20395212 -0.32340232 1.785
0.2137585 -0.32454988 1.7850001
0.22377355 -0.32548881 1.7850001
0.15804985 -0.31140515 1.7850001
0.1627444 -0.31140515 1.7850001
0.17317672 -0.31349161 1.785
0.19560625 -0.31453484 1.7850001
0.20499536 -0.31453484 1.7850001
0.21125476 -0.31453481 1.7850002
0.15492016 -0.30358088 1.785
0.1627444 -0.3067106 1.7850001
0.17448077 -0.30475456 1.785
0.18621714 -0.30201605 1.7850002
0.19560625 -0.30749303 1.7850001
0.20421292 -0.30749303 1.7850001
0.078242496 -0.29262695 1.7850001
0.086066745 -0.29262695 1.7850002
0.097020693 -0.29575661 1.785
0.10797465 -0.29888636 1.7850001
0.11485998 -0.29513067 1.7850001
0.12675285 -0.29340938 1.7850001
0.13718519 -0.29471341 1.785
0.14553104 -0.29536539 1.785
0.15492015 -0.29575664 1.7850001
0.16326602 -0.29471341 1.785
0.17526321 -0.29575661 1.785
0.18582593 -0.29614785 1.785
0.066245317 -0.28115138 1.7850002
0.07589522 -0.2842811 1.785
0.086066753 -0.28480271 1.785
0.094412617 -0.28480268 1.785
0.1157989 -0.28480271 1.785
0.12541154 -0.28435564 1.785
0.13614197 -0.28480273 1.785
0.14490511 -0.28824538 1.7850001
0.15447307 -0.28726175 1.785
0.16430925 -0.28636757 1.7850001
0.17459252 -0.28815597 1.785
0.18621714 -0.28949726 1.7850001
0.063264653 -0.27429587 1.785
0.074721582 -0.27502239 1.785
0.08554513 -0.27384874 1.785
0.11736375 -0.27697846 1.7850001
0.12533027 -0.27384877 1.785
0.13509871 -0.27437037 1.785
0.0563346 -0.26445964 1.785
0.061029151 -0.26445967 1.7850001
0.070418246 -0.26758936 1.7850001
0.087631598 -0.2660245 1.7850001
0.095008746 -0.26535386 1.785
0.10484495 -0.2660245 1.785
0.11378694 -0.26535383 1.785
0.12487502 -0.26696342 1.7850001
0.028688917 -0.25298408 1.7850002
0.035991557 -0.25381866 1.7850001
0.04600659 -0.25632244 1.7850001
0.054143809 -0.25694838 1.7850001
0.061029151 -0.25820026 1.7850001
0.027384873 -0.24489903 1.7850001
0.032861851 -0.24255174 1.7850001
0.15648499 -0.23003295 1.7850001
0.16430925 -0.23003297 1.7850002
-0.00156485 -0.17682804 1.7850001
0.0039121248 -0.17448077 1.7850001
0.01345771 -0.17182052 1.7850001
0.023472751 -0.17056865 1.7850002
0.01721335 -0.16743895 1.7850001
0.0281673 -0.16743895 1.7850001
0.036773976 -0.16665652 1.7850001
0.045380648 -0.16378765 1.785
0.053204902 -0.1627444 1.7850001
0.057899449 -0.15804985 1.7850001
0.062593997 -0.1533553 1.7850001
0.075112797 -0.15257289 1.7850001
0.086066753 -0.15283369 1.7850002
0.094829902 -0.15304235 1.7850001
0.1032801 -0.15179045 1.7850001
0.10484495 -0.14866075 1.7850002
0.11423405 -0.14866075 1.7850002
0.12518799 -0.14709589 1.7850001
0.13614196 -0.14448781 1.7850002
0.14553104 -0.14240135 1.7850001
0.15544176 -0.14553104 1.785
0.16430925 -0.14553104 1.7850002
0.17578483 -0.14553104 1.785
0.18621714 -0.14396621 1.785
0.14553106 -0.13927165 1.7850001
0.19521503 -0.13575074 1.785
0.20395212 -0.13509871 1.785
0.21438444 -0.13301225 1.7850002
0.22377354 -0.13301225 1.7850002
0.23420589 -0.13301225 1.7850002
0.24776793 -0.13405548 1.7850002
0.25298408 -0.13509871 1.7850002
0.22377355 -0.12988254 1.7850002
0.23539816 -0.12854125 1.785
0.24505551 -0.12863067 1.7850001
0.26654613 0.38756117 1.7850002
0.27345756 0.38690919 1.785
0.28010815 0.3880828 1.7850001
0.27071905 0.39277735 1.7850001
0.30825701 -0.49541306 1.794
0.31297526 -0.49384034 1.794
0.31612074 -0.48597664 1.794
0.31821772 -0.47129777 1.794
0.32241169 -0.47654021 1.794
0.31847984 -0.46474466 1.794
0.30668429 -0.41048515 1.794
0.31681976 -0.41398013 1.794
0.29619935 -0.4020972 1.794
0.30554047 -0.40390822 1.7940001
0.31612074 -0.40419418 1.794
0.2941024 -0.39475775 1.794
0.30511153 -0.39475775 1.7940001
0.31612074 -0.39475775 1.794
0.29500109 -0.38577071 1.7939999
0.30511153 -0.38532129 1.7940001
0.31376165 -0.38610765 1.794
0.27837497 -0.3743121 1.794
0.28309321 -0.37431213 1.794
0.29449558 -0.37549165 1.7939999
0.30493677 -0.37623432 1.794
0.31533438 -0.37588489 1.794
0.32241169 -0.37273937 1.794
0.24692018 -0.36173022 1.794
0.25517708 -0.36290976 1.7939999
0.26550713 -0.36444673 1.7940001
0.27680221 -0.36330295 1.794
0.28466594 -0.3648757 1.7940001
0.29331601 -0.3664484 1.7939999
0.30039334 -0.36959389 1.794
0.24534743 -0.35386649 1.794
0.25565761 -0.35456553 1.794
0.26579306 -0.35425973 1.7939999
0.27365676 -0.35386649 1.794
0.24534744 -0.34443006 1.794
0.25635663 -0.34600279 1.794
0.26264757 -0.34600282 1.794
0.20760167 -0.33342087 1.794
0.21546538 -0.3334209 1.794
0.22175634 -0.33184814 1.794
0.23538674 -0.33394513 1.794
0.24251649 -0.3362518 1.794
0.20812593 -0.32660568 1.794
0.21625176 -0.32477078 1.794
0.22490181 -0.32510781 1.7939999
0.23394507 -0.32595038 1.7939999
0.24062921 -0.3271299 1.794
0.21703811 -0.31612074 1.794
0.22490181 -0.31926623 1.794
0.23119278 -0.31926623 1.794
0.19659249 -0.30314565 1.7939999
0.20602894 -0.3035388 1.7939999
0.21456666 -0.30713364 1.7939999
0.18401058 -0.29095688 1.794
0.19524445 -0.29500109 1.7939999
0.20288345 -0.29724786 1.794
0.077064261 -0.28152046 1.794
0.14671418 -0.28376725 1.7939999
0.15633036 -0.28277868 1.794
0.16513769 -0.28152046 1.794
0.17457414 -0.28309321 1.794
0.18356122 -0.28556466 1.7939999
0.19030154 -0.28623867 1.794
0.067627817 -0.27365676 1.794
0.074967273 -0.27313253 1.794
0.081782475 -0.27208403 1.794
0.13892537 -0.27418101 1.794
0.14626481 -0.27522948 1.794
0.15570126 -0.27522948 1.794
0.16513769 -0.27522948 1.794
0.17457414 -0.27562267 1.7939999
0.18086509 -0.27680224 1.794
0.065381043 -0.26579309 1.7939999
0.074311964 -0.26539987 1.7939999
0.083355218 -0.26500669 1.7939999
0.097509876 -0.26264757 1.794
0.10537358 -0.26264757 1.794
0.11638276 -0.26264757 1.794
0.12424646 -0.26390576 1.794
0.13568456 -0.2655071 1.7940001
0.14563572 -0.26768035 1.794
0.15570126 -0.26736581 1.794
0.16513769 -0.26736581 1.794
0.17142867 -0.26893854 1.794
0.02988206 -0.25006565 1.794
0.03617302 -0.25085205 1.794
0.045609463 -0.25195295 1.794
0.055495258 -0.25231245 1.7939999
0.063433848 -0.2558324 1.794
0.073132411 -0.25871575 1.794
0.085871607 -0.25887302 1.794
0.095937133 -0.25792935 1.794
0.10537357 -0.25792935 1.794
0.11481002 -0.25792941 1.794
0.12267372 -0.25950211 1.794
0.02988206 -0.24692018 1.794
0.037221514 -0.2448232 1.794
0.042463981 -0.24534744 1.794
0.05347316 -0.24692018 1.794
0.06133686 -0.24534744 1.794
0.14941029 -0.23119278 1.794
0.15570126 -0.23328976 1.794
0.16513769 -0.23433824 1.794
0.17142867 -0.23433825 1.794
-0.0047182199 -0.17771962 1.794
0.00157274 -0.17771962 1.794
0.01730014 -0.17457414 1.794
0.020445621 -0.17457414 1.794
0.058191381 -0.16199222 1.794
0.064482339 -0.16199222 1.794
0.070773296 -0.16356495 1.794
0.084927961 -0.16199222 1.794
0.092791662 -0.16199222 1.794
0.065111436 -0.15758856 1.794
0.073918782 -0.15674977 1.794
0.084253922 -0.15749869 1.7939999
0.095937133 -0.15779825 1.794
0.10615996 -0.1549149 1.794
0.11481002 -0.15255578 1.794
0.12110098 -0.15255578 1.794
0.15570126 -0.15334214 1.794
0.16513769 -0.15255578 1.794
0.17457414 -0.15255578 1.794
0.18715605 -0.15570125 1.794
